ply
format ascii 1.0
comment PCL generated
element vertex 1332
property float x
property float y
property float z
element camera 0
property float view_px
property float view_py
property float view_pz
property float x_axisx
property float x_axisy
property float x_axisz
property float y_axisx
property float y_axisy
property float y_axisz
property float z_axisx
property float z_axisy
property float z_axisz
property float focal
property float scalex
property float scaley
property float centerx
property float centery
property int viewportx
property int viewporty
property float k1
property float k2
end_header
-0.18825395 0.45771259 -0.21462309
-0.16052024 0.45712107 -0.21942604
-0.13352373 0.45865202 -0.20699728
-0.18824667 0.48520684 -0.2147584
-0.1332473 0.48528272 -0.2141788
-0.18824147 0.51270443 -0.21485496
-0.13322425 0.51271492 -0.21477783
-0.188255 0.5402512 -0.21460378
-0.13348715 0.54122478 -0.20794725
-0.18870044 0.56903589 -0.20633745
-0.1610361 0.56874019 -0.20825756
-0.18918787 -0.67360961 -0.19729185
-0.16163179 -0.67398155 -0.19536006
-0.1337623 -0.64531648 -0.20079887
-0.13375631 -0.5348193 -0.20095468
-0.1891721 -0.50769508 -0.19758451
-0.1615606 -0.50779498 -0.19690192
-0.18976124 0.40570343 -0.18665135
-0.16225179 0.40621156 -0.18193674
-0.13408218 0.4327569 -0.19248807
-0.13416955 0.57151759 -0.19021797
-0.1899242 0.60028267 -0.18362761
-0.21878262 -0.67970175 -0.16563642
-0.13516843 -0.67996556 -0.16426635
-0.21873622 -0.51225758 -0.16639042
-0.13458452 -0.51034933 -0.17943728
-0.19046466 -0.48337585 -0.17359757
-0.1629781 -0.4843992 -0.16621184
-0.21879365 0.40798759 -0.16545784
-0.21873741 0.57518911 -0.16637075
-0.21885356 0.60337752 -0.16448486
-0.16263424 0.60189474 -0.17365682
-0.21943478 -0.59782827 -0.15504682
-0.21973516 -0.57064629 -0.15016901
-0.21908005 -0.48514813 -0.16080701
-0.19173685 -0.4306283 -0.14998889
-0.19166782 -0.40247095 -0.15126956
-0.16407208 -0.40348053 -0.14252651
-0.1916786 -0.37449288 -0.15106976
-0.19169369 -0.34651989 -0.15078962
-0.19170772 -0.31854069 -0.15052927
-0.19172175 -0.29055738 -0.15026891
-0.19173685 -0.26257169 -0.14998877
-0.19175196 -0.23458169 -0.14970863
-0.19176598 -0.20658618 -0.14944828
-0.19178 -0.1785865 -0.14918792
-0.19179511 -0.15058386 -0.14890754
-0.19180915 -0.12257613 -0.14864707
-0.19183613 -0.094571866 -0.14814627
-0.19186313 -0.066559844 -0.147645
-0.19189122 -0.038540423 -0.14712381
-0.19191931 -0.010512836 -0.14660239
-0.19194634 0.01752256 -0.146101
-0.19197446 0.045566067 -0.14557922
-0.19199933 0.073616505 -0.14511788
-0.19202204 0.10167322 -0.14469612
-0.19204369 0.12973563 -0.14429438
-0.19206533 0.15780446 -0.14389288
-0.19208698 0.18587926 -0.14349115
-0.19210972 0.21396141 -0.14306915
-0.19213139 0.24204901 -0.14266694
-0.19184369 0.38184363 -0.14800596
-0.13561326 0.40936148 -0.1527096
-0.21944587 0.49304479 -0.15486717
-0.21976723 0.52173966 -0.14964843
-0.19309242 -0.88497621 -0.12483227
-0.16482657 -0.88464135 -0.12619162
-0.19271472 -0.85510051 -0.13184142
-0.16449651 -0.85474354 -0.13333714
-0.19247423 -0.82592058 -0.13630462
-0.16432872 -0.82576692 -0.13697004
-0.13670501 -0.82868266 -0.12434494
-0.19240253 -0.79750878 -0.13763523
-0.1642589 -0.79731983 -0.1384815
-0.13668782 -0.800376 -0.1247915
-0.13670814 -0.77228636 -0.12426364
-0.19232653 -0.76910031 -0.13904548
-0.1642766 -0.76930422 -0.13809884
-0.22066233 -0.65745187 -0.13511407
-0.22070707 -0.62945664 -0.13438749
-0.22050086 -0.54455233 -0.13773608
-0.22088753 -0.43291074 -0.13145733
-0.22080411 -0.40460223 -0.13281178
-0.13656527 -0.40516067 -0.12797558
-0.1365871 -0.37704307 -0.12740791
-0.2208091 -0.37646937 -0.13273072
-0.16409716 -0.37547213 -0.14198363
-0.22082527 -0.34835345 -0.1324681
-0.16412224 -0.34745544 -0.14144063
-0.13660896 -0.34891653 -0.12684035
-0.22084145 -0.32023335 -0.13220549
-0.16414732 -0.31943035 -0.14089739
-0.13663082 -0.32078135 -0.12627256
-0.22085764 -0.29210925 -0.13194251
-0.16417149 -0.29139513 -0.1403743
-0.13665189 -0.29263568 -0.12572503
-0.22087382 -0.2639811 -0.13167977
-0.16419658 -0.26335365 -0.13983095
-0.13667375 -0.26448321 -0.12515676
-0.22089002 -0.23584904 -0.13141668
-0.16422169 -0.23530374 -0.13928723
-0.13669564 -0.23632203 -0.12458861
-0.22090495 -0.20771149 -0.13117409
-0.16424681 -0.20724536 -0.1387434
-0.13671674 -0.20815089 -0.12404037
-0.22092116 -0.17957143 -0.13091111
-0.13673863 -0.17997235 -0.12347174
-0.16427194 -0.17917873 -0.13819945
-0.22093736 -0.15142731 -0.13064814
-0.16429706 -0.15110356 -0.1376555
-0.13676052 -0.15178496 -0.12290287
-0.22095355 -0.12327902 -0.13038492
-0.1643222 -0.12302029 -0.13711119
-0.22096975 -0.0951268 -0.13012195
-0.16434641 -0.094927743 -0.13658702
-0.22098596 -0.066970579 -0.12985885
-0.16437156 -0.066827677 -0.13604236
-0.22100216 -0.038810197 -0.12959588
-0.16439673 -0.038719274 -0.13549757
-0.22101839 -0.010645814 -0.12933242
-0.1644219 -0.010602526 -0.13495255
-0.22103459 0.01752262 -0.12906933
-0.16444707 0.01752262 -0.13440752
-0.22105081 0.045695223 -0.12880599
-0.16447225 0.045656282 -0.13386238
-0.22106452 0.073871002 -0.12858319
-0.16449465 0.073797286 -0.13337755
-0.22107449 0.10204901 -0.12842131
-0.1645152 0.10194487 -0.1329329
-0.22108448 0.13022937 -0.12825906
-0.16453572 0.13009933 -0.13248837
-0.22109444 0.15841255 -0.12809694
-0.16455533 0.15825976 -0.13206398
-0.22110444 0.18659784 -0.12793481
-0.16457587 0.18642779 -0.1316191
-0.16459642 0.21460263 -0.13117421
-0.22111568 0.21478702 -0.12775254
-0.22112566 0.24297757 -0.12759042
-0.16461605 0.24278302 -0.13074923
-0.22113565 0.27117068 -0.12742829
-0.19215304 0.27014256 -0.1422652
-0.16463661 0.27097142 -0.13030422
-0.22114563 0.29936618 -0.12726605
-0.19217472 0.29824245 -0.14186299
-0.16465624 0.29916495 -0.12987924
-0.22115564 0.32756424 -0.12710392
-0.19219747 0.32635015 -0.14144075
-0.1646768 0.32736695 -0.12943387
-0.22057411 0.38299036 -0.13654649
-0.16471048 0.38377523 -0.12870479
-0.22062255 0.43930727 -0.13575983
-0.22055049 0.46728206 -0.13692963
-0.22134803 0.55350608 -0.12397933
-0.19261128 0.69274724 -0.13376117
-0.19270711 0.72122371 -0.1319828
-0.19286191 0.74994671 -0.12910986
-0.19305745 0.77887112 -0.12548137
-0.19350453 -0.91512209 -0.11718464
-0.16534996 -0.91571265 -0.1148597
-0.22228986 -0.88895357 -0.10868609
-0.13713218 -0.88783014 -0.11324656
-0.22217391 -0.86017686 -0.110569
-0.13684581 -0.85776228 -0.12068689
-0.10910596 -0.86159968 -0.10460687
-0.22199266 -0.83118433 -0.11351216
-0.10899106 -0.83237922 -0.108338
-0.22179788 -0.80218804 -0.11667502
-0.10897657 -0.80394393 -0.10880899
-0.22160219 -0.77323723 -0.11985254
-0.10899296 -0.77573222 -0.10827661
-0.25017965 -0.68944627 -0.11500251
-0.25059175 -0.66226643 -0.10905457
-0.25017685 -0.49148935 -0.11504328
-0.19403423 -0.46421713 -0.10735452
-0.24972944 -0.43413705 -0.12150049
-0.24981259 -0.40604699 -0.12030017
-0.10887893 -0.40700781 -0.11197972
-0.24986334 -0.37788802 -0.11956763
-0.10889655 -0.37876743 -0.1114074
-0.24990989 -0.34971154 -0.11889589
-0.10891419 -0.35051835 -0.11083472
-0.24995507 -0.32152307 -0.11824417
-0.10893182 -0.32226044 -0.11026192
-0.25000167 -0.29332614 -0.11757183
-0.10894947 -0.29399359 -0.10968912
-0.25004682 -0.26511747 -0.11691952
-0.1089671 -0.2657181 -0.10911608
-0.25009346 -0.23689987 -0.11624682
-0.10898414 -0.23743226 -0.10856318
-0.25013867 -0.20867094 -0.11559403
-0.10900179 -0.20913924 -0.10798967
-0.25018531 -0.18043302 -0.11492074
-0.10901945 -0.18083741 -0.10741615
-0.25023058 -0.15218383 -0.11426771
-0.10903649 -0.15252584 -0.1068629
-0.25027725 -0.1239254 -0.11359394
-0.13678242 -0.12358896 -0.12233388
-0.10905417 -0.12420651 -0.10628891
-0.25032252 -0.095655948 -0.11294019
-0.13680355 -0.095383532 -0.12178504
-0.10907184 -0.095878318 -0.10571456
-0.25036925 -0.067376859 -0.11226594
-0.13682546 -0.067170106 -0.1212157
-0.10908953 -0.067541376 -0.10514021
-0.25041458 -0.039087016 -0.11161184
-0.13684738 -0.038947929 -0.12064624
-0.10910659 -0.039195146 -0.10458636
-0.25046131 -0.010787426 -0.11093712
-0.13686852 -0.010716826 -0.12009692
-0.10912428 -0.010840638 -0.10401154
-0.25050667 0.017522678 -0.11028254
-0.13689046 0.01752262 -0.11952686
-0.10914198 0.01752262 -0.10343659
-0.2505421 0.045841649 -0.10977077
-0.13691239 0.045771051 -0.11895692
-0.25055626 0.074163735 -0.10956645
-0.136932 0.074027061 -0.11844778
-0.25056764 0.10248835 -0.10940254
-0.13695003 0.10229012 -0.11797917
-0.25057897 0.13081513 -0.10923862
-0.13696729 0.13055986 -0.11753094
-0.25059175 0.15914539 -0.10905457
-0.13698532 0.15883714 -0.11706209
-0.25060308 0.18747751 -0.10889077
-0.13700259 0.18712087 -0.11661375
-0.2506144 0.21581206 -0.10872698
-0.13701986 0.21541141 -0.11616516
-0.25062579 0.24414931 -0.10856307
-0.1370379 0.24370994 -0.11569595
-0.25063711 0.27248889 -0.10839927
-0.13705519 0.2720145 -0.11524713
-0.25064847 0.30083114 -0.10823548
-0.13707325 0.3003276 -0.1147778
-0.25065982 0.32917589 -0.10807145
-0.13709053 0.328646 -0.11432874
-0.25011322 0.41332203 -0.11596119
-0.25050241 0.49887109 -0.11034381
-0.25011465 0.58295327 -0.11594069
-0.22168243 0.66730607 -0.11854947
-0.19392498 0.66892922 -0.10938203
-0.22176148 0.69579458 -0.11726594
-0.16499536 0.69482076 -0.12253714
-0.13735344 0.69759923 -0.10749805
-0.22183554 0.72428745 -0.11606324
-0.16502352 0.72315884 -0.12192714
-0.13737632 0.72605038 -0.10690379
-0.22191094 0.75280297 -0.1148392
-0.16509585 0.75169796 -0.12036133
-0.13743474 0.75469494 -0.10538638
-0.22198638 0.78133762 -0.1136142
-0.16522187 0.78050226 -0.11763287
-0.22206815 0.80991328 -0.11228621
-0.19327524 0.80794054 -0.12143946
-0.16539711 0.80957872 -0.11383891
-0.22215755 0.8385371 -0.1108346
-0.19354628 0.83729255 -0.1164099
-0.16563794 0.83903056 -0.10862458
-0.22224952 0.86719269 -0.10934114
-0.19382687 0.86676294 -0.11120284
-0.22259164 0.89684081 -0.10378563
-0.19414471 0.89647859 -0.10530436
-0.19505866 -0.95093268 -0.08834362
-0.16610074 -0.94824696 -0.098604679
-0.22323069 -0.92116177 -0.093409061
-0.13761498 -0.91930884 -0.10070348
-0.10972799 -0.92344886 -0.08440578
-0.10933708 -0.89180744 -0.097101092
-0.081121795 -0.86547071 -0.088385105
-0.25232244 -0.83798283 -0.084073901
-0.081034392 -0.83611298 -0.092169762
-0.25219026 -0.80904007 -0.085981846
-0.081022464 -0.80754322 -0.092686415
-0.25205821 -0.78012693 -0.087888241
-0.081034869 -0.77920842 -0.092149258
-0.25192627 -0.75124359 -0.089792371
-0.2229006 -0.74937779 -0.098769426
-0.19486696 -0.75080532 -0.091901064
-0.16643232 -0.75090402 -0.091425776
-0.13799037 -0.75100297 -0.09095037
-0.10954047 -0.75109744 -0.090495586
-0.081047758 -0.75086987 -0.091591239
-0.25104073 -0.52159142 -0.10257399
-0.27989674 -0.43723887 -0.096317887
-0.27975085 -0.40859735 -0.098213315
-0.080949552 -0.40887094 -0.095843673
-0.27973339 -0.38016492 -0.098440051
-0.080962881 -0.38050693 -0.095266461
-0.27974766 -0.3517772 -0.098254561
-0.080976225 -0.35213405 -0.094688416
-0.27976352 -0.32338864 -0.098048687
-0.080989562 -0.3237524 -0.094110727
-0.27977777 -0.29499501 -0.097863197
-0.081002913 -0.2953617 -0.09353292
-0.27979362 -0.26660013 -0.097657323
-0.081016265 -0.26696217 -0.092954636
-0.2798079 -0.23820074 -0.097471833
-0.081029624 -0.23855375 -0.092376351
-0.27982375 -0.20979972 -0.097265959
-0.081042506 -0.21013525 -0.091818452
-0.27983806 -0.18139434 -0.097080588
-0.081055865 -0.18170916 -0.09123981
-0.27985391 -0.15298727 -0.096874356
-0.081069238 -0.15327425 -0.09066081
-0.27986819 -0.12457602 -0.096688986
-0.081082605 -0.12483029 -0.090081811
-0.27988404 -0.096162722 -0.096482873
-0.081095986 -0.096377634 -0.089502573
-0.27989832 -0.067745537 -0.096297383
-0.08110889 -0.067915462 -0.088943839
-0.2799142 -0.039326012 -0.096091032
-0.081122279 -0.039445009 -0.088364363
-0.27992848 -0.010903135 -0.095905423
-0.081135668 -0.010965746 -0.08778441
-0.08114858 0.01752262 -0.087225318
-0.27994436 0.017522737 -0.09569943
-0.27995864 0.04595137 -0.095513821
-0.10915906 0.04589469 -0.10288215
-0.081161983 0.04601974 -0.086645246
-0.27996978 0.07438235 -0.095369458
-0.10917551 0.074274927 -0.10234809
-0.081174418 0.074525021 -0.0861063
-0.27997613 0.10281433 -0.095286846
-0.10918943 0.10266168 -0.10189605
-0.081184953 0.10303676 -0.085650206
-0.27998248 0.13124725 -0.095204353
-0.10920399 0.13105577 -0.10142326
-0.081195965 0.13155614 -0.085173488
-0.2799904 0.15968247 -0.095101237
-0.10921791 0.15945639 -0.10097086
-0.081206508 0.16008216 -0.084716797
-0.27999675 0.18811814 -0.095018744
-0.10923248 0.18786499 -0.10049784
-0.081217043 0.18861504 -0.084260583
-0.2800031 0.21655528 -0.094936132
-0.10924642 0.21627988 -0.1000452
-0.08122807 0.2171564 -0.083783269
-0.28001103 0.24499479 -0.094833016
-0.10926098 0.24470294 -0.099571943
-0.28001741 0.27343452 -0.094750524
-0.10927492 0.27313191 -0.099119306
-0.28002533 0.30187732 -0.094647408
-0.10928887 0.30156779 -0.09866631
-0.28003171 0.33031958 -0.094564915
-0.10930283 0.33001059 -0.098213553
-0.28056163 0.35939163 -0.087680936
-0.25195351 0.44466054 -0.089399219
-0.25220463 0.47358286 -0.085774541
-0.2522707 0.53072244 -0.084820628
-0.2519578 0.55857307 -0.08933723
-0.25127009 0.67072064 -0.09926331
-0.1661521 0.67103428 -0.097492456
-0.13820234 0.67316765 -0.085442781
-0.25135994 0.69936049 -0.097966194
-0.109515 0.70058787 -0.091322303
-0.25145844 0.72804385 -0.096544623
-0.10953347 0.72916412 -0.090722919
-0.25155702 0.75674939 -0.09512198
-0.1095806 0.75793618 -0.089192271
-0.25165567 0.78547728 -0.093697906
-0.13753586 0.78359377 -0.10275888
-0.10966222 0.78696454 -0.086541653
-0.25175437 0.81422716 -0.092272758
-0.13768546 0.81280452 -0.098872304
-0.25185317 0.84299916 -0.090847135
-0.13790369 0.84247321 -0.093202472
-0.25195205 0.87179357 -0.089419842
-0.16595538 0.86894536 -0.10175204
-0.13819119 0.87264472 -0.085733056
-0.25213999 0.90091658 -0.086707234
-0.1663598 0.89941567 -0.092996001
-0.22320905 0.92767578 -0.093760014
-0.19465673 0.9271726 -0.095802307
-0.22456078 -0.95525968 -0.071810961
-0.13832536 -0.95252836 -0.0822469
-0.11030329 -0.95685327 -0.065722466
-0.081593901 -0.92763132 -0.067942381
-0.25258726 -0.89595807 -0.080251813
-0.081297144 -0.89582491 -0.080792189
-0.053008027 -0.89987278 -0.064359784
-0.052889772 -0.86937118 -0.072040677
-0.25245479 -0.8669554 -0.082163811
-0.052830666 -0.83987504 -0.075879812
-0.052822322 -0.81117421 -0.076421738
-0.052830342 -0.78271073 -0.075900674
-0.052839328 -0.75425243 -0.075316906
-0.25239149 -0.63854128 -0.08307755
-0.28238112 -0.61324 -0.064044952
-0.28238595 -0.58457917 -0.06398201
-0.28238273 -0.55590111 -0.064024091
-0.25306788 -0.55447078 -0.073314428
-0.052773919 -0.41075069 -0.079565287
-0.052782893 -0.38226199 -0.078982711
-0.052791864 -0.35376418 -0.078399897
-0.052800834 -0.32525754 -0.077817082
-0.052809816 -0.29674172 -0.077234149
-0.052818794 -0.26821727 -0.076650858
-0.052827775 -0.2396837 -0.076067448
-0.052836441 -0.21113983 -0.07550478
-0.05284543 -0.18258853 -0.074920654
-0.052854422 -0.1540283 -0.074336767
-0.052863415 -0.12545888 -0.073752522
-0.052872412 -0.096880525 -0.073168278
-0.052881412 -0.068293251 -0.072583675
-0.052890416 -0.039696869 -0.071998954
-0.052899096 -0.011091558 -0.071434855
-0.052908104 0.017522737 -0.070849895
-0.052917115 0.046145901 -0.070264578
-0.052925166 0.074776992 -0.069741845
-0.052932572 0.10341543 -0.069260716
-0.052939657 0.1320602 -0.068800449
-0.052946746 0.16071257 -0.068340182
-0.052954156 0.18937261 -0.067858934
-0.052961245 0.21803907 -0.067398071
-0.081238613 0.2457035 -0.083326697
-0.052968342 0.24671263 -0.066937447
-0.08124917 0.27425778 -0.082869887
-0.052975435 0.27539343 -0.066476583
-0.08125972 0.30281901 -0.08241272
-0.052982852 0.30408287 -0.065994501
-0.081270754 0.33138913 -0.081935167
-0.052989952 0.33277786 -0.065533519
-0.25342557 0.36119556 -0.068151712
-0.28238112 0.47625923 -0.064044952
-0.28238595 0.50493848 -0.06398201
-0.28238434 0.53360701 -0.064002872
-0.28175277 0.64690292 -0.072207808
-0.28186211 0.67576265 -0.070787072
-0.10996806 0.67473167 -0.076609254
-0.081562482 0.67602545 -0.069302678
-0.28197315 0.70464832 -0.069344282
-0.081431299 0.70360655 -0.074983239
-0.28208432 0.73355639 -0.067900658
-0.081444785 0.73230565 -0.074399233
-0.28219554 0.76248682 -0.066455841
-0.081480443 0.76120615 -0.072855115
-0.28230685 0.79143989 -0.065009594
-0.081541717 0.79036081 -0.070201874
-0.10978295 0.81630772 -0.082620621
-0.081634037 0.81984597 -0.06620419
-0.10995972 0.84611726 -0.076879978
-0.11019111 0.87642491 -0.069365263
-0.13853836 0.90330154 -0.076713324
-0.25335598 0.93373644 -0.06915617
-0.16685437 0.9305017 -0.082288265
-0.13895413 0.93453598 -0.065910816
-0.082029715 -0.96121156 -0.049070954
-0.053208273 -0.93184543 -0.051353455
-0.024467209 -0.90396196 -0.047759771
-0.024407389 -0.87331122 -0.05553019
-0.024377413 -0.84367526 -0.05942452
-0.28378472 -0.81800759 -0.045811772
-0.024372881 -0.81483722 -0.060013294
-0.28357777 -0.78861684 -0.048499942
-0.024376925 -0.78624856 -0.059487462
-0.28336951 -0.75926375 -0.051205397
-0.024381459 -0.75766486 -0.058898687
-0.22614366 -0.73151416 -0.046108365
-0.02448318 -0.73159891 -0.045684576
-0.28316316 -0.72995746 -0.053885818
-0.25423139 -0.72943002 -0.056520462
-0.024474705 -0.70257473 -0.04678607
-0.024479266 -0.67388028 -0.046193004
-0.28245217 -0.64207447 -0.063121915
-0.024483833 -0.64517671 -0.045600057
-0.25374204 -0.6133182 -0.063583374
-0.024488565 -0.61646783 -0.044985533
-0.2537595 -0.58468425 -0.063331723
-0.024493134 -0.58774608 -0.04439199
-0.28245217 -0.52736187 -0.063121915
-0.28320214 -0.47128057 -0.053379655
-0.024348788 -0.41264695 -0.063142776
0.0043291855 -0.41468495 -0.04549396
-0.024353312 -0.38403231 -0.062554955
0.0043291855 -0.38593501 -0.044900894
0.0043291855 -0.35717607 -0.044307232
-0.024357839 -0.35540861 -0.061967254
-0.024362365 -0.32677603 -0.061379075
-0.024366893 -0.29813427 -0.060790777
-0.024371423 -0.26948339 -0.060202479
-0.024375955 -0.24082358 -0.059613824
-0.024380324 -0.21215348 -0.059045911
-0.02438486 -0.18347564 -0.058457017
-0.024389395 -0.15478881 -0.057867646
-0.024394095 -0.1260938 -0.057257295
-0.024398632 -0.097388707 -0.056667805
-0.024403173 -0.068674497 -0.056078076
-0.024407879 -0.039951544 -0.05546701
-0.024412418 -0.011219073 -0.054876804
-0.024417127 0.01752262 -0.054265499
-0.024421671 0.046273593 -0.053674936
-0.024425894 0.075032726 -0.053126574
-0.02442963 0.10379903 -0.052641153
-0.024433367 0.1325728 -0.052155495
-0.024436943 0.1613532 -0.051691294
-0.024440682 0.19014199 -0.051205516
-0.024444422 0.21893798 -0.050719738
-0.024448162 0.24774146 -0.050233722
-0.024451742 0.27655101 -0.049768686
-0.024455486 0.30536932 -0.049282432
-0.02445923 0.33419532 -0.048795938
-0.22582197 0.36274934 -0.051332116
-0.28244734 0.44768727 -0.063184857
-0.28245702 0.56241649 -0.063058734
-0.25382057 0.64855552 -0.062450171
-0.22603676 0.65102905 -0.047844052
-0.05308919 0.67783403 -0.059087992
-0.053097934 0.70664793 -0.058520079
-0.053107005 0.73547506 -0.057930946
-0.053130992 0.76450497 -0.056373
-0.053172529 0.79379588 -0.053674936
-0.28241664 0.82041091 -0.063583493
-0.053234302 0.82341152 -0.049662948
-0.28253785 0.84943694 -0.062009215
-0.081767306 0.84978867 -0.060433626
-0.28266883 0.87851661 -0.060307384
-0.08194191 0.88023347 -0.052873254
-0.28291982 0.90799451 -0.057046771
-0.11047067 0.90722132 -0.060286403
-0.11080625 0.93860602 -0.04938817
-0.053502411 -0.96561438 -0.032248735
-0.024576103 -0.9363519 -0.033613801
0.0043291855 -0.90878248 -0.028190613
-0.28434017 -0.8773523 -0.038596034
0.0043291855 -0.87763661 -0.037404776
-0.28401971 -0.84752405 -0.042759061
0.0043291855 -0.84773469 -0.041846633
0.0043291855 -0.81871277 -0.042653084
0.033302415 -0.8227011 -0.024787784
0.0043291855 -0.79000521 -0.042058825
0.0043291855 -0.76128834 -0.041464567
-0.19789761 -0.73360544 -0.035659313
-0.16934611 -0.73507035 -0.02834022
0.0043291855 -0.73481363 -0.029622674
-0.28456789 -0.70471996 -0.035638213
0.0043291855 -0.70599276 -0.029024243
0.0043291855 -0.67716271 -0.028425813
0.0043291855 -0.64832741 -0.027805805
0.0043291855 -0.61947876 -0.027206659
0.0043291855 -0.59062093 -0.026607633
-0.024497701 -0.55901515 -0.043798327
0.0043291855 -0.56175405 -0.026008368
-0.024502276 -0.53027505 -0.043204546
0.0043291855 -0.53287786 -0.025408745
-0.024506845 -0.501526 -0.042610526
0.0043291855 -0.50399268 -0.024809122
-0.31417876 -0.47471684 -0.027121305
-0.25628754 -0.47475332 -0.026842952
-0.024511419 -0.47276759 -0.042016506
-0.31382412 -0.44524568 -0.031309843
-0.053584646 -0.44578809 -0.026907086
-0.024515996 -0.44400036 -0.04142189
0.033280667 -0.41674948 -0.027613163
-0.3134684 -0.41583776 -0.035510063
-0.31331158 -0.3867473 -0.037362337
0.033285443 -0.38786501 -0.026992798
-0.31330076 -0.35785818 -0.03749001
0.033290055 -0.35896868 -0.026393652
-0.31329176 -0.328973 -0.037596345
0.0043291855 -0.32840985 -0.04369247
0.03329467 -0.33006316 -0.025794148
-0.31328094 -0.30008745 -0.037724137
0.0043291855 -0.29963237 -0.04309833
0.03329945 -0.30115032 -0.025173306
-0.31327197 -0.27120566 -0.037830353
0.0043291855 -0.27084589 -0.04250443
0.033304065 -0.27222621 -0.024573565
-0.31326115 -0.24232392 -0.037958145
0.0043291855 -0.24205162 -0.041888952
-0.31325212 -0.2134456 -0.038064361
0.0043291855 -0.21324661 -0.041294575
-0.31324133 -0.1845677 -0.038191915
0.0043291855 -0.18443371 -0.04067874
-0.3132323 -0.15569268 -0.038298249
0.0043291855 -0.15561016 -0.040084004
-0.31322151 -0.12681854 -0.038425922
0.0043291855 -0.12677766 -0.039488792
-0.31321251 -0.097947046 -0.038532257
0.0043291855 -0.097936533 -0.038872361
-0.31320173 -0.069076724 -0.038659692
0.0043291855 -0.069085591 -0.03827703
-0.31319273 -0.04020863 -0.038766026
0.0043291855 -0.040225253 -0.03768158
-0.31318191 -0.011341948 -0.0388937
0.0043291855 -0.011356162 -0.037064314
-0.31317291 0.01752262 -0.039000034
0.0043291855 0.017522678 -0.036468506
-0.31316209 0.046385482 -0.039127588
0.0043291855 0.046410564 -0.03587234
-0.31314769 0.075245649 -0.039297581
0.0043291855 0.075307317 -0.035297275
-0.31312969 0.10410234 -0.03951025
0.0043291855 0.10421047 -0.034828544
-0.31311169 0.13295576 -0.039722562
0.0043291855 0.13312145 -0.034338593
-0.31309372 0.16180575 -0.039935231
0.0043291855 0.16204 -0.033848405
-0.31307572 0.19065264 -0.040147662
0.0043291855 0.19096623 -0.033357859
-0.31305775 0.21949618 -0.040359974
0.0043291855 0.21989858 -0.032888651
-0.31305775 0.24834959 -0.040360093
0.0043291855 0.24883991 -0.032398105
-0.31305593 0.27720147 -0.040381432
0.0043291855 0.27778846 -0.03190732
-0.31305414 0.30605304 -0.040402532
0.0043291855 0.30674309 -0.031437635
-0.31305414 0.33490586 -0.040402532
0.0043291855 0.33570683 -0.030946851
-0.31305236 0.36375695 -0.040423751
-0.19796763 0.36431724 -0.034359813
-0.024631189 0.3650471 -0.026457906
-0.31305057 0.39260775 -0.040445089
-0.28476477 0.39334482 -0.033080697
-0.024635969 0.39406967 -0.025836945
-0.31350267 0.42203581 -0.035105705
-0.02464075 0.42310172 -0.025216103
-0.31429297 0.45200747 -0.025772691
-0.053622227 0.45215815 -0.024466395
-0.024645364 0.45214099 -0.02461648
-0.053577729 0.48077792 -0.027356386
-0.053533632 0.50935656 -0.030220628
-0.053489599 0.53789169 -0.033080578
-0.31413531 0.56759775 -0.027634382
-0.053445306 0.56638044 -0.035957336
-0.31357485 0.59553003 -0.03425312
-0.053401411 0.59482872 -0.038808703
-0.3137536 0.6247716 -0.032141924
-0.28435326 0.62375575 -0.038425922
-0.053405669 0.62373859 -0.038532257
-0.31394526 0.65407163 -0.029878736
-0.19803311 0.65351856 -0.033144474
-0.053416144 0.65272123 -0.037851572
-0.3141335 0.68339914 -0.027655959
-0.024512399 0.680879 -0.041888952
-0.31432196 0.71276152 -0.025430322
-0.024517139 0.70983452 -0.041273475
-0.024518121 0.73870522 -0.041146159
-0.024530059 0.76786298 -0.039595127
-0.024551833 0.79731023 -0.036766529
-0.02458464 0.82710987 -0.032504678
-0.05332426 0.85349762 -0.043819666
-0.024631849 0.85739267 -0.026372194
-0.053441044 0.884076 -0.03623414
-0.08215344 0.91117638 -0.04371357
-0.053583328 0.91516662 -0.026992798
-0.082407862 0.94271779 -0.032696843
0.0043291855 -0.94164562 -0.012775302
0.033431109 -0.91373897 -0.0080698729
0.033350814 -0.88214779 -0.018500924
0.033311654 -0.85195136 -0.023587823
0.062577985 -0.85620934 -0.0051503181
0.062553339 -0.82672751 -0.0067511797
0.033307035 -0.7938571 -0.024187803
0.062562659 -0.79774606 -0.0061455965
0.033311654 -0.76500404 -0.023587704
0.062572323 -0.76875967 -0.0055180788
-0.14067645 -0.73650658 -0.021164179
-0.11189647 -0.73794407 -0.013982296
-0.083007045 -0.73939127 -0.0067511797
0.033403188 -0.73840135 -0.011697054
0.033407837 -0.70944357 -0.01109314
-0.28568211 -0.67850429 -0.021164179
0.033412658 -0.68048066 -0.01046741
-0.053904291 -0.65216237 -0.0061454773
0.033417311 -0.6515041 -0.0098628998
-0.31596595 -0.62306762 -0.0060158968
-0.053858366 -0.62254047 -0.0091286898
0.033421963 -0.62251848 -0.0092581511
0.03342662 -0.59352344 -0.0086534023
-0.31560546 -0.5932616 -0.010273099
-0.053812511 -0.59296519 -0.012106895
-0.31525305 -0.56353587 -0.014434576
-0.053767059 -0.56343979 -0.015059114
0.033431277 -0.56451917 -0.0080484152
0.033435937 -0.53550547 -0.0074431896
-0.31489599 -0.53386623 -0.018651485
-0.05372135 -0.53395742 -0.01802814
-0.31453606 -0.50425673 -0.022901773
-0.28552026 -0.50420636 -0.023266315
-0.053675707 -0.50452137 -0.020992398
0.033440597 -0.50648278 -0.0068377256
0.033445425 -0.47745347 -0.0062104464
-0.053630143 -0.47513163 -0.023952127
0.0043291855 -0.47509795 -0.024209261
-0.16959335 -0.44627082 -0.022987485
0.0043291855 -0.44619691 -0.023587704
0.033450086 -0.44841182 -0.0056045055
0.062510416 -0.41883665 -0.0095390081
0.062519729 -0.38981122 -0.0089343786
0.062529042 -0.36077636 -0.0083292723
0.062538691 -0.33173436 -0.007702589
0.062548012 -0.30268091 -0.0070971251
0.062557667 -0.27361977 -0.0064700842
0.033308685 -0.24329288 -0.023973465
0.062566996 -0.24454753 -0.0058643818
0.033313472 -0.21435153 -0.023352027
0.062576324 -0.21546599 -0.0052583218
0.033318091 -0.1853997 -0.022751689
0.062585987 -0.18637623 -0.0046305656
0.033322714 -0.15643856 -0.022151113
0.033327501 -0.12746891 -0.021529078
0.033332128 -0.098489113 -0.020928144
0.033336923 -0.069500618 -0.020305514
0.033341549 -0.040502071 -0.019704103
0.03334618 -0.011494424 -0.019102693
0.033350814 0.01752262 -0.018501043
0.033355612 0.046549 -0.017877698
0.033359915 0.075584084 -0.017318487
0.033363722 0.10462632 -0.016823769
0.033367366 0.13367538 -0.016350627
0.033371177 0.1627326 -0.015855551
0.033374988 0.19179733 -0.015360475
0.033378802 0.22087 -0.014865279
0.033382449 0.24994873 -0.014391541
0.03338626 0.27903646 -0.013896108
0.033390075 0.30813146 -0.013400435
0.033393726 0.33723271 -0.01292634
-0.16985916 0.36589932 -0.017232537
-0.05375579 0.36603248 -0.015791059
0.0043291855 0.36670792 -0.0084804296
-0.25704876 0.39506847 -0.015855551
-0.053711422 0.3947866 -0.018672705
0.0043291855 0.39586937 -0.0078538656
-0.28593507 0.42389256 -0.01787746
-0.053666789 0.42349452 -0.021571755
0.0043291855 0.42504042 -0.0072268248
0.0043291855 0.45421892 -0.0066211224
-0.31474683 0.48163307 -0.020412683
-0.024650151 0.48119205 -0.023995161
0.0043291855 0.48340899 -0.0059940815
-0.31489053 0.51086205 -0.018715978
-0.024654768 0.51024979 -0.023394942
0.0043291855 0.51260632 -0.0053881407
-0.31471595 0.53959644 -0.020777822
-0.024659885 0.53932595 -0.022730231
0.0043291855 0.54182202 -0.0047172308
-0.024665171 0.56841528 -0.022043943
-0.28569531 0.59757173 -0.020992398
-0.024670454 0.59751552 -0.021357179
-0.25657395 0.62629664 -0.022708654
-0.024675742 0.62662601 -0.020670414
-0.16980851 0.65602756 -0.018329144
-0.024681032 0.65574735 -0.019983292
0.0043291855 0.68405491 -0.023952127
0.033448257 0.68726128 -0.0058425665
0.0043291855 0.71314937 -0.02333045
0.033452585 0.71648449 -0.0052801371
-0.31451067 0.74215859 -0.023201942
0.0043291855 0.74215859 -0.023201942
0.033455085 0.74567014 -0.0049552917
-0.31470138 0.77159494 -0.020949602
0.0043291855 0.77148324 -0.021507502
-0.31489053 0.80106187 -0.018715739
0.0043291855 0.80113328 -0.018372059
-0.31508353 0.83057308 -0.016436577
0.0043291855 0.83114392 -0.013788342
-0.31527677 0.86012018 -0.014154553
0.0043291855 0.86157984 -0.0076161623
-0.31547207 0.88970786 -0.011848092
-0.024694592 0.88823611 -0.018221617
-0.024772739 0.91968226 -0.0080697536
-0.053757116 0.94690347 -0.01570487
0.033557091 -0.9469983 0.0082956553
0.062846147 -0.91874862 0.012267113
0.06267345 -0.8868134 0.0010502338
0.092142478 -0.86061025 0.01390624
0.092085965 -0.8307929 0.011458993
0.092100084 -0.80167234 0.012070537
0.092114717 -0.77254701 0.012704015
-0.05400639 -0.74083984 0.00048577785
0.062755816 -0.74202359 0.0063998699
0.062765539 -0.71293175 0.0070316792
-0.05399603 -0.71154255 -0.00018715858
-0.31699333 -0.68354464 0.0061169863
-0.053950295 -0.68183106 -0.0031576157
0.062774934 -0.68382627 0.0076416731
-0.31633461 -0.65295619 -0.0016622543
0.062784329 -0.65471148 0.0082520247
0.062793724 -0.62558728 0.0088623762
0.062803127 -0.59645379 0.0094732046
0.06281253 -0.56731081 0.010083795
0.062822275 -0.53816164 0.010716677
0.062831685 -0.50899988 0.011328101
-0.22895163 -0.47819906 -0.00051259995
0.062841102 -0.47982866 0.011939526
-0.14188926 -0.45037639 0.010345697
0.06285052 -0.45064801 0.012551069
0.092021964 -0.42094135 0.0086878538
0.092036568 -0.39177853 0.0093204975
0.092050679 -0.36260384 0.0099312067
0.09206479 -0.33341974 0.010542154
0.092079408 -0.30422825 0.011175275
-0.43441942 -0.27497649 0.01115334
-0.40516952 -0.27497649 0.01115334
0.092093527 -0.27502525 0.011786699
-0.43422794 -0.24561159 0.0094947815
0.092108153 -0.24581428 0.012420177
0.092122287 -0.21659236 0.01303184
0.09213642 -0.18736093 0.013643742
0.062595323 -0.15727572 -0.0040243864
0.092151061 -0.15812117 0.014277935
0.062604658 -0.12816605 -0.0034178495
0.092165202 -0.1288707 0.014890194
0.062614337 -0.09904775 -0.0027893782
0.06262368 -0.069919102 -0.0021823645
0.062633023 -0.040781241 -0.00157547
0.062642708 -0.011634156 -0.00094640255
0.062652059 0.01752256 -0.00033891201
0.062661417 0.046688676 0.00026869774
0.062670104 0.07586354 0.00083303452
0.062677801 0.10504563 0.0013327599
0.06268549 0.13423513 0.0018322468
0.062692851 0.16343178 0.0023101568
0.062700547 0.19263679 0.0028101206
0.062708244 0.22184935 0.0033100843
0.06271594 0.25106961 0.0038104057
0.062723309 0.28029621 0.0042887926
0.062731013 0.30953175 0.004789114
0.062738724 0.33877516 0.0052896738
-0.1414922 0.36749387 2.9921532e-05
0.033567667 0.36838448 0.0096695423
0.03357254 0.39768624 0.010302186
0.033577412 0.42699766 0.010935068
0.033582117 0.45631665 0.011546493
0.033586826 0.48564494 0.012157798
0.033591531 0.5149824 0.01276958
-0.083497748 0.5444842 0.014496565
0.033596918 0.54434186 0.013468981
-0.083429612 0.57332844 0.011546373
0.0043291855 0.57105088 -0.0040243864
0.033602301 0.57371187 0.01416862
-0.083362088 0.60213119 0.0086226463
0.0043291855 0.60029083 -0.0033310652
0.033607688 0.60309279 0.014868259
-0.083294168 0.63088602 0.0056813955
0.0043291855 0.62954128 -0.0026377439
-0.14136033 0.65855646 -0.0033960342
-0.11268591 0.66110569 0.011655569
-0.083226353 0.65959674 0.0027449131
0.0043291855 0.65880251 -0.0019439459
0.062848836 0.69049859 0.012441754
0.06285657 0.7198512 0.012944341
0.062864646 0.74921584 0.013468981
0.033468258 0.77513844 -0.0032442808
0.06289091 0.77882499 0.015174627
0.033494633 0.8049897 0.00018179417
0.033532612 0.83521855 0.005115509
0.033582959 0.86588204 0.011655688
0.0043291855 0.89266658 0.00096344948
0.0043291855 0.92437917 0.011611819
-0.024868045 0.95183402 0.0043104887
0.063120514 -0.95253426 0.030087948
0.092579879 -0.92381811 0.032846451
0.092302315 -0.89153302 0.020827532
0.12200834 -0.865071 0.033221602
0.12191252 -0.83495653 0.030110121
0.12192339 -0.8056367 0.030462861
0.12194309 -0.7763713 0.031102657
0.092391595 -0.74568492 0.02469337
0.12196212 -0.74709141 0.031720281
0.092405818 -0.71644932 0.025309086
0.092420042 -0.68720418 0.025925159
0.092434272 -0.65794969 0.026541233
0.092448503 -0.62868577 0.027157784
0.092462748 -0.59941238 0.027774334
-0.08395008 -0.57100582 0.034083247
0.092477493 -0.57013285 0.028412938
-0.083879717 -0.54113376 0.031036377
0.092491746 -0.54084015 0.029029846
-0.083809979 -0.51131225 0.028016567
0.092505999 -0.51153815 0.029646993
-0.083739832 -0.48153514 0.024979353
0.092520252 -0.48222673 0.030264258
-0.083670311 -0.45180804 0.02196908
0.092535026 -0.45290846 0.030904055
0.12183925 -0.39376265 0.027730227
0.12185892 -0.36444896 0.028368831
0.12187791 -0.33512348 0.028985858
0.12189691 -0.30578876 0.029603004
-0.3779425 -0.27653247 0.031367302
0.1219166 -0.27644593 0.030242324
0.12193561 -0.24709173 0.030859828
0.12195463 -0.21772824 0.03147769
0.12197434 -0.18835638 0.032117724
0.12199337 -0.15897365 0.032735825
0.12201242 -0.12958141 0.033354402
0.092179351 -0.099610962 0.01550293
0.12203147 -0.10017964 0.033972859
0.092193499 -0.070341587 0.016115546
0.1220512 -0.070768833 0.03461349
0.092208162 -0.041063406 0.016750693
0.092222326 -0.011775004 0.017363548
0.092236489 0.017522503 0.017977118
0.09225066 0.04682982 0.018590689
0.092264332 0.076146178 0.019182563
0.09227547 0.10546894 0.019665122
0.092287116 0.13479999 0.020169258
0.092298768 0.16413856 0.02067399
0.092310429 0.19348516 0.021178603
0.092321582 0.22283828 0.021661639
0.092333242 0.25220013 0.022166491
0.09234491 0.28156996 0.0226717
0.092356071 0.31094545 0.023154974
0.092367738 0.34033066 0.023660302
-0.11286505 0.36910528 0.01747334
-0.083907746 0.37047023 0.032250285
0.063088618 0.37007916 0.028016329
-0.083838977 0.39958459 0.029272318
0.063098118 0.39952075 0.028633356
-0.083770819 0.42865604 0.026321411
0.06310796 0.42897397 0.029272318
-0.083702266 0.45767987 0.023352504
0.063117459 0.45843476 0.029889584
-0.083633818 0.48665875 0.020388722
0.063126966 0.48790503 0.030506968
-0.08356598 0.5155952 0.017451286
0.063136473 0.51738465 0.031124711
0.063147344 0.54688597 0.031830907
0.063158222 0.57639855 0.032537103
0.063169099 0.60592186 0.033243775
0.033613078 0.63248461 0.015568376
0.063179985 0.63545614 0.033950806
0.033618469 0.66188693 0.016268849
0.06319087 0.66500121 0.034657955
0.092535026 0.69376737 0.030904055
0.092545219 0.72325099 0.031345248
0.092562027 0.75279647 0.032073617
0.092603341 0.7825653 0.033862233
0.062948562 0.80888432 0.018919349
0.063030012 0.83933425 0.024209857
0.063136473 0.87022835 0.031124592
0.033650018 0.8971476 0.020366788
0.033735719 0.92912513 0.031499863
0.0043291855 0.95681709 0.024539471
0.093037114 -0.95826459 0.052645087
0.12264216 -0.92898118 0.053805709
0.12224139 -0.8962968 0.040790081
0.15218003 -0.86958247 0.052756786
0.15203847 -0.83919114 0.049078703
0.15203676 -0.80963969 0.049034119
0.15206163 -0.78023243 0.049679995
0.15208563 -0.7508108 0.050303936
-0.11342278 -0.71842718 0.035586357
-0.084236771 -0.72052687 0.046496987
0.12233295 -0.7200008 0.043763518
-0.084232144 -0.69096798 0.046297193
0.12235209 -0.69061476 0.044385314
-0.084161334 -0.66090459 0.043230653
0.12237125 -0.66121918 0.045007586
-0.084090628 -0.63088942 0.040169358
0.12239041 -0.63181424 0.045629978
-0.084020555 -0.60092551 0.037134886
0.12241027 -0.6024031 0.0462749
0.12242944 -0.57297868 0.046897292
0.12244862 -0.54354465 0.04752028
0.12246781 -0.51410127 0.048143625
-0.17246746 -0.48340118 0.039238572
0.12248769 -0.48465097 0.048789263
-0.11348955 -0.4537524 0.037754655
0.12250689 -0.45518821 0.049412727
0.12252609 -0.4257158 0.05003655
0.1519331 -0.3957684 0.046341538
0.15195709 -0.36630982 0.046964169
0.15198192 -0.33684391 0.047609448
-0.37966594 -0.30739635 0.048588872
0.15200591 -0.30736619 0.048232675
-0.3496739 -0.27748001 0.043674827
0.1520299 -0.27787882 0.04885602
0.15205389 -0.24838184 0.049479604
0.15207878 -0.21887675 0.050125718
0.15210278 -0.18936041 0.05074954
0.1521268 -0.15983453 0.051373839
0.1521517 -0.13029979 0.05202055
0.15217574 -0.1007546 0.052645087
0.1521998 -0.071199834 0.053269982
0.15222386 -0.041635256 0.053894997
0.12207026 -0.041347865 0.035232544
0.12208932 -0.011917438 0.035851717
0.15224877 -0.012061341 0.054542661
0.12210908 0.01752262 0.036493301
0.12212815 0.046972312 0.037112713
0.12214588 0.076430872 0.037688255
0.12216155 0.10589689 0.038197517
0.12217656 0.13536996 0.038684845
0.12219224 0.16485143 0.039194345
0.12220793 0.19434087 0.039703727
0.12222363 0.22383787 0.040213585
0.12223865 0.25334147 0.040701509
0.12225436 0.28285438 0.041211605
0.12227006 0.31237489 0.041721582
0.1222851 0.34190142 0.042209625
0.092895649 0.37178838 0.046519518
0.092910029 0.40137297 0.047142267
0.092924416 0.43096709 0.047765255
0.092938811 0.46057087 0.048388362
0.092953213 0.49018413 0.049012184
0.092968121 0.51981002 0.049657822
0.092984587 0.54945511 0.050370812
0.093001068 0.57911116 0.051083922
0.093017541 0.60877842 0.05179739
-0.14309093 0.63668716 0.041566372
-0.11399617 0.63873059 0.054207563
0.093033507 0.63845295 0.052489042
0.093049996 0.6681419 0.053203106
0.12251101 0.69706815 0.04954648
0.12252267 0.72668356 0.049925208
0.1225508 0.75640762 0.050838828
0.12261605 0.78638732 0.052957654
0.092695281 0.81281751 0.037843227
0.092825338 0.84348679 0.043475032
0.092994884 0.87462461 0.050816536
0.063272998 0.90167987 0.039992094
0.06345132 0.93391579 0.051574469
0.033839531 0.96185368 0.044985533
0.15249591 -0.90111089 0.060962796
0.18269612 -0.87431192 0.073236585
0.18248805 -0.84357858 0.068731666
0.18246001 -0.81375444 0.068124294
0.18248805 -0.78419226 0.068731666
0.18251716 -0.75462526 0.069361806
0.15255111 -0.72358692 0.06239748
-0.11446765 -0.69525826 0.069519162
0.15257528 -0.69405866 0.063025355
0.15260033 -0.6645245 0.063676119
0.15262452 -0.63497669 0.064304471
0.15264872 -0.60541928 0.064933062
0.15267292 -0.57585222 0.06556201
0.15269713 -0.5462755 0.066190958
0.15272221 -0.51669222 0.066842794
-0.14377889 -0.48604482 0.059439898
0.15274644 -0.48709595 0.0674721
0.15277067 -0.45749021 0.068101764
0.15279491 -0.42787462 0.068731666
0.18232091 -0.39779139 0.065112948
0.18235099 -0.36819136 0.065764308
0.18238005 -0.33857912 0.066393137
0.18240911 -0.30895716 0.067022324
0.18243924 -0.27932745 0.067674518
0.18246832 -0.24968611 0.06830442
0.18249846 -0.22003637 0.068956733
0.1825286 -0.1903767 0.069609284
0.18255875 -0.16070682 0.070262074
0.18258788 -0.1310263 0.070892692
0.18261805 -0.10133667 0.071546078
0.18264823 -0.071636945 0.072199702
0.18267843 -0.04192717 0.072853446
0.18270864 -0.01220718 0.07350719
0.15227285 0.01752256 0.055167913
0.18273884 0.01752262 0.074161291
0.15229693 0.047116093 0.055793643
0.1523193 0.076718673 0.056374788
0.15233909 0.10632859 0.056889057
0.15235889 0.13594633 0.057403207
0.15237783 0.16557129 0.057895303
0.15239763 0.19520482 0.058410048
0.15241744 0.22484617 0.058924794
0.15243641 0.25449407 0.059417248
0.15245622 0.28415138 0.059932351
0.15247606 0.31381643 0.060447693
0.15249591 0.34348923 0.060962915
0.1229931 0.37351447 0.065202832
-0.1435947 0.40212464 0.05465436
-0.11456614 0.40393251 0.072718024
0.12301245 0.40324336 0.065831423
0.12303183 0.43298191 0.066460848
-0.11455296 0.46333075 0.072289824
0.12305121 0.46273023 0.067089796
-0.11445933 0.49267673 0.069249392
0.12307059 0.49248815 0.067719579
-0.11436655 0.52197945 0.066236019
0.12309068 0.52225894 0.068371654
-0.11427391 0.55123651 0.063227296
0.12311284 0.55204916 0.069091558
-0.11418073 0.58044469 0.060201287
0.12313432 0.58184713 0.06978929
-0.11408837 0.60961038 0.057202101
0.12315651 0.61165929 0.070509791
0.12317871 0.64148271 0.07123065
0.12320091 0.67131698 0.071951628
0.15278105 0.70040137 0.068371654
0.15279317 0.73014981 0.068686724
0.15283649 0.76005918 0.06981194
0.15292926 0.79024285 0.072222114
0.12273917 0.81678998 0.056956053
0.12292399 0.84768635 0.06295836
0.12316275 0.87906617 0.070712447
0.093211092 0.90634179 0.060178876
0.0934809 0.93875706 0.071861506
0.063668057 0.96694458 0.065651894
0.12330926 -0.96406293 0.075470328
0.15306038 -0.93435687 0.0756284
0.18315247 -0.90639764 0.083116651
0.21331851 -0.84829026 0.089837551
0.2132401 -0.81812096 0.088382244
0.21327317 -0.78840417 0.088996172
0.21330748 -0.75868249 0.089632869
-0.1149387 -0.66826767 0.08481729
-0.11512621 -0.63948196 0.090906858
-0.11502959 -0.60911095 0.087768912
0.33280838 -0.60957402 0.09063375
-0.11493311 -0.57878876 0.084635735
0.33271593 -0.57954425 0.089541793
0.36281314 -0.57995057 0.092181563
-0.1148375 -0.54851902 0.081530452
-0.14435682 -0.51774698 0.074454665
-0.11474134 -0.51829475 0.078407645
-0.11464603 -0.48812187 0.075312257
0.21307611 -0.39997125 0.085339308
0.21311158 -0.37021619 0.085997343
0.21314704 -0.34045094 0.086655736
0.21318255 -0.31067556 0.087314367
0.21321806 -0.28088999 0.087973237
0.21325357 -0.2510944 0.088632464
0.21328908 -0.22128874 0.089291811
0.21332343 -0.19147159 0.089928389
0.21335897 -0.16164581 0.090588331
0.21339454 -0.13180977 0.091248155
0.21343011 -0.10196362 0.091908455
0.21346568 -0.0721073 0.092568755
0.2135013 -0.042240877 0.093229413
0.21353567 -0.012364006 0.093867779
0.18276908 0.047262758 0.074815869
0.18279618 0.077011645 0.075402737
0.18282016 0.10676817 0.075922251
0.18284415 0.13653269 0.076441407
0.18286817 0.16630501 0.07696116
0.18289217 0.19608568 0.077480793
0.18291722 0.22587527 0.078023314
0.18294124 0.25567198 0.078543425
0.18296526 0.28547674 0.079063654
0.18298928 0.31528938 0.079583645
0.18301333 0.34511024 0.080104351
0.15338436 0.37525493 0.084046125
0.15340881 0.40512967 0.084681273
-0.11464673 0.43393826 0.075335026
0.15343414 0.43501645 0.085339189
0.1534586 0.46491086 0.085974693
0.33306101 0.46579325 0.093616962
0.15348306 0.49481499 0.086610436
0.33268321 0.49512851 0.089155316
0.36275002 0.495417 0.091498613
0.15350841 0.52473211 0.087268949
0.33281609 0.52518415 0.090724945
0.15353639 0.55466878 0.087996006
0.15356351 0.5846132 0.088700414
0.15359153 0.61457193 0.089428306
0.15361954 0.6445421 0.090155959
0.15364756 0.67452353 0.090884089
0.18335161 0.70377517 0.087427974
0.18338203 0.73373395 0.088087082
0.18345554 0.76388246 0.089678168
0.18359116 0.7943244 0.092614412
0.15308557 0.82080728 0.076283574
0.1533294 0.8519237 0.082617998
0.15364581 0.88355917 0.090838552
0.12346659 0.91105306 0.080579519
0.12383926 0.94372582 0.092682719
0.09382046 0.97209626 0.086565137
0.15394421 -0.96993637 0.098591328
0.18393795 -0.94039065 0.10012269
0.2143086 -0.91238612 0.10821128
0.21365488 -0.87958741 0.096079707
0.24453638 -0.85322833 0.11195779
0.24434526 -0.82253367 0.10885429
0.24438345 -0.79266065 0.10947466
0.24442168 -0.76277798 0.11009514
0.33347255 -0.64076406 0.098477244
0.36415184 -0.64215213 0.10667336
0.36298993 -0.61013359 0.094095469
0.33313051 -0.55040687 0.09443748
0.36343691 -0.55106455 0.098934054
0.33403456 -0.52199519 0.10511398
0.2441601 -0.40218145 0.10584784
0.24420108 -0.37226915 0.1065129
0.24424203 -0.34234667 0.10717845
0.24428304 -0.31241393 0.10784388
0.24432404 -0.28247088 0.10850978
0.24436365 -0.25251615 0.10915303
0.2444047 -0.22255278 0.10981917
0.24444574 -0.1925794 0.11048591
0.24448679 -0.16259557 0.11115253
0.24452788 -0.13260153 0.11181951
0.24456756 -0.10259649 0.11246371
0.24460866 -0.07258223 0.1131314
0.2135713 0.01752256 0.094528675
0.21360694 0.047419466 0.095190048
0.2136389 0.077325352 0.095783234
0.21366841 0.1072394 0.096330881
0.2136967 0.13716127 0.09685576
0.21372499 0.16709107 0.097380757
0.21375328 0.19702902 0.097906232
0.21378283 0.22697632 0.098454237
0.21381114 0.25693065 0.098979592
0.21383949 0.28689301 0.099505663
0.21386784 0.31686354 0.10003126
0.21389619 0.34684217 0.10055733
0.33393946 0.43702668 0.10399091
0.36471647 0.43797451 0.11278605
0.36330608 0.46624362 0.097517848
0.36300677 0.52564925 0.094277978
0.33351123 0.55618423 0.098934054
0.3642154 0.55735201 0.10736203
0.18454197 0.67830294 0.11320031
0.21426037 0.67730641 0.10731626
0.21429622 0.70741445 0.10798168
0.21433461 0.73754102 0.10869372
0.21443489 0.76790005 0.11055481
0.18380392 0.82515895 0.097220898
0.18411133 0.85650599 0.10387635
0.1845324 0.88850474 0.11299324
0.15404366 0.91580951 0.10117495
0.12430187 0.97730416 0.10770631
0.21538059 -0.94728386 0.12810504
0.24502331 -0.88508022 0.11986446
0.27584016 -0.82717818 0.13040268
0.27582407 -0.79696208 0.1301707
0.27586755 -0.76692158 0.13079762
0.30571517 -0.67566502 0.12659788
0.33510178 -0.67409289 0.1177175
0.30559388 -0.64525968 0.12502217
0.30559742 -0.61514074 0.12506878
0.3960892 -0.61532038 0.12618065
0.30559567 -0.58501029 0.12504554
0.39521226 -0.5838359 0.11741745
0.30559388 -0.55488026 0.12502241
0.39675823 -0.55602759 0.13286602
0.30559209 -0.52475059 0.12499928
0.36488664 -0.5233134 0.11462808
0.30612612 -0.4955321 0.13193619
0.3358891 -0.49488807 0.12701499
0.27557495 -0.40441519 0.12657475
0.27562153 -0.37434405 0.12724686
0.27566653 -0.34426051 0.12789619
0.27571312 -0.31416881 0.12856901
0.27575976 -0.28406692 0.12924194
0.2758064 -0.25395453 0.12991512
0.27585304 -0.22383198 0.13058865
0.27589813 -0.19369775 0.13123906
0.2759448 -0.16355443 0.13191283
0.2759915 -0.13340092 0.13258696
0.27603823 -0.103237 0.13326132
0.24464978 -0.042557579 0.11379898
0.24469088 -0.012522532 0.11446702
0.24473204 0.017522737 0.11513495
0.24477179 0.047577992 0.11578035
0.24481013 0.077642873 0.11640275
0.24484278 0.10771528 0.11693323
0.24487546 0.13779585 0.11746371
0.24490957 0.16788529 0.11801744
0.24494226 0.19798248 0.11854815
0.24497639 0.228089 0.11910248
0.24500908 0.2582024 0.11963367
0.24504182 0.28832436 0.12016475
0.24507453 0.31845427 0.12069643
0.24510728 0.3485924 0.12122786
0.30609569 0.40981901 0.13154113
0.33577919 0.40923625 0.12571728
0.30559209 0.4392907 0.12499928
0.30558854 0.46941173 0.12495279
0.39651638 0.47004628 0.1304493
0.30559567 0.49954903 0.12504554
0.39512685 0.49850434 0.11656439
0.30559209 0.52966958 0.12499905
0.39602196 0.52973628 0.12550867
0.30559388 0.55979908 0.12502229
0.33518386 0.58899897 0.11868691
0.30578476 0.59028834 0.12750208
0.24552937 0.68082297 0.12808192
0.24557081 0.71109235 0.12875473
0.24563226 0.74143177 0.12975276
0.24574812 0.77195686 0.13163424
0.21462709 0.79862911 0.11412144
0.21491413 0.82977891 0.1194489
0.21530437 0.86142343 0.12669063
0.1850602 0.92117774 0.1244204
0.15453309 0.94878691 0.11389112
0.24589418 -0.91854179 0.13400567
0.27679279 -0.89068943 0.14415276
0.27613494 -0.85829592 0.13465726
0.30769435 -0.80156332 0.15230823
0.30774498 -0.77135843 0.15296578
0.36690894 -0.67742193 0.13652015
0.36769614 -0.49724728 0.1450417
0.30735308 -0.40671086 0.14787483
0.3074072 -0.37647879 0.14857781
0.30746132 -0.34623593 0.14928126
0.30751547 -0.31598222 0.14998472
0.30756965 -0.28571784 0.15068865
0.30762386 -0.25544268 0.15139258
0.30767807 -0.22515641 0.15209675
0.30773231 -0.19485965 0.15280151
0.27608335 -0.073062219 0.13391268
0.27613008 -0.04287757 0.13458741
0.27617687 -0.012682645 0.13526273
0.27622366 0.017522678 0.13593793
0.27627045 0.047738399 0.13661337
0.27631244 0.077963397 0.13721931
0.27634954 0.10819604 0.13775516
0.27638832 0.13843778 0.13831484
0.27642551 0.16868727 0.13885105
0.27646264 0.19894491 0.13938761
0.27650148 0.22921215 0.13994741
0.27653867 0.25948673 0.14048445
0.27657747 0.28977084 0.14104474
0.2766147 0.32006204 0.14158189
0.36754921 0.41101086 0.14345133
0.36715874 0.59200287 0.13922429
0.27713349 0.68437761 0.14907026
0.27718061 0.71480966 0.14975011
0.27727163 0.74536926 0.15106416
0.24600886 0.80298162 0.13586795
0.24638377 0.83445686 0.14195573
0.24687968 0.8664493 0.15000808
0.21581398 0.89367396 0.1361475
0.2164838 0.92675668 0.14857781
0.18571058 0.95465988 0.13850129
0.24735877 -0.95459574 0.15778756
0.27799711 -0.92511147 0.1615355
0.30839559 -0.86426991 0.16141737
0.30782819 -0.83227468 0.15404677
0.18647963 -0.74143749 0.15515172
0.21763305 -0.74427688 0.1699053
0.27849004 -0.68311059 0.16865003
0.27848509 -0.65263635 0.1685791
0.27849004 -0.62218589 0.16865003
0.27849004 -0.59172368 0.16865003
0.27848673 -0.5612545 0.16860282
0.27848837 -0.53079575 0.16862631
0.27849168 -0.50033981 0.16867352
0.30871737 -0.46949846 0.16559792
0.30778655 -0.16455182 0.1535064
0.30784085 -0.13423325 0.15421152
