ply
format ascii 1.0
comment PCL generated
element vertex 1332
property float x
property float y
property float z
element camera 0
property float view_px
property float view_py
property float view_pz
property float x_axisx
property float x_axisy
property float x_axisz
property float y_axisx
property float y_axisy
property float y_axisz
property float z_axisx
property float z_axisy
property float z_axisz
property float focal
property float scalex
property float scaley
property float centerx
property float centery
property int viewportx
property int viewporty
property float k1
property float k2
end_header
0.15277754 -0.60839957 -0.23391736
0.17867205 -0.60655749 -0.24432111
0.15273379 -0.58183211 -0.23505402
0.17864932 -0.58017927 -0.24481332
0.15292807 -0.55628175 -0.23000634
0.17880182 -0.5544219 -0.2415117
0.17916782 -0.52932531 -0.23358738
0.17898419 0.44612473 -0.23756313
0.20573835 0.44711369 -0.23000658
0.15276694 0.4729389 -0.23419249
0.20567597 0.47335851 -0.23116422
0.15256399 0.49854052 -0.23946536
0.15259637 0.5250023 -0.23862433
0.20578393 0.5264594 -0.22916055
0.15290472 0.55263621 -0.23061287
0.20562847 0.55240464 -0.23204553
0.17929417 0.57899618 -0.23085189
0.20591584 0.57969725 -0.22671306
0.17956278 -0.6628589 -0.22503614
0.20671719 -0.66539824 -0.21184123
0.12721056 -0.63962293 -0.2076751
0.1531066 -0.63635415 -0.22536802
0.2068765 -0.63939953 -0.20888519
0.12691663 -0.61135578 -0.21722043
0.12685907 -0.5845356 -0.21908987
0.12699595 -0.55876511 -0.21464431
0.15335536 -0.53158575 -0.21890485
0.20670217 -0.53263038 -0.21211994
0.18002649 -0.50566685 -0.21499658
0.20691261 -0.50665873 -0.208215
0.17987846 0.4221625 -0.21820164
0.20623595 0.42184591 -0.22077227
0.12721285 0.45004594 -0.20760059
0.15321097 0.44807553 -0.22265625
0.1268699 0.47508025 -0.2187382
0.12672254 0.50087219 -0.22352386
0.20598234 0.50058633 -0.22547853
0.12676744 0.52755171 -0.22206557
0.12703881 0.55544257 -0.21325254
0.15360507 0.58211821 -0.21241701
0.2067202 0.60877067 -0.21178579
0.20758916 -0.69518191 -0.19565952
0.15385142 -0.66651899 -0.2060169
0.2072684 -0.56087196 -0.20161235
0.12732133 -0.53386867 -0.20407736
0.15405117 -0.50773925 -0.20082724
0.20772772 -0.48218185 -0.19308853
0.2074337 0.39793637 -0.19854486
0.15393685 0.42393667 -0.20379746
0.18088587 0.61149651 -0.19639075
0.18144971 -0.69747895 -0.184183
0.12785318 -0.6702165 -0.18680489
0.1278619 -0.50983155 -0.18652213
0.15514453 -0.48504552 -0.1724211
0.1814131 -0.48330599 -0.18497539
0.155146 0.40095723 -0.17238319
0.18138783 0.39943993 -0.18552279
0.23526001 0.40014684 -0.17940068
0.23541515 0.42725191 -0.17688143
0.23547819 0.58830982 -0.17585731
0.15514965 0.61576378 -0.17228806
0.2351633 0.61422652 -0.18097103
0.15573743 -0.70291615 -0.15701711
0.23648512 -0.70241761 -0.15950751
0.23658064 -0.67576838 -0.15795624
0.23684414 -0.5146355 -0.15367758
0.23609908 -0.48596632 -0.16577613
0.23689856 0.51121724 -0.15279377
0.21026428 -0.62396294 -0.14601588
0.21074581 -0.59842467 -0.13707983
0.23770043 -0.59796846 -0.13977313
0.21086082 -0.46310148 -0.13494539
0.23763724 -0.46233547 -0.14079893
0.15659893 -0.38172412 -0.13463485
0.18349287 -0.38115153 -0.1399473
0.15659818 -0.35458297 -0.13465405
0.18349913 -0.35406676 -0.13981175
0.15659744 -0.32744187 -0.13467348
0.18350896 -0.32698691 -0.13959897
0.15659818 -0.30030453 -0.13465416
0.18350986 -0.29988754 -0.13957942
0.15659967 -0.27316833 -0.13461542
0.18351881 -0.27280119 -0.13938582
0.15659967 -0.24602881 -0.13461542
0.18351701 -0.24569573 -0.13942456
0.15659967 -0.21888947 -0.13461518
0.18351971 -0.21859682 -0.13936651
0.15660042 -0.19175106 -0.13459587
0.18351701 -0.19149074 -0.13942456
0.15660042 -0.16461144 -0.13459575
0.18351611 -0.16438745 -0.13944399
0.15660118 -0.13747257 -0.13457644
0.18352506 -0.13729258 -0.1392504
0.15660192 -0.11033336 -0.13455713
0.18352237 -0.11018708 -0.13930833
0.15660192 -0.083193459 -0.13455713
0.18351522 -0.083080158 -0.13946331
0.15660267 -0.056053847 -0.13453758
0.18350717 -0.055975221 -0.13963759
0.15660341 -0.028913945 -0.13451838
0.18350002 -0.028873354 -0.13979244
0.15660341 -0.0017737627 -0.13451815
0.18349287 -0.0017737627 -0.13994718
0.15660416 0.025366705 -0.13449883
0.1834857 0.025323499 -0.14010215
0.15660341 0.052506659 -0.13451815
0.18347946 0.052418597 -0.14023769
0.15660341 0.0796469 -0.13451827
0.18347409 0.079512224 -0.14035368
0.15660267 0.10678645 -0.1345377
0.18346782 0.10660329 -0.14048922
0.15660267 0.13392659 -0.13453758
0.18345888 0.13369009 -0.1406827
0.15660192 0.16106574 -0.13455713
0.18344906 0.16077298 -0.14089584
0.15659893 0.18820155 -0.13463473
0.18341689 0.18782645 -0.14159214
0.15659669 0.21533731 -0.13469291
0.18338475 0.21486942 -0.14228821
0.15659444 0.24247208 -0.1347512
0.18334725 0.24189363 -0.14310002
0.15659744 0.2696164 -0.13467371
0.18330173 0.26889184 -0.14408553
0.15660042 0.29676193 -0.13459599
0.18325534 0.29587349 -0.14508939
0.21097387 0.29691026 -0.13284731
0.15660192 0.32390505 -0.13455713
0.18316625 0.32275409 -0.14701867
0.21089536 0.32392853 -0.13430464
0.21074581 0.35079283 -0.13707983
0.26509029 0.40520605 -0.13558578
0.1846265 -0.76581973 -0.11540341
0.26651308 -0.6840257 -0.11504996
0.23881865 -0.65552258 -0.12161541
0.26647225 -0.49291345 -0.11563909
0.18403566 -0.46398482 -0.12819552
0.21128021 -0.40972635 -0.12716222
0.23938392 -0.41142663 -0.11243665
0.12996541 -0.38349447 -0.11820841
0.21130228 -0.3825736 -0.12675285
0.1299642 -0.35622472 -0.11824763
0.21132331 -0.3554126 -0.12636256
0.12996361 -0.32895753 -0.11826706
0.21134645 -0.32824937 -0.12593329
0.1299642 -0.30169383 -0.11824763
0.21137589 -0.30108935 -0.12538683
0.12996602 -0.27443287 -0.11818886
0.21133171 -0.27381578 -0.1262064
0.12996602 -0.24716693 -0.11818874
0.21133383 -0.24661413 -0.12616754
0.12996602 -0.21990113 -0.11818874
0.21135065 -0.21942881 -0.12585533
0.12996602 -0.19263516 -0.11818874
0.21137063 -0.19224201 -0.12548447
0.12996662 -0.16537009 -0.11816919
0.21146324 -0.16511166 -0.12376595
0.12996723 -0.13810474 -0.11814964
0.21147482 -0.13789696 -0.12355101
0.12996723 -0.11083852 -0.11814964
0.21147165 -0.11067048 -0.12360954
0.12996782 -0.08357282 -0.11812997
0.21146324 -0.083442748 -0.12376595
0.12996782 -0.056306485 -0.11812985
0.21145377 -0.056217004 -0.12394166
0.12996843 -0.029040208 -0.1181103
0.21144427 -0.028993933 -0.12411761
0.12996905 -0.0017738197 -0.11809075
0.21143587 -0.0017737059 -0.12427378
0.12996905 0.025492966 -0.11809075
0.21143271 0.025444817 -0.12433231
0.12996905 0.052759696 -0.11809075
0.21138009 0.052648496 -0.12530887
0.12996905 0.080026314 -0.11809075
0.21136537 0.079853259 -0.1255821
0.12996843 0.10729224 -0.1181103
0.21135065 0.10705376 -0.12585533
0.12996843 0.13455893 -0.1181103
0.21133697 0.13425097 -0.126109
0.12996782 0.16182457 -0.11813009
0.21132331 0.16144419 -0.12636256
0.21128231 0.18860626 -0.12712348
0.12996541 0.18908659 -0.11820829
0.12996301 0.21634746 -0.11828673
0.2112277 0.21574101 -0.12813711
0.12996119 0.24360867 -0.11834538
0.21115105 0.24283166 -0.12955916
0.12996361 0.27087936 -0.1182673
0.21113007 0.26998025 -0.12994862
0.23934154 0.27127522 -0.11312485
0.12996602 0.29815137 -0.1181885
0.23924597 0.29844871 -0.11467707
0.12996782 0.32542267 -0.11812985
0.23913717 0.32557854 -0.11644351
0.18476261 0.35325682 -0.11245632
0.2389199 0.35250479 -0.11997128
0.26575366 0.43351746 -0.12601137
0.23929921 0.48961923 -0.11381269
0.23914562 0.54383451 -0.11630607
0.23869945 0.56994379 -0.12355101
0.2663078 0.57083911 -0.11801243
0.26541746 0.59592998 -0.13086343
0.26587808 0.62427533 -0.12421525
0.18433054 0.67917711 -0.12181091
0.21155065 0.67911327 -0.12214339
0.23918913 0.68037248 -0.11559963
0.18455671 0.7073952 -0.11691427
0.21172786 0.70700675 -0.118855
0.23935971 0.70821267 -0.11282992
0.21198794 0.73527068 -0.11402869
0.18556301 -0.82507706 -0.095127225
0.21278524 -0.82412893 -0.099232793
0.15792191 -0.79648721 -0.10026264
0.18500091 -0.79491693 -0.10729706
0.21237086 -0.79500055 -0.10692239
0.24033991 -0.79723483 -0.096913338
0.13068897 -0.77027988 -0.094710469
0.15761778 -0.76738 -0.10816467
0.21212035 -0.76664573 -0.11157119
0.24015072 -0.76914304 -0.099985242
0.15800349 -0.74211991 -0.098142982
0.18529201 -0.74152714 -0.10099494
0.21253896 -0.74094349 -0.10380304
0.24000326 -0.74123931 -0.1023798
0.26710078 -0.65830284 -0.10656738
0.24032767 -0.57776529 -0.097111821
0.26710349 -0.5215317 -0.10652781
0.10325241 -0.49587405 -0.094273448
0.10321114 -0.46819019 -0.096060395
0.10316991 -0.44053409 -0.097845435
0.10312872 -0.4129056 -0.099628925
0.18514496 -0.41238019 -0.10417855
0.10308256 -0.38528132 -0.1016283
0.23942873 -0.38419488 -0.111709
0.10308164 -0.35788399 -0.10166776
0.23946145 -0.35693231 -0.1111778
0.10308119 -0.33048907 -0.10168743
0.23949173 -0.32965779 -0.11068583
0.10308164 -0.30309781 -0.10166776
0.23944812 -0.3022742 -0.11139405
0.10308256 -0.27570766 -0.1016283
0.23955359 -0.27508783 -0.10968161
0.10308256 -0.24831428 -0.1016283
0.23958877 -0.24779591 -0.10911059
0.10308256 -0.22092088 -0.1016283
0.2396021 -0.22047344 -0.10889387
0.10308301 -0.19352862 -0.10160851
0.23961182 -0.19314454 -0.10873604
0.10308348 -0.16613592 -0.10158861
0.23962031 -0.1658121 -0.10859811
0.10308393 -0.13874298 -0.10156894
0.23962881 -0.13847777 -0.10846007
0.10308393 -0.11134914 -0.10156882
0.23963366 -0.11113942 -0.10838127
0.10308393 -0.083955303 -0.10156894
0.23963487 -0.083798453 -0.10836148
0.10308439 -0.056561854 -0.10154903
0.23963732 -0.056457419 -0.10832226
0.10308484 -0.029167892 -0.10152912
0.23964094 -0.029116102 -0.10826302
0.10308484 -0.0017737059 -0.10152924
0.23964337 -0.0017736491 -0.10822368
0.1030853 0.025620595 -0.10150945
0.23964699 0.025569372 -0.10816455
0.1030853 0.053014778 -0.10150957
0.23963973 0.052910686 -0.1082828
0.10308484 0.080408797 -0.10152912
0.23962395 0.080246888 -0.1085391
0.10308484 0.10780292 -0.10152936
0.23960818 0.10757928 -0.10879505
0.10308439 0.13519627 -0.10154915
0.2395924 0.13490753 -0.10905147
0.10308393 0.16258943 -0.1015687
0.23957662 0.16223207 -0.10930729
0.10308256 0.18997997 -0.1016283
0.23953415 0.18952911 -0.10999668
0.10308073 0.21736878 -0.10170734
0.23947233 0.21679634 -0.11100066
0.10307936 0.24475732 -0.10176671
0.23941056 0.24404818 -0.11200392
0.10308119 0.2721557 -0.10168743
0.10308301 0.29955551 -0.10160851
0.10308439 0.32695442 -0.10154915
0.26795664 0.32763201 -0.094213724
0.10313605 0.35457218 -0.099311948
0.26768166 0.35468522 -0.09818244
0.10318685 0.38222072 -0.097111821
0.18480621 0.38066855 -0.11151218
0.10323773 0.40990332 -0.094908834
0.24001908 0.4638494 -0.10212266
0.26758009 0.46417326 -0.099648714
0.26785347 0.54700661 -0.095703125
0.15762991 0.68186414 -0.10784912
0.26783836 0.68415946 -0.095921397
0.1578427 0.71031612 -0.10232031
0.26801035 0.71209371 -0.093438983
0.15807374 0.73895162 -0.096318245
0.18479805 0.73575681 -0.11168933
0.23961303 0.7363748 -0.10871625
0.18506652 0.76432562 -0.10587645
0.21229118 0.76378149 -0.10840106
0.23991683 0.764777 -0.10378325
0.18538071 0.79320484 -0.099074244
0.21266896 0.79268771 -0.10139072
0.24028739 0.79349697 -0.097766161
0.21369798 -0.85558307 -0.082293987
0.24123406 -0.85555911 -0.082394242
0.15846819 -0.8271687 -0.086069942
0.24062979 -0.82575154 -0.09220624
0.10371839 -0.80232871 -0.074095845
0.13092922 -0.79946852 -0.086907864
0.26922664 -0.80192977 -0.075882912
0.10355724 -0.77321935 -0.081073761
0.26900575 -0.77365088 -0.079071283
0.10359469 -0.74600482 -0.079451919
0.13077587 -0.74342 -0.091887832
0.26883236 -0.74556369 -0.081573963
0.1035836 -0.71834451 -0.07993269
0.10354199 -0.69043732 -0.08173418
0.10350043 -0.66255832 -0.083533764
0.10345938 -0.63471091 -0.085311294
0.24074376 -0.63381779 -0.090355515
0.26813158 -0.63358176 -0.09168911
0.1034179 -0.6068877 -0.08710742
0.2689544 -0.60812318 -0.079812527
0.10337647 -0.57909238 -0.08890152
0.2690821 -0.58085984 -0.077969074
0.10333508 -0.5513252 -0.090693951
0.24106178 -0.55217236 -0.085191488
0.26838958 -0.55174541 -0.087965012
0.076090783 -0.52606386 -0.075541615
0.10329372 -0.5235858 -0.092484474
0.076062985 -0.49821943 -0.077347517
0.076035209 -0.47040299 -0.079151392
0.076007463 -0.44261464 -0.080953717
0.075979747 -0.41485411 -0.082754254
0.15887806 -0.41570097 -0.075421214
0.26822394 -0.41397631 -0.090355635
0.075946517 -0.3870829 -0.084911942
0.26826534 -0.38656053 -0.089758277
0.075946212 -0.35955876 -0.08493197
0.26829019 -0.3591117 -0.089399695
0.075945899 -0.33203498 -0.084951997
0.26832604 -0.33167204 -0.088881731
0.075945899 -0.30451316 -0.084951997
0.26838958 -0.30425817 -0.087964892
0.075946517 -0.27699453 -0.084912062
0.26846007 -0.27683774 -0.086947918
0.075946823 -0.24947383 -0.084892035
0.26853609 -0.24940743 -0.085850477
0.075946823 -0.22195163 -0.084892035
0.26856095 -0.22191478 -0.08549118
0.075947128 -0.19443037 -0.084872127
0.2685914 -0.19442073 -0.085052013
0.075947441 -0.16690896 -0.084852099
0.26862183 -0.16692004 -0.084612489
0.075947441 -0.13938646 -0.084852338
0.26865229 -0.13941255 -0.084173083
0.075947747 -0.11186454 -0.084832191
0.26866889 -0.11189223 -0.083933234
0.075947747 -0.084341764 -0.084832191
0.26865643 -0.084358416 -0.084113121
0.075948052 -0.056819439 -0.084812164
0.26864398 -0.056827452 -0.084292889
0.075948052 -0.029296486 -0.084812284
0.26863015 -0.029298929 -0.084492803
0.075948365 -0.0017737059 -0.084792137
0.26861769 -0.0017737059 -0.084672451
0.075948671 0.025749415 -0.08477211
0.26860523 0.025748847 -0.084852219
0.075948671 0.05327259 -0.08477211
0.26858863 0.053267702 -0.085091591
0.075948365 0.08079537 -0.084792137
0.26858035 0.080785595 -0.085211515
0.075948365 0.10831838 -0.084792256
0.2685748 0.1083028 -0.085291266
0.075948052 0.13584059 -0.084812164
0.26856789 0.13581832 -0.085391402
0.075947747 0.16336252 -0.084832191
0.26856235 0.16333291 -0.085471153
0.075946517 0.19088092 -0.084912062
0.26852086 0.1908184 -0.086070061
0.075945288 0.21839802 -0.084992051
0.26843655 0.21825676 -0.087286949
0.07594467 0.24591671 -0.085032105
0.2683523 0.24567612 -0.088503003
0.075945899 0.27344397 -0.084951758
0.26825428 0.27306181 -0.089917541
0.075947128 0.30097255 -0.084872246
0.26810539 0.30036327 -0.092067003
0.075947747 0.32849851 -0.084832191
0.075984359 0.3562592 -0.082454085
0.15856119 0.35613918 -0.083653569
0.076018862 0.38404191 -0.080212831
0.29687077 0.38458195 -0.075200558
0.076053098 0.41185689 -0.077989101
0.076087385 0.43970633 -0.075762391
0.10328913 0.4376224 -0.092683315
0.29610011 0.43854266 -0.085211515
0.10334013 0.46537364 -0.090475082
0.29636627 0.46651486 -0.081753969
0.10339119 0.49315923 -0.088263869
0.26850563 0.49343279 -0.086289406
0.29667461 0.49461642 -0.077748537
0.10344278 0.52098221 -0.086029887
0.26854575 0.52102906 -0.085710883
0.29667926 0.52220243 -0.077688217
0.10349397 0.54883713 -0.083813429
0.29639092 0.54920328 -0.081433892
0.10354523 0.57672626 -0.08159399
0.29612011 0.57618356 -0.084952116
0.10359701 0.60465378 -0.079351783
0.10364839 0.63261253 -0.077126741
0.10369983 0.66060609 -0.074899077
0.13081326 0.6851694 -0.090674043
0.13098514 0.71376449 -0.085091829
0.26818672 0.7400794 -0.090892792
0.13117361 0.74255729 -0.078971148
0.15830708 0.76769263 -0.090256095
0.26836196 0.76810074 -0.088363409
0.1585335 0.79648709 -0.084372878
0.26854989 0.79620171 -0.085650802
0.15870211 0.8250246 -0.079992652
0.18586069 0.82301784 -0.088682413
0.21321425 0.82242018 -0.091271043
0.24083577 0.82297653 -0.088861585
0.26884344 0.82469654 -0.081413984
0.21410295 0.85382897 -0.074778557
0.2414609 0.85289067 -0.078710675
0.24231823 -0.91511422 -0.064789653
0.24245387 -0.88797975 -0.062587142
0.26988891 -0.88705927 -0.066323757
0.13189146 -0.86193937 -0.05565834
0.15933548 -0.86005902 -0.063537121
0.18658176 -0.85778403 -0.073070765
0.27000642 -0.85979867 -0.064628124
0.10403651 -0.83311534 -0.060320973
0.13135405 -0.83016151 -0.073110938
0.26953435 -0.83054692 -0.071441889
0.076317959 -0.80529994 -0.060786486
0.076253213 -0.77668571 -0.064991474
0.076285563 -0.74944699 -0.062890291
0.076285876 -0.72175944 -0.062869906
0.13162334 -0.72146028 -0.064365506
0.29824859 -0.72287405 -0.057301879
0.076257877 -0.69371772 -0.064688563
0.076229908 -0.66570425 -0.066505432
0.076201968 -0.63771921 -0.068320394
0.297638 -0.63826561 -0.065233946
0.076174051 -0.60976225 -0.070133448
0.29775926 -0.61085892 -0.063658476
0.076146163 -0.58183366 -0.071944594
0.29779354 -0.58324516 -0.063213825
0.048642136 -0.55656928 -0.056632519
0.29770952 -0.55538803 -0.064304948
0.076118611 -0.5539363 -0.073734164
0.048628084 -0.52856261 -0.058457255
0.048614204 -0.50058699 -0.060260177
0.13162459 -0.50002384 -0.064325094
0.048600189 -0.47263685 -0.062081337
0.13162459 -0.47234324 -0.064325094
0.048586182 -0.4447149 -0.063900828
0.13162459 -0.44466263 -0.064325213
0.26954547 -0.44380608 -0.071280599
0.29796788 -0.44507849 -0.060948491
0.04857219 -0.41682124 -0.065718412
0.13162459 -0.41698208 -0.064325094
0.29800215 -0.41742349 -0.060503125
0.048554488 -0.38890356 -0.06801796
0.29803646 -0.38976142 -0.060057759
0.048554331 -0.36124948 -0.068037987
0.29807231 -0.36209464 -0.059592009
0.048554175 -0.33359554 -0.068058252
0.29811284 -0.33442634 -0.059065223
0.048554175 -0.30594376 -0.068058252
0.29815966 -0.30675665 -0.058457375
0.048554488 -0.27829495 -0.068018079
0.29819554 -0.27906692 -0.057991266
0.048554644 -0.25064433 -0.067997813
0.29823142 -0.25136995 -0.0575248
0.048554644 -0.22299202 -0.067997932
0.29828298 -0.22367825 -0.056855559
0.048554797 -0.19534081 -0.067977548
0.29833606 -0.19597736 -0.056165814
0.048554797 -0.16768837 -0.067977667
0.2983892 -0.16826573 -0.055475712
0.048554953 -0.14003664 -0.06795752
0.048554953 -0.11238409 -0.067957401
0.048555106 -0.084731981 -0.067937374
0.29843137 -0.085032485 -0.054927468
0.048555106 -0.057079297 -0.067937374
0.29841262 -0.057275824 -0.055171132
0.048555262 -0.029426672 -0.067917228
0.29839545 -0.029523088 -0.05539453
0.29837826 -0.0017738197 -0.055617809
0.048555262 -0.0017737059 -0.067917347
0.048555419 0.025879372 -0.067897201
0.29835948 0.025971925 -0.055861473
0.048555419 0.05353228 -0.067897081
0.29834077 0.053713914 -0.056105018
0.048555419 0.081185356 -0.067896962
0.29832825 0.081454083 -0.056267381
0.048555262 0.10883798 -0.067917228
0.29831418 0.1091909 -0.05644989
0.048555262 0.1364909 -0.067917347
0.2983017 0.13692597 -0.056612253
0.048555106 0.16414289 -0.067937255
0.29828918 0.16465835 -0.056774497
0.048554488 0.19179107 -0.068018079
0.29823926 0.19236214 -0.057423472
0.048553865 0.21943842 -0.068098545
0.29815185 0.22002591 -0.058558702
0.048553556 0.24708712 -0.068138838
0.29806918 0.24767649 -0.05963254
0.048554175 0.27474451 -0.068058372
0.29788846 0.27521232 -0.061980247
0.048554797 0.30240321 -0.067977667
0.29778883 0.30280146 -0.063274264
0.048555106 0.3300592 -0.067937374
0.29759604 0.33025864 -0.065778971
0.048574522 0.3579644 -0.065415621
0.13162211 0.35806531 -0.064405918
0.29733217 0.35758486 -0.069206953
0.048591781 0.38587824 -0.063173294
0.13162273 0.38574749 -0.064385653
0.048609219 0.41382927 -0.060907841
0.13162273 0.41342762 -0.064385653
0.048626527 0.44181293 -0.05866015
0.13162334 0.44111028 -0.064365387
0.04864385 0.46983162 -0.056409359
0.076122016 0.46759349 -0.073512912
0.076156385 0.49551252 -0.071280837
0.076190792 0.52346641 -0.069046021
0.076225556 0.55145836 -0.066787839
0.076260053 0.57948208 -0.06454742
0.076294594 0.60754091 -0.062303901
0.13162459 0.6071986 -0.064324975
0.076329485 0.6356383 -0.060037374
0.13162522 0.63488275 -0.064304948
0.076364115 0.66376728 -0.057788372
0.13162522 0.66256338 -0.064304829
0.24263582 0.6634267 -0.059632421
0.26955527 0.6613006 -0.071139812
0.29718027 0.66129315 -0.071180344
0.076394409 0.69187695 -0.055820704
0.10373603 0.68850684 -0.073332071
0.29738179 0.68942493 -0.068562031
0.1038676 0.71725833 -0.06763494
0.29760382 0.71765012 -0.065678
0.10401034 0.74619806 -0.061454296
0.29783711 0.74595004 -0.0626477
0.10415356 0.7752375 -0.055252433
0.1313621 0.7714445 -0.072849393
0.29808947 0.77435005 -0.059369206
0.13154192 0.80036312 -0.067009807
0.29835793 0.8028475 -0.055881619
0.13166255 0.8289277 -0.063092351
0.15910019 0.85505289 -0.069650054
0.18684214 0.85558182 -0.067433238
0.2695148 0.85455817 -0.071723342
0.15958561 0.88579923 -0.057038069
0.24255227 0.884826 -0.060988784
0.27048588 0.88563424 -0.05770731
0.21547623 -0.91905063 -0.049294114
0.18824449 -0.89426517 -0.037071705
0.21526681 -0.890297 -0.053180456
0.07667423 -0.86623788 -0.037645578
0.10432834 -0.86384225 -0.047683954
0.048792712 -0.83848441 -0.037071705
0.076495521 -0.83567131 -0.049253225
0.29947954 -0.83750534 -0.041311741
0.048716359 -0.80837965 -0.046990752
0.29921675 -0.8088854 -0.044725418
0.048705526 -0.78026259 -0.048397303
0.2988494 -0.78002542 -0.049497604
0.048722479 -0.75291705 -0.046195149
0.29859874 -0.75155401 -0.052753448
0.048726723 -0.72520733 -0.045644045
0.27081782 -0.72375178 -0.052915931
0.048712589 -0.69702947 -0.047480226
0.29954097 -0.69837016 -0.040513754
0.04869847 -0.66888046 -0.04931426
0.048684362 -0.64075994 -0.051146626
0.048670273 -0.61266786 -0.052977085
0.020902356 -0.58740151 -0.037502289
0.048656195 -0.58460432 -0.054805756
0.020902356 -0.55923063 -0.039346576
0.020902356 -0.53108829 -0.041188955
0.020902356 -0.50297457 -0.043029547
0.020902356 -0.47488949 -0.044868231
0.29924664 -0.47495902 -0.044337273
0.020902356 -0.44683537 -0.046684742
0.24321231 -0.44639364 -0.050271273
0.020902356 -0.41880706 -0.048519731
0.020902356 -0.39074159 -0.050963402
0.020902356 -0.36295614 -0.050983906
0.020902356 -0.33516908 -0.051024437
0.020902356 -0.3073861 -0.051024556
0.020902356 -0.27960631 -0.050983906
0.020902356 -0.25182587 -0.050943017
0.020902356 -0.22404239 -0.050943017
0.020902356 -0.19625875 -0.050943017
0.020902356 -0.16847602 -0.050922751
0.020902356 -0.14069314 -0.050902367
0.2984423 -0.1405438 -0.054785371
0.020902356 -0.11290926 -0.050902367
0.29844856 -0.11279222 -0.05470407
0.020902356 -0.08512532 -0.050902486
0.020902356 -0.057341829 -0.050882101
0.020902356 -0.029557709 -0.050882101
0.020902356 -0.0017736491 -0.050861716
0.020902356 0.026010582 -0.050841212
0.020902356 0.053794868 -0.050841331
0.020902356 0.081579268 -0.050841331
0.020902356 0.10936321 -0.050861716
0.020902356 0.13714734 -0.050861597
0.020902356 0.16492975 -0.050902367
0.020902356 0.19270909 -0.050984025
0.020902356 0.22048871 -0.051044941
0.020902356 0.24826862 -0.051085591
0.020902356 0.27605727 -0.051004171
0.020902356 0.30384725 -0.050922751
0.020902356 0.33163485 -0.050881982
0.020902356 0.35968375 -0.048234224
0.020902356 0.3877345 -0.045950055
0.27077559 0.3869181 -0.053525925
0.020902356 0.41581815 -0.043683529
0.29988173 0.41669536 -0.036086917
0.32763204 0.41649386 -0.037830114
0.020902356 0.44393969 -0.041393518
0.32724717 0.44381881 -0.042375207
0.020902356 0.47209424 -0.039121032
0.32772928 0.47241333 -0.03668189
0.020902356 0.50028384 -0.036845922
0.048661359 0.49788827 -0.054135442
0.048678726 0.52597719 -0.051879048
0.048696116 0.55410147 -0.049619555
0.048713684 0.5822643 -0.047337413
0.32755917 0.58366191 -0.038691044
0.048731122 0.61045909 -0.045072317
0.32705858 0.6105386 -0.044602752
0.048748579 0.6386894 -0.042804718
0.29908633 0.6380493 -0.046419382
0.32776403 0.63984609 -0.036271572
0.21546306 0.66529155 -0.049538374
0.048766218 0.66695893 -0.040513635
0.18812428 0.66711402 -0.039674163
0.048784666 0.69528395 -0.03811717
0.07648392 0.72078657 -0.050006628
0.076580018 0.74987477 -0.043765187
0.076676436 0.77906346 -0.037502289
0.1042874 0.80428165 -0.049456716
0.10437734 0.83297628 -0.045562387
0.2986598 0.83149862 -0.05196023
0.13211566 0.86012948 -0.048376918
0.2990675 0.86053813 -0.046664238
0.18782403 0.88847536 -0.046174526
0.21546195 0.88764167 -0.049558878
0.29954255 0.88987476 -0.04049325
0.16021298 0.91767657 -0.040738821
0.27185306 0.91837889 -0.037973642
0.18853009 -0.92372632 -0.0308882
0.076965824 -0.89878923 -0.018706441
0.30134094 -0.89917713 -0.017131209
0.10475712 -0.8962245 -0.029117584
0.13265482 -0.89579332 -0.030867696
0.16061987 -0.89596564 -0.030167818
0.048896663 -0.86959714 -0.023568392
0.30035958 -0.86809111 -0.02987957
0.020902356 -0.84165543 -0.02334094
0.020902356 -0.81159335 -0.032595396
0.020902356 -0.7838946 -0.031546474
0.020902356 -0.75642371 -0.029323578
0.020902356 -0.72868812 -0.028252244
0.020902356 -0.70037317 -0.030105829
0.020902356 -0.67208707 -0.031957984
0.30037224 -0.6725015 -0.029714942
0.020902356 -0.64382976 -0.033807755
-0.007133523 -0.618563 -0.018167853
0.020902356 -0.6156013 -0.035655856
-0.0071191732 -0.59022588 -0.02003181
-0.0071048383 -0.5619176 -0.021893978
-0.0070905183 -0.5336383 -0.023754358
0.30091381 -0.53379548 -0.022679806
-0.0070762131 -0.5053879 -0.025612593
0.30047375 -0.5050022 -0.028396487
-0.0070619229 -0.47716641 -0.027469039
0.27266946 -0.47733375 -0.0261904
-0.0070476457 -0.4489738 -0.029323578
0.21656901 -0.44901177 -0.029014707
-0.0070333835 -0.42080981 -0.031176209
-0.0070135985 -0.39259714 -0.033746243
-0.0070132799 -0.36467704 -0.033787251
-0.0070131235 -0.33675945 -0.033807874
-0.0070131235 -0.308844 -0.033807874
-0.0070134401 -0.28093168 -0.033766747
-0.0070137568 -0.25301877 -0.0337255
-0.0070137568 -0.22510256 -0.033725739
-0.0070137568 -0.1971865 -0.033725619
-0.007013917 -0.16927134 -0.033705115
-0.0070140753 -0.14135578 -0.033684731
-0.0070140753 -0.11343945 -0.033684611
-0.0070140753 -0.085522979 -0.033684611
-0.0070140753 -0.057606578 -0.033684492
-0.0070142318 -0.029690396 -0.033663988
-0.0070143901 -0.0017736491 -0.033643484
-0.0070143901 0.026142927 -0.033643484
-0.0070143901 0.054059673 -0.033643603
-0.0070143901 0.081976473 -0.033643484
-0.0070143901 0.10989323 -0.033643723
-0.0070142318 0.13780919 -0.033663988
-0.0070140753 0.16572484 -0.033684731
0.32936549 0.16647884 -0.017359257
-0.0070134401 0.19363694 -0.033766747
0.329283 0.19446845 -0.018333435
-0.0070128087 0.22154756 -0.033848882
0.32918477 0.22243156 -0.019493461
-0.0070126504 0.24946122 -0.033869386
0.32908663 0.25037694 -0.020652771
-0.0070132799 0.27738249 -0.033787251
0.32883096 0.27816144 -0.023671627
-0.007013917 0.30530515 -0.033705115
0.32873479 0.30605876 -0.024807453
-0.0070142318 0.33322531 -0.033663988
0.32849893 0.33378607 -0.027592659
-0.0070357583 0.3614217 -0.030867696
0.32825997 0.36146724 -0.030414701
-0.0070533548 0.38960627 -0.028582096
0.24436294 0.38928223 -0.031587601
0.32787701 0.38892135 -0.034937382
-0.00707113 0.41782865 -0.026272893
-0.0070887692 0.4460842 -0.023981333
-0.0071064308 0.47437561 -0.021687031
-0.0071242731 0.50270569 -0.019369245
0.3278822 0.50055695 -0.034875989
-0.0071419813 0.53106868 -0.017068982
0.020902356 0.52851224 -0.034547448
0.32790306 0.52850014 -0.034629464
0.020902356 0.55677319 -0.032266378
0.32787177 0.55635256 -0.034998775
0.020902356 0.58506972 -0.029982448
0.020902356 0.61340547 -0.027675152
0.30043092 0.6131891 -0.028952479
0.020902356 0.64177364 -0.025385499
0.020902356 0.67017746 -0.023092985
0.16063492 0.66894263 -0.029776573
0.32815197 0.668589 -0.031690478
0.020902356 0.69872075 -0.0202595
0.32838029 0.69703966 -0.028993964
0.048830338 0.72435367 -0.032184124
0.3286072 0.7255286 -0.02631402
0.04887886 0.75359195 -0.025880814
0.32891673 0.75426161 -0.022658944
0.048927393 0.78292727 -0.019576311
0.32924965 0.78311026 -0.018727064
0.076765284 0.80823869 -0.031731606
0.076826468 0.83708805 -0.027757525
0.10492394 0.86644924 -0.021893978
0.18916644 0.92367893 -0.017110348
0.24465849 0.92122036 -0.026788592
0.30062929 0.92132521 -0.02637589
0.16128704 -0.92831266 -0.012834191
0.04905083 -0.90252495 -0.0035413504
0.020902356 -0.87320155 -0.008464694
-0.0072086994 -0.84510523 -0.0084021091
-0.035458662 -0.81900841 0.00062036514
-0.0071498025 -0.81528646 -0.016052842
-0.0071613081 -0.78755623 -0.014558554
-0.0071785804 -0.75995904 -0.012314558
-0.0071909092 -0.7321986 -0.0107131
-0.0071764998 -0.70374513 -0.012584805
-0.0071621072 -0.6753208 -0.014454484
0.33080292 -0.67792028 -0.00038433075
-0.035469949 -0.65005529 0.0013533831
-0.0071478877 -0.64692932 -0.016301632
0.33034641 -0.6487931 -0.0057749748
-0.035440937 -0.6215499 -0.00053071976
0.33007458 -0.62011808 -0.0089854002
-0.035411961 -0.59307414 -0.0024129152
0.32989302 -0.59166503 -0.01112926
-0.035383336 -0.56463069 -0.0042723417
0.32979971 -0.56340522 -0.012231469
-0.035354421 -0.5362131 -0.0061506033
0.32976979 -0.53527206 -0.012584805
-0.035325527 -0.50782466 -0.0080269575
0.32976979 -0.50719315 -0.012584925
-0.035296671 -0.47946545 -0.0099014044
0.32977858 -0.47912788 -0.012481093
0.16115677 -0.47863871 -0.016218662
-0.035267837 -0.45113531 -0.011773944
0.16115677 -0.45058787 -0.016218662
0.18961008 -0.45166102 -0.0075058937
0.32979795 -0.45107636 -0.012252212
-0.035239041 -0.4228341 -0.013644695
0.32981554 -0.42301893 -0.012044311
-0.063652225 -0.39636183 0.0011856556
-0.035197169 -0.39447051 -0.016363859
0.32983494 -0.39496055 -0.011815548
-0.063651256 -0.36817271 0.0011438131
-0.035196535 -0.36641651 -0.016405463
0.32985604 -0.36690077 -0.011566162
-0.063650295 -0.33998424 0.0011018515
-0.035196215 -0.33836517 -0.016426086
0.32990888 -0.33887169 -0.010941982
-0.063650295 -0.31180012 0.0011018515
-0.035196215 -0.31031591 -0.016426325
0.32997763 -0.31084898 -0.010130286
-0.063651256 -0.28361908 0.0011439323
-0.035196535 -0.28226817 -0.016405344
0.33001992 -0.28278965 -0.0096307993
-0.063652709 -0.25543895 0.0012067556
-0.035197489 -0.25422299 -0.016343355
0.330064 -0.25472417 -0.0091102123
-0.063652709 -0.22725391 0.0012067556
-0.035197489 -0.22617316 -0.016343355
0.33007282 -0.226625 -0.0090060234
-0.063652709 -0.19906895 0.0012067556
-0.035197489 -0.1981232 -0.016343236
0.33007458 -0.19851962 -0.008985281
-0.063653201 -0.17088485 0.0012274981
-0.035197809 -0.17007428 -0.016322374
0.33007458 -0.17041305 -0.008985281
-0.063653201 -0.1426997 0.0012276173
-0.035197809 -0.14202411 -0.016322613
0.33007634 -0.14230733 -0.0089644194
-0.063653685 -0.1145151 0.0012485981
-0.03519813 -0.11397462 -0.016301751
0.33004639 -0.11418968 -0.009318471
-0.063653685 -0.086329736 0.0012485981
-0.03519813 -0.085924506 -0.016301632
0.32995999 -0.086062089 -0.010338664
-0.063653685 -0.058144316 0.0012487173
-0.03519813 -0.057874165 -0.016301751
0.32987368 -0.057950344 -0.011357903
-0.063653685 -0.02995901 0.0012485981
-0.03519845 -0.029824162 -0.01628089
0.32978737 -0.029854124 -0.012377024
-0.063654162 -0.0017738197 0.0012695789
-0.03519845 -0.0017736491 -0.01628077
0.32974339 -0.0017737059 -0.012896657
-0.063654162 0.026411768 0.0012695789
-0.03519877 0.02627681 -0.016260266
0.32971171 0.026299946 -0.013270736
-0.063654646 0.054597639 0.0012905598
-0.03519877 0.054327432 -0.016260147
0.3296642 0.054364841 -0.013831496
-0.063654646 0.082783341 0.0012905598
-0.03519877 0.082377888 -0.016260147
0.32959035 0.082413875 -0.014703751
-0.063654162 0.11096831 0.0012695789
-0.03519877 0.11042863 -0.016260266
0.32951477 0.11044887 -0.015596271
-0.063654162 0.13915384 0.0012693405
-0.03519845 0.13847825 -0.016281009
0.32944098 0.13847102 -0.016467571
-0.063653201 0.16733745 0.0012277365
-0.03519813 0.16652779 -0.016301632
-0.063651256 0.19551799 0.0011440516
-0.035196856 0.19457358 -0.016384721
-0.063649327 0.22369747 0.0010601282
-0.035195574 0.22261801 -0.016467571
-0.063649327 0.25188124 0.0010601282
-0.035195254 0.25066552 -0.016488433
-0.063651256 0.28007159 0.0011438131
-0.035196535 0.27872086 -0.016405344
-0.063653201 0.30826333 0.0012274981
-0.035197809 0.30677709 -0.016322374
-0.063653685 0.3364504 0.0012487173
-0.03519813 0.33482909 -0.016301632
-0.035243839 0.36317658 -0.013332844
-0.035279371 0.39149833 -0.011025429
0.16115357 0.39092967 -0.016301632
0.21747562 0.39137274 -0.012189746
-0.03531494 0.41985607 -0.0087145567
-0.035350889 0.44825217 -0.0063800812
-0.035386555 0.47668198 -0.0040636063
-0.035422258 0.50514776 -0.0017439127
-0.035458341 0.53365296 0.00059950352
-0.0071597081 0.55946761 -0.014766097
-0.0071776193 0.5879057 -0.012439251
-0.0071953945 0.61637664 -0.010130286
-0.0072133522 0.64488745 -0.0077979565
-0.0072311703 0.67343086 -0.0054829121
-0.0072562508 0.70219141 -0.002224803
0.020902356 0.72795224 -0.014205337
0.020902356 0.75734174 -0.0078394413
0.020902356 0.78682953 -0.0014718771
0.048971452 0.81223005 -0.013852239
0.32972401 0.81239235 -0.013125181
0.048999947 0.84115398 -0.010151148
0.33059749 0.84284925 -0.0028101206
0.077196732 0.87078887 -0.0037083626
0.10539025 0.89943063 -0.0017020702
0.21779768 0.92644709 -0.0062133074
0.13392757 -0.93423188 0.010466218
-0.0073364582 -0.87717688 0.0081942081
-0.035597935 -0.84927809 0.0096663237
-0.064032152 -0.82280737 0.017637014
-0.064084895 -0.79498816 0.019920707
-0.035489306 -0.79125702 0.0026105642
-0.035524175 -0.76353186 0.0048755407
-0.035557151 -0.73574728 0.0070170164
0.33209825 -0.73732758 0.014912844
-0.035528056 -0.70715386 0.0051273108
0.33138341 -0.70741242 0.0064711571
-0.064112268 -0.68189079 0.021106005
-0.035498984 -0.67858982 0.003239274
-0.064068288 -0.65321541 0.019201398
-0.064024344 -0.62456965 0.017298937
-0.063980453 -0.5959534 0.015398264
-0.063936606 -0.56736684 0.013499737
-0.063892804 -0.53880978 0.011603117
-0.063849539 -0.51028508 0.0097296238
-0.063805826 -0.48178679 0.0078368187
-0.063762166 -0.45331791 0.0059460402
-0.063718542 -0.42487824 0.0040572882
-0.092382707 -0.39827153 0.018905282
-0.09238141 -0.36994597 0.018863201
-0.092380106 -0.3416211 0.018820763
-0.092380106 -0.31330049 0.018820763
-0.092380762 -0.28498158 0.018841863
-0.092382707 -0.25666508 0.018905282
-0.092383362 -0.22834513 0.01892662
-0.092383362 -0.2000238 0.01892662
-0.092383362 -0.17170228 0.018926501
-0.092384018 -0.14338173 0.018947721
-0.092384018 -0.11506011 0.018947721
-0.092384018 -0.086738482 0.018947721
-0.092384018 -0.058416966 0.018947721
-0.092384666 -0.030095449 0.018968701
-0.092384666 -0.0017737059 0.01896894
-0.092385314 0.026548265 0.01899004
-0.092385314 0.054870062 0.01899004
-0.092385314 0.083192088 0.018989801
-0.092385314 0.111514 0.01899004
-0.092385314 0.1398358 0.018989921
-0.092384018 0.16815591 0.018947721
-0.09238141 0.19647294 0.018863201
-0.09237881 0.22478877 0.018778563
-0.09237881 0.25310895 0.018778324
-0.092380762 0.28143406 0.018841982
-0.092383362 0.309762 0.018926382
-0.092384666 0.33808747 0.01896894
-0.06372533 0.36494631 0.0043507814
-0.063779622 0.39340892 0.0067021847
-0.063833505 0.42190543 0.0090353489
-0.063887462 0.45043865 0.011371374
-0.063941963 0.47901082 0.013731599
-0.063996062 0.50761676 0.016074061
-0.064050213 0.53625911 0.018419147
-0.06410493 0.56494159 0.02078855
-0.035494141 0.56219119 0.0029250383
-0.035529993 0.59076589 0.005253315
-0.035566211 0.61938041 0.0076055527
-0.035602145 0.64802802 0.0099400282
-0.035638131 0.67671204 0.012277484
-0.035695285 0.7056967 0.015989423
-0.0073038023 0.7315864 0.0039521456
-0.0073532984 0.76112896 0.010382056
-0.0074024796 0.79076171 0.01677084
0.020902356 0.81621897 0.0040152073
0.020902356 0.84510916 0.006975174
0.049193375 0.87524784 0.014976501
0.33139941 0.87326336 0.0066603422
0.13370503 0.90064782 0.003239274
0.10625815 -0.9406876 0.035879374
-0.035865471 -0.88167506 0.027043581
-0.064275883 -0.8535561 0.028190851
-0.092889607 -0.82676554 0.03536725
-0.092952713 -0.79875922 0.037416458
0.33390617 -0.79851067 0.036263466
-0.093023784 -0.77077532 0.039724946
-0.064137697 -0.76713431 0.022207141
0.33290258 -0.76759243 0.024411559
-0.064200372 -0.73933053 0.024920702
-0.064156286 -0.71059579 0.0230124
-0.093006015 -0.68522388 0.039147496
-0.09294679 -0.65640646 0.037224412
-0.092887633 -0.62761867 0.035303116
-0.092828535 -0.59886104 0.033384085
-0.092769504 -0.57013315 0.031466961
-0.092710532 -0.54143494 0.029551625
-0.092651621 -0.51276654 0.027638197
-0.092592768 -0.48412797 0.025727153
-0.092533976 -0.45551917 0.023817897
-0.12151439 -0.42902398 0.039960384
-0.092475899 -0.4269422 0.021931767
-0.12144033 -0.40033323 0.038036227
-0.12139099 -0.37173644 0.036754727
-0.12138935 -0.34327388 0.036711812
-0.12138853 -0.31481364 0.036690593
-0.12139017 -0.28635889 0.03673327
-0.12139264 -0.25790468 0.036797285
-0.12139264 -0.22944574 0.036797404
-0.12139346 -0.20098791 0.036818743
-0.12139346 -0.1725287 0.036818743
-0.12139428 -0.14407024 0.036839962
-0.12139428 -0.11561098 0.036839962
-0.12139428 -0.087151721 0.036840081
-0.12139428 -0.058692288 0.036839843
-0.12139428 -0.030233137 0.036839962
-0.1213951 -0.0017736491 0.03686142
-0.12139592 0.026686069 0.036882639
-0.12139592 0.05514567 0.036882639
-0.12139592 0.083605327 0.036882758
-0.12139592 0.11206499 0.036882758
-0.1213951 0.14052375 0.0368613
-0.12139428 0.16898215 0.036839962
-0.12139099 0.19743687 0.036754608
-0.12138771 0.22589026 0.036669254
-0.12138689 0.25434679 0.036647916
-0.12139017 0.28281128 0.03673327
-0.12139346 0.31127709 0.036818743
-0.1213951 0.33974022 0.0368613
-0.12152591 0.3685396 0.040259719
-0.092485033 0.36673531 0.02222836
-0.092557482 0.39533556 0.024581313
-0.092630036 0.42397276 0.026937485
-0.092703328 0.45264903 0.029317498
-0.092776068 0.48135951 0.031679749
-0.092849545 0.51010996 0.034066081
-0.092922464 0.53889418 0.036434174
-0.092995472 0.56771547 0.038805485
-0.064159229 0.59365737 0.023139596
-0.064213596 0.62240994 0.025493622
-0.064268522 0.65120304 0.027872205
-0.064291097 0.67977399 0.02884984
-0.064418957 0.70923716 0.034386039
-0.035792321 0.73525697 0.022291899
-0.0358923 0.76495421 0.028786063
-0.035990342 0.79472405 0.035154104
-0.036064669 0.82424819 0.039981604
-0.007442208 0.82021868 0.021931767
-0.0074599925 0.84909683 0.024242163
0.020902356 0.87985438 0.034279585
-0.064684734 -0.88617361 0.045894265
-0.093309648 -0.85836393 0.049008489
-0.12213286 -0.83137816 0.056028843
-0.1220955 -0.8025617 0.055058122
-0.12218519 -0.77444661 0.057388544
-0.09312398 -0.7429449 0.042978525
-0.12225836 -0.71757734 0.059289575
-0.093065292 -0.71407163 0.041072607
-0.12218354 -0.68858606 0.05734551
-0.12210961 -0.65962881 0.055424809
-0.12203494 -0.63069779 0.05348444
-0.12196035 -0.6017971 0.051546454
-0.12188581 -0.57292652 0.049610376
-0.12181138 -0.54408598 0.047676325
-0.12173701 -0.51527542 0.045744181
-0.12166273 -0.48649502 0.043814301
-0.12158852 -0.45774448 0.04188633
-0.15083963 -0.43112877 0.058187485
-0.15074988 -0.40229562 0.056244612
-0.15068413 -0.37354437 0.054820776
-0.15068212 -0.34494281 0.05477798
-0.15068114 -0.31634343 0.054756284
-0.15068212 -0.28774783 0.054777741
-0.15068513 -0.25915498 0.054842472
-0.15068612 -0.23055829 0.054864168
-0.15068711 -0.20196135 0.054885626
-0.15068711 -0.17336325 0.054885745
-0.15068711 -0.14476499 0.054885745
-0.15068811 -0.11616737 0.054907203
-0.15068811 -0.087568939 0.054907084
-0.15068811 -0.058970567 0.054907084
-0.15068811 -0.030372135 0.054907441
-0.15068911 -0.0017737627 0.05492866
-0.15068911 0.026824893 0.05492866
-0.15068911 0.055423491 0.054928899
-0.15069011 0.084022544 0.054950356
-0.15069011 0.11262126 0.054950356
-0.15068911 0.14121906 0.05492866
-0.15068711 0.16981579 0.054885745
-0.15068312 0.19840927 0.054799318
-0.15067914 0.22700174 0.05471313
-0.15067914 0.25559846 0.05471313
-0.15068312 0.2842021 0.054799557
-0.15068711 0.31280679 0.054885745
-0.15068911 0.34140915 0.05492866
-0.15085359 0.37036425 0.058490038
-0.12161819 0.39728379 0.042657137
-0.12170977 0.42606273 0.045036435
-0.12180146 0.45487836 0.047418594
-0.1218941 0.48373404 0.049825549
-0.12198602 0.51262444 0.052214026
-0.1220789 0.54155499 0.054626822
-0.12217107 0.57052004 0.057021618
-0.12226336 0.59952229 0.059419394
-0.093069248 0.59657723 0.041201115
-0.093142442 0.62547261 0.043578625
-0.093215749 0.65440524 0.045958996
-0.093246147 0.68311727 0.046946406
-0.093431562 0.71281332 0.052967668
-0.064567946 0.73896897 0.040837288
-0.093634211 0.74271393 0.059548974
-0.064719431 0.76882255 0.047397256
-0.064864993 0.79872155 0.053700089
-0.064965636 0.82828349 0.058058143
-0.036095314 0.85319138 0.041971803
-0.0076897461 0.88458139 0.054087996
0.077877946 0.9098357 0.040537834
0.13542029 0.94299942 0.058943868
-0.093929164 -0.89171791 0.069127798
-0.12269478 -0.86335659 0.070627809
-0.15153481 -0.80648059 0.073238969
-0.15162739 -0.77815765 0.075243473
-0.1517362 -0.74987411 0.077599287
-0.12227584 -0.7463004 0.059743524
-0.15174125 -0.72112203 0.077708364
-0.15165056 -0.69198549 0.075744987
-0.15155996 -0.66287929 0.073783398
-0.15146947 -0.63380367 0.071824074
-0.15137906 -0.60475874 0.069866776
-0.15128976 -0.57574749 0.067933321
-0.15119955 -0.54676306 0.065980077
-0.15110943 -0.51780903 0.064028978
-0.15101939 -0.48888537 0.062079787
-0.18056107 -0.46226156 0.078559875
-0.15092947 -0.4599919 0.060132742
-0.18045522 -0.43325421 0.076595426
-0.18034947 -0.40427732 0.074633241
-0.18026496 -0.37537014 0.073064804
-0.18026263 -0.34662801 0.073021412
-0.18026142 -0.3178882 0.072999597
-0.18026263 -0.28915218 0.073021173
-0.18026613 -0.26041895 0.0730865
-0.1802673 -0.23168187 0.073108435
-0.1802673 -0.20294335 0.073108315
-0.18026848 -0.17420587 0.073130131
-0.18026848 -0.14546715 0.073130131
-0.18026966 -0.11672916 0.073152065
-0.18026966 -0.087990306 0.073151827
0.36593768 -0.088032492 0.074981809
-0.18026966 -0.059251402 0.073152065
0.36541098 -0.059191823 0.069280028
-0.18026966 -0.030512553 0.073151946
-0.18026966 -0.0017737059 0.073151827
-0.18027084 0.026965369 0.073173761
-0.18027084 0.055704441 0.073173761
-0.18027084 0.084443457 0.073173761
-0.18027084 0.11318225 0.073173523
-0.18027084 0.14192134 0.073173761
-0.18026848 0.17065836 0.073130131
-0.18026379 0.19939238 0.073042989
-0.18025908 0.22812502 0.072956085
-0.18025908 0.25686243 0.072956085
-0.18026379 0.2856065 0.073043227
-0.18026848 0.31435192 0.07313025
-0.18026966 0.34309247 0.073151946
-0.18047167 0.37220657 0.076901078
-0.15096442 0.39924875 0.060889721
-0.15107639 0.42817315 0.063313723
-0.15118752 0.4571327 0.065719724
-0.15129879 0.48612946 0.068128943
-0.15141119 0.515167 0.070562601
-0.15152274 0.54423904 0.072977781
-0.15163444 0.57334894 0.075396061
-0.1517473 0.60250002 0.077839255
-0.1223566 0.62856573 0.061841726
-0.12244912 0.65764296 0.064245462
-0.12250336 0.6865738 0.065654755
-0.12273831 0.71642953 0.071758866
-0.12299589 0.74649715 0.07845068
-0.093838245 0.77272546 0.066175342
-0.094030954 0.80275947 0.072433591
-0.094161123 0.8324365 0.076660872
-0.065095522 0.85820496 0.063682199
-0.036615618 0.88975501 0.075766802
0.049651943 0.91821313 0.074545979
-0.12358325 -0.8975845 0.093710899
-0.15262081 -0.86938953 0.096751451
-0.15182801 -0.83663708 0.079586506
-0.18135852 -0.81081724 0.093358755
-0.1813526 -0.78189987 0.093248725
-0.18148194 -0.75348693 0.095649362
-0.1815176 -0.72470206 0.096310616
-0.18141073 -0.69541854 0.09432745
-0.18130396 -0.66616595 0.09234643
-0.3550027 -0.63792074 0.096134305
-0.18119735 -0.63694417 0.090367556
-0.38408008 -0.60924739 0.0976336
-0.35482192 -0.60871285 0.094327331
-0.18109082 -0.60775322 0.088390946
-0.38388759 -0.58004522 0.095847607
-0.35485718 -0.57986534 0.094679952
-0.18098441 -0.57859302 0.086416006
-0.35483074 -0.55092198 0.094415545
-0.1808781 -0.54946351 0.084443331
-0.18077309 -0.52036774 0.082494855
-0.18066703 -0.49129942 0.080526352
-0.21048632 -0.464551 0.097148418
-0.21036549 -0.43540096 0.095186591
-0.21024346 -0.40627876 0.093204618
-0.21013775 -0.3772139 0.091488838
-0.21013506 -0.3483299 0.091444612
-0.21013233 -0.3194465 0.091400862
-0.21013506 -0.29057053 0.091444731
-0.21013775 -0.26169381 0.091488719
-0.21014048 -0.23281653 0.091532707
-0.21014048 -0.20393617 0.091532707
-0.21014182 -0.17505686 0.091554523
-0.21014182 -0.14617634 0.091554761
-0.21014319 -0.11729651 0.091576695
-0.21014319 -0.088415772 0.091576576
-0.21014319 -0.059535194 0.091576576
-0.21014319 -0.030654449 0.091576457
-0.21014319 -0.0017738197 0.091576576
-0.21014319 0.027106982 0.091576576
-0.21014453 0.05598795 0.09159863
-0.21014453 0.084868982 0.09159863
-0.21014453 0.11374961 0.09159863
-0.21014453 0.14263059 0.091598749
-0.21014182 0.17150934 0.091554642
-0.2101364 0.20038508 0.091466784
-0.21012965 0.22925833 0.091356993
-0.21013099 0.25813878 0.091378808
-0.2101364 0.2870248 0.091466784
-0.21014048 0.31591016 0.091532826
-0.21014319 0.34479448 0.091576576
-0.21038313 0.37406522 0.095472813
-0.18060227 0.40123558 0.079324365
-0.18073303 0.43030205 0.08175087
-0.18086511 0.459409 0.084202647
-0.38355294 0.48935056 0.092742443
-0.18099622 0.48855141 0.086635351
-0.38336098 0.51799339 0.090961099
-0.1811275 0.51773149 0.089071393
-0.38408247 0.54784834 0.097655773
-0.18126011 0.5469529 0.091532707
-0.18139173 0.57620943 0.093975067
-0.18152352 0.6055038 0.096420884
-0.15185928 0.63168555 0.080263972
-0.15197243 0.66091281 0.082713842
-0.15205739 0.69006526 0.084553003
-0.15234625 0.72009546 0.09080708
-0.15265749 0.750319 0.097545505
-0.12325438 0.77667254 0.085166454
-0.12349349 0.80684298 0.091378808
-0.12365871 0.83668047 0.095671296
-0.094553418 0.8641445 0.089401126
-0.0080811158 -0.92924482 0.1049279
0.020902356 -0.92883039 0.10324574
-0.18208702 -0.84272975 0.10687804
-0.21139584 -0.78578025 0.11191726
-0.21151498 -0.75713015 0.11385226
-0.21159177 -0.72831774 0.11509871
-0.21146843 -0.69888604 0.11309576
-0.35664004 -0.66973341 0.11249542
-0.2113452 -0.66948539 0.11109495
-0.38533458 -0.64014614 0.10927391
-0.21122211 -0.6401161 0.10909629
-0.21109916 -0.61077768 0.10709977
-0.41501895 -0.58300209 0.11505425
-0.21097633 -0.58147043 0.10510528
-0.38456568 -0.55205184 0.10213959
-0.21085362 -0.55219418 0.10311282
-0.38610637 -0.52507073 0.11643517
-0.35572323 -0.52325541 0.10333419
-0.21073106 -0.5229488 0.10112262
-0.21060863 -0.49373457 0.099134564
-0.24071218 -0.4668662 0.11594498
-0.24057333 -0.43756664 0.11394119
-0.24043466 -0.40829808 0.11193955
-0.2403069 -0.379076 0.1100955
-0.2403038 -0.35004869 0.11005092
-0.24030073 -0.32102203 0.11000657
-0.24030228 -0.29200104 0.11002862
-0.24030535 -0.26298144 0.11007321
-0.24030997 -0.23396245 0.11013985
-0.24030997 -0.20493883 0.11013985
-0.24031152 -0.17591631 0.1101619
-0.24031152 -0.14689247 0.11016214
-0.24031152 -0.11786876 0.11016214
-0.24031152 -0.088845097 0.11016214
-0.24031152 -0.059821207 0.1101619
-0.24031152 -0.030797539 0.11016202
-0.24031152 -0.0017738765 0.11016214
-0.24031304 0.027250297 0.11018419
-0.24031304 0.056274075 0.11018431
-0.24031304 0.085298024 0.11018419
-0.24031459 0.11432271 0.11020648
-0.24031304 0.14334598 0.11018443
-0.24030997 0.17236783 0.11013985
-0.2403038 0.20138648 0.11005116
-0.24029766 0.2304039 0.10996222
-0.24029921 0.25942793 0.10998428
-0.24030535 0.28845713 0.11007333
-0.24030997 0.31748572 0.11013985
-0.24042232 0.34665912 0.11176157
-0.24059494 0.37594458 0.11425281
-0.24076618 0.40526614 0.11672497
-0.21053524 0.40324196 0.097942591
-0.35667342 0.43389061 0.11282873
-0.21068616 0.43245476 0.1003933
-0.38460383 0.46166193 0.10249352
-0.356451 0.46266112 0.11060619
-0.21083727 0.46170548 0.10284734
-0.41457975 0.49177274 0.11125064
-0.35657552 0.49185124 0.1118505
-0.21098995 0.49099752 0.10532689
-0.41444635 0.52064484 0.1100955
-0.35659999 0.52092195 0.11209524
-0.2111415 0.52032489 0.10778713
-0.35649768 0.54981095 0.11107278
-0.21129321 0.54969078 0.11025083
-0.35638431 0.5786674 0.10993993
-0.21144651 0.57909846 0.11274016
-0.21159862 0.60854137 0.11521029
-0.18165667 0.63484043 0.098891735
-0.18178882 0.66421145 0.10134375
-0.18191275 0.69359225 0.10364389
-0.18225682 0.72379464 0.11002874
-0.15297087 0.78065574 0.1043303
-0.15325662 0.81096816 0.1105175
-0.1534487 0.84092301 0.11467588
-0.12441846 0.87015116 0.11541045
-0.06606698 0.89690953 0.1057477
0.020902356 0.92466187 0.10072505
-0.037349671 -0.93380624 0.12344503
-0.1539209 -0.90502727 0.12489927
-0.18310878 -0.87610722 0.12583959
-0.21188696 -0.81653643 0.11989224
-0.24205871 -0.79065692 0.13538086
-0.24184214 -0.76081342 0.13225496
-0.24196674 -0.7319656 0.13405323
-0.24182658 -0.70238429 0.13203025
-0.38815787 -0.6738013 0.13547087
-0.24168812 -0.67283815 0.13003182
-0.41681841 -0.6437642 0.13063788
-0.24154826 -0.64331973 0.1280129
-0.4153277 -0.61249578 0.11772799
-0.24140854 -0.61383247 0.12599623
