ply
format ascii 1.0
comment PCL generated
element vertex 1309
property float x
property float y
property float z
element camera 1
property float view_px
property float view_py
property float view_pz
property float x_axisx
property float x_axisy
property float x_axisz
property float y_axisx
property float y_axisy
property float y_axisz
property float z_axisx
property float z_axisy
property float z_axisz
property float focal
property float scalex
property float scaley
property float centerx
property float centery
property int viewportx
property int viewporty
property float k1
property float k2
end_header
-0.50788862 -0.26502609 -0.36393464
-0.48992059 -0.26611465 -0.35214984
-0.47179356 -0.26721296 -0.34026098
-0.45350537 -0.26832095 -0.3282665
-0.4759663 -0.28993151 -0.32090163
-0.45535168 -0.29008347 -0.31938338
-0.47863021 -0.24911761 -0.30854261
-0.45584837 -0.24840195 -0.31699395
-0.47863021 -0.22809221 -0.30854273
-0.45584837 -0.22744168 -0.31699383
-0.47863021 -0.20706695 -0.30854273
-0.4558455 -0.20648047 -0.31700754
-0.47862729 -0.18604073 -0.30855656
-0.45585117 -0.1855219 -0.31698024
-0.47862729 -0.16501552 -0.30855632
-0.45585117 -0.1645616 -0.31698024
-0.47862729 -0.14399026 -0.30855632
-0.45585117 -0.14360118 -0.31698024
-0.47862729 -0.12296499 -0.30855632
-0.45584837 -0.12264037 -0.31699371
-0.47862729 -0.10193987 -0.30855644
-0.45584837 -0.10168005 -0.31699383
-0.47862729 -0.080914617 -0.30855644
-0.4558455 -0.080719531 -0.3170073
-0.47862729 -0.059889413 -0.30855632
-0.45546171 -0.05973091 -0.31885421
-0.47862729 -0.038864151 -0.30855632
-0.47862729 -0.017838946 -0.30855632
-0.47862729 0.0031862631 -0.30855632
-0.47862729 0.02421152 -0.30855632
-0.47862431 0.045236491 -0.30857003
-0.47862431 0.0662615 -0.30857003
-0.45585117 0.0660026 -0.31698024
-0.47862431 0.087286666 -0.30857003
-0.45585117 0.086962968 -0.31698024
-0.47862431 0.10831182 -0.30857003
-0.45584837 0.10792272 -0.31699383
-0.47862431 0.12933698 -0.30857003
-0.45585117 0.12888372 -0.31698012
-0.47862431 0.15036209 -0.30857003
-0.45585117 0.14984423 -0.31698024
-0.47862431 0.17138721 -0.30856991
-0.45585117 0.17080452 -0.31698024
-0.47862431 0.19241223 -0.30857003
-0.45585117 0.19176494 -0.31698012
-0.47862729 0.21343854 -0.30855632
-0.45584837 0.21272415 -0.31699383
-0.47862729 0.2344639 -0.30855632
-0.45584837 0.23368451 -0.31699383
-0.47862431 0.25548774 -0.30857003
-0.45585117 0.25464615 -0.31698024
-0.43683693 -0.29129693 -0.30725682
-0.41815904 -0.29252279 -0.29500782
-0.43758026 -0.24954095 -0.30354273
-0.43758026 -0.22847718 -0.30354285
-0.43757752 -0.20741241 -0.30355656
-0.43757752 -0.18634871 -0.30355656
-0.43794027 -0.16538261 -0.30174387
-0.43786058 -0.14428653 -0.30214226
-0.43757477 -0.12315697 -0.30357027
-0.43757477 -0.10209338 -0.30357027
-0.43757752 -0.081030138 -0.30355656
-0.43715212 -0.059933655 -0.30568182
-0.43758026 0.066416271 -0.30354273
-0.43758026 0.087480202 -0.30354273
-0.43758026 0.10854398 -0.30354285
-0.43757752 0.12960708 -0.30355656
-0.43794027 0.15078241 -0.30174387
-0.43793759 0.17185919 -0.30175757
-0.43757752 0.19279823 -0.30355644
-0.43757752 0.21386206 -0.30355656
-0.43758026 0.23492706 -0.30354285
-0.43758026 0.25599068 -0.30354273
-0.41992685 -0.060239412 -0.28582191
-0.462984 -0.039063506 -0.28266251
-0.462984 -0.017838946 -0.28266251
-0.46298692 0.0033857115 -0.28264856
-0.46298692 0.024610369 -0.28264868
-0.46251228 0.045782305 -0.28493178
-0.44314894 0.045995079 -0.27572012
-0.42460963 -0.27448952 -0.26148939
-0.53194296 -0.25324708 -0.25977635
-0.42337361 -0.25255805 -0.26791203
-0.5318644 -0.23182008 -0.26011634
-0.42337361 -0.23122001 -0.26791203
-0.42337093 -0.20988099 -0.2679261
-0.42337093 -0.18854293 -0.26792622
-0.42337093 -0.16720498 -0.26792598
-0.42337093 -0.14586693 -0.26792622
-0.42337093 -0.12452898 -0.2679261
-0.42337093 -0.10319088 -0.26792622
-0.42337361 -0.081853278 -0.26791191
-0.4437522 -0.039140116 -0.27270591
-0.42437825 -0.03921726 -0.2626915
-0.42438099 -0.017838994 -0.26267731
-0.4437522 -0.017838897 -0.27270591
-0.4437522 0.0034623221 -0.27270603
-0.42438099 0.0035394654 -0.26267731
-0.4437522 0.024763493 -0.27270591
-0.42438099 0.024917876 -0.26267731
-0.42365566 0.046209209 -0.26644647
-0.42337361 0.067513481 -0.26791191
-0.42337361 0.088851623 -0.26791191
-0.42337629 0.11019041 -0.26789796
-0.42337361 0.13152787 -0.26791203
-0.42337361 0.15286592 -0.26791191
-0.42337361 0.17420405 -0.26791203
-0.42337093 0.19554117 -0.2679261
-0.53200507 0.21759193 -0.2595073
-0.42337093 0.21687917 -0.26792598
-0.53189057 0.23894903 -0.26000309
-0.42337093 0.23821723 -0.26792622
-0.53196913 0.260382 -0.25966311
-0.42337093 0.25955513 -0.2679261
-0.40309665 0.26013142 -0.26216829
-0.3817043 0.26012561 -0.26222491
-0.42460689 0.28158528 -0.26150346
-0.40530071 -0.27552888 -0.25023866
-0.51098841 -0.25341627 -0.25777769
-0.40458754 -0.25372791 -0.25409842
-0.51188916 -0.2323107 -0.25374281
-0.40458754 -0.23228335 -0.25409853
-0.53239143 -0.21058013 -0.2578342
-0.51290083 -0.2111776 -0.24921119
-0.40458491 -0.2108379 -0.25411272
-0.5325225 -0.18919937 -0.25726676
-0.51301235 -0.18972629 -0.24871147
-0.40458491 -0.18939362 -0.25411272
-0.53251922 -0.16777857 -0.25728095
-0.51301873 -0.1682419 -0.24868286
-0.40458754 -0.16795005 -0.25409853
-0.532516 -0.14635794 -0.25729525
-0.51301557 -0.1467551 -0.24869716
-0.40458754 -0.14650564 -0.25409853
-0.53251266 -0.12493762 -0.25730932
-0.51301235 -0.12526858 -0.24871159
-0.40458754 -0.12506114 -0.25409842
-0.53248978 -0.10351478 -0.2574085
-0.51299 -0.10377944 -0.24881148
-0.40458754 -0.10361668 -0.25409853
-0.53246355 -0.082093187 -0.25752223
-0.51295817 -0.082291037 -0.24895418
-0.40459016 -0.08217261 -0.25408411
-0.53243732 -0.060673445 -0.25763571
-0.51292628 -0.060804762 -0.24909699
-0.40459016 -0.060728006 -0.25408423
-0.5324111 -0.03925525 -0.2577492
-0.51290083 -0.039321005 -0.24921119
-0.40486625 -0.039294984 -0.25258994
-0.51287532 -0.017838994 -0.24932528
-0.53238493 -0.017838897 -0.25786269
-0.40486625 -0.017838897 -0.25258994
-0.53236854 0.0035759043 -0.2579335
-0.5128594 0.0036417097 -0.24939668
-0.40486625 0.003617093 -0.25258994
-0.53239477 0.024992598 -0.25782013
-0.51288486 0.025124108 -0.2492826
-0.40486625 0.025073132 -0.25258994
-0.53242093 0.046411134 -0.25770664
-0.51291037 0.046608306 -0.2491684
-0.40459016 0.046494767 -0.25408411
-0.53244716 0.067831263 -0.25759327
-0.51293904 0.068094723 -0.24904001
-0.40459016 0.067939274 -0.25408411
-0.53247339 0.089253187 -0.25747967
-0.51297092 0.089583568 -0.24889719
-0.40459016 0.089383826 -0.25408423
-0.53250283 0.11067754 -0.25735188
-0.51300281 0.1110746 -0.24875438
-0.40459016 0.11082838 -0.25408411
-0.53251266 0.13209908 -0.25730932
-0.51301235 0.13256252 -0.24871159
-0.40458754 0.13227217 -0.25409853
-0.532516 0.15351979 -0.25729525
-0.51301873 0.1540502 -0.24868298
-0.40458754 0.15371658 -0.25409842
-0.5325225 0.17494166 -0.25726676
-0.51301557 0.17553531 -0.24869716
-0.40458754 0.17516093 -0.25409853
-0.53252584 0.19636272 -0.25725245
-0.51300919 0.19701897 -0.24872577
-0.40458491 0.19660437 -0.2541126
-0.51252502 0.21832125 -0.25089443
-0.40458491 0.21804878 -0.2541126
-0.5115146 0.23937228 -0.25542057
-0.40458491 0.23949319 -0.2541126
-0.55626374 0.26159522 -0.24754012
-0.51269054 0.26133373 -0.25015283
-0.40530071 0.28279933 -0.25023842
-0.55761695 -0.27630198 -0.24186957
-0.55974329 -0.25551787 -0.23295927
-0.38561338 -0.25490928 -0.24014652
-0.56070262 -0.23422019 -0.22893906
-0.38561338 -0.2333574 -0.24014664
-0.56070954 -0.21258405 -0.22891009
-0.38561338 -0.21180558 -0.24014652
-0.56071299 -0.19094661 -0.22889555
-0.38561338 -0.19025367 -0.24014664
-0.56070262 -0.16930577 -0.22893906
-0.38561338 -0.1687019 -0.24014652
-0.56070614 -0.14766832 -0.22892451
-0.38561338 -0.14715002 -0.24014664
-0.56070954 -0.12603061 -0.22891021
-0.38561338 -0.12559824 -0.24014664
-0.55964679 -0.10425524 -0.23336351
-0.38561338 -0.10404629 -0.24014676
-0.5593369 -0.082621172 -0.23466218
-0.38561338 -0.082494505 -0.24014664
-0.55903071 -0.061007261 -0.23594534
-0.38561338 -0.060942575 -0.24014664
-0.55872482 -0.039413266 -0.23722708
-0.38561338 -0.039390735 -0.24014664
-0.55841577 -0.017838946 -0.23852229
-0.38561338 -0.017838994 -0.2401464
-0.55822361 0.0037192404 -0.23932743
-0.38561338 0.003712941 -0.24014664
-0.55852908 0.025297148 -0.23804748
-0.38561338 0.025264731 -0.24014664
-0.55883819 0.046895072 -0.23675203
-0.38561338 0.046816617 -0.24014664
-0.5591442 0.06851247 -0.23546958
-0.38561338 0.068368405 -0.24014652
-0.55945396 0.090150319 -0.23417175
-0.38561338 0.089920342 -0.24014664
-0.56071299 0.11199184 -0.22889566
-0.38561338 0.11147209 -0.24014652
-0.56070954 0.13362953 -0.22891021
-0.38561338 0.13302402 -0.24014664
-0.56070954 0.15526786 -0.22891021
-0.38561338 0.15457577 -0.24014664
-0.55968469 0.17660864 -0.23320472
-0.38561338 0.1761277 -0.24014664
-0.56071299 0.19854569 -0.22889555
-0.38561338 0.19767958 -0.24014652
-0.56070614 0.22018166 -0.22892451
-0.38561082 0.21923012 -0.24016094
-0.56070262 0.24181849 -0.22893906
-0.38561082 0.24078184 -0.24016094
-0.58463508 -0.27835679 -0.21962535
-0.58615017 -0.25716776 -0.21347475
-0.58615381 -0.2354117 -0.21346009
-0.58616102 -0.21365647 -0.213431
-0.58614659 -0.19189535 -0.21348953
-0.58613938 -0.17013668 -0.21351874
-0.58613938 -0.14837991 -0.21351862
-0.58613938 -0.1266232 -0.21351862
-0.5861069 -0.10486227 -0.21365035
-0.58603477 -0.083099589 -0.21394324
-0.58596271 -0.061341614 -0.2142359
-0.58590859 -0.039588537 -0.21445549
-0.58585817 -0.017838946 -0.21466029
-0.58583653 0.0039084647 -0.21474814
-0.58594823 0.025662756 -0.21429443
-0.5860312 0.047421411 -0.21395791
-0.58606726 0.069179334 -0.2138114
-0.58610332 0.090939589 -0.21366513
-0.58613938 0.11270207 -0.21351862
-0.58615738 0.1344628 -0.21344543
-0.58615738 0.15622008 -0.21344554
-0.58615738 0.17797755 -0.21344554
-0.58615738 0.19973503 -0.21344554
-0.58616102 0.22149353 -0.21343076
-0.58615381 0.24324846 -0.21346021
-0.58431917 0.26426044 -0.22090769
-0.36670384 0.26389652 -0.22454429
-0.38838351 0.28557312 -0.22450054
-0.37401804 -0.25988761 -0.18135619
-0.37347835 -0.23763774 -0.18454266
-0.37391657 -0.21583711 -0.18195522
-0.37392417 -0.19384013 -0.18191028
-0.37391913 -0.17183828 -0.18194032
-0.37391403 -0.14983705 -0.18197024
-0.37390643 -0.12783574 -0.18201494
-0.37386841 -0.10582937 -0.18223953
-0.37379494 -0.083821788 -0.18267345
-0.37372398 -0.061820999 -0.18309247
-0.37370369 -0.039829031 -0.18321204
-0.37369105 -0.017838994 -0.18328691
-0.37368092 0.0041501187 -0.18334663
-0.37369612 0.026140684 -0.18325698
-0.37370878 0.048132032 -0.183182
-0.37375185 0.0701304 -0.18292797
-0.37382281 0.092138797 -0.18250906
-0.3738963 0.11415432 -0.1820749
-0.37390897 0.13615733 -0.18200004
-0.37391657 0.15815958 -0.1819551
-0.37392166 0.18016134 -0.1819253
-0.37392417 0.20216262 -0.18191016
-0.37384814 0.2241247 -0.18235922
-0.37327349 0.24580795 -0.18575251
-0.3538951 -0.26087308 -0.16971743
-0.35315427 -0.23842625 -0.17430007
-0.33270955 -0.23923329 -0.16381693
-0.35353413 -0.21653037 -0.17195034
-0.35354635 -0.1944582 -0.171875
-0.35354146 -0.17237911 -0.17190516
-0.35353902 -0.15030122 -0.17192006
-0.35353172 -0.12822247 -0.17196524
-0.35349518 -0.10613886 -0.17219126
-0.33298045 -0.10645083 -0.16205716
-0.35342693 -0.084054142 -0.17261338
-0.33291271 -0.084287651 -0.16249728
-0.3533563 -0.061975628 -0.17305017
-0.3328473 -0.062131606 -0.16292214
-0.35328817 -0.039904088 -0.17347205
-0.33277956 -0.039981909 -0.16336203
-0.3327142 -0.017838994 -0.16378653
-0.3532711 -0.017838897 -0.17357743
-0.35326138 0.0042249374 -0.17363763
-0.33270255 0.0043000933 -0.16386223
-0.35327595 0.02629008 -0.17354727
-0.33273986 0.026442962 -0.16361976
-0.35331491 0.048360214 -0.17330635
-0.33280525 0.048593774 -0.16319525
-0.35338309 0.070439555 -0.17288458
-0.33287299 0.070751518 -0.16275525
-0.35345376 0.092526019 -0.17244756
-0.3329384 0.092915513 -0.16233039
-0.35352197 0.11461854 -0.17202568
-0.35353661 0.13669968 -0.1719352
-0.35353902 0.15877755 -0.17192006
-0.35354146 0.18085569 -0.17190492
-0.35354391 0.20293401 -0.17188978
-0.35350248 0.22498961 -0.1721462
-0.33299446 0.22585151 -0.16196609
-0.35298404 0.24676856 -0.17535317
-0.33254385 0.24773493 -0.16489279
-0.33359358 -0.26185897 -0.15807474
-0.31314245 -0.262862 -0.14622974
-0.31211689 -0.24004738 -0.15324152
-0.33300853 -0.21722844 -0.16187489
-0.31233141 -0.21792817 -0.15177464
-0.33302251 -0.19507961 -0.16178381
-0.31236273 -0.19570921 -0.15156054
-0.33302018 -0.17292367 -0.16179919
-0.31236273 -0.17347544 -0.15156054
-0.33301786 -0.15076795 -0.16181433
-0.3123605 -0.15124086 -0.15157592
-0.33301318 -0.12861201 -0.16184473
-0.31235602 -0.12900606 -0.15160644
-0.31235158 -0.10677166 -0.1516372
-0.31229344 -0.084529355 -0.15203428
-0.31222859 -0.062292434 -0.15247762
-0.3121638 -0.040062301 -0.15292084
-0.31209901 -0.017838946 -0.15336382
-0.31205881 0.0043789335 -0.1536386
-0.3121236 0.026603403 -0.15319574
-0.31218839 0.048834898 -0.15275276
-0.31225318 0.07107313 -0.15230954
-0.31232023 0.093318723 -0.15185094
-0.3330062 0.11508663 -0.16189039
-0.31235382 0.11556102 -0.1516217
-0.33301553 0.13724422 -0.16182935
-0.31235826 0.13779587 -0.15159118
-0.33301786 0.15939994 -0.16181433
-0.3123605 0.16003036 -0.15157592
-0.33302018 0.18155569 -0.16179907
-0.31236273 0.18226512 -0.15156043
-0.33302251 0.20371188 -0.16178393
-0.31234929 0.2044919 -0.15165234
-0.3123225 0.22670934 -0.1518358
-0.31195614 0.24870959 -0.15434062
-0.35554358 0.27040374 -0.15951991
-0.33529913 0.27165696 -0.14699697
-0.2925632 -0.26389813 -0.13399315
-0.29138073 -0.24087222 -0.14252651
-0.27049011 -0.2417032 -0.13173175
-0.2915087 -0.21863277 -0.14160323
-0.27057531 -0.21936186 -0.13108063
-0.27055907 -0.19696285 -0.13120461
-0.29152578 -0.19633004 -0.14147985
-0.29155353 -0.17402945 -0.1412797
-0.27058142 -0.17458157 -0.13103402
-0.29157913 -0.15172498 -0.14109492
-0.27060577 -0.15219831 -0.13084793
-0.29157487 -0.12940952 -0.14112568
-0.27063012 -0.12981229 -0.13066173
-0.29157057 -0.10709438 -0.14115655
-0.27064025 -0.10741996 -0.13058424
-0.29156205 -0.084779203 -0.14121819
-0.27063012 -0.085022941 -0.13066173
-0.29155564 -0.062465042 -0.14126432
-0.27062404 -0.062627569 -0.13070834
-0.29151511 -0.040149763 -0.14155686
-0.27061591 -0.040232722 -0.13077021
-0.29145324 -0.017838994 -0.1420033
-0.2706098 -0.017838946 -0.13081682
-0.29141486 0.0044662524 -0.14228046
-0.27060577 0.0045542978 -0.13084781
-0.2914767 0.026778428 -0.14183402
-0.27061185 0.026948219 -0.13080132
-0.29154071 0.049097724 -0.1413722
-0.27061996 0.04934331 -0.13073933
-0.29155779 0.071413681 -0.14124882
-0.27062607 0.07173878 -0.13069272
-0.29156631 0.093729302 -0.14118731
-0.27063417 0.094135515 -0.13063073
-0.29157272 0.11604501 -0.14114118
-0.27064231 0.11653335 -0.13056862
-0.29157698 0.13836077 -0.14111042
-0.27061996 0.13891949 -0.13073933
-0.29157057 0.16067202 -0.14115655
-0.27059561 0.16130216 -0.13092554
-0.29154071 0.18297109 -0.14137208
-0.27057126 0.18368185 -0.13111138
-0.29151085 0.20526667 -0.14158762
-0.27054489 0.20605749 -0.1313132
-0.29156417 0.22760972 -0.14120269
-0.27064025 0.22850893 -0.13058424
-0.29122731 0.24969876 -0.14363384
-0.27035019 0.25069937 -0.13280082
-0.31490958 0.27294284 -0.13414776
-0.27180097 -0.26493785 -0.12171483
-0.24944511 -0.24254155 -0.12084055
-0.24954709 -0.22012873 -0.12001264
-0.24974927 -0.19775322 -0.11837089
-0.18141675 -0.19722098 -0.1270119
-0.15940833 -0.19749732 -0.12252617
-0.13746196 -0.19786884 -0.11649251
-0.24976471 -0.17527063 -0.11824584
-0.2497859 -0.15278837 -0.11807358
-0.24980903 -0.13030402 -0.11788583
-0.24982446 -0.10781484 -0.11776054
-0.24982253 -0.085320465 -0.11777639
-0.24981287 -0.062825464 -0.1178546
-0.24980327 -0.040331572 -0.11793292
-0.24979168 -0.017838994 -0.11802673
-0.2497859 0.0046526175 -0.11807382
-0.24979553 0.027145391 -0.11799538
-0.24980518 0.049639381 -0.11791718
-0.24981481 0.07213448 -0.11783886
-0.24982446 0.094630934 -0.11776066
-0.24982253 0.11712414 -0.11777639
-0.2497994 0.13960786 -0.11796427
-0.24977818 0.16208963 -0.11813629
-0.24975508 0.18456787 -0.11832404
-0.24883831 0.20648459 -0.12576723
-0.22667757 0.20666553 -0.12341499
-0.20449954 0.20686018 -0.1208874
-0.1825698 0.20727564 -0.11548972
-0.24955288 0.2294081 -0.11996567
-0.2493163 0.25170758 -0.12188649
-0.2943705 0.27426353 -0.12094975
-0.25085673 -0.26598245 -0.10937953
-0.22824734 -0.24338999 -0.10982025
-0.20694533 -0.24428494 -0.098193169
-0.22801858 -0.22069763 -0.11180151
-0.2058908 -0.22096248 -0.10797822
-0.18384749 -0.22132659 -0.10272229
-0.22875687 -0.19855151 -0.10540771
-0.20699835 -0.19902611 -0.097701311
-0.11542463 -0.19824186 -0.11043382
-0.09329138 -0.1986127 -0.10441315
-0.071052305 -0.19897042 -0.098605514
-0.22876781 -0.17596748 -0.10531318
-0.070778333 -0.17608926 -0.10305417
-0.047830306 -0.17574841 -0.10937965
-0.025340907 -0.17582899 -0.10788345
-0.0029683411 -0.1761055 -0.10275388
-0.2287842 -0.1533843 -0.10517097
-0.070855282 -0.15353975 -0.10180509
-0.047841318 -0.15319933 -0.10917509
-0.025218762 -0.15313692 -0.11052811
-0.0028182194 -0.15331572 -0.10665417
0.019499265 -0.15370886 -0.098145485
-0.22880608 -0.13080071 -0.10498166
-0.070891313 -0.13094546 -0.10121942
-0.047860838 -0.13065322 -0.10881293
-0.02518826 -0.13056181 -0.11118853
-0.0027727187 -0.13069077 -0.10783625
0.019549534 -0.13100094 -0.099778295
-0.22881886 -0.10821175 -0.10487103
-0.070896216 -0.10832664 -0.10114026
-0.047863387 -0.10809182 -0.10876548
-0.025181718 -0.10801288 -0.11133015
-0.002748467 -0.10810103 -0.10846627
0.019579284 -0.10833885 -0.10074437
-0.22882068 -0.085618861 -0.1048553
-0.070900105 -0.08570613 -0.10107684
-0.04786592 -0.085529603 -0.1087184
-0.025176637 -0.085466802 -0.11144006
-0.0027399734 -0.085530378 -0.10868692
0.019604139 -0.085695185 -0.10155177
-0.22882068 -0.063025638 -0.1048553
-0.070892312 -0.063081846 -0.10120356
-0.047866769 -0.062966377 -0.10870266
-0.025173731 -0.062923297 -0.11150289
-0.002733916 -0.062964097 -0.1088444
0.019616321 -0.063070416 -0.10194719
-0.22881156 -0.040431637 -0.10493433
-0.070892312 -0.040460326 -0.10120356
-0.047867619 -0.040402852 -0.1086868
-0.02517011 -0.040380467 -0.11158156
-0.0027308911 -0.040400915 -0.10892308
0.019621685 -0.0404533 -0.10212135
-0.070892312 -0.017838994 -0.10120344
-0.02516865 -0.017838946 -0.11161292
-0.0027290732 -0.017838994 -0.10897028
0.01962363 -0.017838946 -0.10218453
-0.22880244 -0.017838897 -0.10501313
-0.047867619 -0.017838849 -0.10868692
-0.22879517 0.0047526322 -0.10507619
-0.070892312 0.0047824327 -0.10120356
-0.047867619 0.0047249626 -0.10868692
-0.02516865 0.0047024302 -0.11161304
-0.0027296767 0.0047227833 -0.10895455
0.01962363 0.0047749225 -0.10218453
-0.22880426 0.027345469 -0.1049974
-0.070892312 0.027403956 -0.10120356
-0.047867619 0.027288677 -0.10868692
-0.02516865 0.027243661 -0.11161315
-0.0027296767 0.027284658 -0.10895455
0.01962363 0.027388839 -0.10218453
-0.2288152 0.04993996 -0.10490274
-0.070891313 0.050025046 -0.10121942
-0.047866769 0.0498522 -0.10870266
-0.025171556 0.049786396 -0.11155009
-0.0027320981 0.049847841 -0.10889161
0.019619733 0.050005615 -0.10205805
-0.22882068 0.0725343 -0.1048553
-0.070895217 0.072648168 -0.101156
-0.047866769 0.072415918 -0.10870266
-0.025174461 0.072330147 -0.11148727
-0.0027363375 0.072413497 -0.10878146
0.019613393 0.072626851 -0.1018523
-0.22881886 0.09512718 -0.10487103
-0.070898153 0.095271781 -0.10110855
-0.047865085 0.094978422 -0.10873425
-0.025178812 0.094876029 -0.11139297
-0.0027436242 0.094983749 -0.10859227
0.019594394 0.095266931 -0.10123527
-0.22881705 0.11771949 -0.10488677
-0.070895217 0.11789189 -0.10115588
-0.047862537 0.11753957 -0.10878134
-0.025183178 0.11742327 -0.11129856
-0.0027569458 0.11756434 -0.10824597
0.019567095 0.11792907 -0.10034871
-0.22879699 0.14030321 -0.10506058
-0.07087671 0.14049743 -0.10145676
-0.047850661 0.14009088 -0.10900187
-0.025199138 0.13998577 -0.11095273
-0.002789706 0.14017743 -0.10739505
0.019535385 0.14061266 -0.099318743
-0.22877508 0.16288336 -0.10524988
-0.070825078 0.16306521 -0.10229528
-0.047833689 0.16263287 -0.10931659
-0.025234737 0.16257958 -0.11018205
-0.0028346106 0.16282308 -0.10622811
0.019468479 0.16338241 -0.097145915
-0.22876418 0.18546703 -0.10534453
-0.070748158 0.18559182 -0.10354412
-0.047698103 0.18501745 -0.11183286
-0.025407903 0.18539155 -0.10643327
-0.003193967 0.18605259 -0.096892118
-0.16055736 0.20769142 -0.11008763
-0.13837656 0.20802997 -0.10569179
-0.1162278 0.20846798 -0.10000014
-0.22835821 0.2303485 -0.10886002
-0.20703939 0.23132549 -0.097320676
-0.22812569 0.25272492 -0.1108743
-0.20690772 0.25386414 -0.098542213
-0.273644 0.27559644 -0.10763144
-0.22975302 -0.26704913 -0.096780896
-0.20857063 -0.26820666 -0.083112359
-0.18547678 -0.24518968 -0.086441517
-0.16186434 -0.22179648 -0.095939279
-0.13983753 -0.22231618 -0.088438511
-0.11769695 -0.22283733 -0.080915451
-0.048724212 -0.19932851 -0.092790723
-0.026435472 -0.19985849 -0.084185481
-0.20758763 -0.17667225 -0.092233419
-0.11721621 -0.17694569 -0.087160707
-0.093953319 -0.17653085 -0.094858766
0.019337803 -0.17663623 -0.092902184
0.041762993 -0.17724331 -0.081637383
-0.20759794 -0.15398623 -0.092137933
-0.11726049 -0.15424271 -0.086585402
-0.093998484 -0.15389071 -0.094206929
0.041882798 -0.15423161 -0.086825013
-0.20761508 -0.13130118 -0.09197855
-0.11730602 -0.13153164 -0.085993648
-0.094038151 -0.13123746 -0.093634248
0.041944012 -0.13139752 -0.08947587
-0.20762882 -0.10861258 -0.091851354
-0.11732572 -0.10880089 -0.085737824
-0.094050281 -0.10856311 -0.093459249
0.041973844 -0.10864597 -0.090767741
-0.20763054 -0.085919537 -0.09183538
-0.1173208 -0.086058997 -0.085801721
-0.094050281 -0.08588203 -0.093459129
0.041996665 -0.085921474 -0.091755629
0.064526394 -0.086168073 -0.081075907
-0.20763227 -0.063226297 -0.091819286
-0.11730973 -0.06331677 -0.085945725
-0.094040357 -0.063198775 -0.093602419
0.042011738 -0.063217185 -0.092408657
0.064539984 -0.063378021 -0.081958294
-0.20763227 -0.040532622 -0.091819406
-0.11729986 -0.040576816 -0.086073756
-0.094034858 -0.040518276 -0.093682051
0.042017989 -0.040525936 -0.092679381
0.064547636 -0.040604629 -0.082455277
-0.11729742 -0.017838994 -0.086105585
-0.094034858 -0.017838946 -0.093681812
0.042020202 -0.017838946 -0.092774868
-0.20762369 -0.017838897 -0.091899037
0.064551085 -0.017838897 -0.082679749
-0.20761853 0.0048537143 -0.09194684
-0.11729742 0.0048986822 -0.086105704
-0.094034858 0.004840387 -0.093681931
0.042020202 0.0048473645 -0.092774868
0.064551085 0.0049250908 -0.082679629
-0.20762709 0.02754773 -0.091867089
-0.11729618 0.027636213 -0.086121678
-0.094034858 0.027519671 -0.093681812
0.042020202 0.027533678 -0.092774868
0.064551085 0.027689079 -0.08267951
-0.20763227 0.050242186 -0.091819406
-0.11730357 0.050375879 -0.086025715
-0.094035946 0.050199442 -0.093665957
0.042016156 0.050224014 -0.09259963
0.064544678 0.05046276 -0.082262993
-0.20763054 0.072935276 -0.09183538
-0.11731341 0.073118106 -0.085897803
-0.094044767 0.072882846 -0.093538642
0.042006962 0.072923988 -0.09220171
0.064536527 0.073246375 -0.081733465
-0.20762882 0.095628127 -0.091851234
-0.11732327 0.095862374 -0.085769892
-0.094052486 0.09556751 -0.0934273
0.041987464 0.095647074 -0.09135735
-0.20762709 0.11832084 -0.091867089
-0.11732327 0.11860251 -0.085769653
-0.094048075 0.11824587 -0.093490958
0.041961692 0.11839589 -0.090241432
-0.20760649 0.14100385 -0.092058182
-0.11728632 0.14131694 -0.08624959
-0.094021626 0.14090607 -0.093872666
0.041922636 0.14119293 -0.088550091
-0.20759448 0.16368881 -0.092169642
-0.11724203 0.16401792 -0.086825132
-0.093981959 0.16354872 -0.094445229
0.041847341 0.16411252 -0.085289836
-0.2075842 0.18637328 -0.092265248
-0.11722112 0.18673128 -0.087096691
-0.093918093 0.18615837 -0.095367312
0.019125573 0.18680663 -0.086009741
-0.094066806 0.20899001 -0.093220472
-0.071891047 0.20962383 -0.084985852
-0.18518749 0.23200205 -0.089332223
-0.16311142 0.23258561 -0.082439184
-0.18561763 0.2551119 -0.085033894
-0.25279412 0.2769956 -0.093649983
-0.1873185 -0.26948312 -0.068037987
-0.16383749 -0.2461028 -0.074579239
-0.095444314 -0.22336242 -0.073337913
-0.073072441 -0.22388448 -0.065802336
-0.0040496811 -0.2004451 -0.074659824
0.018477879 -0.20104145 -0.0649755
-0.18621778 -0.17738339 -0.079036713
-0.16425794 -0.17786889 -0.07002759
-0.14070579 -0.17742933 -0.078184843
0.064350575 -0.17788894 -0.069655776
-0.18622744 -0.15459572 -0.078940392
-0.16425049 -0.15500367 -0.070108533
-0.14066494 -0.15460846 -0.078667045
0.064425141 -0.15480103 -0.074498653
-0.1862371 -0.13180667 -0.07884407
-0.1642445 -0.13214044 -0.070173144
-0.14069352 -0.13182651 -0.078329563
0.064482383 -0.1318309 -0.07821703
0.087186068 -0.13230433 -0.065915942
-0.18624836 -0.10901666 -0.078731418
-0.16423854 -0.10927809 -0.070237756
-0.14072213 -0.1090394 -0.077991962
0.064506136 -0.10898498 -0.079759598
0.087200284 -0.10935432 -0.067762852
-0.18624994 -0.086222589 -0.078715324
-0.16422659 -0.086415395 -0.070366979
-0.14071259 -0.086236686 -0.078104496
0.087213367 -0.086436279 -0.069461703
-0.18625158 -0.063428268 -0.078699231
-0.16421315 -0.063554257 -0.070512533
-0.14070034 -0.063435242 -0.078249216
0.087220713 -0.063555904 -0.070415497
-0.18625316 -0.040633701 -0.078683257
-0.1642012 -0.040695585 -0.070641875
-0.14068943 -0.040636078 -0.078377843
0.087226056 -0.040691998 -0.071110368
-0.18625477 -0.017838946 -0.078667045
-0.16418928 -0.017838897 -0.070771098
-0.14067855 -0.017838897 -0.07850647
0.087227799 -0.017838897 -0.071336508
-0.18624994 0.0049556177 -0.078715324
-0.1641818 0.0050161406 -0.070851803
-0.14067855 0.0049572662 -0.078506351
0.087227799 0.0050124098 -0.071336389
-0.18625316 0.027750617 -0.078683138
-0.16419375 0.027873261 -0.070722699
-0.14068264 0.027754059 -0.078458309
0.087227926 0.027863475 -0.071352601
-0.18625158 0.050545134 -0.07869947
-0.1642057 0.050732322 -0.070593357
-0.14069352 0.050553568 -0.078329563
0.087224066 0.050726317 -0.070851803
-0.18625158 0.073339745 -0.078699231
-0.16421765 0.073593371 -0.070464134
-0.14070439 0.073355108 -0.078201056
0.087218471 0.07360369 -0.070124626
-0.18624994 0.096133679 -0.078715324
-0.16422957 0.096456259 -0.070334673
-0.1407153 0.096158542 -0.078072429
0.064518243 0.096063368 -0.080546379
0.087208636 0.096513681 -0.068847179
-0.18624672 0.11892675 -0.078747511
-0.16423407 0.1193177 -0.070286393
-0.14071941 0.11896028 -0.078023911
0.064497977 0.11890465 -0.079229593
0.087194547 0.11946864 -0.067017794
-0.18623385 0.14171414 -0.078876019
-0.16424599 0.14218412 -0.070156932
-0.1406731 0.14173076 -0.078570724
0.064459845 0.14182864 -0.076753378
0.087174207 0.14249565 -0.064375043
-0.18622422 0.16450162 -0.07897234
-0.16425347 0.16504949 -0.070076227
-0.14068127 0.16453236 -0.078474283
0.06440106 0.16487353 -0.072934389
-0.18621618 0.18728858 -0.079052806
-0.16425943 0.18791513 -0.070011497
-0.1407153 0.18735647 -0.078072548
0.04161004 0.18756847 -0.075014353
-0.049590997 0.21026127 -0.076705098
-0.027165599 0.2109023 -0.068377852
-0.14091972 0.23315981 -0.075658679
-0.11862598 0.23373669 -0.068847179
-0.16412959 0.25636977 -0.071417093
-0.2321474 0.27875742 -0.076045036
-0.16584703 -0.27077124 -0.052825451
-0.14204568 -0.2470433 -0.062361598
-0.050637566 -0.22447468 -0.057283282
0.041134976 -0.20169006 -0.054443717
0.087116227 -0.17857932 -0.056843042
0.087152705 -0.15539753 -0.061581492
0.11007915 -0.15601991 -0.04810822
0.11007915 -0.13280503 -0.052907109
0.11007915 -0.10974439 -0.055096865
0.11007915 -0.086724743 -0.056973338
0.11007915 -0.063744932 -0.058130622
0.11007915 -0.04078605 -0.058896661
0.11007915 -0.017838897 -0.059254766
0.11007915 0.0051053502 -0.059254766
0.11007915 0.028049598 -0.059270978
0.11007915 0.051009543 -0.058587074
0.11007915 0.07398209 -0.057837367
0.11007915 0.09700004 -0.056206584
0.11007915 0.12005541 -0.054312825
0.11007915 0.1432194 -0.050943732
0.087137923 0.1656909 -0.059661746
0.064248532 0.18839887 -0.063027501
0.087071195 0.18923262 -0.050992727
-0.0046025217 0.2115245 -0.060296535
0.018066987 0.2121914 -0.051630974
-0.096305035 0.23440847 -0.060914755
-0.074029885 0.23531103 -0.050255775
-0.14251298 0.25771609 -0.056843042
-0.21160927 0.28087175 -0.054917216
-0.14418817 -0.27210623 -0.037059665
-0.12026665 -0.24818476 -0.04753387
-0.028141223 -0.22516946 -0.047254801
-0.0054930896 -0.22586894 -0.037158966
0.063956611 -0.20232911 -0.044067025
0.086945347 -0.20290928 -0.034645081
0.11007915 -0.17932288 -0.043046832
0.13321613 -0.15666081 -0.034231067
0.13317719 -0.13332924 -0.039289117
0.13315828 -0.11015545 -0.041745901
0.13314131 -0.087025374 -0.043952107
0.13313231 -0.063945353 -0.045119405
0.133127 -0.040886793 -0.045809746
0.15638424 -0.040991507 -0.032209635
0.13312422 -0.017838897 -0.046171069
0.15637939 -0.017838897 -0.032524705
0.13312422 0.0052061882 -0.046171188
0.15637939 0.0053111482 -0.032524705
0.13312422 0.028251177 -0.046171069
0.15637939 0.028461335 -0.032524705
0.13312927 0.051311478 -0.045513988
0.15638858 0.051625237 -0.031927705
0.13313434 0.074381813 -0.044856548
0.13314763 0.097503416 -0.043129206
0.1331659 0.12068157 -0.04075706
0.13319257 0.14395498 -0.03729105
0.11007915 0.16652359 -0.046138287
0.13323297 0.16739164 -0.032043815
0.11007915 0.19016135 -0.037588596
0.040859617 0.21289277 -0.042520046
0.063791662 0.2135985 -0.033353329
-0.051651664 0.23630947 -0.038463831
-0.12091023 0.25934827 -0.039173722
-0.19077626 0.28301644 -0.033485889
-0.12247577 -0.27364928 -0.018836975
-0.098333977 -0.24940911 -0.031629205
0.017308377 -0.22657317 -0.026994467
0.11007915 -0.20350768 -0.02493012
0.22630575 -0.20380151 -0.020157933
0.22622347 -0.18044098 -0.022295475
0.13325673 -0.18008196 -0.028956532
0.1565721 -0.15731788 -0.020007253
0.22621064 -0.15719664 -0.02262938
0.15649016 -0.13386653 -0.025329947
0.22620872 -0.13396844 -0.022679329
0.15645352 -0.11058774 -0.027709842
0.22620872 -0.11074251 -0.022679329
0.15641618 -0.08734446 -0.030135751
0.22620872 -0.087516628 -0.022679329
0.15639471 -0.064154543 -0.031529784
0.17989162 -0.064380638 -0.016844988
0.22620872 -0.064290702 -0.022679329
0.17987731 -0.041104995 -0.017464399
0.20314595 -0.041105673 -0.017380834
0.22620806 -0.041064728 -0.022696018
0.17986996 -0.017838946 -0.017782569
0.20308824 -0.017838897 -0.019254923
0.22620744 -0.017838849 -0.022712708
0.17986996 0.0054247286 -0.017782688
0.20302957 0.0053986106 -0.021160126
0.22620744 0.0053866431 -0.022712708
0.17986996 0.028688258 -0.017782569
0.20297098 0.028606998 -0.023063183
0.22620744 0.028612377 -0.022712708
0.17988388 0.051965795 -0.017179966
0.20291245 0.051785968 -0.024963498
0.22620744 0.051837914 -0.022712708
0.15639853 0.074799851 -0.031280875
0.17989665 0.075250983 -0.016627073
0.20285453 0.074936502 -0.02684474
0.22620744 0.07506375 -0.022712708
0.15643151 0.09804187 -0.02913928
0.20279616 0.098057278 -0.028740525
0.22620744 0.098289289 -0.022712708
0.15646914 0.12133108 -0.026695132
0.20273787 0.12114912 -0.030633688
0.22620744 0.12151502 -0.022712469
0.1565243 0.14471899 -0.023113012
0.15660636 0.16826987 -0.017782569
0.13329029 0.19106139 -0.02459693
0.086846039 0.21449219 -0.021744609
-0.029118516 0.23735678 -0.026095748
-0.099085934 0.26104784 -0.020776033
-0.10056626 -0.27529439 0.00059092045
-0.07616692 -0.2506465 -0.015554547
0.13338614 -0.20429482 -0.012147665
0.25026801 -0.20475739 -0.0046355724
0.15665719 -0.18086205 -0.014481306
0.18028919 -0.18166234 0.00037074089
0.25011766 -0.18121727 -0.0078909397
0.18015292 -0.15798643 -0.0055302382
0.25011766 -0.1578775 -0.0078909397
0.1800265 -0.13441783 -0.011004806
0.25011766 -0.13453767 -0.0078908205
0.17997527 -0.11103369 -0.013222694
0.25011843 -0.11119848 -0.007874012
0.17992374 -0.087683566 -0.015454054
0.20326364 -0.087727316 -0.013558388
0.25011843 -0.087858543 -0.007874012
0.20320372 -0.064401232 -0.015504479
0.25011843 -0.06451869 -0.007874012
0.25011843 -0.041178845 -0.007874012
0.25011766 -0.017838994 -0.0078908205
0.25011766 0.0055007581 -0.0078908205
0.25011766 0.028840607 -0.0078908205
0.25011766 0.052180365 -0.0078907013
0.25011766 0.075520068 -0.0078909397
0.17994736 0.098608084 -0.014431
0.25011766 0.098859817 -0.0078909397
0.17999429 0.1219914 -0.012399673
0.25011766 0.12219957 -0.0078909397
0.18007857 0.14549302 -0.0087497234
0.18021065 0.1691784 -0.0030305386
0.15672988 0.19208939 -0.0097597837
-0.076946519 0.2626996 -0.0028953552
-0.16964349 0.28519383 -0.011727571
-0.05381646 -0.25197551 0.0017096996
0.15693676 -0.20526938 0.003677845
0.27448064 -0.20572637 0.011098385
0.20415756 -0.18247616 0.015472054
0.20397142 -0.15867734 0.0094274282
0.2037881 -0.13497514 0.0034741163
0.20371604 -0.11147576 0.0011332035
0.20386553 0.14628722 0.0059887171
0.20405072 0.17010418 0.012002826
0.18040794 0.19314751 0.0055125952
-0.054597713 0.26446435 0.016207933
-0.14850906 0.28776529 0.013967276
-0.078546666 -0.27719948 0.02308774
-0.03138227 -0.2536079 0.022915721
0.18071984 -0.20621404 0.019017935
0.22792199 0.14714107 0.021833181
0.22815323 0.17107967 0.027840972
0.2043238 0.19421147 0.020871282
-0.0080301389 0.24200156 0.028755426
-0.0086250082 -0.25524721 0.044210672
0.039094605 -0.2307926 0.033907175
0.20475614 -0.20719287 0.03491199
0.27649826 -0.11293562 0.048540115
0.27638716 -0.089113764 0.04647851
0.27631477 -0.065334752 0.045134664
0.27627999 -0.04158191 0.044489503
0.27626309 -0.017838897 0.044175744
0.27626309 0.0059015937 0.044175744
0.27626309 0.029642133 0.044175625
0.27629504 0.053396434 0.044768333
0.27632982 0.077161349 0.045413971
0.27643517 0.10098673 0.047369242
0.2765463 0.1248472 0.049431801
0.25223163 0.14800569 0.037878036
0.25246939 0.17201482 0.043025613
0.22848278 0.19528751 0.036402822
0.11007915 0.2188095 0.034340143
0.015007809 0.24360731 0.047718525
-0.032054104 0.26642764 0.037461281
0.27719164 -0.1849515 0.061407924
0.2769157 -0.16084172 0.056286454
0.2766529 -0.13682027 0.051409721
0.30129096 -0.1134449 0.065078974
0.30116153 -0.089494832 0.062977552
0.30107573 -0.065588042 0.061584115
0.30103448 -0.041708332 0.060914278
0.30101386 -0.017838994 0.060579658
0.30101278 0.0060277265 0.060561776
0.30101278 0.029894495 0.060561895
0.30105186 0.053775899 0.061196327
0.301092 0.077667437 0.061848521
0.30121696 0.10162225 0.063877583
0.27677 0.14885189 0.053583026
0.27702841 0.17296025 0.058378696
0.25289065 0.19637837 0.052145481
-0.0092042089 0.26844111 0.059258699
-0.057579435 -0.28130239 0.071541667
0.014421538 -0.25698298 0.066758275
0.062209457 -0.23325251 0.069413781
0.086126417 -0.23341353 0.071736932
0.30210948 -0.18586549 0.078370214
0.30174908 -0.16159144 0.072517991
0.30144668 -0.13744362 0.067607641
0.3263469 -0.11395791 0.081741929
0.32621703 -0.089884862 0.079867959
0.32612684 -0.065849565 0.078566313
0.32608366 -0.041839458 0.07794261
0.32606021 -0.017838897 0.077604055
0.32606021 0.0061588511 0.077604055
0.32606021 0.030156842 0.077604175
0.32610217 0.054168746 0.078209877
0.32614538 0.078190528 0.07883358
0.32627389 0.10226915 0.080688834
0.30133992 0.12560663 0.0658741
0.30157757 0.14972226 0.069733024
0.30187818 0.17396016 0.074614286
0.27754956 0.19748019 0.068050265
0.038317963 0.24528545 0.067536831
0.037783496 -0.25882444 0.090679765
0.32732636 -0.18680897 0.095879555
0.32686162 -0.16236059 0.089171648
0.32652643 -0.13808742 0.084333777
0.32640257 0.1263767 0.082545996
0.32667282 0.15062274 0.086446404
0.32700843 0.17498708 0.091290712
0.30253735 0.19867648 0.085318089
0.061930396 0.24697924 0.087539434
0.013830192 0.27090791 0.085962772
0.061529931 -0.26058501 0.11355031
0.35279015 -0.090652324 0.11309469
0.35252395 -0.066327877 0.10963643
0.35236868 -0.042067882 0.10761988
0.35229045 -0.017838994 0.10660326
0.35229045 0.0063821413 0.10660326
0.35229045 0.030603325 0.10660338
0.3524344 0.054867737 0.1084733
0.35260233 0.079170279 0.11065507
0.3278169 0.19989885 0.10296011
0.085843481 0.2487534 0.10849154
0.08567775 -0.26185295 0.13002074
0.11007915 -0.2365341 0.11677945
0.35374486 -0.11530521 0.12549686
0.35315537 0.10369916 0.1178391
0.1344265 0.22563481 0.12300122
0.11007915 0.25026336 0.12632322
0.11007915 -0.26313415 0.14666438
0.13449359 -0.23756886 0.13171601
0.1591402 -0.23861355 0.1467948
0.33000863 -0.21333185 0.1345948
0.35475987 -0.14017931 0.13868189
0.35437843 0.12874067 0.13372695
0.3550753 0.15365835 0.14277947
0.13458133 0.25168514 0.14311385
0.036637284 0.27592856 0.14031243
0.061234068 0.27523166 0.13276744
0.18402228 -0.23966835 0.16201746
0.30642885 -0.21418869 0.14850795
0.35642755 -0.19028287 0.16034603
0.35547182 -0.16507447 0.14793038
0.35577473 0.17871737 0.15186524
0.15917718 0.2276513 0.14919758
0.15934478 0.25312209 0.16008317
0.13473944 -0.26444194 0.1636529
0.20914322 -0.2407331 0.17738616
0.35727867 0.20464066 0.17140257
0.18407872 0.22882642 0.16446209
0.18437371 0.25457445 0.17723465
0.15969223 -0.26590434 0.18264985
0.23450649 -0.24180816 0.1929034
0.35877025 -0.21679185 0.19077873
0.20921862 0.23000973 0.17983556
0.23459724 0.23119722 0.195261
0.20967296 0.256044 0.19458973
0.18493336 -0.267353 0.20146894
0.26011559 -0.24289364 0.20857096
0.26022109 0.23239765 0.21085477
0.21069594 -0.26938096 0.22781217
0.28587636 -0.24386394 0.22257578
0.3866958 -0.068132848 0.22687304
0.38664278 -0.042981148 0.22624719
0.38636988 -0.017838897 0.22302449
0.38626418 0.0072687585 0.22177601
0.38657492 0.032433011 0.22544575
0.38666597 0.057593822 0.22652113
0.28609315 0.23360962 0.22659922
0.3106257 0.23284426 0.21665609
0.36126155 0.23334342 0.22314155
0.23524591 0.25752783 0.2121141
0.38773149 -0.14404452 0.23910415
0.38758805 -0.11875132 0.23741055
0.38750306 -0.093499988 0.23640668
0.38707557 0.082887068 0.23135841
0.38754138 0.10828023 0.23685932
0.38762808 0.13355142 0.23788285
0.38811582 0.15909354 0.24364281
0.33735171 0.23468611 0.24058294
0.26109749 0.25902811 0.22982931
0.23695576 -0.27159226 0.2565378
0.36333814 -0.27109793 0.25011754
0.31247035 -0.24552903 0.24660981
0.3889651 -0.19531187 0.25367248
0.388419 -0.16966072 0.24722362
0.38867247 0.18477444 0.25021672
0.28723228 0.26054448 0.24773848
0.33916992 -0.24692972 0.26682675
0.38967904 0.21092464 0.2621038
0.31365493 0.26207775 0.26584506
0.26368329 -0.27384582 0.28581357
0.36602676 -0.24819177 0.28504324
0.39121377 -0.22230043 0.28022802
0.39231813 0.2387419 0.29326975
0.34037024 0.26362804 0.28415203
0.39317942 -0.24946643 0.30344141
0.41874558 -0.12072773 0.30159843
0.41853023 -0.094951712 0.29926729
0.41876638 0.059332892 0.30182374
0.41819078 0.084864929 0.29559278
0.36738312 0.26519531 0.30266321
0.29089427 -0.27614626 0.31569648
0.42069742 -0.2508027 0.3227278
0.41998497 -0.22444285 0.31501544
0.41979074 -0.19850411 0.31291258
0.41973937 -0.17266913 0.31235635
0.41969371 -0.14684498 0.31186223
0.41957012 -0.06942074 0.31052446
0.41963285 -0.043635175 0.31120336
0.41955113 -0.017838897 0.31031859
0.4195435 0.0079496242 0.31023645
0.41955113 0.033739746 0.31031859
0.41967848 0.1111607 0.31169748
0.41959864 0.13692082 0.31083322
0.41971654 0.16278286 0.31210935
0.4197641 0.18861766 0.31262422
0.41982499 0.21447043 0.31328356
0.4201299 0.24053666 0.31658411
0.39470032 0.26678222 0.32140183
0.44777277 -0.22565036 0.33462405
0.4475995 -0.19958064 0.33289254
0.44754317 -0.17359155 0.33232987
0.44748688 -0.14761108 0.33176696
0.44747436 -0.12165277 0.33164215
0.44746187 -0.095696591 0.3315171
0.44744515 -0.069741525 0.33135068
0.44737431 -0.043784708 0.33064234
0.447341 -0.017839042 0.33030939
0.44732222 0.0081028454 0.33012199
0.44735557 0.034049675 0.33045495
0.44738892 0.060001843 0.33078814
0.44745561 0.085969217 0.33145475
0.44746602 0.11192515 0.33155882
0.44747853 0.1378839 0.33168364
0.44751397 0.16385676 0.33203816
0.44756612 0.18984526 0.33255899
0.44759741 0.21582747 0.33287156
0.44784379 0.24198011 0.33533382
0.44864389 -0.2522299 0.34332883
0.4758327 -0.22684103 0.35395634
0.47572124 -0.20065992 0.35292208
0.47567576 -0.17452313 0.35250032
0.47560987 -0.14838567 0.35188878
0.47558942 -0.12227045 0.35169899
0.47556442 -0.096157223 0.35146725
0.47553715 -0.070047192 0.35121429
0.47533512 -0.043928724 0.34933937
0.47529656 -0.017838946 0.34898138
0.47527388 0.0082463752 0.3487711
0.47531471 0.034337558 0.34914982
0.47535098 0.060433641 0.34948671
0.4755508 0.086581565 0.35134041
0.47557807 0.11269625 0.35159361
0.47559622 0.13881123 0.35176229
0.4756417 0.16494225 0.35218406
0.47570306 0.191089 0.35275352
0.47571668 0.21721387 0.35288
0.47579402 0.24338603 0.3535974
0.42255977 0.2686016 0.34288824
0.47695091 -0.25368521 0.36433232
0.50411987 -0.22799402 0.37267876
0.50415927 -0.20174298 0.37302029
0.50413215 -0.17546004 0.37278557
0.50406069 -0.14916617 0.37216651
0.50401634 -0.12288886 0.37178254
0.50398433 -0.096619889 0.37150538
0.50395232 -0.070355378 0.37122798
0.50357342 -0.044071868 0.36794686
0.50352925 -0.017839042 0.36756384
0.50350714 0.0083895177 0.36737239
0.5035513 0.034623936 0.36775529
0.50359559 0.060864374 0.36813855
0.50396955 0.087198377 0.37137723
0.50399911 0.11346763 0.37163329
0.50403112 0.13974184 0.37191057
0.5040952 0.16603522 0.37246537
0.50416422 0.19233973 0.37306309
0.50415683 0.21860754 0.37299895
0.50407797 0.24482688 0.37231612
0.45090955 0.27055606 0.36596859
0.50557441 -0.25513619 0.3852756
0.53196192 -0.044206627 0.3854475
0.53191429 -0.017838994 0.38506067
0.53187191 0.0085230153 0.38471663
0.53193545 0.034893021 0.38523233
0.5320043 0.061271943 0.38579178
0.53450668 -0.25657943 0.40610826
0.5328272 -0.22921285 0.39247227
0.53288305 -0.20281562 0.39292598
0.53289366 -0.17639445 0.39301229
0.53280056 -0.14993945 0.3922565
0.53274739 -0.12350596 0.3918246
0.53271288 -0.097082697 0.39154422
0.53266239 -0.070661865 0.39113426
0.56064063 -0.044342592 0.4031074
0.56056678 -0.017839042 0.40254259
0.56052125 0.0086575802 0.40219498
0.56060654 0.035164237 0.40284669
0.56071174 0.061684459 0.40365052
0.53268892 0.087813489 0.39135003
0.53272879 0.11423913 0.39167368
0.53276336 0.14066762 0.3919543
0.53285378 0.16712499 0.39268839
0.53293091 0.19358692 0.39331484
0.53287506 0.21998386 0.39286101
0.53275007 0.24633041 0.39184642
0.48032606 0.27306947 0.39564943
0.56184947 -0.23043673 0.41234422
0.56194955 -0.20390318 0.41310871
0.56199813 -0.17733979 0.4134804
0.56187803 -0.15072106 0.41256249
0.56181514 -0.12412974 0.4120822
0.56176656 -0.097548567 0.41171074
0.5617094 -0.070971943 0.41127408
0.58961058 -0.044479679 0.42090595
0.58951628 -0.017838897 0.42022586
0.58946764 0.0087936465 0.41987479
0.58955884 0.035436511 0.42053306
0.5898875 0.062128998 0.42290497
0.56173801 0.088433683 0.41149235
0.56179225 0.11501792 0.41190732
0.56183517 0.14160438 0.4122349
0.56193811 0.16822055 0.41302145
0.56204104 0.19484901 0.41380823
0.56192094 0.22137137 0.4128902
0.56192666 0.24795362 0.41293383
0.56382477 -0.25805736 0.42743838
0.59119445 -0.23166792 0.43233681
0.59139353 -0.20501667 0.43377364
0.59144258 -0.17829347 0.43412733
0.5913108 -0.1515144 0.4331764
0.59122199 -0.12475964 0.43253541
0.59116077 -0.098019227 0.43209374
0.59109956 -0.07128565 0.43165195
0.61894643 0.0089434274 0.43933356
0.5911302 0.08906135 0.43187273
0.59119135 0.11580336 0.43231463
0.59125262 0.14255235 0.43275654
0.59137517 0.16933161 0.43364108
0.59151006 0.19613028 0.43461418
0.5913108 0.22277696 0.43317676
0.59160513 0.24967548 0.43530023
0.51058543 0.27586561 0.42867267
0.59358221 -0.2595906 0.44956958
0.62109721 -0.23300441 0.4540385
0.62134278 -0.15238202 0.45571744
0.62121832 -0.12544729 0.45486665
0.62115288 -0.098534763 0.45441878
0.62110049 -0.071630761 0.45406079
0.61928737 -0.044639394 0.4416647
0.61908931 -0.017838994 0.44031
0.61922246 0.03575512 0.44122052
0.61984694 0.062650785 0.44549012
0.62112343 0.089749292 0.45421755
0.6211856 0.11666274 0.45464265
0.62125105 0.1435838 0.4550904
0.6212216 0.22428116 0.45488882
0.62357002 -0.26107144 0.47094524
0.62143779 -0.20623425 0.4563669
0.62150007 -0.17934029 0.45679259
0.64878291 0.0090962611 0.45916951
0.62142795 0.17055279 0.45629966
0.62156236 0.19752224 0.45721865
0.62148362 0.25132132 0.45668077
0.54080182 0.27828285 0.45721865
0.65130985 -0.23433121 0.47558284
0.65187192 -0.20746647 0.47923338
0.65195227 -0.18040091 0.47975552
0.65174264 -0.15325487 0.47839367
0.65160644 -0.12614444 0.47750902
0.65154707 -0.099059254 0.47712374
0.65144241 -0.071975432 0.47644377
0.65115649 -0.044892773 0.47458637
0.65107632 -0.017838994 0.4740659
0.6511007 0.036263235 0.47422409
0.65122265 0.063332625 0.47501647
0.65149826 0.09044484 0.4768064
0.65157157 0.11753419 0.47728252
0.65164137 0.14462975 0.47773588
0.65185094 0.17178126 0.47909713
0.6520012 0.19892992 0.48007345
0.65150869 0.22580436 0.47687423
0.65174615 0.25299451 0.47841632
0.5713796 0.28064948 0.48516762
0.65393102 -0.26257235 0.49260783
0.68188995 -0.23567154 0.49734843
0.68271792 -0.20871855 0.50246978
0.68278855 -0.18147014 0.50290692
0.68253946 -0.15413901 0.50136614
0.68236864 -0.12684648 0.50030899
0.68224615 -0.099577017 0.4995513
0.68212736 -0.072319865 0.49881649
0.68193078 -0.045069933 0.49760067
0.68178248 -0.017838994 0.49668348
0.68130857 0.0093624834 0.49375176
0.68185663 0.036616005 0.49714208
0.68201238 0.063865744 0.49810541
0.68218672 0.0911339 0.49918401
0.68230921 0.11840641 0.49994147
0.68242437 0.14568818 0.50065386
0.68266588 0.1730233 0.50214779
0.68285549 0.20036152 0.50332093
0.68214589 0.22733259 0.49893153
0.68239462 0.2546922 0.50047004
0.68504733 -0.26425394 0.51687956
0.7130006 -0.23708323 0.52026796
0.71307147 -0.017838897 0.52068615
0.71250141 0.009543905 0.51732004
0.71410817 -0.21003003 0.52680755
0.71424645 -0.18261185 0.52762377
0.71397787 -0.15508866 0.52603841
0.71376485 -0.1275999 0.52478015
0.71361893 -0.10013989 0.52391875
0.71346521 -0.072692111 0.52301109
0.71325254 -0.045256007 0.52175522
0.71316588 0.036987089 0.52124393
0.71335888 0.064426489 0.52238321
0.71354407 0.091881782 0.5234766
0.71368992 0.11934531 0.52433777
0.7138437 0.14682415 0.52524626
0.7141161 0.17435457 0.52685452
0.71427011 0.20186689 0.52776396
0.71330369 0.22893472 0.52205765
0.713615 0.25649557 0.5238955
0.6041103 0.284069 0.52554929
0.71690089 -0.26608431 0.54329801
0.74457961 -0.23853466 0.54383922
0.74583656 -0.21133037 0.55093896
0.74611282 -0.15610713 0.55249906
0.7457152 -0.12838426 0.55025339
0.74544764 -0.10071319 0.54874241
0.74528468 -0.073074341 0.547822
0.74506336 -0.045446828 0.54657197
0.74484229 -0.017838897 0.5453229
0.74432546 0.009736957 0.54240406
0.74495071 0.03736718 0.54593563
0.74518031 0.065000318 0.54723239
0.7453683 0.092646047 0.54829371
0.74552709 0.12030186 0.54919076
0.74591601 0.14803152 0.55138767
0.74486727 0.23055638 0.54546428
0.7452805 0.25833547 0.54779828
0.77676022 -0.24006589 0.56870317
0.74660319 -0.18388873 0.55526841
0.74636 0.17581166 0.55389512
0.7466535 0.20357814 0.55555296
0.77822739 -0.21271555 0.57664454
0.77702487 0.23226571 0.57013583
0.77747095 0.26024088 0.57255006
0 0 0 1 0 0 0 1 0 0 0 1 0 0 0 0 0 1309 1 0 0
