ply
format ascii 1.0
comment PCL generated
element vertex 1014
property float x
property float y
property float z
element camera 1
property float view_px
property float view_py
property float view_pz
property float x_axisx
property float x_axisy
property float x_axisz
property float y_axisx
property float y_axisy
property float y_axisz
property float z_axisx
property float z_axisy
property float z_axisz
property float focal
property float scalex
property float scaley
property float centerx
property float centery
property int viewportx
property int viewporty
property float k1
property float k2
end_header
-0.21938708 -0.16682887 -0.20817786
-0.20311265 -0.16682887 -0.20817786
-0.18683819 -0.16682887 -0.20817786
-0.17056376 -0.16682887 -0.20817786
-0.15428931 -0.16682887 -0.20817786
-0.13801485 -0.16682887 -0.20817786
-0.12174042 -0.16682887 -0.20817786
-0.10546596 -0.16682887 -0.20817786
-0.089191526 -0.16682887 -0.20817786
-0.072917074 -0.16682887 -0.20817786
-0.056642633 -0.16682887 -0.20817786
-0.040368188 -0.16682887 -0.20817786
-0.024093743 -0.16682887 -0.20817786
-0.0078192987 -0.16682887 -0.20817786
0.0084551461 -0.16682887 -0.20817786
0.024729591 -0.16682887 -0.20817786
0.041004188 -0.16683006 -0.20816803
0.057278711 -0.16683006 -0.20816803
0.073553234 -0.16683006 -0.20816803
0.089827746 -0.16683006 -0.20816803
0.10610227 -0.16683006 -0.20816803
0.12237678 -0.16683006 -0.20816803
0.13865131 -0.16683006 -0.20816803
0.15492582 -0.16683006 -0.20816803
0.17120035 -0.16683006 -0.20816803
0.18747404 -0.16682887 -0.20817786
0.20374848 -0.16682887 -0.20817786
0.22002293 -0.16682887 -0.20817786
-0.21901482 -0.15018219 -0.21163201
-0.20276695 -0.15018219 -0.21163201
-0.18651912 -0.15018219 -0.21163201
-0.17027126 -0.15018219 -0.21163201
-0.15402341 -0.15018219 -0.21163201
-0.13777556 -0.15018219 -0.21163201
-0.12152769 -0.15018219 -0.21163201
-0.10527983 -0.15018219 -0.21163201
-0.089031979 -0.15018219 -0.21163201
-0.072784126 -0.15018219 -0.21163201
-0.056536268 -0.15018219 -0.21163201
-0.040288419 -0.15018219 -0.21163201
-0.024040561 -0.15018219 -0.21163201
-0.0077927075 -0.15018219 -0.21163201
0.0084551461 -0.15018219 -0.21163201
0.024703 -0.15018219 -0.21163201
0.040950853 -0.15018219 -0.21163201
0.057198711 -0.15018219 -0.21163201
0.073446557 -0.15018219 -0.21163201
0.089694425 -0.15018219 -0.21163201
0.10594228 -0.15018219 -0.21163201
0.12219013 -0.15018219 -0.21163201
0.13843797 -0.15018219 -0.21163201
0.15468584 -0.15018219 -0.21163201
0.17093369 -0.15018219 -0.21163201
0.18718155 -0.15018219 -0.21163201
0.20343032 -0.1501832 -0.21162218
0.21967825 -0.1501832 -0.21162218
-0.23687747 -0.18440032 -0.19764757
-0.22052303 -0.18440151 -0.19763762
-0.20416744 -0.18440151 -0.19763762
-0.18781187 -0.18440151 -0.19763762
-0.17145711 -0.18440279 -0.1976276
-0.15510145 -0.18440279 -0.1976276
-0.1387451 -0.18440151 -0.19763762
-0.12238953 -0.18440151 -0.19763762
-0.10603394 -0.18440151 -0.19763762
-0.089678362 -0.18440151 -0.19763762
-0.073322386 -0.18440032 -0.19764757
-0.056967188 -0.18440151 -0.19763762
-0.040611606 -0.18440151 -0.19763762
-0.024256021 -0.18440151 -0.19763762
-0.0079004373 -0.18440151 -0.19763762
0.0084551461 -0.18440151 -0.19763762
0.02481073 -0.18440151 -0.19763762
0.041166313 -0.18440151 -0.19763762
0.057521898 -0.18440151 -0.19763762
0.073877484 -0.18440151 -0.19763762
0.090233058 -0.18440151 -0.19763762
0.10658865 -0.18440151 -0.19763762
0.12294424 -0.18440151 -0.19763762
0.13929981 -0.18440151 -0.19763762
0.15565538 -0.18440151 -0.19763762
0.17201097 -0.18440151 -0.19763762
0.18836656 -0.18440151 -0.19763762
0.20472215 -0.18440151 -0.19763762
0.22107673 -0.18440032 -0.19764757
0.23743224 -0.18440032 -0.19764757
-0.22087434 -0.13566098 -0.1943779
-0.20449364 -0.13566098 -0.1943779
-0.18811297 -0.13566098 -0.1943779
-0.17173231 -0.13566098 -0.1943779
-0.15535162 -0.13566098 -0.1943779
-0.13897094 -0.13566098 -0.1943779
-0.12259027 -0.13566098 -0.1943779
-0.10620959 -0.13566098 -0.1943779
-0.089828908 -0.13566098 -0.1943779
-0.073448241 -0.13566098 -0.1943779
-0.057067562 -0.13566098 -0.1943779
-0.040686883 -0.13566098 -0.1943779
-0.024306208 -0.13566098 -0.1943779
-0.0079255309 -0.13566098 -0.1943779
0.0084551461 -0.13566098 -0.1943779
0.024835823 -0.13566098 -0.1943779
0.0412165 -0.13566098 -0.1943779
0.057597175 -0.13566098 -0.1943779
0.073977858 -0.13566098 -0.1943779
0.090358526 -0.13566098 -0.1943779
0.10673967 -0.13566196 -0.19436795
0.12312043 -0.13566196 -0.19436795
0.13950117 -0.13566196 -0.19436795
0.15588193 -0.13566196 -0.19436795
0.17226268 -0.13566196 -0.19436795
0.18864343 -0.13566196 -0.19436795
0.20502418 -0.13566196 -0.19436795
0.22140494 -0.13566196 -0.19436795
-0.23792405 -0.26764309 -0.18858379
-0.22149879 -0.26764309 -0.18858379
-0.20507349 -0.26764309 -0.18858379
-0.18864821 -0.26764309 -0.18858379
-0.17222294 -0.26764309 -0.18858379
-0.15579765 -0.26764309 -0.18858379
-0.13937238 -0.26764309 -0.18858379
-0.1229471 -0.26764309 -0.18858379
-0.10652182 -0.26764309 -0.18858379
-0.090096533 -0.26764309 -0.18858379
-0.073671252 -0.26764309 -0.18858379
-0.057245973 -0.26764309 -0.18858379
-0.040820692 -0.26764309 -0.18858379
-0.024395414 -0.26764309 -0.18858379
-0.0079701338 -0.26764309 -0.18858379
0.0084551461 -0.26764309 -0.18858379
0.024880426 -0.26764309 -0.18858379
0.041305706 -0.26764309 -0.18858379
0.057730984 -0.26764309 -0.18858379
0.074156269 -0.26764309 -0.18858379
0.090581551 -0.26764309 -0.18858379
0.10700682 -0.26764309 -0.18858379
0.12343211 -0.26764309 -0.18858379
0.13985738 -0.26764309 -0.18858379
0.15628266 -0.26764309 -0.18858379
0.17270793 -0.26764309 -0.18858379
0.18913323 -0.26764309 -0.18858379
0.20555849 -0.26764309 -0.18858379
0.22198378 -0.26764309 -0.18858379
0.23840907 -0.26764309 -0.18858379
-0.23804969 -0.25138536 -0.18749589
-0.22161603 -0.25138536 -0.18749589
-0.20518239 -0.25138536 -0.18749589
-0.18874872 -0.25138536 -0.18749589
-0.17231506 -0.25138536 -0.18749589
-0.1558814 -0.25138536 -0.18749589
-0.13944775 -0.25138536 -0.18749589
-0.12301411 -0.25138536 -0.18749589
-0.10658044 -0.25138536 -0.18749589
-0.09014678 -0.25138536 -0.18749589
-0.073713124 -0.25138536 -0.18749589
-0.057279479 -0.25138536 -0.18749589
-0.040845819 -0.25138536 -0.18749589
-0.024412166 -0.25138536 -0.18749589
-0.0079785101 -0.25138536 -0.18749589
0.0084551461 -0.25138536 -0.18749589
0.024888802 -0.25138536 -0.18749589
0.041322459 -0.25138536 -0.18749589
0.057756111 -0.25138536 -0.18749589
0.074189767 -0.25138536 -0.18749589
0.090623423 -0.25138536 -0.18749589
0.10705708 -0.25138536 -0.18749589
0.12349074 -0.25138536 -0.18749589
0.13992439 -0.25138536 -0.18749589
0.15635803 -0.25138536 -0.18749589
0.17279169 -0.25138536 -0.18749589
0.18922535 -0.25138536 -0.18749589
0.205659 -0.25138536 -0.18749589
0.22209267 -0.25138536 -0.18749589
0.23852631 -0.25138536 -0.18749589
-0.23817544 -0.23511094 -0.18640673
-0.22173341 -0.23511094 -0.18640673
-0.20529138 -0.23511094 -0.18640673
-0.18884933 -0.23511094 -0.18640673
-0.17240728 -0.23511094 -0.18640673
-0.15596525 -0.23511094 -0.18640673
-0.13952321 -0.23511094 -0.18640673
-0.12308118 -0.23511094 -0.18640673
-0.10663913 -0.23511094 -0.18640673
-0.090197086 -0.23511094 -0.18640673
-0.073755056 -0.23511094 -0.18640673
-0.057313014 -0.23511094 -0.18640673
-0.040870972 -0.23511094 -0.18640673
-0.024428934 -0.23511094 -0.18640673
-0.007986892 -0.23511094 -0.18640673
0.0084551461 -0.23511094 -0.18640673
0.024897184 -0.23511094 -0.18640673
0.041339226 -0.23511094 -0.18640673
0.057781264 -0.23511094 -0.18640673
0.07422331 -0.23511094 -0.18640673
0.09066534 -0.23511094 -0.18640673
0.10710739 -0.23511094 -0.18640673
0.12354942 -0.23511094 -0.18640673
0.13999146 -0.23511094 -0.18640673
0.15643349 -0.23511094 -0.18640673
0.17287554 -0.23511094 -0.18640673
0.18931757 -0.23511094 -0.18640673
0.20575961 -0.23511094 -0.18640673
0.22220166 -0.23511094 -0.18640673
0.23864369 -0.23511094 -0.18640673
-0.23883195 -0.21945676 -0.1807211
-0.22234614 -0.21945676 -0.1807211
-0.20586033 -0.21945676 -0.1807211
-0.18937452 -0.21945676 -0.1807211
-0.17288873 -0.21945676 -0.1807211
-0.15640293 -0.21945676 -0.1807211
-0.13991712 -0.21945676 -0.1807211
-0.12343131 -0.21945676 -0.1807211
-0.1069455 -0.21945676 -0.1807211
-0.090459689 -0.21945676 -0.1807211
-0.073973879 -0.21945676 -0.1807211
-0.05748808 -0.21945676 -0.1807211
-0.04100227 -0.21945676 -0.1807211
-0.024516467 -0.21945676 -0.1807211
-0.0080306605 -0.21945676 -0.1807211
0.0084551461 -0.21945676 -0.1807211
0.024940953 -0.21945676 -0.1807211
0.041426759 -0.21945676 -0.1807211
0.057912562 -0.21945676 -0.1807211
0.074398369 -0.21945676 -0.1807211
0.090884179 -0.21945676 -0.1807211
0.10736997 -0.21945676 -0.1807211
0.12385578 -0.21945676 -0.1807211
0.14034159 -0.21945676 -0.1807211
0.15682741 -0.21945676 -0.1807211
0.17331322 -0.21945676 -0.1807211
0.18979901 -0.21945676 -0.1807211
0.20628481 -0.21945676 -0.1807211
0.22277062 -0.21945676 -0.1807211
0.23925643 -0.21945676 -0.1807211
-0.23810673 -0.20214897 -0.18700188
-0.22167036 -0.20215029 -0.18699163
-0.20523281 -0.20215029 -0.18699163
-0.18879528 -0.20215029 -0.18699163
-0.17235775 -0.20215029 -0.18699163
-0.15592022 -0.20215029 -0.18699163
-0.13948268 -0.20215029 -0.18699163
-0.12304452 -0.20214897 -0.18700188
-0.10660706 -0.20214897 -0.18700188
-0.090169609 -0.20214897 -0.18700188
-0.073732138 -0.20214897 -0.18700188
-0.057294998 -0.20215029 -0.18699163
-0.04085746 -0.20215029 -0.18699163
-0.024419926 -0.20215029 -0.18699163
-0.00798239 -0.20215029 -0.18699163
0.0084551461 -0.20215029 -0.18699163
0.024892682 -0.20215029 -0.18699163
0.041330218 -0.20215029 -0.18699163
0.057767753 -0.20215029 -0.18699163
0.074205294 -0.20215029 -0.18699163
0.090642825 -0.20215029 -0.18699163
0.10708036 -0.20215029 -0.18699163
0.1235179 -0.20215029 -0.18699163
0.13995543 -0.20215029 -0.18699163
0.15639296 -0.20215029 -0.18699163
0.17282972 -0.20214897 -0.18700188
0.18926719 -0.20214897 -0.18700188
0.20570464 -0.20214897 -0.18700188
0.2221411 -0.2021476 -0.1870119
0.23857847 -0.2021476 -0.1870119
-0.23914507 -0.28585914 -0.17800951
-0.2226384 -0.28585914 -0.17800951
-0.20613171 -0.28585914 -0.17800951
-0.18962504 -0.28585914 -0.17800951
-0.17311834 -0.28585914 -0.17800951
-0.15661167 -0.28585914 -0.17800951
-0.14010498 -0.28585914 -0.17800951
-0.12359831 -0.28585914 -0.17800951
-0.10709162 -0.28585914 -0.17800951
-0.090584949 -0.28585914 -0.17800951
-0.074078262 -0.28585914 -0.17800951
-0.057571579 -0.28585914 -0.17800951
-0.041064899 -0.28585914 -0.17800951
-0.024558216 -0.28585914 -0.17800951
-0.0080515351 -0.28585914 -0.17800951
0.0084551461 -0.28585914 -0.17800951
0.024961827 -0.28585914 -0.17800951
0.041468509 -0.28585914 -0.17800951
0.057975192 -0.28585914 -0.17800951
0.074481875 -0.28585914 -0.17800951
0.090988547 -0.28585914 -0.17800951
0.10749523 -0.28585914 -0.17800951
0.12400192 -0.28585914 -0.17800951
0.14050859 -0.28585914 -0.17800951
0.15701526 -0.28585914 -0.17800951
0.17352195 -0.28585914 -0.17800951
0.19002862 -0.28585914 -0.17800951
0.20653532 -0.28585914 -0.17800951
0.223042 -0.28585914 -0.17800951
0.23954868 -0.28585914 -0.17800951
-0.2062488 -0.12090049 -0.17683929
-0.18973312 -0.12090049 -0.17683929
-0.17321743 -0.12090049 -0.17683929
-0.15670173 -0.12090049 -0.17683929
-0.14018606 -0.12090049 -0.17683929
-0.12367035 -0.12090049 -0.17683929
-0.10715467 -0.12090049 -0.17683929
-0.09063898 -0.12090049 -0.17683929
-0.074123293 -0.12090049 -0.17683929
-0.057607602 -0.12090049 -0.17683929
-0.041091919 -0.12090049 -0.17683929
-0.024576228 -0.12090049 -0.17683929
-0.008060541 -0.12090049 -0.17683929
0.0084551461 -0.12090141 -0.17682922
0.024970913 -0.12090141 -0.17682922
0.041486681 -0.12090141 -0.17682922
0.05800245 -0.12090141 -0.17682922
0.074518219 -0.12090141 -0.17682922
0.09103398 -0.12090141 -0.17682922
0.10754976 -0.12090141 -0.17682922
0.12406552 -0.12090141 -0.17682922
0.14058128 -0.12090141 -0.17682922
0.15709704 -0.12090141 -0.17682922
0.17361282 -0.12090141 -0.17682922
0.19012858 -0.12090141 -0.17682922
0.20664436 -0.12090141 -0.17682922
0.22379157 -0.12148432 -0.17051935
-0.24053253 -0.30449322 -0.16599387
-0.22393334 -0.30449322 -0.16599387
-0.20733416 -0.30449322 -0.16599387
-0.190735 -0.30449322 -0.16599387
-0.17413582 -0.30449322 -0.16599387
-0.15753663 -0.30449322 -0.16599387
-0.14093746 -0.30449322 -0.16599387
-0.12433828 -0.30449322 -0.16599387
-0.10773909 -0.30449322 -0.16599387
-0.091139928 -0.30449322 -0.16599387
-0.074540734 -0.30449322 -0.16599387
-0.057941567 -0.30449322 -0.16599387
-0.041342389 -0.30449322 -0.16599387
-0.024743211 -0.30449322 -0.16599387
-0.0081440322 -0.30449322 -0.16599387
0.0084551461 -0.30449322 -0.16599387
0.025054324 -0.30449322 -0.16599387
0.041653503 -0.30449322 -0.16599387
0.058252681 -0.30449322 -0.16599387
0.074851856 -0.30449322 -0.16599387
0.091451034 -0.30449322 -0.16599387
0.10805021 -0.30449322 -0.16599387
0.12464939 -0.30449322 -0.16599387
0.14124857 -0.30449322 -0.16599387
0.15784775 -0.30449322 -0.16599387
0.17444691 -0.30449322 -0.16599387
0.1910461 -0.30449322 -0.16599387
0.20764528 -0.30449322 -0.16599387
0.22424445 -0.30449322 -0.16599387
0.24084362 -0.30449322 -0.16599387
-0.241836 -0.17300332 -0.15470552
0.2413924 -0.17228785 -0.16090178
-0.22406974 -0.12201922 -0.16472828
-0.20803311 -0.10589456 -0.15900946
-0.19138019 -0.10589456 -0.15900946
-0.17472811 -0.10589542 -0.15899897
-0.15807509 -0.10589542 -0.15899897
-0.14142206 -0.10589542 -0.15899897
-0.12476905 -0.10589542 -0.15899897
-0.10811602 -0.10589542 -0.15899897
-0.091463 -0.10589542 -0.15899897
-0.074809968 -0.10589542 -0.15899897
-0.058156949 -0.10589542 -0.15899897
-0.041503925 -0.10589542 -0.15899897
-0.024850901 -0.10589542 -0.15899897
-0.0081978776 -0.10589542 -0.15899897
0.0084551461 -0.10589542 -0.15899897
0.02510817 -0.10589542 -0.15899897
0.041761193 -0.10589542 -0.15899897
0.058414217 -0.10589542 -0.15899897
0.075067237 -0.10589542 -0.15899897
0.091720268 -0.10589542 -0.15899897
0.10837328 -0.10589542 -0.15899897
0.12502632 -0.10589542 -0.15899897
0.14167933 -0.10589542 -0.15899897
0.15833235 -0.10589542 -0.15899897
0.17498538 -0.10589542 -0.15899897
0.1916384 -0.10589542 -0.15899897
0.20829143 -0.10589542 -0.15899897
-0.20984842 -0.090638079 -0.14086992
-0.19305582 -0.090638079 -0.14086992
-0.17626415 -0.090638794 -0.14085948
-0.15947148 -0.090638794 -0.14085948
-0.1426788 -0.090638794 -0.14085948
-0.12588616 -0.090638794 -0.14085948
-0.10909349 -0.090638794 -0.14085948
-0.092300832 -0.090638794 -0.14085948
-0.075508162 -0.090638794 -0.14085948
-0.058715504 -0.090638794 -0.14085948
-0.041922841 -0.090638794 -0.14085948
-0.025130179 -0.090638794 -0.14085948
-0.0083375163 -0.090638794 -0.14085948
0.0084551461 -0.090638794 -0.14085948
0.025247809 -0.090638794 -0.14085948
0.042040471 -0.090638794 -0.14085948
0.058833133 -0.090638794 -0.14085948
0.075625792 -0.090638794 -0.14085948
0.092418462 -0.090638794 -0.14085948
0.10921112 -0.090638794 -0.14085948
0.12600377 -0.090638794 -0.14085948
0.14279644 -0.090638794 -0.14085948
0.15958908 -0.090638794 -0.14085948
0.17638177 -0.090638794 -0.14085948
0.19317444 -0.090638794 -0.14085948
0.20996709 -0.090638794 -0.14085948
0.22825286 -0.10869484 -0.12593955
-0.22890036 -0.10920582 -0.11990577
-0.21169439 -0.075123377 -0.12242383
-0.19475982 -0.075123377 -0.12242383
-0.17782524 -0.075123377 -0.12242383
-0.16089064 -0.075123377 -0.12242383
-0.14395608 -0.075123377 -0.12242383
-0.12702149 -0.075123377 -0.12242383
-0.1100869 -0.075123377 -0.12242383
-0.093152329 -0.075123377 -0.12242383
-0.076217741 -0.075123377 -0.12242383
-0.059283171 -0.075123377 -0.12242383
-0.042348593 -0.075123377 -0.12242383
-0.025414012 -0.075123377 -0.12242383
-0.0084794331 -0.075123377 -0.12242383
0.0084551461 -0.075123377 -0.12242383
0.025389725 -0.075123377 -0.12242383
0.042324305 -0.075123377 -0.12242383
0.059258886 -0.075123377 -0.12242383
0.076193467 -0.075123377 -0.12242383
0.09312804 -0.075123377 -0.12242383
0.11006263 -0.075123377 -0.12242383
0.1269972 -0.075123377 -0.12242383
0.14393178 -0.075123377 -0.12242383
0.16086636 -0.075123377 -0.12242383
0.17780092 -0.075123377 -0.12242383
0.19473553 -0.075123377 -0.12242383
0.2116701 -0.075123377 -0.12242383
0.2476069 -0.16186398 -0.1032384
-0.21296127 -0.058968447 -0.10976452
-0.19592825 -0.058967851 -0.10977525
-0.17889628 -0.058967851 -0.10977525
-0.16186434 -0.058967851 -0.10977525
-0.14483239 -0.058967851 -0.10977525
-0.12780043 -0.058967851 -0.10977525
-0.11076848 -0.058967851 -0.10977525
-0.093736544 -0.058967851 -0.10977525
-0.076704592 -0.058967851 -0.10977525
-0.059672642 -0.058967851 -0.10977525
-0.042640701 -0.058967851 -0.10977525
-0.025608748 -0.058967851 -0.10977525
-0.008576801 -0.058967851 -0.10977525
0.0084551461 -0.058967851 -0.10977525
0.025487093 -0.058967851 -0.10977525
0.04251904 -0.058967851 -0.10977525
0.059550993 -0.058967851 -0.10977525
0.076582938 -0.058967851 -0.10977525
0.093614891 -0.058967851 -0.10977525
0.11064684 -0.058967851 -0.10977525
0.12767878 -0.058967851 -0.10977525
0.14471072 -0.058967851 -0.10977525
0.16174267 -0.058967851 -0.10977525
0.17877463 -0.058967851 -0.10977525
0.19580656 -0.058967851 -0.10977525
0.21283951 -0.058968447 -0.10976452
-0.19689895 -0.042502128 -0.099267125
-0.17978612 -0.042502128 -0.099267125
-0.16267325 -0.042502128 -0.099267125
-0.14556043 -0.042502128 -0.099267125
-0.12844758 -0.042502128 -0.099267125
-0.11133474 -0.042502128 -0.099267125
-0.094221905 -0.042502128 -0.099267125
-0.077109054 -0.042502128 -0.099267125
-0.059996214 -0.042502128 -0.099267125
-0.042883378 -0.042502128 -0.099267125
-0.025770534 -0.042502128 -0.099267125
-0.0086576939 -0.042502128 -0.099267125
0.0084551461 -0.042502128 -0.099267125
0.025567986 -0.042502128 -0.099267125
0.042680826 -0.042502128 -0.099267125
0.05979367 -0.042502128 -0.099267125
0.076906502 -0.042502128 -0.099267125
0.094019338 -0.042502128 -0.099267125
0.11113219 -0.042502128 -0.099267125
0.12824503 -0.042502128 -0.099267125
0.14535786 -0.042502128 -0.099267125
0.16247071 -0.042502128 -0.099267125
0.17958353 -0.042502128 -0.099267125
0.1966964 -0.042502128 -0.099267125
-0.24912395 -0.16311941 -0.091589808
0.21462929 -0.042980433 -0.090389669
-0.19787788 -0.025878735 -0.088669658
-0.18068346 -0.025878735 -0.088669658
-0.16348904 -0.025878735 -0.088669658
-0.14629464 -0.025878735 -0.088669658
-0.12910022 -0.025878735 -0.088669658
-0.11190578 -0.025878735 -0.088669658
-0.094711363 -0.025878735 -0.088669658
-0.077516943 -0.025878735 -0.088669658
-0.060322534 -0.025878735 -0.088669658
-0.04312811 -0.025878735 -0.088669658
-0.025933694 -0.025878735 -0.088669658
-0.008739274 -0.025878735 -0.088669658
0.0084551461 -0.025878735 -0.088669658
0.025649566 -0.025878735 -0.088669658
0.042843986 -0.025878735 -0.088669658
0.060038403 -0.025878735 -0.088669658
0.077232823 -0.025878735 -0.088669658
0.094427243 -0.025878735 -0.088669658
0.11162166 -0.025878735 -0.088669658
0.12881608 -0.025878735 -0.088669658
0.1460105 -0.025878735 -0.088669658
0.16320492 -0.025878735 -0.088669658
0.18039933 -0.025878735 -0.088669658
0.19759375 -0.025878735 -0.088669658
-0.23393473 -0.095847793 -0.073192477
0.23290399 -0.095365159 -0.079462469
-0.21553816 -0.043323986 -0.084014595
-0.19886725 -0.0090964958 -0.077959597
-0.18159038 -0.0090964958 -0.077959597
-0.16431351 -0.0090964958 -0.077959597
-0.14703666 -0.0090964958 -0.077959597
-0.12975979 -0.0090964958 -0.077959597
-0.11248292 -0.0090964958 -0.077959597
-0.095206052 -0.0090964958 -0.077959597
-0.077929184 -0.0090964958 -0.077959597
-0.060652319 -0.0090964958 -0.077959597
-0.043375451 -0.0090964958 -0.077959597
-0.026098587 -0.0090964958 -0.077959597
-0.0088217203 -0.0090964958 -0.077959597
0.0084551461 -0.0090964958 -0.077959597
0.025732012 -0.0090964958 -0.077959597
0.043008879 -0.0090964958 -0.077959597
0.060285743 -0.0090964958 -0.077959597
0.077562615 -0.0090964958 -0.077959597
0.094839469 -0.0090964958 -0.077959597
0.11211634 -0.0090964958 -0.077959597
0.12939321 -0.0090964958 -0.077959597
0.14667007 -0.0090964958 -0.077959597
0.16394694 -0.0090964958 -0.077959597
0.18122379 -0.0090964958 -0.077959597
0.19850066 -0.0090964958 -0.077959597
-0.19988069 0.0078425184 -0.066988766
-0.18251936 0.0078425184 -0.066988766
-0.16515805 0.0078425184 -0.066988766
-0.14779672 0.0078425184 -0.066988766
-0.13043541 0.0078425184 -0.066988766
-0.11307408 0.0078425184 -0.066988766
-0.095712766 0.0078425184 -0.066988766
-0.078351453 0.0078425184 -0.066988766
-0.060990129 0.0078425184 -0.066988766
-0.043628812 0.0078425184 -0.066988766
-0.026267491 0.0078425184 -0.066988766
-0.0089061726 0.0078425184 -0.066988766
0.0084551461 0.0078425184 -0.066988766
0.025816465 0.0078425184 -0.066988766
0.043177783 0.0078425184 -0.066988766
0.060539104 0.0078425184 -0.066988766
0.077900425 0.0078425184 -0.066988766
0.095261738 0.0078425184 -0.066988766
0.11262307 0.0078425184 -0.066988766
0.12998438 0.0078425184 -0.066988766
0.14734569 0.0078425184 -0.066988766
0.16470701 0.0078425184 -0.066988766
0.18206833 0.0078425184 -0.066988766
0.19942965 0.0078425184 -0.066988766
-0.20174804 0.024737034 -0.04677403
-0.18352965 0.024928309 -0.055057824
-0.16607648 0.024928309 -0.055057824
-0.14862333 0.024928309 -0.055057824
-0.13117017 0.024928309 -0.055057824
-0.113717 0.024928309 -0.055057824
-0.096263826 0.024928309 -0.055057824
-0.078810662 0.024928309 -0.055057824
-0.061357509 0.024928309 -0.055057824
-0.043904342 0.024928309 -0.055057824
-0.026451182 0.024928309 -0.055057824
-0.0089980178 0.024928309 -0.055057824
0.0084551461 0.024928309 -0.055057824
0.02590831 0.024928309 -0.055057824
0.043361474 0.024928309 -0.055057824
0.060814634 0.024928309 -0.055057824
0.078267798 0.024928309 -0.055057824
0.095720962 0.024928309 -0.055057824
0.11317413 0.024928309 -0.055057824
0.13062729 0.024928309 -0.055057824
0.14808045 0.024928309 -0.055057824
0.16553362 0.024928309 -0.055057824
0.18298677 0.024928309 -0.055057824
0.20057577 0.024891283 -0.053453743
-0.22035548 -0.028317064 -0.035877109
0.2190749 -0.028022148 -0.042264342
-0.1845497 0.042196017 -0.043011427
-0.16700383 0.042196017 -0.043011427
-0.14945793 0.042196017 -0.043011427
-0.13191202 0.042196017 -0.043011427
-0.11436613 0.042196017 -0.043011427
-0.096820235 0.042196017 -0.043011427
-0.079274341 0.042196017 -0.043011427
-0.061728436 0.042196017 -0.043011427
-0.044182543 0.042196017 -0.043011427
-0.026636645 0.042196017 -0.043011427
-0.0090907495 0.042196017 -0.043011427
0.0084551461 0.042196017 -0.043011427
0.026001042 0.042196017 -0.043011427
0.043546937 0.042196017 -0.043011427
0.061092835 0.042196017 -0.043011427
0.078638732 0.042196017 -0.043011427
0.096184626 0.042196017 -0.043011427
0.11373052 0.042196017 -0.043011427
0.13127641 0.042196017 -0.043011427
0.14882231 0.042196017 -0.043011427
0.16636822 0.042196017 -0.043011427
0.18391411 0.042196017 -0.043011427
-0.23918729 -0.081910931 -0.024454951
0.23775625 -0.081459127 -0.030975819
-0.18558165 0.059648052 -0.0308249
-0.16794194 0.059648052 -0.0308249
-0.15030225 0.059648052 -0.0308249
-0.13266253 0.059648052 -0.0308249
-0.11502282 0.059648052 -0.0308249
-0.097383097 0.059648052 -0.0308249
-0.0797434 0.059648052 -0.0308249
-0.062103692 0.059648052 -0.0308249
-0.044463977 0.059648052 -0.0308249
-0.026824273 0.059648052 -0.0308249
-0.0091845635 0.059648052 -0.0308249
0.0084551461 0.059648052 -0.0308249
0.026094856 0.059648052 -0.0308249
0.043734565 0.059648052 -0.0308249
0.061374269 0.059648052 -0.0308249
0.079013988 0.059648052 -0.0308249
0.096653685 0.059648052 -0.0308249
0.1142934 0.059648052 -0.0308249
0.13193311 0.059648052 -0.0308249
0.14957282 0.059648052 -0.0308249
0.16721253 0.059648052 -0.0308249
0.18485223 0.059648052 -0.0308249
-0.18662368 0.07728783 -0.018518984
-0.16888925 0.07728783 -0.018518984
-0.1511548 0.07728783 -0.018518984
-0.13342038 0.07728783 -0.018518984
-0.11568592 0.07728783 -0.018518984
-0.097951487 0.07728783 -0.018518984
-0.080217049 0.07728783 -0.018518984
-0.062482614 0.07728783 -0.018518984
-0.044748172 0.07728783 -0.018518984
-0.027013734 0.07728783 -0.018518984
-0.0092792939 0.07728783 -0.018518984
0.0084551461 0.07728783 -0.018518984
0.026189586 0.07728783 -0.018518984
0.043924026 0.07728783 -0.018518984
0.061658464 0.07728783 -0.018518984
0.07939291 0.07728783 -0.018518984
0.097127348 0.07728783 -0.018518984
0.11486179 0.07728783 -0.018518984
0.13259622 0.07728783 -0.018518984
0.15033066 0.07728783 -0.018518984
0.16806509 0.07728783 -0.018518984
0.18579954 0.07728783 -0.018518984
-0.187677 0.095117956 -0.0060801506
-0.16984679 0.095117956 -0.0060801506
-0.1520166 0.095117956 -0.0060801506
-0.1341864 0.095117956 -0.0060801506
-0.11635621 0.095117956 -0.0060801506
-0.098526016 0.095117956 -0.0060801506
-0.080695823 0.095117956 -0.0060801506
-0.06286563 0.095117956 -0.0060801506
-0.045035437 0.095117956 -0.0060801506
-0.02720524 0.095117956 -0.0060801506
-0.0093750469 0.095117956 -0.0060801506
0.0084551461 0.095117956 -0.0060801506
0.026285339 0.095117956 -0.0060801506
0.044115532 0.095117956 -0.0060801506
0.061945729 0.095117956 -0.0060801506
0.079775915 0.095117956 -0.0060801506
0.097606108 0.095117956 -0.0060801506
0.11543632 0.095117956 -0.0060801506
0.13326649 0.095117956 -0.0060801506
0.15109669 0.095117956 -0.0060801506
0.16892688 0.095117956 -0.0060801506
0.18675707 0.095117956 -0.0060801506
0.22371867 -0.012405299 0.0080059171
-0.20631914 0.041492082 0.0027095675
0.2047874 0.041591074 -0.0037166476
-0.17081565 0.11314197 0.0065057278
-0.15288857 0.11314197 0.0065057278
-0.13496149 0.11314197 0.0065057278
-0.11703441 0.11314197 0.0065057278
-0.099107325 0.11314197 0.0065057278
-0.081180245 0.11314197 0.0065057278
-0.063253164 0.11314197 0.0065057278
-0.045326091 0.11314197 0.0065057278
-0.027399011 0.11314197 0.0065057278
-0.0094719324 0.11314197 0.0065057278
0.0084551461 0.11314197 0.0065057278
0.026382225 0.11314197 0.0065057278
0.044309303 0.11314197 0.0065057278
0.062236384 0.11314197 0.0065057278
0.080163464 0.11314197 0.0065057278
0.098090544 0.11314197 0.0065057278
0.11601762 0.11314197 0.0065057278
0.13394469 0.11314197 0.0065057278
0.15187177 0.11314197 0.0065057278
0.16979885 0.11314197 0.0065057278
0.24295411 -0.067019261 0.020964265
-0.22539665 -0.012655206 0.01449734
-0.17197917 0.13141802 0.021620274
-0.15393575 0.13141802 0.021620274
-0.1358923 0.13141802 0.021620274
-0.11784889 0.13141802 0.021620274
-0.099805444 0.13141802 0.021620274
-0.081762016 0.13141802 0.021620274
-0.063718572 0.13141802 0.021620274
-0.045675147 0.13141802 0.021620274
-0.027631715 0.13141802 0.021620274
-0.0095882844 0.13141802 0.021620274
0.0084551461 0.13141802 0.021620274
0.026498577 0.13141802 0.021620274
0.044542007 0.13141802 0.021620274
0.062585443 0.13141802 0.021620274
0.080628872 0.13141802 0.021620274
0.098672301 0.13141802 0.021620274
0.11671573 0.13141802 0.021620274
0.13475917 0.13141802 0.021620274
0.15280259 0.13141802 0.021620274
0.17084603 0.13141802 0.021620274
-0.24541236 -0.067779355 0.033306479
0.20919837 0.059038371 0.048374295
-0.1918491 0.11370675 0.043190122
0.19005017 0.1136068 0.036698461
-0.17380266 0.15019086 0.045308232
-0.155407 0.1501154 0.042855978
-0.13720009 0.1501154 0.042855978
-0.11899319 0.1501154 0.042855978
-0.10078628 0.1501154 0.042855978
-0.082579374 0.1501154 0.042855978
-0.064372465 0.1501154 0.042855978
-0.046165567 0.1501154 0.042855978
-0.027958661 0.1501154 0.042855978
-0.0097517576 0.1501154 0.042855978
0.0084551461 0.1501154 0.042855978
0.02666205 0.1501154 0.042855978
0.044868954 0.1501154 0.042855978
0.063075855 0.1501154 0.042855978
0.081282765 0.1501154 0.042855978
0.099489674 0.1501154 0.042855978
0.11769657 0.1501154 0.042855978
0.13590348 0.1501154 0.042855978
0.15411037 0.1501154 0.042855978
0.1724554 0.15017679 0.044849634
0.22855097 0.0039225444 0.060317039
-0.21112232 0.058989618 0.054705501
-0.23065865 0.003714323 0.067078352
-0.15723489 0.16933781 0.069239497
-0.13882567 0.16933838 0.069252014
-0.12041557 0.16933838 0.069252014
-0.10200547 0.16933838 0.069252014
-0.083595365 0.16933838 0.069252014
-0.065185264 0.16933838 0.069252014
-0.046775158 0.16933838 0.069252014
-0.028365057 0.16933838 0.069252014
-0.0099549554 0.16933838 0.069252014
0.0084551461 0.16933838 0.069252014
0.026865248 0.16933838 0.069252014
0.045275349 0.16933838 0.069252014
0.063685447 0.16933838 0.069252014
0.082095549 0.16933838 0.069252014
0.10050565 0.16933838 0.069252014
0.11891575 0.16933838 0.069252014
0.13732585 0.16933838 0.069252014
0.15573518 0.16933781 0.069239497
-0.17639187 0.16971129 0.078942776
0.17472473 0.16965976 0.077604651
0.25051615 -0.053052731 0.09652853
0.21380769 0.077287793 0.10280776
-0.19639198 0.13315523 0.09683919
0.19418 0.13300523 0.090346217
-0.15955247 0.18929285 0.10269058
-0.14088576 0.18929347 0.10270357
-0.12221815 0.18929347 0.10270357
-0.10355052 0.18929347 0.10270357
-0.084882915 0.18929347 0.10270357
-0.066215307 0.18929347 0.10270357
-0.047547687 0.18929347 0.10270357
-0.028880078 0.18929347 0.10270357
-0.010212466 0.18929347 0.10270357
0.0084551461 0.18929347 0.10270357
0.027122758 0.18929347 0.10270357
0.045790371 0.18929347 0.10270357
0.064457983 0.18929347 0.10270357
0.083125591 0.18929347 0.10270357
0.10179321 0.18929347 0.10270357
0.12046081 0.18929347 0.10270357
0.13912773 0.18929285 0.10269058
0.15779524 0.18929285 0.10269058
0.23362705 0.020994883 0.11526716
-0.21614887 0.077287748 0.10911965
0.17739236 0.18991265 0.11610842
-0.23617743 0.020834129 0.1222254
-0.17942615 0.19001657 0.11835921
-0.16193485 0.20981342 0.13707757
-0.14300346 0.20981401 0.13709104
-0.12407185 0.20981482 0.13710439
-0.10513942 0.20981482 0.13710439
-0.086206988 0.20981482 0.13710439
-0.06727457 0.20981482 0.13710439
-0.048342139 0.20981482 0.13710439
-0.02940971 0.20981482 0.13710439
-0.010477282 0.20981482 0.13710439
0.0084551461 0.20981482 0.13710439
0.027387574 0.20981482 0.13710439
0.046320003 0.20981482 0.13710439
0.065252431 0.20981482 0.13710439
0.084184855 0.20981482 0.13710439
0.10311729 0.20981482 0.13710439
0.12204909 0.20981401 0.13709104
0.14098142 0.20981401 0.13709104
0.15991293 0.20981342 0.13707757
-0.20115033 0.15350805 0.15303254
0.19850202 0.15330645 0.14649093
0.18022041 0.21088308 0.15692794
-0.067737088 0.28681645 0.152125
-0.048689023 0.28681645 0.152125
-0.029640969 0.28681645 0.152125
-0.010592911 0.28681645 0.152125
0.0084551461 0.28681645 0.152125
0.027503204 0.28681645 0.152125
0.046551261 0.28681645 0.152125
-0.067848578 0.30619901 0.15574586
-0.048772641 0.30619901 0.15574586
-0.029696714 0.30619901 0.15574586
-0.010620784 0.30619901 0.15574586
0.0084551461 0.30619901 0.15574586
0.027531076 0.30619901 0.15574586
0.046607006 0.30619901 0.15574586
-0.22142108 0.096444108 0.16619265
0.21861517 0.096393228 0.15958154
-0.18256065 0.21099883 0.15907764
-0.068182066 0.2497215 0.16657639
-0.049022764 0.2497215 0.16657639
-0.029856924 0.24969217 0.16615164
-0.010700783 0.24969122 0.16613793
0.0084551461 0.2497215 0.16657639
0.027611181 0.24969217 0.16615164
0.046773754 0.2497215 0.16657639
-0.067958713 0.26832253 0.15932286
-0.048855253 0.26832253 0.15932286
-0.029745284 0.26828995 0.15890062
-0.010648319 0.26832253 0.15932286
0.0084551461 0.26832253 0.15932286
0.027555361 0.26828995 0.15890062
0.046662077 0.26832253 0.15932286
-0.24191959 0.038768627 0.17960441
0.23892245 0.038876571 0.17259145
-0.16438675 0.23092508 0.17246759
-0.14518294 0.23092589 0.17248142
-0.12597817 0.23092589 0.17248142
-0.10677405 0.23092681 0.17249513
-0.087569177 0.23092681 0.17249513
-0.068364739 0.23092756 0.17250884
-0.049159773 0.23092756 0.17250884
-0.029954799 0.23092756 0.17250884
-0.010749826 0.23092756 0.17250884
0.0084551461 0.23092756 0.17250884
0.027660118 0.23092756 0.17250884
0.046865091 0.23092756 0.17250884
0.066070065 0.23092756 0.17250884
0.085274607 0.23092681 0.17249513
0.10447948 0.23092681 0.17249513
0.12368371 0.23092589 0.17248142
0.14288846 0.23092589 0.17248142
0.16209237 0.23092508 0.17246759
0.20303431 0.17457747 0.20536745
-0.18579824 0.23269048 0.20113552
0.18312334 0.23254836 0.19882786
-0.16691023 0.25265321 0.2088908
-0.14742519 0.25265321 0.2088908
-0.12794091 0.25265425 0.2089051
-0.10845576 0.25265425 0.2089051
-0.088971153 0.25265509 0.20891929
0.066910923 0.25265509 0.20891929
0.086396188 0.25265509 0.20891929
0.1058809 0.25265425 0.2089051
0.12536605 0.25265425 0.2089051
0.14485043 0.25265321 0.2088908
0.16433547 0.25265321 0.2088908
0.22365439 0.11641491 0.21909165
-0.20616266 0.17484139 0.2122252
-0.22695205 0.11652225 0.2260673
0.24561603 0.057524402 0.24505162
-0.16951962 0.2750375 0.24655414
-0.14974463 0.2750375 0.24655414
-0.12996966 0.2750375 0.24655414
-0.1101947 0.2750375 0.24655414
-0.090419725 0.2750375 0.24655414
0.067780063 0.2750375 0.24655414
0.087555036 0.2750375 0.24655414
0.10733001 0.2750375 0.24655414
0.12710498 0.2750375 0.24655414
0.14687994 0.2750375 0.24655414
0.16665491 0.2750375 0.24655414
-0.24978296 0.057423323 0.25818014
-0.19034727 0.25620982 0.26022875
0.18689016 0.25572273 0.25319719
-0.21142183 0.19722068 0.27433312
0.20779039 0.19688889 0.2671504
-0.2327209 0.13758187 0.288517
0.2289196 0.13741449 0.28127086
-0.17261404 0.29859453 0.29121828
-0.15249525 0.29859453 0.29121828
-0.13237643 0.29859453 0.29121828
-0.11225764 0.29859453 0.29121828
-0.092138842 0.29859453 0.29121828
0.068811543 0.29859453 0.29121828
0.088930339 0.29859453 0.29121828
0.10904914 0.29859453 0.29121828
0.12916794 0.29859453 0.29121828
0.14928672 0.29859453 0.29121828
0.16940553 0.29859453 0.29121828
0.19132444 0.28047588 0.31720078
0.21277997 0.22031522 0.33196712
-0.19528483 0.28102776 0.32436979
-0.21692534 0.22071174 0.3393265
-0.23880303 0.15970722 0.35435796
0.23451295 0.15949059 0.34732533
0.19598475 0.30649051 0.38446629
-0.17873268 0.32687154 0.37953329
-0.15793402 0.32687154 0.37953329
-0.13713539 0.32687154 0.37953329
-0.11633673 0.32687154 0.37953329
-0.095538095 0.32687154 0.37953329
0.070851088 0.32687154 0.37953329
0.091649726 0.32687154 0.37953329
0.11244838 0.32687154 0.37953329
0.13324703 0.32687154 0.37953329
0.15404567 0.32687154 0.37953329
0.17484431 0.32687154 0.37953329
-0.20046388 0.30709863 0.39164746
-0.22270723 0.24540585 0.4076072
0.21802829 0.24494627 0.40014482
0.24030481 0.18267407 0.41572392
-0.24548207 0.18309504 0.42666078
-0.22878477 0.27139315 0.47937953
0.22354935 0.27087262 0.47186553
-0.27147177 0.29261613 0.47490764
0.26680768 0.29258165 0.47445786
-0.25077125 0.29330975 0.48391783
0.2460646 0.29329631 0.48374379
0.24891037 0.20844516 0.51735044
-0.23525408 0.29884157 0.55577862
0.22940001 0.29823264 0.54786801
0.23552749 0.32706735 0.6274662
-0.21812204 0.34918031 0.62103343
0.2123746 0.34918031 0.62103343
-0.24201237 0.32775518 0.6355902
-0.22402568 0.37951276 0.69772434
-0.20077761 0.37951276 0.69772434
-0.17752953 0.37951276 0.69772434
-0.15428144 0.37951276 0.69772434
-0.13103336 0.37951276 0.69772434
-0.10778527 0.37951276 0.69772434
-0.084537193 0.37951276 0.69772434
-0.061289106 0.37951276 0.69772434
-0.038041022 0.37951276 0.69772434
-0.014792938 0.37951276 0.69772434
0.0084551461 0.37951276 0.69772434
0.03170323 0.37951276 0.69772434
0.054951314 0.37951276 0.69772434
0.078199401 0.37951276 0.69772434
0.10144748 0.37951276 0.69772434
0.12469555 0.37951276 0.69772434
0.14794365 0.37951276 0.69772434
0.17119172 0.37951276 0.69772434
0.19443981 0.37951276 0.69772434
0.21768789 0.37951276 0.69772434
0.24294701 0.3586781 0.7238487
-0.2507467 0.36005345 0.73873806
-0.23024525 0.4114683 0.77851868
-0.20637521 0.4114683 0.77851868
-0.18250518 0.4114683 0.77851868
-0.15863512 0.4114683 0.77851868
-0.13476509 0.4114683 0.77851868
-0.11089505 0.4114683 0.77851868
-0.087025017 0.4114683 0.77851868
-0.063154966 0.4114683 0.77851868
-0.039284933 0.4114683 0.77851868
-0.015414894 0.4114683 0.77851868
0.0084551461 0.4114683 0.77851868
0.032325186 0.4114683 0.77851868
0.056195226 0.4114683 0.77851868
0.080065265 0.4114683 0.77851868
0.1039353 0.4114683 0.77851868
0.12780534 0.4114683 0.77851868
0.15167537 0.4114683 0.77851868
0.17554541 0.4114683 0.77851868
0.19941546 0.4114683 0.77851868
0.2232855 0.4114683 0.77851868
-0.23679289 0.44515973 0.8635751
-0.21226807 0.44515973 0.8635751
-0.18774328 0.44515973 0.8635751
-0.16321848 0.44515973 0.8635751
-0.13869368 0.44515973 0.8635751
-0.11416887 0.44515973 0.8635751
-0.08964406 0.44515973 0.8635751
-0.065119267 0.44515973 0.8635751
-0.040594459 0.44515973 0.8635751
-0.016069656 0.44515973 0.8635751
0.0084551461 0.44515973 0.8635751
0.03297995 0.44515973 0.8635751
0.057504751 0.44515973 0.8635751
0.082029551 0.44515973 0.8635751
0.10655436 0.44515973 0.8635751
0.13107917 0.44515973 0.8635751
0.15560396 0.44515973 0.8635751
0.18012877 0.44515973 0.8635751
0.20465356 0.44515973 0.8635751
0.22917835 0.44515973 0.8635751
0 0 0 1 0 0 0 1 0 0 0 1 0 0 0 0 0 1014 1 0 0
