ply
format ascii 1.0
comment PCL generated
element vertex 1349
property float x
property float y
property float z
element camera 0
property float view_px
property float view_py
property float view_pz
property float x_axisx
property float x_axisy
property float x_axisz
property float y_axisx
property float y_axisy
property float y_axisz
property float z_axisx
property float z_axisy
property float z_axisz
property float focal
property float scalex
property float scaley
property float centerx
property float centery
property int viewportx
property int viewporty
property float k1
property float k2
end_header
-0.49401471 0.11936938 -0.25969183
-0.5156852 0.1411158 -0.26016116
-0.49431053 0.14121786 -0.25826824
-0.51642489 0.16309516 -0.25672925
-0.51808274 -0.20794387 -0.24903822
-0.49587467 -0.2078259 -0.25074315
-0.47485486 -0.20811 -0.24664235
-0.54106486 -0.1864015 -0.24398351
-0.51719415 -0.18583633 -0.25316072
-0.49532464 -0.18582237 -0.25338924
-0.47455904 -0.18614672 -0.24812055
-0.4543151 -0.18666419 -0.23971891
-0.53944719 -0.16411847 -0.25122976
-0.49478456 -0.163862 -0.25598788
-0.47426632 -0.16420715 -0.24958289
-0.45405421 -0.16466574 -0.24107444
-0.53852832 -0.14209163 -0.2553457
-0.4739739 -0.14229017 -0.25104368
-0.45383516 -0.14269814 -0.24221277
-0.47384217 -0.12042665 -0.25170183
-0.45373264 -0.12077135 -0.24274576
-0.47384217 -0.098593488 -0.25170195
-0.45373264 -0.098869279 -0.24274564
-0.47384217 -0.076760285 -0.25170183
-0.45373264 -0.076967113 -0.24274576
-0.47384217 -0.054927029 -0.25170207
-0.45373264 -0.055064946 -0.24274576
-0.47384217 -0.033093818 -0.25170207
-0.45373538 -0.033162974 -0.24273121
-0.47384217 -0.011260659 -0.25170195
-0.45373538 -0.011260758 -0.24273121
-0.47384217 0.010572501 -0.25170207
-0.45373538 0.01064151 -0.24273133
-0.47384217 0.032405712 -0.25170195
-0.45373538 0.032543831 -0.24273133
-0.47384217 0.054238871 -0.25170195
-0.45373264 0.054445751 -0.24274564
-0.47384217 0.076072082 -0.25170183
-0.45373264 0.076347865 -0.24274576
-0.47384217 0.097905241 -0.25170195
-0.45373264 0.098249987 -0.24274564
-0.47384217 0.1197385 -0.25170183
-0.45373264 0.12015215 -0.24274576
-0.53863347 0.14140072 -0.25487483
-0.47400835 0.14161639 -0.2508719
-0.45386013 0.14208996 -0.24208319
-0.53955257 0.1634631 -0.25075734
-0.49484977 0.16316026 -0.25567412
-0.47429785 0.16354503 -0.24942517
-0.45407918 0.16406728 -0.24094474
-0.54126406 0.18583459 -0.24309111
-0.51729584 0.18516967 -0.25268888
-0.49539003 0.18514293 -0.25307488
-0.47459349 0.18549809 -0.24794829
-0.45434842 0.18608022 -0.23954582
-0.51818466 0.20731276 -0.24856496
-0.49593714 0.20716815 -0.25044227
-0.47488931 0.20747405 -0.24646997
-0.47961327 -0.25386739 -0.22286773
-0.52302575 -0.231563 -0.22610533
-0.49873933 -0.23072736 -0.23696041
-0.47674349 -0.23070844 -0.23720598
-0.45589975 -0.23114887 -0.23148489
-0.43549755 -0.23181 -0.22289693
-0.54279733 -0.2088318 -0.23622286
-0.45459852 -0.2086916 -0.23824632
-0.43449607 -0.20937946 -0.22831786
-0.43428114 -0.18729459 -0.22948098
-0.56745648 -0.16555861 -0.22450209
-0.43406913 -0.16522862 -0.23062849
-0.56512737 -0.14305039 -0.23458731
-0.43385723 -0.14318021 -0.23177516
-0.56426907 -0.12094232 -0.23830426
-0.43375543 -0.12117238 -0.23232651
-0.56426573 -0.09900555 -0.23831856
-0.43375817 -0.099190459 -0.23231208
-0.56426573 -0.077069327 -0.23831856
-0.43375817 -0.077207997 -0.23231208
-0.56426573 -0.055133104 -0.23831856
-0.43375817 -0.055225633 -0.23231196
-0.56426573 -0.033196881 -0.23831856
-0.43375817 -0.03324312 -0.23231184
-0.56426573 -0.011260659 -0.23831856
-0.43375817 -0.011260758 -0.23231208
-0.56426573 0.010675466 -0.23831844
-0.43375817 0.010721706 -0.23231196
-0.56426573 0.032611787 -0.23831856
-0.43375817 0.032704167 -0.23231196
-0.56426907 0.054548316 -0.23830402
-0.43375817 0.054686636 -0.23231196
-0.56426907 0.076484688 -0.23830414
-0.43375817 0.076669149 -0.23231196
-0.56426907 0.098420866 -0.23830402
-0.43375817 0.098651513 -0.23231196
-0.56426907 0.12035728 -0.23830414
-0.43375817 0.12063397 -0.23231208
-0.56533813 0.14254312 -0.23367488
-0.43388405 0.14265318 -0.23163021
-0.56784403 0.16518328 -0.22282386
-0.43409333 0.1647107 -0.23049784
-0.43430802 0.18678768 -0.22933555
-0.54322386 0.20840982 -0.2343123
-0.45465413 0.20812935 -0.23795748
-0.43456325 0.20889942 -0.22795415
-0.49924156 0.23035738 -0.23454392
-0.47705033 0.23026176 -0.23567295
-0.45606181 0.23068765 -0.23064303
-0.46029434 -0.2772359 -0.20864999
-0.43839958 -0.27737084 -0.20718956
-0.50363219 -0.25466749 -0.21341956
-0.45767614 -0.25391936 -0.22225428
-0.43687412 -0.25449583 -0.21544623
-0.41635701 -0.25525874 -0.2064364
-0.41533932 -0.23263466 -0.21218467
-0.41434899 -0.21010976 -0.21777785
-0.39406037 -0.21084848 -0.20711565
-0.57078719 -0.18848944 -0.21007955
-0.41414151 -0.18794322 -0.21894944
-0.39385301 -0.18859662 -0.20834017
-0.41393682 -0.16579555 -0.22010577
-0.39365819 -0.16636755 -0.2094903
-0.41373751 -0.14366718 -0.22123158
-0.39346611 -0.14415708 -0.21062458
-0.41363397 -0.1215769 -0.22181606
-0.39336389 -0.12198446 -0.21122813
-0.41363397 -0.099513635 -0.22181618
-0.39336389 -0.099839762 -0.21122813
-0.41363397 -0.077450432 -0.22181606
-0.39336389 -0.07769496 -0.21122801
-0.4136366 -0.055387422 -0.22180152
-0.39336389 -0.05555021 -0.21122801
-0.4136366 -0.033324018 -0.2218014
-0.39336389 -0.033405408 -0.21122825
-0.4136366 -0.011260659 -0.22180152
-0.39336389 -0.011260659 -0.21122813
-0.4136366 0.010802699 -0.22180152
-0.39336389 0.010884093 -0.21122801
-0.4136366 0.032866105 -0.22180152
-0.39336389 0.033028841 -0.21122801
-0.4136366 0.054929465 -0.22180152
-0.3933664 0.055173948 -0.21121335
-0.4136366 0.076992825 -0.22180152
-0.3933664 0.077318847 -0.21121335
-0.4136366 0.099056184 -0.22180164
-0.3933664 0.099463649 -0.21121335
-0.4136366 0.12111958 -0.22180152
-0.39336389 0.12160789 -0.21122801
-0.41376075 0.14322069 -0.22110009
-0.39349106 0.14379309 -0.21047723
-0.41396275 0.16535969 -0.2199595
-0.39368066 0.16601254 -0.2093575
-0.57117188 0.18823719 -0.20841408
-0.41416743 0.18751737 -0.21880317
-0.39387795 0.18825242 -0.20819283
-0.41444239 0.2097234 -0.21725023
-0.39417037 0.21055357 -0.20646596
-0.52405107 0.23147471 -0.22134852
-0.43565407 0.2314153 -0.22204995
-0.41545394 0.23230553 -0.21153712
-0.50463891 0.25472134 -0.20857632
-0.4801105 0.25363061 -0.22038352
-0.45797995 0.25360367 -0.22067606
-0.43702874 0.25416407 -0.21460938
-0.46078286 0.27713326 -0.20611143
-0.48406598 -0.27797762 -0.20062089
-0.41761521 -0.27809688 -0.19933021
-0.39699784 -0.27897996 -0.1897707
-0.39601308 -0.25617766 -0.19558549
-0.39503479 -0.23346773 -0.20136201
-0.37457684 -0.23430711 -0.19045782
-0.57484305 -0.21185987 -0.19251704
-0.37363726 -0.21159987 -0.19626963
-0.3734138 -0.18925478 -0.19765234
-0.37322891 -0.16694389 -0.19879591
-0.37304661 -0.14465138 -0.19992363
-0.37294349 -0.12239508 -0.20056152
-0.35230666 -0.12279255 -0.19023383
-0.37294349 -0.10016808 -0.20056164
-0.35230666 -0.10048611 -0.19023395
-0.37294349 -0.077941284 -0.20056164
-0.35230666 -0.078179821 -0.19023371
-0.37294349 -0.055714391 -0.20056152
-0.35230666 -0.055873387 -0.19023383
-0.37294349 -0.033487551 -0.2005614
-0.35230666 -0.033567049 -0.19023371
-0.37294349 -0.011260708 -0.20056164
-0.35230666 -0.011260708 -0.19023383
-0.37294349 0.010966185 -0.20056164
-0.35230666 0.011045631 -0.19023371
-0.37294349 0.033193082 -0.2005614
-0.35230666 0.03335207 -0.19023383
-0.37294349 0.055419974 -0.20056164
-0.35230666 0.055658415 -0.19023371
-0.37294349 0.077646814 -0.20056152
-0.35230896 0.077965297 -0.19021893
-0.37294349 0.099873662 -0.20056152
-0.35230896 0.10027174 -0.19021881
-0.37294349 0.12210051 -0.2005614
-0.35230896 0.12257823 -0.19021881
-0.37306815 0.14436893 -0.19979012
-0.37325293 0.16667213 -0.19864738
-0.37343782 0.18899299 -0.19750369
-0.37374547 0.21138987 -0.19560039
-0.39514527 0.23322234 -0.2007097
-0.37468305 0.23414612 -0.18980074
-0.41646948 0.25497764 -0.20580113
-0.39612398 0.25598183 -0.19493067
-0.48503503 0.27816725 -0.19577885
-0.4386861 0.27718058 -0.20563865
-0.41776243 0.27789503 -0.19849908
-0.37635535 -0.27993271 -0.17945588
-0.37551045 -0.25710085 -0.18468249
-0.35472021 -0.25795817 -0.17455769
-0.55497336 -0.23498285 -0.18168092
-0.35391274 -0.23512745 -0.17980206
-0.35306212 -0.21235803 -0.18532693
-0.33167139 -0.21280958 -0.17880881
-0.30966952 -0.2130059 -0.17597604
-0.28762484 -0.21320242 -0.1731379
-0.35282692 -0.18991978 -0.1868546
-0.33123371 -0.19023094 -0.1818012
-0.30924574 -0.19040133 -0.17903447
-0.28721395 -0.1905712 -0.17627764
-0.2651422 -0.19074214 -0.17350054
-0.60079145 -0.16810857 -0.1771822
-0.35264957 -0.16752523 -0.18800688
-0.33091098 -0.1677407 -0.18400776
-0.30893943 -0.16788965 -0.18124509
-0.28692999 -0.16804041 -0.17844748
-0.26488557 -0.16819476 -0.17558372
-0.24279597 -0.16834851 -0.17272985
-0.59945261 -0.14544265 -0.18279207
-0.30864602 -0.14541623 -0.1833626
-0.28666025 -0.14554811 -0.18050861
-0.26463118 -0.14568019 -0.17764926
-0.24255705 -0.14581181 -0.17479932
-0.35247228 -0.14514863 -0.18915808
-0.3305909 -0.14528546 -0.18619573
-0.59816897 -0.12287199 -0.18817127
-0.33041352 -0.12290121 -0.18740845
-0.30847767 -0.12301022 -0.18457758
-0.28649896 -0.12311942 -0.181741
-0.26447728 -0.12322878 -0.17889905
-0.24241245 -0.12333844 -0.1760515
-0.22037444 -0.12347326 -0.17254829
-0.59816897 -0.10054968 -0.18817151
-0.33041352 -0.1005731 -0.18740845
-0.30847767 -0.10066029 -0.18457758
-0.28649896 -0.10074772 -0.18174112
-0.26447728 -0.1008352 -0.17889905
-0.24241245 -0.10092284 -0.17605138
-0.22037444 -0.10103075 -0.17254841
-0.30847767 -0.078310452 -0.18457758
-0.28649896 -0.078375868 -0.18174112
-0.26447728 -0.078441583 -0.17889905
-0.24241245 -0.078507297 -0.17605138
-0.22037444 -0.078588188 -0.17254829
-0.59816897 -0.07822746 -0.18817151
-0.33041352 -0.078245088 -0.18740833
-0.59816897 -0.055905245 -0.18817139
-0.33041352 -0.055916928 -0.18740845
-0.30847767 -0.055960573 -0.18457747
-0.28649896 -0.056004219 -0.18174112
-0.26447728 -0.056047961 -0.17889893
-0.24241245 -0.056091703 -0.1760515
-0.22037444 -0.056145683 -0.17254841
-0.59816897 -0.033582877 -0.18817151
-0.33041352 -0.033588767 -0.18740845
-0.30847767 -0.03361059 -0.18457735
-0.28649896 -0.033632461 -0.18174112
-0.26447728 -0.03365428 -0.17889905
-0.24241245 -0.033676255 -0.1760515
-0.22037444 -0.033703219 -0.17254841
-0.59816897 -0.011260659 -0.18817127
-0.33041352 -0.011260659 -0.18740845
-0.30847767 -0.011260758 -0.18457747
-0.28649896 -0.011260708 -0.18174088
-0.26447728 -0.011260659 -0.17889905
-0.24241245 -0.011260659 -0.1760515
-0.22037444 -0.011260659 -0.17254853
-0.59816897 0.01106156 -0.18817127
-0.33041352 0.011067502 -0.18740845
-0.30847767 0.011089275 -0.18457758
-0.28649896 0.011111045 -0.181741
-0.26447728 0.011132967 -0.17889905
-0.24241245 0.011154938 -0.1760515
-0.22037444 0.011181854 -0.17254853
-0.59816897 0.033383876 -0.18817139
-0.33041352 0.033395514 -0.18740833
-0.30847767 0.033439204 -0.18457758
-0.28649896 0.033482797 -0.18174112
-0.26447728 0.03352654 -0.17889905
-0.24241245 0.033570431 -0.17605138
-0.22037444 0.033624411 -0.17254853
-0.59816897 0.055706047 -0.18817139
-0.33041352 0.055723622 -0.18740833
-0.30847767 0.055789091 -0.18457747
-0.286497 0.055854157 -0.18175602
-0.26447541 0.055919871 -0.17891419
-0.24241069 0.055985682 -0.17606664
-0.22037444 0.056066826 -0.17254829
-0.59816897 0.078028366 -0.18817151
-0.33041352 0.078051783 -0.18740845
-0.30847767 0.07813897 -0.18457747
-0.286497 0.078225911 -0.18175602
-0.26447541 0.078313448 -0.17891419
-0.24241069 0.078401029 -0.17606652
-0.22037444 0.07850939 -0.17254829
-0.59816897 0.10035063 -0.18817151
-0.33041352 0.1003799 -0.18740845
-0.30847767 0.1004889 -0.18457747
-0.286497 0.10059741 -0.18175602
-0.26447541 0.10070692 -0.17891419
-0.24241069 0.10081647 -0.17606664
-0.22037444 0.10095185 -0.17254829
-0.59816897 0.1226728 -0.18817127
-0.33041573 0.1227088 -0.18739343
-0.30847767 0.12283883 -0.18457735
-0.28649896 0.12296981 -0.181741
-0.26447541 0.12310035 -0.17891395
-0.24241069 0.12323193 -0.17606664
-0.2203728 0.12339377 -0.17256355
-0.59960675 0.14531974 -0.18214667
-0.35249531 0.14494997 -0.18900871
-0.33062816 0.14511515 -0.18594122
-0.30867931 0.14526716 -0.1831224
-0.28669173 0.14542095 -0.18026817
-0.26465902 0.14557436 -0.17742336
-0.24258494 0.14572871 -0.17455769
-0.60094607 0.16803394 -0.17653406
-0.35267258 0.1673367 -0.18785727
-0.33095041 0.16759028 -0.18373764
-0.30897483 0.16775966 -0.18098974
-0.28696153 0.16793104 -0.17820632
-0.26491532 0.1681073 -0.17534244
-0.35284764 0.18974017 -0.18671978
-0.33127326 0.19009966 -0.18153071
-0.3092812 0.19029029 -0.17877853
-0.28724945 0.19048229 -0.1760062
-0.26517382 0.19067386 -0.17324364
-0.57705081 0.2123632 -0.18295729
-0.35316598 0.21223262 -0.18465245
-0.33184096 0.21277191 -0.17764926
-0.30983052 0.21299012 -0.17481434
-0.35400543 0.23504379 -0.17920005
-0.37560499 0.25698262 -0.18409753
-0.35481083 0.2579183 -0.17396867
-0.39710665 0.27883285 -0.18912816
-0.37644783 0.27985811 -0.17888403
-0.51481926 -0.28176737 -0.15959585
-0.35552815 -0.28087005 -0.16930962
-0.33455509 -0.28181383 -0.15909255
-0.5349642 -0.25828332 -0.17071807
-0.33378211 -0.25882027 -0.16437721
-0.33301198 -0.23590954 -0.16964293
-0.3110767 -0.23620372 -0.16582084
-0.2889564 -0.23642373 -0.16296279
-0.26679468 -0.23664531 -0.16008389
-0.24464047 -0.23690151 -0.15675628
-0.60430813 -0.21394327 -0.16244531
-0.26553711 -0.21339948 -0.17029405
-0.24340624 -0.21359691 -0.16744506
-0.22128782 -0.21383058 -0.16407311
-0.19916251 -0.21409529 -0.1602515
-0.17697927 -0.21436073 -0.15641987
-0.60214972 -0.19086592 -0.17148995
-0.24303702 -0.19091824 -0.17064238
-0.2209326 -0.19111973 -0.16736913
-0.19882116 -0.19134803 -0.16366255
-0.17665207 -0.19157599 -0.15996182
-0.15443332 -0.19180909 -0.15617549
-0.22071695 -0.16852951 -0.16937041
-0.19862038 -0.16872895 -0.16566896
-0.17647332 -0.16893218 -0.16189706
-0.15426901 -0.16913602 -0.15811574
-0.62818849 -0.14663738 -0.15692437
-0.22050154 -0.14597026 -0.17136872
-0.19842747 -0.14614448 -0.16759658
-0.17629477 -0.14631841 -0.16382992
-0.15411784 -0.14649992 -0.1599009
-0.6257838 -0.12369887 -0.16668618
-0.1983076 -0.12361777 -0.16879439
-0.17618245 -0.12376203 -0.1650461
-0.15402621 -0.12391838 -0.16098309
-0.6257838 -0.10121121 -0.16668618
-0.1983076 -0.1011464 -0.16879439
-0.17618245 -0.10126165 -0.1650461
-0.15402621 -0.10138683 -0.16098309
-0.6257838 -0.078723714 -0.16668606
-0.1983076 -0.078674927 -0.16879439
-0.17618245 -0.078761563 -0.16504586
-0.15402621 -0.078855291 -0.16098332
-0.6257838 -0.056236014 -0.16668618
-0.1983076 -0.056203604 -0.16879439
-0.17618245 -0.056261279 -0.16504598
-0.15402621 -0.056323744 -0.1609832
-0.6257838 -0.033748258 -0.16668618
-0.1983076 -0.033732131 -0.16879439
-0.17618245 -0.033760943 -0.16504598
-0.15402621 -0.033792205 -0.1609832
-0.6257838 -0.011260708 -0.16668606
-0.1983076 -0.011260659 -0.16879439
-0.17618245 -0.011260708 -0.16504598
-0.15402621 -0.011260659 -0.16098309
-0.6257838 0.011226993 -0.16668618
-0.1983076 0.011210715 -0.16879439
-0.17618245 0.011239627 -0.16504598
-0.15402621 0.011270886 -0.16098332
-0.6257838 0.033714697 -0.16668618
-0.1983076 0.033682138 -0.16879439
-0.17618245 0.03373991 -0.16504598
-0.15402621 0.033802427 -0.1609832
-0.6257838 0.056202203 -0.16668606
-0.1983076 0.056153566 -0.16879439
-0.17618245 0.056240097 -0.1650461
-0.15402621 0.056333974 -0.1609832
-0.6257838 0.078689851 -0.16668618
-0.1983076 0.078624986 -0.16879439
-0.17618245 0.078740485 -0.1650461
-0.15402621 0.078865521 -0.16098309
-0.6257838 0.10117755 -0.16668618
-0.19830608 0.10109586 -0.16880965
-0.17618245 0.10124072 -0.1650461
-0.15402621 0.10139692 -0.16098309
-0.6257838 0.12366516 -0.16668606
-0.19830608 0.12356708 -0.16880965
-0.17618245 0.12374095 -0.1650461
-0.15402621 0.12392861 -0.16098332
-0.22052437 0.14591186 -0.17115688
-0.1984472 0.14611435 -0.16739929
-0.17631444 0.14631814 -0.1636169
-0.15413465 0.14652915 -0.15970266
-0.24282393 0.16828308 -0.17248797
-0.22073978 0.16848825 -0.16915822
-0.19864166 0.1687163 -0.16545618
-0.17649162 0.16894749 -0.16169918
-0.15428711 0.16918144 -0.15790176
-0.60230505 0.19084038 -0.17083919
-0.24306327 0.19086975 -0.17041528
-0.22095552 0.1910954 -0.16715658
-0.19884247 0.19135241 -0.16344965
-0.17667323 0.19160981 -0.15973318
-0.15445015 0.19187003 -0.15597665
-0.28777519 0.21320754 -0.17198884
-0.26567888 0.2134266 -0.16914308
-0.24353942 0.21364611 -0.16629148
-0.22142226 0.21391296 -0.16282582
-0.19928765 0.21420728 -0.15900087
-0.55712688 0.23565055 -0.17203438
-0.33309835 0.23590311 -0.16905212
-0.3112388 0.23627578 -0.16465068
-0.28910983 0.23651797 -0.16179037
-0.26693746 0.23676069 -0.15892458
-0.53705263 0.25911373 -0.16102886
-0.33386886 0.25885907 -0.16378415
-0.35561681 0.28087375 -0.16873372
-0.3346377 0.28189516 -0.15852773
-0.42766532 -0.30601361 -0.14256763
-0.40490052 -0.30595967 -0.14310741
-0.31343469 -0.28276432 -0.14880347
-0.29169413 -0.28338876 -0.14204276
-0.31249371 -0.25956398 -0.15559447
-0.29029733 -0.25980771 -0.15271628
-0.26811028 -0.26008832 -0.14940262
-0.24593532 -0.2604152 -0.1455425
-0.22370365 -0.26074415 -0.14165676
-0.58497381 -0.23752561 -0.14864981
-0.22249195 -0.23719837 -0.1529001
-0.20028356 -0.23749472 -0.14904928
-0.17801538 -0.23779082 -0.14520371
-0.1557451 -0.23813871 -0.14068389
-0.1547379 -0.21462685 -0.15257823
-0.1326347 -0.21507059 -0.14617372
-0.11047551 -0.21555699 -0.1391536
-0.1323625 -0.19220737 -0.14970958
-0.11021549 -0.19262627 -0.1429069
-0.13223018 -0.16949636 -0.15142846
-0.11009797 -0.16986412 -0.14460289
-0.13210037 -0.14681335 -0.1531148
-0.10998273 -0.14712968 -0.14626598
-0.087761641 -0.14744742 -0.13938558
-0.13201667 -0.12417944 -0.15420198
-0.109906 -0.12444219 -0.14737391
-0.087691203 -0.12470565 -0.14052939
-0.13201667 -0.10159561 -0.15420198
-0.109906 -0.10180589 -0.14737391
-0.087691203 -0.10201676 -0.14052927
-0.13201667 -0.079011984 -0.15420187
-0.109906 -0.079169631 -0.14737391
-0.087691203 -0.079327673 -0.14052927
-0.13201667 -0.056428157 -0.15420198
-0.109906 -0.056533225 -0.14737391
-0.087691203 -0.056638636 -0.14052939
-0.13201667 -0.033844382 -0.15420198
-0.109906 -0.033896916 -0.14737391
-0.087691203 -0.033949696 -0.14052927
-0.13201667 -0.011260758 -0.15420198
-0.109906 -0.011260659 -0.14737391
-0.087691203 -0.011260659 -0.14052939
-0.13201667 0.011323068 -0.15420198
-0.109906 0.011375699 -0.14737391
-0.087691203 0.01142833 -0.14052939
-0.13201667 0.033906892 -0.1542021
-0.109906 0.034012005 -0.14737391
-0.087691203 0.034117222 -0.14052927
-0.13201667 0.056490518 -0.15420187
-0.109906 0.056648262 -0.14737391
-0.087691203 0.056806311 -0.14052939
-0.13201667 0.079074346 -0.15420198
-0.109906 0.079284623 -0.14737403
-0.087691203 0.079495348 -0.14052939
-0.13201667 0.10165797 -0.15420198
-0.109906 0.10192088 -0.14737391
-0.087691203 0.10218429 -0.14052927
-0.13201667 0.12424185 -0.15420198
-0.109906 0.12455719 -0.14737391
-0.087691203 0.12487332 -0.14052939
-0.62862539 0.14677434 -0.15515077
-0.13211453 0.14689398 -0.15293074
-0.10999554 0.14726305 -0.14608133
-0.08777307 0.14763395 -0.13919997
-0.13224553 0.16959231 -0.15122902
-0.1101108 0.1700118 -0.144418
-0.13237669 0.19231704 -0.1495254
-0.11022937 0.19278948 -0.14270639
-0.60625339 0.21456966 -0.15429378
-0.17709509 0.2145025 -0.15516603
-0.15484826 0.214802 -0.15127516
-0.13272835 0.21528846 -0.14495718
-0.58659947 0.23822673 -0.1416105
-0.24478698 0.23705177 -0.1554873
-0.22262907 0.23737849 -0.15162778
-0.20040968 0.23770352 -0.147789
-0.17813212 0.23802944 -0.14394009
-0.1558616 0.23842166 -0.13930821
-0.31265271 0.25972155 -0.15444684
-0.29044777 0.25998774 -0.15156651
-0.26826358 0.26030242 -0.14815807
-0.24608117 0.26066098 -0.14427936
-0.22384185 0.2610217 -0.1403749
-0.51682937 0.28275612 -0.14992464
-0.31351349 0.28292516 -0.14823472
-0.38381755 -0.30694151 -0.13329589
-0.36240354 -0.3078064 -0.12465298
-0.27079353 -0.28472143 -0.12761748
-0.56545627 -0.26133126 -0.13472366
-0.20141169 -0.26107278 -0.13777649
-0.17909676 -0.26143506 -0.13349771
-0.1567671 -0.26184857 -0.12861466
-0.13436353 -0.26226345 -0.12371552
-0.13347551 -0.23855704 -0.13525093
-0.11123696 -0.23910262 -0.12816286
-0.088210329 -0.21604569 -0.13209987
-0.065872028 -0.21658 -0.1243875
-0.087966621 -0.19304816 -0.13605714
-0.065646753 -0.1935094 -0.12856781
-0.63343191 -0.17034729 -0.13563871
-0.087864548 -0.17023538 -0.13771439
-0.065560341 -0.17064185 -0.13017154
-0.065473199 -0.14779831 -0.13178897
-0.04309991 -0.14818147 -0.12349677
-0.065414578 -0.12500027 -0.1328764
-0.04304868 -0.1253186 -0.12460601
-0.065414578 -0.10225235 -0.13287652
-0.04304868 -0.10250702 -0.12460601
-0.065414578 -0.079504341 -0.13287652
-0.04304795 -0.079695038 -0.12462163
-0.065414578 -0.056756482 -0.13287663
-0.04304795 -0.056883611 -0.12462163
-0.065414578 -0.034008618 -0.1328764
-0.04304795 -0.034072138 -0.12462163
-0.065414578 -0.011260659 -0.13287652
-0.04304795 -0.011260659 -0.12462163
-0.065414578 0.011487203 -0.13287652
-0.04304868 0.01155092 -0.12460601
-0.065414578 0.034235217 -0.13287663
-0.04304868 0.03436245 -0.12460601
-0.065414578 0.056983024 -0.1328764
-0.04304868 0.057174124 -0.12460613
-0.065414578 0.079730935 -0.13287663
-0.04304868 0.079985701 -0.12460601
-0.065414578 0.1024789 -0.13287652
-0.04304868 0.10279718 -0.12460601
-0.065414578 0.12522675 -0.13287652
-0.04304868 0.12560876 -0.12460601
-0.065483242 0.14804327 -0.13160229
-0.043107852 0.14848934 -0.12332475
-0.63425004 0.17075703 -0.1323173
-0.087875992 0.1704361 -0.13752878
-0.065569565 0.17089964 -0.13000023
-0.087979019 0.1932642 -0.13585556
-0.065656826 0.19378203 -0.12838101
-0.11056021 0.21582936 -0.13793111
-0.088286921 0.21637404 -0.13085604
-0.06594108 0.21697061 -0.12310588
-0.13357227 0.23887168 -0.13399446
-0.1113223 0.23946966 -0.12693143
-0.56676435 0.26208484 -0.12886381
-0.20154032 0.26138029 -0.13649094
-0.1792216 0.26178175 -0.13214648
-0.15688059 0.2622318 -0.12727451
-0.13446583 0.26268315 -0.12238646
-0.29264179 0.28426948 -0.13480115
-0.43081507 0.30808285 -0.12477791
-0.40698597 0.30743447 -0.13079381
-0.38521725 0.30809808 -0.12463725
-0.45573965 -0.30893925 -0.11333346
-0.34174797 -0.30928138 -0.10991442
-0.54574275 -0.28535926 -0.12071204
-0.25028989 -0.28654921 -0.10783064
-0.11202261 -0.26284698 -0.11682308
-0.089631006 -0.26350689 -0.10903072
-0.088911638 -0.23967618 -0.12071192
-0.066489741 -0.24027568 -0.11292434
-0.043453857 -0.21717267 -0.11583364
-0.020905286 -0.21776763 -0.10724604
-0.043247342 -0.19401824 -0.12030458
-0.020722494 -0.19452992 -0.11199498
-0.043172866 -0.17108652 -0.12191725
-0.020661891 -0.17153648 -0.1135695
-0.020601355 -0.14856726 -0.11514211
0.0020097569 -0.14897718 -0.10626614
-0.02055721 -0.12563872 -0.11628914
0.0020443127 -0.12598123 -0.1073885
-0.020556599 -0.10276263 -0.11630476
0.0020443127 -0.10303712 -0.10738838
-0.020556599 -0.079887137 -0.11630487
0.0020448044 -0.080092721 -0.10740411
-0.020556599 -0.057011694 -0.11630476
0.0020448044 -0.057148665 -0.10740423
-0.020556599 -0.034136154 -0.11630476
0.0020448044 -0.03420471 -0.10740423
-0.020556599 -0.011260758 -0.11630476
0.0020448044 -0.011260659 -0.10740411
-0.020556599 0.011614835 -0.11630499
0.0020448044 0.011683395 -0.10740423
-0.020556599 0.034490228 -0.11630476
0.0020448044 0.034627348 -0.10740423
-0.020556599 0.057365775 -0.11630487
0.0020448044 0.057571307 -0.10740399
-0.020556599 0.080241218 -0.11630487
0.0020448044 0.080515258 -0.10740423
-0.02055721 0.10311736 -0.11628914
0.0020448044 0.10345931 -0.10740411
-0.02055721 0.12599285 -0.11628914
0.0020443127 0.12640396 -0.10738826
-0.020608023 0.14893959 -0.11496937
0.0020043999 0.14941797 -0.1060921
-0.043180808 0.17140801 -0.12174499
-0.020668559 0.17192221 -0.11339641
-0.043256029 0.19435449 -0.12011659
-0.020729162 0.19492918 -0.11182189
-0.043512657 0.21762849 -0.11456048
-0.020953953 0.21828873 -0.10598135
-0.088990763 0.24010523 -0.11942708
-0.066560164 0.24076651 -0.11161709
-0.11211187 0.26331624 -0.11553502
-0.089806139 0.26417965 -0.10618699
-0.54675686 0.2861504 -0.11600637
-0.27191624 0.28590062 -0.11850214
-0.36366218 0.30897745 -0.11647761
-0.32088375 -0.3107695 -0.095044374
-0.2291415 -0.28808558 -0.091199875
-0.067122504 -0.26417145 -0.10118163
-0.043982729 -0.24093319 -0.10438311
-0.021360822 -0.24162385 -0.095410824
0.001758799 -0.21840021 -0.09811604
0.024662495 -0.19568276 -0.093274951
0.0019151941 -0.1950718 -0.10319519
0.0019625053 -0.17201266 -0.10473144
0.024698205 -0.1725467 -0.094821334
0.024733149 -0.14943597 -0.0963341
0.024759971 -0.12636209 -0.097495914
0.024759971 -0.10334177 -0.097495914
0.024759971 -0.080321573 -0.097495914
0.024759971 -0.057301216 -0.097495914
0.024759971 -0.034280911 -0.097496033
0.024759971 -0.011260708 -0.097495914
0.024759971 0.011759646 -0.097495914
0.024760343 0.034779653 -0.097511888
0.024760343 0.057799809 -0.097511768
0.024760343 0.08081986 -0.097511768
0.024759971 0.10384066 -0.097495914
0.024759971 0.12686101 -0.097495914
0.024729468 0.14995232 -0.096175194
0.0019571409 0.17246664 -0.10455739
0.02469416 0.17307699 -0.094645977
0.0019098297 0.19553892 -0.10302091
0.024658442 0.19622646 -0.093099356
0.0017186403 0.21899471 -0.096811652
-0.044041991 0.2414877 -0.10310006
-0.021412954 0.24225362 -0.094056368
-0.25095877 0.28754821 -0.10203803
-0.34274232 0.3104175 -0.10311604
-0.2997196 -0.31220338 -0.080716848
-0.20775741 -0.28964052 -0.074366212
-0.045124874 -0.2659944 -0.079655051
0.0013906434 -0.24233602 -0.086159825
0.024260491 -0.24312827 -0.075867653
0.024537392 -0.21911083 -0.087857723
0.047473077 -0.2198253 -0.077544928
0.0475615 -0.19629785 -0.083288431
0.070605159 -0.19698563 -0.072119236
0.047584977 -0.173086 -0.084812999
0.070616737 -0.17368905 -0.073622823
0.047608674 -0.14989701 -0.086352229
0.070628181 -0.15041633 -0.075108886
0.047626924 -0.12674528 -0.087537646
0.070637494 -0.12717706 -0.076319337
0.047626924 -0.10364837 -0.087537527
0.070637494 -0.10399392 -0.076319337
0.047626924 -0.08055152 -0.087537408
0.070637494 -0.080810577 -0.076319337
0.047626924 -0.057454519 -0.087537527
0.070637368 -0.057627589 -0.076303124
0.047626674 -0.034357712 -0.087521672
0.070637368 -0.03444415 -0.076303124
0.047626674 -0.011260708 -0.087521434
0.070637368 -0.011260758 -0.076303124
0.047626924 0.011836246 -0.087537646
0.070637368 0.011922633 -0.076303124
0.047626924 0.034933202 -0.087537408
0.070637368 0.035106122 -0.076303124
0.047626924 0.058030106 -0.087537646
0.070637368 0.058289513 -0.076303124
0.047626924 0.081127062 -0.087537527
0.070637368 0.081472956 -0.076303124
0.047626924 0.10422391 -0.087537408
0.070637494 0.10465575 -0.076319456
0.047626924 0.12732096 -0.087537527
0.070637494 0.12783903 -0.076319337
0.047605958 0.15049116 -0.086175799
0.070627056 0.15109548 -0.074963689
0.047582507 0.17369233 -0.084652781
0.070615493 0.17438154 -0.073461294
0.047558784 0.19691828 -0.083111763
0.024506696 0.21978633 -0.08652842
0.047451973 0.22058338 -0.07617414
0.0013486817 0.24303757 -0.084797025
0.024228424 0.24391137 -0.074479103
-0.068120435 0.26635277 -0.082661986
-0.22976935 0.28921598 -0.085374355
-0.46273014 0.31339401 -0.075496316
-0.32182854 0.31202209 -0.088225961
-0.3006247 0.31357676 -0.073800564
-0.27843583 -0.31371918 -0.06556952
-0.18613017 -0.29121166 -0.057358623
0.047280446 -0.24396233 -0.065033197
0.070557244 -0.22063254 -0.065894365
0.093820781 -0.19776697 -0.059431791
0.093820781 -0.17437291 -0.060931802
0.093820781 -0.15100192 -0.062430501
0.093820781 -0.12766413 -0.063667297
0.093820781 -0.10438341 -0.063667297
0.093820781 -0.081102744 -0.063667297
0.093820781 -0.057822034 -0.063667297
0.093820781 -0.034541421 -0.063667297
0.093820781 -0.011260758 -0.063667297
0.093820781 0.012019955 -0.063667297
0.093820781 0.035300672 -0.063667417
0.093820781 0.058581382 -0.063667417
0.093820781 0.081862099 -0.063667536
0.093820781 0.10514281 -0.063667297
0.093820781 0.12842342 -0.063667417
0.093820781 0.15177958 -0.062267542
0.093820781 0.17516336 -0.060768843
0.070603915 0.19769116 -0.071957469
0.093820781 0.19857031 -0.059268713
0.070546485 0.22148225 -0.064496875
0.047258917 0.24482964 -0.063634872
-0.046129048 0.26863903 -0.057913899
-0.20834371 0.29090387 -0.068507314
-0.27924004 0.31516743 -0.059040189
-0.48989496 -0.31479287 -0.054840803
-0.25714707 -0.31543282 -0.04844594
-0.16425744 -0.29280049 -0.040158033
-0.022915438 -0.26808029 -0.055020809
0.093820781 -0.24588357 -0.040075421
0.070461318 -0.24485531 -0.053432941
0.093820781 -0.22154579 -0.052712083
0.11728816 -0.22246714 -0.039414406
0.11723269 -0.19855595 -0.046620607
0.11722104 -0.17506257 -0.048133492
0.1172094 -0.15159245 -0.049644828
0.11719956 -0.12815449 -0.050925016
0.11719956 -0.10477579 -0.050925016
0.11719956 -0.081397012 -0.050924897
0.11719956 -0.058018178 -0.050925016
0.11719956 -0.034639444 -0.050925016
0.11719956 -0.011260708 -0.050925016
0.11719956 0.012118127 -0.050924897
0.11719956 0.035496861 -0.050924897
0.11719956 0.058875695 -0.050925016
0.11719956 0.082254335 -0.050925136
0.11719956 0.10563322 -0.050924897
0.11719956 0.12901199 -0.050924897
0.1172108 0.15246953 -0.049464345
0.11722244 0.17595257 -0.047952652
0.11723395 0.1994579 -0.046456218
0.093820781 0.22249538 -0.051334977
0.070450723 0.24580999 -0.052056432
0.093820781 0.24694352 -0.038670182
-0.186676 0.29261088 -0.051449895
-0.25789815 0.31701031 -0.041941166
-0.23561391 -0.31716436 -0.031143546
-0.14213501 -0.29440767 -0.022760987
-0.0003310591 -0.2701782 -0.030246019
0.11738745 -0.24692735 -0.026516318
0.14097184 -0.22344051 -0.025365591
0.14085066 -0.19938028 -0.033236146
0.14082691 -0.17578211 -0.034778953
0.14080319 -0.15220794 -0.036319971
0.14078254 -0.12866502 -0.037661195
0.16460443 -0.12923342 -0.02289474
0.14078254 -0.10518416 -0.037661195
0.16460443 -0.10563891 -0.02289474
0.14078254 -0.081703313 -0.037661314
0.16460443 -0.082044415 -0.02289474
0.14078254 -0.058222413 -0.037661195
0.16460443 -0.058449864 -0.02289474
0.14078254 -0.03474151 -0.037661195
0.16460443 -0.034855161 -0.02289474
0.14078254 -0.011260659 -0.037661314
0.16460443 -0.011260659 -0.02289474
0.14078254 0.012220243 -0.037661314
0.16460443 0.012333894 -0.02289474
0.14078254 0.035701044 -0.037660956
0.16460443 0.035928443 -0.022894621
0.14078254 0.059181847 -0.037661195
0.16460443 0.059522949 -0.022894621
0.14078254 0.082662851 -0.037661076
0.16460443 0.0831175 -0.022894621
0.14078254 0.10614375 -0.037660956
0.16460443 0.1067121 -0.02289474
0.14078254 0.12962444 -0.037661195
0.16460481 0.13030741 -0.022878051
0.14080574 0.15318663 -0.036154389
0.14082946 0.17677395 -0.034613132
0.14085323 0.20038538 -0.033070326
0.11729898 0.22352143 -0.038008571
0.14099419 0.22460631 -0.023913622
0.11739837 0.2480927 -0.025098681
-0.023751371 0.27091253 -0.033302665
-0.16476068 0.2943356 -0.034215093
-0.23632655 0.31888661 -0.024531364
-0.21383253 -0.31891403 -0.013659954
-0.11975856 -0.29603317 -0.0051642656
0.02262298 -0.27231929 -0.0049612522
0.14117458 -0.24802975 -0.012196779
0.1649036 -0.22450916 -0.009940505
0.16470839 -0.20029432 -0.018393159
0.1646724 -0.17658122 -0.019950986
0.18875118 -0.17738897 -0.0049613714
0.16463646 -0.1528921 -0.021507144
0.18870279 -0.15358374 -0.0065326691
0.18865809 -0.12980732 -0.007984519
0.18865809 -0.10609797 -0.007984519
0.18865809 -0.082388714 -0.007984519
0.18865809 -0.058679365 -0.0079843998
0.18865809 -0.034969959 -0.0079846382
0.18865809 -0.011260608 -0.0079843998
0.18865809 0.012448594 -0.0079843998
0.18865809 0.036158048 -0.0079846382
0.18865809 0.0598673 -0.007984519
0.18865809 0.083576605 -0.0079843998
0.18865809 0.1072859 -0.0079843998
0.18866017 0.13099839 -0.0079169273
0.16464072 0.15398584 -0.021323204
0.18870801 0.15479189 -0.0063639879
0.16467628 0.17768742 -0.019783616
0.16471225 0.20141374 -0.01822567
0.16493708 0.22579361 -0.0084908009
0.14119713 0.24930926 -0.010732174
-0.0010071844 0.27322322 -0.0082882643
-0.14259645 0.29608172 -0.016766667
-0.21450013 0.3207773 -0.0069886446
-0.19180208 -0.32068551 0.0040416718
0.16521119 -0.24922875 0.0033787489
0.18907765 -0.22558865 0.0056407452
0.1887991 -0.20121735 -0.0034052134
0.21310848 -0.17826343 0.011268377
0.21304603 -0.15433091 0.0096461773
0.21298498 -0.13042486 0.0080598593
0.21298498 -0.10659201 0.0080599785
0.21298498 -0.082759179 0.0080597401
0.21298498 -0.058926336 0.0080598593
0.21298498 -0.035093546 0.0080599785
0.21298498 -0.011260608 0.0080598593
0.21298498 0.012572132 0.0080599785
0.21298498 0.036404975 0.0080599785
0.21298498 0.060237862 0.0080599785
0.21298498 0.084070705 0.0080599785
0.21298498 0.10790355 0.0080602169
0.21298957 0.13174187 0.008179307
0.2130526 0.15566389 0.009816885
0.18875638 0.17861055 -0.0047924519
0.21311504 0.17961007 0.011439323
0.1888043 0.20245232 -0.0032360554
0.18912274 0.22699429 0.0071054697
0.16524456 0.25062656 0.0048241615
-0.12017629 0.29784638 0.00086510181
-0.19242075 0.32268775 0.010738969
-0.16951501 -0.32247576 0.021931052
-0.097123727 -0.29767749 0.012635827
0.045959808 -0.27449605 0.020744801
0.18949194 -0.25043866 0.01909554
0.21356127 -0.22679362 0.023032546
0.21317163 -0.20222206 0.012909293
0.23770443 -0.15514435 0.027255654
0.23762792 -0.13110003 0.02559936
0.23762792 -0.10713211 0.02559936
0.23762792 -0.0831642 0.02559936
0.23762792 -0.059196435 0.025599599
0.23762792 -0.035228621 0.02559948
0.23762792 -0.011260659 0.02559936
0.23762792 0.012707256 0.02559936
0.23762792 0.036675066 0.02559948
0.23762792 0.060642935 0.02559948
0.23762792 0.08461085 0.02559948
0.23762792 0.10857866 0.025599599
0.23763511 0.13255356 0.025754571
0.2377124 0.15661278 0.02742815
0.2131782 0.20358275 0.013080359
0.21361893 0.22833563 0.024530768
0.18953638 0.2519573 0.020538449
0.022112586 0.27557203 0.017139316
-0.097498283 0.29963273 0.018717766
-0.14696857 -0.32428682 0.04002893
-0.074226901 -0.29934245 0.030659556
0.21410103 -0.25182113 0.037055969
0.23835711 -0.22806521 0.041386962
0.23785846 -0.20331086 0.030590415
0.23778179 -0.17921522 0.028930902
0.26257706 -0.13180096 0.043809891
0.26257426 -0.10769128 0.043757558
0.26257426 -0.083583646 0.043757439
0.26257426 -0.059475921 0.043757439
0.26257426 -0.03536839 0.043757677
0.26257426 -0.011260659 0.043757439
0.26257426 0.012846973 0.043757439
0.26257426 0.036954552 0.043757558
0.26257426 0.061062187 0.043757439
0.26257426 0.085170016 0.043757558
0.26257426 0.10927755 0.043757677
0.26258743 0.1333964 0.044001818
0.23778978 0.18069792 0.029103637
0.23786645 0.20480789 0.030763388
0.23842473 0.22974584 0.042850614
0.21415721 0.25347942 0.038515687
0.045617316 0.27796 0.042990208
-0.07455565 0.30143851 0.036760569
-0.17008728 0.3246223 0.028688908
-0.1241594 -0.32612094 0.058356047
-0.051061511 -0.30102524 0.048877001
0.06968908 -0.27670935 0.046882987
0.23900358 -0.25323203 0.055383444
0.26354232 -0.22947411 0.061722755
0.26287276 -0.2044629 0.049296975
0.26277375 -0.18021366 0.04745996
0.26267582 -0.15599363 0.045642734
0.26268524 0.15760376 0.045817137
0.26278412 0.18184018 0.047652364
0.26288217 0.20610394 0.049472094
0.23907262 0.25503427 0.056877851
-0.051345795 0.30326703 0.055031896
-0.14749217 0.32657748 0.046830773
-0.10108024 -0.3279748 0.076881409
-0.027623884 -0.30272788 0.067308426
0.093820781 -0.27898127 0.07371366
0.26435149 -0.25487593 0.076739073
0.28834075 -0.20578073 0.070694089
0.28822717 -0.18136621 0.068849564
0.28811151 -0.1569787 0.066971779
0.28799492 -0.13261954 0.065078855
0.28798842 -0.10834447 0.064972758
0.28798842 -0.084073558 0.064972639
0.28798842 -0.059802592 0.064972758
0.28798842 -0.035531573 0.064972639
0.28798842 -0.011260708 0.064972639
0.28798842 0.013010308 0.064972639
0.28798842 0.037281223 0.064972758
0.28798842 0.061552145 0.064972639
0.28798842 0.085823059 0.064972758
0.28798842 0.11009413 0.064972639
0.2880069 0.13437897 0.065273285
0.28812242 0.15875325 0.067149043
0.28823808 0.18315662 0.069026709
0.28835166 0.2075865 0.070871353
0.26362985 0.23132366 0.063346863
0.2644341 0.25684607 0.078271866
0.069515891 0.28039813 0.069381595
-0.027862899 0.30511689 0.073518276
-0.12463373 0.32855746 0.065202594
-0.003909193 -0.3044506 0.085957527
0.28915283 -0.2310093 0.083880544
0.31420964 -0.20716193 0.093122721
0.31405762 -0.18255609 0.090928435
0.31390581 -0.15798402 0.088737249
0.31376165 -0.13345011 0.08665657
0.313748 -0.10900616 0.086459279
0.313748 -0.084569804 0.08645916
0.313748 -0.06013336 0.08645916
0.313748 -0.035697006 0.08645916
0.313748 -0.011260758 0.086459398
0.313748 0.013175592 0.086459279
0.313748 0.037611939 0.086459279
0.313748 0.062048443 0.086459398
0.313748 0.08648479 0.086459279
0.313748 0.11092114 0.086459279
0.3137753 0.13537571 0.086853743
0.31392199 0.15992913 0.088970661
0.3140738 0.18451975 0.091162086
0.31423584 0.2091544 0.093500853
0.28924763 0.23302288 0.085420251
-0.004101567 0.3069869 0.092205048
-0.10150465 0.33055884 0.083773136
-0.07772769 -0.3298507 0.095626473
0.020087495 -0.30619383 0.1048286
0.11836704 -0.28126955 0.10073626
0.29006511 -0.25656602 0.098693848
0.31532633 -0.23276624 0.10924053
0.31545109 0.2349952 0.11104143
0.29016304 0.25870991 0.10028422
0.093820781 0.28288746 0.096329689
0.019941911 0.30888107 0.11113262
-0.078102499 0.33258581 0.10258186
-0.054097712 -0.33175075 0.11461282
0.04437124 -0.30795798 0.12392533
0.1433365 -0.28359726 0.12822449
0.31647599 -0.25865534 0.12583458
0.34079617 -0.20884098 0.12038791
0.34062293 -0.18402223 0.11813748
0.34044856 -0.15923738 0.11587214
0.34027299 -0.13448684 0.11359179
0.34024775 -0.10983147 0.11326361
0.34024775 -0.085188746 0.11326361
0.34024775 -0.060546018 0.11326361
0.34024775 -0.035903387 0.11326349
0.34024775 -0.011260608 0.11326361
0.34024775 0.013381971 0.11326361
0.34024775 0.038024649 0.11326349
0.34024915 0.06266778 0.11328173
0.34024915 0.087310813 0.11328173
0.34024915 0.11195349 0.11328173
0.34029126 0.13662168 0.11382866
0.3404668 0.16139154 0.11610961
0.34064123 0.18619566 0.11837542
0.340909 0.21111867 0.12185335
0.31659061 0.2610136 0.12748897
0.11854216 0.28539586 0.12348497
-0.054420292 0.33463523 0.12159681
-0.030183479 -0.33367175 0.13380873
0.068947092 -0.30974498 0.14327037
0.34207261 -0.23468728 0.13696873
0.36749429 -0.13565771 0.14401329
0.36744237 -0.11075941 0.14340031
0.36744237 -0.085884787 0.14340043
0.36744237 -0.061010063 0.14340043
0.36744237 -0.036135335 0.14340043
0.36744237 -0.011260659 0.14340055
0.36744237 0.013614068 0.14340055
0.36744237 0.03848879 0.14340031
0.36744237 0.063363269 0.14340043
0.36744237 0.088238046 0.14340031
0.36744237 0.11311267 0.14340055
0.36752102 0.13803038 0.14432931
0.34222931 0.23714773 0.13900495
0.14359792 0.28740215 0.14520276
0.044273585 0.31079611 0.13026798
-0.030454814 0.33671096 0.14085805
-0.0059808418 -0.33561593 0.15323615
0.16873893 -0.28596061 0.15613484
0.34369648 -0.26113638 0.15806401
0.36837021 -0.21093304 0.15435767
0.36800969 -0.18574454 0.15010011
0.3677541 -0.1606788 0.14708173
0.36778089 0.16307743 0.14739835
0.36803496 0.18816774 0.15039849
0.36856508 0.21353006 0.15665913
0.34384805 0.26376945 0.16003299
0.068897963 0.31273597 0.14965272
-0.0061993748 0.33880973 0.16033316
0.01851546 -0.33758372 0.17289913
0.093820781 -0.31155196 0.16283119
0.19438301 -0.28780675 0.17793775
0.37023205 -0.2374154 0.17634499
0.37039906 0.24017419 0.17831719
0.16893789 0.28920782 0.16474938
0.093820781 0.31469941 0.1692723
0.043310512 -0.33957747 0.19282138
0.1189976 -0.31338257 0.18264925
0.39711779 -0.21345869 0.19536948
0.39651674 -0.18783334 0.1888634
0.39621714 -0.16245887 0.18562007
0.39591986 -0.13713528 0.18240201
0.39584258 -0.11193457 0.18156517
0.39584258 -0.086766131 0.18156505
0.39584258 -0.06159769 0.18156528
0.39584258 -0.036429249 0.18156528
0.39584258 -0.011260708 0.18156528
0.39584258 0.013907732 0.18156517
0.39584258 0.039076224 0.18156517
0.39584258 0.064244665 0.18156517
0.39584258 0.089413308 0.18156517
0.39584079 0.1145811 0.18154621
0.39594799 0.13980286 0.18270648
0.39624533 0.16515361 0.18592501
0.39654499 0.19055548 0.18916905
0.19458613 0.29103547 0.18453383
0.11904765 0.3166886 0.18914998
0.1444836 -0.31523758 0.2027297
0.22029276 -0.28949904 0.19792175
0.37194046 -0.2640968 0.19652033
0.39736241 0.21639557 0.19801784
0.37214535 0.26706383 0.1989398
0.22054903 0.29288721 0.20457983
0.14458402 0.3187004 0.20925248
0.17028402 -0.31711367 0.22303879
0.24652244 -0.29121375 0.21817148
0.39955851 -0.24056403 0.22179151
0.42570093 -0.13890685 0.22842908
0.42556003 -0.11333434 0.22702122
0.42556003 -0.087815903 0.22702134
0.42556003 -0.062297575 0.22702122
0.42556003 -0.036778994 0.22702122
0.42556003 -0.011260659 0.22702122
0.42556003 0.014257675 0.22702122
0.42556003 0.039776206 0.22702122
0.42555806 0.065294147 0.22700167
0.42555806 0.09081243 0.22700191
0.42555806 0.11633056 0.22700167
0.42574206 0.14193372 0.22883999
0.39980888 0.24372928 0.22450197
0.24683106 0.29475987 0.22485328
0.17043562 0.32073703 0.22960329
0.1964049 -0.31901309 0.24360013
0.27307636 -0.29294807 0.23865235
0.40159136 -0.26773614 0.24379754
0.42655078 -0.19042298 0.23692131
0.42613217 -0.16463521 0.23273838
0.42617339 0.16769853 0.23315036
0.42659011 0.19352052 0.23731446
0.40178847 0.27104312 0.24593127
0.27343875 0.29665571 0.24537778
0.29996133 -0.29470393 0.25938869
0.42760879 -0.21666871 0.24749374
0.42788029 0.22001128 0.25020683
0.19660833 0.32279879 0.25020683
0.22285222 -0.32093608 0.26441848
0.43026948 -0.24418679 0.27408099
0.43060982 0.24780782 0.27748179
0.3003782 0.29857546 0.26615834
0.22310816 0.3248865 0.27106798
0.24963215 -0.32288337 0.2854985
0.32718498 -0.29648361 0.28040552
0.45843732 -0.19356897 0.29530346
0.45776498 -0.16723686 0.28906476
0.45708641 -0.14099847 0.28276825
0.4568013 -0.1149693 0.28012288
0.4568013 -0.089042246 0.28012311
0.4568013 -0.063115105 0.28012311
0.4568013 -0.037187856 0.28012311
0.4568013 -0.011260708 0.28012311
0.4568013 0.01466644 0.28012288
0.4568013 0.040593639 0.28012288
0.4568013 0.066520937 0.28012288
0.4568013 0.092448086 0.28012288
0.4568013 0.11837513 0.28012311
0.45715612 0.14445437 0.2834152
0.45783058 0.17074415 0.28967333
0.45850098 0.19712795 0.29589379
0.3276571 0.30052111 0.28721976
0.24994127 0.32700035 0.29219127
0.43358117 -0.3771565 0.30717349
0.43276042 -0.35020038 0.29897201
0.27675101 -0.32485533 0.30684531
0.35475263 -0.29828578 0.30168784
0.43324092 -0.27235308 0.30377328
0.43349913 0.27615947 0.30635357
0.35527915 0.30248928 0.30852711
0.43277267 0.35376438 0.2990942
0.43385631 0.38108802 0.30992281
0.30421525 -0.32685241 0.32846415
0.38267091 -0.30011079 0.32324064
0.4358407 -0.30066207 0.32975173
0.46045607 -0.22076651 0.31403494
0.46083137 0.22467472 0.31751728
0.38325214 0.30448279 0.33010507
0.43574506 0.30436173 0.32879639
0.27711403 0.32914108 0.31358206
0.40975231 -0.37984744 0.33214259
0.41011021 -0.35390759 0.33601665
0.41094646 -0.30195922 0.34506941
0.46350503 -0.2489149 0.34232569
0.46359074 0.25286064 0.34312105
0.3046329 0.33130896 0.33524549
0.41009286 0.35772344 0.33582914
0.40968508 0.38356975 0.3314147
0.33203161 -0.32887518 0.35036016
0.43809465 -0.32905194 0.35227466
0.46438676 -0.27595067 0.35050738
0.49206138 -0.22365567 0.36094809
0.49141747 -0.19680583 0.35537171
0.4911741 -0.17020208 0.35326409
0.49093106 -0.14363088 0.35115921
0.49076596 -0.11711264 0.3497293
0.49076596 -0.090649694 0.3497293
0.49076596 -0.064186752 0.34972954
0.49076596 -0.037723802 0.3497293
0.49076596 -0.011260608 0.3497293
0.49076596 0.015202338 0.3497293
0.49076596 0.041665234 0.3497293
0.49076596 0.068128332 0.34972954
0.49076596 0.094591431 0.3497293
0.49076596 0.12105433 0.3497293
0.49095535 0.14759322 0.35136962
0.49119601 0.17418116 0.35345387
0.4914394 0.20080268 0.35556149
0.49215177 0.22773786 0.36173105
0.46448424 0.27997491 0.35141194
0.41158286 0.30650148 0.35195887
0.33250451 0.33350462 0.35718632
0.43799564 0.33291423 0.35128546
0.36020675 -0.33092386 0.37253845
0.49425247 -0.27821517 0.37992358
0.49301887 -0.25077954 0.36924016
0.52095318 -0.17143536 0.37996638
0.52068728 -0.14465638 0.37780738
0.52053213 -0.11793856 0.37654746
0.52053213 -0.091268986 0.37654722
0.52053213 -0.064599559 0.37654722
0.52053213 -0.037930086 0.37654722
0.52053213 -0.011260708 0.37654722
0.52053213 0.015408767 0.37654746
0.52053213 0.042078242 0.37654722
0.52053213 0.068747774 0.37654722
0.52053213 0.095417097 0.37654746
0.52053213 0.12208662 0.37654722
0.52071619 0.148825 0.37804222
0.52097952 0.17562132 0.38018048
0.4931097 0.25493193 0.37002695
0.36073571 0.33572876 0.37941027
0.38874775 -0.33299923 0.39500487
0.46851847 -0.30566606 0.38884497
0.52301013 -0.25267977 0.39666688
0.52196205 -0.22533123 0.38815701
0.52121943 -0.19824755 0.38212836
0.52124059 0.20244913 0.38229966
0.52205998 0.22962384 0.38895214
0.49440074 0.28249806 0.38120747
0.46926841 0.31055143 0.39580321
0.52468187 -0.28054887 0.41023946
0.55148542 -0.19971095 0.40928197
0.55120087 -0.17268902 0.40710795
0.55089968 -0.14569567 0.40480638
0.55072087 -0.11876658 0.40344
0.55071801 -0.091889568 0.40341818
0.55071801 -0.065013364 0.40341818
0.55071801 -0.038136963 0.40341818
0.55071801 -0.011260758 0.40341818
0.55071801 0.015615646 0.40341842
0.55071801 0.042491853 0.40341842
0.55071801 0.06936831 0.40341842
0.55071801 0.096244462 0.40341842
0.55072087 0.12312167 0.40344
0.55092812 0.15007132 0.40502357
0.5512265 0.17708275 0.40730333
0.55151105 0.20412284 0.40947771
0.52316719 0.25708079 0.39794159
0.52484012 0.28506511 0.41152418
0.38933355 0.33798161 0.40192294
0.4176335 -0.33507335 0.41745889
0.49901107 -0.30840027 0.42113447
0.5538404 -0.2548005 0.42727757
0.55233818 -0.22703366 0.41579866
0.55244106 0.23153834 0.41658485
0.55400729 0.25943711 0.42855275
0.49960878 0.31336963 0.42631066
0.41827071 0.34022671 0.42435658
0.55564505 -0.28292209 0.4410677
0.58328432 -0.22880004 0.44448221
0.58222866 -0.20119709 0.43686402
0.58191359 -0.1739583 0.43458927
0.5815835 -0.14675033 0.43220758
0.58137894 -0.11960682 0.43073142
0.58137894 -0.092520341 0.43073142
0.58137894 -0.065433919 0.43073142
0.58137596 -0.038347036 0.43070948
0.58137596 -0.011260708 0.43070924
0.58137596 0.015825622 0.43070948
0.58137596 0.042912148 0.43070948
0.58137894 0.069999032 0.43073142
0.58137894 0.097085662 0.43073142
0.58137894 0.12417219 0.43073165
0.58161712 0.15133812 0.43245006
0.58194411 0.1785651 0.43481016
0.58225626 0.20582166 0.43706322
0.58345968 0.23355889 0.44574785
0.55581909 0.28767943 0.44239736
0.53030634 -0.31134453 0.45590448
0.5852139 -0.25695732 0.45840824
0.61310971 -0.17524663 0.46248412
0.61275578 -0.14782263 0.46006429
0.6125201 -0.12046061 0.45845294
0.6125201 -0.093160503 0.45845294
0.6125201 -0.065860659 0.45845282
0.6125201 -0.038560659 0.45845294
0.6125201 -0.011260659 0.45845294
0.6125201 0.016039291 0.45845318
0.6125201 0.043339141 0.45845294
0.6125201 0.070639193 0.45845294
0.6125201 0.097939245 0.45845294
0.6125201 0.12523924 0.45845294
0.61278856 0.15262383 0.46028841
0.61314249 0.18006839 0.46270835
0.58539689 0.26183721 0.45972848
0.53094834 0.31658497 0.46111703
0.58704019 -0.28527147 0.47158778
0.61499894 -0.2307042 0.47540033
0.6134609 -0.20270698 0.46488476
0.61349046 0.20754755 0.46508682
0.61517072 0.2356945 0.47657502
0.58749026 0.29042634 0.47483575
0.56184065 -0.31409702 0.48841095
0.61688185 -0.25902641 0.48827446
0.64524972 -0.20426086 0.49371934
0.64486003 -0.17657258 0.49118853
0.64446747 -0.14892249 0.4886384
0.64418387 -0.12133332 0.4867965
0.64418387 -0.093815252 0.48679662
0.64418042 -0.06629654 0.48677373
0.64418042 -0.038778625 0.48677373
0.64418042 -0.011260608 0.48677373
0.64418042 0.016257256 0.48677373
0.64418042 0.043775372 0.48677373
0.64418042 0.071293287 0.48677373
0.64418387 0.098811999 0.4867965
0.64418387 0.12633011 0.48679662
0.64450252 0.15394385 0.48886609
0.64489508 0.18161531 0.49141645
0.64528835 0.20932642 0.49397039
0.61707163 0.26413456 0.48957157
0.56248462 0.31956095 0.49333143
0.61914074 -0.28774488 0.50371826
0.6470294 -0.23254414 0.50527906
0.64720988 0.23776443 0.50645089
0.61986661 0.29329208 0.50868118
0.59519815 -0.31765801 0.53046286
0.6491518 -0.26115966 0.51906455
