ply
format ascii 1.0
comment PCL generated
element vertex 1336
property float x
property float y
property float z
element camera 0
property float view_px
property float view_py
property float view_pz
property float x_axisx
property float x_axisy
property float x_axisz
property float y_axisx
property float y_axisy
property float y_axisz
property float z_axisx
property float z_axisy
property float z_axisz
property float focal
property float scalex
property float scaley
property float centerx
property float centery
property int viewportx
property int viewporty
property float k1
property float k2
end_header
-0.033551276 -0.19582123 -0.15575933
0.047221109 -0.19595936 -0.15276706
0.074605368 -0.19664958 -0.1378237
-0.060543418 -0.16937533 -0.1439321
0.047206931 -0.16901159 -0.15338111
0.074601792 -0.169606 -0.13794005
-0.060535841 -0.14235285 -0.14491594
0.047204271 -0.1420887 -0.15349627
0.074616104 -0.142582 -0.13747525
-0.060528122 -0.1153451 -0.14591861
0.04721491 -0.11518076 -0.15303564
-0.060523525 -0.088359058 -0.14651585
0.047217123 -0.088260204 -0.15293968
-0.060531534 -0.061394818 -0.14547527
0.047219343 -0.061338227 -0.15284371
-0.060539998 -0.034414612 -0.14437592
0.04722067 -0.034414612 -0.15278602
-0.060548615 -0.0074173175 -0.14325655
-0.033551276 -0.0075165201 -0.15614259
0.047222003 -0.0074901488 -0.15272844
-0.060557239 0.019597296 -0.14213657
-0.033551276 0.019397873 -0.15508842
0.04722333 0.019435108 -0.15267086
-0.060572561 0.046649195 -0.1401459
-0.033551276 0.046348028 -0.15318894
0.047231309 0.046367943 -0.15232515
-0.033551276 0.073378317 -0.14963472
0.04724285 0.073310971 -0.15182579
-0.033551276 0.10046367 -0.14607275
0.047254376 0.10026147 -0.15132654
-0.033551276 0.12760335 -0.14252293
-0.0066492967 0.12699738 -0.1556443
0.047265477 0.12721887 -0.15084589
-0.033551276 0.15479484 -0.1390239
-0.0066225622 0.15408629 -0.15217149
0.04729256 0.15422091 -0.14967299
-0.0065103248 0.18191296 -0.13759136
0.020392928 0.18136218 -0.14653516
0.047457241 0.18160811 -0.14254212
-0.0063694585 -0.46932366 -0.11929238
0.020732034 -0.46868101 -0.12450945
0.047851168 -0.46856093 -0.1254847
0.075117573 -0.46908993 -0.12118959
-0.033551276 -0.44174004 -0.12277222
-0.0064762924 -0.44053936 -0.13317049
0.020573892 -0.44035339 -0.13478112
0.047701932 -0.44068059 -0.13194692
0.075014144 -0.44153494 -0.12454855
0.07496731 -0.41422966 -0.12606955
-0.033551276 -0.41395262 -0.12864089
0.047608718 -0.41316128 -0.13598347
-0.060729928 -0.3877371 -0.11970317
-0.033551276 -0.38644773 -0.13258779
0.074892931 -0.38685831 -0.1284852
0.10233748 -0.38772541 -0.11982059
-0.060697287 -0.36016682 -0.12394357
-0.033551276 -0.35900453 -0.13652599
0.074730128 -0.3592588 -0.13377225
0.10234952 -0.3605766 -0.11950767
-0.060664572 -0.33266085 -0.12819326
0.074739687 -0.3322148 -0.13346159
0.10236083 -0.33342126 -0.11921406
-0.060632087 -0.30522278 -0.13241315
0.074729532 -0.30511656 -0.13379169
0.10229231 -0.3061018 -0.12099397
-0.087867051 -0.27883568 -0.122401
-0.060599536 -0.27784899 -0.13664222
0.074646533 -0.27785969 -0.13648725
0.10228403 -0.27891818 -0.12120903
-0.087801859 -0.25141695 -0.12663472
0.074643545 -0.25080431 -0.13658404
0.10227275 -0.25173312 -0.12150228
0.10224868 -0.22453454 -0.12212753
-0.087782964 -0.22422552 -0.12786222
0.074624449 -0.22372207 -0.13720417
-0.087767087 -0.19706208 -0.12889397
0.10224341 -0.1973682 -0.12226427
-0.08775121 -0.16991442 -0.12992513
0.10226147 -0.17022723 -0.12179542
-0.087735638 -0.14278328 -0.13093615
0.10227951 -0.14307925 -0.12132633
-0.087720081 -0.11566783 -0.1319468
0.074630417 -0.11555091 -0.13701046
0.10229759 -0.11592396 -0.12085712
-0.087710217 -0.088573538 -0.13258791
0.074635193 -0.088507839 -0.13685548
0.10230736 -0.088758186 -0.12060297
-0.087727264 -0.061502561 -0.13148046
0.074641153 -0.061462782 -0.13666153
0.10231864 -0.061588578 -0.12030959
0.074642949 -0.034414724 -0.13660336
-0.087744623 -0.034414612 -0.13035297
0.10232016 -0.034414556 -0.12027049
-0.08776319 -0.0073086638 -0.12914693
0.074644737 -0.0073655937 -0.13654542
0.10232241 -0.0072398521 -0.12021184
-0.08778207 0.019816183 -0.12792051
0.074649505 0.019685745 -0.13639021
0.10233521 0.01994006 -0.11987936
-0.087813869 0.046979174 -0.12585521
0.074662641 0.046745799 -0.1359638
0.10235178 0.047127098 -0.1194489
-0.087868556 0.07421986 -0.12230325
-0.060600579 0.073782593 -0.13650668
0.074676968 0.073813662 -0.13549852
0.1023691 0.074321724 -0.11899865
-0.087923348 0.10151543 -0.11874437
-0.060628802 0.10097297 -0.13284016
0.074693091 0.10089085 -0.13497496
0.10238869 0.10152534 -0.11848986
-0.060657084 0.12822023 -0.12916636
0.074707426 0.12797344 -0.13450944
0.074721165 0.15506217 -0.13406324
-0.060685273 0.15552342 -0.12550437
-0.033551276 0.18264893 -0.12564063
0.074758224 0.18220434 -0.13285959
0.020662136 0.20954576 -0.12904954
0.047721229 0.20940298 -0.13111126
0.074937902 0.20968598 -0.12702465
0.047967069 0.23731324 -0.12046611
0.021108307 -0.52635086 -0.10006976
0.048329063 -0.52569652 -0.10479152
0.075590312 -0.52555192 -0.10583675
0.10285978 -0.5254944 -0.106251
-0.006261779 -0.49833617 -0.10530424
0.020912867 -0.49735978 -0.11276388
0.048086919 -0.49703115 -0.11527634
0.075277314 -0.49693611 -0.11600161
0.10270213 -0.49767622 -0.11034656
0.13039824 -0.47161335 -0.10070264
-0.033551276 -0.47066307 -0.10841787
0.10264236 -0.4702343 -0.11189973
-0.060806952 -0.44324982 -0.10969746
0.10258339 -0.44281861 -0.11343169
0.13032703 -0.44411033 -0.10224462
-0.08819259 -0.41690385 -0.10125649
-0.060762346 -0.41536966 -0.11549199
0.10252447 -0.41542679 -0.11496234
0.13016474 -0.41641876 -0.10575795
-0.088127539 -0.38916034 -0.10548198
0.13017932 -0.3891643 -0.1054424
-0.088062629 -0.36148283 -0.10969734
0.13019298 -0.36190313 -0.10514653
-0.11555345 -0.3350893 -0.099515796
-0.087997884 -0.33387098 -0.11390281
0.1302094 -0.3346425 -0.10479152
-0.11545257 -0.30741903 -0.10388362
-0.087932691 -0.30632174 -0.11813748
0.13014655 -0.30724445 -0.10615218
-0.11535559 -0.27982759 -0.10808325
0.13016385 -0.27998734 -0.10577762
-0.11525747 -0.25229791 -0.11233187
0.13014016 -0.25266993 -0.10629034
-0.11522663 -0.22499043 -0.11366713
0.13013379 -0.22538054 -0.10642815
-0.11520261 -0.19771737 -0.11470723
0.13015564 -0.19812155 -0.10595512
-0.11517861 -0.17046016 -0.11574686
0.13017751 -0.17085522 -0.10548186
-0.1428607 -0.14372414 -0.10038614
-0.11515506 -0.14321971 -0.11676621
0.13019937 -0.14358176 -0.10500836
-0.14282721 -0.11637152 -0.10147381
-0.11513109 -0.11599441 -0.11780453
0.13022123 -0.1163009 -0.1045351
-0.1428047 -0.089041248 -0.10220504
-0.11511571 -0.088790841 -0.11847031
0.13023673 -0.089010693 -0.10419953
-0.14284486 -0.061737921 -0.10090053
-0.1151433 -0.061611895 -0.11727571
0.13025041 -0.061714947 -0.10390329
-0.11517182 -0.034414668 -0.11604095
0.13025588 -0.034414668 -0.10378492
-0.14288506 -0.034414556 -0.09959507
-0.1152008 -0.0071981438 -0.11478579
0.13026227 -0.007112354 -0.10364676
-0.11522935 0.020037562 -0.11354935
0.13028233 0.020196579 -0.10321224
-0.11527789 0.047312036 -0.11144769
0.13030238 0.047512077 -0.10277784
-0.1153606 0.074664488 -0.10786664
0.13032338 0.074835107 -0.10232365
-0.11544345 0.1020724 -0.10427845
0.13034619 0.10216651 -0.10182953
-0.11552787 0.12953848 -0.10062361
-0.087979153 0.12886897 -0.11511922
0.10240678 0.12873513 -0.11801994
0.1303681 0.12950474 -0.1013552
-0.088036299 0.15628299 -0.11140823
0.10242487 0.15595201 -0.1175499
0.13038911 0.15684929 -0.10090041
-0.088201419 0.18418595 -0.10068285
-0.060773071 0.18335974 -0.11409914
0.10244222 0.18317509 -0.1170994
0.13041012 0.18420067 -0.10044575
-0.033551276 0.21094793 -0.10881174
-0.0063521247 0.21037775 -0.11704051
0.10250485 0.2104865 -0.11547232
0.13043113 0.21155906 -0.099990487
-0.0062259007 0.2388393 -0.10064328
0.020980388 0.23824352 -0.10837865
0.075291805 0.23769307 -0.11553121
0.10267337 0.23803464 -0.11109364
0.048446782 0.26624495 -0.099693894
0.075570889 0.26567128 -0.10646749
0.10310681 0.26623318 -0.099832416
0.076263525 -0.58348852 -0.083973646
0.10364044 -0.58318156 -0.085968614
0.13104932 -0.58308321 -0.086606503
0.15866551 -0.58360547 -0.083214879
0.021304846 -0.55554777 -0.087304354
0.048623078 -0.55485219 -0.092059731
0.075907558 -0.55434406 -0.095534086
0.1032448 -0.55423963 -0.096247911
0.13064614 -0.55437309 -0.095335484
0.15858161 -0.55591822 -0.084771752
0.15849885 -0.52825785 -0.086307526
-0.0061533954 -0.52757639 -0.091224909
0.13054086 -0.52669096 -0.097615242
-0.033551276 -0.49991596 -0.093231916
0.13046952 -0.4991402 -0.099159598
0.15841508 -0.5006187 -0.087862015
-0.060923927 -0.47237694 -0.094502449
0.15833139 -0.47300363 -0.089414835
-0.088279784 -0.44487849 -0.095593452
0.15821458 -0.44534156 -0.091582775
-0.11586308 -0.41853634 -0.086108208
0.15823174 -0.41798061 -0.091264963
-0.1157596 -0.39065075 -0.090588689
0.1582478 -0.39061287 -0.090966463
-0.1156564 -0.3628352 -0.095057726
0.15826389 -0.36324063 -0.090668082
-0.14342389 -0.33656436 -0.0820961
0.1582478 -0.33581325 -0.090966463
-0.14328562 -0.30875054 -0.086586595
0.15826708 -0.30844086 -0.090608716
-0.14314708 -0.28100523 -0.091085911
0.15828317 -0.28105903 -0.090310216
-0.14300951 -0.25333107 -0.095553875
0.15827461 -0.2536442 -0.09046948
-0.14296189 -0.22588319 -0.097100139
0.15830033 -0.22626629 -0.089991927
-0.17093821 -0.19927898 -0.080896735
-0.14292833 -0.19848022 -0.098189592
0.15832606 -0.19888097 -0.089514375
-0.17089589 -0.17175925 -0.081996322
-0.14289421 -0.17109329 -0.099298239
0.15835181 -0.17148834 -0.089036584
-0.17085283 -0.14425592 -0.083114982
0.15837754 -0.14408824 -0.088559031
-0.17081057 -0.11677014 -0.084213018
0.15840329 -0.1166809 -0.088081002
-0.1707806 -0.089306377 -0.084991455
0.15842693 -0.089265466 -0.087642789
-0.17083207 -0.061870791 -0.083654165
0.158443 -0.061842386 -0.087343812
-0.17088282 -0.034414556 -0.082336068
0.15845375 -0.034414556 -0.087144732
-0.17093359 -0.0069381148 -0.081016779
-0.1429259 -0.0070708748 -0.098268747
0.15847094 -0.0069829337 -0.086825848
-0.14296617 0.020292725 -0.09696126
0.15849455 0.020455591 -0.086387396
-0.14303514 0.0476982 -0.094720483
0.1585182 0.047900908 -0.085948467
-0.14315136 0.075185336 -0.090946555
0.1585429 0.075353526 -0.085490108
-0.14326781 0.10273116 -0.08716464
0.15856764 0.10281304 -0.085031152
-0.14338514 0.13033617 -0.083354592
0.15859345 0.13028082 -0.084552407
-0.11561473 0.15706682 -0.096862078
0.15861817 0.15775496 -0.084093332
-0.11586124 0.18507865 -0.08618784
0.15864292 0.18523586 -0.083634138
-0.060917359 0.21188015 -0.095355392
-0.088490352 0.21281123 -0.081916332
0.15866767 0.21272397 -0.083174944
-0.033551276 0.23965758 -0.090011716
0.13053812 0.23906773 -0.097674608
0.15869242 0.24021918 -0.082715631
-0.0061027985 0.26751867 -0.084652185
0.021244787 0.26696375 -0.091205001
0.13074148 0.26678878 -0.093271494
0.048861496 0.29523635 -0.081736565
0.076048203 0.29438394 -0.090966582
0.10345878 0.29440951 -0.09068799
0.13117 0.29502788 -0.083993673
0.10381334 0.32273328 -0.081476569
0.15968351 -0.86256373 -0.064323068
0.13217741 -0.83543658 -0.062182665
0.15980321 -0.8354547 -0.062101722
0.13213544 -0.80761915 -0.063091636
0.15973465 -0.80755824 -0.0633744
0.13209532 -0.77982426 -0.063959956
0.1596074 -0.7794553 -0.06573534
0.13205524 -0.75204289 -0.064827681
0.15948036 -0.75138921 -0.0680933
0.13201518 -0.72427475 -0.065695047
0.15935345 -0.72336006 -0.070448279
0.13210745 -0.69704956 -0.063697457
0.15922672 -0.69536775 -0.072799921
0.13202542 -0.66912532 -0.065473199
0.15910017 -0.66741222 -0.075148702
0.10452719 -0.64195985 -0.062929988
0.13191649 -0.64112985 -0.067831397
0.15897378 -0.63949341 -0.077494144
0.049218446 -0.61380267 -0.066279769
0.076660186 -0.61302477 -0.071091771
0.10403991 -0.61229771 -0.075589895
0.13152666 -0.61218733 -0.076271772
0.15884754 -0.61161119 -0.079836607
0.02151826 -0.58510995 -0.073442578
0.048919693 -0.58422101 -0.079216361
-0.033551276 -0.5591867 -0.062424898
-0.006037822 -0.55717021 -0.076211572
0.18733944 -0.55903006 -0.063495636
-0.061160907 -0.53138798 -0.063717723
-0.033551276 -0.52942353 -0.077894926
0.18711089 -0.53090453 -0.06720686
-0.088753134 -0.50363046 -0.064847827
-0.061041906 -0.50175536 -0.079176188
0.18688405 -0.50283962 -0.070890665
-0.11638856 -0.47621351 -0.063354015
-0.088515282 -0.47412676 -0.080296755
0.18672685 -0.47497088 -0.073442578
-0.11600607 -0.44668862 -0.079916716
0.18673925 -0.44745934 -0.073241711
-0.1438408 -0.42042786 -0.068556428
0.1867516 -0.41994461 -0.073041081
-0.14370148 -0.39240277 -0.073081136
0.18676274 -0.39242494 -0.072860122
-0.14356251 -0.36444843 -0.07759428
0.1867751 -0.3649042 -0.072659373
-0.17156914 -0.33805391 -0.064504981
0.18678749 -0.33738044 -0.072458386
-0.17139459 -0.31010121 -0.069039702
0.18679863 -0.30985194 -0.072277546
-0.17122048 -0.28221923 -0.07356298
0.18680853 -0.28231934 -0.072116852
-0.17104681 -0.25440755 -0.078075051
0.18682586 -0.25479171 -0.071835518
-0.19927438 -0.22775817 -0.062303782
-0.17098133 -0.22681668 -0.079776645
0.18684441 -0.22726083 -0.071533918
-0.19922306 -0.20008639 -0.063414812
0.18686174 -0.19972435 -0.071252584
-0.19917084 -0.17243096 -0.064545155
0.18688032 -0.17218429 -0.070950866
-0.1991196 -0.14479357 -0.065654635
0.18689765 -0.14463913 -0.070669413
-0.19906744 -0.11717272 -0.066783667
0.18691623 -0.11708993 -0.070367813
-0.19903022 -0.089574277 -0.06758976
0.18692988 -0.089534886 -0.070146441
-0.1990926 -0.062004857 -0.066239595
0.18694225 -0.061976336 -0.069945097
-0.19915406 -0.034414668 -0.064908266
0.18695588 -0.034414612 -0.069723845
-0.19921559 -0.0068038832 -0.063576341
0.18697324 -0.006849099 -0.069442272
-0.1992781 0.020827726 -0.062222958
-0.17098518 0.020558983 -0.079676509
0.18699059 0.020720884 -0.069160342
-0.17107303 0.04809846 -0.077394009
0.18700793 0.048294999 -0.068878651
-0.17121971 0.075720116 -0.073583245
0.18703149 0.07587675 -0.068495989
-0.17136671 0.10340079 -0.069764018
0.18705879 0.10346665 -0.068053007
-0.17151478 0.1311416 -0.065916777
0.18708731 0.13106433 -0.067589641
-0.17166319 0.15894204 -0.06206131
-0.14350209 0.15799925 -0.079556465
0.18711586 0.15866908 -0.067126393
-0.14385134 0.18618545 -0.068214178
0.18714564 0.18628225 -0.066642642
-0.11632565 0.21390861 -0.066078067
0.18717419 0.21390152 -0.066179156
-0.088774271 0.24170029 -0.063475251
-0.061063033 0.24070302 -0.07643187
0.18720275 0.24152783 -0.065715194
-0.033551276 0.26867196 -0.071031332
0.15885402 0.26793647 -0.079716682
0.18723133 0.26916152 -0.06525135
-0.0059562456 0.29672563 -0.065614343
0.021487363 0.29581723 -0.075449347
0.15909478 0.29583573 -0.075248957
0.18745889 0.29710063 -0.061556101
0.049227297 0.3242926 -0.065896749
0.076625526 0.32365999 -0.072217226
0.13159707 0.32340682 -0.074747324
0.15948576 0.32408288 -0.067992568
0.10453886 0.35223773 -0.062627077
0.13202542 0.35193101 -0.065473199
0.10513705 -0.8665446 -0.047085524
0.13225959 -0.86346883 -0.060403585
0.10506807 -0.8384068 -0.048877954
0.10499915 -0.81029695 -0.05066824
0.10493656 -0.78224897 -0.052294493
0.18860383 -0.7564187 -0.042964578
0.10490294 -0.75437659 -0.053167939
0.10486934 -0.72651768 -0.054041028
0.18851079 -0.72835857 -0.044475198
0.077519991 -0.70084214 -0.043168902
0.18835256 -0.70012599 -0.047044873
0.10483575 -0.69867229 -0.05491364
0.077462792 -0.67274547 -0.045026302
0.10480218 -0.67084044 -0.055785775
0.18815571 -0.67182213 -0.050241113
0.021980584 -0.64526498 -0.043413997
0.049518906 -0.64359599 -0.053269506
0.077060342 -0.64277858 -0.05809617
0.18795919 -0.64356834 -0.053431988
-0.0057985447 -0.61722195 -0.045128345
0.021739885 -0.61497182 -0.059047818
0.18776432 -0.61536801 -0.056596756
-0.033551276 -0.58920866 -0.046820641
-0.0059187785 -0.58706445 -0.060747385
0.18756726 -0.58721089 -0.059796572
-0.061280943 -0.56127828 -0.048124313
-0.089003399 -0.53348362 -0.048592806
-0.11677463 -0.50601363 -0.046637058
0.21637604 -0.50649959 -0.042923808
-0.14457601 -0.47851366 -0.044679403
0.21638311 -0.47874236 -0.042821765
-0.17240843 -0.45098606 -0.042699218
-0.14406072 -0.44882503 -0.061414599
0.21639726 -0.45099553 -0.04261744
-0.17209622 -0.42234051 -0.050810575
-0.17191955 -0.39417219 -0.055400372
-0.17174412 -0.36607745 -0.059958458
-0.19999327 -0.33955824 -0.046739221
-0.19978173 -0.31146532 -0.051319003
-0.19957073 -0.28344378 -0.055887341
-0.22795461 -0.25658983 -0.042637944
-0.19936028 -0.25549337 -0.060443997
-0.22784567 -0.22870907 -0.044659019
-0.22778523 -0.20090088 -0.045781016
-0.22772481 -0.17310998 -0.046902061
-0.22766332 -0.1453357 -0.048043132
-0.227603 -0.11757954 -0.049162745
-0.22755696 -0.089844823 -0.050017357
-0.22762932 -0.062140159 -0.048674226
-0.22770286 -0.034414612 -0.047309637
-0.22777534 -0.0066682957 -0.045964479
-0.22784789 0.021098621 -0.04461813
-0.19938549 0.04850246 -0.05989778
-0.19956325 0.076259926 -0.056049466
-0.19974232 0.10407788 -0.052172542
-0.19992176 0.13195583 -0.048287272
-0.20010065 0.15989298 -0.044414043
-0.17212519 0.18730366 -0.050058007
-0.14447685 0.21516797 -0.047900438
-0.11679582 0.24306706 -0.045719743
-0.08908093 0.27099854 -0.043556809
-0.06120652 0.26979306 -0.057792425
-0.033551276 0.2979767 -0.052070856
-0.0058079623 0.32624841 -0.04635179
0.021732405 0.32492942 -0.059533477
0.18782799 0.32532662 -0.055562735
0.049596831 0.3536098 -0.049895287
0.077116504 0.35292247 -0.056272507
0.15998742 0.35266283 -0.058683276
0.18797547 0.35325706 -0.05316782
0.10515508 0.3817046 -0.046616793
0.13260128 0.38096666 -0.053005576
0.16023977 0.38085189 -0.054000378
0.18795671 0.3809129 -0.053472519
0.1329312 0.40953869 -0.045862317
0.16029121 0.4086538 -0.053046107
0.1879167 0.40852132 -0.054121971
0.13302638 0.43755543 -0.043801785
0.16034155 0.43646789 -0.052111626
0.18787797 0.43612248 -0.054751396
0.16039191 0.46429643 -0.051176667
0.18793544 0.46393052 -0.053817749
0.16044343 0.49214241 -0.050220847
0.18799548 0.49175885 -0.052843094
0.16049387 0.51999998 -0.049284935
0.1880568 0.51960558 -0.051847458
0.16054434 0.54787213 -0.048348308
0.18811688 0.54746443 -0.050871491
0.1605992 0.57577258 -0.047329783
0.18817826 0.57534164 -0.049874902
0.16070357 0.60385138 -0.045393348
0.18824342 0.60324514 -0.0488168
0.18846555 0.6316359 -0.045209765
0.077756926 -0.84139913 -0.035474062
0.18888214 -0.84073573 -0.038445354
0.050205007 -0.81614 -0.023560524
0.077701382 -0.81318313 -0.037277937
0.18878888 -0.8126052 -0.039959788
0.050161645 -0.78783095 -0.02543807
0.077645898 -0.78499556 -0.039079905
0.18869567 -0.78449816 -0.04147315
0.050118804 -0.75955534 -0.027293205
0.077590458 -0.75683588 -0.040880322
0.050076008 -0.73130858 -0.029146433
0.077547029 -0.72877908 -0.042290449
0.050033256 -0.70309079 -0.030997634
0.022223383 -0.67582327 -0.027643204
0.049822025 -0.67360985 -0.040144086
0.21765465 -0.67638534 -0.024468541
-0.0056772586 -0.64764309 -0.029372692
0.21743041 -0.64792544 -0.027705312
-0.033551276 -0.61948961 -0.031100392
0.21720657 -0.61951625 -0.030936122
-0.06140203 -0.59142965 -0.032395124
0.21698314 -0.59115779 -0.03416121
-0.089262903 -0.56367499 -0.031737804
0.21674448 -0.56281674 -0.037605643
-0.1171643 -0.53609264 -0.029763699
0.21648505 -0.53448731 -0.041350365
-0.14509615 -0.50848037 -0.027787566
-0.17305931 -0.48084041 -0.025788546
-0.20105241 -0.45316747 -0.023808241
-0.20063208 -0.42426988 -0.032908559
0.21641003 -0.42324317 -0.042433619
-0.2004189 -0.39596117 -0.037523746
0.2164185 -0.39548215 -0.042310953
-0.22895145 -0.36938626 -0.024138451
-0.20020534 -0.36772281 -0.042147517
0.2164185 -0.36770776 -0.042310834
-0.22870156 -0.34107932 -0.02877593
0.21641709 -0.33993152 -0.042331338
-0.22845231 -0.31284463 -0.033401489
0.21642558 -0.31216681 -0.042208672
-0.22820368 -0.28468198 -0.038015246
0.2164468 -0.28441271 -0.041902423
0.21646807 -0.25665396 -0.041595817
-0.25678194 -0.22974142 -0.02549994
0.21648788 -0.22888952 -0.041309714
-0.25670701 -0.20178142 -0.026716232
0.21649215 -0.20111021 -0.041248202
-0.25663343 -0.17384094 -0.027911186
0.21649215 -0.17332757 -0.041248322
-0.25655863 -0.14591835 -0.02912569
0.21649215 -0.1455451 -0.041248202
-0.25648513 -0.11801478 -0.030319095
0.21649215 -0.11776233 -0.041248202
-0.25642562 -0.090133265 -0.031285524
0.21649215 -0.08997985 -0.041248202
-0.2565105 -0.062284522 -0.029907703
0.21650487 -0.062198676 -0.041064382
-0.25659919 -0.034414612 -0.028467059
0.2165063 -0.034414612 -0.041043878
-0.25668672 -0.0065227449 -0.027045965
0.21652612 -0.0066281725 -0.040757537
-0.25677556 0.021391474 -0.025603175
0.21654594 0.02116257 -0.040471196
-0.22797662 0.048910581 -0.042229295
0.21655729 0.048955008 -0.04030776
-0.22818711 0.076805845 -0.038322568
0.21655729 0.076744728 -0.040307641
-0.228397 0.10476092 -0.034427762
0.21655729 0.1045345 -0.040307522
-0.22860844 0.13277718 -0.030504107
0.21657854 0.13233855 -0.040000916
-0.22882032 0.16085443 -0.026571989
0.21660122 0.16014835 -0.039673448
-0.20068711 0.18843302 -0.031717181
0.2166225 0.18796203 -0.039366364
-0.17291503 0.21644014 -0.029537559
0.21662959 0.21576622 -0.039263964
-0.1451101 0.24448255 -0.027334452
0.21662959 0.24356398 -0.039264202
-0.11727086 0.2725572 -0.025149345
0.21662959 0.27136213 -0.039264202
-0.061350413 0.29917505 -0.039100289
0.21677428 0.29935285 -0.037175417
-0.033551276 0.32755262 -0.033319354
0.21708697 0.32761839 -0.032662153
-0.0056629945 0.35602131 -0.027519822
0.022019904 0.35458347 -0.040859699
0.21708697 0.3554672 -0.032662153
0.049969204 0.3831878 -0.033770919
0.077611238 0.38244486 -0.040205121
0.21708697 0.38331577 -0.032662153
0.078111053 0.41223463 -0.023973227
0.10563688 0.41098732 -0.03409934
0.21708697 0.41116446 -0.032662153
0.10573176 0.43914765 -0.031634927
0.21708697 0.43901309 -0.032662153
0.10582753 0.4673489 -0.029146433
0.13311601 0.46558717 -0.041861296
0.21708697 0.46686187 -0.032662153
0.10592265 0.49558637 -0.026674986
0.13320573 0.49364933 -0.0399189
0.21708128 0.49469849 -0.032744408
0.10600123 0.52379531 -0.024633646
0.13329554 0.52174151 -0.037974358
0.21703717 0.52244884 -0.033380985
0.13338546 0.54986382 -0.03602767
0.21699169 0.55018574 -0.034037828
0.13347641 0.57802022 -0.034058213
0.21694759 0.57791603 -0.034674048
0.13356651 0.60620356 -0.032107353
0.21690214 0.60563308 -0.035330534
0.13378698 0.6349383 -0.027334452
0.16095556 0.63246596 -0.040716648
0.21711829 0.63403767 -0.032210112
0.1612215 0.66120231 -0.035781622
0.18868937 0.66008741 -0.041575313
0.21734768 0.66252691 -0.028899431
0.16148815 0.69001764 -0.030833244
0.18891242 0.68859243 -0.037953854
0.21757606 0.69106436 -0.025602937
0.16175555 0.71891171 -0.025871038
0.18913586 0.71715456 -0.034325242
0.18936358 0.74578744 -0.030627489
0.18965779 0.77471828 -0.025850654
0.022550341 -0.84788793 -0.0064071417
0.050247937 -0.84447372 -0.021701694
0.2190071 -0.84821379 -0.0049477816
0.022519555 -0.81940633 -0.0084065199
0.21878046 -0.81944668 -0.0082191229
0.022490405 -0.79097742 -0.010299921
0.21855417 -0.79073101 -0.011484861
0.022461608 -0.76258212 -0.012170553
0.21832836 -0.7620669 -0.014744759
0.022432517 -0.73421192 -0.01406014
0.21810433 -0.73345804 -0.017977834
0.022403777 -0.70587516 -0.015926957
0.2178793 -0.70489615 -0.021226048
-0.0055549052 -0.67833114 -0.013478994
-0.033551276 -0.65003961 -0.015221715
-0.061524015 -0.62184209 -0.016548753
-0.08952485 -0.5941503 -0.014723897
0.24688622 -0.59528965 -0.0073238611
-0.11755765 -0.56645501 -0.012731314
0.2465803 -0.56666464 -0.011297822
-0.1456212 -0.53872931 -0.010736585
-0.17371553 -0.51097316 -0.0087397099
-0.20184168 -0.48318902 -0.0067195892
0.24654192 -0.48256373 -0.011796594
0.24654192 -0.45455444 -0.011796474
-0.22945318 -0.42621839 -0.014827728
0.24654192 -0.4265452 -0.011796474
-0.229202 -0.39776605 -0.01948905
0.24654192 -0.39853579 -0.011796713
0.24654192 -0.37052643 -0.011796594
-0.25784355 -0.3428165 -0.0082608461
0.24654192 -0.34251714 -0.011796594
-0.25753883 -0.31439909 -0.013208866
0.24654192 -0.31450781 -0.011796594
-0.2572324 -0.28605586 -0.018185139
0.24654192 -0.28649852 -0.011796594
-0.25692552 -0.25778893 -0.023168206
0.24654192 -0.25848916 -0.011796594
0.24654192 -0.23047993 -0.011796474
-0.28608364 -0.20276961 -0.0053231716
0.24654192 -0.20247051 -0.011796474
-0.28599989 -0.17466381 -0.0065321922
0.24654192 -0.17446128 -0.011796474
-0.28591618 -0.14657684 -0.0077402592
0.24654192 -0.14645189 -0.011796594
-0.28583109 -0.11850796 -0.0089684725
0.24654192 -0.11844265 -0.011796594
-0.28576189 -0.090461373 -0.0099673271
0.24654192 -0.090433247 -0.011796594
-0.28585559 -0.062448405 -0.0086146593
0.24654192 -0.0624239 -0.011796594
-0.28594792 -0.034414556 -0.0072821379
0.24654192 -0.034414612 -0.011796474
-0.28604177 -0.006360162 -0.0059278011
0.24654192 -0.0064052641 -0.011796474
0.24654192 0.021603968 -0.011796474
-0.2569344 0.049353965 -0.023023605
0.24654192 0.04961326 -0.011796594
-0.2571891 0.077404171 -0.01888895
0.24654192 0.077622607 -0.011796594
-0.25744554 0.10551929 -0.014723897
0.24654192 0.1056319 -0.011796594
-0.25770265 0.13369897 -0.010549426
0.24654192 0.13364142 -0.011796594
-0.25797182 0.16195327 -0.0061779022
0.24654192 0.16165066 -0.011796594
-0.22954153 0.1895743 -0.013188243
0.24654192 0.18965992 -0.011796474
-0.20164463 0.21772552 -0.01098609
0.24654192 0.21766916 -0.011796594
-0.17371474 0.24591216 -0.0087604523
0.24654192 0.24567851 -0.011796594
-0.14575002 0.27413192 -0.0065529346
0.24654192 0.27368781 -0.011796594
-0.089398019 0.30066574 -0.022961736
0.24654192 0.30169725 -0.011796474
-0.061495967 0.32886636 -0.020192266
0.24654192 0.32970661 -0.011796594
-0.033551276 0.35743839 -0.014371276
0.24654192 0.3577159 -0.011796594
-0.0055166613 0.38610467 -0.008510828
0.022314548 0.384579 -0.021722317
0.24654192 0.38572523 -0.011796594
0.050382257 0.41323072 -0.015885115
0.24654192 0.41373441 -0.011796594
0.050598264 0.44243258 -0.0065319538
0.078240223 0.44069919 -0.019778609
0.24654192 0.44174376 -0.011796594
0.078316711 0.46899131 -0.017294645
0.24654034 0.46975026 -0.011817455
0.078393951 0.49732533 -0.014786243
0.24654034 0.49775943 -0.011817217
0.078471288 0.52569818 -0.012274504
0.24654034 0.52576858 -0.011817455
0.078548096 0.55410713 -0.0097798109
0.1060767 0.55202293 -0.022672534
0.24654034 0.55377775 -0.011817455
0.078625657 0.58255851 -0.0072612762
0.10615227 0.58028096 -0.020709395
0.24654034 0.58178705 -0.011817455
0.078686617 0.61095321 -0.0052813292
0.10622792 0.60856974 -0.018743992
0.24654034 0.60979605 -0.011817336
0.10641699 0.63743311 -0.013831735
0.10660978 0.66639078 -0.0088227987
0.13401662 0.66378504 -0.02236259
0.13424689 0.69271058 -0.017377257
0.24688303 0.69471455 -0.0073654652
0.13447776 0.72171599 -0.012378216
0.21780628 0.71965808 -0.022279978
0.13470931 0.75080156 -0.0073655844
0.16202366 0.74788505 -0.020895362
0.21803692 0.74830419 -0.018951058
0.16229251 0.77693826 -0.015906096
0.21817034 0.7766884 -0.017025113
0.16256212 0.80607116 -0.010902882
0.18995275 0.80372554 -0.021060586
0.21858153 0.80602819 -0.011089921
0.16283134 0.83527976 -0.0059070587
0.19031489 0.8330667 -0.01518023
0.2189883 0.83544385 -0.0052188635
-0.0053810887 -0.85135019 0.009100914
-0.005396612 -0.82274526 0.0070842505
-0.0054121166 -0.79417187 0.0050699711
-0.0054276064 -0.76563007 0.0030578375
-0.0054421127 -0.73714364 0.0011734962
0.24841943 -0.73934138 0.012593031
-0.0054566041 -0.70868671 -0.00070917606
0.24811015 -0.71040201 0.0085753202
-0.033551276 -0.68085861 0.00079679489
0.24780318 -0.68152988 0.0045876503
-0.061654802 -0.6526922 0.00044095516
0.24749687 -0.65272051 0.00060856342
-0.089789256 -0.62491339 0.0024503469
0.24719122 -0.62397379 -0.0033620596
-0.1179547 -0.59710413 0.0044618845
-0.14615119 -0.56926417 0.0064754486
-0.17437877 -0.54139352 0.0084913969
-0.20263843 -0.51349491 0.010530591
-0.231025 -0.4857831 0.014341712
-0.23001592 -0.45541033 -0.0043845177
-0.25876531 -0.42853925 0.006706357
-0.25845808 -0.39988828 0.0017176867
-0.2581504 -0.37131339 -0.0032783747
-0.2873964 -0.3446697 0.013625026
-0.28704509 -0.31607431 0.0085544586
-0.28669479 -0.28755811 0.0034977198
-0.28634539 -0.25912058 -0.0015448332
-0.2861689 -0.23089501 -0.0040924549
-0.31558523 -0.11902479 0.013414502
-0.31550252 -0.090804815 0.012340426
-0.31560469 -0.062619984 0.013667345
-0.28614146 0.021716412 -0.0044888258
-0.28632513 0.049843237 -0.0018372536
-0.28661785 0.078059368 0.0023876429
-0.2869229 0.10634736 0.0067902803
-0.28722864 0.13470367 0.011203885
-0.25901768 0.19105181 0.010804176
-0.23076752 0.21914911 0.009563446
-0.20261416 0.24735674 0.010004759
-0.17452286 0.27572289 0.012235284
-0.11775185 0.30238777 -0.0043219328
-0.089719065 0.33067611 -0.00210917
-0.061652228 0.35899863 0.0001064539
-0.033551276 0.38763884 0.0047762394
-0.0053687859 0.41650516 0.010698795
0.022608154 0.41486067 -0.0026521683
0.022779394 0.44439608 0.0084704161
0.022822775 0.47295174 0.011288047
0.050659902 0.47085235 -0.003862977
0.022866219 0.50155151 0.01410985
0.050721638 0.49931386 -0.0011897087
0.050782979 0.52781385 0.0014665127
0.050844409 0.556355 0.0041265488
0.050906412 0.58494192 0.0068113804
0.050969966 0.6135816 0.0095635653
0.078841574 0.63994253 -0.00024878979
0.078996316 0.6690079 0.0047764778
0.07915213 0.69815743 0.0098366737
0.10680309 0.69542819 -0.0038001537
0.10699615 0.72454154 0.0012153387
0.24727803 0.72382444 -0.0022345781
0.10718973 0.75373489 0.0062446594
0.24767414 0.75301653 0.0029113293
0.13494147 0.77996701 -0.0023386478
0.10738465 0.7830137 0.011309028
0.24829304 0.78293389 0.010951281
0.13517334 0.80920827 0.0026807785
0.13540581 0.83853042 0.0077143908
0.16350083 0.86639512 0.0065175295
0.19117649 0.86449659 -0.0011897087
0.21973455 0.86615735 0.0055522919
0.25002033 -0.91348648 0.033389091
0.24960941 -0.88389665 0.028051019
-0.033551276 -0.85484183 0.024741292
0.2495032 -0.85527259 0.02667129
-0.033551276 -0.82611275 0.022707462
0.24939704 -0.82666993 0.025292516
-0.033551276 -0.79741114 0.020654917
0.24904981 -0.79743749 0.020781755
-0.033551276 -0.76874584 0.018625498
0.24872777 -0.76834011 0.016598463
-0.033551276 -0.74011219 0.016598463
-0.061895654 -0.71467966 0.031728625
-0.033551276 -0.71151799 0.014615774
-0.061788119 -0.68386197 0.017759562
-0.090056188 -0.65596861 0.019787669
-0.11835553 -0.62804449 0.021818519
-0.14668557 -0.60008609 0.023830175
-0.17504829 -0.57210332 0.025886536
-0.20344278 -0.54408926 0.027945042
0.24909052 -0.54316992 0.021310687
-0.2320445 -0.5164696 0.033261299
0.24909052 -0.51490569 0.021310568
-0.25959176 -0.45824057 0.020126224
-0.28845477 -0.43093106 0.028900862
-0.28810051 -0.40209681 0.023787737
-0.28774723 -0.37334257 0.018688679
-0.31706876 -0.31793216 0.032686353
-0.3166368 -0.28919163 0.027074695
-0.31620446 -0.26053721 0.021458745
-0.31597498 -0.23211119 0.018477559
-0.31587744 -0.20381027 0.017210484
-0.31577995 -0.17552903 0.015944242
-0.31568256 -0.14726706 0.014678836
-0.31570852 -0.034414668 0.015016317
-0.31581244 -0.0061886385 0.016366243
-0.31591645 0.022058327 0.017717481
-0.31612954 0.050358832 0.020485759
-0.31648001 0.078756779 0.025038123
-0.31683299 0.10722632 0.02962327
-0.28753516 0.16312844 0.015627861
-0.23203877 0.24913886 0.033154845
-0.20359494 0.27733207 0.031239271
-0.14639795 0.30412546 0.014489293
-0.11823791 0.33256078 0.016725183
-0.0900435 0.36103088 0.018963814
-0.06181464 0.38953587 0.021204829
-0.033551276 0.41816178 0.024147987
-0.0052694958 0.44637546 0.023597121
-0.0052476265 0.47505113 0.026437879
-0.0052257236 0.50377083 0.029283404
-0.0052036252 0.53253841 0.032154441
0.022908434 0.53018242 0.016851664
0.022950057 0.55884939 0.019555449
0.022991419 0.58755499 0.022241712
0.023035776 0.61633658 0.025123
0.023116522 0.64559883 0.030367374
0.051090054 0.64271617 0.014763474
0.24909052 0.64392573 0.021310687
0.051210977 0.67193758 0.019999385
0.24909052 0.67218989 0.021310687
0.051331751 0.70123821 0.025228858
0.051452875 0.73062271 0.030473709
0.079307735 0.72738379 0.014889836
0.079468317 0.75672263 0.020105004
0.079629362 0.78614491 0.025335073
0.07979086 0.8156513 0.030580044
0.10757931 0.81236893 0.016366243
0.24914917 0.81368679 0.022072554
0.1077745 0.84180534 0.021437645
0.10804868 0.8718251 0.028560877
0.13585807 0.86910194 0.017506242
0.19326273 0.90119314 0.032686591
0.22209918 -0.91498834 0.039682627
0.22209769 -0.8865779 0.039661288
-0.061977297 -0.85876918 0.042334318
-0.061960995 -0.82988679 0.040216804
-0.061944548 -0.80103296 0.038080454
-0.061928287 -0.77221686 0.035967827
-0.090548329 -0.74687773 0.051753521
-0.061912041 -0.74343377 0.033857822
0.27976686 -0.71801788 0.049796939
-0.090515569 -0.71798605 0.049625039
-0.090325661 -0.68732017 0.037290692
0.2793816 -0.68872881 0.045247197
-0.1187602 -0.65928006 0.039340615
-0.14722571 -0.63120532 0.041371465
-0.17572421 -0.60310638 0.043447495
0.27950868 -0.60361457 0.046748161
-0.20429938 -0.57511687 0.046490788
0.27931446 -0.57481909 0.044454336
-0.23307458 -0.54747456 0.052377343
0.27931264 -0.54637378 0.044432878
0.27931264 -0.51793152 0.044432878
-0.26076061 -0.48883322 0.039105654
0.27931446 -0.48949203 0.044454217
-0.28961697 -0.46119082 0.045675993
0.27970684 -0.46158481 0.04908812
-0.318376 -0.40468675 0.049668193
0.27903709 -0.40383729 0.041178823
-0.31793839 -0.37567911 0.043982983
0.27903709 -0.37542015 0.041178942
-0.31750375 -0.3467623 0.038336635
0.27903709 -0.34700307 0.041179061
0.27903709 -0.3185859 0.04117918
0.27903709 -0.29016876 0.041178942
-0.34694222 -0.2623353 0.050656796
0.27903709 -0.26175168 0.041179061
-0.34655493 -0.23359889 0.04608345
0.27903709 -0.23333454 0.041179061
-0.34642246 -0.20507157 0.044518471
0.27903709 -0.20491746 0.041179061
-0.34629008 -0.17656863 0.04295516
0.27903709 -0.17650023 0.041179061
-0.34615961 -0.14809039 0.04141438
0.27903709 -0.14808309 0.041179061
-0.34602743 -0.11963534 0.039853573
0.27903709 -0.11966601 0.041179061
-0.34591526 -0.09120813 0.038529038
0.27903709 -0.09124893 0.04117918
-0.3461777 -0.062835194 0.041628242
0.27903709 -0.062831685 0.041179061
-0.34632993 -0.034414668 0.043425918
0.27903709 -0.034414556 0.041179061
-0.34642428 -0.0059717298 0.044540048
0.27903709 -0.0059975926 0.041179061
-0.34652045 0.022488751 0.045675993
0.27903709 0.02241971 0.041179061
-0.34675118 0.051003501 0.048400879
0.27903709 0.050836846 0.041179061
0.27903709 0.079253808 0.041179061
0.27903709 0.10767094 0.041179061
-0.31717208 0.13575786 0.034027934
0.27903709 0.13608825 0.041179061
-0.31751195 0.1643579 0.038443565
0.27903709 0.16450521 0.041179061
-0.28890005 0.19256213 0.03532815
0.27903709 0.19292232 0.041179061
-0.26047021 0.22086915 0.03439033
0.27903709 0.22133952 0.041179299
0.27903709 0.2497566 0.041178942
0.27903709 0.27817377 0.041179061
-0.17534117 0.30588105 0.033495545
0.27903709 0.30659086 0.041179061
-0.14705341 0.33446732 0.0357759
0.27903709 0.335008 0.041178942
-0.11873011 0.36308655 0.038037896
0.27903709 0.3634252 0.041179061
-0.090372026 0.39174113 0.040302277
0.27903709 0.39184237 0.041179061
-0.061979108 0.42043063 0.042569876
0.27903709 0.42025933 0.041179061
-0.033551276 0.44840801 0.039126873
0.27903709 0.44867653 0.041178942
-0.033551276 0.47722402 0.042120457
0.27903709 0.47709373 0.041179061
-0.033551276 0.50608712 0.04511869
0.27903709 0.50551069 0.041179061
-0.033551276 0.53499687 0.04812181
-0.033551276 0.56395012 0.05110836
-0.0051816516 0.56134742 0.03500843
0.27984694 0.56389111 0.050742745
-0.0051599741 0.59019411 0.037824273
0.27931625 0.59132046 0.044475794
-0.0051369481 0.61911488 0.040815592
0.27931446 0.61975914 0.044454336
-0.0050962307 0.6485064 0.046104908
0.27931446 0.64820158 0.044454336
-0.0050510913 0.6780901 0.051968455
0.023197819 0.67494911 0.035647988
0.27931446 0.67664391 0.044454336
0.023279026 0.70437926 0.040922403
0.27934709 0.70516324 0.044839978
0.023366079 0.73396969 0.046576738
0.051574834 0.76009578 0.035754681
0.0517001 0.78968203 0.041179061
0.051839121 0.8194893 0.047198772
0.079953484 0.84524733 0.035861373
0.25065622 0.84662873 0.041649699
0.080153465 0.87522328 0.042355776
0.10868599 0.90435141 0.04511869
0.13664088 0.9016422 0.034454226
0.16495918 0.90142041 0.033580899
0.19473273 -0.91901517 0.056556463
0.1947314 -0.89047462 0.056534886
-0.090680443 -0.86278749 0.060334325
-0.090647191 -0.83375734 0.05817461
-0.090614304 -0.80476558 0.056038737
0.28112829 -0.8068099 0.065874696
-0.090581462 -0.77580702 0.053905725
0.28063169 -0.7770288 0.060010076
-0.11946467 -0.75035959 0.069845438
0.28015488 -0.74738324 0.054379582
-0.11941455 -0.72132075 0.067674637
-0.11916874 -0.69081503 0.057030797
-0.14777103 -0.66262323 0.059081435
-0.17640665 -0.63440716 0.061177254
0.2809962 -0.6349144 0.064314842
-0.20518868 -0.60653913 0.065744638
-0.26195887 -0.51978076 0.058563113
-0.29105693 -0.49220243 0.066460013
-0.31889796 -0.4339 0.05644846
0.28112829 -0.43491596 0.065874815
-0.34832999 -0.32057717 0.067045569
-0.34763548 -0.29139262 0.058843732
-0.3471444 0.079619206 0.053044438
-0.34753862 0.10830695 0.0576998
-0.34801257 0.13710964 0.063297391
-0.31959024 0.19441646 0.065441132
-0.29076585 0.22279987 0.062258601
-0.26194024 0.25107151 0.058260798
-0.23332652 0.27951792 0.057052493
-0.20468265 0.30784813 0.054788947
-0.17616904 0.33639145 0.055004358
-0.14771587 0.36516142 0.05728972
-0.11922806 0.3939693 0.059599757
-0.090704411 0.42281029 0.061890841
-0.062089931 0.45074245 0.056966066
-0.062113196 0.4797 0.059988379
-0.062136501 0.50870472 0.063015938
-0.062159676 0.53775358 0.066026568
0.28138363 0.5381943 0.068889856
-0.06218306 0.56685281 0.069063663
-0.033551276 0.59295386 0.054121017
-0.033551276 0.62210059 0.057678223
-0.033551276 0.65177864 0.063816786
-0.033551276 0.68155551 0.069975853
-0.0050044823 0.70780212 0.058023453
-0.0049577169 0.73761159 0.064098239
0.28064635 0.73679775 0.060182929
-0.0049108006 0.76751888 0.070193172
0.023458697 0.76372504 0.052592635
0.023551952 0.79358226 0.05864954
0.28022605 0.79281658 0.055219889
0.023645513 0.82353729 0.064726591
0.023739375 0.85359049 0.070823193
0.051978596 0.84939402 0.053238392
0.052140474 0.87963092 0.060247779
0.25231099 0.88034463 0.063145876
0.080724359 0.90835947 0.060896158
0.16711368 -0.92307365 0.073563576
0.28262013 -0.89670026 0.083492637
-0.11966428 -0.8668403 0.078488708
0.28212622 -0.86665541 0.077659726
-0.11961442 -0.83767056 0.076329589
0.28162649 -0.83668518 0.071757793
-0.11956411 -0.80853009 0.074151158
-0.14873126 -0.78308451 0.090266228
-0.11951437 -0.77942812 0.071997046
-0.14866437 -0.7538715 0.0880934
-0.14859754 -0.72469217 0.085922956
-0.1483216 -0.6943441 0.076961756
-0.17710067 -0.66603202 0.079209089
-0.20609841 -0.63832957 0.085441113
-0.23412946 -0.57884115 0.071953654
-0.26318192 -0.55108356 0.078423262
-0.29251319 -0.52356493 0.087479234
-0.32101017 -0.46560296 0.083886504
-0.34960046 0.16670746 0.082049131
-0.26342946 0.28166792 0.08244276
-0.2346299 0.3102915 0.081240416
-0.20579948 0.33878982 0.078968883
-0.1770058 0.36725813 0.076743841
-0.14838678 0.39621851 0.079077959
-0.11973136 0.42521247 0.081393361
-0.090905905 0.45309982 0.074978709
-0.090952888 0.48220012 0.078030586
-0.090999961 0.51134789 0.081087351
-0.091046765 0.54054034 0.084127307
-0.09109398 0.56978381 0.087194324
-0.091140933 0.5990715 0.090244055
-0.062206477 0.59599978 0.072105885
-0.062236644 0.62534869 0.076024532
-0.062284201 0.65517557 0.082202196
-0.062332079 0.68510544 0.088422537
-0.033551276 0.71143115 0.076155424
-0.033551276 0.74140161 0.082333446
-0.033551276 0.77147633 0.088553786
-0.0048637278 0.79752427 0.076307774
-0.0048161652 0.8276388 0.082486629
0.28191027 0.82593513 0.075109482
-0.0047682747 0.85785824 0.088707685
0.02385471 0.88408113 0.078314185
0.052571811 0.91293943 0.078925133
-0.1489338 -0.870938 0.096843839
-0.148866 -0.84161758 0.094641447
-0.14879893 -0.81233633 0.092463374
-0.17819457 -0.75763106 0.10762894
-0.17810674 -0.7282809 0.10534751
0.31317952 -0.72787619 0.10315692
-0.17786346 -0.69825071 0.099026799
0.31264722 -0.69796175 0.097394705
-0.2070291 -0.67049986 0.10559082
0.31278574 -0.64050448 0.098894358
-0.23520741 -0.61057502 0.091957808
-0.26441818 -0.58272344 0.098497152
0.31346574 -0.5549401 0.10625529
0.31331846 -0.52581346 0.10466135
0.31278983 -0.43847919 0.098938465
0.31248847 -0.38045439 0.095676184
0.31248847 -0.35161775 0.095676064
0.31248847 -0.32278106 0.095675945
0.31248847 -0.29394442 0.095676064
0.31248847 -0.26510778 0.095676064
0.31248847 -0.23627114 0.095676184
0.31248847 -0.20743454 0.095676064
0.31248847 -0.17859778 0.095675945
0.31248847 -0.1497612 0.095676184
0.31248847 -0.12092457 0.095676064
0.31248847 -0.092087992 0.095675945
0.31248847 -0.06325119 0.095676184
0.31248847 -0.034414556 0.095676184
0.31248847 -0.0055780914 0.095676184
0.31248847 0.023258597 0.095676184
0.31248847 0.052095227 0.095675945
0.31248847 0.080931976 0.095676184
0.31248847 0.10976861 0.095676184
0.31248847 0.13860512 0.095676184
0.31248847 0.16744176 0.095676184
0.31248847 0.19627869 0.095676184
-0.3217923 0.22500229 0.09404707
0.31248847 0.22511518 0.095676184
-0.29274428 0.25357759 0.090815187
0.31248847 0.25395182 0.095676184
0.31248847 0.28278852 0.095676064
-0.26493824 0.31266579 0.10694206
0.31248847 0.31162503 0.095676184
-0.2359516 0.34147158 0.1057682
0.31248847 0.34046179 0.095676184
-0.20693097 0.37013799 0.10346675
0.31248847 0.36929837 0.095676184
-0.17794503 0.39876658 0.10114622
0.31248847 0.39813498 0.095676184
-0.14906561 0.42764276 0.10112393
0.31248847 0.42697161 0.095676064
-0.12000327 0.45547998 0.093167067
0.31248847 0.45580843 0.095676303
-0.12007444 0.48472431 0.096248865
0.31248847 0.48464504 0.095676184
-0.12014521 0.51401359 0.099313617
-0.12021662 0.54335439 0.10240555
0.3127878 0.54281718 0.098916531
-0.12028763 0.57273984 0.10548031
-0.12035927 0.60217732 0.10858226
-0.091206938 0.62862557 0.094531298
0.31336346 0.63050526 0.10514832
-0.091303341 0.65861022 0.10079265
0.31341869 0.65952533 0.10574591
-0.091400057 0.68869519 0.10707498
-0.062380124 0.71513534 0.094663382
-0.062428325 0.74526584 0.10092521
0.3127878 0.74484825 0.098916292
-0.062476695 0.77549702 0.10720801
-0.033551276 0.80165154 0.094795465
0.31292233 0.80289656 0.10037315
-0.033551276 0.8319276 0.10105777
-0.033551276 0.86230499 0.10734069
0.28381228 0.85997361 0.097571135
-0.0047029294 0.88873243 0.097196579
0.024144743 0.91756976 0.097152352
0.11077195 0.94698334 0.099313617
0.082716756 -0.90642494 0.12560129
-0.17845866 -0.84589601 0.11449039
-0.17837052 -0.81643856 0.11220038
-0.17828248 -0.78701699 0.10991347
0.3148956 -0.76034564 0.12173402
-0.20799883 -0.73220479 0.12658596
-0.20789857 -0.70274591 0.12441552
-0.23629703 -0.64265198 0.11217833
-0.26568702 -0.61475396 0.11910081
0.31400463 -0.61367446 0.11208928
0.31444439 -0.58540785 0.1168499
-0.29423055 -0.55577314 0.11226702
-0.32317266 -0.4978089 0.11197841
0.31402722 -0.49785262 0.11233377
0.31511647 -0.47024933 0.12412488
0.31486878 -0.41186965 0.12144375
-0.35237199 -0.35323536 0.11477947
-0.32403028 0.2560645 0.12311912
-0.29475191 0.28483051 0.11979222
-0.2080764 0.40189821 0.12826622
-0.17889838 0.43069619 0.12591457
-0.14938615 0.45788357 0.111534
-0.1494813 0.48727044 0.11462379
-0.14957727 0.51670897 0.11774111
0.31512472 0.51765579 0.12421441
-0.14967273 0.54619265 0.12084103
-0.14977178 0.57574308 0.12405801
0.31519908 0.57589841 0.12501955
-0.14987171 0.60534769 0.12730265
0.31410319 0.60295206 0.11315608
-0.12046695 0.63193876 0.11324513
-0.12061299 0.66207922 0.11956918
-0.12075953 0.692321 0.12591457
0.31433129 0.69034082 0.11562526
-0.091497108 0.71888131 0.11337864
0.31428194 0.71922404 0.1150912
-0.091594145 0.74916404 0.11968064
-0.091691837 0.77955317 0.12602639
-0.06252522 0.80582976 0.11351168
-0.06257391 0.83626437 0.11983693
-0.062622763 0.86680144 0.12618303
-0.033551276 0.89383185 0.11789703
-0.0045516361 0.92257369 0.1168499
0.082338341 0.95064718 0.11331165
0.053692147 0.95434409 0.12743723
0.054057837 -0.91050577 0.14327204
-0.20841447 -0.85044301 0.13558543
-0.20830649 -0.820813 0.13324726
0.31682885 -0.82276988 0.14266229
-0.20820071 -0.79122871 0.13095689
0.31682885 -0.79357159 0.14266205
-0.20809919 -0.76169753 0.12875915
-0.2381126 -0.70654464 0.14587116
-0.23739846 -0.67507708 0.13261831
-0.26712829 -0.6475544 0.14250422
-0.29609257 -0.58866835 0.13914311
-0.32536966 -0.5305059 0.14051831
-0.26672578 0.34449393 0.13596785
-0.2372908 0.3730644 0.13062036
-0.17914861 0.46061641 0.13241637
-0.17927495 0.49019042 0.13569784
-0.17940147 0.51981598 0.13898528
-0.17952734 0.54948968 0.1422559
-0.17964649 0.57918537 0.14535117
-0.15002431 0.63530529 0.13225913
-0.15022311 0.66561633 0.13871503
-0.15042327 0.69603544 0.14521563
-0.12090605 0.72266012 0.13225913
-0.12105358 0.75310606 0.13864732
-0.12120161 0.78365529 0.1450572
-0.091789871 0.81004488 0.13239372
-0.091888234 0.84063977 0.13878262
-0.091986924 0.87133801 0.14519274
-0.062720098 0.89898759 0.13882756
-0.033551276 0.92870641 0.14099216
0.024877761 0.95887899 0.14476359
0.025129415 -0.91462499 0.16110873
-0.23870665 -0.8550362 0.15689552
-0.23858783 -0.8252697 0.15468991
-0.23846912 -0.79553795 0.15248692
-0.23834933 -0.76583624 0.15026426
-0.2382309 -0.73617333 0.1480664
0.3472718 -0.6202963 0.15509915
0.34726954 -0.44452938 0.15507627
-0.32671273 0.2880629 0.1579653
-0.29679239 0.31657347 0.14924431
-0.26855519 0.37684229 0.16567421
-0.23864783 0.40507805 0.1558038
-0.2091134 0.43375108 0.15071774
-0.20926644 0.4634451 0.15403116
-0.20941766 0.49318448 0.157305
-0.20956177 0.52295178 0.16042495
-0.20970504 0.55276471 0.16352713
0.34726954 0.55146348 0.1550765
-0.17976496 0.60892552 0.1484288
-0.1799736 0.63912797 0.1538496
-0.18020739 0.66953456 0.15992355
-0.18044192 0.70003867 0.16601706
-0.15062341 0.72655439 0.15171552
0.3472718 0.72723138 0.15509915
-0.15082426 0.75717807 0.15823829
-0.1510258 0.78790712 0.16478324
-0.12135015 0.81430781 0.15148866
-0.12149866 0.84505934 0.15791953
-0.1216482 0.8759203 0.16439474
-0.092215471 0.90421253 0.1600374
-0.0040723253 -0.91878313 0.17911398
-0.26945662 -0.86008316 0.1803112
-0.26931345 -0.8301121 0.17798674
-0.26917189 -0.80018163 0.17568779
-0.26903048 -0.77028722 0.1733917
-0.26888782 -0.74042422 0.17107558
-0.26878768 -0.71071917 0.16944897
-0.26871437 -0.68111306 0.16825855
-0.29797977 -0.6220336 0.16638291
0.34882477 -0.59327191 0.17061722
-0.32763731 -0.5637694 0.16997564
0.34993094 -0.56538993 0.18167055
0.34957147 -0.53542131 0.17807865
0.3499586 -0.50642669 0.18194711
0.34863454 -0.47539827 0.16871619
-0.29886344 0.34881404 0.17913711
-0.23954614 0.43643066 0.17247403
-0.23971681 0.46627322 0.17564189
-0.23989896 0.4961938 0.17902207
-0.24008019 0.52616394 0.18238533
-0.20984857 0.58262593 0.16663444
0.34860244 0.5829106 0.16839588
-0.20999338 0.61253977 0.16976941
0.34996551 0.61461383 0.18201637
-0.21027097 0.64301097 0.1757797
0.34956914 0.6434139 0.17805576
-0.21055476 0.67359942 0.18192422
0.349924 0.6735397 0.18160152
0.3488431 0.70095915 0.17080057
-0.18067721 0.73064029 0.17213011
-0.18091857 0.76136869 0.17840075
-0.18117316 0.79226798 0.1850152
-0.15122873 0.81874686 0.17137349
-0.15143165 0.84968829 0.17796361
-0.15164523 0.88081354 0.18489981
-0.12205515 0.90962666 0.18201637
-0.062945247 0.93558663 0.16807544
-0.0041280296 0.9659757 0.17187798
-0.033551276 -0.92298615 0.19731355
-0.30046767 -0.83516383 0.20229256
-0.30030474 -0.80503565 0.19994092
-0.30020326 -0.77511454 0.1984756
-0.30011791 -0.74525899 0.19724405
-0.30003422 -0.71542662 0.19603622
-0.2999506 -0.68561298 0.19482899
-0.29986703 -0.65581799 0.19362271
-0.32994047 -0.59755391 0.19989443
-0.27039355 0.4096646 0.19552553
-0.27060246 0.4396877 0.19891727
-0.27081317 0.46976683 0.20233893
-0.24026297 0.55619025 0.18577707
-0.24044609 0.58626992 0.18917549
-0.24062079 0.61637515 0.19241738
-0.24096854 0.64709926 0.1988709
-0.21083947 0.70428634 0.1880883
-0.21112511 0.7350719 0.19427216
-0.21141165 0.76595706 0.20047617
-0.18142864 0.82327414 0.19165277
-0.18168589 0.85439306 0.19833648
-0.092761844 0.94255972 0.19552553
-0.063311584 -0.9272238 0.21566331
-0.30062914 -0.86532366 0.20462334
-0.33152318 -0.63035846 0.22045469
0.38279495 -0.53997791 0.21289766
0.38279495 -0.51023883 0.21289742
-0.30096895 0.38156855 0.20952737
