ply
format ascii 1.0
comment PCL generated
element vertex 925
property float x
property float y
property float z
element camera 1
property float view_px
property float view_py
property float view_pz
property float x_axisx
property float x_axisy
property float x_axisz
property float y_axisx
property float y_axisy
property float y_axisz
property float z_axisx
property float z_axisy
property float z_axisz
property float focal
property float scalex
property float scaley
property float centerx
property float centery
property int viewportx
property int viewporty
property float k1
property float k2
end_header
-0.099709406 -0.31633061 -0.42564452
-0.081026614 -0.31633061 -0.42564452
-0.062343832 -0.31633061 -0.42564452
-0.043661043 -0.31633061 -0.42564452
-0.024978258 -0.31633061 -0.42564452
-0.0062954705 -0.31633061 -0.42564452
0.012387317 -0.31633061 -0.42564452
0.031070104 -0.31633061 -0.42564452
0.049752891 -0.31633061 -0.42564452
0.068435676 -0.31633061 -0.42564452
0.087118462 -0.31633061 -0.42564452
0.10580125 -0.31633061 -0.42564452
-0.13702905 -0.29754442 -0.42639041
-0.11821064 -0.29718098 -0.42901373
-0.099438518 -0.29683506 -0.43150955
-0.080800876 -0.29683506 -0.43150955
-0.06216323 -0.29683506 -0.43150955
-0.043525599 -0.29683506 -0.43150955
-0.024887957 -0.29683506 -0.43150955
-0.00625032 -0.29683506 -0.43150955
0.012387317 -0.29683506 -0.43150955
0.031024953 -0.29683506 -0.43150955
0.04966259 -0.29683506 -0.43150955
0.068300232 -0.29683506 -0.43150955
0.08693786 -0.29683506 -0.43150955
0.10558702 -0.29687661 -0.43121016
0.12434791 -0.29723945 -0.42859167
0.14314942 -0.29760295 -0.42596745
-0.19308658 -0.27890816 -0.42607874
-0.1742761 -0.27868542 -0.42778057
-0.15549202 -0.27846298 -0.42948002
-0.13673426 -0.27824101 -0.43117702
-0.11800215 -0.27801776 -0.43288285
-0.099296927 -0.2777963 -0.43457508
-0.080675647 -0.27777171 -0.43476313
-0.062063057 -0.27777171 -0.43476313
-0.043450464 -0.27777171 -0.43476313
-0.02483787 -0.27777171 -0.43476313
-0.0062252767 -0.27777171 -0.43476313
0.012387317 -0.27777171 -0.43476313
0.03099991 -0.27777171 -0.43476313
0.049612503 -0.27777171 -0.43476313
0.068225101 -0.27777171 -0.43476313
0.086837694 -0.27777171 -0.43476313
0.10546815 -0.27783251 -0.43429863
0.1241625 -0.27805397 -0.43260604
0.14288363 -0.27827725 -0.43089998
0.16163051 -0.27849934 -0.42920244
0.18040366 -0.2787219 -0.42750257
0.19921948 -0.2789723 -0.42558879
-0.21319714 -0.31853294 -0.41058636
-0.19417243 -0.31814271 -0.41325527
-0.17519014 -0.31775478 -0.4159072
-0.15624829 -0.31736618 -0.41856444
-0.1373484 -0.31697997 -0.42120469
-0.11848886 -0.31659296 -0.42385054
0.12458698 -0.31665659 -0.42341554
0.14342897 -0.31704208 -0.42078
0.16231254 -0.31743005 -0.4181276
0.18123657 -0.31781721 -0.41548049
0.20020182 -0.31820521 -0.41282773
0.21920934 -0.31859571 -0.41015792
-0.23213807 -0.2999312 -0.40916514
-0.21271288 -0.29900786 -0.41582853
-0.19373046 -0.2986412 -0.41847485
-0.17478833 -0.29827383 -0.42112648
-0.15588823 -0.29790872 -0.42376137
0.1619917 -0.29796749 -0.42333746
0.18087563 -0.29833421 -0.4206906
0.19979987 -0.29870024 -0.4180491
0.21876624 -0.29906866 -0.41539067
-0.23168148 -0.28052455 -0.41372764
-0.21205221 -0.27931371 -0.42298031
0.21822001 -0.27946261 -0.42184162
-0.21287477 -0.2617071 -0.41407615
-0.19391462 -0.26143315 -0.41629994
-0.17503646 -0.26123562 -0.41790348
-0.15618391 -0.26103985 -0.41949356
0.16224357 -0.26107016 -0.41924745
0.18108657 -0.26126739 -0.41764569
0.19995439 -0.26146492 -0.41604185
0.21894707 -0.26180807 -0.41325539
-0.13735528 -0.2608428 -0.42109305
-0.11855139 -0.26064605 -0.42269027
-0.099772707 -0.26045099 -0.42427415
-0.08105877 -0.2603851 -0.42480916
-0.062369552 -0.2603851 -0.42480916
-0.043680336 -0.2603851 -0.42480916
-0.024991117 -0.2603851 -0.42480916
-0.0063019004 -0.2603851 -0.42480916
0.012387317 -0.2603851 -0.42480916
0.031076534 -0.2603851 -0.42480916
0.049765751 -0.2603851 -0.42480916
0.068454966 -0.2603851 -0.42480916
0.087144181 -0.2603851 -0.42480916
0.10586387 -0.26048258 -0.42401773
0.12463234 -0.26067773 -0.42243344
0.14342594 -0.26087454 -0.42083585
-0.11922608 -0.24338637 -0.41016918
-0.10035598 -0.24321587 -0.41164559
-0.081535533 -0.24312614 -0.41242266
-0.062750965 -0.24312614 -0.41242266
-0.04396639 -0.24312614 -0.41242266
-0.025181822 -0.24312614 -0.41242266
-0.0063972529 -0.24312614 -0.41242266
0.012387317 -0.24312614 -0.41242266
0.031171886 -0.24312614 -0.41242266
0.049956456 -0.24312614 -0.41242266
0.068741024 -0.24312614 -0.41242266
0.087525591 -0.24312614 -0.41242266
0.10634917 -0.24324317 -0.41140908
0.12520975 -0.24341364 -0.40993237
0.2382199 -0.30010638 -0.40790039
0.23829195 -0.28138915 -0.40712059
-0.23240831 -0.26264456 -0.4064647
0.23868634 -0.26308969 -0.40285087
-0.21403125 -0.24438073 -0.40155697
-0.19493727 -0.24407293 -0.40422285
-0.17597452 -0.24390034 -0.40571797
-0.15703565 -0.24372925 -0.4071998
-0.13811974 -0.24355833 -0.40867972
0.14409378 -0.24358572 -0.40844256
0.16300015 -0.24375667 -0.40696216
0.18193021 -0.24392913 -0.40546882
0.20088255 -0.24410047 -0.40398496
0.22000116 -0.24446745 -0.40080702
-0.13905379 -0.22637947 -0.39351261
-0.12004977 -0.2262318 -0.39488363
-0.10106693 -0.22608416 -0.39625317
-0.082122788 -0.2259859 -0.39716524
-0.063220769 -0.2259859 -0.39716524
-0.044318743 -0.2259859 -0.39716524
-0.025416724 -0.2259859 -0.39716524
-0.0065147039 -0.2259859 -0.39716524
0.012387317 -0.2259859 -0.39716524
0.031289339 -0.2259859 -0.39716524
0.050191358 -0.2259859 -0.39716524
0.069093376 -0.2259859 -0.39716524
0.087995395 -0.2259859 -0.39716524
0.10694087 -0.22610761 -0.39603633
0.12591484 -0.22625519 -0.39466661
-0.23399426 -0.24564399 -0.39061695
0.24012704 -0.24603231 -0.38725495
-0.21543521 -0.22715054 -0.38635838
-0.19619329 -0.22682373 -0.38939035
-0.17712551 -0.22667558 -0.39076591
-0.15807903 -0.22652744 -0.39214003
0.14490999 -0.22640295 -0.39329535
0.16392635 -0.22655095 -0.39192253
0.18296395 -0.22669901 -0.39054817
0.20202282 -0.22684731 -0.38917226
0.22128114 -0.22722243 -0.38569146
-0.08284688 -0.20896648 -0.37835282
-0.063800037 -0.20896648 -0.37835282
-0.044753205 -0.20896648 -0.37835282
-0.025706362 -0.20896648 -0.37835282
-0.0066595227 -0.20896648 -0.37835282
0.012387317 -0.20896648 -0.37835282
0.031434156 -0.20896648 -0.37835282
0.050480995 -0.20896648 -0.37835282
0.069527835 -0.20896648 -0.37835282
0.088574678 -0.20896648 -0.37835282
-0.16002697 -0.34450054 -0.36402375
-0.14058197 -0.34378082 -0.36869806
-0.12120989 -0.34306398 -0.37335461
-0.10202216 -0.34272254 -0.37557197
-0.083349302 -0.34430405 -0.36529928
-0.063885659 -0.34272254 -0.37557197
-0.045054656 -0.34430405 -0.36529928
-0.025749173 -0.34272254 -0.37557197
-0.0067600086 -0.34430405 -0.36529928
0.012387317 -0.34430405 -0.36529928
0.031455562 -0.34272254 -0.37557197
0.050681967 -0.34430405 -0.36529928
0.069592051 -0.34272254 -0.37557197
0.088976622 -0.34430405 -0.36529928
0.10772854 -0.34272254 -0.37557197
-0.23650099 -0.32511741 -0.36556834
0.24228601 -0.32536384 -0.36388344
-0.2558493 -0.30623326 -0.36368424
-0.25483465 -0.28584141 -0.37309909
-0.23570548 -0.22853445 -0.37351745
0.24167868 -0.22886421 -0.37045795
-0.21713452 -0.21000627 -0.36796314
-0.19774318 -0.20969374 -0.37108666
-0.17854278 -0.20956677 -0.37235498
-0.15936281 -0.2094411 -0.37361038
-0.14020151 -0.20931441 -0.37487596
-0.12105978 -0.20918788 -0.37614036
-0.10193758 -0.20906155 -0.37740344
0.10766563 -0.20908123 -0.37720644
0.12677965 -0.20920771 -0.37594312
0.14591318 -0.20933425 -0.37467855
0.16506626 -0.20946094 -0.37341273
0.18423891 -0.20958771 -0.37214565
0.20343119 -0.20971464 -0.37087709
0.22283274 -0.21006584 -0.36736757
-0.21895568 -0.34692931 -0.34824824
-0.19913834 -0.34594977 -0.35461056
-0.17954619 -0.34522474 -0.35932022
0.14740965 -0.34713563 -0.34690773
-0.257541 -0.32768893 -0.34798723
0.26180801 -0.30670941 -0.36024821
0.26177862 -0.28748471 -0.36054182
-0.25722057 -0.26948085 -0.35096031
-0.23756804 -0.21131293 -0.35490555
0.2433673 -0.21158583 -0.35217828
-0.19967611 -0.19269955 -0.34825999
-0.18032463 -0.19261195 -0.34920824
-0.16098779 -0.19252439 -0.35015559
-0.14166559 -0.19243693 -0.35110229
-0.12235799 -0.1923496 -0.35204822
-0.10306501 -0.19226228 -0.35299349
-0.083795235 -0.1921957 -0.35371387
-0.064558715 -0.1921957 -0.35371387
-0.04532221 -0.1921957 -0.35371387
-0.026085701 -0.1921957 -0.35371387
-0.0068491939 -0.1921957 -0.35371387
0.012387317 -0.1921957 -0.35371387
0.031623825 -0.1921957 -0.35371387
0.050860334 -0.1921957 -0.35371387
0.070096843 -0.1921957 -0.35371387
0.089333355 -0.1921957 -0.35371387
0.10860349 -0.19227645 -0.35283989
0.12789039 -0.19236381 -0.35189468
0.1471919 -0.19245115 -0.35094845
0.16650802 -0.19253871 -0.35000157
0.18583876 -0.19262618 -0.34905422
0.20518413 -0.19271381 -0.34810579
0.16718763 -0.34835845 -0.33896583
0.22565325 -0.34911388 -0.334059
0.26349157 -0.32835615 -0.34342521
-0.23965304 -0.1940102 -0.33407116
-0.21922544 -0.19297042 -0.34532803
0.22475842 -0.19303517 -0.34462667
0.1293048 -0.35108253 -0.32127196
0.18791054 -0.3514092 -0.31915039
0.20746824 -0.35151947 -0.3184343
0.24583688 -0.19480714 -0.3254441
-0.22182983 -0.17605667 -0.31713462
-0.20208044 -0.17582534 -0.31986594
-0.18250687 -0.17574123 -0.32085997
-0.16294779 -0.17565604 -0.32186544
-0.14340499 -0.17557205 -0.3228578
-0.12387753 -0.17548814 -0.32384944
-0.10436535 -0.17540419 -0.32484025
-0.084878683 -0.17534283 -0.32556474
-0.065425485 -0.17534283 -0.32556474
-0.045972288 -0.17534283 -0.32556474
-0.026519086 -0.17534283 -0.32556474
-0.0070658829 -0.17534283 -0.32556474
0.012387317 -0.17534283 -0.32556474
0.031840518 -0.17534283 -0.32556474
0.05129372 -0.17534283 -0.32556474
0.070746921 -0.17534283 -0.32556474
0.090200126 -0.17534283 -0.32556474
0.10968725 -0.17541751 -0.32468325
0.12919301 -0.17550138 -0.32369232
0.14871408 -0.17558531 -0.3227005
0.16825046 -0.17566939 -0.32170796
0.18780217 -0.17575355 -0.32071453
0.20737669 -0.17584588 -0.31962341
0.22715226 -0.17612249 -0.3163566
-0.26131603 -0.25461116 -0.31295937
-0.24247913 -0.17701386 -0.30583102
-0.086497575 -0.15912737 -0.28350502
-0.06672059 -0.15912737 -0.28350502
-0.046943612 -0.15912737 -0.28350502
-0.027166639 -0.15912737 -0.28350502
-0.0073896609 -0.15912737 -0.28350502
0.012387317 -0.15912737 -0.28350502
0.032164294 -0.15912737 -0.28350502
0.051941272 -0.15912737 -0.28350502
0.071718246 -0.15912737 -0.28350502
0.091495231 -0.15912737 -0.28350502
-0.26552561 -0.23927055 -0.27389908
-0.24606778 -0.16016929 -0.26997113
-0.22622506 -0.16020124 -0.26955497
0.2310801 -0.16016929 -0.26997113
0.25096127 -0.16016929 -0.26997113
-0.24567594 -0.14001675 -0.27388656
-0.22587022 -0.14005069 -0.27339625
0.23074855 -0.14001675 -0.27388656
0.25059956 -0.14001675 -0.27388656
-0.24566711 -0.12016039 -0.27397454
-0.2258621 -0.12019059 -0.27348411
0.2307411 -0.12016039 -0.27397454
0.25059143 -0.12016039 -0.27397454
-0.24601732 -0.10049859 -0.27047539
-0.2261773 -0.10052027 -0.27007186
0.23103739 -0.10049859 -0.27047539
0.25091466 -0.10049859 -0.27047539
0.25185916 -0.18087342 -0.26025093
-0.2669144 -0.16085891 -0.26101279
-0.20736225 -0.16112994 -0.25749111
0.21195404 -0.1609244 -0.26016188
0.27205822 -0.16110452 -0.25782204
-0.26634088 -0.14054002 -0.26633465
-0.20694797 -0.14081381 -0.26238334
-0.087638691 -0.14140442 -0.25385749
-0.067633495 -0.14140442 -0.25385749
-0.047628298 -0.14140442 -0.25385749
-0.027623091 -0.14140442 -0.25385749
-0.0076178871 -0.14140442 -0.25385749
0.012387317 -0.14140442 -0.25385749
0.03239252 -0.14140442 -0.25385749
0.052397724 -0.14140442 -0.25385749
0.072402932 -0.14140442 -0.25385749
0.092408136 -0.14140442 -0.25385749
0.21159674 -0.14064611 -0.26480365
0.2714901 -0.14073643 -0.26349902
-0.26630136 -0.12060826 -0.26670122
-0.20691252 -0.12084842 -0.26280177
0.21156944 -0.12070331 -0.26515794
0.27144447 -0.12077741 -0.26395512
-0.26675439 -0.10092847 -0.26249743
-0.20722649 -0.10111193 -0.25909412
0.21184945 -0.10098116 -0.26152062
0.27187622 -0.10108243 -0.25964081
-0.26778188 -0.081430107 -0.25296354
-0.24677001 -0.080968782 -0.262954
-0.22685122 -0.080976933 -0.26277649
0.21246885 -0.081406564 -0.25347447
0.2316743 -0.080968782 -0.262954
0.25160944 -0.080968782 -0.262954
0.27339485 -0.18221012 -0.24446559
-0.26826325 -0.18186872 -0.24849725
-0.20793402 -0.081532821 -0.25073874
0.27286956 -0.081580207 -0.24971449
-0.24811928 -0.061552387 -0.24947119
-0.22808033 -0.061552387 -0.24947119
-0.20918515 -0.062072348 -0.23596358
0.21356109 -0.061944481 -0.23928571
0.232816 -0.061552387 -0.24947119
0.2528739 -0.061560351 -0.24926615
-0.27132615 -0.20454061 -0.22007668
-0.08880648 -0.12326764 -0.22351778
-0.068567723 -0.12326764 -0.22351778
-0.048328962 -0.12326764 -0.22351778
-0.028090201 -0.12326764 -0.22351778
-0.0078514423 -0.12326764 -0.22351778
0.012387317 -0.12326764 -0.22351778
0.032626078 -0.12326764 -0.22351778
0.052864835 -0.12326764 -0.22351778
0.073103592 -0.12326764 -0.22351778
0.093342349 -0.12326764 -0.22351778
-0.26971307 -0.062107701 -0.23504436
0.2747609 -0.062270608 -0.23081493
-0.25050229 -0.042246733 -0.22565901
-0.23028 -0.042246733 -0.22565901
0.23483235 -0.042246733 -0.22565901
0.25526208 -0.042315941 -0.22341323
-0.21146731 -0.042759266 -0.20901251
0.21552809 -0.042613905 -0.21373367
-0.090001851 -0.10470244 -0.19246125
-0.069524005 -0.10470244 -0.19246125
-0.049046181 -0.10470244 -0.19246125
-0.028568346 -0.10470244 -0.19246125
-0.0080905147 -0.10470244 -0.19246125
0.012387317 -0.10470244 -0.19246125
0.032865148 -0.10470244 -0.19246125
0.053342979 -0.10470244 -0.19246125
0.073820814 -0.10470244 -0.19246125
0.094298646 -0.10470244 -0.19246125
-0.091225788 -0.085693404 -0.16066217
-0.070503175 -0.085693404 -0.16066217
-0.049780544 -0.085693404 -0.16066217
-0.029057927 -0.085693404 -0.16066217
-0.0083353054 -0.085693404 -0.16066217
0.012387317 -0.085693404 -0.16066217
0.033109941 -0.085693404 -0.16066217
0.053832561 -0.085693404 -0.16066217
0.074555174 -0.085693404 -0.16066217
0.095277801 -0.085693404 -0.16066217
-0.092479348 -0.066224247 -0.12809396
-0.071506009 -0.066224247 -0.12809396
-0.05053268 -0.066224247 -0.12809396
-0.029559348 -0.066224247 -0.12809396
-0.0085860156 -0.066224247 -0.12809396
0.012387317 -0.066224247 -0.12809396
0.033360649 -0.066224247 -0.12809396
0.054333981 -0.066224247 -0.12809396
0.07530731 -0.066224247 -0.12809396
0.096280649 -0.066224247 -0.12809396
-0.09376362 -0.046278413 -0.094727635
-0.072533429 -0.046278413 -0.094727635
-0.051303241 -0.046278413 -0.094727635
-0.030073054 -0.046278413 -0.094727635
-0.0088428687 -0.046278413 -0.094727635
0.012387317 -0.046278413 -0.094727635
0.033617504 -0.046278413 -0.094727635
0.054847687 -0.046278413 -0.094727635
0.076077878 -0.046278413 -0.094727635
0.097308055 -0.046278413 -0.094727635
-0.22230591 -0.025364775 -0.081014752
-0.20078364 -0.025308918 -0.0834378
-0.17938623 -0.025282089 -0.084597111
-0.15815035 -0.025309246 -0.083423138
-0.13690737 -0.025340956 -0.082045555
-0.11564328 -0.025372956 -0.080666184
-0.094345108 -0.025397059 -0.079619884
-0.072998628 -0.025397059 -0.079619884
-0.051652137 -0.025397059 -0.079619884
-0.030305654 -0.025397059 -0.079619884
-0.0089591686 -0.025397059 -0.079619884
0.012387317 -0.025397059 -0.079619884
0.0337338 -0.025397059 -0.079619884
0.055080287 -0.025397059 -0.079619884
0.076426774 -0.025397059 -0.079619884
0.097773254 -0.025397059 -0.079619884
0.11907165 -0.02536821 -0.080869436
0.14034481 -0.025336403 -0.082248569
0.16159683 -0.0253045 -0.08362627
0.18286251 -0.025285851 -0.084437609
0.20425323 -0.025312956 -0.083263755
0.22578393 -0.025376622 -0.080506444
-0.20201714 -0.17576206 -0.067414284
-0.18061225 -0.17580163 -0.06690073
-0.15919949 -0.17584115 -0.066387177
-0.13777882 -0.17588067 -0.065873504
-0.11635025 -0.17592025 -0.065359592
0.1196658 -0.17591454 -0.065433025
0.14109777 -0.17587505 -0.065946817
0.16252181 -0.17583552 -0.06646049
0.18393798 -0.17579593 -0.066974044
0.20534626 -0.17575647 -0.067487478
-0.20231557 -0.06870912 -0.06353724
-0.18092582 -0.068753749 -0.062375069
0.18421124 -0.068747595 -0.062537074
0.20560771 -0.06870231 -0.063713789
-0.20154743 -0.046931516 -0.073515773
-0.18023491 -0.046967413 -0.072347403
-0.15890357 -0.047003027 -0.071192503
-0.13755448 -0.047038686 -0.07003653
-0.11618766 -0.047074202 -0.068879843
0.11952694 -0.047069322 -0.069040895
0.14090143 -0.047033709 -0.070197582
0.16225818 -0.046998095 -0.071353316
0.18359718 -0.046962578 -0.072508097
0.20491748 -0.046926584 -0.073676467
-0.24419148 -0.025502387 -0.075062633
0.24767227 -0.025526214 -0.074026823
-0.2030676 -0.15526703 -0.053768277
-0.18155803 -0.15530293 -0.053249836
-0.16004047 -0.15533887 -0.052731276
-0.13851576 -0.15537587 -0.052197576
-0.11698215 -0.15541175 -0.051678777
0.12019235 -0.15540658 -0.051752806
0.1417294 -0.15537077 -0.052271724
0.16325764 -0.15533371 -0.052805305
0.18477865 -0.15529785 -0.053323746
0.20629162 -0.15526189 -0.053842068
-0.20315997 -0.13379543 -0.052568197
-0.18166688 -0.13385026 -0.051678538
-0.16016012 -0.13390504 -0.050788403
-0.13863969 -0.13395987 -0.04989779
-0.11710556 -0.13401484 -0.049006462
0.12029348 -0.13400747 -0.049125433
0.14183286 -0.13395171 -0.050031543
0.16335914 -0.13389678 -0.050922155
0.18487172 -0.13384205 -0.051812172
0.20637064 -0.13378726 -0.052701592
-0.20314629 -0.11223114 -0.052746058
-0.1816638 -0.11228621 -0.051723242
-0.16016652 -0.1123423 -0.050684571
-0.13865249 -0.11239746 -0.049660206
-0.11712341 -0.11245351 -0.048619986
0.12030721 -0.11244538 -0.048768878
0.14184384 -0.11239018 -0.049793839
0.16336393 -0.11233427 -0.050833106
0.18486899 -0.11227901 -0.051856518
0.20635729 -0.1122231 -0.052894235
-0.20278525 -0.090461195 -0.05743587
-0.18133864 -0.090508237 -0.056416512
-0.15987727 -0.0905561 -0.055381417
-0.13840002 -0.090603888 -0.054345608
-0.11690615 -0.090651065 -0.053323865
0.12012675 -0.090644956 -0.053457379
0.14162676 -0.090597034 -0.054493666
0.16311166 -0.090549901 -0.055514574
0.18457995 -0.090502128 -0.05654943
0.20603344 -0.090454996 -0.057568908
-0.1595182 -0.068798617 -0.061211944
-0.13809274 -0.068843439 -0.060047746
-0.1166494 -0.068888262 -0.058882594
0.11991167 -0.068882018 -0.059044838
0.14136274 -0.068837151 -0.06020987
0.16279593 -0.068792328 -0.061373949
-0.20346506 -0.0045281015 -0.048605323
-0.18179746 -0.0045097806 -0.049793959
-0.16014823 -0.004491549 -0.050981402
-0.13851735 -0.004473228 -0.052167892
-0.1169048 -0.0044549964 -0.053353429
-0.095313922 -0.0044381768 -0.054449201
-0.073773682 -0.0044381768 -0.054449201
-0.052233431 -0.0044381768 -0.054449201
-0.030693181 -0.0044381768 -0.054449201
-0.0091529321 -0.0044381768 -0.054449201
0.012387317 -0.0044381768 -0.054449201
0.033927567 -0.0044381768 -0.054449201
0.055467814 -0.0044381768 -0.054449201
0.077008069 -0.0044381768 -0.054449201
0.098550588 -0.0044392571 -0.054375172
0.12013701 -0.0044574887 -0.053190589
0.14174172 -0.0044757165 -0.052004814
0.16336474 -0.0044940412 -0.050818086
0.18500607 -0.0045123175 -0.049630404
0.2066668 -0.00453078 -0.048426986
-0.24749236 -0.0046708845 -0.039329767
-0.22528334 -0.0045705289 -0.04585278
0.22849168 -0.0045785159 -0.045331478
0.25130284 -0.0047967955 -0.031151772
-0.16234896 0.016800391 -0.015246272
-0.14044134 0.016809739 -0.016463399
-0.11855181 0.016819229 -0.017694354
-0.096683025 0.016828297 -0.018878937
-0.074868962 0.016828297 -0.018878937
-0.053054888 0.016828297 -0.018878937
-0.031240821 0.016828297 -0.018878937
-0.0094267521 0.016828297 -0.018878937
0.012387317 0.016828297 -0.018878937
0.034201384 0.016828297 -0.018878937
0.056015454 0.016828297 -0.018878937
0.077829525 0.016828297 -0.018878937
0.099648267 0.016827216 -0.018727183
0.12151027 0.016817819 -0.017512202
0.14339104 0.016808471 -0.016296029
0.16529058 0.016799074 -0.015078664
-0.22834896 0.016757306 -0.009649992
-0.2062218 0.016781455 -0.012793779
-0.18427539 0.016790992 -0.014028192
0.18720894 0.01678963 -0.013860583
0.20914821 0.016779998 -0.012610912
0.2312867 0.01675242 -0.009023428
0.27732536 -0.027592134 0.015428543
-0.25163031 0.016640836 0.0054647923
-0.27477837 -0.027626667 0.016922116
0.25592586 0.016502472 0.023443699
-0.23150131 0.038642399 0.027577639
-0.20904991 0.038642354 0.023944139
-0.18681735 0.038642399 0.022662044
-0.16460654 0.038642399 0.021412253
-0.14241418 0.038642306 0.020148039
-0.12024206 0.038642399 0.018900514
-0.098089188 0.038642399 0.017654061
-0.07599245 0.038642354 0.017607212
-0.053897504 0.038642354 0.017607212
-0.031802565 0.038642354 0.017607212
-0.0097076241 0.038642354 0.017607212
0.012387317 0.038642354 0.017607212
0.034482256 0.038642354 0.017607212
0.056577198 0.038642354 0.017607212
0.078672141 0.038642354 0.017607212
0.1007738 0.038642399 0.017825365
0.1229184 0.038642354 0.019071937
0.16726536 0.038642399 0.021568418
0.18946873 0.038642354 0.022833943
0.21169491 0.038642306 0.024147511
0.23418637 0.038642399 0.028644562
0.14508225 0.038642447 0.020319581
-0.27821174 -0.0060651414 0.05123055
0.28165841 -0.0062361099 0.06233561
-0.25680816 0.038642399 0.061516643
-0.21195212 0.061076347 0.06164515
-0.189427 0.061066151 0.060329199
-0.16692223 0.061056048 0.05901444
-0.14443947 0.061046138 0.05773294
-0.12197651 0.06103627 0.056452513
-0.099533305 0.061026499 0.055173159
-0.077145234 0.06102556 0.055045366
-0.054762099 0.06102556 0.055045366
-0.03237896 0.06102556 0.055045366
-0.0099958219 0.06102556 0.055045366
0.012387317 0.06102556 0.055045366
0.034770455 0.06102556 0.055045366
0.057153594 0.06102556 0.055045366
0.079536736 0.06102556 0.055045366
0.10192922 0.061027862 0.055349112
0.12436394 0.061037682 0.056628585
0.14681841 0.061047591 0.057908893
0.16929267 0.061057508 0.059190631
0.1917887 0.061067514 0.060505748
0.21432953 0.061080389 0.062175035
-0.23477687 0.061111912 0.066260219
0.23716389 0.061119996 0.067323685
0.26081535 0.038642354 0.081185937
-0.12375693 0.084023863 0.094999671
-0.10101567 0.084003523 0.093686223
-0.078329012 0.084000602 0.093489408
-0.055649932 0.084000602 0.093489408
-0.032970846 0.084000602 0.093489408
-0.010291765 0.084000602 0.093489408
0.012387317 0.084000602 0.093489408
0.035066396 0.084000602 0.093489408
0.057745479 0.084000602 0.093489408
0.080424562 0.084000602 0.093489408
0.10311475 0.084006101 0.093850493
0.12584782 0.084026493 0.095180392
-0.28406042 0.015838748 0.10967398
-0.23814018 0.084192768 0.10597932
-0.21495681 0.084111199 0.10067701
-0.19210593 0.084085271 0.098996401
-0.16930135 0.084064543 0.097646594
-0.14651847 0.084044017 0.096314192
0.14860064 0.084046885 0.096495152
0.17137466 0.084067419 0.097827435
0.19417027 0.084088042 0.099177361
0.21703474 0.084119707 0.10122132
0.24022371 0.084209681 0.107072
-0.33074379 -0.14436086 0.11899281
0.33288968 -0.14450181 0.1212815
-0.26235679 0.06153781 0.12158251
-0.33272514 -0.1684252 0.13615191
0.33483842 -0.16864762 0.13936353
0.26593822 0.061692383 0.14168394
-0.21804307 0.10777149 0.14076889
-0.19485696 0.1077238 0.13870382
-0.17174444 0.10769181 0.13731742
-0.14865424 0.10766023 0.13594913
-0.12558515 0.10762857 0.13458216
-0.10253718 0.10759719 0.1332165
-0.079543978 0.10759088 0.13294673
-0.056561161 0.10759088 0.13294673
-0.033578333 0.10759088 0.13294673
-0.010595508 0.10759088 0.13294673
0.012387317 0.10759088 0.13294673
0.035370141 0.10759088 0.13294673
0.058352966 0.10759088 0.13294673
0.081335798 0.10759088 0.13294673
0.10433263 0.10760136 0.13340199
0.12737088 0.10763256 0.13475096
0.15043074 0.10766403 0.13611817
0.17351262 0.10769598 0.13750339
0.19661592 0.10772808 0.13888991
0.21981342 0.10778446 0.1413281
-0.24159633 0.10791069 0.14679432
0.243368 0.10793655 0.14791715
-0.10410075 0.13183282 0.17383897
-0.080791935 0.13182154 0.1734755
-0.057497125 0.13182154 0.1734755
-0.034202311 0.13182154 0.1734755
-0.010907497 0.13182154 0.1734755
0.012387317 0.13182154 0.1734755
0.035682131 0.13182154 0.1734755
0.058976945 0.13182154 0.1734755
0.082271755 0.13182154 0.1734755
0.10558364 0.13183874 0.17402971
-0.26813096 0.085395426 0.18408954
-0.24515064 0.13229255 0.18876863
-0.22121428 0.13208306 0.18196428
-0.19768301 0.13200699 0.17949438
-0.17425412 0.13196301 0.17806995
-0.15084821 0.13191983 0.17666411
-0.12746318 0.13187605 0.17524207
0.12893605 0.13188136 0.17541552
0.15231149 0.13192509 0.17683744
0.17570889 0.13196893 0.1782608
0.19912827 0.13201277 0.17968559
0.22266738 0.13210019 0.18252146
0.24660161 0.13232806 0.18992329
0.27127981 0.085713781 0.20476496
-0.2005872 0.1569616 0.22141254
-0.1768332 0.15690517 0.21994853
-0.15310277 0.15684955 0.21850359
-0.12939383 0.15679327 0.21704221
-0.10570745 0.15673721 0.21558225
-0.082074255 0.15671936 0.2151196
-0.058458854 0.15671936 0.2151196
-0.034843467 0.15671936 0.2151196
-0.011228075 0.15671936 0.2151196
0.012387317 0.15671936 0.2151196
0.03600271 0.15671936 0.2151196
0.059618101 0.15671936 0.2151196
0.083233491 0.15671936 0.2151196
0.10686861 0.15674402 0.21576023
0.13054514 0.15680021 0.21722043
0.15424421 0.15685645 0.21868193
0.17796585 0.15691274 0.22014475
-0.24880584 0.15736654 0.23193467
-0.22447401 0.15707305 0.22430933
0.2017101 0.15696912 0.22160912
0.22560221 0.15709507 0.22488213
-0.27407742 0.11025861 0.24846196
0.27484304 0.11022116 0.24684489
0.25065675 0.15777713 0.24260116
-0.22781749 0.18276525 0.26774228
-0.20356645 0.18261151 0.26441431
-0.17947888 0.18254194 0.26290894
-0.15541553 0.18247339 0.26142347
-0.13137516 0.18240498 0.25993907
-0.10735768 0.18233643 0.25845647
-0.083391219 0.18231022 0.25788951
-0.059446584 0.18231022 0.25788951
-0.035501949 0.18231022 0.25788951
-0.011557316 0.18231022 0.25788951
0.012387317 0.18231022 0.25788951
0.036331952 0.18231022 0.25788951
0.060276583 0.18231022 0.25788951
0.084221214 0.18231022 0.25788951
0.10818894 0.18234484 0.25863934
0.13219643 0.18241329 0.26012242
0.15622681 0.18248188 0.26160681
0.18028112 0.18255128 0.26311076
0.20435753 0.18262011 0.26459813
0.22860992 0.18279071 0.26829469
-0.27777547 0.13536339 0.28849447
0.27823094 0.13531278 0.28685403
-0.25351787 0.18368159 0.28758085
0.25560495 0.18457308 0.30688024
-0.23123485 0.20917791 0.31213498
-0.20660798 0.2089721 0.30831516
-0.18218099 0.20888968 0.30678594
-0.15777762 0.20880736 0.30525827
-0.13339786 0.20872514 0.3037318
-0.10904165 0.20864289 0.30220711
-0.084735572 0.20860745 0.30154884
-0.060454857 0.20860745 0.30154884
-0.03617413 0.20860745 0.30154884
-0.011893407 0.20860745 0.30154884
0.012387317 0.20860745 0.30154884
0.03666804 0.20860745 0.30154884
0.060948763 0.20860745 0.30154884
0.085229486 0.20860745 0.30154884
0.10953628 0.20865308 0.30239546
0.13388222 0.20873535 0.30392039
0.1582517 0.20881753 0.30544674
0.18264475 0.20889978 0.30697465
0.2070626 0.20898336 0.30852294
0.2317142 0.20922993 0.31310117
-0.28155077 0.16111651 0.32936335
-0.11077438 0.23570108 0.34722543
-0.086118221 0.23565349 0.34645152
-0.061491836 0.23565349 0.34645152
-0.03686545 0.23565349 0.34645152
-0.012239067 0.23565349 0.34645152
0.012387317 0.23565349 0.34645152
0.037013702 0.23565349 0.34645152
0.061640084 0.23565349 0.34645152
0.086266473 0.23565349 0.34645152
0.11092205 0.23571181 0.34739959
-0.25914004 0.21143247 0.3539753
-0.23478535 0.23638047 0.35825729
-0.20973776 0.23608688 0.35348952
-0.18496032 0.23598994 0.35191619
-0.16020717 0.23589325 0.35034466
-0.13547829 0.23579657 0.34877467
0.13561611 0.23580855 0.34896827
0.16033441 0.23590505 0.35053861
0.18507695 0.23600201 0.35211062
0.20984378 0.23609895 0.35368383
0.23492241 0.23645136 0.35940778
0.26088127 0.21258801 0.37542164
0.28710532 0.16351423 0.39165556
-0.11255655 0.26354137 0.39352703
-0.087541401 0.26348189 0.39267063
-0.062559217 0.26348189 0.39267063
-0.037577044 0.26348189 0.39267063
-0.012594864 0.26348189 0.39267063
0.012387317 0.26348189 0.39267063
0.037369497 0.26348189 0.39267063
0.062351678 0.26348189 0.39267063
0.087333858 0.26348189 0.39267063
0.11234854 0.26355511 0.39372623
-0.23845477 0.26440012 0.40592468
-0.21295828 0.26398805 0.39997399
-0.18782018 0.26387581 0.39835477
-0.16270709 0.26376376 0.39673746
-0.13761988 0.26365325 0.39514136
0.13740022 0.2636655 0.39532077
0.16247745 0.26377752 0.39693689
0.18757857 0.26388824 0.39853466
0.21272533 0.26402247 0.40047407
0.23822589 0.26448098 0.40708947
-0.26516494 0.24049845 0.42512608
-0.11439182 0.29220071 0.44120884
-0.089005679 0.29212484 0.44022477
-0.063657433 0.29212484 0.44022477
-0.038309183 0.29212484 0.44022477
-0.012960933 0.29212484 0.44022477
0.012387317 0.29212484 0.44022477
0.037735566 0.29212484 0.44022477
0.063083813 0.29212484 0.44022477
0.088432074 0.29212484 0.44022477
0.11381631 0.2922149 0.44139338
0.26638684 0.24184206 0.4469409
-0.19076416 0.29258174 0.44615889
-0.16528158 0.29245508 0.44451416
-0.13982345 0.29232699 0.44285035
0.13923754 0.29234275 0.44305575
0.16468349 0.29246935 0.44469905
0.19015595 0.29259756 0.44636464
-0.24331884 0.31991917 0.46911073
-0.21805209 0.32029054 0.47349679
0.21714512 0.32018435 0.47224236
0.24252285 0.31991917 0.46911073
-0.24331079 0.34548005 0.46900642
-0.2180492 0.34589106 0.47345483
0.21713996 0.34577131 0.47215879
0.24251564 0.34548005 0.46900642
-0.27020082 0.2955406 0.48459697
-0.24384014 0.29486984 0.47588253
-0.21851234 0.29519755 0.48013961
0.21756551 0.29511508 0.47906899
0.24299204 0.29486984 0.47588253
0.26950458 0.29575956 0.48744166
-0.26953739 0.32056707 0.47676229
0.26888913 0.3207944 0.47944689
-0.26953384 0.34619263 0.47672057
0.26889077 0.34644639 0.47946775
-0.27023467 0.37265027 0.48499703
-0.24384336 0.37174225 0.47592449
-0.21852833 0.37218732 0.48037052
0.21757329 0.37206948 0.47919488
0.24299493 0.37174225 0.47592449
0.26954353 0.37294543 0.48794794
-0.2716991 0.27107671 0.50229096
-0.24511366 0.39914367 0.49242628
-0.21973346 0.39971915 0.49776506
0.21860458 0.39952263 0.49594116
0.24413821 0.39914367 0.49242628
0.27090511 0.27130827 0.50563478
-0.27223161 0.40088457 0.50857973
0.27151707 0.40142411 0.51358473
-0.091562256 0.3245036 0.52325165
-0.06557487 0.3245036 0.52325165
-0.039587468 0.3245036 0.52325165
-0.013600076 0.3245036 0.52325165
0.012387317 0.3245036 0.52325165
0.038374707 0.3245036 0.52325165
0.064362101 0.3245036 0.52325165
0.090349495 0.3245036 0.52325165
-0.2495275 0.43151459 0.54976344
0.24811067 0.43151459 0.54976344
-0.093145624 0.35524109 0.5746733
-0.066762388 0.35524109 0.5746733
-0.040379155 0.35524109 0.5746733
-0.013995919 0.35524109 0.5746733
0.012387317 0.35524109 0.5746733
0.038770553 0.35524109 0.5746733
0.065153793 0.35524109 0.5746733
0.091537029 0.35524109 0.5746733
-0.094790682 0.38697079 0.62809777
-0.067996174 0.38697079 0.62809777
-0.041201685 0.38697079 0.62809777
-0.014407184 0.38697079 0.62809777
0.012387317 0.38697079 0.62809777
0.039181817 0.38697079 0.62809777
0.065976322 0.38697079 0.62809777
0.092770815 0.38697079 0.62809777
-0.20490834 0.41890976 0.67583215
-0.17783393 0.41908482 0.67745686
0.17542541 0.41906452 0.67726839
0.20251089 0.41888946 0.67564392
-0.20567779 0.39299819 0.6883266
-0.17849506 0.39313814 0.68972552
-0.15128972 0.39327592 0.69110191
-0.12406415 0.3934162 0.69250321
0.12154336 0.39339948 0.6923368
0.14877936 0.39326161 0.69095945
0.1759942 0.39312395 0.6895833
0.20318791 0.39298645 0.68820798
-0.15073459 0.41926008 0.67908323
-0.12361026 0.41943544 0.68071091
-0.096427456 0.41949406 0.68125367
-0.069223762 0.41949406 0.68125367
-0.042020068 0.41949406 0.68125367
-0.014816375 0.41949406 0.68125367
0.012387317 0.41949406 0.68125367
0.039591007 0.41949406 0.68125367
0.066794701 0.41949406 0.68125367
0.093998387 0.41949406 0.68125367
0.12117957 0.41941515 0.68052197
0.14831498 0.41923979 0.67889452
-0.20635721 0.33941615 0.6993587
-0.17907327 0.33950907 0.70045626
-0.1517736 0.33960408 0.70157838
-0.12445574 0.33969718 0.70267713
0.12185808 0.33968696 0.70255768
0.14918348 0.33959392 0.70145905
0.17649089 0.33949882 0.70033681
0.20378235 0.33940607 0.69923949
-0.20614885 0.36644667 0.69597542
-0.17889982 0.3665632 0.69723749
-0.15163033 0.36667755 0.69847679
-0.12434179 0.36679211 0.69971657
0.12176619 0.36677903 0.69957352
0.1490632 0.3666645 0.6983335
0.17634003 0.36654779 0.6970706
0.20359875 0.36643335 0.69583237
-0.20701574 0.45002306 0.71005189
-0.17947665 0.44977942 0.70794189
-0.15197456 0.44954705 0.70592988
-0.12450266 0.44931224 0.70389628
-0.097079039 0.44914117 0.70241427
-0.069712445 0.44914117 0.70241427
-0.042345859 0.44914117 0.70241427
-0.014979271 0.44914117 0.70241427
0.012387317 0.44914117 0.70241427
0.039753906 0.44914117 0.70241427
0.067120492 0.44914117 0.70241427
0.094487086 0.44914117 0.70241427
0.12190667 0.44933987 0.7041353
0.14936386 0.44957191 0.70614529
0.17685322 0.44980705 0.70818162
-0.2350377 0.45101738 0.71866274
0.20437923 0.45005354 0.71031594
0.23249155 0.45133781 0.72143757
-0.12710232 0.48500916 0.77143729
-0.099100515 0.48459366 0.7680639
-0.071219966 0.48454779 0.76769221
-0.043350875 0.48454779 0.76769221
-0.015481779 0.48454779 0.76769221
0.012387317 0.48454779 0.76769221
0.040256411 0.48454779 0.76769221
0.068125509 0.48454779 0.76769221
0.096012354 0.4846426 0.76846039
0.12399279 0.48506412 0.77188432
-0.21166027 0.48673755 0.78546989
-0.18339983 0.48615581 0.78074706
-0.15521267 0.48557568 0.77603638
0.15207505 0.48564324 0.77658403
0.18022908 0.48622048 0.78127134
0.20851259 0.48692879 0.78702176
-0.24232544 0.49146494 0.82385218
0.23957077 0.49300918 0.83638966
0 0 0 1 0 0 0 1 0 0 0 1 0 0 0 0 0 925 1 0 0
