ply
format ascii 1.0
comment PCL generated
element vertex 1348
property float x
property float y
property float z
element camera 0
property float view_px
property float view_py
property float view_pz
property float x_axisx
property float x_axisy
property float x_axisz
property float y_axisx
property float y_axisy
property float y_axisz
property float z_axisx
property float z_axisy
property float z_axisz
property float focal
property float scalex
property float scaley
property float centerx
property float centery
property int viewportx
property int viewporty
property float k1
property float k2
end_header
0.10643458 0.16114402 -0.13841176
-0.11461249 0.1859508 -0.13122165
0.10643458 0.18567404 -0.13841176
-0.11461315 0.21053711 -0.13120461
0.10643458 0.21020409 -0.13841176
0.10643458 0.23473418 -0.13841188
0.10643458 0.25926429 -0.13841176
0.10643458 0.28379431 -0.13841176
0.10643458 0.30832431 -0.13841176
0.10643458 0.33285427 -0.13841188
0.10643458 0.35738444 -0.13841176
0.10643458 0.38191447 -0.13841188
0.10643458 0.40644449 -0.138412
0.10643458 0.43097439 -0.13841176
0.10643406 0.45550239 -0.13842881
0.10643458 0.48003453 -0.13841176
0.10643406 0.5045622 -0.13842881
0.10643406 0.52909201 -0.13842881
0.10643406 0.55362207 -0.13842893
0.10643353 0.57814932 -0.13844585
-0.11461315 0.57931978 -0.13120449
0.10643353 0.60267901 -0.13844585
0.10643353 0.62720871 -0.13844573
-0.090222582 0.65424597 -0.12487352
0.10643301 0.65173542 -0.13846278
-0.090222582 0.67888016 -0.12487352
0.10643353 0.6762684 -0.13844585
-0.090223111 0.70351803 -0.12485623
0.10643406 0.70080131 -0.13842881
0.057468388 0.72660214 -0.13231409
0.10643406 0.72533131 -0.13842893
0.13225733 -0.40795904 -0.10482645
0.10735981 -0.3826803 -0.10836399
0.13188693 -0.38183701 -0.11444986
0.082517751 -0.35746154 -0.11185932
0.13186102 -0.35703444 -0.11512256
0.057729352 -0.33229536 -0.11536419
0.13186102 -0.33232504 -0.1151228
0.032995105 -0.30718607 -0.11884427
0.13186035 -0.30761373 -0.11513996
-0.016467726 -0.28392634 -0.10565948
0.13186102 -0.28290647 -0.11512291
-0.04119572 -0.2587921 -0.10917807
0.13186102 -0.25819713 -0.1151228
-0.065869719 -0.23371264 -0.11268878
0.13186102 -0.23348781 -0.11512268
-0.090702146 -0.20927164 -0.10929918
0.13186169 -0.20877999 -0.11510539
-0.11569063 -0.18498614 -0.10321105
-0.090393923 -0.1837469 -0.11930895
0.13186169 -0.18407047 -0.11510551
-0.11545629 -0.15976346 -0.10929906
0.13186169 -0.15936109 -0.11510551
-0.11545695 -0.13501033 -0.10928178
0.13186169 -0.13465172 -0.11510539
-0.11545695 -0.11025602 -0.1092819
0.13186234 -0.10994313 -0.11508822
-0.11545695 -0.085501768 -0.10928178
0.13186234 -0.085233547 -0.11508834
-0.11545695 -0.06074746 -0.10928178
0.13186234 -0.060523905 -0.11508822
-0.11545695 -0.035993204 -0.10928178
0.13186234 -0.035814315 -0.11508822
-0.11545695 -0.011238843 -0.10928178
0.131863 -0.011105262 -0.11507106
-0.11545695 0.013515308 -0.1092819
0.131863 0.013604432 -0.11507106
-0.11545695 0.038269669 -0.10928178
0.131863 0.038314126 -0.11507094
0.131863 0.063023925 -0.11507118
-0.11545629 0.063023977 -0.1092993
-0.11545695 0.087778181 -0.1092819
0.131863 0.087733671 -0.11507118
-0.11545695 0.11253248 -0.10928166
0.131863 0.11244336 -0.11507106
-0.11545695 0.1372868 -0.1092819
0.131863 0.13715316 -0.11507106
-0.11545629 0.16204052 -0.10929906
-0.09038651 0.16172482 -0.11954975
0.131863 0.16186285 -0.11507106
-0.13991913 0.18655191 -0.11560559
0.131863 0.18657255 -0.11507094
-0.13991997 0.21125838 -0.11558831
0.131863 0.21128213 -0.11507106
-0.11545629 0.23630303 -0.10929906
-0.09038651 0.2357505 -0.11954975
0.131863 0.23599193 -0.11507094
-0.11545629 0.26105705 -0.10929906
-0.09038651 0.26042587 -0.11954975
0.131863 0.26070157 -0.11507106
-0.11545629 0.28581122 -0.10929906
-0.09038651 0.28510115 -0.11954975
0.131863 0.28541133 -0.11507094
-0.11545629 0.31056547 -0.10929906
-0.09038651 0.30977625 -0.11954975
0.13186367 0.31012243 -0.11505377
-0.11545629 0.33531946 -0.10929906
-0.09038651 0.33445168 -0.11954975
0.13186367 0.33483237 -0.11505377
-0.11545629 0.36007372 -0.10929906
-0.09038651 0.35912684 -0.11954975
0.131863 0.35954055 -0.11507094
-0.11545629 0.38482791 -0.10929918
-0.09038651 0.38380194 -0.11954975
0.131863 0.38425016 -0.11507094
-0.11545629 0.40958196 -0.10929906
-0.09038651 0.40847737 -0.11954975
0.13186367 0.4089618 -0.11505377
-0.11545629 0.4343361 -0.10929906
-0.09038651 0.43315247 -0.11954963
0.13186367 0.43367156 -0.11505377
-0.11545629 0.45909026 -0.10929906
-0.09038651 0.45782766 -0.11954975
0.13186367 0.4583815 -0.11505377
-0.11545629 0.48384434 -0.10929906
-0.09038651 0.48250309 -0.11954975
0.13186367 0.48309126 -0.11505377
-0.09038651 0.50717819 -0.11954963
0.13186234 0.50779647 -0.11508822
-0.11545629 0.50859851 -0.10929906
-0.11545629 0.53335285 -0.10929906
-0.09038651 0.53185338 -0.11954975
0.13186234 0.53250611 -0.11508834
-0.11545629 0.55810678 -0.10929918
-0.09038651 0.55652863 -0.11954975
0.131863 0.55721813 -0.11507094
-0.13991913 0.58184141 -0.11560559
0.13186234 0.58192521 -0.11508811
-0.11545629 0.60761523 -0.10929906
0.13186234 0.60663486 -0.11508811
-0.11545762 0.63237554 -0.10926449
-0.09038651 0.63055432 -0.11954975
0.13186234 0.63134432 -0.11508822
-0.11545629 0.65712333 -0.10929906
0.13186169 0.65605074 -0.11510551
-0.11545563 0.68187428 -0.10931647
0.13186169 0.68076026 -0.11510539
-0.11545629 0.70663172 -0.10929918
0.13186234 0.70547312 -0.11508822
0.03308659 0.73187196 -0.10696018
0.13186234 0.73018265 -0.11508834
0.13186234 0.75489229 -0.11508834
0.15771198 -0.43496794 -0.090404987
0.10798676 -0.41041949 -0.088003516
0.15766752 -0.40992743 -0.091368318
0.2567037 -0.40891564 -0.098285675
0.28129637 -0.40849039 -0.10119402
0.082986526 -0.3850086 -0.091560721
0.15766427 -0.38502559 -0.091438293
0.058041453 -0.35965574 -0.095092654
0.15766427 -0.36013395 -0.091438174
0.033150814 -0.33435813 -0.098616838
0.15766427 -0.33524227 -0.091438174
-0.016624724 -0.31106353 -0.085264683
0.0083144382 -0.30911365 -0.10215068
0.15766427 -0.31035069 -0.091438293
-0.041509029 -0.28574029 -0.088827968
0.15766507 -0.28546083 -0.09142065
-0.066339061 -0.26047456 -0.092365742
0.15766507 -0.26056919 -0.09142065
-0.09111432 -0.23526239 -0.095913291
0.15766507 -0.23567736 -0.09142077
-0.11607978 -0.21064341 -0.093100309
0.15766507 -0.2107856 -0.09142065
-0.14124265 -0.18623793 -0.08695066
0.15766588 -0.1858952 -0.091403246
-0.14093602 -0.16085169 -0.093589902
0.15766588 -0.16100335 -0.091403127
-0.14093682 -0.13597769 -0.093572378
0.15766588 -0.13611132 -0.091403246
-0.14093682 -0.11110248 -0.093572378
0.15766668 -0.11122037 -0.091385722
-0.14093682 -0.08622738 -0.093572378
0.15766668 -0.086328276 -0.091385722
-0.14093682 -0.061352171 -0.093572378
0.15766668 -0.061436206 -0.091385841
-0.14093682 -0.036476962 -0.093572378
0.15766588 -0.036543757 -0.091403246
-0.14093682 -0.011601701 -0.093572378
0.15766752 -0.011652626 -0.091368198
-0.14093682 0.013273455 -0.093572378
0.15766752 0.013239555 -0.091368079
-0.14093682 0.038148664 -0.093572378
0.15766752 0.038131684 -0.091368079
-0.14093602 0.063023925 -0.093590021
0.15766752 0.063023925 -0.091368079
-0.14093682 0.087899186 -0.093572378
0.15766668 0.087915897 -0.091385603
-0.14093682 0.11277439 -0.093572497
0.15766668 0.11280797 -0.091385603
-0.14093682 0.1376496 -0.093572378
0.15766668 0.13770005 -0.091385603
-0.14118513 0.16269037 -0.088196516
0.15766668 0.16259214 -0.091385722
-0.16547355 0.18715823 -0.099853635
0.15766668 0.1874841 -0.091385841
0.15766668 0.21237612 -0.091385603
-0.14118513 0.23744014 -0.088196397
0.15766668 0.23726815 -0.091385841
-0.14118513 0.26235664 -0.088196516
0.15766752 0.2621614 -0.09136796
-0.14118513 0.28727326 -0.088196635
0.15766752 0.2870537 -0.091368198
-0.14118513 0.31218979 -0.088196516
0.15766752 0.31194583 -0.091368079
-0.14118513 0.3371065 -0.088196516
0.15766752 0.33683801 -0.091368079
-0.14118513 0.36202309 -0.088196516
0.15766668 0.36172849 -0.091385603
-0.14118513 0.38693967 -0.088196516
0.15766668 0.38662052 -0.091385722
-0.14118513 0.41185638 -0.088196516
0.15766752 0.41151434 -0.091368198
-0.14118513 0.4367727 -0.088196516
0.15766752 0.43640655 -0.091368198
-0.14118513 0.46168938 -0.088196516
0.15766752 0.46129876 -0.091368318
-0.14118513 0.48660609 -0.088196516
0.15766752 0.48619097 -0.091368198
-0.14118513 0.51152253 -0.088196516
0.15766752 0.51108307 -0.091368198
-0.14118513 0.53643918 -0.088196516
0.15766752 0.53597528 -0.091368198
-0.14118513 0.56135589 -0.088196516
0.15766588 0.56086206 -0.091403246
-0.1654745 0.58439082 -0.09983623
0.15766507 0.58575118 -0.091420889
-0.14118513 0.61118913 -0.088196516
0.15766588 0.61064595 -0.091403246
-0.14093682 0.63515389 -0.093572378
0.15766588 0.63553774 -0.091403008
-0.14093602 0.66002584 -0.093589783
0.15766588 0.66042984 -0.091403246
-0.14093521 0.6848973 -0.093607306
0.15766507 0.68531829 -0.09142065
-0.14093602 0.70977575 -0.093589902
0.15766668 0.71021706 -0.091385603
0.15766668 0.73510903 -0.091385603
0.10756239 0.75775945 -0.10178554
0.15766668 0.76000118 -0.091385603
0.15815258 -0.46140957 -0.08086586
0.13304137 -0.43588379 -0.084456205
0.083461672 -0.41290849 -0.07098639
0.23283023 -0.41095376 -0.084350824
0.058357522 -0.3873637 -0.074563384
0.033308372 -0.36187297 -0.078150034
0.0083144382 -0.33644038 -0.081711173
-0.04182633 -0.31303182 -0.06821847
-0.066813558 -0.28757331 -0.071819305
-0.091746137 -0.26217288 -0.075394511
-0.11662398 -0.23682824 -0.07896173
-0.14171439 -0.21202898 -0.076737523
-0.16705394 -0.18750229 -0.070525289
-0.16666591 -0.16195077 -0.077726364
-0.16666687 -0.13695475 -0.077708721
-0.16666687 -0.11195738 -0.07770884
-0.16666687 -0.086959995 -0.07770884
-0.16666687 -0.061962776 -0.07770884
-0.16666687 -0.036965393 -0.07770896
-0.16666687 -0.011968121 -0.077708721
-0.16666687 0.01302921 -0.07770884
-0.16666687 0.038026541 -0.07770884
-0.16666687 0.063023873 -0.077708721
-0.16666591 0.08802104 -0.077726364
-0.16666687 0.11301863 -0.077708721
-0.16666687 0.13801596 -0.077708602
-0.1669575 0.16317928 -0.072315454
-0.21734363 0.18838951 -0.067863345
-0.19128114 0.18777111 -0.083928466
-0.1669575 0.21325701 -0.072315454
-0.1669575 0.23829582 -0.072315335
-0.1669575 0.26333466 -0.072315454
-0.1669575 0.28837347 -0.072315335
-0.1669575 0.3134124 -0.072315454
-0.1669575 0.33845121 -0.072315216
-0.1669575 0.36349013 -0.072315454
-0.1669575 0.38852888 -0.072315216
-0.1669575 0.41356787 -0.072315454
-0.1669575 0.43860662 -0.072315216
-0.16695654 0.46364337 -0.072333217
-0.16695654 0.48868191 -0.072333217
-0.16695654 0.51372075 -0.072333097
-0.16695654 0.53875941 -0.072333097
-0.16695654 0.56379819 -0.072333097
-0.21734485 0.5895623 -0.067845702
-0.19128114 0.58696228 -0.083928704
-0.16695654 0.61387545 -0.072333217
-0.16666687 0.63796246 -0.077708721
-0.16666591 0.66295666 -0.077726483
-0.16666591 0.68795377 -0.077726364
-0.16666591 0.71295106 -0.077726364
0.0083144382 0.73718566 -0.081394196
0.083341502 0.76327658 -0.076189756
0.15861708 0.78948671 -0.070809007
0.18443611 -0.5156616 -0.056545973
0.15910757 -0.48988414 -0.06019032
0.18392777 -0.48890364 -0.065979719
0.13383678 -0.46416986 -0.063790917
0.18387604 -0.46366096 -0.066939592
0.083942898 -0.44116586 -0.050148487
0.10862168 -0.43851227 -0.067383766
0.18385211 -0.43851227 -0.067383766
0.058677636 -0.41542646 -0.053771257
0.18385211 -0.41343546 -0.067383766
0.033468075 -0.38974151 -0.057404041
0.18385211 -0.38835859 -0.067383766
0.0083144382 -0.3641158 -0.061011076
0.18385211 -0.36328179 -0.067383766
-0.016783588 -0.33854449 -0.064627767
0.18385211 -0.33820504 -0.067383766
-0.067294538 -0.31502092 -0.050992131
0.18385211 -0.31312826 -0.067383885
-0.092386037 -0.2894277 -0.054613233
0.18385306 -0.28805339 -0.067366004
-0.11742141 -0.26388925 -0.05824399
0.18385306 -0.26297638 -0.067365885
-0.14240289 -0.23841074 -0.061831236
0.18385306 -0.23789948 -0.067366004
-0.1676099 -0.21342853 -0.060208321
0.18385306 -0.21282256 -0.067366004
-0.19312954 -0.18878102 -0.053914666
0.18385401 -0.18774691 -0.067348123
-0.19264969 -0.16306067 -0.061706543
0.18385401 -0.16266987 -0.067348361
-0.19265079 -0.13794133 -0.061688542
0.18385401 -0.13759273 -0.067348242
-0.19265079 -0.11282056 -0.061688662
0.18385401 -0.11251568 -0.067348242
-0.19265079 -0.087699942 -0.061688542
0.183855 -0.08743941 -0.06733048
-0.19265079 -0.062579326 -0.061688542
0.183855 -0.062362142 -0.06733048
-0.19265079 -0.037458703 -0.061688542
0.18385401 -0.03728433 -0.067348123
-0.19265079 -0.012338035 -0.061688542
0.183855 -0.012207694 -0.06733048
-0.19265079 0.012782581 -0.061688542
0.183855 0.012869373 -0.06733048
-0.19265079 0.037903361 -0.061688662
0.183855 0.037946701 -0.06733048
-0.19265187 0.063023873 -0.061670661
0.183855 0.063024029 -0.06733048
-0.19264969 0.088144436 -0.061706305
0.183855 0.088101089 -0.06733048
-0.19265079 0.11326522 -0.061688542
0.183855 0.11317842 -0.06733048
-0.19265079 0.13838589 -0.061688542
0.183855 0.13825554 -0.06733048
-0.19264859 0.16350555 -0.061724186
0.183855 0.16333282 -0.06733048
-0.24366716 0.18901476 -0.051620007
0.183855 0.18841013 -0.06733048
-0.19264859 0.21374619 -0.061724186
0.183855 0.21348715 -0.06733048
-0.19264859 0.23886654 -0.061724186
0.183855 0.23856443 -0.067330599
-0.19264859 0.26398706 -0.061724186
0.18385401 0.2636407 -0.067348123
-0.19264859 0.28910726 -0.061724186
0.183855 0.28871897 -0.06733048
-0.19264859 0.31422767 -0.061724186
0.183855 0.31379625 -0.06733048
-0.19264859 0.33934808 -0.061724186
0.183855 0.33887327 -0.06733048
-0.19264859 0.36446851 -0.061724305
0.183855 0.36395061 -0.067330599
-0.19264859 0.38958883 -0.061724186
0.183855 0.38902777 -0.06733048
-0.19264969 0.41471109 -0.061706424
0.183855 0.41410515 -0.06733048
-0.19264969 0.4398317 -0.061706305
0.183855 0.4391821 -0.06733048
-0.19264969 0.46495217 -0.061706305
0.183855 0.46425945 -0.06733048
-0.19264969 0.49007267 -0.061706543
0.183855 0.48933673 -0.06733048
-0.19264969 0.51519328 -0.061706424
0.183855 0.51441395 -0.06733048
-0.19264969 0.54031366 -0.061706305
0.183855 0.53949118 -0.06733048
-0.19264969 0.56543416 -0.061706305
0.183855 0.56456828 -0.06733048
-0.24366716 0.59218532 -0.051620245
0.183855 0.58964556 -0.06733048
0.18385401 0.61471975 -0.067348123
-0.19264969 0.61567527 -0.061706305
-0.19265079 0.64079893 -0.061688542
0.18385211 0.63979053 -0.067383766
-0.19264969 0.66591626 -0.061706543
0.18385211 0.6648674 -0.067383766
-0.19264969 0.69103676 -0.061706305
0.18385306 0.68994772 -0.067366004
-0.19264969 0.7161572 -0.061706305
0.18385401 0.71502811 -0.067348003
0.18385401 0.74010527 -0.067348242
0.0587359 0.76892453 -0.04998672
0.18385401 0.76518232 -0.067348242
0.18385401 0.79025924 -0.067348242
0.21103734 -0.59582555 -0.033147216
0.2108922 -0.57003164 -0.035503864
0.18529707 -0.54377365 -0.040568709
0.21074727 -0.54427451 -0.037857294
0.16007644 -0.51873034 -0.039213419
0.21060255 -0.51855439 -0.040207267
0.13464239 -0.49281907 -0.042860389
0.21057478 -0.49319196 -0.040658712
0.10926419 -0.46696234 -0.046517611
0.21057698 -0.46791524 -0.040622592
0.059001591 -0.44384766 -0.032729745
0.21057698 -0.4426325 -0.040622592
0.033629827 -0.41796839 -0.036391258
0.21056807 -0.41732842 -0.040767193
0.0083144382 -0.3921468 -0.040044785
0.21057588 -0.39206424 -0.040640831
-0.016944628 -0.36638013 -0.043707967
0.21057588 -0.36678162 -0.040640593
-0.042147696 -0.34067309 -0.047345042
0.21057588 -0.34149888 -0.040640712
-0.093034171 -0.31703335 -0.033564448
0.21057478 -0.31621417 -0.040658712
-0.11822977 -0.29129985 -0.037242293
0.21057478 -0.29093152 -0.040658832
-0.14336994 -0.26562563 -0.040893674
0.21057478 -0.26564905 -0.040658832
-0.16845435 -0.24000829 -0.044536948
0.21057364 -0.24036479 -0.040676951
-0.19376919 -0.21484098 -0.043527722
0.21057364 -0.21508241 -0.040676951
-0.2194714 -0.19007146 -0.037151575
0.21057364 -0.18980011 -0.040676951
-0.21889111 -0.16418156 -0.045527577
0.21057251 -0.16451642 -0.040694952
-0.21889237 -0.13893771 -0.045509458
0.21057364 -0.13923529 -0.040676951
-0.21889237 -0.11369254 -0.045509577
0.21057364 -0.11395285 -0.040676832
-0.21889237 -0.088447206 -0.045509577
0.21057364 -0.088670485 -0.040676951
-0.21889237 -0.063202016 -0.045509696
0.21057251 -0.063387372 -0.040694952
-0.21889237 -0.037956789 -0.045509696
0.21057251 -0.038105115 -0.040694952
-0.21889237 -0.012711667 -0.045509458
0.21056917 -0.012821585 -0.040749311
-0.21889237 0.012533512 -0.045509577
0.21056917 0.012460306 -0.040749073
-0.21889359 0.037778534 -0.045491457
0.21056917 0.037742194 -0.040749192
-0.21889359 0.063023925 -0.045491457
0.21056917 0.063023925 -0.040749073
-0.21889111 0.088268891 -0.045527577
0.21057031 0.08830592 -0.040731192
-0.21889237 0.11351428 -0.045509577
0.21057031 0.11358797 -0.040731072
-0.21889237 0.13875952 -0.045509577
0.21057141 0.13887028 -0.040712953
-0.21926969 0.16417232 -0.040062666
0.21057251 0.16415296 -0.040694952
-0.27025303 0.18964553 -0.035232067
0.21057251 0.18943527 -0.040694952
-0.21926969 0.21474677 -0.040062785
0.21057364 0.2147184 -0.040676832
-0.21926969 0.24003375 -0.040062666
0.21057364 0.24000069 -0.040676832
-0.21926969 0.26532096 -0.040062785
0.21057478 0.26528412 -0.040658712
-0.21926969 0.29060805 -0.040062904
0.21057588 0.29056799 -0.040640593
-0.21926969 0.31589523 -0.040062666
0.21057588 0.31585068 -0.040640831
-0.21926969 0.34118238 -0.040062785
0.21057698 0.341135 -0.040622592
-0.21926969 0.36646941 -0.040062547
0.21057478 0.36641434 -0.040658593
-0.21926969 0.39175656 -0.040062785
0.21057478 0.39169702 -0.040658712
-0.21926969 0.41704386 -0.040062785
0.21057478 0.4169794 -0.040658832
-0.21926969 0.44233084 -0.040062547
0.21057478 0.44226196 -0.040658712
-0.21926969 0.46761793 -0.040062785
0.21057478 0.46754456 -0.040658832
-0.21926969 0.49290502 -0.040062785
0.21057478 0.49282715 -0.040658832
-0.21926969 0.51819223 -0.040062547
0.21057478 0.51810962 -0.040658712
-0.21926969 0.54347944 -0.040062785
0.21057478 0.54339218 -0.040658593
-0.21926969 0.56876653 -0.040062785
0.21057478 0.56867468 -0.040658832
-0.27025455 0.59483731 -0.035214067
0.21057478 0.59395725 -0.040658832
-0.21926969 0.61934084 -0.040062666
0.21057478 0.61923969 -0.040658832
-0.21889237 0.64366347 -0.045509577
0.21057478 0.64452231 -0.040658712
-0.21889237 0.6689086 -0.045509696
0.21057478 0.66980493 -0.040658832
-0.21889111 0.69415039 -0.045527577
0.21057478 0.69508749 -0.040658832
-0.21889111 0.71939558 -0.045527458
0.21057478 0.72037005 -0.040658593
0.21057478 0.74565244 -0.040658712
0.21057478 0.770935 -0.040658832
0.13457233 0.79531956 -0.044680953
0.21057478 0.79621762 -0.040658832
0.21162897 -0.62316257 -0.023540378
0.18647167 -0.59870291 -0.018770695
0.18587998 -0.57113874 -0.029751182
0.16076833 -0.54679161 -0.02423358
0.13545841 -0.52183831 -0.021659732
0.10991555 -0.49578214 -0.025364161
0.084430337 -0.46978742 -0.029042006
0.03379368 -0.4465608 -0.015106559
0.0083144382 -0.42053771 -0.01882565
-0.017107747 -0.39457542 -0.022518277
-0.042473212 -0.36867103 -0.02620244
-0.067781724 -0.34282228 -0.029896617
-0.11904859 -0.31906506 -0.015968442
-0.14435035 -0.29319394 -0.019667387
-0.16959465 -0.2673786 -0.023376107
-0.19478345 -0.24162292 -0.027058363
-0.22019845 -0.21626958 -0.02665782
-0.24608326 -0.19137377 -0.020234108
-0.24539402 -0.16531375 -0.029187322
-0.24539542 -0.13994393 -0.029169321
-0.24539542 -0.11457295 -0.029169321
-0.24539542 -0.089201994 -0.029169202
-0.24539542 -0.063831039 -0.029169321
-0.24539542 -0.038460076 -0.029169321
-0.24539542 -0.013089009 -0.029169321
-0.24539542 0.012281951 -0.029169321
-0.24539682 0.037652805 -0.029151082
-0.24539682 0.063023977 -0.029151082
-0.24539682 0.088395149 -0.029151082
-0.24539402 0.11376563 -0.02918756
-0.24539542 0.13913681 -0.029169321
-0.24539402 0.16450739 -0.029187322
-0.29710811 0.19028327 -0.018661022
-0.24539402 0.21524894 -0.02918756
-0.24539542 0.24062085 -0.029169321
-0.24539542 0.26599172 -0.029169321
-0.24539542 0.29136276 -0.029169202
-0.24539542 0.31673375 -0.029169321
-0.24539542 0.34210482 -0.029169202
-0.24539542 0.36747578 -0.029169321
-0.24539542 0.39284667 -0.029169321
-0.24539542 0.41821763 -0.029169202
-0.24539542 0.44358864 -0.029169321
-0.24539682 0.46896204 -0.029151082
-0.24539682 0.49433312 -0.029151082
-0.24539682 0.51970422 -0.029151082
-0.24539682 0.54507542 -0.029151082
-0.24539682 0.57044655 -0.029151082
-0.29710811 0.59751332 -0.018661022
-0.24539682 0.62118858 -0.029151082
-0.24539542 0.6465565 -0.029169321
-0.24539542 0.67192757 -0.029169083
-0.24539402 0.69729507 -0.02918756
-0.042430051 0.74807453 -0.029005766
0.033729035 0.77463263 -0.02350378
0.11014281 0.80127966 -0.017983675
0.21299222 -0.67893302 -0.0014042854
0.18766797 -0.65439022 0.0034296513
0.21230775 -0.65095276 -0.012518406
0.18706831 -0.62645537 -0.0076985359
0.16175446 -0.60188287 -0.0028829575
0.13639984 -0.57740301 0.0027990341
0.16125005 -0.57420784 -0.01380384
0.13599366 -0.54983628 -0.007753849
0.11057594 -0.52497971 -0.0039174557
0.084924094 -0.49878019 -0.0076618195
0.059330024 -0.4726398 -0.011397481
0.0083144382 -0.44930053 0.0026878119
-0.017272988 -0.42313728 -0.0010527372
-0.042802669 -0.39703009 -0.0048035383
-0.068275221 -0.37098411 -0.0085275173
-0.093690142 -0.34499437 -0.012261271
-0.14534265 -0.3211188 0.0018167496
-0.17075071 -0.29510635 -0.0019220114
-0.19610173 -0.26915225 -0.0056523085
-0.22139588 -0.24325642 -0.0093742609
-0.24690083 -0.21771279 -0.0096133947
-0.27297196 -0.19269097 -0.0031232834
-0.27216238 -0.16645703 -0.012683868
-0.27216393 -0.14096037 -0.012665391
-0.27216238 -0.11546128 -0.012683749
0.23840663 -0.1159367 -0.0038619041
-0.27216238 -0.089963414 -0.012683749
0.23840663 -0.090370841 -0.0038621426
-0.27216238 -0.064465515 -0.012683868
-0.27216238 -0.038967602 -0.012683868
-0.27216238 -0.013469748 -0.01268363
-0.27216238 0.012028161 -0.012683749
0.23840663 0.0118923 -0.0038620234
-0.27216548 0.037525751 -0.012647033
0.23840663 0.037458166 -0.0038620234
-0.27216548 0.063023977 -0.012647152
-0.27216548 0.088522151 -0.012647033
-0.27216238 0.11401963 -0.012683749
-0.27216393 0.13951802 -0.01266551
-0.27216393 0.16501608 -0.012665391
-0.32423326 0.19092688 -0.0019403696
-0.27216393 0.21601206 -0.01266551
-0.27216393 0.24151012 -0.012665272
-0.27216393 0.26700819 -0.012665272
-0.27216393 0.29250622 -0.01266551
-0.27216393 0.31800428 -0.01266551
-0.27216393 0.34350234 -0.012665272
-0.27216393 0.36900043 -0.012665272
-0.27216393 0.39449832 -0.012665391
-0.27216393 0.41999635 -0.012665272
-0.27216393 0.44549456 -0.01266551
-0.27216393 0.47099248 -0.01266551
-0.27216393 0.49649051 -0.01266551
-0.27216393 0.52198863 -0.012665272
-0.27216393 0.54748648 -0.012665391
-0.32453513 0.57510012 0.0010758638
-0.27216393 0.57298452 -0.012665272
-0.32423514 0.60021943 -0.0019220114
-0.27216393 0.6239807 -0.012665391
-0.27216393 0.64947861 -0.012665391
-0.27216393 0.67497677 -0.012665391
-0.27216238 0.70047122 -0.012683749
-0.068422213 0.75365388 -0.0021622181
0.0083144382 0.78043783 0.0034296513
0.23979154 -0.76000571 0.01612699
0.21437269 -0.7354517 0.021011829
0.23922065 -0.73231959 0.0078867674
0.21368012 -0.70709735 0.0097661018
0.23906741 -0.70615262 0.0056751966
0.18827164 -0.68251312 0.014632583
0.23906612 -0.68050921 0.0056568384
0.1627889 -0.65785688 0.01951313
0.23906356 -0.65486217 0.0056195259
0.16226995 -0.62977582 0.0082774162
0.23906356 -0.62922335 0.0056195259
0.13680789 -0.60514194 0.013400674
0.23906484 -0.60358828 0.0056381226
0.11129856 -0.58062685 0.0195508
0.23906612 -0.57795298 0.0056567192
0.11097092 -0.55291498 0.0089100599
0.23906484 -0.55231053 0.0056381226
0.085425161 -0.52815825 0.014035225
0.23906356 -0.52666831 0.0056195259
0.059663028 -0.50181061 0.010231733
0.23906356 -0.50102949 0.0056196451
0.033959664 -0.47552586 0.0064555407
0.23906356 -0.47539067 0.0056195259
-0.017440392 -0.45207268 0.020693421
0.23906484 -0.44975477 0.0056382418
-0.043136716 -0.42576197 0.016893387
-0.068775162 -0.39951372 0.01312089
0.23906484 -0.3984769 0.0056381226
-0.094355218 -0.37332204 0.0093379021
0.23906484 -0.37283796 0.0056381226
-0.11987808 -0.34719202 0.0055824518
0.23906484 -0.34719896 0.0056382418
-0.17192191 -0.32319683 0.019812822
0.23906484 -0.32155997 0.0056381226
-0.19743606 -0.29703942 0.016014814
0.23906484 -0.29592106 0.0056382418
-0.22289366 -0.27094334 0.012244344
0.23906484 -0.27028218 0.0056381226
-0.24829382 -0.24490601 0.0084819794
0.23906484 -0.2446433 0.0056382418
-0.27388063 -0.21917114 0.0076079369
0.23906484 -0.2190043 0.0056381226
-0.30014053 -0.19402188 0.014165878
0.23906484 -0.19336537 0.0056381226
-0.32651147 -0.1687786 0.020824552
-0.29920018 -0.16761199 0.0039862394
0.23906612 -0.1677278 0.0056568384
-0.32651332 -0.14302388 0.020843267
-0.29920188 -0.14198691 0.0040045977
0.23907256 -0.1420944 0.005749464
-0.32651147 -0.11726693 0.020824552
-0.29920018 -0.11635952 0.0039861202
-0.32651147 -0.091511093 0.020824552
-0.29920018 -0.090733282 0.003986001
-0.32651147 -0.065755256 0.020824552
-0.29920018 -0.065107204 0.0039861202
0.23906997 -0.065173678 0.0057125092
-0.32651147 -0.039999478 0.020824671
-0.29920018 -0.039480969 0.003986001
0.23906741 -0.039533012 0.0056753159
-0.32651147 -0.01424364 0.020824552
-0.29920018 -0.013854675 0.003986001
0.23906741 -0.013893723 0.0056753159
-0.32651147 0.011512198 0.020824552
-0.29920018 0.0117714 0.0039862394
-0.32651523 0.037267767 0.020862103
-0.29920357 0.037397474 0.0040231943
-0.29920357 0.063023873 0.0040231943
0.23907256 0.063023873 0.0057497025
-0.32651523 0.063023977 0.020862103
-0.32651523 0.088780075 0.020862103
-0.29920357 0.08865048 0.0040231943
0.23907256 0.088663742 0.0057495832
-0.32651523 0.11453613 0.020862103
-0.29920188 0.11427666 0.0040045977
0.23907128 0.11430329 0.0057311058
-0.32651147 0.14029144 0.020824552
-0.29920018 0.13990253 0.003986001
0.23906997 0.13994238 0.0057125092
-0.32651332 0.16604786 0.020843267
-0.29971004 0.16569874 0.0095055103
0.23906997 0.16558191 0.0057125092
-0.3516342 0.19157711 0.014949918
0.23906997 0.19122154 0.0057125092
-0.32651523 0.21756053 0.020862103
-0.29971004 0.21703619 0.0095055103
0.23906997 0.21686098 0.0057125092
-0.32651523 0.24331686 0.020862103
-0.29971004 0.24270499 0.0095056295
0.23906612 0.24249756 0.0056568384
-0.32651523 0.26907295 0.020862103
-0.29971004 0.26837349 0.0095053911
0.23906741 0.26813769 0.0056751966
-0.29971004 0.29404223 0.0095055103
0.23906741 0.29377696 0.0056753159
-0.32651523 0.29482901 0.020862103
-0.32651523 0.32058534 0.020862103
-0.29971004 0.31971097 0.0095055103
0.23906741 0.31941622 0.0056753159
-0.32651523 0.34634122 0.020862222
-0.29971004 0.34537968 0.0095055103
0.23906612 0.34505379 0.0056568384
-0.32651523 0.37209737 0.020861983
-0.29971004 0.37104836 0.0095055103
0.23917297 0.37083542 0.0071989298
-0.32651523 0.39785373 0.020862103
-0.29971004 0.39671719 0.0095055103
0.23912919 0.39642304 0.0065671206
-0.32651523 0.42360967 0.020862103
-0.29971004 0.42238587 0.0095055103
0.23908541 0.42200109 0.0059353113
-0.32651523 0.44936582 0.020862103
-0.29971004 0.44805461 0.0095055103
0.23907384 0.44762298 0.0057680607
-0.32651523 0.47512195 0.020862222
-0.29971004 0.47372317 0.0095055103
0.23907384 0.47326297 0.0057681799
-0.32651523 0.5008781 0.020862103
-0.29971004 0.49939191 0.0095055103
0.23907384 0.49890274 0.0057682991
-0.29971004 0.52506053 0.0095055103
0.23907384 0.52454281 0.0057681799
-0.32651523 0.52663416 0.020862222
-0.32651332 0.55238748 0.020843387
-0.29971004 0.55072927 0.0095055103
0.23907256 0.55017996 0.005749464
-0.3516362 0.5772391 0.014968872
-0.29971004 0.57639807 0.0095055103
0.23907256 0.57581973 0.005749464
-0.3516362 0.60294986 0.014968634
0.23907256 0.60145944 0.0057495832
-0.32651332 0.6296556 0.020843387
-0.29971004 0.6277355 0.0095055103
0.23907256 0.62709934 0.005749464
-0.32651523 0.65541488 0.020862222
-0.29920357 0.65243351 0.0040234327
0.23907256 0.65273911 0.0057495832
-0.32651332 0.68116754 0.020843267
-0.29920188 0.6780566 0.0040047169
0.23907256 0.67837882 0.0057495832
-0.29920018 0.70367926 0.0039861202
-0.32651332 0.70692354 0.020843387
0.23907256 0.70401871 0.005749464
0.23907256 0.72965848 0.0057495832
0.23907128 0.7552945 0.0057311058
0.23907128 0.78093404 0.0057311058
0.085309379 0.80730832 0.009021759
0.23907128 0.80657357 0.0057311058
0.24136236 -0.81737936 0.03880012
0.24057364 -0.78859311 0.027415752
0.21506995 -0.76399803 0.032333851
0.18949232 -0.73933518 0.037285328
0.1888794 -0.71082598 0.025911212
0.16331136 -0.6861279 0.03082478
0.13766822 -0.66135722 0.035753012
0.13723156 -0.63312846 0.024407864
0.11162889 -0.60851997 0.030278325
0.085943744 -0.58388686 0.03649044
0.085695088 -0.55602121 0.025723338
0.059997212 -0.5313279 0.03193748
0.034127824 -0.50487065 0.028300524
0.0083144382 -0.47844321 0.02450192
-0.043475449 -0.45487493 0.038894773
-0.069281675 -0.42841816 0.035053492
-0.095029041 -0.40202171 0.031221032
-0.12071844 -0.3756879 0.027415991
-0.14634883 -0.34941146 0.023600698
-0.19878912 -0.32529521 0.037985682
-0.22441238 -0.29899561 0.034165263
-0.24997607 -0.27275366 0.030334711
-0.27548307 -0.24657321 0.026531816
-0.30114219 -0.22064459 0.025009036
-0.32759342 -0.19536668 0.03163588
-0.35414946 -0.16998863 0.038288713
-0.35410252 -0.14407146 0.037853122
-0.35410458 -0.1181856 0.037872076
-0.35410458 -0.092298515 0.037872076
-0.3541005 -0.066409998 0.037834287
-0.3541005 -0.040523082 0.037834167
-0.3541005 -0.014636368 0.037834167
-0.35410252 0.011250079 0.037853122
-0.35410252 0.037137002 0.03785336
-0.35410252 0.063023925 0.037853241
-0.35410458 0.088911057 0.037872195
-0.35410458 0.11479808 0.037872195
-0.3541005 0.14068432 0.037834167
-0.3541005 0.16657104 0.037834167
-0.3541005 0.21834466 0.037834048
-0.3541005 0.24423137 0.037834167
-0.3541005 0.27011809 0.037834167
-0.3541005 0.29600486 0.037834406
-0.3541005 0.32189173 0.037834167
-0.3541005 0.34777844 0.037834167
-0.35410252 0.373667 0.037853122
-0.35410252 0.39955392 0.03785336
-0.35410252 0.42544097 0.03785336
-0.35410252 0.45132777 0.037853122
-0.35410252 0.47721469 0.037853241
-0.35410252 0.50310165 0.03785336
-0.35410252 0.5289886 0.037853122
-0.35410252 0.55487543 0.03785336
-0.35410252 0.63253617 0.03785336
-0.35410458 0.65842646 0.037872195
-0.35410458 0.68431354 0.037872195
-0.35410252 0.71019703 0.03785336
-0.094840661 0.75932074 0.025103211
-0.017518092 0.78633469 0.03078723
0.060067311 0.81344044 0.03649056
0.21647987 -0.82167906 0.055228114
0.26837698 -0.82118863 0.053354502
0.21577308 -0.79274297 0.043751597
0.26837993 -0.79519218 0.053392529
0.19010836 -0.76803398 0.048717737
0.26838285 -0.76919514 0.053431153
0.16436785 -0.74325192 0.053698301
0.26838139 -0.74318367 0.053411841
0.16383827 -0.71459514 0.042232275
0.26837993 -0.71717256 0.053392768
0.13810858 -0.68978214 0.047194004
0.26837847 -0.69116163 0.053373694
0.11230299 -0.66489577 0.052170157
0.26837847 -0.66515529 0.053373694
0.11196076 -0.63658869 0.041055918
0.26837847 -0.63914883 0.053373575
0.086193569 -0.61192846 0.047308207
0.26837847 -0.61314255 0.053373694
0.060330477 -0.58717656 0.05358386
0.26837698 -0.58713245 0.053354502
0.26837698 -0.56112617 0.053354502
0.060163312 -0.55916256 0.04272604
0.03428705 -0.53434622 0.048984647
0.26837847 -0.53512329 0.053373694
0.0083144382 -0.50796717 0.046584845
0.26837698 -0.50911379 0.05335474
-0.017609999 -0.48138916 0.04272604
0.26838139 -0.48311669 0.053411841
0.26838285 -0.45711285 0.053430915
-0.095712341 -0.43110329 0.053411841
-0.12156991 -0.40455973 0.04953742
0.26838285 -0.4050993 0.053431034
-0.14736822 -0.37807697 0.045671582
0.26838285 -0.37909237 0.053431034
-0.17310855 -0.35165709 0.041833639
0.26838285 -0.35308546 0.053431034
-0.22595119 -0.3274188 0.056376219
0.26838285 -0.32707873 0.053431034
-0.25168192 -0.30097103 0.052495122
0.26838285 -0.30107191 0.053431034
-0.27735528 -0.27458569 0.048641562
0.26838285 -0.275065 0.053431034
-0.30296835 -0.24825889 0.044777751
0.26838285 -0.24905813 0.053431034
-0.32868803 -0.22213191 0.042574048
0.26838285 -0.22305137 0.053431034
-0.35533503 -0.19672573 0.049289465
0.26838285 -0.19704443 0.053431034
0.26838285 -0.17103764 0.053430915
0.26838285 -0.14503074 0.053430915
0.26838285 -0.119024 0.053431034
0.26838285 -0.093017079 0.053431034
0.2683858 -0.067011751 0.053469181
0.26838434 -0.04100398 0.053449988
0.26838434 -0.014997005 0.053450108
0.26838285 0.011010237 0.053431034
0.26838285 0.037017055 0.053431034
0.26838285 0.063023977 0.053430915
0.26838285 0.089030683 0.053431034
0.26838285 0.11503761 0.053431034
0.26838285 0.14104442 0.053431034
0.26838434 0.16705176 0.053450227
0.26838434 0.19305891 0.053450108
0.26838434 0.21906587 0.053450108
0.26838434 0.24507281 0.053450108
0.26838434 0.27107984 0.053450227
0.26838434 0.29708681 0.053450227
0.26838434 0.32309383 0.053450227
0.26838726 0.34910411 0.053488374
0.2683858 0.37510949 0.053469181
0.26838285 0.40111285 0.053431034
0.26838434 0.42712191 0.053449988
0.26838139 0.45312443 0.053411961
0.26838139 0.47913098 0.053411841
0.26838139 0.5051378 0.053411961
0.26838139 0.53114444 0.053411961
0.26838139 0.5571512 0.053411841
0.26838285 0.58316082 0.053431034
0.26838285 0.60916758 0.053431034
0.26838285 0.63517439 0.053431034
0.26838285 0.66118139 0.053431034
0.26838285 0.68718815 0.053430915
0.26838285 0.71319503 0.053431034
0.26838139 0.73919797 0.053411961
-0.12169697 0.7650857 0.052838802
0.26838139 0.76520473 0.053411841
0.26837993 0.79120731 0.053392887
0.26837993 0.81721371 0.053392887
0.19135311 -0.82602102 0.071817517
0.19072863 -0.79692858 0.060228109
0.16490108 -0.7721048 0.065243244
0.1389969 -0.74720728 0.070272803
0.13855124 -0.71839696 0.058694124
0.11265814 -0.69346803 0.063704371
0.086698517 -0.66856074 0.069173098
0.086445451 -0.6401552 0.058215022
0.060499024 -0.6153757 0.064531207
0.034455538 -0.59050345 0.070871234
0.034371097 -0.56233585 0.059902072
0.0083144382 -0.53739858 0.066224694
-0.017782001 -0.51109773 0.065070033
-0.043818373 -0.48437059 0.061168551
-0.069794893 -0.45770496 0.057276249
-0.12243267 -0.43381506 0.071952701
-0.14840207 -0.40712553 0.068054795
-0.17431089 -0.38049474 0.064146757
-0.20016009 -0.35392511 0.060247421
-0.25341052 -0.32956353 0.074949861
-0.27925235 -0.30297026 0.071045041
-0.30503315 -0.27643591 0.06712997
-0.33075646 -0.24996459 0.063243151
-0.35652632 -0.22363672 0.060343385
-0.38337001 -0.19809902 0.06712997
-0.38291457 -0.17171338 0.063185334
-0.38291457 -0.14563158 0.063185215
-0.38291457 -0.11954967 0.063185453
-0.38291678 -0.093468539 0.063204527
-0.38291678 -0.067386501 0.063204527
-0.38291678 -0.041304402 0.063204646
-0.38291678 -0.015222356 0.063204646
-0.38291678 0.010859843 0.063204527
-0.38291457 0.03694199 0.063185453
-0.38291457 0.063023925 0.063185334
-0.38291457 0.089105859 0.063185215
-0.38291457 0.11518779 0.063185453
-0.38291457 0.14126968 0.063185453
-0.38291457 0.1673516 0.063185215
-0.38291457 0.19343364 0.063185453
-0.38291457 0.21951547 0.063185215
-0.38291457 0.24559745 0.063185453
-0.38291457 0.27167934 0.063185453
-0.38291457 0.29776123 0.063185334
-0.38291457 0.32384333 0.063185453
-0.38291678 0.34992674 0.063204527
-0.38291678 0.3760089 0.063204527
-0.38291678 0.40209094 0.063204527
-0.38291678 0.42817298 0.063204527
-0.38291678 0.45425501 0.063204646
-0.38291678 0.48033717 0.063204527
-0.38291678 0.50641918 0.063204765
-0.38291678 0.53250134 0.063204527
-0.38291678 0.55858344 0.063204527
-0.38291678 0.58466548 0.063204527
-0.38291678 0.61074752 0.063204646
-0.38291678 0.63682967 0.063204527
-0.38291678 0.66291171 0.063204765
-0.043779097 0.79233348 0.058617592
0.16597942 -0.83041084 0.088590026
0.16543794 -0.80115551 0.076866865
0.13944563 -0.77621573 0.081931114
0.11337579 -0.75120151 0.087010264
0.087228559 -0.72611737 0.09212482
0.11301574 -0.72223592 0.07531774
0.086957261 -0.69718999 0.080377102
0.060839113 -0.6723215 0.086620808
0.060668368 -0.64375424 0.075530529
0.034540527 -0.61885428 0.081911683
0.0083144382 -0.59386474 0.088336587
0.0083144382 -0.56553811 0.077235103
-0.017924819 -0.540479 0.083622575
-0.044165876 -0.51425958 0.0837394
-0.070315391 -0.48738486 0.079814434
-0.09640415 -0.46056908 0.075879097
-0.14944881 -0.43655974 0.090717912
-0.17552927 -0.40971702 0.086757183
-0.20155051 -0.38293907 0.082825184
-0.22751051 -0.35622039 0.078882933
-0.30712551 -0.3049894 0.089780569
-0.33301798 -0.27830851 0.085841656
-0.35884872 -0.25168738 0.081892252
-0.38465998 -0.22515735 0.078301072
-0.38442054 0.69139987 0.076227546
-0.14900082 0.77094269 0.08101809
-0.070478871 0.7984283 0.086893559
0.27024961 0.84882951 0.077680826
0.29854956 -0.86045146 0.10255647
0.14035314 -0.83483928 0.10550928
0.29854956 -0.83406645 0.10255635
0.13989821 -0.80542886 0.093689322
0.29854789 -0.80767649 0.1025368
0.11373893 -0.78037202 0.098803878
0.29854622 -0.78128678 0.10251725
0.08750128 -0.7552402 0.10393381
0.29854622 -0.75490195 0.10251701
0.061184883 -0.7300328 0.10907912
0.29854456 -0.72851282 0.10249746
0.061010677 -0.7010715 0.097764015
0.29854289 -0.702124 0.10247791
0.034712326 -0.67611682 0.10422897
0.034626219 -0.64739412 0.093043804
0.0083144382 -0.62237281 0.099491
0.29911694 -0.62432748 0.10925674
-0.018096792 -0.5972569 0.10596251
0.29916206 -0.59799337 0.10978997
-0.018010601 -0.56877697 0.094765902
0.32561371 -0.57157457 0.10990858
-0.044434998 -0.5435946 0.10121953
0.29854456 -0.54382086 0.10249746
-0.070842415 -0.51745957 0.10263515
0.29855287 -0.5174529 0.10259581
-0.09710522 -0.49042928 0.098646879
0.29855287 -0.49106765 0.10259581
-0.12330698 -0.46346182 0.094668031
0.29855287 -0.46468234 0.10259569
-0.17676404 -0.43933195 0.10967147
-0.20295841 -0.41234002 0.10568666
0.29855287 -0.4119117 0.10259569
-0.22909072 -0.38540813 0.10169137
0.29855287 -0.38552648 0.10259569
-0.25516376 -0.35854113 0.097724915
0.29855287 -0.35914108 0.10259581
-0.28117481 -0.33173424 0.093748093
0.29855287 -0.33275577 0.10259569
-0.33530989 -0.30703309 0.10874355
0.29855287 -0.30637044 0.10259581
-0.36131117 -0.2801998 0.10474122
0.29855287 -0.2799851 0.10259581
-0.38725418 -0.25343102 0.10076773
0.29855287 -0.25359982 0.10259581
0.29855287 -0.22721452 0.10259569
0.29855287 -0.20082924 0.10259581
0.29855287 -0.17444396 0.10259593
0.29855287 -0.14805853 0.10259581
0.29855287 -0.12167326 0.10259593
0.29855287 -0.095287926 0.10259581
0.29855287 -0.068902664 0.10259581
0.29855454 -0.042517968 0.10261559
0.29855287 -0.016132057 0.10259581
0.29855287 0.010253217 0.10259581
0.29855287 0.036638651 0.10259581
0.29855287 0.063023873 0.10259581
0.29855287 0.089409307 0.10259569
0.29855287 0.11579442 0.10259581
0.29855287 0.14217991 0.10259569
0.29855287 0.16856529 0.10259581
0.29855287 0.19495046 0.10259581
0.29855287 0.22133589 0.10259581
0.29855287 0.24772102 0.10259581
0.29855287 0.27410653 0.10259581
0.29855287 0.30049166 0.10259569
0.29855454 0.32687858 0.10261559
0.29855454 0.353264 0.10261559
0.29855123 0.37964585 0.10257614
0.29854789 0.40602708 0.1025368
0.29854456 0.43240774 0.10249758
0.29911023 0.48599955 0.10917783
0.29899827 0.51226246 0.10785544
0.29854289 0.59071189 0.10247779
0.29854456 0.61709964 0.10249758
0.29854622 0.64348763 0.10251713
0.29854622 0.66987234 0.10251713
0.29854789 0.69626057 0.1025368
0.29854789 0.7226454 0.1025368
-0.25562504 0.74926651 0.10371721
0.29854956 0.74903429 0.10255635
-0.17676511 0.77690226 0.10969126
0.29854956 0.77541918 0.10255647
0.29855123 0.8018086 0.10257614
0.29855123 0.8281936 0.10257614
0.24548012 0.8535763 0.098234892
0.29855287 0.8545832 0.10259581
0.27281263 -0.86271983 0.11097562
0.088052414 -0.81409365 0.12779844
0.11410398 -0.80973977 0.11065924
0.087775886 -0.78456479 0.11582482
0.06136851 -0.75931418 0.12100589
0.03488639 -0.73413467 0.12684083
0.034799147 -0.70503277 0.11550784
0.0083144382 -0.67995602 0.12204015
0.0083144382 -0.65106791 0.11071861
0.30007142 -0.65310681 0.12052894
-0.018183703 -0.62592763 0.11725247
-0.044782516 -0.60068798 0.12379146
0.3259151 -0.5986442 0.11317086
-0.044608034 -0.57204568 0.11245847
0.29991332 -0.57319182 0.11866152
-0.071219862 -0.54673898 0.11897922
0.32701764 -0.54782379 0.12510633
0.35373783 -0.54810971 0.12672102
-0.097815745 -0.52069205 0.12172186
-0.12419384 -0.49351084 0.11770892
-0.15050966 -0.46638978 0.11368549
-0.23069364 -0.41499215 0.12482727
-0.25693908 -0.38790703 0.12078702
-0.28312314 -0.3608852 0.11675668
-0.309246 -0.33392662 0.11273551
-0.36380687 -0.30909735 0.12789845
-0.38992193 -0.28211427 0.12387109
0.29978389 0.46048239 0.11713362
0.29930431 0.5391891 0.11146986
0.3004337 0.56759363 0.12480736
-0.097629279 0.80462992 0.11566627
0.24764043 -0.86768818 0.12941599
0.061739922 -0.81849641 0.14512968
0.061553411 -0.7887997 0.13301587
0.03497421 -0.76342893 0.13824868
0.0083144382 -0.73830247 0.14488792
0.0083144382 -0.70903057 0.13341606
-0.018358942 -0.68383092 0.14001691
-0.018271033 -0.65478373 0.12859714
-0.044957843 -0.62951577 0.13517928
-0.071746573 -0.60415131 0.14178669
-0.071482576 -0.57535213 0.13035524
0.35529381 -0.57755345 0.14226949
-0.098284468 -0.54991984 0.13694417
-0.12509272 -0.52396744 0.14106238
-0.15158483 -0.49662358 0.13696408
-0.17801657 -0.4693504 0.13291574
-0.20438534 -0.44213802 0.12885678
-0.25873852 -0.41767138 0.14416254
-0.28509957 -0.39043412 0.14009726
-0.31139705 -0.36325797 0.13602126
-0.33763275 -0.33614591 0.13195515
0.32815564 0.43617195 0.1374259
0.32815751 0.46282768 0.13744581
0.32815564 0.48947895 0.13742566
0.32815194 0.51612699 0.13738573
0.32815194 0.54278016 0.13738573
0.32815379 0.56943613 0.13740563
-0.28447959 0.75508249 0.13277566
-0.20500085 0.78296298 0.13885117
-0.12524074 0.81093299 0.14490819
0.22192329 0.86405706 0.14361846
0.22219655 -0.87271041 0.14805567
0.11522876 -0.84574771 0.14718723
0.035161786 -0.82293856 0.16261566
0.035067745 -0.79308188 0.15039957
0.0083144382 -0.76776421 0.1564157
-0.018536672 -0.74250937 0.16310453
-0.018447589 -0.71307498 0.15153253
-0.045312308 -0.68775058 0.15820241
0.30297801 -0.68702894 0.1548543
-0.045134645 -0.65853882 0.14666295
-0.07201279 -0.63314539 0.15331411
-0.098994121 -0.60765451 0.15999067
-0.098637804 -0.57868958 0.14841902
-0.12563291 -0.55313385 0.15509748
-0.15267658 -0.52727646 0.1606009
0.32896978 -0.52484417 0.14623904
0.35574156 -0.52492964 0.14674354
0.38354194 -0.52661932 0.15672028
-0.17928511 -0.49977463 0.15645635
-0.20583165 -0.4723413 0.15234184
-0.23231694 -0.44497567 0.14825749
-0.28710127 -0.42038354 0.1637361
-0.31357557 -0.39298689 0.15960455
-0.33998725 -0.36565503 0.15548265
-0.3663387 -0.33839005 0.15139079
-0.39262828 -0.31118929 0.14730859
0.32943633 0.41090614 0.15128958
0.32910213 0.59767014 0.14767194
-0.31382927 0.76100188 0.16235101
0.19647771 -0.87779242 0.1669178
0.0083144382 -0.82742554 0.18027854
0.0083144382 -0.79742271 0.16802049
-0.018626506 -0.77214539 0.17477465
-0.045671519 -0.74676538 0.18153381
-0.045491159 -0.7171573 0.16981912
-0.072550088 -0.69171166 0.17657983
-0.07228031 -0.66232884 0.16489804
-0.099352188 -0.63680923 0.17161942
-0.12652856 -0.61119103 0.17836654
-0.12607923 -0.58206576 0.16669321
-0.15326875 -0.5563783 0.17342138
0.38517851 -0.55610996 0.17190599
-0.18056324 -0.53059155 0.18017566
-0.20729905 -0.50296146 0.17616928
0.33164176 -0.5027988 0.17516398
-0.23396242 -0.47536916 0.17200828
-0.26056251 -0.4478423 0.16785705
-0.34237608 -0.39557132 0.17935312
-0.36890301 -0.36808175 0.17518461
-0.23372009 0.78912753 0.16851079
-0.15333217 0.81737483 0.17479491
0.170477 -0.8829242 0.18596518
-0.018807672 -0.83200568 0.19830823
-0.018716784 -0.80197519 0.18650186
-0.04585278 -0.77656794 0.19330692
-0.072821207 -0.72128731 0.18831956
-0.10007618 -0.69571036 0.19513166
-0.099713288 -0.66616333 0.18334639
0.33252519 -0.66645026 0.18472755
-0.12698168 -0.64051592 0.19013906
0.33233669 -0.6390245 0.18268716
-0.15435585 -0.6147688 0.19695807
0.35974512 -0.61280429 0.18674958
-0.15381095 -0.58547765 0.18516064
-0.18119824 -0.55966073 0.19196045
-0.20869187 -0.53374338 0.19878626
-0.23563057 -0.50618118 0.19608617
0.35948086 -0.50424498 0.18410909
-0.2624132 -0.47843134 0.19189823
-0.28913045 -0.45074457 0.18769956
-0.31578398 -0.42312369 0.18351114
-0.37150267 -0.39818248 0.19930625
0.33357447 0.38828391 0.19608593
0.3600015 0.41471103 0.18931186
0.35999736 0.49586451 0.1892705
0.35999325 0.52291167 0.18922913
0.35999736 0.6040746 0.1892705
-0.34370404 0.76706082 0.19262326
-0.26293388 0.7953943 0.1986618
0.14419189 -0.88811815 0.20524251
0.090118907 -0.86409342 0.21728075
-0.04603558 -0.80657625 0.20517993
-0.073369421 -0.78104252 0.21205747
-0.073094152 -0.7510618 0.20013797
-0.10044216 -0.7254613 0.20701706
-0.12789631 -0.69975615 0.21390176
-0.12743706 -0.67003399 0.20196962
-0.15490443 -0.64425784 0.20883512
0.36258408 -0.64551556 0.21511841
-0.18248007 -0.6183849 0.21574771
-0.18183643 -0.58892202 0.20380366
0.3897678 -0.59089613 0.2144891
-0.20942408 -0.56297427 0.21067572
0.4155761 -0.53429317 0.20203257
-0.26428795 -0.50944096 0.21625161
0.38921928 -0.50833333 0.20939958
-0.2911877 -0.48152548 0.21199477
-0.31802481 -0.4536798 0.20776904
-0.34479579 -0.42589799 0.20353258
0.36156657 0.38910273 0.20495057
0.36186534 0.47096732 0.20793629
0.36208299 0.55285716 0.21011078
0.36206412 0.58004284 0.20992243
0.11761654 -0.89336944 0.224733
0.33687484 -0.86789739 0.23181391
-0.046226084 -0.83689463 0.21755373
0.33687484 -0.84051716 0.23181391
-0.073656775 -0.81133568 0.22450078
0.33687484 -0.81313723 0.23181391
-0.10119527 -0.78567636 0.23147511
0.33687484 -0.7857573 0.23181415
0.33687484 -0.75837713 0.23181391
-0.10080997 -0.755409 0.21896183
-0.12835786 -0.72967553 0.22589362
-0.15601373 -0.70384079 0.23285198
0.33620515 -0.70205438 0.22456408
-0.15545768 -0.67395055 0.22081327
-0.18312693 -0.64804393 0.22775221
-0.21090469 -0.62203574 0.23471797
-0.21016252 -0.59240693 0.2226665
-0.23795336 -0.56632715 0.22961259
-0.23712081 -0.53692883 0.21759558
-0.32029492 -0.48465824 0.23234355
-0.34724915 -0.45664579 0.22804785
0.33687681 -0.45719987 0.23183537
0.36348927 -0.45607764 0.22416329
0.33687681 -0.42981964 0.23183513
0.36348927 -0.42875656 0.22416329
0.33687681 -0.40243942 0.23183513
0.36348927 -0.40143549 0.22416353
0.33687681 -0.37505931 0.23183513
0.36348927 -0.37411436 0.22416341
0.33687681 -0.34767896 0.23183513
0.36348927 -0.3467932 0.22416341
0.33687681 -0.32029885 0.23183513
0.36348927 -0.31947213 0.22416353
0.33687681 -0.29291868 0.23183513
0.36348927 -0.292151 0.22416341
0.33687681 -0.26553845 0.23183513
0.36348927 -0.26482981 0.22416341
0.33687681 -0.23815823 0.23183513
0.36348927 -0.23750868 0.22416329
0.33687681 -0.210778 0.23183513
0.36348927 -0.21018755 0.22416329
0.33687681 -0.18339789 0.23183513
0.36348927 -0.18286633 0.22416353
0.33687681 -0.15601772 0.23183513
0.36348927 -0.1555452 0.22416341
0.33687681 -0.12863737 0.23183513
0.36348927 -0.12822407 0.22416341
0.33687681 -0.10125732 0.23183513
0.36348927 -0.10090295 0.22416329
0.33687681 -0.073877104 0.23183513
0.36348927 -0.073581763 0.22416341
0.33687681 -0.046496868 0.23183513
0.36348927 -0.04626064 0.22416341
0.33687681 -0.019116752 0.23183513
0.36348927 -0.018939406 0.22416341
0.33687681 0.0082634725 0.23183513
0.36348927 0.0083817206 0.22416341
0.33687681 0.035643645 0.23183513
0.36348927 0.035702847 0.22416329
0.33687878 0.063023873 0.23185623
0.36348927 0.063023977 0.22416329
0.33687878 0.090404361 0.23185635
0.36348927 0.090345107 0.22416341
0.33687878 0.11778459 0.23185635
0.36348927 0.11766623 0.22416329
0.33687878 0.14516509 0.23185635
0.36348927 0.1449874 0.22416329
0.33687878 0.1725454 0.23185623
0.36348927 0.17230853 0.22416329
0.33687878 0.19992575 0.23185635
0.36348927 0.19962966 0.22416329
0.33687878 0.22730607 0.23185635
0.36348927 0.22695079 0.22416329
0.33687878 0.25468642 0.23185623
0.36348927 0.25427186 0.22416329
0.33687878 0.28206685 0.23185635
0.36348927 0.28159305 0.22416329
0.33687878 0.30944717 0.23185635
0.36348927 0.30891424 0.22416329
0.33687878 0.33682761 0.23185635
0.36348927 0.33623531 0.22416329
0.36348927 0.3635565 0.22416329
0.36292455 0.44491166 0.21852064
0.33687484 0.66538465 0.23181391
0.33687484 0.69276488 0.23181391
0.33687484 0.72014487 0.23181391
0.33687484 0.74752492 0.23181391
0.33687484 0.77490491 0.23181391
