ply
format ascii 1.0
comment PCL generated
element vertex 1321
property float x
property float y
property float z
element camera 0
property float view_px
property float view_py
property float view_pz
property float x_axisx
property float x_axisy
property float x_axisz
property float y_axisx
property float y_axisy
property float y_axisz
property float z_axisx
property float z_axisy
property float z_axisz
property float focal
property float scalex
property float scaley
property float centerx
property float centery
property int viewportx
property int viewporty
property float k1
property float k2
end_header
-0.27912539 -0.18129671 -0.13331211
-0.25406313 -0.18130079 -0.13320839
-0.22899795 -0.18130401 -0.13312221
-0.20391949 -0.18130079 -0.13320839
-0.17884555 -0.18129945 -0.1332432
-0.15377398 -0.18129945 -0.1332432
-0.12870242 -0.18129945 -0.1332432
-0.10363086 -0.18129945 -0.1332432
-0.078559309 -0.18129945 -0.1332432
-0.053487353 -0.18129879 -0.13326037
-0.028415138 -0.18129671 -0.13331211
-0.0033438466 -0.18129539 -0.13334668
0.021726912 -0.18129349 -0.13339829
0.046797007 -0.18129212 -0.13343287
0.071866572 -0.18129075 -0.13346756
0.096935205 -0.18128872 -0.13351917
0.12198445 -0.18126357 -0.13417459
0.14713453 -0.18134922 -0.13194823
-0.37969875 -0.15629804 -0.13096333
-0.10372858 -0.15630601 -0.13070428
-0.078637488 -0.15630601 -0.13070428
0.097005807 -0.15631343 -0.13046229
0.12211367 -0.15632835 -0.12997806
0.14722101 -0.1563369 -0.12970138
0.29638901 0.018966198 -0.14652872
0.32277697 0.019320823 -0.13117063
0.32214621 0.044198021 -0.13799918
-0.30630302 -0.23257321 -0.11226153
-0.28100374 -0.23253444 -0.11297822
-0.25571555 -0.23249584 -0.11369443
-0.23043838 -0.23245725 -0.1144104
-0.20520131 -0.23244131 -0.11470711
-0.17998706 -0.23244131 -0.11470711
-0.1547728 -0.23244131 -0.11470711
-0.12955856 -0.23244131 -0.11470711
-0.10434432 -0.23244131 -0.11470711
-0.079180613 -0.23252982 -0.11306548
-0.53296578 -0.20722139 -0.1148293
-0.50708181 -0.20702988 -0.1189779
-0.48134625 -0.20686367 -0.12257755
-0.45568752 -0.20670408 -0.12603068
-0.43030602 -0.20661926 -0.1278671
-0.40497565 -0.20654249 -0.12952852
0.072020322 -0.20682186 -0.12348068
0.097336605 -0.20716098 -0.11613786
-0.60828006 -0.18194312 -0.11652136
-0.58209896 -0.18173867 -0.12183058
-0.55629408 -0.18159837 -0.12547588
-0.53085166 -0.18152773 -0.12731302
-0.50556087 -0.18148631 -0.12838662
-0.48030806 -0.18145043 -0.12932086
0.17246614 -0.18155766 -0.12653327
0.19819935 -0.1819934 -0.11521327
-0.63264394 -0.15661407 -0.1207006
-0.60705775 -0.15654719 -0.12287295
-0.58155042 -0.15648779 -0.12479961
-0.55612224 -0.15643714 -0.1264466
-0.53086925 -0.15641367 -0.12720895
-0.50556648 -0.15637851 -0.12835193
-0.48029208 -0.15634543 -0.12942469
-0.45531264 -0.15637097 -0.12859416
-0.43022445 -0.15637535 -0.12845576
-0.40505716 -0.15636143 -0.12890553
-0.35504919 -0.15641531 -0.12715709
-0.32978711 -0.15637414 -0.12849045
-0.30464777 -0.15636465 -0.1288017
-0.27951965 -0.15635723 -0.12904406
-0.25439379 -0.1563492 -0.12930357
-0.22928393 -0.15634596 -0.12940741
-0.20419124 -0.15634979 -0.12928617
-0.17910413 -0.15635723 -0.12904406
-0.15401331 -0.15636465 -0.1288017
-0.12891875 -0.15637201 -0.12855959
-0.053615108 -0.15639761 -0.12772858
-0.02850057 -0.15639658 -0.12776303
-0.0033830963 -0.15638162 -0.1282481
0.021726912 -0.15636629 -0.12874985
0.046831056 -0.15635815 -0.12900949
0.071933076 -0.156354 -0.12914789
0.17232861 -0.1563428 -0.12951112
0.19744848 -0.156354 -0.12914789
0.22274247 -0.15644938 -0.12604809
0.24842316 -0.15669551 -0.11805499
-0.65939164 -0.13162152 -0.11310053
-0.63275528 -0.13145879 -0.12014401
-0.60719818 -0.13141266 -0.12214315
-0.58189672 -0.13139459 -0.12292492
-0.55660737 -0.13137656 -0.12370634
-0.53180069 -0.1314227 -0.12170887
-0.50653362 -0.13140737 -0.12236929
-0.48119652 -0.13138011 -0.12355018
-0.45584729 -0.13134813 -0.12493825
-0.43053406 -0.13131838 -0.12622142
-0.4049983 -0.13124609 -0.12935555
-0.38060972 -0.13137974 -0.12356746
-0.35542759 -0.13137254 -0.12387991
-0.33017361 -0.13134889 -0.12490356
-0.30500492 -0.13134131 -0.12523317
-0.27985248 -0.13133645 -0.12544119
-0.25471789 -0.13133568 -0.12547588
-0.2295852 -0.1313352 -0.12549329
-0.20446122 -0.1313376 -0.12538922
-0.17934415 -0.13134333 -0.12514639
-0.15422335 -0.13134889 -0.12490356
-0.12909882 -0.13135457 -0.12466073
-0.10384979 -0.13128759 -0.12755549
-0.078734972 -0.13128808 -0.12753808
-0.053689159 -0.13135768 -0.12452197
-0.028564097 -0.13137816 -0.12363684
-0.0034211315 -0.13138574 -0.12330711
0.021726912 -0.13137455 -0.12379313
0.046868406 -0.13136615 -0.12415755
0.072020859 -0.13138252 -0.12344575
0.097165026 -0.13137974 -0.12356746
0.12229878 -0.13137051 -0.12396669
0.14742637 -0.13136123 -0.12436569
0.17254703 -0.13135168 -0.1247822
0.19764259 -0.13133416 -0.12554526
0.22277342 -0.13133416 -0.12554526
0.24799916 -0.13136572 -0.12417495
0.27335712 -0.13143067 -0.12136102
0.29917231 -0.13160853 -0.1136595
-0.65898514 -0.10636481 -0.11505616
-0.63322222 -0.10632239 -0.11781108
-0.60782743 -0.10630602 -0.11887348
-0.58291554 -0.1063285 -0.1174103
-0.55781472 -0.10633653 -0.11688757
-0.53239 -0.1063159 -0.11822915
-0.50697494 -0.10629411 -0.1196394
-0.48158711 -0.10627299 -0.12101352
-0.45621803 -0.10625164 -0.12240398
-0.43086812 -0.10623002 -0.12381029
-0.40559453 -0.10621474 -0.12479961
-0.38096496 -0.10627801 -0.12068319
-0.35576057 -0.10627326 -0.12099612
-0.33055913 -0.10626818 -0.12132657
-0.30537847 -0.10626556 -0.12150025
-0.28021491 -0.10626523 -0.12151778
-0.25505015 -0.10626474 -0.12155235
-0.22988594 -0.10626414 -0.12158716
-0.20473187 -0.10626578 -0.12148285
-0.17958477 -0.10626955 -0.12123954
-0.15443392 -0.10627326 -0.12099612
-0.12927933 -0.10627708 -0.12075257
-0.10401798 -0.10623963 -0.1231854
-0.078869537 -0.1062399 -0.12316811
-0.053762957 -0.10626818 -0.12132657
-0.02861332 -0.10628188 -0.12043953
-0.0034500323 -0.10629548 -0.11955237
0.021726912 -0.10630651 -0.11883867
0.046905868 -0.10629952 -0.11929131
0.072095811 -0.10631055 -0.11857748
0.097297162 -0.1063218 -0.11784589
0.12248349 -0.10631988 -0.11796784
0.1476572 -0.10631377 -0.11836851
0.17282477 -0.1063076 -0.11876893
0.19803402 -0.10631502 -0.11828148
0.22330551 -0.10633637 -0.11690485
0.2484787 -0.10633102 -0.11725342
0.27357677 -0.10631163 -0.11850774
0.29875144 -0.10630979 -0.11862957
0.32419631 -0.10635324 -0.11580634
-0.65952235 -0.081173062 -0.11247134
-0.6339308 -0.081159249 -0.11427057
-0.60927147 -0.081181467 -0.11136997
-0.58389908 -0.081176057 -0.11208701
-0.55845118 -0.081166834 -0.11329269
-0.53301305 -0.081157006 -0.11454999
-0.50759453 -0.081147455 -0.11580634
-0.48218745 -0.0811373 -0.11711419
-0.45679808 -0.081127144 -0.11843812
-0.43139786 -0.081115246 -0.11998737
-0.40679651 -0.08114893 -0.11561441
-0.38158926 -0.08114893 -0.11561441
-0.35634574 -0.081146471 -0.11592829
-0.33109766 -0.081143469 -0.11632955
-0.30588543 -0.081142485 -0.11643434
-0.28067967 -0.081142209 -0.11648643
-0.25547323 -0.081141613 -0.11655617
-0.23027453 -0.081141725 -0.11653876
-0.20508285 -0.081142709 -0.11641669
-0.17989358 -0.081144176 -0.11622512
-0.15470231 -0.081145868 -0.11601555
-0.12950779 -0.081147455 -0.11580634
-0.1041873 -0.08112447 -0.11878633
-0.079004996 -0.081124581 -0.11876893
-0.053822018 -0.081124581 -0.11876893
-0.028685192 -0.081147671 -0.11577153
-0.0034827664 -0.081151329 -0.11530054
0.021726912 -0.081154883 -0.1148293
0.046943977 -0.081158645 -0.11434054
0.072170995 -0.081163667 -0.11369443
0.097409576 -0.081169128 -0.11297822
0.12265974 -0.08117491 -0.11224413
0.1478889 -0.081173986 -0.11234903
0.17312776 -0.081175022 -0.11220908
0.19838573 -0.08117868 -0.11175454
-0.48294795 -0.055941675 -0.11217415
-0.45750207 -0.055941563 -0.11362457
-0.43212226 -0.055941563 -0.11475956
-0.10440212 -0.055941619 -0.11320543
-0.079176851 -0.055941619 -0.11318791
-0.053950913 -0.055941619 -0.11318791
-0.4858498 -0.23359358 -0.093326211
-0.45985621 -0.23336697 -0.097529411
-0.43404338 -0.23318562 -0.10089493
-0.408281 -0.23300371 -0.10427105
-0.38261679 -0.23284203 -0.10727215
-0.35705194 -0.23270506 -0.10981262
-0.33164537 -0.23262775 -0.11124742
-0.054007843 -0.23265603 -0.11072254
-0.028802013 -0.23279294 -0.10818362
-0.0035568569 -0.23292807 -0.10567582
0.021726912 -0.2330634 -0.10316396
0.047063485 -0.23329765 -0.098816633
-0.61252284 -0.2081615 -0.094475389
-0.58578473 -0.20781949 -0.10188031
-0.55908591 -0.20745799 -0.10970759
0.12271574 -0.20742485 -0.11042535
0.14820793 -0.20771882 -0.10406017
0.17393379 -0.20814857 -0.094757915
-0.63478458 -0.18219382 -0.11000514
0.22423512 -0.18250927 -0.1018101
-0.66010779 -0.15695429 -0.1096549
0.27546489 -0.15743682 -0.093980432
-0.68713146 -0.13189065 -0.10144055
-0.68594253 -0.10648944 -0.10695636
0.35032284 -0.10649479 -0.10660577
-0.71289986 -0.081273563 -0.099415779
-0.68586326 -0.081212744 -0.1073246
0.2237078 -0.081189215 -0.11037254
0.24905004 -0.08119981 -0.109007
0.27425423 -0.081194296 -0.10970759
0.29939878 -0.081184521 -0.11098504
0.32465947 -0.081185997 -0.11079264
0.34986183 -0.08118283 -0.11121237
0.37551817 -0.081212364 -0.10735977
-0.71324223 -0.055941675 -0.097882271
-0.68637377 -0.055941675 -0.10495603
-0.58490205 -0.055941675 -0.10665822
-0.40743899 -0.055941675 -0.11070502
-0.38219392 -0.055941675 -0.11070502
-0.35694888 -0.055941675 -0.11070502
-0.28116685 -0.055941675 -0.11121237
-0.15499318 -0.055941675 -0.11061764
-0.12975715 -0.055941675 -0.11040771
-0.028770467 -0.055941675 -0.11023247
-0.0035254173 -0.055941675 -0.10975993
0.04699178 -0.055941675 -0.10813093
0.14813764 -0.055941675 -0.10588622
0.22411169 -0.055941675 -0.10381424
0.32541776 -0.055941675 -0.10258377
0.35071477 -0.055941727 -0.10268927
0.3760291 -0.055941675 -0.10261893
0.42718151 -0.055941727 -0.098252416
-0.66055202 -0.055941563 -0.1075176
-0.63530701 -0.055941563 -0.10739481
-0.61043829 -0.055941619 -0.1053071
-0.55940539 -0.055941619 -0.10790324
-0.53387767 -0.055941619 -0.1094451
-0.50841069 -0.055941619 -0.11075771
-0.33166611 -0.055941619 -0.11105514
-0.30641326 -0.055941619 -0.11116004
-0.25593016 -0.055941619 -0.11116004
-0.23069265 -0.055941619 -0.11110771
-0.20545797 -0.055941563 -0.11100268
-0.18022704 -0.055941619 -0.11081004
0.021726912 -0.055941563 -0.10905969
0.072264746 -0.055941619 -0.1076051
0.097544998 -0.055941511 -0.10711432
0.12283281 -0.055941619 -0.10662329
0.17343763 -0.055941619 -0.10550022
0.19873883 -0.055941619 -0.10520196
0.24950479 -0.055941619 -0.10244322
0.27491906 -0.055941563 -0.101071
0.3001489 -0.055941619 -0.1021266
0.40133438 -0.055941619 -0.10263669
-0.71371496 -0.030581618 -0.095764756
-0.68740469 -0.030615518 -0.10017323
-0.66174203 -0.03062791 -0.10179245
-0.63722509 -0.03059734 -0.09781158
-0.61164325 -0.03060673 -0.099045753
-0.58600581 -0.030619504 -0.10068357
-0.56039083 -0.030632114 -0.10233772
-0.5348134 -0.030644398 -0.10391974
-0.50926632 -0.030656245 -0.10546517
-0.48372972 -0.030668745 -0.10709679
-0.45821592 -0.030681465 -0.10874414
-0.43287325 -0.030686051 -0.10933983
-0.40808567 -0.030658482 -0.10576355
-0.38280261 -0.030658482 -0.10576355
-0.35751748 -0.030658646 -0.10578108
-0.3322345 -0.030658646 -0.10578108
-0.30694804 -0.030658919 -0.10581613
-0.28167021 -0.030658482 -0.10576355
-0.25639158 -0.0306581 -0.10571086
-0.23111078 -0.030657936 -0.1056757
-0.20583554 -0.030656954 -0.10555279
-0.1805627 -0.030655371 -0.10535991
-0.15528691 -0.030653952 -0.10516667
-0.13000813 -0.030652422 -0.10497355
-0.10461766 -0.030672731 -0.1076051
-0.07934875 -0.030672731 -0.1076051
-0.054079831 -0.030672731 -0.1076051
-0.028856302 -0.030649912 -0.10465753
-0.0035717282 -0.030642979 -0.10374403
0.021726912 -0.030635826 -0.10283005
0.047039628 -0.030628894 -0.10191536
0.072361283 -0.030624472 -0.10133505
0.097693101 -0.030619558 -0.10070145
0.12304119 -0.030613007 -0.099856138
0.14840163 -0.03060673 -0.099027991
0.17377564 -0.030600233 -0.098181963
0.19913231 -0.03059805 -0.097899795
0.2245574 -0.030587787 -0.09657681
0.25000054 -0.030577905 -0.095288038
0.27546081 -0.030568298 -0.09403336
0.30079532 -0.030571738 -0.094492912
0.32626149 -0.030563766 -0.093450069
0.35151735 -0.030573156 -0.094669819
0.37689725 -0.030572336 -0.094563723
0.4022727 -0.0305719 -0.094510674
0.42765981 -0.030570863 -0.094369292
-0.56177348 -0.0052025095 -0.094528317
-0.53599125 -0.0052399598 -0.096965075
-0.51034391 -0.0052682385 -0.098798871
-0.48464388 -0.0053045936 -0.10115898
-0.45901921 -0.0053367503 -0.10325205
-0.43391171 -0.0053150766 -0.10184515
-0.40897405 -0.0052710213 -0.098975062
-0.38364521 -0.0052702017 -0.098922253
-0.35830334 -0.0052710213 -0.098975062
-0.33296227 -0.0052718408 -0.099028111
-0.30763793 -0.0052702017 -0.098922253
-0.28231195 -0.0052685663 -0.098816633
-0.25697538 -0.0052685663 -0.098816633
-0.23164016 -0.0052682385 -0.098798871
-0.20630711 -0.0052674189 -0.098746061
-0.1809776 -0.0052655078 -0.09862268
-0.15564808 -0.0052630492 -0.098464012
-0.13031612 -0.0052605942 -0.098305345
-0.10485765 -0.0053077601 -0.1013701
-0.079540744 -0.0053077601 -0.1013701
-0.054224238 -0.0053074881 -0.10135245
-0.028968761 -0.005246073 -0.097352982
-0.0036266297 -0.0052344985 -0.096611977
0.021726912 -0.0052229799 -0.095852971
0.047092006 -0.0052114092 -0.09511137
0.072468527 -0.0052000508 -0.094369173
0.097855665 -0.0051891878 -0.093662143
0.1232537 -0.0051782168 -0.092954755
-0.51117432 0.020187192 -0.093662262
-0.48564571 0.020164259 -0.094651937
-0.46003425 0.020125993 -0.096312165
-0.43492559 0.020167097 -0.094528317
-0.40960687 0.020176053 -0.094139457
-0.079780258 0.020188771 -0.093591571
-0.054405101 0.020190299 -0.093520641
-0.38653082 -0.26007047 -0.07549417
-0.36067855 -0.25989118 -0.078405142
-0.33497921 -0.25977373 -0.080313444
-0.30937007 -0.25969359 -0.081613898
-0.28382868 -0.2596454 -0.082397342
-0.25829792 -0.25959605 -0.08319819
-0.23277947 -0.25954673 -0.083998799
-0.20729928 -0.2595205 -0.08442533
-0.18185192 -0.2595205 -0.08442533
-0.15640458 -0.2595205 -0.08442533
-0.13095722 -0.2595205 -0.08442533
-0.10550987 -0.2595205 -0.08442533
-0.080121115 -0.25963771 -0.082521915
-0.054725759 -0.25981537 -0.079636097
-0.029286044 -0.25999343 -0.076744914
-0.56457126 -0.23438013 -0.078726411
-0.53815705 -0.23408642 -0.08417654
-0.51193565 -0.23382908 -0.08895278
0.072492205 -0.23362017 -0.092831135
0.098016053 -0.23394963 -0.086717248
0.12366051 -0.23432544 -0.079743028
-0.63957709 -0.20855021 -0.086060405
0.19981146 -0.20858547 -0.085296273
-0.66595083 -0.18328935 -0.08154273
0.25070015 -0.18314892 -0.0851897
-0.69219279 -0.15793017 -0.077958941
0.32724795 -0.13232198 -0.082770944
-0.71500218 -0.10675055 -0.089998484
0.40250951 -0.081327111 -0.092459559
-0.74160755 -0.055941675 -0.084798574
0.45551243 -0.055941619 -0.075404763
-0.74109477 -0.030514305 -0.087019086
0.4532643 -0.030557107 -0.092583299
0.47952324 -0.030508466 -0.086273193
-0.74240881 -0.0049992129 -0.081328988
-0.71507347 -0.0051278286 -0.08967948
-0.6890139 -0.0051743947 -0.092707396
-0.66361558 -0.0051754862 -0.092778087
-0.63901591 -0.0051152185 -0.088864207
-0.61325145 -0.0051432773 -0.090689421
-0.58751869 -0.0051711723 -0.092494965
0.14866738 -0.0051653869 -0.092123508
0.17409472 -0.0051523931 -0.091273546
0.19952944 -0.0051408745 -0.090530038
0.22500946 -0.0051210597 -0.089236379
0.25051317 -0.0051002055 -0.087888598
0.27603632 -0.0050797351 -0.086557508
0.30138761 -0.0050942004 -0.087498307
0.32687524 -0.0050835013 -0.086806059
0.35230428 -0.0050835013 -0.086806059
0.37774286 -0.00508219 -0.086717248
0.40327922 -0.0050679967 -0.085793853
0.42878824 -0.0050588809 -0.085207462
0.45433426 -0.0050467066 -0.084407449
0.47981867 -0.0050426126 -0.084140778
0.50582027 -0.0049844719 -0.080366731
-0.71687794 0.020465717 -0.081596136
-0.69068408 0.020388089 -0.084958553
-0.66564739 0.020433344 -0.083002567
-0.64076304 0.020499453 -0.080135107
-0.61448091 0.020403318 -0.084300995
-0.58849436 0.020336062 -0.087214351
-0.56259435 0.020274267 -0.089892268
-0.53681713 0.020223491 -0.092088103
-0.3844935 0.020224698 -0.092035055
-0.35912108 0.020228021 -0.091893315
-0.33373123 0.020228021 -0.091893315
-0.30835021 0.020230047 -0.091804862
-0.28297436 0.020233698 -0.091645718
-0.25759459 0.020237029 -0.091503978
-0.23220718 0.020238668 -0.091433167
-0.20681745 0.020239867 -0.09138
-0.18143126 0.020242706 -0.091256142
-0.15604413 0.020245932 -0.091114402
-0.13065399 0.020248875 -0.090990543
-0.1052633 0.020252533 -0.090830922
-0.029095637 0.02029217 -0.089112282
-0.0036900956 0.020309314 -0.088367462
0.021726912 0.020327434 -0.08758688
0.047155939 0.020345449 -0.086806059
0.072596453 0.020362698 -0.086060166
0.098048449 0.020379901 -0.085313916
0.12351359 0.020398401 -0.08451438
0.14899106 0.020416856 -0.083714008
0.17447758 0.020433672 -0.082984567
0.19997343 0.020449668 -0.08229053
0.22548655 0.02046828 -0.081489205
0.25103059 0.020492844 -0.080420136
0.27661169 0.020523906 -0.079083085
0.35307357 0.020523094 -0.079118848
0.37854639 0.020519651 -0.079261422
0.40414682 0.020542361 -0.07828033
0.42976677 0.020565838 -0.077262878
0.45539549 0.020588107 -0.076298356
0.48105648 0.020613328 -0.075208187
-0.69262391 0.046108499 -0.075958848
-0.66623598 0.04597868 -0.080170751
-0.6400004 0.045862511 -0.083945274
-0.61405009 0.0457827 -0.086539745
-0.5882321 0.045718223 -0.088633418
-0.5624845 0.045660466 -0.090512276
-0.53687418 0.045622148 -0.091751814
-0.5113945 0.045605384 -0.092300296
-0.48598593 0.045600854 -0.092441797
-0.46064693 0.045610681 -0.092123389
-0.43535203 0.045631424 -0.09145081
-0.41006067 0.045655504 -0.090671778
-0.38474214 0.045675643 -0.090016246
-0.35940129 0.045692571 -0.089466929
-0.33407298 0.045715444 -0.088722229
-0.30873147 0.045737825 -0.087995052
-0.28337878 0.045760259 -0.087267518
-0.25799239 0.0457744 -0.08680582
-0.23259893 0.045788705 -0.086344242
-0.20719832 0.045802951 -0.085882545
-0.18179063 0.045817204 -0.085420728
-0.15637584 0.045831338 -0.084958673
-0.13095394 0.045845643 -0.084496498
-0.10552492 0.045859836 -0.084034085
-0.08008112 0.045866385 -0.08382082
-0.054634452 0.045873486 -0.083589554
-0.029186415 0.045885004 -0.083215952
-0.0037335884 0.045900285 -0.082717776
0.021726912 0.045915194 -0.082237124
0.047193442 0.04592447 -0.081934452
0.072666824 0.045938171 -0.081489325
0.098146245 0.045950733 -0.081079602
0.12363198 0.045963399 -0.080669641
0.14912468 0.045976609 -0.080242038
0.17472619 0.046057895 -0.077602029
0.20036857 0.046139345 -0.074957848
-0.64154166 0.07161016 -0.076244831
-0.61530662 0.071465172 -0.080010295
-0.58925933 0.071347095 -0.083073735
-0.56332624 0.07124386 -0.08575809
-0.53752536 0.071161158 -0.087906241
-0.51188982 0.071109943 -0.089236259
-0.48638946 0.071087457 -0.089821458
-0.46100432 0.071092911 -0.08967948
-0.43562937 0.071101762 -0.089449167
-0.41025084 0.071110599 -0.089218736
-0.3848666 0.071118958 -0.089005828
-0.35947904 0.071127079 -0.088793159
-0.33408251 0.071133249 -0.088633537
-0.30868888 0.07114128 -0.08842063
-0.28329194 0.071149476 -0.08820796
-0.25789323 0.071158372 -0.087977409
-0.23249099 0.071167327 -0.087746739
-0.20708516 0.071176164 -0.08751595
-0.18167472 0.071184464 -0.087302923
-0.15627629 0.071203567 -0.086806059
-0.13087104 0.071223445 -0.086291194
-0.10545857 0.07124386 -0.08575809
-0.080038421 0.071265034 -0.085207582
-0.054610632 0.071287535 -0.084620833
-0.029180391 0.071326621 -0.083607435
-0.0037346836 0.071366422 -0.082575321
0.021726912 0.071406655 -0.081524849
0.04720496 0.071448691 -0.080438137
0.072698928 0.071488313 -0.079404116
0.098210067 0.071530186 -0.078315973
0.12373908 0.071573533 -0.077191472
0.14928612 0.071617536 -0.076048136
0.17485328 0.07166367 -0.074850559
-0.56510562 0.097145073 -0.075708628
-0.53916466 0.097028859 -0.078226686
-0.51340723 0.096953891 -0.079849839
-0.487867 0.096936591 -0.080224276
-0.46240553 0.096942328 -0.080099463
-0.43695697 0.096953027 -0.079867601
-0.41150489 0.096963622 -0.079635978
-0.38605142 0.09697514 -0.079386234
-0.36059207 0.096985884 -0.079154491
-0.33512142 0.09699332 -0.078994036
-0.30965012 0.097001664 -0.078815699
-0.28417605 0.09700986 -0.078637004
-0.25869772 0.097017221 -0.078476548
-0.23321831 0.097025461 -0.078297973
-0.20773491 0.097032838 -0.078137636
-0.18225013 0.097041078 -0.077958941
-0.15676168 0.097048558 -0.077798247
-0.13127403 0.097059198 -0.077566385
-0.1057828 0.097070076 -0.077334285
-0.080288 0.097080775 -0.077101946
-0.054789223 0.097090594 -0.076887727
-0.029295122 0.097124435 -0.076155543
-0.0037907083 0.097164072 -0.075297594
-0.49106193 -0.2610572 -0.05947268
-0.46471342 -0.26075858 -0.064320564
-0.43858078 -0.26052287 -0.068149209
-0.41251057 -0.26028866 -0.07195127
-0.0038024113 -0.2601763 -0.073777318
0.021726912 -0.26036373 -0.070732474
0.047319755 -0.2606844 -0.065525889
0.07302247 -0.26112381 -0.058389425
-0.61837113 -0.2351692 -0.064086437
-0.59135062 -0.23475593 -0.071754098
0.1494576 -0.23476461 -0.071592808
0.17550854 -0.23535359 -0.060663342
0.22609712 -0.20921922 -0.071574926
0.27782157 -0.18398905 -0.063366413
0.30254492 -0.15805724 -0.073831081
-0.72088331 -0.13276342 -0.063654542
0.35491145 -0.1328304 -0.060753584
0.37983301 -0.10709971 -0.067322969
-0.7460584 -0.081534453 -0.06552577
-0.77323788 -0.0046535395 -0.058876991
-0.77347064 0.021012992 -0.057901621
-0.74400818 0.020631894 -0.074403524
0.50670558 0.020633914 -0.074313879
0.53251457 0.020676546 -0.072470665
0.56012017 0.020971723 -0.059689283
-0.74597532 0.046418577 -0.065885425
-0.71871138 0.046187766 -0.07338357
0.2260166 0.046203218 -0.072882175
0.25160864 0.046227999 -0.072076559
0.27721313 0.046252839 -0.071270227
0.35384825 0.046249509 -0.071377873
0.37939605 0.046249509 -0.071377873
0.40495831 0.046253495 -0.071252465
0.43071026 0.046304263 -0.069602847
0.45646897 0.046350613 -0.068095207
0.48221874 0.046389863 -0.066820025
0.50802517 0.046436921 -0.06529212
0.53386354 0.046485834 -0.063708544
0.55976444 0.046541847 -0.061889291
0.58622897 0.046695195 -0.056907773
-0.7210964 0.072131298 -0.062700033
-0.69456279 0.071967252 -0.066963673
-0.66805238 0.071795277 -0.071431637
0.20044664 0.071715362 -0.073508739
0.22606072 0.071767054 -0.072166085
0.25169557 0.071818702 -0.07082212
0.32867002 0.071951412 -0.067376971
0.35434753 0.071989246 -0.066388726
0.38004029 0.072027348 -0.065400004
0.40576079 0.072069667 -0.064302564
0.43157375 0.072135605 -0.06259203
0.45739675 0.07219664 -0.06100595
0.48314685 0.0722306 -0.060122252
0.50884461 0.072247349 -0.059689045
0.53482151 0.072332032 -0.057486176
-0.67037672 0.097859077 -0.060248494
-0.64379859 0.097641207 -0.064968348
-0.61737168 0.097442053 -0.06927979
-0.59117532 0.097284071 -0.072703242
0.021726912 0.097199671 -0.074528456
0.047254995 0.097226851 -0.073938251
0.072795756 0.097264849 -0.07311511
0.098349608 0.09730377 -0.072273374
0.12391092 0.097334452 -0.071610689
0.14947829 0.097360052 -0.071055174
0.17505507 0.097386487 -0.070481658
0.20064938 0.097420596 -0.069746375
0.22625394 0.097453795 -0.069028735
0.25187328 0.097489379 -0.068256855
0.30315989 0.097567342 -0.066568255
0.32882276 0.097606368 -0.065723538
0.35449868 0.09764535 -0.064878225
0.3801896 0.09768521 -0.064014435
0.43175355 0.097818457 -0.061132193
0.4575974 0.097894944 -0.059472561
0.48346955 0.09797252 -0.05779314
-0.59366637 0.1235481 -0.059219956
-0.56750131 0.12338864 -0.062177777
-0.54145581 0.12325276 -0.064698339
-0.51554847 0.12315013 -0.066604495
-0.48986709 0.12311623 -0.067233086
-0.46425846 0.12310558 -0.067430735
-0.43858576 0.12306889 -0.068113089
-0.41410816 0.12351993 -0.059743404
-0.36211592 0.12318502 -0.065957189
-0.33641213 0.12312775 -0.067017555
-0.31083435 0.12312972 -0.066981792
-0.28525773 0.12313277 -0.066927791
-0.25968021 0.12313572 -0.066873789
-0.23410326 0.12313948 -0.066801906
-0.20852649 0.12314434 -0.066712141
-0.18294942 0.12315013 -0.066604495
-0.15736972 0.12315493 -0.06651473
-0.13178946 0.12316089 -0.066406727
-0.10620754 0.12316673 -0.066298962
-0.080623426 0.12317143 -0.066208959
-0.055038325 0.12317721 -0.066101193
-0.029458774 0.12320816 -0.06552577
-0.003836479 0.12300207 -0.069351673
0.021726912 0.12305247 -0.068418503
0.047336102 0.12332264 -0.063402295
0.072955549 0.12335856 -0.062736273
0.098586924 0.12339842 -0.061997414
0.12423246 0.12344306 -0.061168194
0.14989008 0.12348679 -0.060356855
0.17556106 0.12353156 -0.059526801
0.20123897 0.12357048 -0.058804631
0.22692806 0.12360946 -0.058082342
0.25262827 0.12364828 -0.057359695
0.27833962 0.1236873 -0.056636572
-0.39114636 -0.2881828 -0.038020611
-0.36495587 -0.28795126 -0.041362643
-0.3389098 -0.28777957 -0.043842077
-0.31297877 -0.28766084 -0.045553684
-0.28714141 -0.28759283 -0.046536207
-0.26131925 -0.28752485 -0.047518015
-0.23551223 -0.28745678 -0.048499346
-0.20974676 -0.2874153 -0.04909873
-0.18402751 -0.2874153 -0.04909873
-0.15830818 -0.2874153 -0.04909873
-0.13258888 -0.2874153 -0.04909873
-0.10686959 -0.2874153 -0.04909873
-0.081217989 -0.2875677 -0.046899796
-0.055565424 -0.28781867 -0.043277383
-0.029857488 -0.28807148 -0.039628386
-0.5707767 -0.2620298 -0.043678164
-0.54405767 -0.26168144 -0.049334884
-0.51749027 -0.26135767 -0.05459249
0.098843731 -0.26158658 -0.050877571
0.12478224 -0.2620523 -0.043313622
-0.64586449 -0.23567772 -0.05464685
0.20168373 -0.23589846 -0.050551057
-0.67346883 -0.21042958 -0.045371771
0.25299442 -0.21011993 -0.052074671
0.30546588 -0.18491393 -0.039336085
0.33017072 -0.15875629 -0.051131487
0.40818018 -0.10746875 -0.043350101
0.43300095 -0.081646204 -0.051004529
-0.77782261 -0.030149691 -0.039664984
0.5351612 -0.0045981817 -0.055280089
0.58888018 0.021397479 -0.04125309
-0.77546304 0.046921693 -0.049552917
0.61253858 0.046808138 -0.053234339
0.64029801 0.047153592 -0.042019248
-0.7773 0.072933726 -0.041854978
-0.74829084 0.072394587 -0.05585897
0.56085628 0.072422422 -0.05513525
0.58690023 0.072506823 -0.05294466
0.61296868 0.072589211 -0.050805092
0.6391679 0.07269194 -0.048136115
0.66573155 0.072859325 -0.04378736
0.69242287 0.073038436 -0.039135218
-0.75130588 0.098664947 -0.042803288
-0.72395039 0.098336361 -0.04991591
-0.69706941 0.09808623 -0.055334449
0.50937307 0.098052002 -0.05607605
0.5353089 0.09813302 -0.054320931
0.56128669 0.098218285 -0.052473187
0.5873701 0.098324738 -0.050170064
0.61350882 0.098436214 -0.047754288
0.63977957 0.098571487 -0.044825673
0.66613853 0.098717026 -0.041672707
0.69258374 0.098871581 -0.038331151
-0.69993544 0.12447403 -0.042037487
-0.6731512 0.12421209 -0.046899796
-0.64648819 0.1239625 -0.05153048
-0.61993015 0.12372241 -0.05598557
-0.38915652 0.12381981 -0.054175973
0.30406213 0.12372629 -0.055913329
0.32979584 0.12376531 -0.055189729
0.35554069 0.12380419 -0.054465771
0.38129672 0.12384333 -0.053741455
0.40705559 0.12387849 -0.05308938
0.43284461 0.12392233 -0.05227375
0.45868421 0.12398193 -0.051167727
0.48454094 0.12404155 -0.050061107
0.51042813 0.12410613 -0.048862576
0.53635067 0.12417666 -0.047554612
0.56230229 0.12425009 -0.0461905
0.58829057 0.12432849 -0.044734478
0.61432087 0.12441305 -0.043167949
0.64047664 0.12452693 -0.041052461
0.66670424 0.1246521 -0.038733244
-0.62250572 0.15021285 -0.042602658
-0.59616768 0.15002319 -0.045680881
-0.56989735 0.14984074 -0.048644662
-0.54374111 0.14968315 -0.051204085
-0.51770985 0.14955813 -0.053234339
-0.49191356 0.14951468 -0.053940773
-0.46615478 0.14948228 -0.054465771
-0.44048935 0.14948776 -0.054375291
-0.41482487 0.14949453 -0.054266572
-0.38914981 0.14949676 -0.054230332
-0.36347419 0.14949894 -0.054194093
-0.33780387 0.14950445 -0.054103732
-0.31213036 0.14950904 -0.054031253
-0.28645068 0.14951015 -0.054013133
-0.26077077 0.14951125 -0.053995013
-0.23508915 0.14951125 -0.053995013
-0.20941007 0.14951345 -0.053958654
-0.18373154 0.14951691 -0.053904533
-0.15805215 0.14952007 -0.053850174
-0.13237111 0.14952236 -0.053814054
-0.10669018 0.1495257 -0.053759694
-0.081008993 0.14953017 -0.053687096
-0.055326693 0.1495347 -0.053614616
-0.029648291 0.14955926 -0.053216219
-0.0039694794 0.14962935 -0.052074432
0.021726912 0.14969313 -0.051040888
0.047433212 0.14970869 -0.050786853
0.073138401 0.14970422 -0.050859451
0.098857142 0.14973894 -0.050297141
0.12458454 0.1497736 -0.049734473
0.1503206 0.14980826 -0.049171448
0.17607626 0.14985749 -0.048372269
0.20184031 0.14990237 -0.04764533
0.22761559 0.14994708 -0.046918154
0.25340462 0.14999399 -0.046154141
0.27920541 0.15004119 -0.045389891
0.30501801 0.15008819 -0.044625282
0.33084241 0.15013528 -0.043860197
0.35667861 0.15018263 -0.043094993
0.3825286 0.15023074 -0.042310953
0.40837598 0.15027118 -0.041654468
0.4343099 0.15034986 -0.040377021
0.46022302 0.15040952 -0.039409041
0.48605737 0.15042743 -0.039117098
0.51193637 0.15046236 -0.038550377
-0.49420989 0.17622989 -0.039025307
-0.46832758 0.17618951 -0.039610147
-0.44256055 0.17620215 -0.039427519
-0.41676921 0.17620343 -0.03940928
-0.3909753 0.17620343 -0.03940928
-0.36518565 0.17620605 -0.039372802
-0.33939737 0.17620963 -0.039317846
-0.31360281 0.17620963 -0.039317846
-0.28780818 0.17620963 -0.039317846
-0.26201513 0.17621091 -0.039299607
-0.23622182 0.17621222 -0.039281249
-0.21043074 0.1762161 -0.039226532
-0.18463771 0.17621872 -0.039190054
-0.15884508 0.17622226 -0.039135218
-0.13305077 0.17622489 -0.03909874
-0.1072566 0.17622876 -0.039043903
-0.08146102 0.17623121 -0.039007187
-0.055664457 0.17623246 -0.038988948
-0.029870993 0.176249 -0.038751483
-0.0040752757 0.176278 -0.038331151
-0.47055757 -0.28912908 -0.024363518
-0.44398227 -0.28879619 -0.029167175
-0.41752109 -0.28848469 -0.033663869
-0.0040932987 -0.28832358 -0.035989881
0.021726912 -0.28857607 -0.032343745
0.047624849 -0.28902301 -0.025892735
-0.62534618 -0.2630049 -0.027843595
-0.5978635 -0.26247171 -0.036502481
0.15090197 -0.26262185 -0.034066916
0.17728058 -0.26334658 -0.022298098
0.22827733 -0.23667324 -0.036172867
0.28054762 -0.21123406 -0.027953863
-0.70100236 -0.18500033 -0.037087917
-0.73035067 -0.15967648 -0.021245837
0.35854024 -0.15957652 -0.024492741
0.38354352 -0.13347375 -0.032893777
-0.7538783 -0.10764869 -0.031664729
0.46227884 -0.08185643 -0.023700118
0.48743352 -0.055941675 -0.029185653
0.51297307 -0.030086638 -0.031462789
0.61691362 0.021691345 -0.028523922
0.6687398 0.047580332 -0.028156161
0.72029835 0.073423468 -0.02913034
-0.7810697 0.099438183 -0.026058435
0.71940559 0.099098079 -0.03342545
0.7464844 0.099363498 -0.027677774
-0.75451022 0.12518033 -0.02892828
-0.72695297 0.12477427 -0.036465764
0.69319898 0.12483924 -0.035257697
0.71984786 0.12505263 -0.031297803
0.74671841 0.12530631 -0.026592255
-0.73035479 0.15152913 -0.021227479
-0.70308614 0.15114787 -0.027420402
-0.67608899 0.15081868 -0.032765508
-0.64925802 0.15051538 -0.037691355
0.53793955 0.15054339 -0.037233949
0.56408155 0.15066981 -0.035184383
0.59014064 0.15075424 -0.033810496
0.61626983 0.15085587 -0.032160163
0.64247561 0.15097454 -0.030232668
0.66870087 0.15109006 -0.028358221
0.69511753 0.15125546 -0.02567184
0.72163403 0.15143818 -0.022704124
-0.65277135 0.17753854 -0.020137548
-0.62578535 0.17716271 -0.025561213
-0.59908628 0.17686331 -0.029883742
-0.57259518 0.17661917 -0.033407211
-0.54665893 0.17657983 -0.033975244
-0.52023137 0.17632613 -0.037636518
0.021726912 0.17630601 -0.037929177
0.047535293 0.17633379 -0.037526846
0.073349871 0.17636156 -0.037124395
0.09917064 0.17638958 -0.036722064
0.12499704 0.17641622 -0.036337733
0.15082937 0.17644286 -0.035953403
0.17666847 0.1764707 -0.035550594
0.20252758 0.17651632 -0.034891367
0.22840136 0.17656717 -0.034158707
0.25428775 0.17661917 -0.033407211
0.2801857 0.17667139 -0.032655478
0.30609527 0.17672339 -0.031903148
0.33201647 0.17677549 -0.031150937
0.35794741 0.17682642 -0.030416369
0.3838917 0.17687854 -0.029663444
0.40983486 0.17692316 -0.02902019
0.43577439 0.17696017 -0.028487086
0.46165958 0.17696381 -0.028431773
0.48754558 0.1769678 -0.028376818
0.51348364 0.17699569 -0.027972102
0.53953552 0.17707229 -0.026868343
0.56517017 0.17696267 -0.02845037
0.59104532 0.17696136 -0.02846849
0.61676395 0.17689896 -0.029369354
0.64315498 0.17709392 -0.026555657
0.66982454 0.17737347 -0.022519588
-0.6265412 0.20336559 -0.021633744
-0.59982365 0.20303777 -0.025892854
-0.57377899 0.2029739 -0.02672112
-0.54788744 0.2029739 -0.02672112
-0.52224594 0.20309314 -0.025174499
-0.49658364 0.20321372 -0.023607731
-0.47078955 0.20327759 -0.022777915
-0.44489062 0.20329031 -0.022611856
-0.41897225 0.20329314 -0.022574902
-0.39304876 0.20329314 -0.022574902
-0.36712316 0.20329168 -0.022593379
-0.34119982 0.20329168 -0.022593379
-0.31527463 0.20329031 -0.022611856
-0.28935143 0.20329031 -0.022611856
-0.26342824 0.20329031 -0.022611856
-0.23750505 0.20329031 -0.022611856
-0.21158057 0.20328885 -0.022630334
-0.18565752 0.20328885 -0.022630334
-0.15973347 0.20328748 -0.022648811
-0.13381055 0.20328748 -0.022648811
-0.10788765 0.20328748 -0.022648811
-0.081964165 0.20328599 -0.02266717
-0.05604054 0.2032831 -0.022704124
-0.030121466 0.20330036 -0.022482634
-0.0042002611 0.2033301 -0.022095203
0.021726912 0.20336008 -0.021707535
0.047659911 0.20338836 -0.021338344
0.073598877 0.20341823 -0.020950437
0.099544249 0.2034494 -0.020544171
0.12549588 0.20348078 -0.020137668
0.15145376 0.20351201 -0.019731164
0.54046082 0.2034252 -0.020858169
0.56617665 0.20332006 -0.022224307
-0.31739455 -0.31680429 -0.0014280081
-0.29121688 -0.31672814 -0.002417922
-0.26505443 -0.31665203 -0.0034073591
-0.23890874 -0.31657729 -0.0043773651
-0.21279739 -0.31652412 -0.0050673485
-0.18673912 -0.31652412 -0.0050673485
-0.16068086 -0.31652412 -0.0050673485
-0.13462262 -0.31652412 -0.0050673485
-0.10856435 -0.31652412 -0.0050673485
-0.082569279 -0.31668207 -0.003015399
-0.55124861 -0.29034066 -0.0068745613
-0.5242126 -0.28991568 -0.013009071
-0.49733132 -0.28951794 -0.018751383
0.073658094 -0.28963202 -0.017104745
0.099822111 -0.29022717 -0.0085126162
-0.65347105 -0.26369485 -0.016641974
0.20385183 -0.2640844 -0.010316253
-0.68206686 -0.23840666 -0.0040043592
0.25562516 -0.23786256 -0.014103293
0.33351073 -0.18585157 -0.014974833
0.41264805 -0.1341258 -0.0046571493
0.43748435 -0.10791127 -0.014603972
-0.78569651 -0.055941619 -0.006669879
0.6217078 -0.0037693232 -0.0014467239
0.64498997 0.021966264 -0.016623378
0.67340571 0.022259861 -0.0039108992
0.69719177 0.047976069 -0.015308022
0.74982625 0.074076109 -0.012173891
0.77431601 0.099766441 -0.018954754
-0.78566539 0.12637269 -0.0068002939
0.77434075 0.12572372 -0.018843889
0.8032335 0.12640977 -0.0061109066
-0.75854248 0.15213031 -0.011468291
0.74857193 0.15172851 -0.017993093
0.77621537 0.15219316 -0.010446548
-0.73424554 0.17867056 -0.0037990808
-0.70682883 0.17823711 -0.010056138
-0.67998707 0.1779629 -0.014010668
0.69708419 0.17783597 -0.015845537
0.72436714 0.17827183 -0.0095541477
0.75153482 0.17863944 -0.0042468309
-0.68160188 0.20455045 -0.0062413216
-0.65366012 0.2038227 -0.01569736
0.1774179 0.20354328 -0.019324422
0.20340328 0.20359609 -0.01864028
0.22940147 0.20365167 -0.017919064
0.25540951 0.20370582 -0.017215967
0.2814284 0.20375979 -0.016512394
0.30745971 0.20381555 -0.015789986
0.33350047 0.20386958 -0.015085936
0.35955393 0.20392522 -0.01436305
0.38561657 0.20397952 -0.013658285
0.41166654 0.20401803 -0.013157487
0.4376511 0.20401087 -0.013250232
0.46364877 0.20401254 -0.013231635
0.48941037 0.20388246 -0.014918923
0.51482141 0.20358178 -0.018825293
0.6709379 0.20374286 -0.016734481
0.69759256 0.20400676 -0.013305902
0.72576112 0.20481193 -0.0028475523
-0.47270733 0.23030972 -0.0096657276
-0.44699642 0.23050046 -0.0074145794
-0.42125121 0.23069122 -0.0051604509
-0.3946296 0.23030356 -0.0097401142
-0.36861163 0.23030663 -0.0097030401
-0.34258702 0.23030508 -0.0097213984
-0.31656277 0.23030356 -0.0097401142
-0.29054049 0.23030356 -0.0097401142
-0.26451662 0.23030198 -0.0097587109
-0.23849303 0.23030034 -0.0097771883
-0.21247107 0.23030034 -0.0097771883
-0.18644792 0.23029876 -0.0097960234
-0.16042505 0.23029712 -0.0098143816
-0.13440248 0.23029554 -0.0098330975
-0.10838092 0.23029554 -0.0098330975
-0.082358778 0.23029402 -0.0098518133
-0.056337357 0.23029402 -0.0098518133
-0.030320512 0.23031932 -0.0095542669
-0.0042998064 0.23035237 -0.0091637373
0.021726912 0.23038387 -0.0087918043
0.047759503 0.23041672 -0.0084009171
0.073798105 0.23044997 -0.0080102682
0.099842735 0.23048306 -0.007619381
0.1258928 0.2305145 -0.0072469711
0.15194932 0.23054776 -0.0068560839
0.17801273 0.2305823 -0.0064462423
0.20409852 0.2306422 -0.0057382584
0.23019521 0.23070228 -0.005030036
0.25630286 0.23076233 -0.004321456
0.28242141 0.23082244 -0.0036123991
0.30855092 0.23088244 -0.0029033422
0.33468965 0.23094097 -0.0022127628
0.36084089 0.23100096 -0.0015027523
0.49083233 0.2307339 -0.0046571493
-0.45027986 -0.31816754 0.016281724
-0.42343801 -0.31780332 0.01154995
-0.39667296 -0.31744158 0.006849885
-0.3701115 -0.31716716 0.0032864809
-0.34368834 -0.3169525 0.00049734116
-0.056581102 -0.31696844 0.00070309639
-0.030535812 -0.31725526 0.0044298172
-0.0044334903 -0.31754559 0.0082019567
0.021726912 -0.3178468 0.012114644
-0.60616434 -0.29140085 0.0084276199
-0.57844251 -0.29079056 -0.00038158894
0.12611572 -0.2908164 -7.6293945e-06
0.15257014 -0.29145947 0.0092734098
0.23091643 -0.26513109 0.0066808462
0.28384104 -0.23942152 0.014828801
-0.71074408 -0.21289971 0.0081082582
0.30876765 -0.21250939 -0.00034415722
0.36257914 -0.18703872 0.015866637
0.38755384 -0.16046357 0.0043171644
-0.7642715 -0.13454156 0.0133394
0.46747649 -0.10838284 0.016017556
0.49285898 -0.082115635 0.0099692345
0.51820356 -0.055941727 0.0042984486
0.54384083 -0.029835954 0.0010960102
0.5703007 -0.0036964975 0.0032864809
0.65087402 -0.0035126917 0.015224814
0.70215321 0.022569008 0.0094803572
0.72618818 0.048423059 -0.00079286098
0.75580508 0.048926778 0.015564561
0.77996773 0.074789502 0.0063618422
0.80551624 0.10081623 0.0037735701
0.80460411 0.15282556 -0.00017595291
-0.79071891 0.17992961 0.014376044
-0.76215768 0.17922384 0.0041860342
0.7788381 0.17902389 0.0013017654
0.80701655 0.1796453 0.010270357
-0.73809683 0.20606646 0.013452411
-0.70997542 0.20538077 0.0045422316
0.59835243 0.20616078 0.014677882
0.62405884 0.20594183 0.011832356
0.75427079 0.20568115 0.008446455
0.78214431 0.20627132 0.016111851
-0.71191633 0.2322754 0.013546705
-0.68334478 0.23130974 0.0021440983
-0.65992087 0.23244795 0.015583396
-0.63322461 0.23223719 0.013094306
-0.60656041 0.23202339 0.010571241
-0.58038509 0.232025 0.010589957
-0.55420637 0.232025 0.010589957
-0.52832884 0.23218274 0.012453794
-0.50248682 0.23237589 0.014734387
0.3869991 0.23105785 -0.00083017349
0.41377527 0.23156053 0.0051048994
0.43978715 0.2314747 0.0040923357
0.4655042 0.23120835 0.00094640255
0.54594356 0.23237747 0.014753342
0.57158476 0.23207924 0.011229753
0.59765691 0.23202339 0.010571241
0.6238389 0.232025 0.010589957
0.65014637 0.23208389 0.011286259
0.67692512 0.23234576 0.014376044
0.72817492 0.23187053 0.0087658167
-0.44921759 0.25802153 0.0086154938
-0.42351195 0.25834465 0.012114644
-0.39774635 0.25866345 0.015564561
-0.3715249 0.25865975 0.015526891
-0.34530404 0.25865635 0.015489221
-0.31908187 0.25865111 0.015432477
-0.2928606 0.25864583 0.015375853
-0.26664338 0.25864401 0.015357018
-0.24042496 0.25864065 0.015319228
-0.21420717 0.2586371 0.015281558
-0.18798879 0.25863191 0.015225053
-0.16177028 0.25862509 0.015149474
-0.13555376 0.25861967 0.015092969
-0.10933813 0.25861448 0.015036345
-0.083123386 0.25860927 0.014979839
-0.030699981 0.25861967 0.015092969
-0.0044863895 0.258618 0.015073895
0.021726912 0.25864774 0.015394688
0.047945298 0.25867903 0.015734553
0.074163973 0.25868082 0.015753269
0.10038599 0.25869474 0.015904307
0.1266173 0.2587294 0.016281843
0.15285443 0.25876445 0.016659498
0.46715561 0.25847855 0.013565421
-0.53171116 -0.31948358 0.033376932
-0.50446308 -0.31903663 0.027570605
-0.47728235 -0.31857806 0.021613836
0.047969729 -0.31836975 0.018907905
0.074350007 -0.31905705 0.0278368
-0.66264361 -0.29283911 0.029186726
-0.63405615 -0.29202357 0.017414927
0.17930353 -0.29230663 0.021500349
0.20625459 -0.29319161 0.034273148
0.25868237 -0.26656869 0.030023932
0.33756736 -0.21386182 0.028939486
-0.74073142 -0.18740001 0.025253773
0.44245434 -0.134828 0.02574718
0.62811995 -0.0295767 0.034769177
0.68027735 -0.0032575317 0.031794548
0.73292965 0.023080908 0.031642437
0.78567094 0.04943005 0.031908989
0.81117874 0.075633816 0.028293014
0.83731234 0.12822276 0.027532578
-0.79172367 0.15398106 0.018586516
0.83654666 0.15433437 0.024324059
0.83598578 0.18045619 0.021973848
-0.79488468 0.2074815 0.031832814
-0.76636177 0.20675462 0.022390485
0.65237647 0.20682907 0.023357034
0.81058204 0.20701012 0.025709391
-0.74104929 0.23338735 0.026677847
0.52153796 0.23342273 0.027095795
0.75632197 0.23264936 0.017962694
0.78604114 0.23397079 0.033567429
-0.71514809 0.25986207 0.028540134
-0.6895234 0.26016948 0.031870961
-0.66234672 0.25978467 0.027703762
-0.63694084 0.26021883 0.032404661
-0.53193939 0.2604391 0.03478837
-0.50454503 0.25982162 0.028102875
-0.47859591 0.26005167 0.030594945
-0.057049155 0.25916263 0.020969987
0.17910087 0.25880638 0.017112613
0.20536549 0.25886741 0.017773867
0.23164032 0.25892845 0.01843524
0.25792798 0.25899309 0.01913476
0.28422639 0.25905776 0.019834757
0.31053564 0.2591224 0.020534635
0.33685568 0.25918722 0.021235347
0.36318651 0.25925189 0.02193594
0.38952819 0.25931671 0.022636771
0.41582379 0.25933576 0.022845149
0.44173774 0.25906667 0.01992929
0.52171868 0.25984269 0.028331041
0.5484969 0.26012024 0.031337619
0.65448487 0.26043728 0.034769297
0.6799109 0.25998664 0.029890656
0.70603263 0.25989178 0.028863549
0.75994456 0.26043728 0.034769297
-0.42585066 0.28632355 0.029985905
-0.37562659 -0.34733421 0.051048636
-0.34878787 -0.34706041 0.047814965
-0.32210714 -0.34687808 0.045662403
-0.29555726 -0.34678549 0.044568062
-0.26902431 -0.3466928 0.043474674
-0.24250972 -0.3466019 0.042400837
-0.21602498 -0.34652728 0.041519165
-0.18960811 -0.34652728 0.041519165
-0.16319121 -0.34652728 0.041519165
-0.13677435 -0.34652728 0.041519165
-0.11035746 -0.34652728 0.041519165
-0.084001385 -0.34669444 0.043493629
-0.057660677 -0.34702942 0.047449589
-0.031259492 -0.34736696 0.051433921
-0.586833 -0.32053283 0.047007442
-0.55917192 -0.3199867 0.039910555
0.10086928 -0.31974959 0.036831617
0.1275285 -0.32044557 0.045873761
0.23374255 -0.29445925 0.052571297
-0.69270146 -0.26762405 0.047161222
0.31255612 -0.24101478 0.044395328
0.39239097 -0.18832174 0.049200058
0.41748509 -0.16147724 0.037232876
0.49876475 -0.10894583 0.052590609
-0.7961095 -0.082323514 0.036965251
0.52416652 -0.08238586 0.04506743
0.54987568 -0.055941563 0.040293336
0.57653087 -0.029522326 0.041825771
0.65754592 -0.029449122 0.051337719
0.60365522 -0.0030391663 0.045989156
0.70998359 -0.0029987693 0.048603654
0.76358634 0.02354341 0.051665187
0.41746524 0.10235374 0.037060857
0.8393172 0.10230171 0.035933852
0.84070033 0.20824349 0.041729808
-0.77040344 0.23450604 0.039891481
0.70806754 0.23443317 0.039030313
0.81508809 0.23495746 0.045220733
-0.7444694 0.26110512 0.041998386
-0.558492 0.26054135 0.035895586
0.49663144 0.26066139 0.03719461
0.63083518 0.26185399 0.050104737
0.78965563 0.26182196 0.049758196
-0.69227821 0.28783864 0.045124888
-0.66686881 0.2883563 0.050297379
-0.64061791 0.28847766 0.051511288
-0.61398536 0.2884025 0.050759673
-0.56098646 0.28838909 0.050624847
-0.48090649 0.28796533 0.04639256
-0.45483583 0.28824261 0.049161553
-0.40039399 0.28703171 0.037060976
-0.37410635 0.28711388 0.037882805
-0.34771746 0.28711388 0.037882805
-0.32132477 0.28711012 0.037844539
-0.29493439 0.28710809 0.037825346
-0.2685411 0.28710234 0.037768245
-0.24215013 0.28709859 0.037729979
-0.21575981 0.28709477 0.037691593
-0.18937005 0.28709099 0.037653327
-0.16298085 0.28708708 0.03761518
-0.13659315 0.28708515 0.037596107
-0.11020499 0.28708139 0.03755796
-0.083817437 0.28707758 0.037519455
-0.057429582 0.28706989 0.037443161
-0.031044086 0.28706989 0.037443161
-0.0046584383 0.28706786 0.037424088
0.021726912 0.28706405 0.037385583
0.048112117 0.28706604 0.037404895
0.074497029 0.28706405 0.037385583
0.1008812 0.28706017 0.037347674
0.12726536 0.28705835 0.037328362
0.15364853 0.28705454 0.037290215
0.18005137 0.28709477 0.037691593
0.20647484 0.28716159 0.038360834
0.23290981 0.28723052 0.039049387
0.25935408 0.28729764 0.039719224
0.28580865 0.2873646 0.04038918
0.31227523 0.28743368 0.041078568
0.33875066 0.28750083 0.041749239
0.36523643 0.28756797 0.042419791
0.39173463 0.28763697 0.043110132
0.41816819 0.28764078 0.043148518
0.44383368 0.28702015 0.036946297
0.4977968 0.28788668 0.045604944
0.52493709 0.28835997 0.050335884
0.5515998 0.28847575 0.051491857
0.57797199 0.28840059 0.050740361
0.63092721 0.28838909 0.050624847
0.70961028 0.28800005 0.046738625
0.73657101 0.28824261 0.049161553
-0.64248496 -0.37476337 0.061212301
-0.48452955 -0.34903744 0.071163416
-0.45708096 -0.34854645 0.065364599
-0.42981291 -0.34811437 0.060263038
-0.40262523 -0.3476837 0.055176258
-0.0047977734 -0.34771317 0.055524111
0.021726912 -0.34806359 0.05966258
0.048339471 -0.34867981 0.066938996
-0.64353836 -0.32204774 0.066686034
-0.6150583 -0.32126877 0.056567311
0.15436074 -0.32120925 0.055794477
0.18149301 -0.32221848 0.068904042
0.28741166 -0.26848945 0.061212182
-0.7237224 -0.242304 0.068320036
0.3671481 -0.21536669 0.061522365
-0.77666777 -0.16239426 0.06701684
0.44800252 -0.16251048 0.070793152
0.47328702 -0.13562864 0.060417891
0.68716061 -0.029324217 0.067561269
0.73986208 -0.0027464479 0.064995527
0.82051247 0.050562985 0.068709254
0.84363276 0.076623835 0.05401814
0.87387031 0.15709424 0.069137454
0.87028378 0.18271485 0.054577947
0.8726539 0.20997304 0.064199567
-0.80089349 0.23595595 0.057011962
0.84610879 0.23658106 0.06439364
-0.77503204 0.26276195 0.059933543
-0.59075803 0.26361582 0.069176435
0.60714394 0.26337677 0.066588879
0.82034618 0.26350603 0.06798923
-0.74916577 0.28963092 0.063035011
-0.59077185 0.29025331 0.069254279
0.6072163 0.29002926 0.067016721
0.68639779 0.28968719 0.063597798
0.79441679 0.29043669 0.071085453
-0.69587982 0.31615067 0.062453032
-0.67073315 0.31692147 0.069604754
-0.61669797 0.31647292 0.065442443
-0.59110296 0.31708533 0.071124554
-0.56455064 0.31714416 0.071670294
-0.48430157 0.31692147 0.069604754
-0.45668027 0.3161529 0.062472463
-0.40334243 0.31599396 0.060999155
-0.37696812 0.31617358 0.062666535
-0.35047832 0.31626365 0.063500762
-0.3238942 0.31626567 0.063520074
-0.29730436 0.31626153 0.063481092
-0.27071682 0.31625935 0.0634619
-0.24412653 0.31625319 0.063403606
-0.21753851 0.31624898 0.063364744
-0.19095343 0.31624898 0.063364744
-0.16436736 0.31624684 0.063345551
-0.13778158 0.31624472 0.063326001
-0.11119682 0.31624472 0.063326001
-0.084611475 0.31624275 0.06330657
-0.058025979 0.31623861 0.063267827
-0.031438991 0.31621981 0.063093066
-0.0048539508 0.31619039 0.062821627
0.021726912 0.31615067 0.062453032
0.048302997 0.31612352 0.062200904
0.074877292 0.31611103 0.062084556
0.10144398 0.31607139 0.061716318
0.12800558 0.31603366 0.061367393
0.15456182 0.31599611 0.061018467
0.18114582 0.31603575 0.061386824
0.20775324 0.31611103 0.062084556
0.23436067 0.31616747 0.062608361
0.26096812 0.31621146 0.06301558
0.28758183 0.3162553 0.063423157
0.31420183 0.3162992 0.063830733
0.34082812 0.31634304 0.064238191
0.36746264 0.31638911 0.064665318
0.39408907 0.31642061 0.064956665
0.42060116 0.31634113 0.064218879
0.44679624 0.31599396 0.060999155
0.47410476 0.31660491 0.066666722
0.50031149 0.31629086 0.06375289
0.58108455 0.31696352 0.069994211
0.60796481 0.31711876 0.071436405
0.71370012 0.31665933 0.06717217
0.73964012 0.31630951 0.06392765
-0.61833888 -0.34930509 0.074323893
-0.53980875 -0.35007933 0.083467245
-0.51210958 -0.34955168 0.077236056
0.07509882 -0.34948716 0.076473236
0.10200527 -0.3502956 0.086021185
-0.67278159 -0.32306024 0.079839349
0.20886104 -0.32327604 0.082643032
0.26203465 -0.29624942 0.078410149
0.34191319 -0.24271703 0.075984478
-0.75474513 -0.21659106 0.088027596
0.42280567 -0.18963453 0.083310246
0.55672836 -0.082691677 0.084802747
