ply
format ascii 1.0
comment PCL generated
element vertex 852
property float x
property float y
property float z
element camera 1
property float view_px
property float view_py
property float view_pz
property float x_axisx
property float x_axisy
property float x_axisz
property float y_axisx
property float y_axisy
property float y_axisz
property float z_axisx
property float z_axisy
property float z_axisz
property float focal
property float scalex
property float scaley
property float centerx
property float centery
property int viewportx
property int viewporty
property float k1
property float k2
end_header
-0.57563657 -0.0060708486 -0.38691962
-0.57563657 0.016624294 -0.3869195
-0.57563657 0.039319221 -0.3869195
-0.60131949 -0.074488103 -0.37254441
-0.57946658 -0.074598089 -0.36778367
-0.60048991 -0.051621038 -0.37653565
-0.57791728 -0.051636439 -0.37552464
-0.59966254 -0.028815307 -0.38051617
-0.57637596 -0.028794445 -0.38322544
-0.55556792 -0.028871011 -0.3732723
-0.5992409 -0.006070958 -0.38254511
-0.53387439 -0.006070903 -0.36728227
-0.55482483 -0.0060708486 -0.37713361
-0.5992409 0.016657935 -0.38254499
-0.55482483 0.016699495 -0.37713361
-0.53387439 0.016775351 -0.36728227
-0.60132247 0.039540835 -0.3725301
-0.55482483 0.039470002 -0.37713349
-0.53387707 0.039621767 -0.36726785
-0.57706881 0.062179562 -0.37976348
-0.55622488 0.062408384 -0.36985838
-0.62829036 -0.074934438 -0.3532207
-0.55855989 -0.074830458 -0.35772562
-0.62742192 -0.051917799 -0.35724998
-0.55705994 -0.051790606 -0.36551917
-0.53606385 -0.051945813 -0.35543156
-0.6265589 -0.028963469 -0.36125362
-0.53462178 -0.028948341 -0.36323714
-0.51353061 -0.029025944 -0.35314834
-0.62604469 -0.006070903 -0.36363924
-0.512784 -0.0060708486 -0.35736513
-0.51278657 0.016851861 -0.35735071
-0.51278657 0.039774463 -0.35735059
-0.53523809 0.062638357 -0.35990095
-0.51411247 0.062870294 -0.3498621
-0.5583241 0.085570678 -0.3589505
-0.53726959 0.085880101 -0.34890521
-0.65561539 -0.075386569 -0.33364332
-0.53751355 -0.075064585 -0.34758472
-0.51632082 -0.075300068 -0.33738923
-0.65470409 -0.052218489 -0.33772528
-0.51492202 -0.052102055 -0.34528959
-0.49363828 -0.052259449 -0.33506382
-0.65567422 -0.02917809 -0.33337951
-0.49229825 -0.029104367 -0.34297621
-0.47091815 -0.029182952 -0.33274937
-0.49155468 -0.0060708486 -0.34736717
-0.47017986 -0.0060708486 -0.33731627
-0.63098848 0.016980035 -0.34070313
-0.49155468 0.016928645 -0.34736693
-0.47017986 0.017005974 -0.33731616
-0.49155468 0.039928302 -0.34736705
-0.47017986 0.040082961 -0.33731616
-0.49284375 0.063103646 -0.33975506
-0.51607251 0.086191446 -0.33879149
-0.53931618 0.1092941 -0.33782768
-0.68330157 -0.075844705 -0.31380713
-0.4949854 -0.075537354 -0.32710934
-0.47350079 -0.075776175 -0.31677341
-0.47220606 -0.05241771 -0.32478261
-0.4506287 -0.052577395 -0.31441569
-0.44939366 -0.029262356 -0.32243729
-0.42771867 -0.029342199 -0.31206918
-0.44866076 -0.006070903 -0.32719743
-0.42699811 -0.0060708486 -0.3169955
-0.44866076 0.01708396 -0.32719767
-0.42699596 0.017162383 -0.31701016
-0.63637644 0.040415712 -0.31570601
-0.44866306 0.040238988 -0.32718277
-0.42699811 0.040395834 -0.31699538
-0.61168498 0.063498154 -0.32267344
-0.47143057 0.063338637 -0.32957935
-0.44987139 0.063575327 -0.31933439
-0.58929092 0.086810142 -0.31869805
-0.49473137 0.086504966 -0.32860935
-0.47324467 0.086820677 -0.31835771
-0.56683487 0.11018334 -0.31472731
-0.51804715 0.10968632 -0.32763886
-0.49663305 0.11008121 -0.31738067
-0.52003658 0.13335676 -0.31640279
-0.45187029 -0.076016888 -0.30635095
-0.43008775 -0.076258883 -0.29587162
-0.68630403 -0.052786887 -0.30080605
-0.42890003 -0.052737899 -0.30399191
-0.40702295 -0.052899603 -0.29348135
-0.40589601 -0.029422587 -0.3016144
-0.40518594 -0.006070903 -0.30673909
-0.38322499 -0.006070903 -0.29641247
-0.66129875 -0.0060708486 -0.30818498
-0.40518594 0.017241405 -0.30673897
-0.38322499 0.017320974 -0.29641247
-0.40518594 0.040553659 -0.30673885
-0.38322696 0.040713016 -0.29639745
-0.42816475 0.063813433 -0.30901933
-0.40630701 0.064053014 -0.29864836
-0.4516086 0.087138027 -0.30805075
-0.42982641 0.08745794 -0.29765821
-0.47506988 0.11047819 -0.30706704
-0.45336118 0.11087844 -0.2966677
-0.54432237 0.13361874 -0.31073105
-0.49854642 0.13383342 -0.30608249
-0.47691128 0.13431406 -0.29567623
-0.43128183 -0.099906236 -0.28770781
-0.40929511 -0.10023347 -0.2770834
-0.40815598 -0.07650283 -0.28530443
-0.38499168 -0.053062458 -0.28291249
-0.69224995 -0.029627161 -0.27505946
-0.38391992 -0.02950363 -0.29110205
-0.36179286 -0.02958533 -0.2805016
-0.36111379 -0.006070958 -0.28601515
-0.33885247 -0.0060707941 -0.27553153
-0.66700149 0.017427031 -0.28263974
-0.36111379 0.017401036 -0.28601527
-0.33885247 0.017481696 -0.27553141
-0.36111563 0.040873084 -0.28600013
-0.33885247 0.041034296 -0.27553141
-0.29141709 0.040983345 -0.27883148
-0.38430092 0.064294457 -0.28819084
-0.36214271 0.064537689 -0.27766132
-0.31347248 0.064195216 -0.29248798
-0.29141861 0.064510882 -0.27881622
-0.40789413 0.087780267 -0.28719413
-0.38581026 0.08810471 -0.27665758
-0.31347248 0.087617293 -0.2924881
-0.29141861 0.088038191 -0.27881622
-0.43150285 0.11128147 -0.28619659
-0.4094933 0.11168718 -0.275653
-0.33715722 0.11112687 -0.29021275
-0.31347248 0.11103933 -0.29248798
-0.29141861 0.1115655 -0.27881634
-0.45512694 0.13479802 -0.28519845
-0.33726522 0.13460957 -0.28927767
-0.31347409 0.13446194 -0.29247272
-0.29141861 0.13509281 -0.27881634
-0.33802643 0.15841152 -0.28268516
-0.31347409 0.15788414 -0.29247284
-0.29141861 0.15862001 -0.27881622
-0.31347409 0.18130632 -0.29247296
-0.29141861 0.18214735 -0.27881634
-0.29141861 0.20567463 -0.27881634
-0.38715258 -0.10056227 -0.26640034
-0.38606921 -0.076748252 -0.27467883
-0.36382988 -0.076995745 -0.26396334
-0.36280861 -0.053226456 -0.27225471
-0.34046835 -0.053391434 -0.26153767
-0.3395094 -0.029667247 -0.26984215
-0.31707153 -0.029750038 -0.25909281
-0.31643593 -0.0060707941 -0.26499069
-0.31643593 0.01756274 -0.26499057
-0.26970905 0.017607795 -0.25913894
-0.67280138 0.04132472 -0.25665963
-0.31643593 0.041196492 -0.26499057
-0.26916423 0.041195892 -0.26503658
-0.64783031 0.064886168 -0.2625668
-0.33983085 0.064782411 -0.26705849
-0.26916423 0.064829201 -0.2650367
-0.62503749 0.088665947 -0.25843108
-0.3635731 0.088431343 -0.26604795
-0.3389703 0.088170782 -0.27451098
-0.26916566 0.088462964 -0.26502132
-0.38733101 0.11209595 -0.26503658
-0.26916423 0.11209595 -0.26503658
-0.43318969 0.13528456 -0.27466321
-0.26916423 0.13572925 -0.26503658
-0.26916423 0.15936257 -0.2650367
-0.34093553 0.18346068 -0.25749171
-0.26916423 0.18299593 -0.2650367
-0.31635499 0.20658045 -0.26574147
-0.26916566 0.20663039 -0.26502132
-0.26916566 0.23026383 -0.2650212
-0.36485666 -0.10089409 -0.25562668
-0.34240189 -0.10122767 -0.2447927
-0.34143248 -0.077244565 -0.25318789
-0.31887907 -0.07749556 -0.24232125
-0.72388613 -0.053704578 -0.24120069
-0.31797284 -0.053557836 -0.2507298
-0.29531699 -0.05372522 -0.23986125
-0.29447415 -0.029833267 -0.24828327
-0.69830126 -0.006070958 -0.24885654
-0.29386589 -0.0060707941 -0.25436151
-0.27113762 -0.0060708486 -0.24367404
-0.29386437 0.017644439 -0.25437677
-0.24670829 0.017669614 -0.25113213
-0.2467096 0.041410189 -0.25111663
-0.2467096 0.065150648 -0.25111675
-0.2467096 0.088891059 -0.25111651
-0.60218328 0.11250974 -0.25428414
-0.3650125 0.11250679 -0.25436151
-0.2467096 0.11263163 -0.25111651
-0.36651081 0.1367842 -0.24219668
-0.24670829 0.13637143 -0.25113201
-0.2467096 0.16011266 -0.25111651
-0.2467096 0.18385318 -0.25111651
-0.2467096 0.20759375 -0.25111651
-0.24671091 0.23133548 -0.25110126
-0.29545739 0.2323087 -0.2384584
-0.31979021 -0.10156408 -0.23386669
-0.29701653 -0.1019025 -0.22287858
-0.7257297 -0.077699915 -0.23347545
-0.29616445 -0.077747971 -0.23139322
-0.27329019 -0.078002512 -0.22037208
-0.27250236 -0.053894024 -0.22890019
-0.27171889 -0.029917203 -0.23738182
-0.24880095 -0.030001525 -0.22641909
-0.24825113 -0.006070903 -0.23291218
-0.22520591 -0.006070903 -0.22205937
-0.70443887 0.017891556 -0.22227991
-0.22404921 0.017777583 -0.23708546
-0.20118168 0.017886641 -0.22292602
-0.22404921 0.041626178 -0.23708546
-0.20118168 0.041844185 -0.2229259
-0.22404921 0.065474659 -0.23708546
-0.20118278 0.065802008 -0.22291017
-0.22405042 0.089323699 -0.23706985
-0.20118278 0.089759663 -0.22291017
-0.22404921 0.11317164 -0.23708522
-0.20118278 0.11371736 -0.22291017
-0.224048 0.13701946 -0.23710096
-0.20118168 0.13767426 -0.22292602
-0.36764476 0.16108945 -0.2329905
-0.22404921 0.16086876 -0.23708534
-0.20118168 0.16163173 -0.2229259
-0.22404921 0.1847173 -0.23708546
-0.20118168 0.18558922 -0.22292578
-0.22404921 0.20856585 -0.23708534
-0.20118278 0.20954791 -0.22291017
-0.22405042 0.23241559 -0.23706985
-0.20118278 0.23350552 -0.22291005
-0.27408233 -0.10224366 -0.21179688
-0.25025159 -0.078258365 -0.20928812
-0.24952425 -0.054063648 -0.21787727
-0.22638369 -0.054234803 -0.20675957
-0.73027509 -0.030093817 -0.21442819
-0.22572145 -0.030086663 -0.21536231
-0.20247608 -0.030172186 -0.20424271
-0.2019978 -0.006070958 -0.21114612
-0.17810513 0.042064436 -0.20862067
-0.17810611 0.066132396 -0.20860469
-0.17810611 0.090200096 -0.20860469
-0.17810513 0.1142673 -0.20862043
-0.17810415 0.13833429 -0.20863652
-0.17810415 0.16240177 -0.20863652
-0.17810513 0.18647023 -0.20862067
-0.34638786 0.21042344 -0.21027315
-0.17810513 0.21053793 -0.20862055
-0.25098288 -0.1025869 -0.20065176
-0.22771922 -0.10293292 -0.18941069
-0.2270496 -0.078516528 -0.19810927
-0.20368001 -0.078776196 -0.18686604
-0.20307636 -0.054406993 -0.19557858
-0.17960283 -0.054580659 -0.18430078
-0.17906542 -0.030258635 -0.1930275
-0.1786264 -0.006070958 -0.20015621
-0.15509085 -0.006070903 -0.18907273
-0.73677939 -0.0060708486 -0.18717217
-0.17862739 0.018062053 -0.20014036
-0.15509085 0.018147247 -0.18907261
-0.71067941 0.04227021 -0.19525778
-0.15509085 0.042365398 -0.18907273
-0.68545097 0.066331193 -0.19999647
-0.15481548 0.066465423 -0.19418311
-0.66224504 0.090597883 -0.19569063
-0.15481634 0.090644747 -0.19416714
-0.63897192 0.11493067 -0.19138896
-0.15481548 0.11482303 -0.19418311
-0.15481374 0.13900039 -0.19421518
-0.15481374 0.16317889 -0.19421518
-0.1548146 0.18735842 -0.19419909
-0.20428696 -0.10328117 -0.17810488
-0.18068671 -0.10363227 -0.1667012
-0.18014327 -0.079038113 -0.17552555
-0.76298231 -0.054659516 -0.1791743
-0.15595919 -0.054755196 -0.17295825
-0.15548556 -0.030345414 -0.18174779
-0.13173655 -0.03043301 -0.17037046
-0.13138755 -0.0060708486 -0.17792666
-0.13138755 0.018233042 -0.17792666
-0.10758296 0.018332927 -0.16495347
-0.13138755 0.042536989 -0.17792666
-0.10758296 0.042736758 -0.16495347
-0.13183516 0.067064673 -0.16823518
-0.13130897 0.11538324 -0.17962801
-0.13130821 0.13967325 -0.17964399
-0.15691443 -0.10398549 -0.15523136
-0.13255665 -0.079567194 -0.15261447
-0.15643547 -0.079301566 -0.1641196
-0.13214545 -0.054931428 -0.16151738
-0.10826365 -0.055150803 -0.14726853
-0.76984155 -0.030579533 -0.15132928
-0.10789896 -0.030537916 -0.15674365
-0.10758359 -0.006070958 -0.16493702
-0.083636262 -0.0060708486 -0.15010881
-0.74338663 0.018374978 -0.15948498
-0.083636262 0.01844712 -0.15010881
-0.083635755 0.04296498 -0.15012538
-0.10798882 0.067384094 -0.15440905
-0.13241148 0.091827467 -0.15575767
-0.15739606 -0.12880814 -0.14629328
-0.13343374 -0.12929577 -0.13362515
-0.13299237 -0.10435642 -0.1431812
-0.10863116 -0.079911187 -0.13772047
-0.084186964 -0.055382356 -0.13222444
-0.083891943 -0.030652931 -0.14180541
-0.059464239 -0.006070903 -0.13512456
-0.059463851 0.01856235 -0.13514125
-0.75009918 0.043253928 -0.13135648
-0.059463851 0.043195713 -0.13514137
-0.72463578 0.067836344 -0.13482487
-0.083967067 0.067731544 -0.13936567
-0.70100164 0.092610165 -0.13033783
-0.10850395 0.092281014 -0.14102566
-0.10937218 -0.12987907 -0.11846817
-0.10900088 -0.1048204 -0.12811482
-0.084781826 -0.10528868 -0.11290574
-0.084483236 -0.080260381 -0.12260234
-0.80367386 -0.055653229 -0.11462688
-0.059881561 -0.055615984 -0.1170541
-0.0596582 -0.030768979 -0.12672591
-0.035194494 -0.030886177 -0.11150336
-0.7768271 -0.006070903 -0.12297153
-0.035063438 -0.0060708486 -0.12001562
-0.035063438 0.018678783 -0.1200155
-0.035063438 0.043428522 -0.12001562
-0.059717007 0.068082139 -0.12417936
-0.084383078 0.092748165 -0.12585521
-0.060032003 0.093219846 -0.11053991
-0.67728323 0.11745034 -0.12592196
-0.10902406 0.11738911 -0.12751269
-0.084803149 0.11797805 -0.11221313
-0.11010383 -0.15551865 -0.099459529
-0.085081697 -0.13046806 -0.10316706
-0.060331561 -0.10576102 -0.097568512
-0.060105883 -0.080612734 -0.10734081
-0.035495795 -0.080968574 -0.09193325
-0.035344817 -0.055851687 -0.10173953
-0.010497669 -0.031004574 -0.096118808
-0.010431254 -0.006070903 -0.10474622
-0.78393817 0.018878277 -0.09410429
-0.010431254 0.018796416 -0.10474622
-0.010431126 0.043663405 -0.10476315
-0.035235114 0.068435803 -0.1088649
-0.010518702 0.068793193 -0.093386531
-0.035447381 0.093695834 -0.095077634
-0.060350068 0.11857255 -0.096766949
-0.085680015 -0.15624489 -0.083736062
-0.18547997 -0.13101839 -0.088868141
-0.06055861 -0.13106196 -0.087736845
-0.03564769 -0.10623838 -0.082067251
-0.010649633 -0.08132787 -0.076377869
-0.010573421 -0.056089737 -0.086278319
-0.81104112 -0.0310854 -0.085625887
0.014436016 -0.031123901 -0.080603957
0.014436016 -0.006070903 -0.089348197
0.039541621 -0.0060708486 -0.073785305
0.014436016 0.018914923 -0.089348078
0.039541621 0.019034686 -0.073785305
0.014436016 0.043900747 -0.089348197
0.03954149 0.04414 -0.07380271
0.014436016 0.069154173 -0.077759147
-0.010625858 0.09417659 -0.079466581
-0.035661474 0.11917284 -0.081172228
-0.13631596 -0.15682289 -0.07122314
-0.06101808 -0.15697913 -0.067841411
-0.035800509 -0.1316622 -0.072141171
-0.010803731 -0.13226959 -0.056360126
-0.49008453 -0.10697499 -0.058142543
-0.010726312 -0.10672016 -0.066417098
0.014436016 -0.08169049 -0.060672879
0.014436016 -0.056330137 -0.070668697
0.039609719 -0.031244537 -0.064939499
-0.8185423 -0.006070903 -0.056097865
0.06488888 -0.006070903 -0.058090091
0.06488888 0.019155541 -0.058090091
-0.79116106 0.044278823 -0.064782739
0.06488888 0.044382039 -0.058090091
-0.76548421 0.069405213 -0.066886187
0.039632499 0.069518536 -0.061980128
-0.7413941 0.094706476 -0.06225884
0.014436016 0.094661921 -0.063704252
-0.71722406 0.12007731 -0.057670832
-0.01073394 0.11977886 -0.065426469
-0.086613499 -0.18290761 -0.053420305
-0.061494581 -0.18324222 -0.047208428
-0.036113828 -0.15772033 -0.051790714
-0.21301886 -0.13243468 -0.052071095
0.014436016 -0.13289177 -0.040196061
0.014436016 -0.10720681 -0.050615549
-0.79777038 -0.08221525 -0.037952304
0.039764497 -0.082056329 -0.044833183
-0.84606928 -0.056688827 -0.047366619
0.039686937 -0.056572724 -0.054908276
0.065182589 -0.056817438 -0.03901279
0.065026656 -0.031366214 -0.049141169
0.090481684 -0.006070903 -0.042225361
0.090481684 0.019277597 -0.042225361
0.090481274 0.044625934 -0.042242885
0.06507428 0.069886565 -0.046047688
0.039741747 0.09515211 -0.047788382
0.014436016 0.12039083 -0.049527287
-0.036434636 -0.18411824 -0.030953765
-0.16344589 -0.15854113 -0.03402257
-0.010963686 -0.15846899 -0.03558147
0.014436016 -0.15922526 -0.019211411
0.039925858 -0.13352019 -0.023871899
0.039842673 -0.10769761 -0.034678102
0.065497369 -0.10819364 -0.018567443
0.065339491 -0.082426101 -0.028821707
0.090926953 -0.057064883 -0.02294445
0.090690769 -0.031489089 -0.033171773
0.11632296 -0.0060708486 -0.026224136
-0.82619005 0.019402657 -0.025992632
0.11632296 0.01940091 -0.026224017
0.11632296 0.044872452 -0.026224017
0.090764955 0.070258036 -0.029959083
0.065294914 0.095646843 -0.031716943
0.039851949 0.12100883 -0.033473015
-0.03675954 -0.21085311 -0.0098507404
-0.11332417 -0.18493512 -0.015792489
-0.01112568 -0.18500273 -0.014537692
0.040089007 -0.15998894 -0.0026780367
-0.2411906 -0.1338843 -0.014412045
0.065669529 -0.13415468 -0.0073852539
0.091403335 -0.10869394 -0.0023167133
0.091164611 -0.082799435 -0.012653828
0.116923 -0.057314456 -0.0067367554
-0.85398161 -0.03161262 -0.017135859
0.11660556 -0.03161322 -0.017046213
0.14277402 -0.031738497 -0.00078070164
0.1424173 -0.006070903 -0.010048389
0.1424173 0.01952537 -0.010048628
0.1424173 0.0451217 -0.010048628
0.1167082 0.070633218 -0.013712525
0.091099158 0.096146584 -0.01548779
0.065517478 0.12163275 -0.017261028
0.091435887 0.12226233 -0.0009073019
-0.062645361 -0.21162127 0.0026220083
-0.011289755 -0.21187708 0.0067762136
0.014436016 -0.18589617 0.0020422935
-0.1912014 -0.16029897 0.0040359497
0.065999098 -0.1607601 0.014020801
0.091670834 -0.13479559 0.0092666149
0.11756498 -0.10919987 0.014112115
0.11724299 -0.083176136 0.0036551952
0.14317542 -0.057566654 0.0096485615
0.16920114 -0.03186509 0.015663505
-0.86204088 -0.006070903 0.013656259
0.16876717 -0.006070958 0.006267786
0.168768 0.019651031 0.0062859058
-0.83396113 0.045347136 0.0045981407
0.16876717 0.045372803 0.006267786
-0.80810463 0.071042314 0.0039994717
0.14290777 0.07101211 0.0026946068
-0.7835356 0.096893132 0.0087572336
0.11715821 0.096651301 0.00090169907
0.14347586 0.097160891 0.017453909
-0.7589007 0.12281859 0.013546586
0.11761163 0.12289861 0.015626907
-0.011455949 -0.23909864 0.028365612
0.014436016 -0.21291131 0.02357018
-0.14065447 -0.18700987 0.022708416
0.040254258 -0.18679851 0.018788695
0.066332929 -0.18771009 0.035704136
0.092170164 -0.16153926 0.030888081
-0.27001461 -0.1353666 0.024102569
0.11793368 -0.13544296 0.026085615
0.14398585 -0.10971075 0.030703664
0.14357938 -0.08355695 0.020143151
0.16968675 -0.057821143 0.026177526
0.1958902 -0.031992882 0.032270432
0.1953779 -0.006070903 0.022763252
0.1953779 0.019777948 0.022763252
0.1953779 0.045626801 0.022763371
0.16936745 0.071394771 0.019264579
0.19609116 0.071781307 0.035999894
0.17005511 0.097675115 0.034152508
0.14404827 0.12354127 0.032325745
0.014436016 -0.24027722 0.04537797
-0.089537933 -0.21401878 0.041553497
0.040421654 -0.21395603 0.040534139
0.092675991 -0.18863085 0.052790999
-0.21960561 -0.16209865 0.043000698
0.11860618 -0.1623262 0.047925949
0.14446202 -0.13609688 0.043074965
0.17066891 -0.11022612 0.047442079
0.1701763 -0.083941028 0.036776304
0.19703925 -0.084329382 0.053593874
0.19646141 -0.058078092 0.04287076
0.22284515 -0.03212209 0.049043059
0.22225152 -0.006070903 0.039404035
-0.87025106 0.019949265 0.045024753
0.22225267 0.019906232 0.039422393
0.22225152 0.045882985 0.039404035
0.22308287 0.072171509 0.052902937
0.19690147 0.098195121 0.051037192
0.17074975 0.12419055 0.049192071
-0.037844665 -0.24133395 0.06063056
0.040591232 -0.24146791 0.062563062
0.066671118 -0.21501128 0.057670116
0.11928749 -0.18956093 0.070051908
-0.16862623 -0.18913311 0.06211257
0.14531119 -0.16312119 0.065137386
-0.2995151 -0.13688388 0.063521028
0.17125988 -0.13675746 0.060236692
0.19761974 -0.11074722 0.06436646
0.22417031 -0.084721208 0.070561051
0.22350448 -0.058338095 0.059749246
0.25006995 -0.032252505 0.065983653
0.24939416 -0.0060708486 0.056228995
0.27680734 -0.0060708486 0.073204041
0.24939416 0.020035606 0.056229115
0.2768088 0.020166347 0.073222995
0.24939416 0.04614206 0.056229115
0.27680734 0.046403486 0.073204041
0.25034529 0.072565541 0.069957614
0.22401823 0.098720208 0.068091869
0.19772004 0.12484632 0.066228151
0.067013741 -0.24267073 0.079924107
-0.11706527 -0.21647301 0.081404209
0.09318845 -0.21607746 0.074980855
0.14617154 -0.19050063 0.087489843
-0.24867915 -0.16393998 0.082866549
0.17228931 -0.16392414 0.082524538
0.19833143 -0.13742481 0.077573895
0.22484042 -0.11127314 0.081442118
0.25157446 -0.085117042 0.087699175
0.25081918 -0.058600452 0.076797366
0.2775687 -0.032384224 0.083094597
0.30449796 -0.006070903 0.090368867
0.30449796 0.020298451 0.090368867
-0.87861651 0.046461649 0.07698667
0.30449796 0.046667643 0.090368986
-0.85259563 0.072750226 0.077952623
0.27788505 0.072963819 0.087204099
-0.82754648 0.099176824 0.082923651
0.25140956 0.099250659 0.085319161
-0.80242878 0.1256815 0.087927938
0.22496323 0.12550876 0.083436608
-0.064915806 -0.24412635 0.10093534
0.093708538 -0.24388845 0.097501636
0.11997717 -0.21715319 0.092450142
-0.19726111 -0.19130588 0.10243368
0.17333147 -0.19144897 0.10508776
0.19954476 -0.16473556 0.10009062
-0.32971805 -0.13843785 0.10389483
0.22568083 -0.13809894 0.095088959
0.25233725 -0.11180483 0.098709464
0.27925581 -0.085516855 0.10501087
0.27840957 -0.058865536 0.094017625
0.30534554 -0.032517206 0.10037851
0.33246711 -0.0060708486 0.10768795
0.33246887 0.020431759 0.10770738
0.33246711 0.046934202 0.10768819
0.30570519 0.073366031 0.10462582
0.27907962 0.09978655 0.10272193
0.25248352 0.12617764 0.10082006
0.12067897 -0.24511755 0.11524189
-0.14525101 -0.21898684 0.122226
0.14704253 -0.21824135 0.11011875
0.17439017 -0.21934308 0.12800944
0.20077212 -0.19240691 0.12286758
-0.27844703 -0.16582534 0.12368464
0.22708063 -0.1655544 0.11781883
0.25331244 -0.13878 0.11278462
0.28011197 -0.11234133 0.11613262
0.30722022 -0.085921139 0.12251759
0.30627987 -0.059133403 0.11141241
0.33340472 -0.032651603 0.11783814
0.36072245 -0.006070903 0.12520301
0.36072439 0.020566594 0.12522221
0.36072245 0.047203984 0.12520301
0.33381006 0.073772565 0.122226
0.30703267 0.10032786 0.12030256
0.28028506 0.12685367 0.11838114
-0.0926373 -0.24698587 0.14220834
0.14792964 -0.2463593 0.13316607
0.20202224 -0.22045518 0.14606702
-0.22658387 -0.19353081 0.14372313
0.22849911 -0.19337609 0.14085197
0.25490221 -0.16638166 0.13573074
0.28122908 -0.13946745 0.13064444
0.30816999 -0.1128833 0.13373375
0.33547077 -0.086329475 0.1402036
0.33443439 -0.059404004 0.12898481
0.36175054 -0.032787368 0.13547635
0.38926467 -0.006070903 0.1428771
0.38926679 0.020702686 0.14289689
0.38926679 0.047476329 0.14289665
0.36220399 0.074183181 0.14000726
0.33527309 0.10087492 0.13806391
0.30837229 0.12753643 0.1361227
0.17546488 -0.24761422 0.15127778
-0.17411628 -0.22155929 0.16399539
0.22994401 -0.22157888 0.16431403
0.25651875 -0.19435757 0.15906417
0.28301391 -0.1672176 0.15382981
0.30943647 -0.14016211 0.14869034
0.33651567 -0.11343068 0.15151513
0.36401173 -0.086742282 0.15807152
0.36287749 -0.05967728 0.14673722
0.3916136 -0.059953395 0.16467249
0.39038745 -0.032924555 0.1532954
0.41810223 -0.0060710125 0.16075277
0.41810453 0.020840362 0.16077232
0.41810223 0.047751244 0.16075277
0.39089149 0.074598178 0.15797222
0.36380532 0.1014273 0.15600896
0.33674961 0.12822644 0.15404749
0.20329033 -0.24888356 0.16959953
0.25816 -0.22271445 0.18275321
0.28483203 -0.19534813 0.1774478
0.31142205 -0.16806325 0.17213845
0.33793914 -0.14086387 0.16692495
0.36515343 -0.11398394 0.16947985
0.39284778 -0.087159127 0.17612386
0.42064729 -0.06023246 0.1827935
0.41931996 -0.033063103 0.17129838
0.44723529 -0.006070958 0.17879283
0.44723776 0.020979131 0.17881274
0.44723776 0.048029326 0.17881286
0.41987714 0.075017318 0.1761241
0.39263397 0.10198577 0.17414021
0.36542147 0.12892357 0.17215848
-0.12103286 -0.2499148 0.18448496
0.23140852 -0.2501649 0.18809474
0.28667647 -0.22386321 0.20140815
0.31344479 -0.1963492 0.19602609
-0.31190532 -0.1692415 0.19764912
0.34013364 -0.16891962 0.19068074
-0.36559251 -0.14179543 0.19112551
0.36674178 -0.14157316 0.18535149
0.39409003 -0.11454344 0.1876508
0.42198336 -0.087580353 0.19436419
0.44998571 -0.06051464 0.2011236
0.44855514 -0.033203289 0.18950844
0.47667325 -0.0060708486 0.19704044
0.47667325 0.021119591 0.19704044
0.47667325 0.04831003 0.19704032
0.44916567 0.075440884 0.19446528
0.42176357 0.10254973 0.19246078
0.39439043 0.12962708 0.19043815
0.25982505 -0.25145996 0.20678627
-0.2039316 -0.22443843 0.21074867
-0.2580176 -0.19678845 0.20417655
0.34236187 -0.19736099 0.21480191
0.36914837 -0.16978434 0.2093997
0.39585128 -0.14229065 0.20399332
0.42332822 -0.11510889 0.20601118
0.45142576 -0.088006482 0.21281528
0.47962877 -0.060799383 0.21962488
0.47809282 -0.033344734 0.20788813
0.50641572 -0.006070903 0.21545815
0.50641853 0.021261526 0.21547842
0.50641853 0.048593845 0.21547854
0.4787617 0.075868994 0.21299958
0.45119894 0.10311984 0.21097374
0.50641 0.10325663 0.21541691
0.42366526 0.13033883 0.20892978
0.50641286 0.13058934 0.21543753
0.50641853 0.15792312 0.21547854
-0.15012737 -0.25291595 0.22780228
0.28854629 -0.25277016 0.22569752
0.31549531 -0.22502312 0.22024155
0.37159017 -0.19838469 0.23379934
0.39847288 -0.17065807 0.22831845
0.42527309 -0.14301659 0.22285438
0.45287284 -0.11568013 0.22456396
0.48117489 -0.088436484 0.23143935
0.50794029 -0.033487871 0.22646093
0.53647298 -0.0060708486 0.23408926
0.53647298 0.021404827 0.23408949
0.53646994 0.048880011 0.23406863
0.50714689 0.07604751 0.22073495
0.5364669 0.076355085 0.23404801
0.48094493 0.10369597 0.22968185
0.5364669 0.10383038 0.23404801
0.4532488 0.13105807 0.22761655
0.53646994 0.13130648 0.23406875
0.53647298 0.15878282 0.23408926
0.50756896 0.18570305 0.22378099
0.53646994 0.18625741 0.23406875
0.5364669 0.2137315 0.23404801
0.31757414 -0.25409299 0.24479115
0.3446227 -0.22619529 0.23927653
0.40113071 -0.19941826 0.25298023
0.42811206 -0.17154136 0.24744022
0.45501021 -0.14375035 0.24191725
0.48272863 -0.11625731 0.24331212
0.51123804 -0.088871315 0.25026035
0.50958365 -0.061087243 0.23832095
0.53810227 -0.033632264 0.24522913
0.56684411 -0.0060710125 0.25289643
0.56684411 0.021549547 0.25289643
0.56684411 0.049169999 0.25289667
0.56684089 0.076789841 0.25287569
0.56683767 0.10440943 0.25285482
0.48207542 0.1314701 0.23832107
0.56684089 0.13203041 0.25287545
0.48256513 0.15915106 0.24206305
0.56684411 0.15965164 0.25289643
-0.64809418 0.18716696 0.25095046
0.56684089 0.18727078 0.25287545
0.56683767 0.21488975 0.25285459
0.34691495 -0.25543007 0.26409054
0.37406579 -0.22738151 0.25853729
0.43098807 -0.20046183 0.27234709
0.45806846 -0.172433 0.26674724
0.48506492 -0.14449117 0.26116467
0.51290059 -0.11684084 0.26225877
0.54162014 -0.089310557 0.26928091
0.5398553 -0.061378267 0.25721478
0.56858701 -0.033778459 0.26421714
0.5975405 -0.0060708486 0.27192414
0.5975405 0.021695852 0.2719239
0.59753704 0.049462445 0.2719028
0.59753358 0.077228814 0.27188182
0.59753358 0.10499519 0.27188158
0.59753358 0.13276188 0.27188158
-0.67855704 0.16024739 0.26579809
0.59753704 0.1605293 0.2719028
-0.62321842 0.18799776 0.26636732
0.48510349 0.18773346 0.26145923
0.59753358 0.18829484 0.2718817
-0.62321466 0.21572067 0.26634634
0.5125742 0.21532385 0.25990319
0.59753025 0.21606024 0.2718606
0.56806529 0.24306215 0.26082814
0.59753704 0.24382946 0.2719028
0.40382332 -0.228578 0.27796459
0.46117213 -0.20151797 0.2919457
0.48835233 -0.17333546 0.28628469
0.5154478 -0.14524081 0.28064144
0.54339373 -0.11743042 0.28140736
0.5723263 -0.089754328 0.28850436
0.57044876 -0.061672077 0.27630925
0.59939343 -0.033925913 0.28338647
0.62856048 -0.006070958 0.29113281
0.62856048 0.021843849 0.29113281
0.62855685 0.049758218 0.29111147
0.62855327 0.077672377 0.29109025
0.62855327 0.10558674 0.29109025
0.62855327 0.13350116 0.29109025
0.45971698 0.16090944 0.28013146
0.62855685 0.16141668 0.29111147
-0.59812784 0.18883578 0.28191781
0.62855327 0.18933012 0.29109025
-0.59812063 0.21667697 0.28187525
0.62854964 0.21724324 0.29106879
0.51896346 -0.17424682 0.30601406
-0.40651205 -0.14638695 0.31041789
0.54615837 -0.14599784 0.30030906
0.57421327 -0.11802635 0.30076063
0.60336173 -0.090203181 0.30793393
0.6013692 -0.061969217 0.29560804
0.63052982 -0.034075275 0.30276108
0.65991652 -0.0060710125 0.31056905
0.65991652 0.021993484 0.31056929
0.65990883 0.050057109 0.31052577
0.65990883 0.07812123 0.31052601
0.65990883 0.10618533 0.31052577
0.65990883 0.13424934 0.31052601
0.65990883 0.16231334 0.31052601
-0.68463248 0.18966828 0.29736686
-0.57281619 0.1896798 0.29758132
0.65990502 0.19037615 0.3105042
-0.65697515 0.21773271 0.29901981
-0.57281274 0.21764299 0.29755998
0.49020168 0.21781886 0.30041659
0.65990502 0.21844016 0.3105042
-0.60287398 0.24646491 0.30994236
-0.57281619 0.2456086 0.29758132
0.54746622 0.24641711 0.30925107
-0.29544055 -0.20326518 0.3243686
-0.35108346 -0.17477229 0.31739092
0.57720822 -0.14676398 0.32021368
0.60536438 -0.11862865 0.32032216
0.63473183 -0.090656728 0.32757306
0.63262188 -0.062269691 0.31511402
0.66200137 -0.034226 0.32234442
-0.54728764 0.19053239 0.31340301
-0.52153587 0.19139236 0.32936299
-0.54728431 0.21861738 0.31338131
-0.5215295 0.2195988 0.32931924
-0.54728431 0.24670318 0.31338131
-0.23958163 -0.23186429 0.33132946
0.63685256 -0.11923747 0.34009528
0.66644198 -0.091115236 0.3474251
0.66421211 -0.062573165 0.33483076
0.69381356 -0.034378424 0.34213936
0.69160646 -0.0060708486 0.33019292
0.69160646 0.022144485 0.33019292
0.69168717 0.050366756 0.33063006
0.69159836 0.10678945 0.33014929
0.69159836 0.13500457 0.33014929
-0.49555767 0.16392706 0.34546316
0.69159836 0.16321979 0.33014953
-0.49555463 0.19225873 0.3454411
0.69614965 -0.062880307 0.35478389
0.72597629 -0.03453248 0.36217237
0.7236436 -0.0060708486 0.3500514
0.7236436 0.022297507 0.3500514
0.72375411 0.050674491 0.35062575
0.69496942 0.078995883 0.34839559
0.69849777 -0.091578513 0.36749327
0.72843206 -0.06319055 0.37493265
0.75848687 -0.034688178 0.38240206
0.75602537 -0.0060710125 0.37010396
0.75602537 0.02245173 0.37010348
0.75617284 0.050985724 0.37084079
0.72721058 0.079462096 0.36858618
0.73198658 -0.092177063 0.39340281
0.76107341 -0.063504569 0.39532554
0.79135984 -0.034845952 0.40287721
0.78876615 -0.0060708486 0.39039826
0.78876615 0.022607975 0.39039803
0.78894913 0.051300339 0.39127886
0.75980729 0.079933405 0.3889991
0.73070532 0.1085321 0.38674498
0.7662183 -0.092815086 0.42103052
0.79519492 -0.063904867 0.42132866
0.82186264 -0.006070903 0.41089332
0.82186264 0.022765802 0.41089332
0.82208896 0.051618561 0.41194344
0.79276991 0.08041048 0.40966129
0.76348197 0.10916696 0.40735924
0.73423439 0.13788876 0.40508282
0.82459205 -0.035005089 0.42355621
0.85533047 -0.0060710125 0.43163824
0.85533047 0.022925485 0.43163812
0.85559839 0.051940169 0.43283844
0.8260954 0.080892652 0.43053102
0.79662377 0.10980882 0.42820323
0.83016193 -0.064337067 0.44939685
0.85935736 -0.035206061 0.44967651
0.889171 -0.006070903 0.45261419
0.889171 0.023086863 0.45261419
0.88948369 0.052265543 0.45396805
0.85978925 0.081379458 0.45161104
0.83013678 0.11045776 0.44928062
0.86402732 0.11111414 0.47059536
0.86565006 -0.064775325 0.47786415
0.17201643 0.18302549 0.75895953
0.20446122 0.18395422 0.77906656
0.2044625 0.21562673 0.77909398
0.23722625 0.18489212 0.79937196
0.17373471 0.21694724 0.80360198
0.23722775 0.21672092 0.79939961
0.14203472 0.18532716 0.80878997
0.27031454 0.18583798 0.81985068
0.2703163 0.21782431 0.81987858
0.30373427 0.18679444 0.84056163
0.30373624 0.21894035 0.84058952
0.33748883 0.18776076 0.86147976
0 0 0 1 0 0 0 1 0 0 0 1 0 0 0 0 0 852 1 0 0
