ply
format ascii 1.0
comment PCL generated
element vertex 1302
property float x
property float y
property float z
element camera 1
property float view_px
property float view_py
property float view_pz
property float x_axisx
property float x_axisy
property float x_axisz
property float y_axisx
property float y_axisy
property float y_axisz
property float z_axisx
property float z_axisy
property float z_axisz
property float focal
property float scalex
property float scaley
property float centerx
property float centery
property int viewportx
property int viewporty
property float k1
property float k2
end_header
0.61015266 0.079603188 -0.4457978
0.61108601 0.10118006 -0.44130731
0.6120224 0.12282658 -0.43680215
0.57142526 -0.0063171228 -0.42423511
0.59203005 0.015287444 -0.42923057
0.57142788 0.015287549 -0.42422187
0.57143039 0.036892273 -0.4242084
0.59066206 0.036800995 -0.43606532
0.57142526 0.058496524 -0.42423511
0.59065676 0.05831407 -0.43609154
0.57184196 0.080151156 -0.42206991
0.59107858 0.07987605 -0.43398404
0.63615602 0.080092236 -0.42461991
0.59198505 0.10154507 -0.4294554
0.63400984 0.10138734 -0.43457711
0.59289438 0.12328432 -0.42491186
0.59380674 0.14509416 -0.42035365
0.61296177 0.14454314 -0.43228245
0.61519504 0.16666476 -0.42153776
0.55202991 -0.028105725 -0.4122777
0.55202991 -0.0064090872 -0.4122777
0.55203241 0.015287602 -0.41226423
0.55203485 0.036984291 -0.41225088
0.55202746 0.058680508 -0.41229105
0.61643881 0.058630228 -0.41555357
0.55244076 0.08042869 -0.41005349
0.55329186 0.10228427 -0.40544677
0.572721 0.10191304 -0.4175024
0.57360286 0.12374583 -0.41292024
0.638978 0.12379946 -0.41152763
0.57448763 0.14564985 -0.40832281
0.57541937 0.16763778 -0.40348148
0.59476209 0.16698577 -0.41558039
0.59572607 0.18895358 -0.41076398
0.51316381 -0.05041974 -0.38554609
0.51273906 -0.028478645 -0.38805425
0.53246856 -0.028291341 -0.40021765
0.51273906 -0.0065955473 -0.38805425
0.53246856 -0.0065020015 -0.40021765
0.59801805 -0.0065089567 -0.39931262
0.53247094 0.015287444 -0.40020418
0.51274139 0.015287549 -0.38804066
0.51274139 0.037170701 -0.38804066
0.53247094 0.037077047 -0.40020418
0.62162846 0.037151095 -0.39058495
0.5127368 0.059053477 -0.38806784
0.53246611 0.058866125 -0.40023112
0.51313609 0.080990858 -0.38570964
0.53287292 0.080708481 -0.39793396
0.53369552 0.10265867 -0.39328754
0.53452086 0.124681 -0.38862598
0.55414575 0.12421127 -0.40082502
0.53535134 0.14677617 -0.38393533
0.55500495 0.146211 -0.39617479
0.64401412 0.14658102 -0.38816309
0.55590957 0.16829541 -0.39127815
0.55693585 0.1904957 -0.38572347
0.57647133 0.18973877 -0.39801502
0.57751691 0.2119215 -0.39258182
0.57861382 0.23420854 -0.38688242
0.59805858 0.23326732 -0.3991102
0.49325934 -0.05070512 -0.37318707
0.49283928 -0.028667584 -0.37578571
0.58059347 -0.028655145 -0.37659574
0.49284148 -0.0066900952 -0.375772
0.49284148 0.015287496 -0.37577176
0.6246559 0.015287496 -0.37601912
0.49284148 0.037265141 -0.37577188
0.49283704 0.059242256 -0.37579918
0.4932282 0.081275605 -0.37337959
0.66941786 0.081298426 -0.3723886
0.49399245 0.10341726 -0.36865234
0.51392978 0.10303628 -0.38102317
0.66819376 0.10313331 -0.37787199
0.51472843 0.12515506 -0.37630761
0.51552743 0.14734651 -0.3715899
0.51637816 0.16962698 -0.3665663
0.53622824 0.16895786 -0.37898254
0.53722274 0.19125672 -0.373366
0.6243934 0.19101553 -0.37728226
0.53821868 0.21364263 -0.36774099
0.55788004 0.21275076 -0.38061261
0.60398883 0.21352214 -0.36948061
0.55900037 0.23515798 -0.37454891
0.47317907 -0.050992742 -0.36073422
0.45251992 -0.029050253 -0.35092819
0.472767 -0.028858047 -0.36341071
0.45252198 -0.006881508 -0.35091412
0.47276911 -0.0067853807 -0.36339688
0.45252198 0.015287496 -0.35091424
0.47276911 0.015287444 -0.36339688
0.45251992 0.037456397 -0.35092819
0.472767 0.03736027 -0.36341083
0.4525179 0.059625033 -0.35094202
0.47276485 0.059432827 -0.36342454
0.6494419 0.059439678 -0.3629812
0.45289025 0.081852593 -0.34839618
0.473147 0.081562832 -0.36094224
0.47388119 0.10380146 -0.35617375
0.45251992 0.12613185 -0.35092807
0.47461995 0.12611477 -0.35137534
0.49476141 0.12563281 -0.36389565
0.67355418 0.12601906 -0.35386014
0.45251992 0.1483008 -0.35092819
0.49553069 0.14792165 -0.35913694
0.4525179 0.17046896 -0.35094202
0.49635437 0.17030188 -0.35404146
0.64915228 0.16974783 -0.36432493
0.51733768 0.19202451 -0.36090076
0.45252198 0.19263949 -0.35091412
0.4972783 0.19279875 -0.34832609
0.51829863 0.2145097 -0.35522652
0.51923734 0.2370722 -0.34968376
0.53921604 0.23611572 -0.36210775
0.62679023 0.23583534 -0.36575043
0.45370686 -0.073637858 -0.34281301
0.43249279 -0.0515761 -0.33547139
0.45292506 -0.051283076 -0.348158
0.54397213 -0.051581323 -0.33524537
0.43209583 -0.029244196 -0.33833635
0.43209776 -0.0069784811 -0.33832228
0.63140583 -0.0069381641 -0.34354365
0.43209776 0.015287496 -0.33832228
0.43209583 0.037553262 -0.33833623
0.65528625 0.037572343 -0.33586681
0.43209583 0.059819188 -0.33833635
0.43209973 0.082085587 -0.33830822
0.4540484 0.10428473 -0.34047782
0.47535905 0.1485018 -0.3465749
0.43209383 0.21567887 -0.33835053
0.49820364 0.21538426 -0.34260201
0.4991304 0.23805852 -0.33686924
0.41258994 -0.074425176 -0.31724668
0.43323997 -0.074030094 -0.33007896
0.41187984 -0.05187171 -0.32267249
0.41149229 -0.029439665 -0.325634
0.61394274 -0.029530317 -0.31974781
0.41149417 -0.0070762942 -0.3256197
0.41149417 0.015287444 -0.32561982
0.65856057 0.015287444 -0.32067585
0.41149044 0.037651025 -0.32564819
0.41149417 0.06001487 -0.3256197
0.70394135 0.082550526 -0.31817615
0.70378619 0.10495073 -0.31884789
0.4344421 0.12726831 -0.3214035
0.4344421 0.1496644 -0.32140338
0.67899615 0.14929128 -0.32948327
0.47957507 0.17217992 -0.31919086
0.45616749 0.21653527 -0.3259896
0.63583267 0.21679457 -0.32224488
0.41149417 0.23892458 -0.32561982
0.4333933 0.23866639 -0.32897234
0.65905005 0.23947994 -0.31840503
0.39175814 -0.074824236 -0.30428576
0.37010238 -0.052470826 -0.29673219
0.39108387 -0.052169949 -0.30975997
0.3697376 -0.02983604 -0.29989159
0.39070705 -0.029636983 -0.31281948
0.36973926 -0.0072742971 -0.29987705
0.3907088 -0.0071749007 -0.31280506
0.36973926 0.015287496 -0.29987693
0.3907088 0.015287496 -0.31280529
0.68369788 0.060279749 -0.30842221
0.39281538 0.12825757 -0.29570174
0.41372025 0.12776075 -0.30860937
0.39281181 0.15085025 -0.29573095
0.4137165 0.15025398 -0.30863798
0.39281002 0.1734433 -0.29574549
0.68452466 0.1729596 -0.30471861
0.39281002 0.19603689 -0.29574549
0.48200324 0.19556428 -0.30341947
0.66099399 0.19519691 -0.30938601
0.39281002 0.21863066 -0.29574549
0.41372025 0.21773936 -0.30860925
0.3907088 0.26237336 -0.31280506
0.36973926 0.26346809 -0.29987705
0.37138203 -0.098069467 -0.28565049
0.39409661 -0.098083064 -0.28529942
0.3495335 -0.075633265 -0.27801502
0.37074018 -0.075226881 -0.2912091
0.34893289 -0.05277434 -0.28358793
0.34858152 -0.030036885 -0.28684843
0.34858307 -0.0073746955 -0.28683388
0.66616052 -0.0073857615 -0.2854166
0.34858307 0.015287549 -0.28683388
0.69026637 0.038010031 -0.27899909
0.37172332 0.060675751 -0.28269458
0.39388964 0.060609873 -0.28698003
0.37172332 0.083369881 -0.2826947
0.37171993 0.10606306 -0.2827239
0.37171993 0.12875703 -0.2827239
0.70953417 0.12832467 -0.29395866
0.37171993 0.15145095 -0.2827239
0.3717216 0.17414565 -0.28270924
0.41578975 0.19621858 -0.29279554
0.34858465 0.26457381 -0.28681934
0.35013798 -0.098579258 -0.27240634
0.32813564 -0.076043181 -0.26470196
0.48622915 -0.075696193 -0.27597117
0.32757291 -0.053080589 -0.27032518
0.57893622 -0.053165704 -0.26664293
0.30569938 -0.030443799 -0.26041102
0.32723626 -0.030239474 -0.27368879
0.64863831 -0.03044048 -0.26063406
0.30570075 -0.0075782305 -0.26039612
0.32723776 -0.0074760942 -0.27367425
0.30570075 0.015287444 -0.26039612
0.32723776 0.015287444 -0.27367401
0.69376934 0.015287496 -0.26330769
0.30569938 0.038153224 -0.26041102
0.30569938 0.061018843 -0.26041102
0.32723776 0.060814623 -0.27367413
0.35044187 0.060877603 -0.26958632
0.35044187 0.083672658 -0.26958644
0.7397998 0.083850995 -0.26186752
0.35044187 0.10646771 -0.26958644
0.35044187 0.12926276 -0.26958644
0.35044029 0.15205708 -0.26960123
0.71542555 0.15211035 -0.26844811
0.35044187 0.17485276 -0.26958632
0.35043868 0.19764602 -0.26961601
0.35044029 0.22044188 -0.26960123
0.66874552 0.22017704 -0.27342343
0.30569938 0.24394433 -0.2604109
0.46472424 0.24339961 -0.26748657
0.69238746 0.24324472 -0.26949775
0.41948566 0.26645917 -0.26455367
0.30707011 -0.099612109 -0.24557221
0.328702 -0.099093631 -0.2590425
0.30654392 -0.076456785 -0.25126827
0.28427088 -0.053701416 -0.24343836
0.30601978 -0.053389683 -0.25694239
0.28396815 -0.030650232 -0.24701333
0.28396943 -0.007681421 -0.24699831
0.28396943 0.015287444 -0.24699831
0.28396815 0.038256254 -0.24701333
0.28396943 0.061225381 -0.24699843
0.71928596 0.061152495 -0.25173211
0.2839669 0.084193617 -0.24702835
0.30704376 0.084220544 -0.24585772
0.28405586 0.10719457 -0.24597776
0.74087906 0.10684463 -0.25734496
0.30730891 0.1302866 -0.24298716
0.30730751 0.15328567 -0.24300218
0.32897031 0.15266863 -0.25636125
0.72139943 0.17630808 -0.24258089
0.2843588 0.19932204 -0.24240017
0.28397068 0.22200891 -0.24698353
0.32896885 0.22135819 -0.25637603
0.32881373 0.24413565 -0.25792587
0.28573236 -0.12348771 -0.22617912
0.30759966 -0.12285677 -0.23983967
0.28524247 -0.10013581 -0.23196459
0.28475574 -0.076874293 -0.23771226
0.26232243 -0.05401589 -0.22982609
0.26204005 -0.030858353 -0.23349428
0.26204121 -0.0077855075 -0.23347914
0.70233655 -0.0078513836 -0.22493124
0.26204121 0.015287496 -0.23347914
0.26204005 0.038360395 -0.2334944
0.26204121 0.061433397 -0.23347926
0.26228389 0.084579289 -0.23032677
0.26268402 0.10783664 -0.22512901
0.28536186 0.1307651 -0.23055434
0.74707681 0.13073358 -0.23137331
0.26204005 0.15372477 -0.23349428
0.28545055 0.15390892 -0.22950745
0.28544155 0.17700686 -0.22961354
0.69937879 0.19958192 -0.23818028
0.30758017 0.22248924 -0.24005055
0.35369974 0.24556509 -0.23935699
0.2636632 -0.12412377 -0.2124089
0.33221474 -0.12359107 -0.22394109
0.26321495 -0.10066441 -0.21823192
0.42607266 -0.10081893 -0.21421957
0.24057913 -0.077720478 -0.21022725
0.26276842 -0.07729549 -0.22403252
0.24017407 -0.054333471 -0.21607387
0.23991336 -0.03106853 -0.21983695
0.23991232 -0.0078904359 -0.21985221
0.23991232 0.015287496 -0.21985233
0.23991232 0.038465325 -0.21985233
0.33246192 0.038452886 -0.22147071
0.72663772 0.038465008 -0.21989799
0.23991336 0.061643519 -0.21983695
0.24013694 0.08489608 -0.21660984
0.33351177 0.085026093 -0.2109803
0.42676023 0.085072525 -0.20896578
0.24050035 0.10826042 -0.21136439
0.30980495 0.10811881 -0.21596682
0.42676023 0.10833426 -0.20896578
0.44819191 0.10792761 -0.22217262
0.26308551 0.13117464 -0.21991336
0.42676222 0.17812024 -0.2089504
0.44819403 0.17740861 -0.22215736
0.31009391 0.20114258 -0.21283865
0.44819403 0.20056877 -0.22215748
0.70278215 0.22367503 -0.2229352
0.38032922 0.24796614 -0.20816541
0.72687775 0.24714293 -0.21885884
0.12447138 -0.14774299 -0.2052834
0.14823359 -0.14840402 -0.19301653
0.24180169 -0.14842737 -0.19258118
0.26411438 -0.14767478 -0.20654774
0.24139188 -0.12476632 -0.19849634
0.21854807 -0.10173564 -0.19040155
0.24098474 -0.10119776 -0.20437312
0.21818423 -0.078149103 -0.19630992
0.52053952 -0.077898875 -0.20443499
0.21782179 -0.054654062 -0.20219505
0.61559129 -0.054826133 -0.19474161
0.19504698 -0.031494256 -0.1921922
0.21758221 -0.031280287 -0.20608544
0.68477213 -0.031388272 -0.1990695
0.19504698 -0.0081034051 -0.1921922
0.21758221 -0.0079963682 -0.20608532
0.19504698 0.015287444 -0.1921922
0.21758221 0.015287444 -0.20608532
0.73041558 0.015287444 -0.20353937
0.19504698 0.038678292 -0.19219208
0.21758221 0.038571361 -0.20608556
0.40513951 0.038651731 -0.19564259
0.19504783 0.062069353 -0.1921767
0.21758316 0.061855435 -0.20606995
0.75627851 0.062059551 -0.19281435
0.21778658 0.085215822 -0.20276701
0.40514141 0.085380726 -0.19562709
0.77707201 0.085202433 -0.2033385
0.21811354 0.10868867 -0.19745779
0.40513951 0.10874459 -0.19564247
0.77957642 0.10882054 -0.1931721
0.21844068 0.13224338 -0.19214535
0.24086715 0.13170746 -0.20606995
0.24123313 0.15523548 -0.2007879
0.75341702 0.15504996 -0.20480525
0.24196132 0.17912647 -0.1902771
0.26427704 0.17836361 -0.20443487
0.31191206 0.17897132 -0.19315648
0.26497778 0.20222077 -0.19533193
0.26521587 0.22580183 -0.19223881
0.21965012 -0.17305158 -0.17250681
0.21928199 -0.14918697 -0.17848456
0.21891624 -0.12541634 -0.18442345
0.19590415 -0.10227894 -0.17628503
0.19558284 -0.078582048 -0.182248
0.17249407 -0.055303983 -0.17405069
0.19526276 -0.054977491 -0.18818796
0.17230378 -0.031710122 -0.17817056
0.17230378 -0.008211392 -0.17817056
0.17230378 0.015287496 -0.1781708
0.17230378 0.038786281 -0.17817068
0.36072946 0.03881732 -0.17412937
0.38332912 0.038755342 -0.18218529
0.1723045 0.062285274 -0.17815471
0.17246425 0.085864007 -0.17469597
0.19522998 0.085538357 -0.18879628
0.19551872 0.10912041 -0.18343806
0.19580764 0.13278495 -0.17807627
0.19609842 0.15653369 -0.17268002
0.21876995 0.15588155 -0.18679893
0.21943584 0.1798965 -0.17598617
0.75986296 0.17979917 -0.17779362
0.24255992 0.20306411 -0.18163705
0.24277616 0.22675252 -0.17851603
0.24299394 0.25049064 -0.17537272
0.26545569 0.24943204 -0.18912375
0.19687745 -0.17393115 -0.15822303
0.24376188 -0.17355755 -0.1642884
0.19655231 -0.14995372 -0.16425681
0.29120818 -0.1501015 -0.16151273
0.1733288 -0.1267302 -0.15597808
0.1962276 -0.12606943 -0.17028272
0.17304899 -0.10282741 -0.16203654
0.17277098 -0.079019107 -0.16805542
0.14951281 -0.05563353 -0.15978146
0.14935032 -0.031928204 -0.16400325
0.1493497 -0.0083201686 -0.16401899
0.74006623 -0.0083377725 -0.16175067
0.1493497 0.015287391 -0.16401899
0.1493497 0.038895164 -0.16401899
0.76449913 0.038938694 -0.15836608
0.14935032 0.062503092 -0.16400325
0.14948651 0.086192705 -0.16046453
0.14969662 0.10999579 -0.15500581
0.17271404 0.10955605 -0.16928792
0.33911973 0.10999785 -0.15494215
0.17296401 0.13333157 -0.1638763
0.33911973 0.1336754 -0.15494215
0.7862584 0.13324799 -0.16604638
0.17321557 0.15719183 -0.15842986
0.19669847 0.18067487 -0.16154444
0.33912134 0.18103144 -0.15492606
0.19711182 0.20477396 -0.15387368
0.21993886 0.20391521 -0.16781843
0.73966324 0.20418145 -0.1634959
0.73798656 0.22729018 -0.1707561
0.22013283 0.2277119 -0.16466868
0.22034478 0.25157961 -0.16122699
0.2907747 0.25116348 -0.16663206
0.76256812 0.2511768 -0.16645801
0.17417347 -0.19900599 -0.13769054
0.19720472 -0.19800431 -0.1521492
0.17389031 -0.17481813 -0.14382124
0.173609 -0.15072677 -0.14991164
0.15021434 -0.1273963 -0.14155531
0.3633481 -0.12701406 -0.14983165
0.14997958 -0.10338099 -0.14765453
0.45963019 -0.10369004 -0.13962412
0.12650408 -0.07990545 -0.13926971
0.14974573 -0.079460226 -0.15372992
0.12631598 -0.055966079 -0.14537823
0.12618181 -0.032147866 -0.14973569
0.12618181 -0.0084302118 -0.14973557
0.12618181 0.015287444 -0.14973569
0.76856458 0.015287444 -0.14133
0.12618181 0.039005097 -0.14973557
0.1261823 0.06272307 -0.14971972
0.12629376 0.086524412 -0.14609993
0.81583935 0.086608209 -0.14247155
0.12646343 0.11043976 -0.14058983
0.14990686 0.13388325 -0.14954364
0.15011846 0.1578563 -0.14404607
0.7930966 0.15812218 -0.13828695
0.17374434 0.18145955 -0.1469816
0.17407599 0.20564066 -0.13980126
0.17422414 0.22965688 -0.13659382
0.19728309 0.2286801 -0.15069532
0.19748838 0.25268355 -0.1468854
0.15092549 -0.20001839 -0.12307894
0.15068729 -0.17571437 -0.12926745
0.12688249 -0.12806952 -0.12698019
0.10318591 -0.10450381 -0.11848247
0.12669291 -0.10393973 -0.13313711
0.10304295 -0.080354944 -0.12467301
0.55654967 -0.080210492 -0.12936485
0.10290053 -0.056301892 -0.13083923
0.65406889 -0.056569144 -0.11926556
0.07919275 -0.032594148 -0.12074959
0.10279746 -0.032370113 -0.13530242
0.72243565 -0.03237617 -0.13489878
0.079192504 -0.0086531928 -0.12076604
0.10279709 -0.0085411491 -0.13531864
0.079192504 0.015287391 -0.12076604
0.10279709 0.015287549 -0.13531864
0.079192504 0.039228186 -0.12076616
0.10279709 0.03911614 -0.13531876
0.07919275 0.063169084 -0.12074971
0.10279746 0.062945053 -0.13530254
0.79476768 0.063003495 -0.13150322
0.10288297 0.086859234 -0.13160014
0.10301141 0.11088777 -0.12603831
0.81997681 0.1108834 -0.12618458
0.10313995 0.13500212 -0.12047267
0.1266332 0.13443995 -0.13507628
0.12680408 0.15852694 -0.12952685
0.15057135 0.18225181 -0.13227999
0.15082847 0.20651515 -0.12559938
0.15095307 0.23064286 -0.12236249
0.17441741 0.25379795 -0.13240933
0.12764946 -0.22555822 -0.10207248
0.15116465 -0.22441953 -0.1168654
0.17534016 -0.22476089 -0.11243081
0.12745631 -0.20103912 -0.10834515
0.22352864 -0.20095718 -0.10952759
0.12726444 -0.17661913 -0.1145761
0.2718069 -0.17710914 -0.10661888
0.10347395 -0.15309229 -0.10601008
0.32016766 -0.15321213 -0.10378706
0.10332945 -0.12874912 -0.1122669
0.079455428 -0.10507325 -0.10368848
0.079359211 -0.080808654 -0.10993791
0.055401322 -0.056983069 -0.10134637
0.079263374 -0.056640819 -0.11616266
0.055365041 -0.03282024 -0.10605967
0.055364914 -0.0087662386 -0.106076
0.055364914 0.015287496 -0.106076
0.055364914 0.039341178 -0.106076
0.055365041 0.06339518 -0.10605955
0.05539497 0.087538876 -0.1021713
0.079251289 0.087197632 -0.11694705
0.079337493 0.11134017 -0.11134899
0.079423994 0.13556951 -0.1057303
0.10326932 0.15920378 -0.11487055
0.1035565 0.18385996 -0.10243547
0.12717634 0.18305162 -0.11743736
0.80033475 0.1835115 -0.10890341
0.12736633 0.20739791 -0.11126697
0.12746693 0.23163798 -0.10799992
0.77443397 0.23103271 -0.11673474
0.12784389 -0.25017753 -0.095758319
0.10391015 -0.22670919 -0.087121606
0.10376391 -0.20207082 -0.093454003
0.079746932 -0.17845556 -0.084754944
0.10361864 -0.17753243 -0.099744797
0.079649284 -0.15389594 -0.091096878
0.07955204 -0.1294352 -0.09741354
0.055498265 -0.10564808 -0.088752866
0.055449694 -0.081266634 -0.095062256
0.031311158 -0.057328425 -0.086388469
0.031311158 -0.033048544 -0.091229916
0.031311158 -0.008880497 -0.091246486
0.77937263 -0.0088435011 -0.096039653
0.031311158 0.015287444 -0.091246367
0.031311158 0.039455384 -0.091246486
0.80394036 0.039432142 -0.094266653
0.031311158 0.063623592 -0.091229916
0.031311158 0.087883443 -0.087254763
0.055438481 0.11179673 -0.096519709
0.055482142 0.13614239 -0.09084785
0.82718474 0.13587439 -0.097810626
0.055525962 0.16057631 -0.08515501
0.079510801 0.15988639 -0.10009158
0.079707667 0.18467526 -0.087304711
0.10368662 0.20828862 -0.0968014
0.78199792 0.20901316 -0.085038304
0.10376276 0.23264226 -0.093503952
0.080041721 -0.25273052 -0.065607667
0.104057 -0.25144723 -0.080763459
0.079942882 -0.22787115 -0.072027206
0.079844452 -0.2031123 -0.078420639
0.055645417 -0.17938656 -0.069637537
0.055596124 -0.1547073 -0.076040745
0.031311158 -0.13082784 -0.067261219
0.055547163 -0.13012853 -0.082401395
0.39605492 -0.13061008 -0.071976542
0.031311158 -0.10622843 -0.073674083
0.031311158 -0.081729151 -0.08004427
0.0069895964 -0.057677209 -0.071287155
0.00702787 -0.033279061 -0.076258898
0.76172799 -0.033407025 -0.067952633
0.00702787 -0.0089958096 -0.076258779
0.0070279986 0.015287496 -0.076275587
0.80831027 0.015287496 -0.076527119
0.0070279986 0.039570644 -0.076275349
0.0070277397 0.063854218 -0.076241851
0.83484679 0.063986599 -0.067649245
0.0069965888 0.088231117 -0.072195172
0.85620189 0.088071905 -0.079090357
0.0069522448 0.11272312 -0.066434622
0.031311158 0.11225771 -0.081548929
0.031311158 0.13672069 -0.075822711
0.031311158 0.16127282 -0.070075154
0.83455992 0.16133279 -0.068778515
0.055627022 0.18549857 -0.072027087
0.079786249 0.20918772 -0.082200766
0.34713998 0.20964369 -0.074799061
0.055662151 0.21009539 -0.067463875
0.079837494 0.23365596 -0.078872561
0.080140956 -0.27769139 -0.059162021
0.10456407 -0.27772418 -0.058806062
0.055794105 -0.25402495 -0.050322533
0.15351629 -0.25356385 -0.055768132
0.055744208 -0.2290431 -0.056803942
0.20256053 -0.2293545 -0.052758217
0.031311158 -0.20522678 -0.047899961
0.055694647 -0.20416404 -0.063242197
0.25169784 -0.20509918 -0.049742818
0.031311158 -0.18032649 -0.054374337
0.031311158 -0.15552644 -0.060839415
0.006840935 -0.13153395 -0.051975012
0.0068907775 -0.10681442 -0.058449864
0.49488699 -0.10670617 -0.061262727
-0.017666284 -0.082667403 -0.049572229
0.0069402885 -0.082196094 -0.064881563
0.59438568 -0.082638577 -0.05050993
-0.017566707 -0.058029361 -0.05603981
-0.017488122 -0.033511847 -0.061144233
-0.017488122 -0.0091121746 -0.061144233
-0.017487861 0.015287391 -0.061161041
-0.017487861 0.039687011 -0.061161041
-0.017488383 0.064086996 -0.061127305
-0.01755207 0.088582374 -0.056990743
-0.017641615 0.11319301 -0.051174641
0.86220378 0.1130396 -0.056158662
0.0069077387 0.13730457 -0.06065309
0.0068630688 0.16197607 -0.054850221
0.031311158 0.1863308 -0.056583285
0.031311158 0.21101147 -0.052587986
0.031311158 0.23576039 -0.048497438
0.055690616 0.23470268 -0.06376636
0.81221229 0.23491591 -0.060686946
0.055844337 -0.27911064 -0.043797255
0.031311158 -0.25533333 -0.034871578
0.031311158 -0.23022752 -0.041416287
0.0066904407 -0.20629895 -0.032425642
0.0067407656 -0.18127561 -0.03896296
0.3009285 -0.1807979 -0.046721458
-0.017967992 -0.15718961 -0.029975653
0.0067908876 -0.15635438 -0.045473814
0.35023734 -0.15644209 -0.043848515
-0.017866921 -0.13224669 -0.036540389
-0.017766267 -0.10740616 -0.043078065
-0.042511996 -0.083143413 -0.034114122
-0.042361181 -0.058384888 -0.040644646
0.69450837 -0.058401175 -0.039941192
-0.06723173 -0.033983953 -0.030476332
-0.042240176 -0.033746742 -0.045884132
-0.06723173 -0.0093482276 -0.030476451
-0.042240176 -0.0092296479 -0.045884132
-0.067231193 0.015287496 -0.030493617
-0.042239781 0.015287391 -0.04590106
-0.067231193 0.039923009 -0.030493617
-0.042239781 0.039804485 -0.04590106
-0.067232266 0.064559154 -0.030459166
-0.042240571 0.064321995 -0.045866966
-0.042338219 0.088936798 -0.04163909
-0.042473841 0.11366744 -0.035766363
-0.017731491 0.1378942 -0.045337081
-0.017821696 0.16268618 -0.039477944
0.0067564845 0.18717012 -0.041004777
0.0067301895 0.21193534 -0.037588954
0.0066956151 0.2368274 -0.033097625
0.031311158 -0.30621669 -0.018087506
0.056013629 -0.30584463 -0.021805644
0.0065380856 -0.28198946 -0.012634039
0.031311158 -0.28054219 -0.028300047
0.0065891705 -0.25665438 -0.019269943
0.006639909 -0.23142502 -0.025861263
-0.018170848 -0.20738155 -0.016800046
-0.018069211 -0.182234 -0.02340138
-0.042968977 -0.15803285 -0.014326096
-0.042815898 -0.13296659 -0.020955205
-0.042663436 -0.10800354 -0.027556777
-0.067500323 -0.083523974 -0.02175355
-0.067397296 -0.058743842 -0.025099397
-0.092466265 -0.034223538 -0.014918804
-0.092466265 -0.0094680721 -0.014918685
0.82039899 -0.009371574 -0.027452946
-0.092465594 0.015287496 -0.014936209
-0.092466265 0.040042959 -0.014918685
0.8450712 0.039946884 -0.027401209
-0.092466936 0.064798743 -0.0149014
-0.067365304 0.089294799 -0.026138306
0.89825583 0.089596994 -0.01305294
-0.067547902 0.11414655 -0.02020824
-0.042609964 0.13848926 -0.02987206
0.86997509 0.13862044 -0.026467085
-0.067731172 0.13909033 -0.014256477
-0.042746585 0.16340293 -0.02395618
-0.018031072 0.18798527 -0.025878549
0.84505802 0.1879003 -0.027453065
-0.018084165 0.21286884 -0.022430301
-0.018159594 0.23790585 -0.017531037
0.0064520705 -0.30788067 -0.0014603138
-0.018478278 -0.28344917 0.0031683445
-0.01837511 -0.25798693 -0.0035327673
-0.018272903 -0.23263283 -0.010171294
-0.043276254 -0.20847476 -0.0010209084
-0.043122295 -0.18320172 -0.0076873302
-0.068215653 -0.15888441 0.0014772415
-0.068009511 -0.13369356 -0.0052169561
-0.093192294 -0.109216 0.0039441586
-0.067804247 -0.10860676 -0.011883259
-0.092810676 -0.084010042 -0.0059707165
-0.092678607 -0.05910638 -0.0094021559
-0.11794734 -0.034465332 0.00079083443
0.80276155 -0.034483515 0.0019702911
-0.11794734 -0.0095889186 0.00079071522
0.84977245 0.015287496 -0.0088949203
-0.11794734 0.015287549 0.00079071522
-0.11794734 0.040163804 0.00079083443
-0.11794896 0.065040857 0.00082588196
0.87661213 0.065011129 -0.0011087656
-0.11815654 0.090021349 0.005319953
-0.092636883 0.089656234 -0.010485888
-0.09286736 0.11463036 -0.0044980049
-0.0930987 0.1396973 0.0015125275
-0.067919433 0.16413333 -0.0081424713
0.87792999 0.16469081 0.0039265156
-0.068318218 0.18963879 0.0048084259
-0.043054838 0.1888081 -0.010608196
-0.043135237 0.2138111 -0.0071268082
0.82535428 0.21379831 -0.0073370934
-0.043257985 0.23899499 -0.0018117428
0.85137534 0.23894133 -0.0025846958
-0.018665675 -0.30956197 0.01534009
-0.043741953 -0.28492495 0.019144535
0.13105801 -0.28395307 0.0086236
-0.043586072 -0.2593357 0.012394667
0.18081471 -0.25880244 0.0060968399
-0.068837538 -0.23508438 0.021674037
-0.043430839 -0.23385252 0.0056730509
0.2308419 -0.23412605 0.0092250109
-0.068629384 -0.20957875 0.014913917
0.28096724 -0.20940304 0.012377262
-0.068422094 -0.18417901 0.008181572
0.331182 -0.1846264 0.015446544
-0.09371163 -0.15974434 0.017436624
0.38148421 -0.15979916 0.018450618
-0.093452096 -0.13442844 0.010694027
0.43045548 -0.13439167 0.0098974705
-0.11883125 -0.1098312 0.019927979
0.53198057 -0.10987984 0.02119267
-0.11851935 -0.084599569 0.01317513
-0.14399135 -0.059842154 0.022458553
-0.11820872 -0.059472449 0.0064499378
-0.14367861 -0.034709606 0.016654611
-0.14367861 -0.0097110821 0.016654491
-0.14367861 0.015287444 0.016654611
-0.14367861 0.040286075 0.016654491
-0.14368051 0.065285072 0.016690135
-0.14392795 0.0903899 0.021281958
-0.11843584 0.1151187 0.011367083
0.90638441 0.11529588 0.017116666
-0.1187162 0.14031021 0.017436862
-0.093345195 0.164875 0.0079165697
-0.093824655 0.1904777 0.020373225
-0.068426445 0.21476264 0.0083231926
0.40697998 0.21564408 0.02263701
-0.068603158 0.24009462 0.014062047
0.40697381 0.24068509 0.022583485
-0.044046547 -0.31126264 0.032333851
-0.069256485 -0.28641543 0.035279512
-0.069046572 -0.26069629 0.028462648
-0.094496712 -0.23632836 0.037834048
-0.09423393 -0.21069372 0.031006575
-0.11977732 -0.18616383 0.040410757
-0.093972236 -0.18516602 0.024207473
-0.11946063 -0.16061297 0.033554554
-0.11914611 -0.13516974 0.026744843
-0.14472581 -0.11045323 0.036088467
-0.14435829 -0.08509507 0.029268265
0.63418609 -0.085191727 0.032405734
-0.17003025 -0.0602156 0.038626671
-0.16966373 -0.034956254 0.032674909
-0.16966373 -0.0098344041 0.032674909
-0.16966373 0.015287444 0.032674909
-0.16966373 0.040409345 0.032674909
-0.16966593 0.065531775 0.032710671
-0.16995485 0.090762131 0.037402034
-0.14425702 0.11561225 0.027388692
-0.14458732 0.14092919 0.033518791
-0.14496456 0.16638102 0.040519118
-0.11902562 0.16562416 0.024136186
-0.11957768 0.19132435 0.036088467
-0.1197615 0.21671772 0.040068388
-0.093961924 0.21572445 0.02393961
-0.094198063 0.24120414 0.030074596
-0.069694564 -0.3129811 0.049506664
0.081868798 -0.31333724 0.053064823
-0.095025629 -0.2879208 0.051575303
-0.094760627 -0.26207051 0.044690371
-0.12041299 -0.23758614 0.054173589
-0.12009448 -0.21182106 0.047277927
-0.14584059 -0.18717165 0.056776285
-0.14546745 -0.16149105 0.049851298
-0.14509681 -0.13591933 0.042973518
-0.17087801 -0.11108075 0.052392483
-0.1704538 -0.085595004 0.045504093
-0.19632925 -0.060592577 0.05495584
0.73706377 -0.060328856 0.043533564
-0.1959065 -0.035205323 0.048853993
-0.1959065 -0.0099588344 0.048853993
0.8632654 -0.0099232597 0.044220209
-0.1959065 0.015287496 0.048854113
-0.19590777 0.040533986 0.048872113
0.88797498 0.040483497 0.04230547
-0.19590902 0.065780737 0.048890352
-0.19624105 0.091138214 0.053682923
-0.17033467 0.11611028 0.043569803
-0.17071594 0.14155436 0.04976058
0.91473526 0.14149089 0.048110962
-0.17116705 0.16714609 0.057085872
-0.14558087 0.19217955 0.051956654
0.89214885 0.19251874 0.058252215
-0.14581901 0.21772191 0.056375742
0.86541069 0.21749346 0.052665234
-0.12004767 0.24232554 0.046264052
0.89200091 0.24311708 0.057687283
-0.095613271 -0.31471598 0.066842914
-0.12105489 -0.28944457 0.068071127
-0.12073369 -0.26346135 0.061116934
0.20919912 -0.26425079 0.070438623
-0.14658868 -0.23885515 0.070659161
0.2602497 -0.23908868 0.073692679
-0.14621335 -0.21295832 0.063693881
-0.17216372 -0.18818738 0.073269367
-0.17173295 -0.16237618 0.066275001
-0.19777793 -0.13743863 0.075865507
-0.17130515 -0.13667466 0.059328198
-0.1972951 -0.11171603 0.06889677
-0.22319114 -0.086513445 0.07533133
-0.19659173 -0.086002707 0.058744431
-0.22289228 -0.06097351 0.071449041
-0.2224108 -0.035456974 0.065194488
0.84564584 -0.035608441 0.075036526
-0.2224108 -0.010084686 0.065194607
-0.2224108 0.015287496 0.065194368
0.89305156 0.015287496 0.061701417
-0.2224122 0.040659677 0.065212727
-0.22241363 0.066032387 0.065231085
0.92017239 0.066079557 0.068291187
-0.22279048 0.091517985 0.070126414
0.94370669 0.091320455 0.061573505
-0.19667263 0.11661364 0.059912086
-0.19710584 0.14218588 0.06616497
-0.19763502 0.16791822 0.073802948
-0.17183793 0.19304293 0.067979574
-0.17213538 0.218734 0.072809577
-0.14615521 0.24345848 0.062615156
-0.12180655 -0.31646749 0.084344864
-0.14734411 -0.29097879 0.084678292
0.15893704 -0.29101458 0.085067272
-0.14696559 -0.26486176 0.077653766
-0.17302841 -0.24013698 0.087310791
-0.17259516 -0.21410713 0.080275297
0.31140098 -0.21387698 0.076953053
-0.19875225 -0.18921332 0.089928865
0.36264041 -0.18860735 0.080090523
-0.19826405 -0.16327111 0.082882404
0.41397497 -0.16328904 0.083215475
-0.22451818 -0.13821007 0.092569947
0.46538955 -0.13791674 0.08621645
-0.22397628 -0.11235614 0.085530639
-0.24972335 -0.061358288 0.088108897
-0.24918053 -0.035711102 0.081698537
-0.24918211 -0.010211854 0.081716895
-0.24918053 0.015287496 0.081698418
-0.24918365 0.040786952 0.081735373
-0.24918365 0.066286571 0.081735373
-0.24960709 0.091901496 0.086735845
-0.25014526 0.11763521 0.093091011
-0.22327483 0.1171219 0.0764184
0.95260626 0.1176535 0.093686938
-0.22376102 0.14282352 0.082734227
-0.22437352 0.16869837 0.09069109
0.92332155 0.16820344 0.079979777
-0.19835256 0.19391483 0.084159732
-0.19871752 0.21975738 0.089427233
-0.17252463 0.24460274 0.079130292
-0.14828034 -0.31823954 0.10205221
-0.17390054 -0.29253012 0.10147202
-0.20023073 -0.26770821 0.11126888
-0.17346355 -0.26627776 0.094376326
-0.19973622 -0.24143186 0.10413146
-0.19924386 -0.21526757 0.097024441
-0.22561178 -0.19025087 0.106776
-0.2250638 -0.16417511 0.099657893
-0.25152996 -0.13898964 0.10944402
-0.25092781 -0.11300296 0.10233307
0.57105571 -0.11322309 0.10805309
-0.2503235 -0.087125152 0.095196366
-0.2768265 -0.06174691 0.10493743
-0.2762197 -0.035967711 0.098368645
-0.27622142 -0.010340133 0.098387122
-0.27622142 0.015287444 0.098387361
-0.27622312 0.040915284 0.098405957
-0.27622312 0.066543281 0.098405957
-0.2766932 0.092288539 0.10349441
-0.27728796 0.11815375 0.1099329
-0.25068548 0.14346775 0.099471092
-0.25138834 0.16948716 0.10777128
-0.22512856 0.19479537 0.10049927
-0.22556841 0.22079107 0.10621297
-0.19915853 0.24575724 0.095793128
-0.17503847 -0.32003069 0.11994982
-0.20072734 -0.29409721 0.11843681
-0.22727126 -0.2691533 0.12833381
-0.22671622 -0.24273989 0.12112308
-0.22616208 -0.21643844 0.11392498
-0.25274521 -0.19129893 0.12379515
-0.25213629 -0.16508812 0.11660409
-0.27881745 -0.13977686 0.12649024
-0.27815211 -0.11365557 0.11928761
-0.27748787 -0.087645583 0.11209714
0.6761173 -0.087881587 0.11976063
-0.30420592 -0.062139541 0.12193775
-0.30353239 -0.036226951 0.11520731
-0.30353427 -0.010469885 0.11522627
0.90814352 -0.010501823 0.11936343
-0.30353427 0.015287496 0.11522627
-0.30353615 0.041044932 0.1152451
0.93279779 0.041044246 0.11515057
-0.30353615 0.066802472 0.1152451
-0.30405623 0.092679903 0.12044179
-0.30470714 0.11867766 0.12694621
-0.27788329 0.14411856 0.11637747
-0.27868065 0.17028344 0.12500954
-0.25216985 0.19568445 0.1170007
-0.25269219 0.2218353 0.1231693
-0.22606343 0.24692453 0.11264348
-0.20208555 -0.32184109 0.13804054
-0.22782874 -0.29568037 0.13557518
-0.25458938 -0.27061298 0.14557385
0.23873484 -0.26992011 0.13739049
-0.25397253 -0.24406132 0.13828933
0.29085153 -0.24425283 0.14077771
-0.25335672 -0.21762261 0.13101709
0.34306958 -0.2185314 0.14413357
-0.28015676 -0.19235778 0.14098847
-0.27948564 -0.16601072 0.13372374
-0.30638492 -0.14057223 0.14371133
-0.3056567 -0.11431555 0.13643491
-0.33265337 -0.088702418 0.14641929
-0.30493164 -0.08817187 0.12918973
-0.33186585 -0.062536173 0.139112
0.78190976 -0.062360682 0.13151228
-0.33112484 -0.036489092 0.13223636
-0.33112484 -0.010600797 0.13223648
-0.33112484 0.015287444 0.13223648
-0.3311269 0.041175947 0.13225555
-0.3311269 0.067064293 0.13225543
-0.33169886 0.093075275 0.13756263
-0.33240494 0.11920632 0.14411449
-0.30535868 0.14477587 0.13345683
-0.30625629 0.17108779 0.14242613
-0.27948564 0.19658561 0.13372386
-0.28014258 0.22292334 0.1408354
-0.28069928 0.24929523 0.14686143
-0.25324225 0.24810401 0.12966537
-0.22942626 -0.32367116 0.15632796
-0.25520888 -0.29727983 0.15288997
-0.28218752 -0.27208632 0.16297245
-0.28150767 -0.24539489 0.15561271
-0.28083074 -0.21881895 0.14828479
-0.30785075 -0.19342758 0.15835917
0.39537928 -0.19275136 0.14738071
-0.30711624 -0.1669426 0.15101933
0.44778731 -0.16692089 0.15061462
-0.33423662 -0.14137584 0.16110992
0.50028783 -0.14103808 0.15379715
-0.33344433 -0.11498234 0.15375841
-0.36066312 -0.089238979 0.1638459
-0.35981059 -0.062936924 0.15646338
-0.35899737 -0.036753654 0.14942038
0.89039117 -0.036778003 0.15100026
-0.35899737 -0.010733078 0.1494205
-0.35899958 0.015287444 0.14943957
-0.35899958 0.041308284 0.14943957
-0.35899958 0.067328803 0.14943981
-0.35962537 0.093474761 0.15485907
-0.36038971 0.11974108 0.16147864
-0.33311588 0.14543997 0.15071106
-0.33412173 0.17190155 0.16004395
-0.30711046 0.19751443 0.15096152
-0.30803487 0.22411589 0.16019905
-0.30843872 0.25049895 0.16423452
-0.25706542 -0.32552129 0.17481482
-0.28290099 -0.29892468 0.17069566
0.18816456 -0.29841936 0.16522539
-0.31007358 -0.27357659 0.18057096
-0.30932939 -0.24674365 0.17313468
-0.30858847 -0.22002771 0.16573083
-0.33583158 -0.1945084 0.17590976
-0.33503237 -0.16788433 0.16849375
-0.36237702 -0.14218776 0.178689
-0.36151934 -0.11565597 0.17126119
-0.38896337 -0.08978118 0.18145359
-0.38804704 -0.063342251 0.17401361
-0.38715619 -0.037021015 0.16678107
-0.3871586 -0.010866943 0.16680038
-0.3871586 0.015287444 0.1668005
-0.3871586 0.041441884 0.1668005
-0.38715619 0.067595951 0.16678095
-0.38784018 0.093878403 0.17233419
-0.38866392 0.12028112 0.17902219
-0.36115706 0.14611028 0.16812372
-0.36227751 0.17272292 0.17782748
-0.33501977 0.19845295 0.16837692
-0.3362473 0.22532098 0.17976689
-0.33646291 0.25171357 0.1817677
-0.28500614 -0.32738963 0.19348466
-0.31094918 -0.30064523 0.18932045
-0.33825031 -0.27508226 0.19835281
-0.33744055 -0.24810663 0.19083881
-0.33663431 -0.22124888 0.18335807
-0.36410373 -0.19560044 0.19364274
-0.36323848 -0.1688357 0.18614972
-0.39081064 -0.14300817 0.19645131
-0.38988376 -0.11633594 0.18892622
0.61226213 -0.11674681 0.19960165
-0.41755882 -0.090328962 0.19924474
-0.41657498 -0.063751325 0.19172704
-0.41560578 -0.037290953 0.18432069
-0.41560832 -0.011001912 0.18434036
-0.41560832 0.015287549 0.18434036
-0.41560832 0.041576851 0.18434036
-0.41560578 0.067865998 0.18432081
-0.41634777 0.09428595 0.18999064
-0.41723213 0.12082701 0.19674838
-0.3894909 0.14678809 0.18573642
-0.3907302 0.17355302 0.1957984
-0.36321804 0.19940101 0.18597257
-0.36478949 0.22654124 0.19958186
-0.36478034 0.25294238 0.19950259
-0.31325892 -0.32928258 0.21240067
-0.33931053 -0.30238825 0.2081902
-0.36672235 -0.27660382 0.21632099
0.26949203 -0.27582246 0.20709443
-0.36584562 -0.24948373 0.20872843
0.32271993 -0.24962962 0.21062326
-0.36497277 -0.2224828 0.20116901
0.37604722 -0.22337599 0.21405971
0.4294742 -0.19706619 0.21744287
-0.39267173 -0.19670396 0.21156156
-0.39173916 -0.16979708 0.20398986
-0.41954204 -0.14383712 0.2143997
-0.41854694 -0.11702375 0.20679557
-0.44645399 -0.090882652 0.21722245
0.72035533 -0.090719275 0.2119211
-0.44539857 -0.064164191 0.20960569
-0.4443506 -0.037563846 0.20204258
-0.44435337 -0.01113841 0.20206237
-0.44435337 0.015287339 0.20206249
-0.44435337 0.04171335 0.20206261
-0.4443506 0.068138734 0.20204258
-0.4451527 0.094698027 0.2078315
-0.44609886 0.12137853 0.21465969
-0.41811994 0.14747305 0.20353281
-0.4194845 0.17439178 0.21395981
-0.3917073 0.20035806 0.20373154
-0.39339364 0.25418404 0.21742272
-0.34182337 -0.33119461 0.23150635
-0.36798424 -0.30414885 0.22724915
-0.39549437 -0.27814132 0.23447859
-0.39454931 -0.25087532 0.22680581
-0.39360845 -0.22372977 0.21916699
-0.42154029 -0.19781914 0.22966909
-0.42053896 -0.17076845 0.22201753
0.48300621 -0.17070457 0.22083259
-0.44857603 -0.14467499 0.23253691
0.53664649 -0.14429216 0.22424901
-0.44751123 -0.11771879 0.22485268
-0.4745279 -0.064581856 0.2276926
-0.47341001 -0.037841003 0.22004974
-0.47339827 -0.011276121 0.21996939
-0.47339827 0.015287391 0.21996951
-0.47339827 0.041851219 0.21996951
-0.47339529 0.068414524 0.21994936
-0.47425973 0.095114477 0.22585928
-0.44705436 0.14816682 0.22155535
-0.44854805 0.17524055 0.23233473
-0.42049691 0.2013261 0.22169602
-0.39366281 0.22777452 0.21960819
-0.37070659 -0.33312786 0.25082541
-0.39698005 -0.30593094 0.24654078
0.21882811 -0.30617014 0.24913061
-0.42457911 -0.27970034 0.25288975
-0.42355901 -0.25228322 0.24509454
-0.42254606 -0.22498988 0.23735464
-0.450717 -0.19894733 0.24798822
-0.44964272 -0.17175013 0.24023509
-0.47791427 -0.14552054 0.25084567
-0.47678149 -0.11842105 0.24310029
-0.47565067 -0.091441348 0.23536921
-0.50396502 -0.065003946 0.24597037
-0.50277591 -0.038121328 0.23824656
-0.50274777 -0.011415412 0.23806405
-0.50274777 0.015287444 0.23806405
-0.50274777 0.041990459 0.23806405
-0.50274467 0.068692997 0.23804379
-0.50275093 0.095396698 0.23808444
-0.47724593 0.1223521 0.24627602
-0.47600925 0.14879292 0.23782074
-0.47616351 0.17554274 0.23887539
-0.47780377 0.20285614 0.25009012
-0.44958648 0.2023032 0.23982918
-0.50274777 0.22891098 0.23806417
-0.45055315 0.22944948 0.24680579
-0.42262566 0.22890481 0.23796284
-0.42230749 0.25543857 0.23553109
-0.39991394 -0.33508292 0.27036107
-0.4262985 -0.30773103 0.26602829
-0.45287436 -0.25370449 0.2635572
-0.45179328 -0.22626474 0.25575531
-0.48019826 -0.20008495 0.26646125
-0.47905225 -0.17274114 0.25862575
-0.50756764 -0.1463761 0.26936972
-0.50636244 -0.119131 0.26154196
-0.50515944 -0.092006624 0.25372851
-0.53371501 -0.065430574 0.26444232
-0.53245312 -0.03840439 0.25663662
-0.53240675 -0.011556231 0.25634968
-0.53240341 0.015287444 0.25632906
-0.53240341 0.068974584 0.2563293
-0.50587243 0.12272418 0.25835896
-0.50733566 0.20381387 0.26786339
-0.53240675 0.25688073 0.25634968
-0.45594457 -0.30954972 0.28571486
-0.45396027 -0.28126723 0.27139425
0.30192378 -0.28238645 0.28461075
-0.48250276 -0.25514093 0.28221738
0.35593861 -0.25523543 0.28344488
-0.48134643 -0.22755025 0.27431107
0.41042262 -0.22842711 0.28696561
-0.50999427 -0.20123476 0.28513145
-0.50877821 -0.17374374 0.27723289
-0.53753477 -0.14723994 0.28807127
-0.53625911 -0.11984837 0.28018034
-0.53498256 -0.092577972 0.2722832
-0.56378275 -0.065861672 0.28311181
-0.56244665 -0.038690612 0.2752223
-0.56238002 -0.011698474 0.27482891
-0.56237656 0.015287602 0.27480805
-0.53570563 0.12329067 0.27675617
-0.53569889 0.15028976 0.27671456
-0.53573912 0.17730176 0.27696335
-0.53570223 0.20429206 0.27673531
-0.48144633 0.2311855 0.27499461
-0.50993013 0.25884601 0.28471494
-0.42945093 -0.33705997 0.29011738
-0.48592937 -0.31139088 0.30564535
-0.48366129 -0.2828545 0.29013836
-0.51244611 -0.25659117 0.30105662
-0.51121902 -0.22885105 0.29308641
-0.54011357 -0.20239811 0.30402315
0.46501336 -0.20156367 0.29047263
-0.53882295 -0.17475726 0.29603958
0.51971596 -0.17464773 0.29400742
0.57452846 -0.14767773 0.29754937
-0.5664767 -0.12057345 0.29901862
-0.56512493 -0.093155429 0.29103673
-0.59417349 -0.066297524 0.30198181
-0.59276164 -0.038979843 0.29400766
-0.59267265 -0.011842194 0.29350495
-0.59266895 0.015287339 0.29348409
-0.56632388 0.1239484 0.29811597
-0.56585509 0.15100698 0.29534805
-0.56585509 0.17815101 0.29534793
-0.56714594 0.20570569 0.30297053
-0.59381253 0.25990099 0.29994297
-0.56537282 0.25938541 0.29250062
-0.46033531 -0.33979046 0.31740248
-0.51368201 -0.28445876 0.30908382
-0.54272264 -0.25806198 0.32016277
-0.54141343 -0.23016591 0.31206393
-0.57055819 -0.20357415 0.32311881
-0.56919152 -0.17578158 0.31504905
-0.56782746 -0.14811401 0.30699468
-0.59701651 -0.12130558 0.31803918
-0.59559178 -0.0937391 0.30999231
-0.62489241 -0.06673795 0.32105541
-0.62340319 -0.039272182 0.31299508
-0.62328982 -0.011987546 0.31238127
-0.62328589 0.015287391 0.31236017
-0.62334454 0.069842115 0.31267762
-0.59632963 0.069864832 0.31415939
-0.59632587 0.09715315 0.31413829
-0.56908393 0.097159527 0.31441343
-0.59632587 0.12444168 0.31413794
-0.59632587 0.15173022 0.31413817
-0.59632587 0.17901886 0.31413817
-0.59632963 0.2063085 0.31415915
-0.59632587 0.23359598 0.31413817
-0.56922024 0.23366249 0.31521845
-0.62328982 0.26076278 0.31238127
-0.51625603 -0.31325287 0.3258028
0.25104263 -0.31430981 0.33724415
-0.54402751 -0.28608045 0.32823467
-0.57331765 -0.25954375 0.33941233
-0.57193476 -0.23149495 0.33124709
-0.59988934 -0.176817 0.3342644
-0.59844774 -0.14899756 0.32612252
-0.62789124 -0.12204631 0.33728695
-0.62638837 -0.094329104 0.3291527
-0.65594476 -0.067183286 0.34033632
-0.65437669 -0.039567575 0.33218789
-0.65423667 -0.012134532 0.33146083
-0.65423262 0.015287549 0.33143938
-0.65423262 0.042709261 0.33143961
-0.62737632 0.042732872 0.33450007
-0.65599442 0.07027185 0.34059429
-0.65423262 0.097552843 0.33143938
-0.62711918 0.15246029 0.33310807
-0.62712312 0.17989613 0.33312964
-0.65560579 0.20762432 0.33857477
-0.65423262 0.2346614 0.33143938
-0.6277802 0.23498468 0.33668637
-0.54693043 -0.3151364 0.34619176
-0.57470316 -0.28771976 0.34759378
-0.60424995 -0.26104349 0.35889328
-0.60279608 -0.23284143 0.35068214
-0.60133368 -0.20476289 0.34242225
-0.6309216 -0.17786378 0.35368931
-0.62940091 -0.14989054 0.34545851
-0.65910262 -0.12279537 0.35674477
-0.65752012 -0.094925426 0.34852171
-0.68568748 -0.039866239 0.35159028
-0.68551874 -0.012282836 0.35074687
-0.68551439 0.015287391 0.35072529
-0.68551874 0.042857777 0.35074711
-0.68551874 0.070428267 0.35074687
-0.68687552 0.098155119 0.35752583
-0.6302622 0.097984158 0.35012031
-0.65674812 0.12537688 0.34451032
-0.65829378 0.15320851 0.35254228
-0.65784436 0.18068478 0.35020649
-0.57796222 -0.31704348 0.36683714
-0.60571438 -0.28937691 0.36716437
0.33661789 -0.29001933 0.37475026
0.39058483 -0.26107681 0.35932779
-0.63398802 -0.23419972 0.37028682
0.44627696 -0.23369209 0.36295891
-0.63244522 -0.20596465 0.36193633
-0.66229391 -0.17892198 0.37332714
-0.66069251 -0.15079333 0.36500585
-0.69065636 -0.12355249 0.37641633
-0.68899244 -0.095528543 0.36810267
-0.68733615 -0.067633413 0.35982764
-0.71734124 -0.040168222 0.37120497
-0.71714127 -0.012433036 0.37024307
-0.71714127 0.015287444 0.37024307
-0.71714127 0.043007977 0.37024319
-0.60610855 0.043001283 0.36939096
-0.71714127 0.070728406 0.37024307
-0.5771727 0.070604131 0.36217558
-0.68836826 0.1260073 0.36498415
-0.6346184 0.12627566 0.37369919
-0.68987161 0.15397649 0.37249553
-0.63275886 0.20897464 0.36363375
-0.60935426 -0.31897274 0.38772261
-0.63706666 -0.29105237 0.38695037
-0.63552171 -0.26255959 0.37858832
-0.66552323 -0.23557296 0.39010727
-0.66390693 -0.20718229 0.38170862
-0.69401181 -0.17999184 0.39318085
-0.69232798 -0.15170617 0.38476837
-0.72081101 -0.096138097 0.38789904
-0.7190721 -0.068088494 0.37953269
-0.74933869 -0.04047326 0.39101326
-0.74910998 -0.012584765 0.38995254
-0.74910998 0.015287549 0.38995254
-0.74910998 0.0431596 0.38995254
-0.74910998 0.071031861 0.38995254
-0.71858388 0.098609202 0.37718391
-0.72015113 0.12661517 0.38472426
-0.72172493 0.15473846 0.39229584
-0.5241937 0.15416357 0.37735927
-0.69235885 0.18228823 0.38492262
-0.69384795 0.21052255 0.39236248
-0.64110881 -0.32092255 0.40882957
-0.66877425 -0.29275009 0.40699971
-0.66713852 -0.26409242 0.39850056
-0.69740307 -0.23695979 0.41012478
-0.69571239 -0.20841214 0.40167773
-0.72432244 -0.15263104 0.40479338
-0.72255802 -0.12431803 0.39630461
-0.7529816 -0.096754238 0.4079144
-0.7511583 -0.068548582 0.39945531
-0.78169501 -0.04078183 0.41106331
-0.78143066 -0.012738233 0.40987897
-0.78143066 0.015287496 0.40987897
-0.78143567 0.043313228 0.40990126
-0.58441669 0.043275017 0.40494943
-0.55504948 0.043209404 0.39641523
-0.78143567 0.071338959 0.40990126
-0.75063682 0.099067606 0.39703608
-0.55504948 0.099053271 0.39641523
-0.75228012 0.12722905 0.40465975
-0.72379041 0.18308766 0.4022336
-0.72539341 0.21147008 0.4099462
-0.69526762 0.2388501 0.39945531
-0.70081717 -0.29445922 0.42718267
-0.69910616 -0.26564223 0.41863358
-0.72785741 -0.20965143 0.42180121
-0.72608119 -0.18107355 0.41325521
-0.75665867 -0.15356319 0.42497408
-0.75481343 -0.12509185 0.41641319
-0.78551006 -0.097377494 0.42815244
-0.78360057 -0.069013834 0.41959906
-0.78304446 0.099531174 0.41710818
-0.7847653 0.12784977 0.42481637
-0.75393504 0.1555099 0.41233778
-0.75581491 0.18395729 0.42105937
-0.72732043 0.24006721 0.41921759
-0.67323607 -0.3228952 0.43018425
-0.7314257 -0.26720774 0.43896878
-0.72963738 -0.23836207 0.43036485
-0.76036555 -0.21090589 0.44217157
-0.75850779 -0.18216734 0.43355274
-0.78935599 -0.1545057 0.44538009
-0.7874285 -0.12587443 0.436746
-0.81640488 -0.069484152 0.43996763
-0.81441158 -0.041094091 0.43133652
-0.81410897 -0.012893231 0.43002605
-0.81410897 0.015287391 0.43002594
-0.81411415 0.043468274 0.4300487
-0.81411415 0.071649216 0.4300487
-0.81581795 0.10000032 0.43742633
-0.81761801 0.12847804 0.44522071
-0.78649336 0.15628821 0.43255746
-0.78851789 0.1849072 0.44162607
-0.75782549 0.21257173 0.43038762
-0.79129761 -0.18327333 0.45407784
-0.82040924 -0.12666586 0.45730698
-0.81840235 -0.098007806 0.4486171
-0.84957188 -0.069959417 0.46054184
-0.84749448 -0.041409615 0.45183671
-0.84715098 -0.013049913 0.45039713
-0.84715647 0.015287496 0.45042014
-0.84715647 0.043625221 0.45042014
-0.84715647 0.071962789 0.45042014
-0.84895313 0.10047433 0.45794892
-0.81949967 0.15708932 0.45336843
-0.82159662 0.18586907 0.46244884
-0.7906239 0.21368562 0.45105994
-0.88056856 0.043783594 0.47101963
-0.85083407 0.12911272 0.46583104
-0.85289419 0.1579012 0.47446358
-0.85508597 0.18684812 0.48364854
-0.57668716 0.24690582 0.53026342
-0.55388087 0.19084492 0.5701834
0 0 0 1 0 0 0 1 0 0 0 1 0 0 0 0 0 1302 1 0 0
