ply
format ascii 1.0
comment PCL generated
element vertex 1197
property float x
property float y
property float z
element camera 1
property float view_px
property float view_py
property float view_pz
property float x_axisx
property float x_axisy
property float x_axisz
property float y_axisx
property float y_axisy
property float y_axisz
property float z_axisx
property float z_axisy
property float z_axisz
property float focal
property float scalex
property float scaley
property float centerx
property float centery
property int viewportx
property int viewporty
property float k1
property float k2
end_header
-0.078109808 -0.2939696 -0.36302036
-0.059752256 -0.2933408 -0.36731952
-0.041637968 -0.29383352 -0.36395085
0.049404532 -0.29338166 -0.3670401
0.067625627 -0.29355174 -0.36587697
0.067696258 -0.27577239 -0.36281836
-0.059701711 -0.27492121 -0.36896116
-0.023309346 -0.27461991 -0.37113529
-0.0051466385 -0.27461991 -0.37113529
0.013016068 -0.27461991 -0.37113529
0.031178776 -0.27461991 -0.37113529
0.049336679 -0.27457678 -0.37144721
-0.041593228 -0.25714391 -0.36588818
-0.02338152 -0.25707078 -0.36644745
-0.0051785083 -0.25699905 -0.36699539
0.013016068 -0.25702682 -0.36678302
0.031216498 -0.25709856 -0.36623502
0.049425539 -0.25717178 -0.36567557
-0.096830405 -0.31384614 -0.35229439
-0.078405194 -0.31337628 -0.35534626
-0.060027204 -0.31290761 -0.35839039
-0.04180282 -0.31315053 -0.35681283
-0.023534715 -0.31319907 -0.35649705
-0.0052622771 -0.31325814 -0.35611355
0.013016068 -0.31325814 -0.35611355
0.031258442 -0.3125388 -0.36078614
0.049516737 -0.31269798 -0.35975188
0.067827143 -0.31309843 -0.35715103
0.08618959 -0.31355885 -0.35416025
0.10459794 -0.31401873 -0.35117334
-0.1335931 -0.29588807 -0.34990376
-0.1150303 -0.29524568 -0.35429591
-0.096536361 -0.29460731 -0.3586604
0.031315364 -0.29537791 -0.35339165
0.085955471 -0.29415345 -0.36176342
0.1043492 -0.29475719 -0.35763556
0.12280716 -0.2953631 -0.35349333
0.14132968 -0.29597104 -0.34933662
-0.17007446 -0.27725419 -0.35212445
-0.15162435 -0.27697209 -0.35416019
-0.13320512 -0.27668887 -0.35620385
-0.11481754 -0.27640632 -0.35824388
-0.096462063 -0.27612564 -0.36026925
-0.078141332 -0.27585793 -0.36220121
0.085962042 -0.27594811 -0.36155021
0.1042764 -0.27622846 -0.35952711
0.1226226 -0.2765108 -0.35748929
0.14099975 -0.27679217 -0.35545909
0.15940906 -0.2770755 -0.3534143
0.17784932 -0.2773577 -0.35137719
-0.11504734 -0.25870243 -0.35397941
-0.096949726 -0.25926098 -0.34971106
-0.07858412 -0.25913194 -0.3506974
-0.059990816 -0.25797048 -0.35957199
0.06794323 -0.25894511 -0.35212445
0.086307384 -0.25917935 -0.35033476
0.10468087 -0.25935149 -0.34901887
-0.060282588 -0.24088585 -0.35009658
-0.041881043 -0.24047583 -0.3534255
-0.023573302 -0.2404063 -0.35399079
-0.005274442 -0.24033937 -0.35453308
0.013016068 -0.24036589 -0.35431856
0.031312495 -0.24043405 -0.35376477
0.049617451 -0.24050233 -0.35321057
-0.11617472 -0.31680778 -0.33305794
-0.18969363 -0.29782626 -0.33665264
-0.17092448 -0.29717833 -0.34108222
-0.1522239 -0.29653117 -0.34550685
-0.023697264 -0.29646793 -0.34593934
-0.0053467313 -0.29658446 -0.3451426
0.013016068 -0.29658446 -0.3451426
0.15991707 -0.29658109 -0.34516531
0.17861088 -0.29728025 -0.34038508
0.1974054 -0.29803094 -0.33525276
-0.20792176 -0.27909794 -0.33881789
-0.18911752 -0.27845532 -0.34345615
-0.042321682 -0.27971771 -0.33434546
0.1969109 -0.27870202 -0.34167612
0.21566947 -0.27930599 -0.33731741
-0.20805189 -0.26087087 -0.3374092
-0.18945408 -0.26059973 -0.33948159
0.19713798 -0.26069853 -0.3387264
0.21572481 -0.26096836 -0.33666408
0.2342101 -0.26104945 -0.33604461
-0.22611466 -0.26040068 -0.34100217
-0.17088844 -0.26032889 -0.34155059
-0.15235569 -0.26006019 -0.34360439
-0.13385408 -0.25979033 -0.34566617
0.12310826 -0.25961918 -0.34697431
0.14156795 -0.25988859 -0.34491491
0.16005956 -0.26015866 -0.34285158
0.17833731 -0.25996467 -0.34433383
-0.24485579 -0.24240196 -0.33778727
-0.15309355 -0.24299726 -0.33295441
-0.1345088 -0.24274096 -0.33503461
-0.11563406 -0.24174872 -0.34309137
-0.097486705 -0.24236527 -0.33808511
-0.079031236 -0.24224257 -0.33908123
0.068176344 -0.2418794 -0.34203005
0.086665183 -0.24228778 -0.33871484
0.10511582 -0.24241048 -0.33771849
0.12359878 -0.24257854 -0.33635426
0.14214119 -0.24283436 -0.3342765
0.17840758 -0.24172059 -0.34331936
0.23420162 -0.24260527 -0.3361364
-0.060605921 -0.22377369 -0.33959597
-0.042171907 -0.2236312 -0.34083074
-0.023767117 -0.22356516 -0.34140211
-0.0053713052 -0.22350186 -0.34195012
0.013016068 -0.22352692 -0.34173328
0.031409509 -0.22359288 -0.34116209
0.049811393 -0.22365618 -0.34061366
-0.098312266 -0.33734053 -0.32021093
-0.0055563906 -0.33771297 -0.31790698
-0.13556072 -0.31913322 -0.31795359
0.1238526 -0.31714633 -0.33085907
-0.20870061 -0.29874265 -0.33038652
0.21662994 -0.29938796 -0.32597488
-0.24659726 -0.28147984 -0.32162845
-0.22696148 -0.27996784 -0.33254009
0.23522262 -0.281001 -0.32508367
-0.24576527 -0.26192573 -0.32934862
-0.2646392 -0.24385685 -0.32597506
-0.22705133 -0.24315885 -0.33164227
-0.20904082 -0.24376711 -0.32670373
-0.19035903 -0.24350956 -0.32879466
-0.1717097 -0.24325246 -0.33088213
0.16071512 -0.24308935 -0.33220643
0.1979612 -0.24360347 -0.32803267
0.2166319 -0.24385974 -0.32595176
0.25307885 -0.24315318 -0.33168846
-0.26453769 -0.22524503 -0.32685393
-0.24581003 -0.22500491 -0.32893324
-0.22799422 -0.2257801 -0.32222044
-0.19127208 -0.22626606 -0.3180117
-0.17253831 -0.22602278 -0.32011801
-0.15383801 -0.22578138 -0.32220894
-0.1351694 -0.22553903 -0.3243078
-0.11623672 -0.2246615 -0.33190715
-0.098029479 -0.2253052 -0.32633346
-0.079482727 -0.2251876 -0.32735091
0.068408795 -0.22465488 -0.33196467
0.087026492 -0.2252304 -0.32698101
0.10556782 -0.22534651 -0.32597506
0.12412522 -0.22546414 -0.32495636
0.1427196 -0.22562736 -0.32354277
0.1613773 -0.22586858 -0.32145429
0.17925648 -0.2247586 -0.33106631
0.23506656 -0.22525442 -0.32677293
0.25338924 -0.22504491 -0.32858688
-0.11684569 -0.20741481 -0.32060617
-0.060977273 -0.2066679 -0.32753593
-0.042465601 -0.2066057 -0.32811338
-0.023963179 -0.20654589 -0.32866776
-0.0054692896 -0.20648623 -0.32922173
0.013016068 -0.20650989 -0.32900238
0.03150747 -0.2065708 -0.32843685
0.050007403 -0.20663059 -0.32788247
0.068639725 -0.20726836 -0.32196516
-0.11711743 -0.33809179 -0.31556338
-0.080101125 -0.3387835 -0.31128466
-0.061405629 -0.3384051 -0.31362474
-0.042769447 -0.33818984 -0.31495655
-0.024154332 -0.33798042 -0.31625181
0.013016068 -0.33782393 -0.31721961
0.03160486 -0.33805588 -0.31578523
0.050213601 -0.33826539 -0.31448936
0.068851784 -0.33854124 -0.31278276
0.087490708 -0.33868319 -0.31190515
0.10589137 -0.33776751 -0.3175692
0.12467777 -0.33850721 -0.31299329
-0.15472804 -0.32045591 -0.30936241
0.16225427 -0.32078677 -0.30721384
0.14316529 -0.31954613 -0.31527179
-0.26661029 -0.28324291 -0.30890489
0.25476149 -0.28241569 -0.31487471
0.27447325 -0.2838504 -0.30451989
-0.26563269 -0.26349315 -0.31737107
0.25448835 -0.26346266 -0.31760406
0.27348194 -0.26397121 -0.3137182
0.27309203 -0.24492088 -0.31733608
-0.21003866 -0.22650966 -0.31590199
0.19879089 -0.22635347 -0.31725448
0.21744241 -0.22645447 -0.3163802
0.27305183 -0.22630098 -0.31770903
-0.26593578 -0.20804635 -0.31474638
-0.24718049 -0.20788783 -0.31621683
-0.22894572 -0.20826551 -0.31271261
-0.21104547 -0.20909643 -0.30500257
-0.1921934 -0.20886695 -0.30713159
-0.1733744 -0.20863786 -0.30925685
-0.15458918 -0.20841059 -0.31136656
-0.13590005 -0.20829448 -0.31244355
-0.098577082 -0.20807526 -0.31447762
-0.079938672 -0.20796454 -0.31550515
0.087391362 -0.2080048 -0.3151316
0.1060243 -0.20811433 -0.31411546
0.12467345 -0.20822516 -0.31308699
0.14333786 -0.20833486 -0.312069
0.1620454 -0.20849261 -0.31060511
0.18019564 -0.20774835 -0.31751084
0.19962898 -0.20894936 -0.30636752
0.21820864 -0.20884544 -0.30733138
0.23599538 -0.2078338 -0.3167184
0.25467968 -0.20794442 -0.31569189
0.27350208 -0.20817727 -0.31353116
-0.24858463 -0.19060609 -0.30318832
-0.22990355 -0.19061086 -0.30314118
-0.11755595 -0.19018215 -0.30742532
-0.080399595 -0.19057193 -0.30353022
-0.061373606 -0.18945771 -0.31466448
-0.042762972 -0.18940043 -0.31523675
-0.024161339 -0.18934438 -0.31579697
-0.0055683227 -0.18928829 -0.31635696
0.013016068 -0.18931052 -0.31613517
0.031606477 -0.18936658 -0.31557524
0.050205514 -0.1894227 -0.31501478
0.068872593 -0.18973622 -0.3118816
0.087759845 -0.1906085 -0.30316472
0.23718536 -0.1905413 -0.30383664
-0.0056684231 -0.17190513 -0.30335331
0.013016068 -0.17192477 -0.30314106
-0.0057827355 -0.38006371 -0.28850383
0.013016068 -0.38014409 -0.28805029
-0.13718866 -0.36075425 -0.29151917
-0.11814805 -0.35992134 -0.29643744
-0.099218443 -0.35921782 -0.30059159
-0.080776751 -0.36037964 -0.29373127
-0.062006846 -0.36031723 -0.29409957
-0.043245357 -0.36027506 -0.29434901
-0.024489719 -0.36025491 -0.29446781
-0.0057338988 -0.36019054 -0.29484773
0.013016068 -0.36017847 -0.29491895
0.031767409 -0.36022073 -0.29466957
0.050524596 -0.36028513 -0.29428965
0.069285996 -0.36033747 -0.29398084
0.088054709 -0.36040378 -0.2935887
0.10661127 -0.35951012 -0.29886544
0.12551588 -0.36019054 -0.29484773
0.14452288 -0.36099836 -0.2900781
-0.15591644 -0.34186706 -0.29220945
-0.13660957 -0.3404586 -0.30092245
0.14408891 -0.34090978 -0.29813159
0.16331764 -0.34223288 -0.28994679
-0.19347513 -0.3231298 -0.29199529
-0.17403236 -0.3217881 -0.30070996
0.18147187 -0.32203746 -0.29909021
0.20081873 -0.32329661 -0.29091179
-0.23094875 -0.30425525 -0.29269707
0.23834518 -0.30446237 -0.29128098
-0.28746527 -0.28573278 -0.29093575
-0.28766048 -0.26716012 -0.28935069
-0.28718829 -0.22913283 -0.29318464
-0.28732157 -0.19171557 -0.29210234
-0.26744065 -0.19075379 -0.30171359
-0.21204609 -0.19150856 -0.29417098
-0.19312307 -0.19131026 -0.29615289
-0.17421807 -0.19109559 -0.29829746
-0.15541758 -0.19098434 -0.29940963
-0.13663939 -0.19088134 -0.30043811
-0.099130102 -0.19067454 -0.30250436
0.10648529 -0.19071123 -0.30213863
0.12522712 -0.19081518 -0.30109972
0.14398435 -0.19091806 -0.30007178
0.16275747 -0.19102097 -0.299043
0.18158013 -0.19117263 -0.29752767
0.20047465 -0.19138744 -0.29538178
0.21898064 -0.19110397 -0.29821455
0.2559841 -0.19065922 -0.30265766
0.2748355 -0.19080928 -0.30115879
-0.26896322 -0.17327476 -0.28852767
-0.25000396 -0.17313707 -0.29001832
-0.23110475 -0.17303354 -0.29113829
-0.13738538 -0.17329344 -0.28832495
-0.11830092 -0.17280605 -0.2936005
-0.099688642 -0.17310065 -0.29041159
-0.080864646 -0.17300493 -0.2914477
-0.061774209 -0.17206216 -0.30165458
-0.043063559 -0.17200968 -0.30222118
-0.024361629 -0.17195737 -0.30278736
0.031706553 -0.17197707 -0.30257505
0.050405756 -0.17202935 -0.30200869
0.069113679 -0.17208174 -0.30144215
0.088131994 -0.17303908 -0.29107863
0.10695087 -0.1731348 -0.29004228
0.1257863 -0.17323166 -0.288993
0.23838148 -0.17305663 -0.29088801
0.25730264 -0.17318654 -0.28948188
-0.062179148 -0.15447819 -0.28850371
-0.043367121 -0.15442964 -0.28907645
-0.024564095 -0.15438214 -0.28963697
-0.0057696095 -0.15433371 -0.290209
0.013016068 -0.15435088 -0.29000652
0.031807709 -0.15439928 -0.28943431
0.050608166 -0.15444779 -0.28886175
0.069417439 -0.15449631 -0.28828889
-0.081395015 -0.3819823 -0.2776683
-0.062332317 -0.38094443 -0.28352952
-0.043428335 -0.38043177 -0.28642559
-0.024596613 -0.38023704 -0.287525
0.031826731 -0.38033646 -0.28696334
0.050652113 -0.38050577 -0.28600723
0.069566682 -0.38124603 -0.28182679
0.088592045 -0.38225314 -0.27613842
-0.1753881 -0.36218044 -0.2830981
-0.1562476 -0.36144692 -0.28742933
0.16356835 -0.36171004 -0.28587562
0.18269286 -0.3624568 -0.28146684
-0.19488218 -0.34458789 -0.2753787
-0.17536226 -0.34328574 -0.28343362
0.18273525 -0.3437027 -0.28085458
0.20206372 -0.34469131 -0.27473927
-0.23277968 -0.32583857 -0.27440137
-0.21305677 -0.32447925 -0.28322989
0.22029518 -0.3245624 -0.28269047
0.23997808 -0.32596123 -0.27360445
-0.28889784 -0.306214 -0.27930462
-0.27050105 -0.30681297 -0.27520984
-0.25065422 -0.30552953 -0.28398466
0.25793308 -0.30564687 -0.28318208
0.27730224 -0.3063654 -0.27827007
-0.28840256 -0.24910983 -0.28332579
0.29611173 -0.24966004 -0.27885962
-0.28915426 -0.21209034 -0.27722269
0.29624239 -0.19315398 -0.2777285
-0.28796628 -0.173428 -0.28686792
-0.21295273 -0.1736601 -0.28435588
-0.19406119 -0.1735937 -0.28507423
-0.17514665 -0.17348653 -0.28623438
-0.15625755 -0.17338943 -0.28728592
0.14463729 -0.17332771 -0.28795475
0.16350432 -0.17342359 -0.28691578
0.18238822 -0.17352074 -0.28586376
0.2013271 -0.17366445 -0.28430814
0.21986054 -0.17333975 -0.28782338
0.27625334 -0.17332324 -0.28800249
-0.2514388 -0.1554772 -0.27670485
-0.23241538 -0.15536407 -0.27804148
-0.13813885 -0.15552926 -0.27609015
-0.119188 -0.15544057 -0.27713841
-0.10025277 -0.15535083 -0.27819788
-0.081276529 -0.15513498 -0.28074652
0.088507876 -0.15529373 -0.2788716
0.10742113 -0.15538242 -0.27782488
0.12635109 -0.15547207 -0.27676517
0.14529677 -0.15556097 -0.2757163
0.22078061 -0.15545583 -0.27695775
0.23960266 -0.15539566 -0.2776683
0.25863555 -0.15552318 -0.27616245
-0.12010951 -0.38510385 -0.26003724
-0.10055595 -0.38305065 -0.2716338
0.10781053 -0.38374582 -0.26770765
0.20304798 -0.36576149 -0.26195329
-0.19529358 -0.36431056 -0.27052027
-0.25326273 -0.34710953 -0.2597807
-0.23360875 -0.34608525 -0.26611656
-0.21409668 -0.34513858 -0.27197248
0.22136368 -0.34544581 -0.27007204
0.24087203 -0.34643927 -0.26392704
-0.25264019 -0.32720023 -0.26555741
0.25987342 -0.32747176 -0.26379317
0.27844584 -0.32687661 -0.26765907
0.29788804 -0.27054611 -0.26347661
0.29735464 -0.23202991 -0.26809585
0.29687488 -0.21262622 -0.27225065
0.29730701 -0.17512396 -0.26850843
-0.17705715 -0.13776451 -0.26141649
0.18408197 -0.13776451 -0.26141649
0.12731414 -0.38583377 -0.25591463
-0.21668679 -0.36881313 -0.2439338
-0.27329761 -0.34853035 -0.25099105
0.26050991 -0.34748894 -0.25743324
0.28098139 -0.34963924 -0.24413174
-0.27264279 -0.32856974 -0.25666189
0.30019751 -0.31145442 -0.24347591
0.29858163 -0.2903699 -0.25746983
-0.31171766 -0.23422095 -0.24911964
-0.3110804 -0.21459427 -0.25398922
-0.31242543 -0.13912746 -0.24371117
-0.29328182 -0.13912746 -0.24371117
-0.27413818 -0.13912746 -0.24371117
-0.2549946 -0.13912746 -0.24371117
-0.19644222 -0.13810787 -0.25695568
-0.025251936 -0.13903135 -0.24496037
-0.0061161248 -0.1390132 -0.24519527
0.013016068 -0.1390132 -0.24519527
0.1653275 -0.1380806 -0.25731063
-0.31233153 -0.11993407 -0.24442869
-0.29319346 -0.11993407 -0.24442869
-0.27405536 -0.11993407 -0.24442869
-0.25491723 -0.11993407 -0.24442869
0.14780349 -0.39056417 -0.22919774
0.22481637 -0.37129185 -0.22929788
-0.31440344 -0.25585076 -0.22859657
-0.31273991 -0.19679874 -0.24130815
-0.31428871 -0.17872992 -0.22947311
-0.31305176 -0.15867633 -0.2389251
-0.29387128 -0.15867633 -0.2389251
-0.27469084 -0.15867633 -0.2389251
-0.17946607 -0.15942156 -0.23012388
-0.16027768 -0.15949473 -0.22926033
0.16703647 -0.15946931 -0.22956061
0.18623006 -0.1593973 -0.23041141
0.28171802 -0.15881413 -0.2372967
0.30091104 -0.15881413 -0.2372967
0.320104 -0.15881413 -0.2372967
0.032204375 -0.13957429 -0.23790622
0.090010077 -0.14017627 -0.23008621
0.26205412 -0.13925898 -0.24200231
0.28121093 -0.13925898 -0.24200231
0.30036768 -0.13925898 -0.24200231
0.31952444 -0.13925898 -0.24200231
-0.19842969 -0.12069234 -0.23348475
-0.17919005 -0.12067667 -0.2337091
-0.15993056 -0.12063792 -0.23427057
0.16676486 -0.12065869 -0.23397112
0.1860016 -0.12067667 -0.2337091
0.20525104 -0.12070265 -0.23333502
0.26194999 -0.12003007 -0.24304271
0.28109878 -0.12003007 -0.24304271
0.30024752 -0.12003007 -0.24304271
0.31939632 -0.12003007 -0.24304271
-0.31267017 -0.10095542 -0.24184114
-0.29351214 -0.10095542 -0.24184114
-0.27435413 -0.10095542 -0.24184114
-0.25519612 -0.10095542 -0.24184114
0.26218316 -0.10102481 -0.24071276
0.28134987 -0.10102481 -0.24071276
0.30051658 -0.10102481 -0.24071276
0.31968325 -0.10102481 -0.24071276
-0.31346032 -0.082122691 -0.23580313
-0.29425582 -0.082122691 -0.23580313
-0.27505133 -0.082122691 -0.23580313
-0.25584683 -0.082122691 -0.23580313
0.26277176 -0.082175069 -0.23483133
0.2819837 -0.082175069 -0.23483133
0.30119571 -0.082175069 -0.23483133
0.32040766 -0.082175069 -0.23483133
0.32129753 -0.1789023 -0.22760665
-0.083291017 -0.14030546 -0.22840869
-0.064300187 -0.14098191 -0.21962094
-0.044857718 -0.14060384 -0.22453153
0.051674195 -0.14098191 -0.21962094
0.070877381 -0.14056221 -0.22507191
-0.025681335 -0.12182965 -0.21706998
-0.0063159103 -0.12167905 -0.21924245
0.013016068 -0.12167905 -0.21924245
-0.31480223 -0.063391812 -0.22554898
-0.29551882 -0.063391812 -0.22554898
-0.27623537 -0.063391812 -0.22554898
-0.25695196 -0.063391812 -0.22554898
0.26377735 -0.063427269 -0.22478282
0.28306666 -0.063427269 -0.22478282
0.302356 -0.063427269 -0.22478282
0.32164842 -0.063428335 -0.22475779
-0.31801131 -0.27871871 -0.20102715
0.32377064 -0.20017934 -0.20752752
-0.16212645 -0.14229411 -0.20257556
-0.14272054 -0.14236197 -0.20169294
-0.12330105 -0.14243004 -0.20080948
-0.10386741 -0.14249709 -0.19993842
0.11040763 -0.14247444 -0.2002331
0.12984513 -0.14240631 -0.20111692
0.14926906 -0.1423384 -0.20200002
-0.12327208 -0.12291894 -0.20134723
-0.10380057 -0.12291626 -0.20138562
-0.084330149 -0.1229145 -0.20141137
-0.064859718 -0.12291176 -0.20144963
0.032419715 -0.12232404 -0.20993257
-0.083974279 -0.083477728 -0.210657
0.090609908 -0.08348047 -0.21060622
-0.31692412 -0.044732541 -0.20933485
-0.29751587 -0.044732541 -0.20933485
-0.27810761 -0.044732541 -0.20933485
-0.25869939 -0.044732541 -0.20933485
0.2653653 -0.044748604 -0.20891511
0.28477678 -0.044748604 -0.20891511
0.30418825 -0.044748604 -0.20891511
0.32388365 -0.044837378 -0.20661008
-0.22193469 -0.12390433 -0.18712342
-0.045608543 -0.12356503 -0.19202006
0.071735829 -0.12385053 -0.18789995
-0.12343574 -0.10363618 -0.19831002
-0.10394263 -0.10363618 -0.19831002
-0.084450014 -0.10363696 -0.19829714
-0.064956792 -0.10363696 -0.19829714
-0.026120484 -0.10423746 -0.18854666
-0.0065338099 -0.1040903 -0.19093645
0.013016068 -0.1040903 -0.19093645
0.071598426 -0.10391084 -0.19384992
0.091125078 -0.10390922 -0.19387555
0.11065184 -0.10390846 -0.19388843
0.13017841 -0.10390768 -0.1939013
0.14970407 -0.10390609 -0.19392705
0.1107173 -0.084472962 -0.19218779
-0.14439084 -0.12477399 -0.17457032
0.052363571 -0.12475506 -0.17484474
0.091714703 -0.12476317 -0.17472708
0.11139137 -0.12476679 -0.17467487
0.13106945 -0.12477127 -0.17460954
0.15073937 -0.12476415 -0.17471409
0.032639842 -0.10468147 -0.181337
-0.12496268 -0.085669927 -0.16997361
-0.10525143 -0.085669927 -0.16997361
-0.065827325 -0.085667215 -0.17002594
0.072153457 -0.085678495 -0.16981602
0.13129085 -0.085678495 -0.16981602
0.15100048 -0.085675649 -0.16986859
-0.085092299 -0.065421253 -0.18161023
0.091503955 -0.065423116 -0.18157113
-0.32076687 -0.026228398 -0.17997098
-0.30087304 -0.026163548 -0.182078
-0.28125498 -0.026163548 -0.182078
-0.26163688 -0.026163548 -0.182078
0.24948204 -0.026513219 -0.17072117
0.26798466 -0.026143089 -0.18274081
0.28759766 -0.026143089 -0.18274081
0.30721062 -0.026143089 -0.18274081
-0.20460492 -0.10596111 -0.16055834
-0.16490024 -0.10583908 -0.16253948
-0.14533436 -0.10604172 -0.15924931
-0.04637941 -0.10607914 -0.15864062
0.1710559 -0.10573105 -0.16429317
0.21057497 -0.10573842 -0.16417468
-0.0067540361 -0.086081959 -0.16232824
-0.18573292 -0.10669037 -0.14871502
0.052759912 -0.10666659 -0.14910197
0.19189201 -0.10669211 -0.14868832
-0.18595597 -0.086971663 -0.1458174
0.072823994 -0.067307107 -0.14078093
0.1126918 -0.067302182 -0.14088833
0.15255633 -0.067297213 -0.14099574
0.13203795 -0.066713139 -0.15364087
-0.086236387 -0.046943694 -0.15188575
0.092418849 -0.04694476 -0.15185905
0.21343833 -0.16815585 -0.12697852
-0.16699447 -0.087699465 -0.13231182
-0.14699662 -0.087702341 -0.13225782
-0.046994932 -0.087716945 -0.13198757
-0.027005207 -0.087765731 -0.13108218
0.013016068 -0.087934263 -0.12795472
0.033019941 -0.087718375 -0.13196051
0.053022984 -0.087715439 -0.13201463
0.17302459 -0.08769875 -0.13232529
0.19302192 -0.08769577 -0.13237941
-0.02693725 -0.06755127 -0.13549578
-0.0069605904 -0.06755127 -0.13549578
0.013016068 -0.06755127 -0.13549578
0.033034723 -0.067803249 -0.13004041
-0.0070216702 -0.047879964 -0.12756169
-0.227842 -0.1684778 -0.12317502
-0.20782925 -0.16853669 -0.12248111
0.21472037 -0.14939559 -0.11032462
-0.18773144 -0.068139829 -0.12275326
-0.16765952 -0.068141691 -0.12271237
-0.14779676 -0.068300903 -0.11926508
-0.12785342 -0.068436503 -0.11632812
-0.10773174 -0.068439119 -0.1162734
-0.067486264 -0.068444803 -0.11615014
-0.047469847 -0.068663135 -0.11142313
0.053315725 -0.068590298 -0.11300063
0.17361575 -0.068141028 -0.12272596
0.19412169 -0.068428285 -0.11650586
-0.168117 -0.048320808 -0.11610925
-0.14799196 -0.048321292 -0.11609554
-0.027322251 -0.048537008 -0.11048949
0.013016068 -0.048099056 -0.12186837
0.15389663 -0.048320271 -0.11612296
0.1740595 -0.048343398 -0.11552107
0.25410056 -0.048143126 -0.12072408
-0.24809468 -0.028032981 -0.12136459
-0.087406948 -0.028029606 -0.12147355
0.093354903 -0.028030053 -0.12145984
-0.24967054 -0.04872454 -0.10561776
-0.18945041 -0.048924491 -0.10042334
-0.12871942 -0.048930928 -0.10025716
-0.10847405 -0.04893297 -0.10020185
0.11425677 -0.048931994 -0.10022938
0.13450237 -0.048929818 -0.10028493
-0.16866258 -0.028437331 -0.10823464
-0.007221208 -0.028640397 -0.10164082
0.013016068 -0.028817408 -0.095889091
0.15432169 -0.028437331 -0.10823464
0.1745082 -0.028437331 -0.10823464
-0.25208926 -0.070047565 -0.081448317
0.25762886 -0.069997631 -0.082528949
-0.068246812 -0.04926981 -0.091450691
-0.048042655 -0.049455792 -0.086619854
0.03339399 -0.049580827 -0.083370566
0.053697132 -0.049393915 -0.08822751
0.07392624 -0.049208209 -0.093052506
-0.19070269 -0.029178709 -0.08415556
-0.14996584 -0.029182211 -0.084043622
-0.12976021 -0.029277779 -0.080942512
0.13532183 -0.029228419 -0.082543135
-0.16993843 -0.0086760595 -0.089819074
-0.088605992 -0.0086645633 -0.090321422
-0.068375327 -0.008734826 -0.087277055
-0.048027154 -0.0087345131 -0.087291002
-0.027679414 -0.0087345131 -0.087291002
-0.0073316721 -0.0087345131 -0.087291002
0.013016068 -0.0087345131 -0.087291002
0.033363916 -0.008734826 -0.087277055
0.053711981 -0.0087350905 -0.087263107
0.074059941 -0.0087350905 -0.087263107
0.094313718 -0.0086645633 -0.090321422
0.15531403 -0.0086760595 -0.089819074
0.17564231 -0.0086760595 -0.089819074
-0.25343531 -0.15265381 -0.067997694
0.25900528 -0.15268227 -0.06762886
-0.25335586 -0.091122352 -0.068791747
0.25897253 -0.091165893 -0.067983389
-0.10958852 -0.029427715 -0.07607305
-0.06892401 -0.029631399 -0.069457889
-0.048431467 -0.029621407 -0.069783807
-0.027943723 -0.029610887 -0.070123792
0.033496834 -0.029614352 -0.070010424
0.053982619 -0.02962438 -0.069684625
0.074473746 -0.029634811 -0.069344521
0.11512472 -0.02937822 -0.077679396
-0.29445404 -0.0091853403 -0.06777072
-0.19197056 -0.0091872923 -0.067685485
-0.11011632 -0.0092574209 -0.064645648
0.27979153 -0.009254802 -0.064759493
0.29982927 -0.0091511607 -0.069245458
-0.25383911 -0.13243714 -0.063962936
0.25943992 -0.13250914 -0.062923789
-0.25389037 -0.11194137 -0.063450456
0.25942019 -0.1119606 -0.063137293
-0.27444005 -0.0092889778 -0.063279748
-0.25431839 -0.0093838312 -0.059173465
-0.23384921 -0.0094076209 -0.058144808
-0.2132771 -0.0094076209 -0.058144808
-0.15120162 -0.0092728212 -0.063977122
-0.13065678 -0.0092653669 -0.064304352
0.11563077 -0.0092600398 -0.064531922
0.13616884 -0.0092676282 -0.064204693
0.19816504 -0.0094076209 -0.058144808
0.21873716 -0.0094076209 -0.058144808
0.23929715 -0.0094042942 -0.05828774
0.25968614 -0.0093587078 -0.060258269
-0.1721527 0.011160143 -0.057859063
-0.1515784 0.011160143 -0.057859063
-0.048888948 0.011038791 -0.049974322
-0.028203093 0.011089522 -0.053277135
-0.0075935116 0.011089522 -0.053277135
0.013016068 0.011089522 -0.053277135
0.033625647 0.011089522 -0.053277135
0.15703623 0.011160143 -0.057859063
0.17761055 0.011160143 -0.057859063
-0.23576093 -0.051348306 -0.037450075
-0.21503319 -0.05134999 -0.037406683
0.19960183 -0.05134999 -0.037406683
0.22033361 -0.05134999 -0.037406683
0.24105062 -0.051343285 -0.037580848
-0.23480207 -0.030297361 -0.047830105
-0.21415177 -0.030297756 -0.0478158
0.19888066 -0.030297756 -0.0478158
0.21953228 -0.030297756 -0.0478158
0.24017049 -0.030292876 -0.04797411
-0.29702622 0.010969814 -0.045495152
-0.27652007 0.010946423 -0.043979526
-0.2559922 0.010922857 -0.042447686
-0.23539412 0.010907054 -0.041420817
-0.21462835 0.010918815 -0.042187452
-0.19385773 0.010933995 -0.043170571
-0.13163845 0.01097887 -0.04608655
-0.11092825 0.010993917 -0.047066689
-0.090233728 0.011008784 -0.048031807
-0.069553629 0.011023875 -0.049010515
0.054290947 0.011033818 -0.049657822
0.07495065 0.011018995 -0.048694015
0.095625654 0.011003993 -0.047714949
0.11631521 0.010989122 -0.046749711
0.13702032 0.010974031 -0.045769334
0.19922453 0.01092907 -0.042852521
0.21999006 0.010913935 -0.041869283
0.24070215 0.010911226 -0.041695595
0.26128599 0.010930356 -0.042939186
0.28182048 0.01095419 -0.044485092
0.30233604 0.010977361 -0.045985579
-0.23726887 -0.15626201 -0.02112639
0.24244767 -0.15626538 -0.021082282
-0.23672859 -0.072563611 -0.026974678
-0.21592151 -0.072566316 -0.026916265
0.22114114 -0.072566316 -0.026916265
0.2419363 -0.072556861 -0.027120948
-0.21625391 0.03146603 -0.022990584
-0.19541007 0.031466164 -0.023005247
-0.17442222 0.031482272 -0.025101185
-0.15359576 0.031482272 -0.025101185
-0.13287984 0.031466473 -0.023049355
-0.028712567 0.031444415 -0.020185828
-0.0078482488 0.031444415 -0.020185828
0.013016068 0.031444415 -0.020185828
0.033880387 0.031444415 -0.020185828
0.1380704 0.031466339 -0.023034573
0.15880142 0.031482272 -0.025101185
0.17962791 0.031482272 -0.025101185
0.20060062 0.03146603 -0.022990584
0.22144446 0.03146594 -0.022976041
0.24266805 -0.13558829 -0.018479586
-0.23776922 -0.11488151 -0.015709758
0.24291259 -0.11488881 -0.01559186
-0.2375555 -0.093857966 -0.018023372
-0.21666206 -0.093850113 -0.018170476
0.22181439 -0.093850113 -0.018170476
0.2427154 -0.093863644 -0.017920256
-0.30083209 0.031385556 -0.012535214
-0.28006193 0.031374551 -0.011115313
-0.25923443 0.031366386 -0.010049462
-0.23837146 0.031359859 -0.0091902018
-0.11242496 0.031401847 -0.014662147
-0.091480076 0.031409524 -0.01565063
-0.070549972 0.031417206 -0.016653299
-0.049635671 0.031424794 -0.017640352
0.05478888 0.031422265 -0.017316341
0.075698085 0.031414717 -0.016328931
0.096622974 0.031406954 -0.015326262
0.11756276 0.031399362 -0.01433754
0.2434371 0.031361323 -0.0093976259
0.26429415 0.031368867 -0.010375142
0.28511551 0.031378012 -0.011559248
0.30588529 0.031389553 -0.013052464
-0.32487208 0.010072783 0.012769699
-0.30470109 0.052308716 0.020971298
-0.28363103 0.052308761 0.022001863
-0.26254058 0.052308671 0.022987723
-0.24142101 0.052308716 0.023822427
-0.21911 0.052308716 0.010738134
-0.19800647 0.052308761 0.010723114
-0.17690317 0.052308716 0.010708094
-0.1558001 0.052308761 0.010693073
-0.13469727 0.052308761 0.010678053
-0.11395895 0.052308716 0.018549562
-0.092756882 0.052308761 0.01752162
-0.071571119 0.052308761 0.016509414
-0.050406896 0.052308761 0.01575458
-0.029234793 0.052308716 0.013733745
-0.0081093619 0.052308716 0.013733745
0.013016068 0.052308716 0.013733745
0.0341415 0.052308716 0.013733745
0.055298969 0.052308716 0.015815139
0.097644664 0.052308761 0.017854095
0.11884081 0.052308716 0.018867135
0.13962752 0.052308761 0.010678053
0.16073024 0.052308761 0.010693073
0.18183318 0.052308716 0.010708094
0.20293637 0.052308761 0.010723114
0.22505985 0.052308761 0.02398932
0.2462398 0.052308761 0.023700953
0.26734665 0.052308761 0.022669077
0.28844222 0.052308761 0.021683455
0.076463781 0.052308805 0.01682651
0.30950314 0.052308805 0.020516872
-0.3276265 -0.011561699 0.035132766
-0.32780945 0.031007171 0.036618233
-0.22203682 0.073677197 0.04530251
-0.20066719 0.073677018 0.045287132
-0.1792978 0.073676929 0.045271635
-0.15792866 0.073676839 0.045256257
-0.13656054 0.073676839 0.045256257
-0.1155302 0.073733166 0.052568197
-0.094065867 0.073725134 0.051530123
-0.072628975 0.07372003 0.050864339
-0.051217355 0.073719896 0.050848722
-0.029770259 0.073701918 0.048513055
-0.0083770948 0.073701918 0.048513055
0.013016068 0.073701918 0.048513055
0.034409232 0.073701918 0.048513055
0.05583835 0.073719896 0.050848722
0.077249855 0.07372003 0.050864339
0.098691627 0.07372766 0.051855326
0.12015108 0.073735744 0.052909136
0.14122461 0.073676839 0.045256257
0.16259353 0.073676929 0.045271635
0.18396175 0.073676929 0.045271635
0.20533101 0.073677018 0.045287132
0.31316462 0.073747948 0.054491401
-0.30860931 0.073750392 0.054817438
-0.28727806 0.073758334 0.05584228
-0.26593268 0.07376641 0.056883574
-0.24454549 0.073772222 0.057645679
0.22768906 0.073776044 0.058143497
0.24911024 0.073771827 0.057599068
0.27047566 0.073763661 0.056541681
0.29182956 0.073755845 0.05553174
-0.22503842 0.095591486 0.080749512
-0.20339711 0.095591486 0.080749512
-0.18175468 0.095591217 0.080733657
-0.16011252 0.095590949 0.080717921
-0.13847142 0.095590949 0.080717921
-0.030319467 0.095644265 0.0841856
-0.0086516989 0.095644265 0.0841856
0.013016068 0.095644265 0.0841856
0.034683835 0.095644265 0.0841856
0.14286251 0.095590949 0.080717921
0.16450357 0.095590949 0.080717921
0.18614565 0.095591217 0.080733657
0.20778793 0.095591486 0.080749512
-0.29101592 0.095741823 0.09052527
-0.26940778 0.095758557 0.091608644
-0.24774912 0.095769517 0.092326045
-0.11714082 0.095694281 0.087439299
-0.095426001 0.095685631 0.086867213
-0.073737092 0.095685408 0.086851478
-0.052048802 0.095685408 0.086851478
0.056392647 0.095685408 0.086851478
0.07808131 0.095685631 0.086867213
0.099769719 0.095685631 0.086867213
0.1214936 0.095699787 0.08778882
0.23038426 0.095782384 0.093155503
0.25205219 0.095769867 0.0923419
0.27368262 0.095753178 0.091258049
0.29529804 0.095736802 0.090190887
-0.29484975 0.11827999 0.12609875
-0.27297053 0.11830551 0.12720966
-0.25103197 0.11832079 0.12786353
-0.22909996 0.11834036 0.12871397
-0.20619641 0.11807245 0.11711359
-0.18427403 0.11807209 0.11709726
-0.16235192 0.11807173 0.11708105
-0.14043179 0.11807209 0.11709726
-0.11882169 0.11822753 0.12383091
-0.0968481 0.11822718 0.12381458
-0.074874766 0.11822677 0.12379837
-0.052901678 0.11822642 0.12378204
-0.030882962 0.11815718 0.12078547
-0.0089334445 0.11815718 0.12078547
0.013016068 0.11815718 0.12078547
0.034965582 0.11815718 0.12078547
0.056961231 0.11822642 0.12378204
0.078934193 0.11822677 0.12379837
0.1009074 0.11822718 0.12381458
0.12288086 0.11822753 0.12383091
0.14454207 0.11807173 0.11708105
0.16646306 0.11807173 0.11708105
0.18838507 0.11807209 0.11709726
0.21030731 0.11807245 0.11711359
0.25506562 0.11832229 0.12792885
0.276972 0.11829766 0.12686646
0.29885718 0.1182721 0.12575603
0.23314801 0.11834835 0.12905765
-0.20906907 0.14114273 0.15443075
-0.1868594 0.14114237 0.15441394
-0.16465102 0.14114237 0.15441394
-0.14244264 0.14114237 0.15441394
-0.031461302 0.14126348 0.15834987
-0.0092226164 0.14126348 0.15834987
0.013016068 0.14126348 0.15834987
0.035254754 0.14126348 0.15834987
0.12405864 0.14114273 0.15443075
0.1462664 0.14114237 0.15441394
0.16847479 0.14114237 0.15441394
0.1906842 0.14114273 0.15443075
0.21289386 0.14114329 0.15444732
-0.29878154 0.14139384 0.16258109
-0.27662429 0.14142895 0.16372049
-0.25439847 0.14144698 0.16430724
-0.23221904 0.14148515 0.16554868
-0.12057359 0.14136851 0.16176069
-0.098308004 0.14136802 0.16174388
-0.076042667 0.14136744 0.16172719
-0.053777598 0.14136696 0.1617105
0.057545178 0.14136696 0.1617105
0.07981012 0.14136744 0.16172719
0.10207532 0.14136802 0.16174388
0.23598295 0.14149553 0.16588449
0.2581546 0.14145008 0.16440797
0.28034392 0.14141808 0.16336846
0.30295703 0.14152142 0.16672409
-0.30281502 0.16510545 0.2000072
-0.28037265 0.16515058 0.2011764
-0.25785196 0.16517043 0.20169234
-0.2354181 0.16523328 0.20332778
-0.21201937 0.16482648 0.19275582
-0.18951464 0.16482577 0.19273877
-0.16701122 0.16482577 0.19273877
-0.14450781 0.16482577 0.19273877
-0.12237187 0.16513194 0.20069492
-0.099806547 0.16513136 0.20067751
-0.077242024 0.16513136 0.20067751
-0.054677114 0.1651307 0.20066047
-0.032055087 0.16498654 0.19691706
-0.009519509 0.16498654 0.19691706
0.013016068 0.16498654 0.19691706
0.035551645 0.16498654 0.19691706
0.058144853 0.1651307 0.20066047
0.080709636 0.16513136 0.20067751
0.1032747 0.16513194 0.20069492
0.12553379 0.16482648 0.19275582
0.14803655 0.16482577 0.19273877
0.17053996 0.16482577 0.19273877
0.19304337 0.16482577 0.19273877
0.21554796 0.16482648 0.19275582
0.26132196 0.16517505 0.20181286
0.28380308 0.16513665 0.2008152
0.23887727 0.1652393 0.20348275
-0.21504773 0.18914706 0.23209572
-0.19224013 0.18914625 0.23207796
-0.16943496 0.18914706 0.23209572
-0.14662857 0.18914706 0.23209572
0.12704797 0.18914706 0.23209572
0.14985435 0.18914706 0.23209572
0.1726598 0.18914625 0.23207796
0.19546711 0.18914706 0.23209572
0.21827349 0.18914706 0.23209572
-0.28421926 0.18949422 0.23961413
-0.26139742 0.18951535 0.2400732
-0.23870319 0.18961024 0.24212301
-0.12422005 0.18954489 0.24070907
-0.10134669 0.18954411 0.24069142
-0.078473598 0.18954316 0.24067378
-0.055601172 0.18954316 0.24067378
-0.032665208 0.18935254 0.2365458
-0.0098245693 0.18935254 0.2365458
0.013016068 0.18935254 0.2365458
0.035856705 0.18935254 0.2365458
0.0587609 0.18954316 0.24067378
0.081633724 0.18954411 0.24069142
0.10450628 0.18954411 0.24069142
0.24183546 0.18960032 0.24191093
0.26456925 0.18951952 0.24016166
0.28735292 0.18947715 0.23924363
-0.21816009 0.21413207 0.27252662
-0.19504122 0.21413115 0.2725085
-0.17192374 0.21413115 0.2725085
-0.14880723 0.21413207 0.27252662
-0.033291798 0.21438628 0.27724409
-0.010137864 0.21438628 0.27724409
0.013016068 0.21438628 0.27724409
0.036170002 0.21438628 0.27724409
0.12860416 0.21413207 0.27252662
0.15172178 0.21413207 0.27252662
0.17483842 0.21413115 0.2725085
0.19795589 0.21413115 0.2725085
0.22107464 0.21413207 0.27252662
-0.28816813 0.2144849 0.27907348
-0.26503527 0.21450534 0.27945411
-0.24207482 0.21463937 0.28193986
-0.12611938 0.21463349 0.28183091
-0.10292946 0.21463239 0.28181279
-0.079739787 0.2146315 0.28179467
-0.056550406 0.21463057 0.28177655
0.059393995 0.2146315 0.28179467
0.082582958 0.2146315 0.28179467
0.10577249 0.21463239 0.28181279
0.24487217 0.21460798 0.28135896
0.26790261 0.21450931 0.27952659
0.29099879 0.21446541 0.27871096
-0.2922233 0.24014825 0.31959522
-0.26877087 0.24016657 0.31989312
-0.22135717 0.23980734 0.31405771
-0.19791986 0.23980734 0.31405771
-0.17448251 0.23980734 0.31405771
-0.1510462 0.23980844 0.3140763
-0.12760873 0.23980844 0.3140763
-0.033935815 0.24011618 0.31907415
-0.010459873 0.24011618 0.31907415
0.013016068 0.24011618 0.31907415
0.036492009 0.24011618 0.31907415
0.13020341 0.23980844 0.3140763
0.15364088 0.23980844 0.3140763
0.17707735 0.23980734 0.31405771
0.20051353 0.23980615 0.31403899
0.24798915 0.24028721 0.32184947
0.27132392 0.24016908 0.31993043
0.29474112 0.24012539 0.31922293
-0.24552378 0.24033779 0.3226701
-0.10455664 0.24042508 0.32408834
-0.081041522 0.24042389 0.32406962
-0.057526693 0.2404227 0.32405102
0.060044572 0.2404227 0.32405102
0.08355926 0.24042389 0.32406962
0.10707423 0.24042508 0.32408834
0.22463013 0.24041012 0.32384574
-0.29638919 0.26651239 0.36122322
-0.27260822 0.266527 0.36143363
-0.24904779 0.26672456 0.36428678
-0.22464393 0.26620266 0.35675359
-0.2008779 0.26620266 0.35675359
-0.1771131 0.26620394 0.35677278
-0.15334696 0.26620394 0.35677278
-0.12958167 0.2662054 0.35679197
-0.034598 0.26657203 0.36208415
-0.010790966 0.26657203 0.36208415
0.013016068 0.26657203 0.36208415
0.036823101 0.26657203 0.36208415
0.13184753 0.2662054 0.35679197
0.15561296 0.26620394 0.35677278
0.17937911 0.26620394 0.35677278
0.20314407 0.26620266 0.35675359
0.22754888 0.2668415 0.36597407
0.25119251 0.2666676 0.36346281
0.27483833 0.266527 0.36143363
-0.10622942 0.26695055 0.36754823
-0.08238031 0.26695055 0.36754823
-0.058530778 0.26694933 0.36752903
0.060713962 0.26694933 0.36752903
0.084563352 0.26695055 0.36754823
0.10841305 0.26695183 0.36756742
-0.27655151 0.29361504 0.40412104
-0.25266922 0.2938408 0.40705359
-0.22802566 0.2933504 0.40068388
-0.20392148 0.2933504 0.40068388
-0.17981853 0.29335198 0.40070355
-0.1557142 0.29335198 0.40070355
-0.13161078 0.29335353 0.4007231
0.10977895 0.29421601 0.41192675
0.13353845 0.29335353 0.4007231
0.15764202 0.29335198 0.40070355
0.18174635 0.29335198 0.40070355
0.20584947 0.2933504 0.40068388
0.23051921 0.2939789 0.40884709
0.25448447 0.29377699 0.4062264
0.27845138 0.29361349 0.40410137
-0.10793982 0.29422045 0.41198599
-0.083754115 0.29423413 0.41216373
-0.059563853 0.29424176 0.41226244
-0.035370242 0.29424039 0.41224289
-0.011176935 0.29423875 0.41222322
0.013016068 0.29423875 0.41222322
0.037209224 0.29424039 0.41224289
0.061402682 0.29424176 0.41226244
0.085592337 0.2942296 0.41210461
-0.28060707 0.32146332 0.4480238
-0.25639209 0.32171676 0.45101869
-0.2321002 0.32193664 0.45361352
-0.20775174 0.32213598 0.45596862
0.20921285 0.32207927 0.45529819
0.23357435 0.32187998 0.45294416
0.25786713 0.32164487 0.45016837
0.2821638 0.32145649 0.44794297
-0.18327954 0.32221523 0.45690358
-0.15875244 0.3222307 0.45708656
-0.13422349 0.32224798 0.45728993
-0.10969061 0.32226342 0.45747292
-0.085154913 0.32227892 0.45765603
-0.060616866 0.32229608 0.45785952
-0.036075376 0.32231152 0.45804238
-0.011531218 0.32232881 0.45824599
0.013016068 0.32232365 0.45818508
0.037561476 0.32230812 0.45800185
0.062103748 0.32229102 0.45779836
0.086643368 0.32227549 0.45761514
0.11117954 0.32225823 0.457412
0.13571335 0.32224274 0.45722878
0.16024342 0.32222557 0.45702577
0.18477146 0.3222101 0.45684266
-0.28462234 0.34994718 0.49149048
-0.25981915 0.34994718 0.49149048
-0.23501596 0.34994718 0.49149048
-0.11104553 0.35005653 0.49267483
-0.086233214 0.35005653 0.49267483
-0.061420895 0.35005653 0.49267483
-0.036608573 0.35005653 0.49267483
-0.011796252 0.35005653 0.49267483
0.013016068 0.35005653 0.49267483
0.03782839 0.35005653 0.49267483
0.062640712 0.35005653 0.49267483
0.08745303 0.35005653 0.49267483
0.11226535 0.35005653 0.49267483
0.23624058 0.34994128 0.49142814
0.26104328 0.34994128 0.49142814
0.28584602 0.34994128 0.49142814
-0.28531286 0.37549832 0.4989655
-0.26045212 0.37549832 0.4989655
-0.23559137 0.37549832 0.4989655
0.2367599 0.37549415 0.49892366
0.26162028 0.37549415 0.49892366
0.28648072 0.37549415 0.49892366
-0.28677559 0.40206566 0.51479983
-0.26179293 0.40206566 0.51479983
-0.23681028 0.40206566 0.51479983
0.23785982 0.40206566 0.51479983
0.26284242 0.40206566 0.51479983
0.28782508 0.40206566 0.51479983
-0.11286583 0.37960157 0.53996754
-0.087689452 0.37960157 0.53996754
-0.062513068 0.37960157 0.53996754
-0.037336692 0.37960157 0.53996754
-0.012160311 0.37960157 0.53996754
0.013016068 0.37960157 0.53996754
0.038192447 0.37960157 0.53996754
0.063368827 0.37960157 0.53996754
0.088545203 0.37960157 0.53996754
0.11372159 0.37960157 0.53996754
-0.29056671 0.43178716 0.55584002
-0.26526815 0.43178716 0.55584002
-0.23996958 0.43178716 0.55584002
0.24072862 0.43182957 0.5562073
0.26603001 0.43182957 0.5562073
-0.13957609 0.35749304 0.57317698
-0.21568017 0.38264769 0.57040572
0.19114742 0.38312408 0.57516587
0.21576458 0.38177508 0.56168556
0.21661498 0.43405676 0.57549381
0.2922644 0.43310177 0.56722546
0.21749152 0.3590219 0.5897274
-0.19077694 0.38347244 0.57864618
-0.16566132 0.38413823 0.58529913
0.14082935 0.38462317 0.5901463
0.16608383 0.38395548 0.58347392
-0.11473949 0.41002432 0.58864653
-0.089188375 0.41002432 0.58864653
-0.063637272 0.41002432 0.58864653
-0.038086154 0.41002432 0.58864653
-0.012535042 0.41002432 0.58864653
0.013016068 0.41002432 0.58864653
0.038567178 0.41002432 0.58864653
0.064118288 0.41002432 0.58864653
0.089669406 0.41002432 0.58864653
0.11522051 0.41002432 0.58864653
-0.14044349 0.38480434 0.59195673
0.14187224 0.36156347 0.61724114
0.21874493 0.41233414 0.61007988
-0.19347748 0.36204904 0.62249744
-0.16766578 0.36204904 0.62249744
0.16788623 0.36204904 0.62249744
-0.11666977 0.44136629 0.63879693
-0.090732597 0.44136629 0.63879693
-0.064795956 0.44136876 0.63881946
-0.038858615 0.44136876 0.63881946
-0.012921273 0.44136876 0.63881946
0.013016068 0.44136876 0.63881946
0.038953409 0.44136876 0.63881946
0.0648904 0.44136629 0.63879693
0.090827569 0.44136629 0.63879693
0.11676473 0.44136629 0.63879693
-0.19520986 0.41670418 0.65062797
-0.16918163 0.41670418 0.65062797
-0.1431534 0.41670418 0.65062797
0.14315729 0.41670418 0.65062797
0.16918555 0.41670418 0.65062797
-0.22208594 0.44414544 0.66286528
-0.22312823 0.41964427 0.67790914
0.19669013 0.41965678 0.67802525
-0.19622919 0.44464368 0.6671797
-0.17007478 0.44464633 0.66720259
-0.14392002 0.44464889 0.66722572
0.14379615 0.44464889 0.66722572
0.1699511 0.44464633 0.66720259
0.19604097 0.44450489 0.66597879
-0.22345886 0.36760861 0.68268144
0.19804299 0.36949766 0.70313132
-0.25159353 0.47568405 0.70683932
0.2510632 0.47550365 0.70537424
-0.2255888 0.47649515 0.71342492
-0.19957235 0.47748548 0.72146571
-0.17301165 0.47751495 0.72170413
-0.14643405 0.47750908 0.72165656
-0.11986087 0.47751495 0.72170413
-0.093286224 0.47751778 0.72172809
-0.066711202 0.4775207 0.72175181
-0.040133607 0.47750616 0.72163248
-0.013558035 0.47749436 0.72153723
0.013016068 0.47749728 0.72156119
0.039591271 0.47751185 0.72168028
0.066167578 0.4775207 0.72175181
0.092742786 0.47751778 0.72172809
0.11931688 0.47751185 0.72168028
0.14589119 0.47750908 0.72165656
0.17246951 0.47751778 0.72172809
0.19891666 0.47722432 0.71934474
0.22497931 0.47623521 0.71131372
-0.22922477 0.50987476 0.76590514
0.22822833 0.50963479 0.76407146
-0.20263804 0.51057363 0.77124619
-0.17578445 0.51082426 0.77316141
-0.14892538 0.51114273 0.77559471
-0.12198722 0.51131994 0.77694845
-0.094997182 0.51136512 0.77729321
-0.068001255 0.51140696 0.77761316
-0.04099359 0.51139081 0.7774899
-0.013988 0.51137793 0.77739143
0.013016068 0.51138109 0.77741599
0.040021084 0.51139408 0.7775147
0.067026868 0.51140034 0.77756381
0.094022021 0.51134241 0.77712059
0.1210096 0.51128131 0.77665305
0.14794077 0.51105267 0.77490616
0.17481561 0.5107407 0.77252269
0.20167111 0.51047093 0.77046132
-0.17796159 0.54339415 0.81356359
0.17669845 0.54335576 0.81328726
-0.15076852 0.54366249 0.81550002
0.14948192 0.5435859 0.81494665
-0.12355249 0.54395562 0.81761479
0.095187649 0.54533821 0.8275938
0.12225152 0.54386824 0.81698537
-0.096671768 0.54590416 0.8316772
-0.069319658 0.54632306 0.83470106
-0.0418799 0.54637241 0.83505726
-0.01443446 0.54641825 0.83538818
0.013016068 0.54640764 0.83531189
0.040463462 0.54636192 0.83498096
0.067904986 0.54630905 0.83459973
0 0 0 1 0 0 0 1 0 0 0 1 0 0 0 0 0 1197 1 0 0
