ply
format ascii 1.0
comment PCL generated
element vertex 874
property float x
property float y
property float z
element camera 1
property float view_px
property float view_py
property float view_pz
property float x_axisx
property float x_axisy
property float x_axisz
property float y_axisx
property float y_axisy
property float y_axisz
property float z_axisx
property float z_axisy
property float z_axisz
property float focal
property float scalex
property float scaley
property float centerx
property float centery
property int viewportx
property int viewporty
property float k1
property float k2
end_header
0.46796134 -0.072150908 -0.33542061
0.49068734 -0.072153606 -0.33530605
0.44515553 -0.049434479 -0.33606505
0.46749634 -0.049400065 -0.33829713
0.49020258 -0.049402006 -0.33816838
0.44518417 -0.026734235 -0.33587897
0.46740389 -0.026711199 -0.33886898
0.49019045 -0.026716001 -0.33824003
0.44519302 -0.0040311837 -0.33582175
0.46738079 -0.0040312377 -0.33901167
0.49039635 -0.0040312377 -0.33702409
0.3788296 -0.14086869 -0.32247198
0.44772276 -0.1410111 -0.31939054
0.47033513 -0.14094891 -0.32073665
0.49351269 -0.14104646 -0.31862307
0.37850836 -0.11796805 -0.32492638
0.42430267 -0.11802577 -0.32342541
0.44660407 -0.11790146 -0.32665658
0.46919417 -0.11785755 -0.32779467
0.4920643 -0.11788139 -0.3271755
0.51617676 -0.11817326 -0.31959331
0.37849328 -0.09517704 -0.32504189
0.40188831 -0.095312282 -0.32064998
0.4236362 -0.095086552 -0.32798171
0.44592398 -0.094991304 -0.331074
0.46850383 -0.094960801 -0.33206499
0.4912411 -0.094961748 -0.33203602
0.51592314 -0.095300689 -0.32102609
0.37878987 -0.072442971 -0.32277536
0.40123177 -0.072382554 -0.32538807
0.42312303 -0.072241701 -0.33149052
0.44549972 -0.072187699 -0.33382964
0.51526576 -0.072397605 -0.32473886
0.40076667 -0.049547173 -0.32874465
0.42288789 -0.049480174 -0.33309829
0.51472217 -0.049561467 -0.32780898
0.37905666 -0.02685081 -0.32073677
0.40087038 -0.026794869 -0.32799613
0.42300123 -0.026761692 -0.33232331
0.51465076 -0.026793251 -0.32821202
0.40108794 -0.0040312917 -0.32642591
0.42302009 -0.0040311837 -0.33219397
0.37908128 -0.0040311296 -0.32054865
0.40200463 0.018795567 -0.31981063
0.4238975 0.018746313 -0.32619536
0.44610325 0.018717829 -0.32990968
0.46832052 0.018692475 -0.33319855
0.4251174 0.041652307 -0.31785488
0.44727284 0.041583691 -0.32231283
0.46970913 0.041548464 -0.32460904
0.33571306 -0.18781252 -0.30085588
0.35745463 -0.18719687 -0.31085134
0.35706398 -0.16413024 -0.31402302
0.38018268 -0.16423212 -0.31213248
0.35706756 -0.14126031 -0.31399381
0.42543566 -0.14118251 -0.31567872
0.51894712 -0.14172435 -0.3039465
0.3570568 -0.11838546 -0.31408095
0.54214752 -0.11882786 -0.30258501
0.35705143 -0.09551318 -0.31412482
0.33594349 -0.072995216 -0.29886043
0.35706756 -0.072645754 -0.31399381
0.54121828 -0.072793029 -0.30761456
0.35706398 -0.049773797 -0.31402302
0.37983641 -0.049762148 -0.31477869
0.5407387 -0.049832545 -0.31021035
0.33571306 -0.027003963 -0.30085588
0.35731831 -0.026918406 -0.31195784
0.54062569 -0.026927145 -0.31082225
0.33579776 -0.0040311837 -0.30012262
0.35741693 -0.0040312377 -0.31115711
0.33577913 0.018945858 -0.30028379
0.35772207 0.018881178 -0.3086797
0.37983829 0.018834407 -0.3147639
0.35891524 0.041942753 -0.29899263
0.38120416 0.041860647 -0.30432677
0.40315524 0.041750111 -0.31150675
0.49395967 0.04168117 -0.31598365
0.51975143 0.041936494 -0.29940355
0.40459856 0.064881332 -0.30109048
0.42671552 0.064746521 -0.3069284
0.45003071 0.064804994 -0.30439997
0.31417054 -0.21170445 -0.28758633
0.33602828 -0.21097419 -0.2981261
0.3142662 -0.18868431 -0.28669846
0.31448647 -0.16571288 -0.28465438
0.33637977 -0.16515094 -0.29508245
0.49814337 -0.16535577 -0.29128015
0.40722132 -0.14273046 -0.28216231
0.54540271 -0.14260101 -0.28496575
0.40577397 -0.11921202 -0.29260755
0.56886011 -0.11957852 -0.28308249
0.31482551 -0.096517488 -0.28150892
0.33685288 -0.096225694 -0.29098487
0.56879163 -0.07335142 -0.28343856
0.33662638 -0.050098229 -0.29294658
0.56754386 -0.050144836 -0.28992176
0.56738758 -0.027081806 -0.29073381
0.3141737 -0.0040312377 -0.28755665
0.3147839 0.019087411 -0.28189504
0.3142311 0.042127032 -0.28702402
0.33659062 0.042031061 -0.29325616
0.3605462 0.06523554 -0.28575087
0.38259509 0.065052122 -0.29369819
0.4753381 0.065142319 -0.28978884
0.29277647 -0.23607221 -0.27079129
0.31674817 -0.23662032 -0.26366889
0.29243851 -0.21263409 -0.27416825
0.36281669 -0.21310872 -0.26731682
0.38500249 -0.18938616 -0.27530229
0.29320219 -0.14345223 -0.26653695
0.57197213 -0.14343494 -0.26691186
0.54812652 -0.096865006 -0.27022278
0.57044929 -0.096723452 -0.27482498
0.59606284 -0.097098805 -0.26263142
0.59538329 -0.073753424 -0.26602674
0.5950771 -0.050489228 -0.26755667
0.31517646 -0.027177829 -0.27825236
0.59562963 -0.027281405 -0.26479566
0.29249826 -0.0040312377 -0.27357125
0.29243401 0.019146537 -0.27421319
0.50061709 0.019127656 -0.27667379
0.27024141 0.042488519 -0.26354873
0.29222655 0.042292375 -0.27628636
0.54637361 0.042239614 -0.27971041
0.29361713 0.065774992 -0.26239061
0.31603858 0.065593518 -0.2702527
0.33843485 0.065431088 -0.2772845
0.50185663 0.065614186 -0.26935458
0.34008867 0.08902619 -0.26296222
0.27060568 -0.23693329 -0.25960529
0.24838421 -0.21451741 -0.24698412
0.27049017 -0.21355642 -0.26085556
0.41033646 -0.16705854 -0.25968063
0.34201616 -0.14438832 -0.24626958
0.59957504 -0.14444312 -0.24508321
0.29509205 -0.12094232 -0.24765253
0.34201616 -0.12099546 -0.24626958
0.596358 -0.12042245 -0.2611568
0.27099743 -0.050676905 -0.25536442
0.27078262 -0.02733616 -0.25769007
0.24860188 -0.0040312377 -0.24441361
0.27058479 -0.0040311837 -0.25983131
0.52738827 -0.0040312377 -0.256271
0.55254066 -0.0040311296 -0.2463305
0.24837908 0.019355685 -0.24704468
0.27050966 0.01925103 -0.26064491
0.52656323 0.019248817 -0.2609309
0.55224031 0.019348618 -0.24795616
0.24806935 0.042686287 -0.25070262
0.57371789 0.042576343 -0.25784099
0.27135247 0.066026218 -0.25152099
0.52909988 0.066139668 -0.24660408
0.31793982 0.089344896 -0.2526114
0.36363289 0.089096159 -0.26069009
0.38820985 0.089400947 -0.25079346
0.24867666 -0.23817064 -0.24353063
0.22605447 -0.21546929 -0.23324525
0.22617021 -0.19206877 -0.23174179
0.29674885 -0.19210848 -0.23109698
0.22628015 -0.16864102 -0.23031366
0.24981537 -0.16865347 -0.23008311
0.24920914 -0.1448053 -0.23724222
0.32008153 -0.14501339 -0.23273921
0.27370948 -0.12177546 -0.22600555
0.31925866 -0.12122241 -0.24037433
0.62471807 -0.12136353 -0.23670697
0.2958647 -0.097797781 -0.2399317
0.69599128 -0.098013721 -0.23292315
0.27309173 -0.074523225 -0.23269308
0.29620886 -0.074435622 -0.23649263
0.32008153 -0.074522205 -0.23273921
0.62335992 -0.07427977 -0.24324095
0.69532603 -0.074451476 -0.23580384
0.32008153 -0.051025178 -0.23273921
0.62324917 -0.050855409 -0.24377406
0.69532955 -0.050978191 -0.23578858
0.62495345 -0.027506413 -0.23557413
0.69598776 -0.027526805 -0.23293841
0.22605565 -0.0040311837 -0.23322988
0.57874656 -0.0040311296 -0.23171103
0.22627778 0.019484291 -0.2303443
0.57827723 0.019454999 -0.23414969
0.69470435 0.019421389 -0.23849583
0.22571383 0.042886801 -0.2376703
0.6016193 0.042930011 -0.23486996
0.24910042 0.066326156 -0.23852634
0.27332431 0.090035833 -0.23017526
0.29564944 0.089669116 -0.24208283
0.20369889 -0.21660677 -0.21682644
0.20352399 -0.19283195 -0.2193507
0.25033167 -0.19254638 -0.22398603
0.27432138 -0.19282991 -0.21938169
0.20398492 -0.16959035 -0.21269786
0.2979522 -0.16924675 -0.21907222
0.2738975 -0.1454183 -0.22397053
0.62782091 -0.14551957 -0.22177827
0.65382212 -0.12237027 -0.21055162
0.22674824 -0.098281242 -0.22423267
0.25092873 -0.09850587 -0.2169348
0.27383906 -0.098269857 -0.22460282
0.6538859 -0.098711565 -0.21025598
0.67469066 -0.098316416 -0.22309077
0.20372574 -0.07489869 -0.21643877
0.22716337 -0.074843287 -0.21884
0.65240622 -0.074882939 -0.21712077
0.20431276 -0.051406574 -0.20796609
0.29794911 -0.051235188 -0.2191031
0.65214908 -0.051247325 -0.21831357
0.20357977 -0.027637502 -0.21854579
0.2271086 -0.027629733 -0.21955192
0.20352399 -0.0040311837 -0.2193507
0.18051469 0.019642675 -0.2097578
0.20324668 0.019538075 -0.22335327
0.67404342 0.019517845 -0.2259903
0.20344362 0.043151028 -0.22051084
0.67469406 0.043111593 -0.22307551
0.22685042 0.066686891 -0.22290564
0.55697399 0.066700108 -0.22233427
0.67404342 0.066615738 -0.2259903
0.25082117 0.090404287 -0.21820509
0.18098764 -0.19389558 -0.20207751
0.18078741 -0.16998734 -0.20532918
0.27562094 -0.1699882 -0.20531344
0.18080088 -0.14628942 -0.20511043
0.20505409 -0.14665183 -0.19726562
0.65715992 -0.14675336 -0.19506645
0.15784192 -0.12311606 -0.19117856
0.18103971 -0.12272906 -0.20123219
0.2530897 -0.12310695 -0.19141495
0.15784192 -0.099299036 -0.1911788
0.18108118 -0.099010102 -0.20055878
0.63290596 -0.099110059 -0.19731283
0.15784192 -0.075482115 -0.19117868
0.18082783 -0.075170413 -0.20467317
0.25308836 -0.075476229 -0.19143069
0.18078646 -0.051447034 -0.2053448
0.25308701 -0.051660981 -0.19144666
0.15780625 -0.027843088 -0.19184041
0.18078646 -0.027739082 -0.2053448
0.25219211 -0.027764706 -0.20201504
0.65502524 -0.027741995 -0.20497
0.72965562 -0.027854795 -0.19031167
0.15768495 -0.0040312917 -0.19409156
0.18145913 -0.0040312377 -0.19442165
0.15775533 0.019773278 -0.19278526
0.18097997 0.043432895 -0.20220268
0.63085705 0.043356508 -0.20717072
0.18168798 0.067430533 -0.19070578
0.20450626 0.067096449 -0.20517302
0.58612573 0.067369089 -0.19336772
0.20541796 0.091210827 -0.19201374
0.22820227 0.090800352 -0.20534468
0.15802896 -0.14709321 -0.18770754
0.23063481 -0.14773808 -0.17374492
0.20590359 -0.12335364 -0.18500423
0.22952715 -0.12323324 -0.18813396
0.68391454 -0.12347794 -0.18177295
0.20603742 -0.099548638 -0.18307257
0.68244869 -0.07554771 -0.18833923
0.13482797 -0.05193276 -0.17379284
0.2298229 -0.051771138 -0.18429208
0.68231827 -0.051699825 -0.18892324
0.13472573 -0.027964897 -0.17600667
0.613442 -0.0040311837 -0.17579973
0.13468164 -0.0040311296 -0.17696118
0.13468164 0.019895196 -0.1769613
0.61392027 0.019922491 -0.17341018
0.15817207 0.043696959 -0.18505168
0.66150492 0.04385313 -0.17490792
0.15865776 0.067769311 -0.17603838
0.18248938 0.091651939 -0.17769265
0.42062035 0.091412641 -0.18546295
0.68739736 -0.14808792 -0.16617203
0.13554856 -0.12438557 -0.15819192
0.13524659 -0.10011345 -0.16472983
0.13501519 -0.075977117 -0.16973937
0.11152292 -0.052191105 -0.15701616
0.15914457 -0.052037198 -0.16700447
0.11140028 -0.028086599 -0.16020286
0.68619102 -0.027999045 -0.1715759
0.11134028 -0.0040311837 -0.1617614
0.11132854 0.020009831 -0.16206658
0.11158247 0.044152532 -0.15546882
0.13499011 0.043924395 -0.17028248
0.13540892 0.06811171 -0.16121531
0.61617786 0.068090558 -0.16213083
0.15934232 0.092093974 -0.16333461
0.44766858 0.092083558 -0.16367149
0.56860745 0.092216164 -0.15936649
0.59299451 0.092268221 -0.1576767
0.13601926 -0.14892715 -0.14800107
0.11205292 -0.12496085 -0.14324641
0.71561074 -0.12477911 -0.14796841
0.11183064 -0.10059708 -0.14902151
0.088040456 -0.076719031 -0.13761306
0.11166136 -0.076354094 -0.15341961
0.087926082 -0.052432623 -0.14132726
0.087824471 -0.028206574 -0.14462721
0.087768003 -0.0040311837 -0.14646101
0.64250928 -0.0040312377 -0.15110898
0.087753028 0.020126244 -0.1469475
0.64364731 0.020136386 -0.14563358
0.087949634 0.044381909 -0.14056242
0.11193856 0.068457983 -0.1462177
0.13599831 0.092552245 -0.14845455
0.47498459 0.09274105 -0.14231956
0.52310097 0.092692018 -0.14391255
0.54591602 0.092454493 -0.15162611
0.52418995 0.1171203 -0.13748252
0.11245146 -0.14962499 -0.13289225
0.71981478 -0.14976946 -0.12976444
0.088331111 -0.12554103 -0.12817359
0.064275526 -0.10156751 -0.11750507
0.088172719 -0.1010807 -0.13331759
0.064177617 -0.07708554 -0.12174499
0.064090967 -0.052676294 -0.12549698
0.064013235 -0.028327845 -0.12886286
0.30778614 -0.028389882 -0.1208055
0.76898015 -0.028339228 -0.12738585
0.063968569 -0.0040311837 -0.13079691
0.67255932 -0.0040312377 -0.12362206
0.063947767 0.020243576 -0.13169742
0.06409514 0.044616733 -0.12531614
0.088238738 0.068805397 -0.13117349
0.64692175 0.068835281 -0.12987912
0.088639274 0.093484856 -0.11816573
0.1124332 0.093016766 -0.1333667
0.5003581 0.092966005 -0.13501751
0.47814974 0.11772536 -0.12176144
0.50098217 0.11736382 -0.13115716
0.54972577 0.11740417 -0.13010883
0.064652085 -0.15108892 -0.10119963
0.088668771 -0.15034954 -0.11720777
0.064380974 -0.12612738 -0.11293924
0.040137086 -0.10205889 -0.10154986
0.040069614 -0.077450752 -0.10593235
0.040010758 -0.052918673 -0.10975516
0.039958674 -0.028449006 -0.11313784
0.039929617 -0.0040312377 -0.11502516
0.015637625 0.020483149 -0.100582
0.039911285 0.020362742 -0.11621618
0.67466199 0.020380814 -0.11386657
0.04000948 0.04485501 -0.10983825
0.04015379 0.069514617 -0.10046506
0.064307973 0.06915351 -0.11610031
0.064615108 0.093957961 -0.10280097
0.43229163 0.11851545 -0.10123277
0.45519543 0.11809311 -0.11221015
0.040389627 -0.1518303 -0.085146666
0.015780866 -0.12731919 -0.081974149
0.040200621 -0.1267246 -0.097423077
0.015751254 -0.10254327 -0.085820794
0.015719641 -0.07782039 -0.089927316
0.015688889 -0.053162452 -0.093922734
0.75235373 -0.053142872 -0.095196486
-0.00887674 -0.028694514 -0.08123064
0.015662715 -0.028570654 -0.097322822
-0.00887674 -0.0040311837 -0.08315599
0.015647911 -0.0040311837 -0.099245548
-0.00887674 0.020605283 -0.084708214
0.015687078 0.04509642 -0.094157457
0.015759818 0.069878429 -0.084708333
0.6787982 0.069648296 -0.094677091
0.040362909 0.094448112 -0.086882234
0.40922219 0.11893903 -0.090230107
0.58238822 0.11914893 -0.084775686
0.015882976 -0.15258957 -0.06870985
-0.00887674 -0.12793347 -0.066016316
0.75822765 -0.12775767 -0.07058239
-0.00887674 -0.10302339 -0.070225
-0.00887674 -0.078194931 -0.073709369
0.75618285 -0.078069292 -0.079150677
-0.00887674 -0.053411305 -0.077762485
0.7812292 -0.053412762 -0.077660799
-0.033665467 -0.028819937 -0.064941168
-0.033650495 -0.0040312377 -0.066886306
-0.033636719 0.020728817 -0.068675756
-0.00887674 0.045343652 -0.078101158
0.73515189 0.045570657 -0.063352704
-0.00887674 0.070256211 -0.068351984
0.01586568 0.094938479 -0.070956588
0.36257213 0.11978512 -0.068249822
0.38594899 0.11935188 -0.07950604
-0.00887674 -0.1533391 -0.052481532
-0.033780865 -0.1285518 -0.0499506
-0.033743512 -0.10349833 -0.054802656
-0.033723958 -0.078572877 -0.057343245
-0.058758322 -0.053912729 -0.045187593
-0.033691648 -0.053661019 -0.061540246
-0.058707818 -0.028946711 -0.048467994
0.81014127 -0.028849877 -0.061044097
-0.058676768 -0.0040311837 -0.050484538
-0.058649734 0.020855267 -0.052240849
-0.058754597 0.045846641 -0.045429587
-0.033689279 0.04559385 -0.061848283
-0.03376681 0.070639007 -0.051776171
-0.00887674 0.095445886 -0.054476142
0.33912668 0.12025569 -0.056021929
0.065941237 0.14560482 -0.045377612
0.38952136 0.14536805 -0.050501823
-0.033891186 -0.15411791 -0.035619617
-0.058946345 -0.12920524 -0.032974839
-0.058847614 -0.10397294 -0.039387703
0.79194969 -0.10413446 -0.034141302
0.81431419 -0.10381192 -0.044617176
-0.058824662 -0.078953087 -0.040878534
0.81431866 -0.078867152 -0.04460001
-0.084080607 -0.054167137 -0.028668404
-0.0840073 -0.029074777 -0.031842828
-0.083956622 -0.0040312377 -0.034036875
-0.083919272 0.020982957 -0.035654306
0.79195827 0.020994931 -0.034106493
0.81496477 0.020933704 -0.042056561
-0.084076174 0.046101805 -0.028860331
0.79266179 0.04606485 -0.031250119
-0.058914196 0.071024939 -0.035063267
-0.033874467 0.095959671 -0.037791133
-0.033941336 0.12129176 -0.029104829
0.016137704 0.12104102 -0.035619617
0.041038919 0.12075803 -0.042973995
0.066289641 0.12124596 -0.0302912
0.2916165 0.12117427 -0.032156467
0.31545731 0.12071266 -0.044150352
-0.13413996 0.1462846 -0.03065753
0.041016817 0.14564937 -0.044409633
0.34139857 0.14608683 -0.034941435
0.36543077 0.14569178 -0.043493271
0.41650307 0.14610279 -0.034593701
-0.059168771 -0.1549073 -0.018528104
-0.084363908 -0.12984321 -0.016400933
-0.084190845 -0.10445004 -0.023895025
0.77013439 -0.10454876 -0.02068758
-0.084182762 -0.07933718 -0.024245143
-0.10966679 -0.054426186 -0.011838675
-0.10956423 -0.029203005 -0.015169144
-0.10949435 -0.0040311296 -0.017438531
-0.10944998 0.021112103 -0.018879414
-0.10965375 0.046357293 -0.012261868
-0.084318034 0.071410052 -0.018387437
0.79437017 0.071273252 -0.024315238
-0.059132013 0.096479326 -0.020915627
-0.059169043 0.12169949 -0.01851058
-0.00887674 0.12164883 -0.019827485
0.091756567 0.1217605 -0.016928673
0.26760304 0.12164139 -0.020020604
-0.10928314 0.14657837 -0.024297595
-0.084329396 0.14687406 -0.01789546
0.016337894 0.14725664 -0.0096144676
0.29292899 0.14687163 -0.017948151
0.31724796 0.14648791 -0.026257396
-0.084713675 -0.15570511 -0.0012556314
-0.11005118 -0.13049924 0.00064504147
-0.13561766 -0.10542392 0.0077346563
-0.10977771 -0.1049322 -0.0082360506
-0.10980222 -0.079725266 -0.0074403286
-0.13552155 -0.054689117 0.0052374601
-0.1353886 -0.029333554 0.0017830133
-0.13529897 -0.0040312377 -0.00054526329
-0.13524704 0.021242866 -0.0018947124
-0.13550028 0.046618171 0.0046849251
-0.10998445 0.071799599 -0.0015221834
-0.084654272 0.097005568 -0.0038280487
0.67554653 0.097364902 0.0078418255
0.1177043 0.12254988 0.0035805702
0.21911603 0.12263135 0.0057007074
0.24345329 0.12213392 -0.0072281361
-0.00887674 0.14748536 -0.004660964
0.24421272 0.14782247 0.0026371479
0.26858446 0.14731129 -0.008430481
-0.1105285 -0.15650885 0.016146302
-0.13600017 -0.13115469 0.0176723
-0.16170324 -0.10591558 0.023699522
-0.16185576 -0.080520645 0.027001381
-0.13569261 -0.08012069 0.0096815825
-0.16165249 -0.05495647 0.022600412
-0.16149125 -0.029466908 0.019109488
-0.16138339 -0.0040311837 0.016774416
-0.16131957 0.021376004 0.0153929
-0.16162668 0.046885367 0.022042155
-0.1359214 0.072195612 0.015626073
-0.11044569 0.097537741 0.01345706
0.65309733 0.097810976 0.022330284
0.14401139 0.12337557 0.02503407
0.19458711 0.12313385 0.018749952
-0.059872247 0.14895527 0.027163982
-0.03424418 0.14817344 0.010235786
0.19498967 0.14886859 0.025286555
0.21967077 0.14833388 0.013707995
0.44808921 0.14829083 0.012776494
-0.13662466 -0.15732871 0.033897042
-0.16221614 -0.13181406 0.034803987
-0.18804005 -0.10641021 0.039765477
-0.18830131 -0.080927446 0.044613719
-0.18806066 -0.055226576 0.040147901
-0.18787153 -0.029601935 0.036637902
-0.18773849 -0.0040312377 0.034169078
0.7312119 -0.0040312917 0.030092835
-0.18766814 0.021510383 0.032863617
-0.18803124 0.047155742 0.039601684
-0.1621374 0.072599128 0.033099174
-0.13651168 0.098076716 0.030961752
-0.1113899 0.12411026 0.044121146
-0.08539629 0.12350138 0.028302431
0.093570717 0.14964001 0.041987419
-0.060074106 0.17515957 0.040275097
-0.034388963 0.17455441 0.029043555
-0.00887674 0.17461278 0.030129075
0.016750988 0.17536284 0.04404819
-0.16301908 -0.15817356 0.052188158
-0.1887065 -0.13248105 0.052133083
-0.21463387 -0.10690969 0.055988073
-0.21501827 -0.08133436 0.062230229
-0.21474938 -0.055499382 0.057863832
-0.2145253 -0.029737176 0.05422473
-0.21437162 -0.0040312917 0.051729798
-0.21429715 0.02164638 0.050520182
-0.21471311 0.047427896 0.057275057
-0.18863341 0.07300739 0.050776839
-0.16285664 0.098622054 0.048671126
-0.13766553 0.12475745 0.060939312
0.17101826 0.12446523 0.053343773
-0.086122349 0.17620838 0.059741616
0.042671144 0.17638646 0.063042045
-0.18970701 -0.15902855 0.070700407
-0.21547942 -0.13315785 0.069718003
-0.24149103 -0.10741533 0.072407007
-0.24196908 -0.081728593 0.079306841
-0.24171887 -0.055773858 0.075695276
-0.24146019 -0.029873874 0.071961641
-0.24128677 -0.0040312377 0.069458604
-0.24121235 0.02178378 0.068384528
-0.24166992 0.047700539 0.074988842
-0.21541211 0.073419482 0.068625212
-0.18948449 0.099173106 0.066570878
-0.16420883 0.12541214 0.077947021
0.1200612 0.15069427 0.064814687
-0.11237473 0.17709033 0.076104403
-0.086507104 0.20298293 0.076402187
-0.060482372 0.20239142 0.066792727
-0.034749091 0.20294765 0.075825572
-0.21669385 -0.15989399 0.089437842
-0.24259958 -0.13387716 0.08840704
-0.2686539 -0.10794205 0.089512944
-0.26920643 -0.08213006 0.096690297
-0.26898775 -0.056053512 0.093849659
-0.26869145 -0.030012622 0.090000391
-0.26849523 -0.0040312377 0.087451816
-0.26841307 0.021922421 0.086384654
-0.26892263 0.047977928 0.093004107
-0.24248019 0.073836483 0.086684227
-0.21639983 0.099730261 0.084663868
-0.19102232 0.12607275 0.095109463
-0.16487651 0.15196863 0.092402697
0.14744553 0.15229106 0.099385142
-0.13888666 0.17798282 0.092665792
0.068996273 0.17767242 0.086908817
-0.11290205 0.20401944 0.093229651
-0.00887674 0.20379637 0.089606762
-0.24398373 -0.16076931 0.10838592
-0.26997837 -0.13458197 0.1067183
-0.29613504 -0.10848879 0.10726774
-0.29674119 -0.08253967 0.11442578
-0.29657051 -0.0563391 0.11241007
-0.29624581 -0.030155687 0.10857558
-0.29602438 -0.0040312377 0.10596097
-0.29593465 0.022064999 0.10490108
-0.29650614 0.048265029 0.11165023
-0.26983991 0.074257739 0.10491991
-0.24360603 0.10029297 0.10293436
-0.21811324 0.12674157 0.11248624
-0.19181746 0.152775 0.10986555
-0.16569886 0.1789279 0.11020708
0.095890373 0.17931122 0.11732042
-0.13962249 0.20516196 0.11178327
0.017296713 0.20535636 0.11493969
-0.27187589 -0.16183069 0.1313678
-0.29762846 -0.13528201 0.1249038
-0.32390514 -0.1090406 0.12519097
-0.32453078 -0.082944691 0.13196373
-0.32444909 -0.056626629 0.13107967
-0.32409629 -0.030299399 0.12726033
-0.3238574 -0.0040312377 0.12467432
-0.32376015 0.022209035 0.1236217
-0.32439408 0.048555039 0.13048422
-0.29750368 0.074685208 0.12343061
-0.27111328 0.10086339 0.12146139
-0.24550277 0.1274277 0.13031149
-0.21903846 0.15359013 0.12750959
0.17546426 0.15397547 0.13585138
-0.192792 0.17988402 0.12795079
-0.16661857 0.2062912 0.1301192
-0.14048514 0.23286389 0.13419509
-0.1137296 0.2318878 0.1201055
-0.087673217 0.2323582 0.12689614
-0.32562849 -0.13601109 0.14384699
-0.3519741 -0.10959959 0.14334357
-0.35260853 -0.083354034 0.14968359
-0.35262412 -0.056915455 0.14983904
-0.35225514 -0.030444944 0.14615202
-0.35200122 -0.0040312377 0.14361465
-0.35189471 0.022354851 0.14255047
-0.35258719 0.048847318 0.14947009
-0.3254694 0.075116992 0.14212489
-0.29892629 0.10144131 0.14023077
-0.27322903 0.12814496 0.14894581
-0.24656935 0.15443045 0.1457063
-0.22016981 0.18085018 0.14588082
0.12348723 0.18127826 0.153826
-0.19388045 0.20740157 0.14814961
0.043875311 0.20697702 0.1412549
-0.16756348 0.23399881 0.15057731
-0.061591323 0.23318432 0.13882124
-0.35383952 -0.13670926 0.16198385
-0.38014755 -0.11010852 0.15987229
-0.38103408 -0.083779231 0.16809833
-0.3811166 -0.057208326 0.16886413
-0.3807191 -0.030591406 0.16517568
-0.38045734 -0.0040312917 0.16274691
0.78790563 -0.0040312377 0.16507769
-0.3803435 0.022502121 0.16169035
-0.38108063 0.049140889 0.16853046
-0.35377687 0.075561121 0.161358
-0.3270475 0.10202575 0.15920818
-0.30125949 0.12887006 0.16778445
-0.27443165 0.15530178 0.16456831
-0.24786395 0.18184781 0.16439176
-0.22145227 0.20854436 0.16670501
-0.19500619 0.23527811 0.16904104
-0.035407066 0.23474173 0.16129935
-0.38200355 -0.13729073 0.17709398
-0.40848005 -0.11059219 0.17557502
-0.40930825 -0.084117524 0.18274736
-0.40943632 -0.05743916 0.18385661
-0.40940201 -0.030732907 0.1835593
-0.4091917 -0.0040311837 0.1817379
-0.40911403 0.022651389 0.18106532
-0.40991962 0.049441207 0.18804193
-0.38239315 0.076008007 0.18070924
-0.35548201 0.10261662 0.17839706
-0.32960102 0.12960382 0.18685091
-0.30260369 0.15618341 0.18365848
-0.27587682 0.18286884 0.1833415
-0.24933472 0.20970914 0.18562078
0.071170263 0.20942739 0.18104541
-0.22274671 0.23657238 0.18772435
-0.00887674 0.23646794 0.18621576
-0.43896267 -0.13843304 0.20677125
-0.41040409 -0.13787368 0.19223762
-0.4657695 -0.11153538 0.20620918
-0.4370304 -0.11106956 0.19108319
-0.46547553 -0.08460746 0.20396292
-0.43746457 -0.08439146 0.19460821
-0.46537066 -0.057736401 0.20316148
-0.43730748 -0.057585083 0.19333291
-0.46549129 -0.030891022 0.20408332
-0.43730748 -0.030808106 0.19333279
-0.46569332 -0.0040311837 0.20562744
-0.43747932 -0.0040311837 0.19472778
-0.46591923 0.022853632 0.20735359
-0.43779877 0.022776382 0.19732153
-0.43858716 0.049682505 0.20372248
-0.41131648 0.076456837 0.20013905
-0.38423946 0.10321515 0.19784069
-0.35825527 0.13034509 0.20610881
-0.33108366 0.15707217 0.20290112
-0.30419919 0.18390124 0.20250058
0.15215182 0.18383545 0.2012794
-0.27752444 0.21088694 0.20474494
-0.25083068 0.23792259 0.20721304
-0.22396916 0.2648344 0.20757437
0.66501933 -0.1927221 0.21657526
-0.4676365 -0.13896053 0.22047579
-0.52228677 -0.085095882 0.22511518
-0.49401194 -0.084887058 0.21607053
-0.49347842 -0.057875797 0.21222007
-0.49341422 -0.030949876 0.21175694
-0.52222151 -0.0040312917 0.22466886
-0.493956 -0.0040312917 0.21566689
-0.49471486 0.022959743 0.22114348
-0.49521181 0.050006017 0.22472966
-0.46675646 0.049837112 0.2137512
-0.46808439 0.077005468 0.22389865
-0.43984222 0.076774903 0.21391237
-0.41317475 0.10378158 0.21623182
-0.38724449 0.13110006 0.22572374
-0.35991183 0.15798487 0.22266233
-0.33285487 0.18495594 0.22207487
-0.30602655 0.21207768 0.2240808
0.6412192 -0.22072986 0.23365629
0.64098954 -0.19357553 0.23241317
0.69747674 -0.19420335 0.24406302
-0.55151302 -0.16682208 0.2394346
-0.55135876 -0.13965173 0.23843288
-0.52387023 -0.13955581 0.23594069
-0.55131155 -0.11251816 0.23812616
-0.52253324 -0.11216945 0.22679973
-0.55131471 -0.058274996 0.23814666
-0.52254212 -0.058101237 0.22686064
-0.55135876 -0.031155247 0.23843277
-0.52392691 -0.031139225 0.2363286
-0.55155706 -0.0040312377 0.23972106
-0.55182803 0.023116294 0.24148107
-0.5225451 0.023003979 0.22688091
-0.52381945 0.050173409 0.2355938
-0.49668324 0.077269852 0.23534894
-0.46997574 0.1044627 0.23835111
-0.44151211 0.10412753 0.2274698
-0.38922536 0.15897542 0.24410391
-0.36188734 0.18605138 0.24240267
0.099334665 0.21239159 0.22917736
-0.27925506 0.23930943 0.22722626
0.018264208 0.24023746 0.24062133
-0.19811311 0.26630637 0.22669816
0.59188926 -0.22249156 0.26226306
0.61645764 -0.22153883 0.24679232
-0.58148581 -0.19490093 0.25700855
0.61672324 -0.19443117 0.24829221
-0.58154923 -0.16765186 0.25740111
-0.52740818 -0.16777804 0.26013052
-0.49998805 -0.11316702 0.25919938
-0.55263633 -0.085595153 0.2467308
-0.58217788 -0.058631361 0.26128972
-0.58161271 -0.0040312377 0.25779355
-0.58148581 0.023235945 0.25700855
-0.58194697 0.050546929 0.25986147
-0.55244035 0.050325159 0.24545789
-0.5545783 0.077824146 0.25934434
-0.52544832 0.077532731 0.2467308
-0.52764744 0.10518368 0.26176596
-0.49866763 0.10481113 0.24967003
-0.44543797 0.13239421 0.25934422
-0.41685537 0.13196163 0.24810731
-0.33497322 0.2133664 0.24500644
-0.30821082 0.24087833 0.24987578
0.5670135 -0.22341792 0.2773056
0.67603201 -0.22320206 0.27379894
-0.61193919 -0.19591475 0.27582276
-0.55576551 -0.19544227 0.26705527
0.56726021 -0.19607678 0.2788316
-0.58355689 -0.14085995 0.26982057
-0.50187528 -0.14097524 0.27281916
-0.61193919 0.023380734 0.275823
-0.61239916 0.050834462 0.27853894
-0.58366126 0.078080818 0.27046561
-0.55712175 0.10561778 0.27586448
-0.41901931 0.16002585 0.26684785
-0.39144158 0.18725123 0.26466799
0.18232076 0.18716626 0.26309192
-0.36432117 0.21470393 0.26672304
-0.33771196 0.24259515 0.27465415
-0.17290117 0.2693429 0.26614153
0.54190964 -0.22434573 0.29237115
-0.64271039 -0.1969371 0.29479587
0.54210758 -0.19687565 0.29365695
-0.61305141 -0.14134362 0.28239012
-0.58744097 -0.086683288 0.29384685
-0.64326751 -0.0040311837 0.29794264
-0.6156137 -0.0040311296 0.2975198
-0.64269918 0.023526227 0.29473281
-0.61382604 0.078461893 0.28696406
-0.58709341 0.10610534 0.29169691
-0.56052089 0.13387972 0.29794252
-0.4755992 0.13324009 0.281322
-0.44933459 0.16114043 0.29098094
-0.42151201 0.18853192 0.28843522
-0.39371094 0.21587406 0.285725
0.12884419 0.2163223 0.29300332
-0.67381126 -0.19797044 0.31397247
-0.53442371 -0.19765377 0.30809581
0.51668578 -0.19765943 0.30820215
-0.50551176 -0.16957621 0.29906309
-0.61693364 -0.11458698 0.30531323
-0.61763173 -0.05937263 0.30943561
-0.64411068 -0.031650037 0.30270469
-0.67380732 0.023674307 0.31395102
-0.64394563 0.05119212 0.30177248
-0.64476424 0.078910664 0.30639601
-0.61775422 0.10667372 0.31015885
-0.59083581 0.13453051 0.31484699
-0.50624549 0.13412663 0.30435848
-0.45189601 0.18978964 0.311777
-0.42374051 0.2172294 0.30773461
-0.36783931 0.24448127 0.30187845
-0.14717613 0.27256757 0.30803216
-0.70523882 -0.17115808 0.33331203
-0.674541 -0.17044723 0.31792212
-0.64933139 -0.17110644 0.33219147
-0.67460418 -0.14272447 0.31826413
-0.64773345 -0.11513674 0.32316601
-0.59133983 -0.11497663 0.31796491
-0.64850861 -0.087461568 0.32754433
-0.61914134 -0.087249018 0.31834948
-0.6759814 -0.059623368 0.32571876
-0.59198672 -0.031798337 0.32196617
-0.70523882 -0.0040311296 0.33331215
-0.67611635 -0.0040311296 0.3264488
-0.67464364 0.051449336 0.31847799
-0.67675567 0.079453632 0.32990932
-0.64912558 0.10731632 0.3310287
-0.62187254 0.13528614 0.33447647
-0.53666556 0.13486066 0.32342327
-0.50969058 0.16290683 0.32922125
-0.48029384 0.1623513 0.31719553
-0.48216611 0.19085275 0.3315022
-0.62206256 -0.17126375 0.33559859
-0.73701465 -0.14405774 0.35290444
-0.70659804 -0.14357547 0.34037471
-0.73701465 -0.11605258 0.35290456
-0.70851487 -0.11597344 0.350335
-0.73702341 -0.088048175 0.35294795
-0.73701465 -0.060041878 0.35290444
-0.70583254 -0.059787743 0.33639741
-0.65007228 -0.059787363 0.33637559
-0.73701465 -0.032036506 0.35290444
-0.70688134 -0.031951379 0.34184682
-0.62299609 -0.031945821 0.34111059
-0.70641899 0.023870455 0.33944428
-0.70692301 0.051812444 0.34206343
-0.45541835 0.21923974 0.34037471
-0.12083627 0.27586764 0.35090089
-0.70971876 -0.088132165 0.35659087
-0.68234324 -0.032092284 0.36015344
-0.7395618 -0.0040312917 0.36563063
-0.73921943 0.024058886 0.36392009
-0.71040857 0.080152661 0.36017513
-0.68149149 0.10807124 0.35554314
-0.65366685 0.13614063 0.35667801
-0.54205698 0.16434141 0.36028457
-0.51498806 0.19278988 0.36745286
0.21561481 0.19239891 0.36019695
-0.65832806 -0.14521629 0.38300419
-0.68483824 -0.11669151 0.3736577
-0.6861192 -0.088686511 0.38059127
-0.74101841 0.052287433 0.37290835
-0.71459746 0.10888409 0.3819412
-0.68626642 0.13709165 0.38138795
-0.48891461 0.22186907 0.38307059
0.047472052 0.24953835 0.37487018
-0.7753309 -0.060805533 0.40251291
-0.77423888 -0.032377928 0.397259
-0.77401626 -0.0040312377 0.39618778
-0.77441061 0.024321927 0.39808524
-0.77586639 0.052782819 0.40508926
-0.74448287 0.080846511 0.39021802
-0.57624853 0.16618042 0.40009654
-0.093861848 0.27925235 0.39487195
-0.776963 -0.089374214 0.41036558
-0.77947611 0.081590854 0.42245662
-0.74874949 0.10979539 0.41153514
-0.71974772 0.13814305 0.40870237
-0.54976034 0.19524166 0.41295302
0.16242611 0.22437263 0.42372429
-0.78195351 -0.11856105 0.43437624
-0.8125053 -0.061433356 0.44328046
-0.81112641 -0.032682989 0.43688357
-0.81050259 -0.0040312377 0.43398905
-0.81084138 0.024610212 0.43556106
-0.81214041 0.053344823 0.44158792
-0.75422025 0.13930407 0.43886876
-0.066275254 0.28296134 0.44305158
-0.81511837 -0.090414174 0.4554038
-0.81602305 0.082448915 0.45960104
-0.78412312 0.11082026 0.44481468
-0.61220556 0.16834839 0.44703794
-0.84866035 -0.0040312917 0.47667074
-0.84872282 0.024928924 0.47695041
-0.82158488 -0.12013238 0.48540437
-0.85215443 -0.062188324 0.49232209
-0.84978014 -0.033027865 0.48168659
-0.85000443 0.053977393 0.48269129
-0.82114619 0.11200739 0.48336923
-0.85610092 0.08361274 0.51000011
-0.35954553 -0.19530508 0.85610986
0 0 0 1 0 0 0 1 0 0 0 1 0 0 0 0 0 874 1 0 0
