ply
format ascii 1.0
comment PCL generated
element vertex 813
property float x
property float y
property float z
element camera 1
property float view_px
property float view_py
property float view_pz
property float x_axisx
property float x_axisy
property float x_axisz
property float y_axisx
property float y_axisy
property float y_axisz
property float z_axisx
property float z_axisy
property float z_axisz
property float focal
property float scalex
property float scaley
property float centerx
property float centery
property int viewportx
property int viewporty
property float k1
property float k2
end_header
-0.27887681 -0.028849978 -0.24175966
-0.25885034 -0.02882465 -0.24340653
-0.23890884 -0.028807279 -0.24453676
-0.29816267 -0.0089964941 -0.24564099
-0.27785754 -0.0089664366 -0.24954832
-0.2578707 -0.0089524835 -0.25136006
-0.2388074 -0.0089981798 -0.24541521
-0.35833827 0.010797298 -0.24072754
-0.3384563 0.010797298 -0.24105489
-0.25741458 0.010797298 -0.25506341
-0.35818976 0.030621849 -0.24164629
-0.25744984 0.030520767 -0.25477707
-0.25768933 0.050274156 -0.25283271
-0.23914964 0.050433945 -0.24245119
-0.25804305 0.07007885 -0.24996084
-0.23908867 0.07024014 -0.24297929
-0.25844848 0.089940764 -0.24666905
-0.2778461 0.10961236 -0.24963588
-0.29837307 0.12963003 -0.24412239
-0.27839023 0.12956749 -0.24547803
-0.34088379 -0.049054086 -0.2252878
-0.32053679 -0.048991397 -0.22799897
-0.30014443 -0.048914332 -0.23133886
-0.28023726 -0.048913725 -0.23136425
-0.2601712 -0.048883293 -0.23268235
-0.24014898 -0.048857544 -0.23379683
-0.22035547 -0.048877113 -0.23294842
-0.33947825 -0.028963044 -0.23441684
-0.31893492 -0.028893284 -0.23895097
-0.29899183 -0.028882425 -0.23965693
-0.35962042 -0.0090953279 -0.23279643
-0.33858231 -0.0090381615 -0.2402364
-0.31978509 -0.0090926588 -0.23313844
-0.22066976 -0.0091166757 -0.23003173
-0.37942511 0.01079725 -0.23331571
-0.32010952 0.010797298 -0.2309202
-0.21994652 0.010797298 -0.23674273
-0.37880623 0.030657852 -0.23697007
-0.3386521 0.030636128 -0.23978293
-0.32030076 0.030714454 -0.22961271
-0.23958294 0.030644415 -0.23869884
-0.22017266 0.030675689 -0.23464453
-0.37917861 0.050552163 -0.23477113
-0.3583912 0.050465595 -0.2404002
-0.33920962 0.050530858 -0.23616183
-0.32083273 0.050687607 -0.22597575
-0.22040324 0.050587088 -0.23250508
-0.37966758 0.070496336 -0.231884
-0.35846245 0.07030981 -0.23995924
-0.33970243 0.070471421 -0.23296118
-0.22042511 0.070486687 -0.23230231
-0.38042891 0.090534419 -0.22738838
-0.35948119 0.090341344 -0.23365748
-0.23939376 0.090135716 -0.24033725
-0.22023676 0.090329312 -0.23405004
-0.36046791 0.11046235 -0.22755384
-0.2408904 0.11046913 -0.22737575
-0.21992065 0.11009932 -0.23698282
-0.22034861 0.13014325 -0.23301172
-0.34258199 -0.069344193 -0.2142576
-0.3224245 -0.069318496 -0.21509254
-0.30199385 -0.069229163 -0.21799183
-0.28206605 -0.069247752 -0.21738923
-0.26200429 -0.069235064 -0.21779954
-0.24192367 -0.069215775 -0.2184273
-0.22185419 -0.069196858 -0.21904206
-0.20183258 -0.069189698 -0.21927249
-0.20171605 -0.029178314 -0.22043681
-0.18257122 -0.029318724 -0.21131158
-0.20138116 -0.009164758 -0.22378337
-0.40294984 0.01079725 -0.21277905
-0.30170467 0.010797298 -0.22007883
-0.2831347 0.010797204 -0.20922339
-0.24145849 0.01079725 -0.22245598
-0.40216309 0.030809777 -0.21722269
-0.30184829 0.030795824 -0.21904218
-0.20159836 0.03077602 -0.22161293
-0.40221077 0.050826468 -0.21695352
-0.30222836 0.05083663 -0.2162993
-0.20204155 0.05082291 -0.21718419
-0.40251979 0.070881411 -0.21520829
-0.32113656 0.070680752 -0.22389817
-0.30245429 0.070893824 -0.21466875
-0.34141415 0.090705171 -0.221843
-0.38148928 0.11070964 -0.22112727
-0.34226763 0.11089546 -0.2162993
-0.32115522 0.13057001 -0.22377074
-0.20151909 0.13063318 -0.22240496
-0.20130076 0.15048829 -0.22458684
-0.1825617 0.15119806 -0.21141458
-0.36547434 -0.069888316 -0.19658482
-0.36521968 -0.049680606 -0.19815993
-0.16343752 -0.04962901 -0.20039558
-0.36404938 -0.029409785 -0.20539927
-0.16371942 -0.029538114 -0.19706666
-0.42635703 0.030984081 -0.19459033
-0.28347608 0.030891474 -0.20661485
-0.32365501 0.09117204 -0.20667958
-0.40443063 0.11135288 -0.20441556
-0.32428181 0.11143073 -0.20239425
-0.18334466 0.11140972 -0.2029388
-0.3434425 0.13126755 -0.20866859
-0.24402981 0.13165927 -0.2001878
-0.22389172 0.15180591 -0.20013595
-0.16383636 0.15204555 -0.19568551
-0.18308748 0.17160577 -0.20572269
-0.16334847 0.17186907 -0.20144725
-0.20465036 -0.090270288 -0.19111562
-0.1650538 -0.09064769 -0.18130839
-0.38864836 -0.07043431 -0.17885506
-0.3879407 -0.050030008 -0.18303347
-0.18451904 -0.049863759 -0.19022596
-0.14412467 -0.049877755 -0.18962371
-0.38685122 -0.02965511 -0.18946648
-0.22500773 -0.029650334 -0.18978071
-0.14436486 -0.029700711 -0.18650341
-0.40724677 -0.0094363037 -0.18851006
-0.38626647 -0.0094023608 -0.19291937
-0.18483624 -0.0094494596 -0.18679214
-0.14446396 -0.009461632 -0.18521643
-0.42702556 0.010797298 -0.19097173
-0.42657647 0.051189028 -0.19340241
-0.16519672 0.051401258 -0.17962039
-0.42689511 0.071424782 -0.19167781
-0.20520787 0.071566455 -0.18554461
-0.16513641 0.071686871 -0.18033278
-0.42780259 0.091785312 -0.18676579
-0.40788111 0.091841817 -0.18492711
-0.30564725 0.09163554 -0.19162548
-0.20569248 0.091971971 -0.18070185
-0.46934146 0.11223315 -0.1815455
-0.42921782 0.11232717 -0.17910576
-0.26588485 0.11205042 -0.18629324
-0.16422999 0.11186783 -0.19103706
-0.46971089 0.13260561 -0.17969954
-0.18451542 0.13211767 -0.19026506
-0.14408435 0.17256504 -0.1901474
-0.12470524 0.17331332 -0.17799652
-0.41153944 -0.091303751 -0.16426528
-0.39043981 -0.091149293 -0.16827714
-0.37031093 -0.091211282 -0.16666591
-0.35025004 -0.091296539 -0.16445208
-0.41178066 -0.070925482 -0.16290295
-0.41170728 -0.050485224 -0.16331697
-0.12472537 -0.050153002 -0.17770576
-0.4108786 -0.029985648 -0.1679976
-0.12512632 -0.029925346 -0.17191863
-0.10535236 -0.030072119 -0.16238165
-0.43032753 -0.0095549412 -0.1730994
-0.45212567 0.010797204 -0.16558611
-0.20608358 0.010797298 -0.17679381
-0.18604599 0.010797344 -0.17369592
-0.45212567 0.031207263 -0.16558599
-0.18604599 0.031144854 -0.1736958
-0.14620325 0.031230157 -0.16262233
-0.45192808 0.051601637 -0.16661263
-0.18681981 0.051621396 -0.16531932
-0.14516628 0.051455613 -0.17609274
-0.18681857 0.072033279 -0.16533256
-0.14509095 0.071762204 -0.17707133
-0.18649988 0.092339031 -0.16878283
-0.45121872 0.11266603 -0.17029846
-0.12569912 0.11292189 -0.16365087
-0.45157188 0.13312459 -0.16846347
-0.14504415 0.15301582 -0.1776793
-0.1252837 0.15344873 -0.16964722
-0.10518047 0.17410308 -0.16517258
-0.41464898 -0.1125351 -0.14670277
-0.39326125 -0.11230817 -0.15161717
-0.37260866 -0.11226959 -0.15245247
-0.35220745 -0.1123025 -0.15173852
-0.33216834 -0.1124533 -0.1484735
-0.33037084 -0.091438539 -0.16076303
-0.31044182 -0.091582507 -0.15702355
-0.29071572 -0.09180297 -0.15129375
-0.18830486 -0.091881953 -0.14924312
-0.10623135 -0.071381114 -0.1481086
-0.10562034 -0.050607324 -0.15803003
-0.085382342 -0.030204896 -0.15375829
-0.085689679 -0.0097476915 -0.1480546
-0.16712721 0.010797298 -0.15682232
-0.16742429 0.031301789 -0.15331423
-0.12647776 0.051820137 -0.15241206
-0.085712984 0.051893879 -0.14762211
-0.45289159 0.072119281 -0.16160595
-0.12607275 0.072196677 -0.15825796
-0.45398796 0.092735395 -0.15590918
-0.16742314 0.092814937 -0.15332758
-0.14628558 0.092561603 -0.16155255
-0.10602522 0.11339138 -0.1514554
-0.43328017 0.13364863 -0.15711772
-0.10548666 0.13350621 -0.16020083
-0.085512966 0.13391572 -0.15133405
-0.24922334 0.15422663 -0.15521061
-0.10540095 0.15388265 -0.16159272
-0.085389584 0.15431222 -0.1536237
-0.20777492 0.17442816 -0.1598928
-0.43688437 -0.11295515 -0.13760912
-0.31211951 -0.11261768 -0.14491594
-0.29218963 -0.1128433 -0.1400311
-0.27222371 -0.11308362 -0.13482809
-0.43533686 -0.092007332 -0.1459856
-0.27091616 -0.092028216 -0.14544415
-0.25114104 -0.09229143 -0.13860321
-0.23005761 -0.092125267 -0.14292347
-0.43583488 -0.071529433 -0.14328957
-0.43539435 -0.050892681 -0.14567411
-0.20923172 -0.050900452 -0.14533579
-0.065649793 -0.0510903 -0.13711882
-0.43665051 -0.030434024 -0.13887513
-0.45617396 -0.0097747054 -0.14455009
-0.10646467 -0.0097764842 -0.14431989
-0.065452516 -0.009799052 -0.14138973
-0.47833425 0.010797204 -0.13661468
-0.14758399 0.010797298 -0.14468563
-0.12786068 0.010797298 -0.13245153
-0.086493656 0.010797298 -0.13313484
-0.065637201 0.010797344 -0.13739133
-0.47788453 0.031413026 -0.13886166
-0.12785973 0.031462282 -0.13246524
-0.10661419 0.031389713 -0.14189219
-0.085845679 0.031364523 -0.14515972
-0.065821171 0.031455025 -0.13340819
-0.47829878 0.05206069 -0.13679183
-0.10659663 0.051977776 -0.14217722
-0.47938377 0.072817579 -0.13137114
-0.12785879 0.093456812 -0.13247883
-0.065842643 0.093442537 -0.13294351
-0.086550355 0.11413706 -0.13208246
-0.065651685 0.11394473 -0.13707805
-0.41482866 0.13417655 -0.14568782
-0.39622015 0.13470967 -0.13414574
-0.065448761 0.13437122 -0.14147139
-0.29536518 -0.13475767 -0.11576557
-0.2745648 -0.13475463 -0.11582077
-0.46147132 -0.11390593 -0.11702454
-0.25224647 -0.11335137 -0.12902939
-0.23235337 -0.11369361 -0.12162149
-0.46087849 -0.093003437 -0.12010479
-0.1492651 -0.092897907 -0.12284756
-0.46144205 -0.072333492 -0.11717653
-0.12899178 -0.072365932 -0.11612535
-0.46133029 -0.051537413 -0.11775708
-0.46100068 -0.030732818 -0.11947
-0.045338307 0.031489998 -0.12886488
-0.066063315 0.052193467 -0.12816572
-0.045383181 0.05220063 -0.12769926
-0.1079534 0.073076718 -0.12014604
-0.066069022 0.072894409 -0.12804222
-0.045386869 0.07290452 -0.12760317
-0.48081148 0.093710564 -0.12423754
-0.1079534 0.093836553 -0.12014604
-0.045337778 0.093567677 -0.12887859
-0.5240913 0.13555801 -0.1157794
-0.37744793 0.13524677 -0.12251711
-0.37744793 0.15598834 -0.12251711
-0.33860511 -0.1353665 -0.10446537
-0.31641397 -0.13485679 -0.11392331
-0.25410286 -0.13490918 -0.11295271
-0.23378776 -0.13515928 -0.10831213
-0.2135105 -0.13546813 -0.10257983
-0.21241136 -0.11406581 -0.11356306
-0.13010181 -0.093773313 -0.1001035
-0.088061094 -0.072737813 -0.10404646
-0.087663442 -0.051683627 -0.11142612
-0.067141876 -0.030958388 -0.10481429
-0.046038929 -0.030868452 -0.11066222
-0.48352301 -0.010035297 -0.11069012
-0.04600792 -0.010029349 -0.11146784
-0.5060268 0.01079725 -0.10264957
-0.025163759 0.031619452 -0.11203706
-0.025153507 0.052436639 -0.11237013
-0.025203954 0.073294193 -0.1107316
-0.025273312 0.094195932 -0.10847914
-0.025314901 0.11509749 -0.1071285
-0.50565523 0.1360819 -0.10443735
-0.025353525 0.13601544 -0.1058743
-0.35851228 0.1566205 -0.11078727
-0.25686094 -0.15719533 -0.089066982
-0.23593642 -0.15723801 -0.088374972
-0.21521072 -0.15740943 -0.085590005
-0.19388847 -0.13621077 -0.088798642
-0.48875076 -0.11540487 -0.084570527
-0.17282875 -0.1151777 -0.089490294
-0.48841083 -0.094305776 -0.08626914
-0.48888975 -0.073358901 -0.083876491
-0.15218769 -0.073327906 -0.08488214
-0.067890719 -0.073213391 -0.088601112
-0.025933694 0.01079725 -0.087032676
-0.046736632 0.010797344 -0.092535257
-0.29830945 0.052730706 -0.093267202
-0.50928742 0.073843129 -0.086961985
-0.29877785 0.073780164 -0.089687943
-0.089035064 0.073865928 -0.085971951
-0.50926095 0.094854474 -0.087089181
-0.29924747 0.094884954 -0.086099267
-0.088585094 0.094631806 -0.094322324
-0.0048351549 0.13671812 -0.090661287
-0.27882779 -0.15767929 -0.08120966
-0.19453181 -0.15764084 -0.081834197
-0.17424266 -0.15819758 -0.072793007
-0.36459732 -0.13715559 -0.071263671
-0.17366348 -0.13670471 -0.079632998
-0.15331094 -0.13720798 -0.070290804
-0.15254691 -0.11560599 -0.080215693
-0.13213359 -0.11604201 -0.070777178
-0.11023679 -0.094429001 -0.08306849
-0.0899387 -0.094962686 -0.069202781
-0.047623139 -0.073801428 -0.069503427
-0.48909116 -0.052343063 -0.082870007
-0.047097746 -0.052336551 -0.083153486
-0.48900318 -0.031289533 -0.083309531
-0.026319403 -0.031425074 -0.074506044
-0.51236308 -0.010331843 -0.072164297
-0.026157167 -0.010273367 -0.079774857
-0.1107149 0.010797204 -0.075304866
-0.51181704 0.03190621 -0.074791431
-0.51053613 0.052920319 -0.080954194
-0.0053565316 0.053118501 -0.068085194
-0.0053485818 0.074271142 -0.068428993
-0.0052398853 0.095284171 -0.073135853
-0.32253924 0.11653738 -0.069718242
-0.21665587 0.11648241 -0.07114923
-0.047575761 0.11649834 -0.070734262
-0.005068507 0.11612023 -0.080556512
0.015837591 0.13766024 -0.070261955
-0.21846978 -0.1806916 -0.053023458
-0.1968243 -0.18041486 -0.057017565
-0.17576955 -0.18057123 -0.054761291
-0.30338642 -0.15932593 -0.05447197
-0.15412267 -0.15900105 -0.059745908
-0.13281299 -0.1377103 -0.060971141
-0.11162603 -0.11651614 -0.06050992
-0.069403589 -0.095476791 -0.055846453
-0.17579405 -0.074264273 -0.05447197
-0.026574988 -0.052727908 -0.066206098
-0.00568128 -0.053009331 -0.054023027
-0.005541455 -0.031647224 -0.060077429
-0.0054437108 -0.010392379 -0.064309955
-0.5363307 0.010797298 -0.058995724
-0.0053860061 0.010797298 -0.066808701
0.015561469 0.010797298 -0.052327871
-0.0053681172 0.031961739 -0.067583203
0.015563481 0.032078177 -0.052458167
0.015572183 0.053350296 -0.053023458
0.015565485 0.074636936 -0.052588701
0.015590917 0.095866032 -0.054240227
0.015695874 0.11687078 -0.061057687
-0.57964271 0.13835087 -0.055311322
-0.55804157 0.13828003 -0.056844115
-0.2810829 0.13800028 -0.062900543
0.036849283 0.13845316 -0.053095937
-0.15495858 -0.18097812 -0.048887134
-0.13414492 -0.18147296 -0.041746259
-0.13356061 -0.15959013 -0.050180197
-0.11284728 -0.16017532 -0.040679455
-0.3907935 -0.13884228 -0.039962769
-0.11221121 -0.13824713 -0.051007628
-0.091497764 -0.13882583 -0.040269852
-0.090982527 -0.11700945 -0.04983151
-0.070194691 -0.11752272 -0.038718581
-0.51768798 -0.095834769 -0.046544909
-0.048641477 -0.095969461 -0.043045998
-0.51879466 -0.074672386 -0.041220307
-0.19831331 -0.074682221 -0.0408988
-0.027029123 -0.074357063 -0.051457524
-0.0060201772 -0.074729972 -0.039348245
-0.51904082 -0.053332329 -0.040035844
0.0154435 -0.053225353 -0.044665337
-0.5190165 -0.031954024 -0.040152907
0.015477818 -0.031850182 -0.046894312
0.015543826 -0.010493459 -0.051181793
0.036732517 -0.010595428 -0.037927866
0.036742326 0.010797298 -0.039201856
0.036737256 0.032185294 -0.038543105
0.036724508 0.053598762 -0.036887169
-0.53992903 0.074874438 -0.042301297
0.036728121 0.074988775 -0.037356377
-0.5399794 0.096240856 -0.042067885
0.03673353 0.096364222 -0.038059592
0.036780119 0.11752295 -0.044111133
0.058125269 0.13921404 -0.036623359
-0.24214415 -0.18223312 -0.030774593
-0.11356796 -0.18235764 -0.028976679
-0.32754609 -0.16061223 -0.033584476
-0.092050716 -0.16083235 -0.030008674
-0.07101965 -0.16139597 -0.020858049
-0.070628315 -0.13941523 -0.029330611
-0.04918414 -0.11797396 -0.028947353
-0.027682316 -0.096462227 -0.030244231
0.015173562 -0.075106107 -0.027132392
0.036684591 -0.053524755 -0.031702042
0.036699086 -0.032055151 -0.033584476
-0.17817539 -0.010684617 -0.026349664
0.058125269 -0.010698475 -0.024546146
0.058125269 0.010797298 -0.025876999
-0.54336417 0.032278977 -0.026364446
0.058125269 0.032286659 -0.025374174
-0.54156411 0.05363233 -0.034715652
0.058125269 0.053806495 -0.023391843
0.058125269 0.075333118 -0.022444129
0.058125269 0.096837275 -0.022695899
0.058125269 0.11815841 -0.027604818
-0.15822369 -0.20555171 -0.00647223
-0.13606593 -0.20497072 -0.014019132
-0.11479069 -0.20534769 -0.0091221333
-0.26530316 -0.18325976 -0.01595521
-0.092615753 -0.18301257 -0.019522667
-0.071743637 -0.18400609 -0.0051831007
-0.05010229 -0.16236687 -0.0050929785
-0.049648706 -0.14008623 -0.016877651
-0.028187897 -0.11867248 -0.013825297
-0.0065209158 -0.096946374 -0.017665625
0.014835168 -0.097427987 -0.00515306
0.036554549 -0.075485572 -0.014808774
0.058125269 -0.053895228 -0.015657544
0.058125269 -0.032261573 -0.020175576
0.079751171 -0.032454509 -0.0076406002
-0.54471409 -0.010732699 -0.020101428
0.079720095 -0.010797543 -0.011677146
0.079711705 0.010797391 -0.0127666
0.079716533 0.032388486 -0.012139797
0.079734698 0.054016147 -0.0097799301
0.079747483 0.075663939 -0.0081195831
0.07973367 0.097230874 -0.0099145174
0.079714924 0.11874551 -0.012348771
0.079656504 0.13998473 -0.019938231
0.10140014 0.14062187 -0.0061424971
-0.1805355 -0.2061671 0.001521945
-0.093567282 -0.20590642 -0.0018645525
-0.072329551 -0.20662737 0.0075021982
-0.05058242 -0.18487659 0.0073810816
-0.35417312 -0.16280204 0.0019741058
-0.028845545 -0.16314438 0.0075325966
-0.41859728 -0.1408872 -0.0020148754
-0.028478492 -0.14075935 -0.0043878555
-0.0071185715 -0.14143834 0.0082136393
-0.0068997182 -0.1192527 -0.0012631416
-0.55077809 -0.097935453 0.0080318451
0.036383145 -0.097913355 0.0074567795
0.058125269 -0.075865172 -0.0024808645
0.079886161 -0.076246321 0.0098952055
0.079786956 -0.05418779 -0.0029915571
0.10164519 -0.054482609 0.0097739697
0.10157366 -0.0326511 0.0051282644
-0.13774167 -0.010965714 0.010168314
0.10150886 -0.010894457 0.00091922283
-0.570171 0.01079725 -0.0025109053
0.10149287 0.01079725 -0.00011956692
0.10150561 0.032487459 0.0007083416
0.10154367 0.054215636 0.0031807423
0.10157529 0.075972378 0.0052338839
0.10153648 0.097619653 0.0027130842
-0.15873587 0.11922783 0.00018143654
0.10150074 0.11923607 0.00039219856
0.12336946 0.14128566 0.0082290173
-0.20341639 -0.20715407 0.014343858
-0.051011626 -0.20747647 0.018532038
-0.29068312 -0.18540746 0.015043736
-0.029232647 -0.18575808 0.020104051
-0.0073974021 -0.16392985 0.020287395
0.014433611 -0.14212358 0.02092886
0.014580831 -0.11983611 0.011366606
0.036253773 -0.12043164 0.024263144
0.058125269 -0.098453589 0.021494031
-0.55256504 -0.076444224 0.016322255
0.10183881 -0.076629758 0.022350311
-0.55274892 -0.054653496 0.017175317
0.123703 -0.054780416 0.022671461
-0.55267996 -0.032831632 0.016855359
0.12359577 -0.032849751 0.018028855
0.12349454 -0.01099254 0.013644695
0.14567968 -0.011091374 0.026485443
0.14565183 0.010797298 0.025580883
0.12347138 0.010797344 0.012641907
0.12349068 0.032585733 0.013477445
0.1456759 0.032684892 0.026362896
0.12355532 0.054417331 0.016276598
-0.57546854 0.076341443 0.021219015
0.12360001 0.076271966 0.018211961
-0.57608318 0.098274313 0.023972273
0.1235005 0.097964279 0.013903022
-0.59521306 0.11968703 0.012110472
0.12350155 0.11975782 0.013948679
0.14560135 0.14201137 0.023941636
-0.22792171 -0.20923895 0.041425824
-0.029548321 -0.20838672 0.030355692
-0.007691782 -0.18665385 0.033034325
0.014244862 -0.16472441 0.033188462
0.036178067 -0.14283311 0.03409791
0.058125269 -0.12107005 0.038081884
0.21180724 -0.12093016 0.035054326
0.080133893 -0.099245891 0.042077065
0.12398539 -0.077016242 0.034900069
0.14596303 -0.05508104 0.035687089
0.14582065 -0.033050459 0.031063557
0.16806643 -0.011190956 0.039427757
0.16803665 0.010797298 0.038654089
-0.57929516 0.032777309 0.038360119
0.16806406 0.032785036 0.039366007
-0.57748765 0.054632649 0.030263543
0.14577235 0.054620802 0.029494882
0.14582776 0.07657408 0.031294346
0.14568865 0.098360643 0.02677691
0.16808192 0.098762669 0.039830208
0.14571512 0.12028466 0.02763617
0.16814454 0.12081661 0.041456819
0.16808252 0.14274591 0.039845705
-0.0079170875 -0.20934391 0.042790294
0.013899811 -0.21033004 0.055600166
-0.31715921 -0.18788272 0.050771356
0.014046095 -0.18755907 0.046098828
-0.38403535 -0.166067 0.054989696
0.036084246 -0.16553089 0.046285272
0.058125269 -0.1435948 0.048230648
0.080210559 -0.12171441 0.05203557
0.10235795 -0.099784441 0.05606997
0.14632817 -0.077405587 0.047545671
0.16842805 -0.055384368 0.048822522
0.16825083 -0.033252947 0.044218421
0.19088846 -0.033457123 0.057479739
-0.58247364 -0.011292364 0.052597761
0.19066368 -0.011292458 0.052613497
0.19062907 0.010797298 0.051863909
0.1906608 0.03288649 0.052551031
0.16819765 0.054826193 0.042836905
0.19083346 0.055033363 0.056289077
0.16826218 0.076879427 0.044513464
0.1907106 0.099187449 0.05362916
0.19078791 0.1213494 0.05530262
0.19080092 0.143473 0.05558455
0.035907205 -0.21138334 0.069283485
0.035984188 -0.18847245 0.059283376
0.058125269 -0.18940529 0.072748423
0.058125269 -0.16635656 0.059691548
0.08029139 -0.14436555 0.062535524
0.10251279 -0.12236527 0.066126347
0.12480099 -0.10032898 0.070216298
0.16887055 -0.077799 0.060319662
0.19161125 -0.078193396 0.0731287
0.19110601 -0.05569309 0.062189579
0.21373521 -0.033662699 0.070832968
0.21347055 -0.011394942 0.065921426
0.21344166 0.01079725 0.065385461
0.21347989 0.032990851 0.066094875
0.21368323 0.05524236 0.069868326
0.19090946 0.077189364 0.057934284
0.21376334 0.077499211 0.071355343
0.2135496 0.099611111 0.067388415
0.21363468 0.12187541 0.068967462
0.21371903 0.14416325 0.070532441
-0.098194584 -0.23484817 0.084007502
-0.076000467 -0.23509994 0.086979985
-0.2537781 -0.21199083 0.077175021
0.058125269 -0.2125155 0.083991528
0.080475248 -0.19035259 0.086420178
0.080379158 -0.16723379 0.073937058
0.10285701 -0.16812962 0.088484526
0.10267971 -0.14514321 0.076968312
0.12503774 -0.12302766 0.080467582
0.14746565 -0.10087821 0.084486485
0.21455359 -0.078590363 0.08602047
0.21400677 -0.056009114 0.075872421
0.23679522 -0.033870153 0.084310889
0.23648992 -0.011498271 0.079353333
0.23647031 0.010797344 0.079035163
0.23651442 0.033095911 0.079751253
0.23674999 0.055453464 0.08357656
0.23683062 0.07781177 0.084885836
0.23660858 0.10003907 0.081280112
-0.63481575 0.12256185 0.086804152
0.23670088 0.12240693 0.082778811
0.23687589 0.14486018 0.085620761
-0.14401321 -0.23626095 0.10069013
-0.1208678 -0.23531815 0.089557886
-0.053760219 -0.23535079 0.089942575
0.080584854 -0.21379852 0.10065782
0.12556225 -0.16903469 0.1031791
0.12529397 -0.14592966 0.09156251
0.14779238 -0.12370334 0.095097184
0.17035547 -0.10143296 0.098898768
0.23770154 -0.078990847 0.099027753
0.23712525 -0.056327708 0.089670062
0.26046646 -0.056649774 0.103616
0.26007372 -0.034080178 0.097947478
0.2597248 -0.011602629 0.092911124
-0.61355805 0.01079725 0.091546416
0.25971812 0.010797344 0.092814684
-0.61388803 0.033197738 0.092975378
0.25976932 0.033202186 0.093553662
-0.61356175 0.055576362 0.091562629
0.26003689 0.055666581 0.097415566
0.26011506 0.078127086 0.098544002
0.25989187 0.10047139 0.09532249
0.26000339 0.1229518 0.096932292
0.26027718 0.14556521 0.10088396
-0.032088544 -0.23729065 0.1128521
0.12574692 -0.19206771 0.11117601
0.14848222 -0.16991663 0.11750042
-0.46046293 -0.1470339 0.11205447
0.14813748 -0.14672402 0.10630453
0.17077796 -0.12438595 0.1098752
0.19360262 -0.12468011 0.11624312
0.19347383 -0.10199323 0.11345494
0.21558025 -0.10167056 0.10507298
0.26105785 -0.079395033 0.11215222
0.28403148 -0.056974553 0.11768007
0.28357208 -0.034292031 0.11171269
0.28317824 -0.011708016 0.10659635
0.3068547 -0.011814481 0.12042737
0.28317946 0.010797298 0.10661244
0.30686304 0.010797298 0.12052548
0.28324565 0.033309352 0.10747218
0.2835483 0.05588185 0.1114037
-0.61736709 0.078346431 0.10804021
0.28362095 0.078445919 0.11234748
0.28340062 0.10090742 0.10948539
-0.5954926 0.12348993 0.11091578
0.2835508 0.12351006 0.11143613
0.28394723 0.14629042 0.11658585
0.17162175 -0.17079717 0.13179791
0.17121373 -0.14752653 0.12119675
0.19429135 -0.14806315 0.13115454
0.23958059 -0.10261221 0.12953961
0.284657 -0.079815365 0.12580585
0.30782592 -0.057302982 0.13189673
0.30729347 -0.034506083 0.12560868
0.33075476 -0.011921881 0.13437319
0.33077306 0.010797204 0.13457155
0.30694762 0.033417456 0.12152445
0.33087996 0.033526916 0.13572884
0.30728373 0.056098852 0.12549376
0.30738392 0.078776926 0.1266768
-0.62281561 0.10158937 0.1316328
0.3071239 0.10134221 0.12360609
-0.57563639 0.12396888 0.12336016
0.30733243 0.12407328 0.12606871
0.30789858 0.14703712 0.1327548
0.30850804 -0.080250956 0.13995206
0.3317782 -0.057615958 0.14545262
0.3312563 -0.034724586 0.13980293
0.35502809 -0.034880161 0.14990437
0.3547076 -0.012016783 0.14670157
0.35470596 0.01079725 0.146685
0.35486779 0.033623599 0.14830196
0.33125019 0.056318149 0.13973653
0.33138505 0.079112187 0.14119685
0.33107874 0.10178174 0.13788044
-0.55659205 0.12463379 0.14063251
0.33151853 0.12471118 0.14264166
0.33196902 0.14771909 0.14751828
0.10391396 -0.2181462 0.15713537
0.26438037 -0.10378894 0.16010833
0.33266845 -0.080717131 0.15508962
0.35580719 -0.057898507 0.15768921
0.3791315 -0.035060786 0.16163898
0.37872389 -0.0121026 0.15785718
0.40261722 -0.01216894 0.16646051
0.37870941 0.010797298 0.15772283
0.40277326 0.010797298 0.16781175
0.3787818 0.033701219 0.15839422
0.35584247 0.056599855 0.15804183
0.35602573 0.079543523 0.15987301
0.35567623 0.10235137 0.15638053
0.35614353 0.12541968 0.1610502
-0.14758842 0.14793974 0.15229404
0.35618901 0.14836514 0.16150451
0.24222629 -0.12727848 0.17250049
0.35694712 -0.081147902 0.1690799
0.38035506 -0.058251984 0.17299235
0.40382832 -0.035296466 0.1769489
0.42695692 0.010797344 0.1776123
0.38106394 0.056931421 0.17956996
0.38118514 0.080024347 0.18069446
0.38091713 0.1030236 0.17820776
0.40407985 0.10305187 0.17912698
0.38125679 0.1262013 0.18135953
-0.29012936 -0.22137243 0.1990459
0.38165429 -0.081639588 0.18504763
0.4051469 -0.058607146 0.18836796
0.42884812 -0.035543106 0.19296682
0.42772537 -0.012302747 0.18385148
0.45199576 0.010797204 0.19279492
0.40583876 0.033978105 0.19435966
0.45137835 0.033929832 0.18807685
0.42846325 0.057089433 0.1898421
-0.057813007 0.14992324 0.19523704
0.40670696 -0.08215782 0.20187867
0.43026969 -0.058979824 0.20450866
-0.6170212 -0.035764556 0.20735157
0.45408705 -0.03578642 0.20877492
0.45285901 -0.012422414 0.19939101
0.47777396 -0.012516471 0.21162581
0.47704467 0.01079725 0.20636284
0.47649756 0.034040231 0.20241463
0.50147748 0.034131572 0.2142905
0.40676284 0.057282276 0.20236278
0.476215 0.05725161 0.2003752
0.50144178 0.057462197 0.21404648
0.40691671 0.080555499 0.20369494
0.47653833 0.080532745 0.20270872
0.50146985 0.080798998 0.21423817
0.50146472 0.10413201 0.21420336
0.40713671 0.12713435 0.20560014
0.4766846 0.12706369 0.20376408
0.43204215 -0.082681902 0.21889913
0.45552638 -0.059332311 0.21977365
0.47906053 -0.035973318 0.22091115
0.50274307 -0.012603695 0.22294319
0.52730203 -0.012661468 0.23046494
0.50177598 0.010797157 0.21633124
0.43216708 0.034174927 0.2199136
0.43281034 0.10446859 0.22513616
0.52730477 0.1046332 0.23048246
-0.17535092 0.15088293 0.21601713
0.45776415 -0.083235435 0.23687351
0.48102486 -0.059686027 0.23508763
0.50437725 -0.036176652 0.23411608
0.52859122 -0.036249314 0.23883843
0.55325401 -0.01278034 0.24588716
0.52736712 0.01079725 0.23088777
0.52752185 0.034267113 0.23189259
0.52779347 0.057764128 0.23365688
0.43391636 0.081258148 0.23411608
0.52776629 0.081243448 0.23348045
0.43403387 0.12826861 0.23506999
0.52755445 0.12815452 0.23210418
-0.20068051 0.15196413 0.23942316
0.55318213 0.152242 0.24544239
0.48385212 -0.08380872 0.2554915
0.50668269 -0.060027517 0.24987864
0.53204733 -0.060291059 0.26128662
0.55471689 0.058091808 0.25493634
0.50769752 0.12910578 0.25681734
0.55519193 0.12914646 0.25787497
0.53096497 0.15264919 0.25425637
0.55622923 -0.060360439 0.26429141
0.58036971 -0.060417891 0.26677895
0.55682093 -0.036697596 0.26795197
0.57961309 -0.036610793 0.26231158
0.48602945 0.10588714 0.27120495
0.58073658 0.1533277 0.2689451
0.57988435 0.17681158 0.26391339
0.10591599 -0.20426103 0.28717136
0.60635304 -0.060710736 0.27945864
0.60624355 -0.036865298 0.27884018
0.58331609 -0.013075013 0.28417635
0.5605433 0.010797391 0.29097795
0.56054032 0.034721859 0.29095972
0.5837428 0.05858073 0.28669608
0.58262485 0.082319841 0.28009522
0.58331609 0.10628654 0.28417635
0.51209444 0.15415603 0.28687894
0.55909014 0.17778546 0.28198874
0.6061728 0.17759418 0.27844036
0.63305622 -0.037113622 0.2949779
0.60902596 -0.013154931 0.29455543
0.6351102 -0.013243746 0.30609512
0.60898376 0.010797298 0.29431665
0.58512044 0.034751493 0.2948308
0.60913002 0.034753975 0.29514313
0.60887969 0.058688883 0.29372895
0.56208241 0.082791209 0.30049884
0.60897398 0.082647011 0.29426146
0.56144243 0.10666727 0.29654014
0.61028081 0.10682434 0.3016423
0.63553095 0.10703151 0.30837262
0.6346935 0.13091561 0.30383933
0.60914308 0.15454102 0.29521644
0.63428754 0.15483776 0.3016423
-0.46926218 0.17860246 0.29714704
0.63332111 0.17856267 0.29641128
0.66248113 -0.037551183 0.32339787
0.66062546 -0.013302689 0.31375539
0.58821839 0.010797298 0.31312335
0.66261077 0.010797344 0.32407141
0.66232997 0.034965545 0.32261217
0.63751304 0.05907958 0.31910086
0.66228682 0.059130237 0.32238793
0.58821523 0.13127233 0.31310475
0.66175115 0.13152243 0.31960464
0.66037154 0.15533635 0.31243587
-0.49759412 0.17992932 0.32177103
0.54094267 0.17978337 0.31906343
0.68891013 -0.013463791 0.33466303
0.68770558 0.010797298 0.32864487
0.68840891 0.035038956 0.3321588
0.68878186 0.059309363 0.3340224
0.68874794 0.083561413 0.33385313
0.66477245 0.1078608 0.3353039
0.68822819 0.10773621 0.33125615
0.68780327 0.13188919 0.32913291
0.30141556 -0.11084795 0.3435061
0.64405596 0.01079725 0.35451543
0.71606618 0.010797204 0.3485924
0.71565557 0.03515029 0.34661663
0.64263874 0.08386147 0.34684455
0.66632181 0.083780855 0.34335434
0.71788079 0.059667941 0.35732269
0.71930617 0.084261812 0.36418056
0.71995717 0.10884642 0.36731291
0.72025716 0.13341427 0.36875606
0.6488325 0.035410084 0.38036895
0.47572219 0.059926379 0.37409818
0.47572219 0.084490754 0.37409794
0.62521374 0.13407734 0.38598347
0.65156806 -0.063383073 0.39517605
0.47925815 0.10988738 0.40111768
-0.24194039 -0.1392355 0.43137872
0.48254356 0.13562605 0.42622256
0.54762042 -0.092254438 0.5297718
0.78696895 0.14094788 0.56448579
0.81307662 0.1409612 0.56483305
0 0 0 1 0 0 0 1 0 0 0 1 0 0 0 0 0 813 1 0 0
