ply
format ascii 1.0
comment PCL generated
element vertex 692
property float x
property float y
property float z
element camera 1
property float view_px
property float view_py
property float view_pz
property float x_axisx
property float x_axisy
property float x_axisz
property float y_axisx
property float y_axisy
property float y_axisz
property float z_axisx
property float z_axisy
property float z_axisz
property float focal
property float scalex
property float scaley
property float centerx
property float centery
property int viewportx
property int viewporty
property float k1
property float k2
end_header
0.10252902 -0.052365508 -0.38435632
0.11979957 -0.052293316 -0.38904041
0.10250036 -0.034766845 -0.38482147
0.12011907 -0.034769878 -0.38442868
0.10265456 -0.01717528 -0.38231784
0.10289095 -0.070096254 -0.37847942
0.12047586 -0.070077807 -0.3792792
0.13875508 -0.070271283 -0.37089962
0.085869119 -0.052632619 -0.36700159
0.13799497 -0.052420508 -0.38077372
0.15637229 -0.0525578 -0.37186152
0.20989183 -0.05262151 -0.36772561
0.085834071 -0.034898978 -0.3676523
0.085594848 -0.01717528 -0.37209147
0.12086821 -0.017175324 -0.3736161
0.08591269 0.00055961683 -0.36619318
0.10303059 0.00048242137 -0.37621164
0.10329656 0.018206727 -0.37189281
0.10361783 0.036018234 -0.36667621
0.086585313 -0.08849927 -0.35371077
0.1039594 -0.088270828 -0.36112982
0.12220097 -0.088478647 -0.35437948
0.086079299 -0.070451394 -0.36310107
0.15722744 -0.070482276 -0.3617627
0.17586882 -0.070700377 -0.35231906
0.19348416 -0.070648201 -0.354581
0.17489715 -0.052696753 -0.36283767
0.19325504 -0.052788649 -0.35687041
0.13964614 -0.034962982 -0.35932451
0.15808563 -0.035022266 -0.35162795
0.13964614 -0.017175347 -0.3593244
0.15807573 -0.017175302 -0.35174477
0.12148514 0.00057099387 -0.36471111
0.14001046 0.00064893067 -0.35459161
0.086155981 0.018364035 -0.36167824
0.1216303 0.018349536 -0.36261642
0.14011341 0.018493719 -0.35325408
0.086576149 0.036313731 -0.35388058
0.12199904 0.036234964 -0.3572939
0.087491244 -0.10697736 -0.33689862
0.14069587 -0.08874625 -0.34568799
0.15930186 -0.089005642 -0.33726496
0.19409201 -0.088659495 -0.34850705
0.06935747 -0.070969887 -0.34065217
0.068926245 -0.052894633 -0.34998858
0.069063678 -0.035057813 -0.347013
0.17694955 -0.035106979 -0.3406201
0.17695151 -0.017175302 -0.34059846
0.069065645 -0.017175257 -0.34697032
0.069114015 0.00071564503 -0.34592307
0.15858409 0.00071696937 -0.34574139
0.17730026 0.0007857047 -0.33682334
0.069300964 0.018668845 -0.34187561
0.15869097 0.018628877 -0.34447926
0.17738289 0.018760402 -0.33592886
0.14116623 0.036644012 -0.33957785
0.087476149 0.054657757 -0.33717877
0.10574481 -0.10716052 -0.33213848
0.12425606 -0.10744621 -0.32471663
0.069769189 -0.089175835 -0.33173823
0.17810737 -0.089288302 -0.32808614
0.21363856 -0.071147457 -0.33296025
0.23276229 -0.071374089 -0.32314813
0.051968563 -0.05325532 -0.32655478
0.23147713 -0.053136475 -0.33427811
0.25067425 -0.053288534 -0.32440096
0.052087937 -0.03523913 -0.32345331
0.1958297 -0.035180025 -0.3311429
0.21486296 -0.035253495 -0.32159936
0.05210514 -0.01717528 -0.32300651
0.19577664 -0.017175324 -0.3316732
0.21464671 -0.017175257 -0.32360584
0.052144181 0.00089986064 -0.3219921
0.19616167 0.00085500255 -0.32782567
0.19621383 0.018893249 -0.32730448
0.06976369 0.036822394 -0.3318572
0.15983218 0.036842093 -0.33100206
0.17863099 0.037040334 -0.32241756
0.070412695 -0.10771213 -0.31780612
0.14291136 -0.10774679 -0.31690776
0.16170813 -0.10805699 -0.30884838
0.052668344 -0.089895256 -0.30837399
0.21620031 -0.089870147 -0.30919039
0.052307408 -0.071498722 -0.31775129
0.2520473 -0.071602575 -0.31325334
0.27006608 -0.053445619 -0.3141982
0.23405217 -0.035327502 -0.31197757
0.25232375 -0.035334997 -0.31100887
0.23388074 -0.017175302 -0.31346208
0.21522103 0.00092842802 -0.31827676
0.23443516 0.0010024589 -0.30866075
0.052307826 0.019040551 -0.31774032
0.2152812 0.019040797 -0.31771845
0.23451163 0.019190475 -0.3079986
0.052701917 0.037384864 -0.30750167
0.19757159 0.037240863 -0.31373692
0.070588455 0.055371433 -0.31400055
0.053199921 -0.10860674 -0.29456317
0.18060432 -0.10835694 -0.30105567
0.19979811 -0.10872523 -0.29148829
0.23554565 -0.09018252 -0.29904372
0.034926679 -0.072044089 -0.29413867
0.27155653 -0.071843721 -0.30280906
0.034818497 -0.053700317 -0.29765242
0.28966877 -0.053608626 -0.30360723
0.30946159 -0.053774484 -0.29283112
0.034764003 -0.035424221 -0.29942197
0.27181798 -0.035413496 -0.30081117
0.034785587 -0.017175302 -0.29872102
0.27269554 -0.017175302 -0.29410529
0.25311396 -0.017175257 -0.30459309
0.034821238 0.0010879133 -0.2975632
0.25381804 0.001077814 -0.29887688
0.034959029 0.019420065 -0.29308826
0.25391397 0.019342959 -0.29809779
0.21665995 0.037444353 -0.30492514
0.23592381 0.037655834 -0.29576856
0.21905755 -0.10906421 -0.28267843
0.035208445 -0.090615325 -0.28498828
0.25503728 -0.090492487 -0.28897798
0.27485359 -0.090842403 -0.27761489
0.32943898 -0.05394236 -0.28193378
0.29150787 -0.035494171 -0.29033464
0.31140578 -0.03557729 -0.27953875
0.29245627 -0.017175257 -0.28349024
0.27341208 0.0011567157 -0.28863007
0.29317781 0.0012364239 -0.278283
0.27355021 0.019504979 -0.28757465
0.29334259 0.019666329 -0.27709365
0.035280962 0.037959207 -0.2826333
0.25539285 0.037879277 -0.28609103
0.27506423 0.038112208 -0.27600527
0.053377781 0.056112237 -0.28994226
0.035668503 -0.10955037 -0.27004737
0.23849694 -0.1094181 -0.27348483
0.258297 -0.10984046 -0.26251221
0.29396239 -0.090996258 -0.27262056
0.01723773 -0.072644621 -0.26813084
0.29408693 -0.072561711 -0.27172178
0.31403372 -0.072796121 -0.26157141
0.017155591 -0.054100141 -0.27168763
0.35005939 -0.054155346 -0.26809657
0.01709415 -0.035617143 -0.27434832
0.3316344 -0.035668578 -0.26767415
0.017109364 -0.017175257 -0.27368927
0.31239432 -0.017175213 -0.27277994
0.017140612 0.001282068 -0.27233624
0.31312105 0.0013169851 -0.26781112
0.017249864 0.019812327 -0.26760554
0.31330988 0.01982902 -0.26651996
0.29490438 0.038347341 -0.26582241
0.035819028 0.056875356 -0.26515883
0.27812171 -0.11022034 -0.25264204
0.017442293 -0.091407187 -0.25927329
0.31425714 -0.091383427 -0.26004362
0.334766 -0.091774903 -0.24733382
0.33453012 -0.07308951 -0.24886608
0.37098864 -0.054377146 -0.25369388
-0.00093436614 -0.035823911 -0.24749649
0.35246992 -0.035780109 -0.25318527
0.33275259 -0.017175347 -0.26041132
0.35365635 -0.017175347 -0.24584609
-0.0009252429 -0.017175213 -0.24690408
-0.00090841949 0.0014863219 -0.24581128
0.33364454 0.0014185067 -0.25461787
0.3338562 0.020033456 -0.25324315
0.017501317 0.038557652 -0.25671721
0.31492075 0.038585614 -0.25550652
0.017809369 -0.11057694 -0.24337816
0.29829553 -0.11065512 -0.24134886
-0.0007060729 -0.092226401 -0.23266846
-0.00084313005 -0.073258042 -0.24157065
0.35487843 -0.073333822 -0.23828679
0.37364948 -0.073340893 -0.23798239
-0.00089391321 -0.054513048 -0.24486876
0.39218694 -0.054602943 -0.2390238
0.37359795 -0.035894778 -0.23828679
0.3748523 -0.017175302 -0.23088014
0.35469499 0.0015355125 -0.23942131
-0.00083324313 0.020223122 -0.24092859
0.35488784 0.020264637 -0.23822814
0.33614805 0.038981646 -0.23835689
0.017928842 0.057705343 -0.23820484
-0.00046727434 -0.1115862 -0.2171579
0.3191281 -0.11121734 -0.22674066
0.35724017 -0.092503257 -0.2236771
0.3952021 -0.073710196 -0.22199428
-0.019352838 -0.054932822 -0.21759844
0.4137471 -0.054840185 -0.22361803
-0.019371603 -0.036035344 -0.22003585
0.39501742 -0.036012232 -0.22303742
-0.019369133 -0.017175302 -0.21971512
-0.019361174 0.0016951095 -0.21868092
0.37601802 0.0016542673 -0.22399688
0.37612835 0.020493846 -0.22334558
-0.0006560497 0.039187964 -0.22941935
0.35774243 0.039392442 -0.22057033
0.34060901 -0.11188549 -0.20938224
-0.019263361 -0.093048312 -0.20597476
0.37869003 -0.092979215 -0.20821953
-0.019328345 -0.073885143 -0.21441638
0.41720876 -0.074105375 -0.20488077
0.45596015 -0.074197426 -0.20089376
0.43561682 -0.055083174 -0.20783561
0.4547365 -0.055095963 -0.20700759
0.39639172 -0.017175302 -0.21527523
0.3976686 0.0017768834 -0.20806366
-0.019322462 0.020643074 -0.21365249
0.39775145 0.020736296 -0.20759571
-0.019228891 0.03983286 -0.2014969
0.37966722 0.039810959 -0.2024492
-0.00036747009 0.058553055 -0.21067572
-0.019143287 -0.11261694 -0.190377
0.36227754 -0.11253463 -0.19251674
0.40097463 -0.093559012 -0.18939102
-0.038231622 -0.074532643 -0.18637943
0.43955585 -0.074509755 -0.18736798
-0.038231622 -0.055358339 -0.18996316
-0.038231622 -0.036249161 -0.19224942
0.41895965 -0.036224969 -0.19540417
0.43907514 -0.036267564 -0.18986589
-0.038231622 -0.017175213 -0.19203073
0.41895291 -0.017175257 -0.19544065
-0.038231622 0.0018999465 -0.19207931
0.41966823 0.0019038972 -0.19156891
-0.038231622 0.021080174 -0.18525583
0.41971537 0.020986911 -0.19131356
0.38462296 -0.11327862 -0.17318714
0.42336988 -0.094108902 -0.17153299
0.44121411 -0.093886599 -0.17875111
0.48042899 -0.055594593 -0.17461747
0.46116012 -0.036382638 -0.17491329
0.44123307 -0.017175302 -0.17865294
0.44201678 0.0020346362 -0.17458051
0.44208321 0.021249868 -0.17423546
-0.038231622 0.040504642 -0.17240977
0.40303254 0.040380906 -0.17776823
-0.019086355 0.059405752 -0.18298125
0.11521825 0.059549645 -0.17830896
0.13457929 0.059629574 -0.17571366
-0.018872742 -0.1333286 -0.15523183
-0.057503991 -0.05571999 -0.16647011
0.50345045 -0.055866841 -0.15693283
-0.057521097 -0.036464769 -0.16424805
0.48372048 -0.036506869 -0.15878117
-0.057531148 -0.017175302 -0.16294265
0.46377021 -0.017175302 -0.16187239
-0.05751574 0.0021088682 -0.16494352
0.4647764 0.0021711178 -0.15684533
-0.057588384 0.021538232 -0.15550733
0.4649691 0.021532394 -0.1558826
0.15430796 0.059840605 -0.16886175
0.1743405 0.060123675 -0.1596669
-0.01878331 -0.1727618 -0.14361453
-0.038231622 -0.15350023 -0.140149
-0.018848529 -0.15285699 -0.15208685
0.00067978352 -0.15336522 -0.14265418
0.00061159581 -0.13370493 -0.14708328
0.40748182 -0.11406952 -0.15263867
0.48543024 -0.075359941 -0.15055513
0.50704628 -0.036649454 -0.14025021
0.48668647 -0.017175302 -0.14451098
-0.057689957 0.041199718 -0.14231288
0.42715973 0.040998604 -0.15101993
-0.038231622 0.060317293 -0.15337825
0.19491266 0.060539499 -0.14616346
-0.038231622 -0.19310108 -0.13075411
-0.018651349 -0.1933977 -0.12647235
-0.038231622 -0.17312902 -0.13765132
0.0008478798 -0.17349324 -0.13173628
-0.038231622 -0.13411599 -0.13818419
-0.038231622 -0.11461509 -0.13846326
-0.038231622 -0.09509521 -0.13950276
0.47039461 -0.095425442 -0.12877476
0.50898862 -0.075806007 -0.13123906
-0.077291891 -0.036705375 -0.13298523
0.50850517 -0.017175302 -0.13348174
-0.077307001 -0.017175257 -0.13200402
-0.077269554 0.002343731 -0.13443637
0.48790926 0.0023114178 -0.13862801
0.50986427 0.0023996085 -0.12717628
0.48807532 0.021810301 -0.13782883
0.45128012 0.041566126 -0.12644684
0.21542455 0.060872786 -0.13533938
-0.077418402 0.022011548 -0.12476838
0.51093656 0.022051044 -0.12220168
-0.077627555 0.041918624 -0.11118388
0.47277689 0.041787211 -0.11687219
0.49153173 0.041687351 -0.12119937
-0.057840027 0.061258264 -0.12281823
0.23622651 0.061241299 -0.12337017
-0.038231622 -0.21530372 -0.096261024
-0.057955954 -0.19469424 -0.1077584
-0.05802853 -0.1557536 -0.098330617
-0.057969764 -0.13560411 -0.1059643
-0.057974376 -0.11588909 -0.10536563
-0.058044564 -0.096427009 -0.096247911
0.49444956 -0.096091077 -0.10716045
-0.097511627 -0.036935259 -0.10312486
-0.097572818 -0.017175347 -0.10047519
-0.09752126 0.0025879294 -0.10270762
-0.038231622 0.081742831 -0.10005713
-0.018428063 0.081842512 -0.097466588
-0.058087647 -0.21573554 -0.090651393
-0.058160484 -0.17660616 -0.081189632
-0.07796862 -0.13638622 -0.089030862
-0.077974707 -0.116533 -0.088635325
-0.058151193 -0.076933965 -0.08239603
-0.097746529 0.02250129 -0.092953324
-0.077939823 0.062241077 -0.090901375
0.25979584 0.0622987 -0.089030743
-0.058090284 0.082118079 -0.090309024
0.0015161298 0.082194157 -0.088331938
0.021555874 0.082470484 -0.081149936
-0.078172825 -0.19691072 -0.075767159
-0.078171186 -0.057114806 -0.075873733
-0.11830354 -0.03719319 -0.069612622
-0.11835755 -0.017175347 -0.067858458
-0.11827841 0.0028364826 -0.070428729
-0.098062947 0.042656019 -0.079251766
-0.07830181 0.083000176 -0.067389369
0.041707415 0.08274848 -0.07392776
0.061997529 0.08305385 -0.065994501
-0.038231622 0.10291645 -0.069960475
-0.01820375 0.10299198 -0.068327308
-0.078390338 -0.17781021 -0.061639309
-0.078410447 -0.097532883 -0.060332775
-0.078441188 -0.077489637 -0.058336496
-0.11858389 0.023000862 -0.060508013
-0.098528206 0.063220114 -0.059105754
0.28277299 0.063075818 -0.063791871
0.082445711 0.083389163 -0.057283163
0.10279632 0.083558947 -0.052871943
-0.058292136 0.10318775 -0.064087629
0.0019573793 0.10339165 -0.059672117
0.022220507 0.10372894 -0.05237031
0.46333808 0.18345247 -0.06379199
0.46325529 0.20347898 -0.064221978
-0.098911643 -0.1789887 -0.042502403
-0.098999172 -0.1589662 -0.038712382
-0.078602895 -0.15847474 -0.047833443
-0.099021956 -0.098229036 -0.037725568
-0.098917954 -0.077861607 -0.042229176
-0.13932399 -0.057612225 -0.043567657
-0.13960747 0.0030998886 -0.03620255
-0.11902364 0.043418776 -0.046226859
-0.099033371 0.084160939 -0.037231684
0.12373926 0.084056541 -0.039944887
-0.078682028 0.10417595 -0.042693615
0.042604458 0.10407878 -0.044795632
0.06317541 0.1045131 -0.035392404
-0.058494225 0.12466289 -0.03783524
-0.038231622 0.12445343 -0.04172349
-0.017951485 0.12478565 -0.035557151
-0.099108532 -0.13892904 -0.033976793
-0.099113613 -0.11864538 -0.033756733
-0.11944956 -0.057784256 -0.032394528
-0.13967356 -0.037463687 -0.034485459
-0.1396942 -0.017175302 -0.033949256
-0.13999626 0.02353064 -0.026101351
-0.11966208 0.064255074 -0.025492549
0.14484799 0.084535606 -0.027497768
0.083907038 0.1049633 -0.025644898
-0.079030335 0.1256202 -0.020070076
0.0024410374 0.12517907 -0.028257608
0.022956502 0.12559704 -0.020500898
-0.14077692 -0.078702368 -0.0058194399
-0.09946245 -0.057995871 -0.018651843
-0.14059666 0.044243734 -0.010502696
0.16615638 0.085018702 -0.014946342
-0.099598974 0.10555942 -0.012740254
0.10493702 0.10554061 -0.013145447
0.043645758 0.12611014 -0.01097846
-0.058706783 0.14662607 -0.010222673
-0.038231622 0.14662607 -0.010222673
-0.14126855 -0.12021222 0.0069535971
-0.14115079 -0.099510565 0.0038938522
-0.12065941 -0.078996114 0.0068969727
-0.16179673 -0.058363624 0.0052387714
-0.16161579 -0.037739258 0.0013213158
-0.16164058 -0.017175391 0.001857996
-0.16150697 0.0033705682 -0.0010348558
-0.16202743 0.024089992 0.010233521
0.31211063 0.065258123 0.0070812702
0.43468106 0.065070383 0.00098240376
0.18826725 0.085778676 0.0047998428
0.12618673 0.10613851 -0.00020301342
0.064507589 0.1266596 -0.00078117847
-0.079392314 0.14746745 0.0034412146
-0.017689856 0.14715891 -0.0015705824
0.0029737651 0.14764626 0.00634408
-0.12104724 -0.12069483 0.019491792
-0.16269618 -0.10015165 0.024712443
-0.12095697 -0.099900633 0.016560435
-0.16204582 -0.079082377 0.01063168
-0.1415263 0.065460443 0.013649821
0.41682321 0.06556192 0.016946316
-0.12081078 0.086048633 0.011812449
0.21036871 0.086408228 0.021153212
0.14761981 0.10672565 0.01251018
-0.10013938 0.12727623 0.010660052
0.085631207 0.12733139 0.011684418
0.10699174 0.12804814 0.024985433
0.023792941 0.14822358 0.015718102
-0.058958031 0.16936231 0.022415161
-0.038231622 0.16942403 0.02330482
-0.1841476 -0.038020484 0.037838578
-0.184182 -0.017175257 0.038477182
-0.18401167 0.0036503561 0.03531611
-0.16279915 0.045108415 0.026941657
0.39881837 0.066072263 0.033521295
0.23287721 0.087097377 0.039058089
0.16949844 0.10746264 0.02846837
0.12855898 0.12876642 0.038317561
-0.1005886 0.14910987 0.030112028
0.044790801 0.14886963 0.026207805
0.066012517 0.14961524 0.038317561
-0.07986635 0.17018092 0.034230232
-0.017430181 0.17003775 0.032162428
-0.163716 -0.12174563 0.04679215
-0.18466628 -0.079933055 0.047464252
-0.18439119 -0.058935232 0.042358994
-0.18463401 0.024654012 0.046865225
0.38066223 0.066603519 0.050770879
-0.12179533 0.10817029 0.043786526
0.1916241 0.10820054 0.044442415
0.15050229 0.12961785 0.054115176
0.087490007 0.15045348 0.051928759
0.0035206303 0.17070983 0.041863918
0.024635632 0.17142649 0.052207351
0.34137678 -0.1437114 0.06956327
-0.18554485 -0.10135433 0.063768387
-0.18557353 0.045971349 0.064300776
-0.16449736 0.067001887 0.063709021
0.3415477 0.067220099 0.070796728
-0.14350034 0.088093422 0.064937353
0.2560907 0.087939881 0.060946345
0.21410601 0.1089935 0.061610699
-0.1223378 0.13001058 0.06140399
0.17273512 0.13050148 0.070514202
0.10918607 0.15130201 0.065707207
-0.10135596 0.17219773 0.063339591
0.045941446 0.17221406 0.063576221
0.34230313 -0.16516104 0.076248527
0.36394665 -0.14417902 0.079685569
-0.18667558 -0.12320673 0.084752202
-0.20790775 -0.080803841 0.085172772
-0.2075818 -0.059512809 0.079880238
-0.20726171 -0.03830409 0.074682117
-0.20730121 -0.017175302 0.075323582
-0.20711403 0.0039349478 0.072284222
-0.20782085 0.025221985 0.083761334
0.36274225 0.067240164 0.071451068
0.27992156 0.088875748 0.085263014
-0.14407261 0.1098339 0.079805136
0.23721726 0.10995494 0.082426429
-0.12304427 0.15244998 0.084346652
0.13122739 0.15228368 0.081647158
0.067475915 0.17309836 0.076338053
0.32304129 -0.18718611 0.090606689
0.34464404 -0.18734229 0.093142629
0.32243243 -0.165684 0.08595407
0.3654249 -0.16589086 0.08979249
0.32246 -0.1444782 0.086164594
-0.14476655 0.13197362 0.097834468
0.19529206 0.1314307 0.087759137
0.15357642 0.15332082 0.098486543
-0.1234339 0.17452979 0.097000957
0.089205444 0.17398031 0.089069009
0.3046352 -0.18860866 0.11370718
-0.20896526 -0.1025422 0.10234451
-0.23101243 -0.038595412 0.11252689
-0.23106128 -0.017175347 0.1132319
-0.23085757 0.0042276178 0.11029172
-0.2089072 0.046828039 0.10140181
-0.18775727 0.068267852 0.10482597
-0.16622919 0.089489363 0.1012044
0.30376479 0.089698642 0.10664034
0.26100865 0.11107054 0.1065793
0.21844198 0.13255088 0.10854888
0.11123002 0.17498973 0.10363793
0.30563539 -0.21060042 0.12182772
0.32680643 -0.21043077 0.11937737
0.30570191 -0.1676462 0.12236774
0.30570191 -0.14615034 0.12236774
-0.21028015 -0.12470564 0.12369549
-0.23180227 -0.081698813 0.12392712
-0.23140389 -0.060102411 0.11817694
-0.23164721 0.025805935 0.12168896
-0.16693997 0.11153309 0.11659336
0.28500271 0.11211848 0.12926686
-0.14569125 0.15476 0.1218586
0.17627874 0.154433 0.11654723
0.13358703 0.1761207 0.11996269
0.28671998 -0.1904829 0.14413917
-0.23305179 -0.10376211 0.14196241
-0.23293801 0.04772687 0.14032018
-0.18954791 0.090907693 0.13805592
-0.1678247 0.13401666 0.13574839
0.24226369 0.13386069 0.13285363
0.19954845 0.15575565 0.13802469
-0.14620249 0.17717221 0.13514078
0.15654193 0.17759827 0.14128971
0.28727469 -0.2124791 0.14894295
0.28757095 -0.16921645 0.15150857
0.28757277 -0.147497 0.15152442
-0.25595608 -0.060720246 0.15829945
-0.25548184 -0.038900379 0.15213895
-0.25551218 -0.017175302 0.15253305
-0.25533149 0.0045346506 0.15018594
-0.25616953 0.026412278 0.16107237
-0.1904428 0.11329149 0.15466321
0.26672944 0.13530518 0.15966141
-0.16896582 0.15713705 0.16045403
0.26825002 -0.19230767 0.17377055
0.26849857 -0.17054036 0.17607701
-0.23473355 -0.12634303 0.16623676
-0.25642136 -0.082632206 0.16434371
-0.21272372 0.070070773 0.16337419
-0.19154489 0.13613792 0.17511559
0.22351681 0.15732375 0.16348541
-0.16964301 0.17994179 0.1751157
0.18016514 0.17938176 0.16703296
0.26906627 -0.1488744 0.18134475
-0.25792721 -0.10505348 0.18390501
-0.25763232 0.04864496 0.1800741
-0.21356428 0.092407577 0.17702305
0.24949981 -0.14997448 0.20516109
-0.28122106 -0.061355177 0.19954443
-0.28068689 -0.039216701 0.19323575
-0.28068826 -0.017175302 0.19325209
-0.28076795 0.004873503 0.19419324
-0.2814061 0.02703828 0.20172989
-0.23694979 0.071143925 0.19822514
-0.21465169 0.11513969 0.19468057
-0.1929307 0.15962364 0.20083237
0.24879919 0.15945898 0.19816005
-0.1706375 0.20350115 0.19664693
-0.25993058 -0.12802486 0.20992959
-0.28181449 -0.083607025 0.20655227
-0.23789951 0.093751408 0.21193326
-0.21550995 0.13794328 0.20861709
-0.19383059 0.18288042 0.21753263
-0.1490849 0.20453118 0.21002805
-0.1712874 0.22676027 0.2107178
-0.14921774 0.22699419 0.21347916
-0.17138684 0.24913523 0.2128706
-0.14925765 0.24928716 0.21451628
-0.28348425 -0.10635809 0.22627115
-0.30658743 -0.039538365 0.23501265
-0.30658281 -0.017175347 0.23496246
-0.30670628 0.0051975437 0.23629916
-0.2832427 0.049645901 0.22341871
-0.2395228 0.11701877 0.23536336
-0.19466819 0.20630559 0.23307669
-0.12732911 0.20556846 0.22350156
-0.30787405 -0.084585883 0.24894071
-0.30713931 -0.061993252 0.24098706
-0.30765462 0.02772855 0.24656534
-0.26262775 0.072583169 0.24496686
-0.21745183 0.16204494 0.2401489
-0.10536882 0.20661533 0.23710179
-0.083201386 0.20767349 0.25084722
-0.08316087 0.22993557 0.24821591
-0.28572983 -0.12967446 0.25279009
-0.26378053 0.095599078 0.25994182
-0.24105746 0.14057811 0.25751436
-0.060823191 0.20874035 0.26470637
-0.10589041 0.23090693 0.25968707
-0.30983362 -0.10770932 0.27015352
-0.33328253 -0.039871607 0.27830195
-0.33328944 -0.017175213 0.27837062
-0.33343413 0.005532492 0.27981651
-0.30974355 0.050702713 0.26917863
-0.26529059 0.11906002 0.27955818
-0.21923433 0.18645273 0.26909316
-0.038231622 0.20981728 0.27869761
-0.33483136 -0.085621424 0.29377878
-0.33390877 -0.062664181 0.28455961
-0.33427921 0.028370488 0.28826106
-0.28882879 0.073950879 0.28938723
-0.2429779 0.16482133 0.28523338
-0.015423615 0.21090479 0.29282296
-0.12914224 0.23282892 0.28238451
-0.10666929 0.25657544 0.29341364
-0.31248087 -0.13144588 0.29881096
-0.29014033 0.097328708 0.30487573
-0.2671102 0.14303966 0.30319548
-0.3370555 -0.10912101 0.31600344
-0.36083689 -0.04021854 0.32337952
-0.36082157 -0.017175257 0.32323778
-0.3609975 0.0058795139 0.32486975
-0.33701843 0.051775508 0.31563294
-0.29187697 0.12117675 0.32538462
-0.26879919 0.16727871 0.32513595
0.030834254 0.23606628 0.32061589
-0.36269745 -0.086703733 0.34064329
-0.36154935 -0.063363567 0.32999051
-0.3619568 0.029071081 0.33377111
-0.36174911 0.075258315 0.33184385
-0.31586385 0.075368807 0.33543265
0.031255368 0.21444806 0.33885074
-0.34012926 -0.13328987 0.34671843
-0.34041789 0.099050254 0.34960258
-0.3173179 0.099110574 0.35117328
-0.29400107 0.14558707 0.35046899
0.0081845187 0.23811349 0.3447926
-0.365132 -0.11057543 0.36323297
-0.38925111 -0.040576644 0.36989355
-0.3892194 -0.017175347 0.36961901
-0.38941163 0.0062367227 0.37128401
-0.36518696 0.052886546 0.36374307
-0.31912664 0.12327221 0.37075329
-0.29480624 0.1694243 0.35997748
0.0084387362 0.21617658 0.3613044
0.078684852 0.21665765 0.36755455
0.10203104 0.21659586 0.36675131
0.078803033 0.24030095 0.37062514
0.10218631 0.24025756 0.3701129
-0.39003837 -0.064082876 0.37671173
-0.3904525 0.029787473 0.3802979
-0.34374237 0.076827899 0.38282275
-0.31978908 0.14706653 0.37792456
0.078917935 0.2639837 0.3736105
0.10233514 0.26395813 0.3733356
-0.391491 -0.087827109 0.38929152
-0.39427379 -0.11211988 0.41339147
-0.39415869 0.054010101 0.41239452
-0.39394823 0.077682391 0.41057181
-0.39338744 0.10120998 0.40571558
-0.41943812 -0.064826056 0.4249872
-0.41857156 -0.04094651 0.41795135
-0.41849259 -0.017175213 0.41730976
-0.41869247 0.0066034906 0.41893291
-0.41982147 0.030523479 0.42809904
-0.42120916 -0.088983655 0.43936563
-0.424537 -0.11375172 0.46638465
-0.44978461 -0.065593347 0.47481692
-0.44872442 -0.041321941 0.46671546
-0.44853592 -0.017175347 0.46527553
-0.44882634 0.0069773961 0.46749461
-0.45010501 0.031280402 0.47726524
-0.45187491 -0.090171114 0.49078989
-0.42702499 0.055723391 0.48658419
-0.47963884 -0.041697912 0.515558
-0.47943857 -0.017175347 0.51411271
-0.47989497 0.0073615331 0.51740634
-0.45616746 -0.11551321 0.5235908
-0.48079947 -0.066349462 0.52393413
-0.48141855 0.032067616 0.52840173
-0.51074755 -0.017175257 0.56058705
-0.46298048 -0.14210144 0.57565176
-0.51203793 0.0077618733 0.56940985
-0.51384902 0.03288966 0.58179235
-0.48972887 -0.16767444 0.58837664
-0.46425286 -0.1675358 0.58537459
-0.48925772 -0.14246035 0.58497643
-0.44004703 -0.14274256 0.59230995
-0.48942336 -0.11744022 0.58617163
-0.48948154 -0.092383668 0.5865916
-0.49135923 -0.19339161 0.6001426
-0.46706241 -0.19375277 0.60684395
-0.52040225 -0.11868487 0.62659669
-0.54553139 0.0081897695 0.6249845
-0.52203405 -0.19541839 0.63775337
-0.52131933 -0.14430369 0.6328671
-0.54755396 0.033756942 0.63812137
-0.5230782 -0.093730099 0.64489222
-0.52370238 -0.068277374 0.64915979
-0.52293831 -0.042686149 0.6439358
-0.57588166 -0.017175436 0.65582287
-0.52655709 -0.17138329 0.66867757
-0.55180371 -0.017175168 0.6657244
-0.58020496 0.0086329263 0.68256629
-0.55632502 -0.17260337 0.69509125
-0.55630088 -0.14669263 0.69493425
-0.55655289 -0.12083939 0.69657063
-0.55617332 -0.094866492 0.69410539
-0.58246893 0.034656718 0.69657099
-0.5864206 -0.043279566 0.72101545
-0.58911556 -0.095872909 0.73768628
-0.58864045 -0.069595084 0.73474729
-0.61677998 -0.043473005 0.74614096
-0.56260717 -0.043394014 0.73589468
-0.61625636 -0.017175347 0.74304903
-0.61651415 0.0091102831 0.74457121
-0.5647257 -0.069824606 0.74965501
-0.62022656 0.035733327 0.76649249
-0.62243158 -0.070284367 0.77951193
-0.14652112 -0.20668194 0.8467803
-0.14633079 -0.17932402 0.84059882
-0.17516015 -0.18148971 0.8874836
0 0 0 1 0 0 0 1 0 0 0 1 0 0 0 0 0 692 1 0 0
