ply
format ascii 1.0
comment PCL generated
element vertex 1333
property float x
property float y
property float z
element camera 0
property float view_px
property float view_py
property float view_pz
property float x_axisx
property float x_axisy
property float x_axisz
property float y_axisx
property float y_axisy
property float y_axisz
property float z_axisx
property float z_axisy
property float z_axisz
property float focal
property float scalex
property float scaley
property float centerx
property float centery
property int viewportx
property int viewporty
property float k1
property float k2
end_header
-0.022330647 0.39986381 -0.16659284
0.0032769442 0.40108755 -0.15665805
-0.048137113 0.4262414 -0.16129327
-0.022440324 0.42648008 -0.15946925
-0.048275203 0.45279485 -0.15531349
-0.22971676 -0.32158649 -0.14173496
-0.20442282 -0.32236168 -0.13334215
-0.25578523 -0.2959041 -0.1394552
-0.074691877 -0.24447241 -0.13434148
-0.074446402 -0.21804905 -0.14231348
-0.048704207 -0.21839248 -0.13673699
-0.074293017 -0.19190967 -0.147295
-0.048465796 -0.19192232 -0.14706075
-0.022821879 -0.19258913 -0.13468647
-0.07432133 -0.16611949 -0.14637542
-0.022653298 -0.16615367 -0.1456362
0.0030994155 -0.16670977 -0.13359666
-0.074366316 -0.14033596 -0.14491451
0.0031929296 -0.140304 -0.14574444
0.029037492 -0.14076607 -0.13374209
-0.07435298 -0.11447179 -0.14534748
0.029037492 -0.11456743 -0.14224124
-0.0743341 -0.088610023 -0.14596069
0.029037492 -0.088549584 -0.14857399
0.054960892 -0.088851497 -0.13550353
-0.074320771 -0.062760398 -0.14639366
0.054928657 -0.062863618 -0.13969052
-0.074315771 -0.036919594 -0.1465559
0.054903872 -0.036947623 -0.14290988
0.054887474 -0.011081293 -0.14504075
-0.074315213 -0.011081237 -0.1465739
-0.074316323 0.014757177 -0.14653778
0.054874144 0.0147554 -0.14677215
0.080918118 0.014859015 -0.13330591
-0.074316323 0.040595591 -0.14653778
0.054866232 0.040576167 -0.14779937
0.080901057 0.040782284 -0.13441408
-0.074267492 0.066397488 -0.14812374
0.054860275 0.066387102 -0.14857399
0.080887921 0.066694349 -0.13526738
-0.074261948 0.09221819 -0.14830375
0.054855146 0.092189386 -0.14924026
0.080877863 0.092599407 -0.13592076
-0.074312992 0.11810678 -0.14664602
0.054851957 0.11799112 -0.14965415
0.08087144 0.11850342 -0.136338
-0.07430134 0.14392699 -0.14702451
0.054848772 0.14378642 -0.15006781
0.080865569 0.14440295 -0.13671887
-0.074284136 0.16973139 -0.14758325
0.054847941 0.16959192 -0.15017605
0.080864176 0.17031223 -0.13680959
-0.074272491 0.19553873 -0.1479615
0.054848634 0.19540775 -0.15008593
0.080865018 0.19622877 -0.13675523
-0.074254178 0.22132507 -0.14855599
0.054850437 0.22123522 -0.14985228
0.080868647 0.222159 -0.13651943
-0.074241988 0.24711744 -0.14895201
0.054855559 0.24709938 -0.14918625
0.08087898 0.24812604 -0.13584816
-0.074233122 0.27291283 -0.14924014
0.054861382 0.27298152 -0.14842999
0.080889881 0.27410686 -0.13514042
-0.074218154 0.2986857 -0.14972615
0.054874696 0.29896513 -0.14670002
0.080916442 0.3001923 -0.13341498
-0.074210949 0.32447603 -0.14996004
0.054891087 0.32501537 -0.14457154
-0.074202091 0.35025713 -0.15024793
0.054914035 0.35119033 -0.14159036
0.029037492 0.37605464 -0.1503557
0.054945111 0.37753293 -0.13755298
0.029037492 0.40251386 -0.14507675
-0.10065988 0.42988974 -0.13341486
-0.074208178 0.42771289 -0.15005004
0.0032180399 0.4278495 -0.14900601
0.029037492 0.42931038 -0.13784289
-0.074293569 0.45390859 -0.14727688
-0.022613613 0.45377859 -0.14821386
0.0031364281 0.45513788 -0.13840461
-0.074399665 0.48024526 -0.14383113
-0.048474543 0.47982818 -0.14668214
-0.022783889 0.48122185 -0.1371541
-0.074579038 0.50700146 -0.13800597
-0.04875996 0.50756842 -0.13432336
-0.17951974 -0.32391718 -0.11650395
-0.10122183 -0.2976518 -0.11881495
-0.10095149 -0.27105927 -0.12583876
-0.075044267 -0.27128571 -0.12289739
-0.10081042 -0.24480751 -0.12950361
-0.049008198 -0.24521831 -0.1235739
-0.10089672 -0.21897604 -0.12726176
-0.022992408 -0.21920091 -0.1236105
-0.10087004 -0.19295181 -0.12795472
0.0030119866 -0.19325978 -0.12223911
-0.1008525 -0.16694918 -0.12841046
0.029037492 -0.16728245 -0.12119615
-0.10083917 -0.14095804 -0.12875664
0.055071168 -0.14124967 -0.12117779
-0.10081463 -0.11496301 -0.12939441
0.055008478 -0.11496517 -0.12932158
0.081186131 -0.11537853 -0.11589813
-0.10079642 -0.088981628 -0.12986803
0.081091605 -0.089162454 -0.12203801
-0.1007873 -0.063011244 -0.13010466
0.081028305 -0.06307207 -0.12614906
-0.10078801 -0.03704641 -0.13008618
0.080977499 -0.03705135 -0.12944889
0.10727189 -0.037159458 -0.11540234
-0.10079221 -0.011081293 -0.12997699
0.10722357 -0.011081348 -0.1174947
0.080944993 -0.011081237 -0.13156056
-0.1007943 0.014885044 -0.12992251
0.10718335 0.014967347 -0.11923647
-0.1007971 0.040852547 -0.12984955
0.10715839 0.040999394 -0.12031734
-0.12749751 0.067186281 -0.11396921
-0.10072637 0.066776976 -0.13168776
0.1071381 0.067019284 -0.12119615
-0.12749326 0.093272552 -0.114061
-0.10072146 0.092725784 -0.13181508
0.10712203 0.09303157 -0.1218915
-0.10080342 0.11875966 -0.12968564
0.10711317 0.11904491 -0.12227571
-0.1007901 0.1447119 -0.1300317
0.10710471 0.14505321 -0.12264121
-0.10077678 0.17065865 -0.13037753
0.1071026 0.17107077 -0.12273288
-0.10076347 0.19660029 -0.13072348
0.10710429 0.19709699 -0.1226598
-0.10074876 0.22253394 -0.13110566
0.10711021 0.22313698 -0.12240362
-0.10073546 0.24846463 -0.13145137
0.10712584 0.24921326 -0.12172675
-0.10072637 0.27439922 -0.13168776
0.10714317 0.27530611 -0.12097645
-0.10071446 0.30032334 -0.13199699
0.10718165 0.30149537 -0.11930966
-0.10070325 0.32624465 -0.13228798
0.080948353 0.32633939 -0.13134217
0.10722781 0.32774332 -0.11731136
-0.10069905 0.35218108 -0.13239729
0.080994613 0.35261863 -0.12833762
0.10729565 0.35412344 -0.11437345
-0.10070395 0.37814313 -0.13226962
0.081057541 0.37906912 -0.12424994
-0.10072637 0.40416309 -0.13168776
0.054985505 0.40408701 -0.1323061
0.081138961 0.40573052 -0.11896157
0.05503796 0.43092665 -0.12549174
-0.10072216 0.45605332 -0.13179684
0.029037492 0.45666417 -0.12738955
0.055103615 0.45810899 -0.11696267
-0.10081182 0.48234615 -0.12946713
0.0030513536 0.48265538 -0.12735319
0.029037492 0.48438174 -0.11554921
-0.10091709 0.50873709 -0.12673295
-0.022972999 0.50902361 -0.12487102
0.0029531345 0.51060587 -0.11459422
-0.1010823 0.53542185 -0.12244022
-0.074831873 0.53423285 -0.12979507
-0.049055927 0.53557253 -0.12150717
-0.10129595 0.56238586 -0.11688936
-0.075182386 0.56212813 -0.11841178
-0.12810263 -0.35155156 -0.10086787
-0.12780376 -0.3247638 -0.10733879
-0.10168414 -0.32481322 -0.10680354
-0.075862534 -0.32578132 -0.096323371
-0.12765048 -0.2983425 -0.11065733
-0.075465418 -0.29846436 -0.10921991
-0.049596369 -0.29940554 -0.09810555
-0.12775007 -0.27239397 -0.10850108
-0.049297988 -0.2721996 -0.11102557
-0.023378799 -0.27316272 -0.098513722
-0.12769133 -0.24617448 -0.10977292
-0.023177659 -0.24604949 -0.11157787
0.002830347 -0.24694557 -0.098643541
-0.12764792 -0.2199952 -0.11071253
0.0029238202 -0.2199906 -0.11078608
0.029037492 -0.2208173 -0.097363234
-0.12763518 -0.19386603 -0.11098886
0.029037492 -0.19395638 -0.1093123
0.055263355 -0.19466232 -0.09621191
-0.12763092 -0.16774969 -0.11108088
0.055170599 -0.16787994 -0.10826123
-0.12762839 -0.14163612 -0.1111362
0.081308819 -0.14175965 -0.10792935
-0.12761477 -0.11551611 -0.11143064
0.10757976 -0.1158043 -0.1020714
-0.12759607 -0.089397982 -0.11183572
0.10743979 -0.089483619 -0.10813224
-0.12759095 -0.06329073 -0.11194599
0.10734619 -0.06328702 -0.11218536
0.13390379 -0.063514449 -0.097418904
-0.12759095 -0.037185986 -0.11194599
0.13380273 -0.037272617 -0.10070097
-0.12759435 -0.011081293 -0.11187232
0.13374001 -0.011081237 -0.10273778
-0.12759522 0.015024288 -0.11185396
0.13368534 0.015080729 -0.10451305
-0.12759522 0.041129705 -0.11185408
0.13365063 0.041225325 -0.10564029
0.1336239 0.067358598 -0.10650826
0.13360174 0.093482882 -0.10722804
-0.12759946 0.1194495 -0.11176205
0.1335898 0.119609 -0.10761559
-0.12759095 0.1455472 -0.11194599
0.13357843 0.14573018 -0.10798454
-0.12757736 0.17163613 -0.11224043
0.1335773 0.17186339 -0.10802162
-0.12756632 0.19772379 -0.11247957
0.13357958 0.19800296 -0.10794771
-0.12755357 0.22380528 -0.11275566
0.13358811 0.22415747 -0.10767114
-0.12754592 0.24989106 -0.112921
0.13360912 0.25034779 -0.10698807
-0.12754253 0.27598208 -0.11299467
0.13363357 0.2765578 -0.10619438
-0.12753318 0.30206001 -0.11319697
0.13368477 0.30286047 -0.10453176
-0.12753318 0.32815516 -0.11319697
0.13374627 0.32922223 -0.10253429
-0.12752809 0.35423845 -0.11330724
0.1338381 0.35572079 -0.099552155
-0.1275145 0.38029873 -0.11360145
0.10739041 0.38068321 -0.11027038
0.13396783 0.38240737 -0.095338583
-0.12754083 0.40646091 -0.11303139
0.10751099 0.407444 -0.10504901
-0.12756972 0.43263897 -0.11240602
0.081242159 0.43265846 -0.11225879
0.10766493 0.43447414 -0.098383784
-0.12752979 0.45862046 -0.1132704
0.081383906 0.4600364 -0.10305226
-0.12758331 0.48488462 -0.11211169
0.055209704 0.48619077 -0.10318172
-0.12767686 0.51129979 -0.1100862
0.029037492 0.51241702 -0.10283017
-0.12780887 0.53788102 -0.10722828
-0.023166327 0.53705877 -0.11231399
0.002850892 0.53883743 -0.1013124
-0.12798125 0.56465399 -0.10349607
-0.049360126 0.56383455 -0.10833514
-0.023373658 0.56544143 -0.098847628
-0.12820281 0.59167308 -0.098699093
-0.10159044 0.58980721 -0.10923851
-0.075642802 0.5908305 -0.10345924
-0.10201466 0.61796898 -0.098216772
-0.15536293 -0.40622503 -0.081006169
-0.15499407 -0.3791444 -0.087851524
-0.12862027 -0.37894928 -0.089661002
-0.10274206 -0.38006401 -0.079318404
-0.15483728 -0.35256308 -0.090760827
-0.1022321 -0.35238221 -0.092567444
-0.076281123 -0.35336673 -0.082729459
-0.15477204 -0.32618338 -0.091971517
-0.049907394 -0.32686085 -0.08463788
-0.15485135 -0.30004948 -0.090500116
-0.023581488 -0.3004857 -0.085348248
-0.15481018 -0.27372086 -0.09126389
0.0027254093 -0.27420202 -0.085011959
-0.15478209 -0.24742068 -0.091785431
0.029037492 -0.24788865 -0.085030556
-0.15475699 -0.22113207 -0.092251062
0.055359941 -0.22166081 -0.083665252
-0.15473694 -0.19485578 -0.092623234
0.081705734 -0.19542009 -0.08214879
-0.15473793 -0.16860308 -0.092604756
0.081509531 -0.16849746 -0.094892621
0.10801348 -0.16903335 -0.083290815
-0.15473393 -0.14234659 -0.092679143
0.10776358 -0.14229143 -0.0941118
0.13445766 -0.14285645 -0.079431057
-0.15472591 -0.11608896 -0.092828035
0.13421506 -0.11625889 -0.087310076
-0.15471587 -0.089832813 -0.093014121
0.13402967 -0.089825377 -0.093330503
0.16087121 -0.090181559 -0.0779109
-0.15471686 -0.063582435 -0.092995524
0.16071171 -0.063750863 -0.082055211
-0.15471786 -0.037332058 -0.092976809
0.16058278 -0.037390385 -0.085404396
-0.15472089 -0.011081348 -0.092921138
0.16050299 -0.011081293 -0.087478042
-0.1547239 0.015170358 -0.092865229
0.16043547 0.015198218 -0.089232087
-0.15461865 0.041391931 -0.094818354
0.16039097 0.041460026 -0.090388179
-0.15460163 0.067621276 -0.095134258
0.16035654 0.067710176 -0.091282606
-0.15459763 0.093853116 -0.095208526
0.1603293 0.09395206 -0.091990113
-0.15472591 0.12017819 -0.092827916
0.16031425 0.12019545 -0.092381239
-0.1547219 0.14642674 -0.092902541
0.16029993 0.14643356 -0.09275353
-0.15470985 0.17266607 -0.093125582
0.16029848 0.172684 -0.092790842
0.18729782 0.17355587 -0.076614976
-0.15470985 0.19891571 -0.09312582
0.16030279 0.19894314 -0.092678905
-0.15470183 0.22515506 -0.093274474
0.16031569 0.22521949 -0.092343926
-0.15470885 0.25141352 -0.093144417
0.1603422 0.25152797 -0.091655016
-0.15470885 0.27766284 -0.093144417
0.16037303 0.27785698 -0.09085393
-0.15470684 0.30390909 -0.093181491
0.16043833 0.30428073 -0.089157462
-0.15471186 0.33016753 -0.093088627
0.16051663 0.33076453 -0.087123156
-0.15470885 0.35641146 -0.093144417
0.16063246 0.35738468 -0.084114075
-0.15466875 0.38257492 -0.093888521
0.16079971 0.38420528 -0.079768777
-0.1547249 0.40894696 -0.092846751
0.13413405 0.40930474 -0.089940667
-0.15473393 0.43522069 -0.092679024
0.13434285 0.4364664 -0.083159924
-0.15467477 0.46132171 -0.093776941
0.10788747 0.46201879 -0.088747263
-0.15473492 0.48772967 -0.092660427
0.081590652 0.48817357 -0.08962369
-0.15480216 0.51417482 -0.091412902
0.055311631 0.5144015 -0.089940786
-0.15492569 0.5408082 -0.08912015
0.029037492 0.540748 -0.089493155
-0.15508161 0.56757885 -0.086226702
0.0027412344 0.5674364 -0.087067366
-0.15528925 0.59456384 -0.0823735
-0.049676575 0.59239334 -0.094632268
-0.023598475 0.59423238 -0.084245205
-0.15553074 0.62172407 -0.077892184
-0.12846196 0.61891645 -0.093088508
-0.076072842 0.61958081 -0.089493155
-0.04999733 0.6211974 -0.080743551
-0.12879442 0.64655161 -0.085890412
-0.10258771 0.6470449 -0.083328128
-0.18292357 -0.48799366 -0.061233044
-0.1826344 -0.46088409 -0.06592834
-0.18245989 -0.43407607 -0.068761945
-0.15592512 -0.43385306 -0.070573092
-0.12995955 -0.43507341 -0.060664296
-0.20962112 -0.40884569 -0.058311105
-0.18234372 -0.40742102 -0.070648551
-0.12932357 -0.40698388 -0.074434042
-0.10326762 -0.40799671 -0.065663576
-0.20959611 -0.38228914 -0.058671951
-0.18205151 -0.38048711 -0.075393319
-0.076723985 -0.38124654 -0.068346739
-0.18210247 -0.35418376 -0.074565649
-0.050239176 -0.35461348 -0.070271492
-0.023793587 -0.32806775 -0.071572304
-0.18225667 -0.30161077 -0.072062135
0.0026197769 -0.30167624 -0.071289301
-0.20962375 -0.2762605 -0.058273196
-0.18224043 -0.27517867 -0.072325826
0.029037492 -0.2752628 -0.071232796
-0.20960139 -0.24972014 -0.058595896
-0.18222883 -0.24875592 -0.072514057
0.055458982 -0.2488748 -0.070799351
-0.20957771 -0.22318377 -0.058937669
-0.18222186 -0.22234066 -0.072627068
0.081903413 -0.22254489 -0.069309354
-0.20955405 -0.19665247 -0.059279442
-0.18221374 -0.19592611 -0.072758913
0.10837212 -0.19619545 -0.067761302
-0.20953168 -0.17012738 -0.059602022
-0.18221374 -0.16951968 -0.072758913
0.13477805 -0.16969205 -0.069026351
-0.20950803 -0.14360645 -0.059943557
-0.1822091 -0.14311047 -0.072834134
0.16141762 -0.14346139 -0.063714981
-0.20948437 -0.11709107 -0.060284972
-0.18220331 -0.11670171 -0.072928309
0.16110577 -0.11673589 -0.07181716
-0.20946333 -0.090581581 -0.060588479
-0.1821975 -0.090294436 -0.073022485
0.18798375 -0.090554386 -0.061764121
-0.20944233 -0.064076811 -0.060891747
-0.1821952 -0.063889444 -0.073060155
0.18779227 -0.063999608 -0.065909505
-0.20940292 -0.037574694 -0.061460614
-0.18219289 -0.037485123 -0.073097944
0.18763874 -0.037514865 -0.069233894
-0.20936483 -0.011081348 -0.062010288
-0.18219401 -0.011081237 -0.07307899
0.18754205 -0.011081181 -0.071327329
-0.2093202 0.015402896 -0.062654495
-0.18219289 0.015322423 -0.073097825
0.18746114 0.015322646 -0.07307899
-0.20929004 0.041880369 -0.063090086
-0.18205267 0.041691341 -0.075374365
0.18740723 0.041708659 -0.074246049
-0.20924936 0.068347633 -0.063676953
-0.18205383 0.068078026 -0.07535553
0.1873664 0.068083182 -0.075130105
-0.2092205 0.094811112 -0.064093471
-0.1821894 0.094532236 -0.07315433
0.18733341 0.094449267 -0.075844646
0.21464244 0.09497872 -0.058652878
-0.20919167 0.12126817 -0.06450963
-0.18219057 0.12093624 -0.073135614
0.18731603 0.12081747 -0.076220512
0.21462095 0.12147829 -0.059051633
-0.20916285 0.14771901 -0.064925909
-0.18219289 0.14734162 -0.073097944
0.18729867 0.14717995 -0.076596022
0.2146005 0.14797263 -0.059431195
-0.20913531 0.1741643 -0.065323234
-0.18217431 0.17372914 -0.073399067
0.21460152 0.17448273 -0.05941236
-0.20911172 0.20060679 -0.065663695
-0.18210596 0.20006214 -0.074509263
0.1873039 0.19994047 -0.076483369
0.21460766 0.20099883 -0.059298277
-0.20908944 0.2270457 -0.065985084
-0.18205267 0.2263952 -0.075374365
0.18732038 0.22634299 -0.076126575
0.21462914 0.22753669 -0.058899879
-0.2090672 0.25347936 -0.066306472
-0.18205267 0.25278136 -0.075374365
0.18735337 0.25277844 -0.075412035
0.21466802 0.25410521 -0.058178306
-0.20904624 0.27990988 -0.066608787
-0.18205383 0.27916938 -0.07535553
0.1873942 0.27923936 -0.074528217
-0.20902398 0.30633402 -0.066930175
-0.18205383 0.30555573 -0.07535553
0.18746984 0.30578345 -0.072890639
-0.20901483 0.33277193 -0.067062378
-0.18205845 0.33194962 -0.075280309
0.18756643 0.33239794 -0.070799351
-0.2090122 0.35921815 -0.067100167
-0.1820631 0.35834467 -0.075205207
0.18770587 0.3591449 -0.067780018
-0.20900959 0.38566402 -0.067138076
-0.18206888 0.38474318 -0.07511127
0.18791202 0.38610488 -0.063317418
-0.20902529 0.41214141 -0.066911221
-0.18207932 0.41115233 -0.074941993
0.16101734 0.41125429 -0.074114203
-0.20904754 0.43863487 -0.066589952
-0.18208162 0.43754679 -0.074904323
0.16129096 0.43858042 -0.067005515
-0.20906588 0.46512544 -0.066325307
-0.18204109 0.46384561 -0.075562477
0.13464457 0.46415052 -0.073361397
-0.209096 0.49164501 -0.065890431
-0.18203761 0.49022225 -0.075618863
0.10820455 0.49031016 -0.075017214
0.13507058 0.49257579 -0.059526205
-0.20915626 0.51823837 -0.065020561
-0.1820851 0.5167253 -0.074847817
0.081795849 0.51650232 -0.076295495
0.10852814 0.51885647 -0.061005712
-0.20922314 0.54486018 -0.064055443
-0.18213956 0.54325837 -0.073963761
0.055420868 0.54296958 -0.07575047
0.082023956 0.54527652 -0.061479449
-0.20929265 0.57150358 -0.063052058
-0.18219171 0.56979907 -0.073116779
0.029037492 0.56956631 -0.074490428
0.055537581 0.57192081 -0.060588598
-0.20938192 0.5982129 -0.061764002
-0.18225551 0.59638613 -0.072080851
0.002628332 0.59632951 -0.072401047
0.029037492 0.5987097 -0.058956742
-0.20950407 0.62502968 -0.06000042
-0.18233211 0.62302744 -0.070836902
-0.023832785 0.623362 -0.069026351
-0.18245989 0.6498481 -0.068762064
-0.15575154 0.64887947 -0.073794246
-0.076524384 0.64868033 -0.074829221
-0.050356932 0.65053886 -0.065171838
-0.18259482 0.6767236 -0.066571116
-0.15584692 0.67563248 -0.072024345
-0.12926884 0.67491287 -0.075618863
-0.10316218 0.67635703 -0.068403363
-0.076978065 0.67801982 -0.060095191
-0.18274041 0.70366907 -0.064207077
-0.15592107 0.70233023 -0.070648432
-0.1298379 0.70385796 -0.063298225
-0.18294692 0.73086411 -0.060854197
-0.15606648 0.72933459 -0.06795013
-0.13000512 0.73111749 -0.059677839
-0.15623043 0.75645727 -0.064907193
-0.12997358 0.75747222 -0.060360909
-0.15641513 0.78371578 -0.061479688
-0.21080317 -0.57070941 -0.04124999
-0.18397482 -0.57023865 -0.044162631
-0.21051782 -0.54342657 -0.045368195
-0.18361348 -0.54270864 -0.05003047
-0.15751971 -0.54410183 -0.040981174
-0.21025431 -0.51625293 -0.049171567
-0.18324511 -0.51525247 -0.056011677
-0.15716791 -0.51649588 -0.047509909
-0.21004024 -0.4892368 -0.052261591
-0.15704443 -0.48957762 -0.049801469
-0.20987926 -0.46236855 -0.054585099
-0.15671389 -0.46219185 -0.05593574
-0.13062541 -0.46345961 -0.046248198
-0.20979491 -0.43567225 -0.055802703
-0.10385466 -0.43633613 -0.050412178
-0.077177636 -0.40938807 -0.05361402
-0.05093199 -0.41092876 -0.040271282
-0.024262203 -0.38417923 -0.041134715
-0.050577708 -0.38261881 -0.055612564
-0.23757027 -0.35767138 -0.039714694
-0.20970273 -0.35592833 -0.057133198
-0.024027007 -0.35600048 -0.056411147
0.0023936965 -0.35745075 -0.041920781
0.0025128499 -0.329377 -0.057399511
0.029037492 -0.33076617 -0.042361617
-0.20966981 -0.30283472 -0.057608366
0.029037492 -0.30289903 -0.056848168
0.055682763 -0.30417925 -0.041729093
-0.23739605 -0.27751487 -0.041978359
0.055570476 -0.27641106 -0.056316137
0.082338959 -0.27758864 -0.041019678
-0.2373503 -0.25083026 -0.042572618
0.082105801 -0.24988869 -0.056163907
0.10899678 -0.25095919 -0.040712595
-0.23730014 -0.22415139 -0.043223977
0.10868257 -0.22346821 -0.054318428
-0.23723231 -0.19747013 -0.044105053
0.13527021 -0.19698851 -0.053042769
-0.23716305 -0.17080158 -0.045004845
0.1618218 -0.17042246 -0.053214312
-0.23709534 -0.14414772 -0.045884848
0.18866596 -0.14410499 -0.046993852
-0.2370276 -0.11750726 -0.046764374
0.18827666 -0.11724076 -0.055422187
-0.23698495 -0.090888053 -0.047318697
0.21543463 -0.090965793 -0.04395175
-0.23693345 -0.064275384 -0.04798758
0.21520069 -0.064270824 -0.048293233
-0.23659857 -0.0376449 -0.052337646
0.21501458 -0.037649341 -0.051747203
0.21489446 -0.011081348 -0.05397594
-0.23652963 -0.011081237 -0.053233385
-0.23650031 0.01547249 -0.05361414
0.21479604 0.015455619 -0.055802584
-0.23672624 0.042071447 -0.050679088
0.2147315 0.041974217 -0.057000399
-0.2366866 0.068635941 -0.051194191
0.21468236 0.068480715 -0.05791235
0.24231781 0.068898723 -0.039810658
-0.23667194 0.095202431 -0.051384687
0.24227172 0.095535815 -0.040559053
-0.23667048 0.12177259 -0.05140388
0.2422469 0.12217456 -0.040961981
-0.23666899 0.14834248 -0.051422834
0.24222212 0.14880726 -0.04136467
-0.23668219 0.17492256 -0.051251411
0.24222091 0.17545423 -0.041383982
-0.23671158 0.20151806 -0.050869942
0.24222916 0.20211044 -0.041249752
-0.23674385 0.22812186 -0.050450325
0.24225517 0.22878861 -0.04082787
-0.23677619 0.2547324 -0.05003047
0.24230126 0.2554985 -0.040079474
-0.23680852 0.28134933 -0.049610496
0.21472125 0.28070751 -0.057190418
-0.23684232 0.30797443 -0.049171567
0.21481346 0.3073917 -0.055479288
-0.2368864 0.33461985 -0.048598886
0.21493448 0.33415595 -0.053233266
-0.23693638 0.36128223 -0.047949314
0.21510604 0.36105576 -0.050049543
0.21535932 0.3881799 -0.04534924
-0.23737095 0.41517216 -0.042304158
0.18818533 0.41331297 -0.057399273
-0.23701437 0.44120687 -0.046936393
0.18853715 0.44083431 -0.049782276
-0.23704381 0.46786505 -0.046554089
0.16168338 0.46644393 -0.05681026
-0.23708649 0.49455443 -0.045999527
0.16223803 0.49508092 -0.042400241
-0.23716159 0.52131689 -0.045023918
0.13552067 0.52133459 -0.044908881
-0.23727803 0.54818135 -0.043511391
0.10887822 0.54780382 -0.045846462
-0.23743443 0.57515693 -0.041479826
0.082269058 0.57446593 -0.045559525
0.055658728 0.60120714 -0.044851661
0.0025084615 0.62561554 -0.056829214
0.029037492 0.62824589 -0.04259181
-0.20969218 0.65205681 -0.057285428
-0.02407564 0.65283281 -0.053252339
0.0023795217 0.65536785 -0.040079236
-0.20991883 0.67923701 -0.054013968
-0.050728649 0.68022519 -0.0490762
-0.21024771 0.70677418 -0.049267054
-0.1037534 0.70598966 -0.05304265
-0.077466905 0.7078234 -0.04422009
-0.10386714 0.73318464 -0.05008769
-0.21064383 0.73459387 -0.043549538
-0.18316549 0.75815445 -0.057304263
-0.10395974 0.76030272 -0.047681808
-0.1834608 0.78578722 -0.052509308
-0.13009895 0.78460085 -0.057646275
-0.10406205 0.787516 -0.045023918
-0.18379694 0.8136521 -0.047051191
-0.15662886 0.81115532 -0.057513356
-0.13024475 0.81187689 -0.054489851
-0.1041837 0.81489015 -0.041863441
-0.15686771 0.8387711 -0.053080916
-0.13041811 0.83934861 -0.050736427
-0.21183607 -0.65341085 -0.026341438
-0.18517482 -0.65371829 -0.024676919
-0.21143597 -0.62562472 -0.032115698
-0.18474998 -0.6257202 -0.031575799
-0.15860406 -0.62761778 -0.020858407
-0.23892032 -0.60058844 -0.022177219
-0.21110918 -0.5981065 -0.036832809
-0.18435282 -0.59790456 -0.038024783
-0.15823567 -0.59965402 -0.027694941
-0.23858638 -0.57309145 -0.026515484
-0.15787806 -0.57182789 -0.03433156
-0.13170318 -0.57367361 -0.022914052
-0.23830377 -0.54576379 -0.030186653
-0.13139312 -0.54584998 -0.029626846
-0.23803659 -0.51852208 -0.033657432
-0.13122742 -0.51858675 -0.033214331
-0.23786764 -0.49151051 -0.035852075
-0.13104342 -0.49132404 -0.037198305
-0.10491306 -0.49330327 -0.022914052
-0.23776107 -0.46463886 -0.03723681
-0.10445434 -0.46495348 -0.03483212
-0.078164749 -0.46669075 -0.021556854
-0.051315837 -0.43963239 -0.023650289
-0.23770337 -0.43786657 -0.037986279
-0.077656485 -0.43785712 -0.038063169
-0.23764272 -0.41110158 -0.038773894
-0.024499493 -0.41260871 -0.025722146
-0.23761462 -0.38439423 -0.039138913
0.0022706371 -0.38581732 -0.025935054
0.029037492 -0.35901171 -0.026322007
0.055797644 -0.33220318 -0.02680552
0.082573585 -0.3055298 -0.025780439
0.10935146 -0.2787945 -0.025354505
0.13615021 -0.25208491 -0.024463892
0.13570721 -0.22442071 -0.038850665
0.16301341 -0.22544283 -0.022254825
0.16245896 -0.19787131 -0.036660075
0.18917435 -0.1712182 -0.035986662
0.21625026 -0.14480476 -0.028815627
0.21578611 -0.11779486 -0.037428856
0.24322118 -0.091400236 -0.025141478
0.24293546 -0.064555869 -0.029781222
0.24271573 -0.037791081 -0.033349395
0.24257109 -0.011081293 -0.035698175
0.24245264 0.015595585 -0.03762114
0.24237695 0.042253591 -0.038850665
0.27029631 0.069338322 -0.020780563
0.27023986 0.096119702 -0.021595597
0.27021164 0.12290426 -0.022002697
0.27018479 0.14968346 -0.022390604
0.27018341 0.17647667 -0.022410035
0.27018744 0.20327409 -0.022351742
0.27021834 0.23009942 -0.02190578
0.27027076 0.25695559 -0.021149397
0.24236865 0.28224897 -0.038985014
0.24247988 0.3090823 -0.037178993
0.24263625 0.3360168 -0.034639597
0.24285108 0.36309236 -0.031151414
-0.23760726 0.38888577 -0.039234757
0.24314849 0.39037684 -0.026322246
0.21569499 0.41556442 -0.039119601
0.21613063 0.44328782 -0.031035662
0.18902788 0.46888992 -0.039157987
0.21668427 0.471439 -0.020761132
0.18973877 0.49780592 -0.023766637
0.16281073 0.52401167 -0.027521014
0.13601086 0.55052888 -0.028989434
0.10925369 0.57717079 -0.029588103
-0.23766933 0.60234451 -0.038428068
0.082525961 0.60403597 -0.028873563
-0.23798321 0.62976849 -0.034350753
0.055791095 0.63100529 -0.027656198
-0.23835726 0.65740567 -0.029491544
0.029037492 0.65815347 -0.025606155
-0.23874877 0.68516314 -0.024405837
-0.024325771 0.68264127 -0.037006021
0.002246039 0.68549669 -0.02273953
-0.051118553 0.71032315 -0.032192826
-0.077696137 0.73605412 -0.036775351
-0.051344037 0.73914641 -0.022429347
-0.2110599 0.76256597 -0.03754437
-0.077773757 0.76330036 -0.034254432
-0.21165392 0.79122347 -0.028970122
-0.077858016 0.79063511 -0.031517863
-0.077959076 0.81814212 -0.02823627
-0.18488902 0.8446247 -0.029317737
-0.10433589 0.84250849 -0.037909269
-0.078088947 0.84593028 -0.024018407
-0.21336415 -0.73828614 -0.0042850971
-0.21278733 -0.70968634 -0.012610912
-0.24022381 -0.68423444 -0.0052447319
-0.18564688 -0.68196994 -0.017011881
-0.15940216 -0.68408006 -0.006047368
-0.21228318 -0.68141645 -0.019887686
-0.23974232 -0.6561529 -0.011499166
-0.15898862 -0.65574217 -0.013721824
-0.23929252 -0.62824029 -0.017342448
-0.13234945 -0.62973112 -0.0089219809
-0.1320243 -0.60164124 -0.015961051
-0.10562707 -0.60360539 -0.0043632984
-0.26724941 -0.57671988 -0.0040696859
-0.10537571 -0.5756166 -0.010894179
-0.26700905 -0.54934776 -0.0069081783
-0.10514474 -0.54781026 -0.016895056
-0.078751497 -0.55002624 -0.0025014877
-0.26671615 -0.52192855 -0.010367155
-0.10506544 -0.52067238 -0.018955469
-0.078713469 -0.52289832 -0.003736496
-0.078607969 -0.49548587 -0.0071626902
-0.26666492 -0.4949581 -0.010972261
-0.26665831 -0.46806577 -0.011050344
-0.051703833 -0.4686155 -0.0068495274
-0.26666659 -0.44119641 -0.01095283
-0.024763865 -0.44149217 -0.0085506439
-0.2665658 -0.41417667 -0.012142897
0.0021462869 -0.41444939 -0.0097813606
-0.26649481 -0.38721341 -0.012981296
0.029037492 -0.38752243 -0.010113478
-0.26644364 -0.36028633 -0.013585448
0.055926293 -0.36063573 -0.010093808
-0.26639083 -0.33336681 -0.014208794
0.082810581 -0.33371982 -0.010386705
0.10971697 -0.3069061 -0.0095274448
-0.26629356 -0.27956408 -0.015357852
0.13664503 -0.28010008 -0.0083943605
0.16359583 -0.25328621 -0.0071235895
-0.26625729 -0.25268617 -0.015786052
-0.26622105 -0.22581477 -0.016214132
0.19067027 -0.22659165 -0.0035992861
-0.26618317 -0.19894899 -0.016661525
0.18998162 -0.19884953 -0.018508554
-0.26614693 -0.17209101 -0.017089605
0.21703315 -0.17222044 -0.014286757
-0.26611069 -0.14523959 -0.017517328
0.24422006 -0.14557031 -0.0089218616
-0.26607448 -0.11839473 -0.017945051
0.24364525 -0.11838524 -0.018255949
-0.26606625 -0.091564059 -0.018042207
0.27135909 -0.091855094 -0.0054405928
-0.26605639 -0.064734735 -0.018158674
0.27102181 -0.064855561 -0.010308623
-0.2660498 -0.037907407 -0.018236637
0.27076107 -0.037939426 -0.014072537
-0.26604319 -0.011081293 -0.018314362
0.27058977 -0.011081237 -0.016545057
-0.26603499 0.015743542 -0.018411517
0.27045101 0.015742432 -0.018547416
-0.2660284 0.042567044 -0.018489242
0.27036488 0.04254701 -0.019790649
-0.26603994 0.069394439 -0.018353105
-0.26607448 0.096232146 -0.017944932
-0.26610905 0.12307625 -0.01753664
-0.26614362 0.14992671 -0.017128348
0.29851902 0.15060756 -0.002383709
-0.26617986 0.17678435 -0.016700625
0.29852206 0.17755789 -0.0023444891
-0.26623091 0.20365936 -0.016097307
0.2985296 0.20451236 -0.0022464991
-0.26629025 0.23055056 -0.015396595
-0.26635456 0.25745696 -0.014637232
-0.26641724 0.28437343 -0.013897181
0.27035412 0.28386113 -0.019945979
-0.26649645 0.31131941 -0.012961626
0.27049005 0.31085545 -0.017983913
-0.26658067 0.33828571 -0.011967301
0.27068821 0.33796981 -0.015124321
-0.26666659 0.36526921 -0.010952711
0.27095962 0.36524212 -0.011206388
-0.26671946 0.39222369 -0.010328174
0.27130213 0.39269316 -0.0062624216
-0.2667608 0.41917074 -0.0098400116
0.2435603 0.41796437 -0.01963532
-0.26680547 0.44613048 -0.0093127489
0.24411061 0.44594917 -0.010699034
-0.26677072 0.47296843 -0.0097228289
-0.26670459 0.49974594 -0.010503888
0.217608 0.50075293 -0.0036188364
-0.26671121 0.52664351 -0.010425925
0.19046865 0.5270226 -0.0079642534
-0.26681867 0.55373502 -0.0091564655
0.16344918 0.55344784 -0.010933161
-0.2670041 0.58100194 -0.0069670677
0.13653801 0.58017153 -0.011869669
-0.26732743 0.60859078 -0.0031484365
0.10965567 0.60699141 -0.012181878
0.082796462 0.63402629 -0.011304021
0.055928849 0.66120255 -0.0097618103
0.029037492 0.68845379 -0.0079643726
-0.23923866 0.71326441 -0.018042088
-0.024596499 0.71297759 -0.019421816
0.0021066908 0.71605045 -0.004637599
-0.23974682 0.7415148 -0.011440516
-0.024782529 0.74239898 -0.0073384047
-0.24045761 0.77045459 -0.0022072792
-0.051404528 0.76652491 -0.019810081
-0.024823809 0.76990765 -0.0046572685
-0.051469602 0.7939896 -0.016992331
-0.21240295 0.82054698 -0.018158793
-0.051546931 0.8216244 -0.013643861
-0.051649213 0.84957695 -0.0092149973
-0.21401058 -0.76723087 0.0050451756
-0.24140461 -0.74127483 0.010094404
-0.18718247 -0.74082363 0.0079231262
-0.16030818 -0.74141461 0.010766268
-0.24074785 -0.7125231 0.0015625954
-0.18662748 -0.71199238 -0.0010889769
-0.15984507 -0.71264511 0.0021719933
-0.13343056 -0.71510947 0.014485002
-0.13304642 -0.68643087 0.0061682463
-0.26847726 -0.66020435 0.010430217
-0.13269129 -0.65799636 -0.0015207529
-0.10616228 -0.66004026 0.00954175
-0.26792622 -0.63200551 0.0039229393
-0.10588318 -0.63171631 0.0022901297
-0.079336159 -0.63422978 0.016486049
-0.26753172 -0.60421968 -0.00073564053
-0.079130836 -0.6060071 0.0098178387
-0.078935988 -0.57794195 0.0034899712
-0.05216042 -0.55240077 0.012921333
-0.052133933 -0.52516693 0.011774063
-0.052073248 -0.49774575 0.0091468096
-0.02503421 -0.47069076 0.0090085268
0.0020119715 -0.4434897 0.007666707
0.029037492 -0.4163411 0.0066018105
0.056056336 -0.38934508 0.0067989826
0.083070628 -0.36229667 0.0065033436
0.11008991 -0.33529103 0.0066215992
0.13714445 -0.30837542 0.0078245401
0.16423878 -0.28148392 0.009581089
0.19137576 -0.25458869 0.011675358
0.21866895 -0.22780293 0.01606977
0.2178417 -0.19988546 0.00071752071
0.24516761 -0.17317888 0.0064640045
0.27257779 -0.14638153 0.01214993
0.27187017 -0.11900687 0.0019360781
0.29988164 -0.092334539 0.015316844
0.29947808 -0.065169394 0.010074735
0.2991789 -0.038095489 0.006188035
0.29898179 -0.011081237 0.0036277771
0.29882434 0.015897438 0.0015823841
0.29872751 0.04285669 0.00032484531
0.29865345 0.069803566 -0.00063753128
0.29859152 0.096740231 -0.0014420748
0.29855376 0.1236769 -0.001932621
0.29856735 0.23149559 -0.0017561913
0.29862776 0.25850898 -0.00097107887
0.29873207 0.28558284 0.0003837347
0.29889247 0.31274465 0.002466917
0.29913792 0.34004927 0.005656004
0.2994644 0.3675164 0.0098968744
0.29988164 0.39518479 0.015316844
0.27180481 0.42050508 0.00099277496
0.27249837 0.44878906 0.011003256
0.24492387 0.47466311 0.0025066137
0.2185057 0.53025645 0.013040066
0.19124712 0.55665255 0.0088900328
0.16414233 0.5833801 0.0070751905
0.13708615 0.61019862 0.0059316158
-0.26777628 0.63651252 0.0021523237
0.11008035 0.63726169 0.0062075853
-0.2682566 0.66458696 0.0078245401
0.083076693 0.6644088 0.0068975687
-0.26884237 0.69299853 0.014742374
0.05607152 0.69180334 0.0087716579
0.029037492 0.71930134 0.011003375
0.0020078719 0.74574822 0.0081994534
0.0019862838 0.77340376 0.011003256
-0.24135749 0.80010366 0.0094823837
-0.024869384 0.79752189 -0.0016973019
0.0019628368 0.80115855 0.014049411
-0.024924112 0.82532358 0.0018573999
-0.024995642 0.85344875 0.0065033436
-0.21536213 -0.79859114 0.024552822
-0.18815756 -0.79841334 0.023756623
-0.16142529 -0.80014139 0.031497121
-0.24261577 -0.7717104 0.025827885
-0.1877965 -0.77000028 0.01789403
-0.1608378 -0.77058244 0.020594358
-0.13428375 -0.773247 0.032956958
-0.13383858 -0.74402356 0.023318648
-0.10711285 -0.74629313 0.034238338
-0.27013591 -0.71821845 0.030017972
-0.1067715 -0.71728802 0.025369644
-0.26926053 -0.68903148 0.019680619
-0.10645171 -0.68852735 0.017060995
-0.079781137 -0.69119775 0.030937314
-0.079553902 -0.66262966 0.023557663
-0.29762715 -0.63718861 0.033197403
-0.052588947 -0.63688409 0.031477094
-0.052435942 -0.60855311 0.02485168
-0.052293599 -0.58039886 0.018687725
-0.025430663 -0.58299696 0.034758925
-0.025343223 -0.55488843 0.029079437
-0.025324477 -0.52751988 0.027861953
-0.29729289 -0.50057691 0.029578686
-0.025299912 -0.50011796 0.026266575
-0.29728368 -0.47336963 0.029478908
0.0018752329 -0.47283968 0.025429487
-0.29727998 -0.44617125 0.029438853
0.029037492 -0.44558668 0.024692416
-0.29727998 -0.4189781 0.029438853
0.056187637 -0.41833353 0.023856163
-0.29728368 -0.39178932 0.029478908
0.083338402 -0.39118764 0.02389586
-0.29724675 -0.36455601 0.029079437
0.11049528 -0.36406517 0.024174571
-0.29720807 -0.33732682 0.028660059
0.13765219 -0.33692533 0.024313927
-0.29717118 -0.31010595 0.028261065
0.16488253 -0.30994046 0.026306272
-0.29713616 -0.28289261 0.027881861
0.19215198 -0.28293884 0.028480768
-0.29710114 -0.25568524 0.027502894
0.21951964 -0.25598693 0.031857014
-0.29706797 -0.22848488 0.027143717
-0.29703483 -0.20129022 0.026784897
0.24610269 -0.2010134 0.02164793
-0.29699984 -0.17409998 0.026405931
0.27370232 -0.17419112 0.028380752
-0.29696667 -0.1469164 0.02604723
0.30134436 -0.14723469 0.034318447
-0.29693538 -0.11973895 0.025708437
0.30050069 -0.11966664 0.023358464
-0.29694274 -0.092576399 0.025788188
-0.2969501 -0.065412588 0.02586782
0.32834122 -0.06550011 0.031556964
-0.29695746 -0.038247552 0.02594769
0.32799962 -0.038259707 0.027522922
-0.29697037 -0.011081293 0.026087046
0.32776836 -0.011081237 0.024791837
-0.29698876 0.016087631 0.026286364
0.32758969 0.016059769 0.022681952
-0.29700902 0.043259937 0.026505709
0.32748359 0.043181572 0.021428943
-0.29705507 0.070441797 0.027004361
0.32740116 0.07029061 0.020455241
-0.29713801 0.097643852 0.027901769
0.32733387 0.09739016 0.019660711
-0.29722098 0.12485978 0.028800011
0.32729015 0.12448806 0.019144416
-0.29730394 0.15208948 0.029698491
0.32724813 0.15157922 0.018648267
-0.29739624 0.17933837 0.030697465
0.32725319 0.17869231 0.018707752
-0.2975052 0.20661378 0.031876922
0.32726327 0.20581023 0.018826723
-0.29761606 0.23390891 0.03307724
0.32731536 0.23296423 0.01944232
-0.29772517 0.2612209 0.034258246
0.32738769 0.26014617 0.020296335
0.32752401 0.28740516 0.021906376
0.32771105 0.31474429 0.024114847
0.32801649 0.34225753 0.027722239
0.32841232 0.36994126 0.032396913
0.30045626 0.42318863 0.022781491
0.30133665 0.45182714 0.034218073
0.2735351 0.47791389 0.02596736
0.24588494 0.50393158 0.018112421
0.21945934 0.56018424 0.0307374
0.19209391 0.58679229 0.027223587
0.16485876 0.61369658 0.025688529
0.13766629 0.64069146 0.024772167
0.11052059 0.66794461 0.025270104
0.083373055 0.69528115 0.02614677
-0.269481 0.72164601 0.02228415
0.056219861 0.72284257 0.028041601
-0.2702679 0.75078696 0.031576991
0.029037492 0.74923867 0.024393678
0.029037492 0.77704257 0.027303457
0.029037492 0.80494785 0.030457616
-0.24294294 0.83205807 0.030078173
0.0019341577 0.82912207 0.017775178
0.029037492 0.83309877 0.034438491
0.0018973015 0.85740489 0.022562623
-0.18956164 -0.83082801 0.046555996
-0.16242382 -0.83162987 0.050027609
-0.24419899 -0.80346704 0.046394587
-0.13477971 -0.80286443 0.043695092
-0.10747917 -0.77557445 0.043755293
-0.27119008 -0.74800354 0.042467475
-0.080317363 -0.74922651 0.048351288
-0.08003962 -0.72008258 0.039331794
-0.29882208 -0.69412202 0.046132565
-0.052919954 -0.69405991 0.045809984
-0.29796028 -0.66507679 0.036803365
-0.052749947 -0.66538072 0.038448215
-0.025622847 -0.63967514 0.047241569
-0.025523646 -0.61125386 0.040798545
0.0016760752 -0.58567107 0.051300883
0.0017192736 -0.55744559 0.045689106
0.001730131 -0.52992111 0.04427886
0.0017357096 -0.50251335 0.043554068
0.029037492 -0.47514582 0.043050885
0.056328434 -0.44773626 0.042145491
0.083611324 -0.42038503 0.041622639
0.11090519 -0.39313063 0.041924357
0.13820869 -0.36588761 0.042386889
0.16553245 -0.33866924 0.043191791
0.19293657 -0.31156293 0.045467496
0.22042371 -0.28449023 0.048634052
0.24802475 -0.25744191 0.052858353
0.24704587 -0.22908965 0.036963582
0.27474657 -0.20218834 0.043453336
0.30263299 -0.17523864 0.051058412
0.32957375 -0.12036724 0.046112418
0.32881603 -0.092839137 0.037164211
0.35723823 -0.038431305 0.049825549
0.35697716 -0.011081237 0.046999693
0.35678169 0.016230702 0.044883013
0.35667562 0.043525051 0.043735385
0.3565864 0.070805863 0.042769074
0.35651204 0.098076835 0.041964293
0.35646749 0.12534782 0.041481853
0.35641921 0.15260954 0.04095912
0.35643217 0.17989901 0.041100025
0.35644335 0.2071892 0.041220665
0.35651577 0.23452738 0.042004704
0.35660312 0.26189014 0.042950392
-0.29784361 0.28855976 0.035540462
0.35678354 0.28935242 0.044903278
-0.29798251 0.31593874 0.037043929
0.3570163 0.31689751 0.047423244
-0.29812151 0.34334108 0.038548708
0.35737076 0.34461325 0.051260471
-0.29821241 0.37071028 0.039532542
-0.29825321 0.39803207 0.03997457
0.32894349 0.39788133 0.038669229
-0.29826435 0.42532131 0.040095091
0.32969156 0.42623368 0.047503829
-0.29811966 0.45239133 0.038528681
0.30264702 0.48141572 0.051240325
0.27466151 0.50745821 0.042225957
0.24695331 0.53370816 0.035460114
0.22047377 0.59057546 0.04956305
-0.29843703 0.61657828 0.041964531
0.19299616 0.61742687 0.046757698
-0.2987867 0.64456701 0.045749545
0.16560531 0.64444429 0.045084596
-0.29920053 0.67274809 0.050229669
0.13828121 0.67169195 0.044742107
0.11097493 0.69904304 0.04494369
0.08368355 0.72664046 0.046314001
0.056319147 0.75280505 0.040939093
-0.27113557 0.78028417 0.041823626
0.056342065 0.78075129 0.043916464
-0.27181828 0.80943447 0.049886346
0.056367505 0.80881929 0.047221541
0.056399532 0.83714193 0.051381588
0.029037492 0.86156535 0.039452195
-0.24611522 -0.83653921 0.071286798
-0.21738628 -0.8324939 0.053769231
-0.1355373 -0.83395517 0.060096979
-0.10838793 -0.83563387 0.067365646
-0.2735768 -0.80888259 0.0706532
-0.10787474 -0.80517209 0.054032326
-0.08093112 -0.8083536 0.068283796
-0.27259007 -0.77886063 0.059000373
-0.080610886 -0.77861983 0.057883859
-0.30051047 -0.75256425 0.064409852
-0.053321756 -0.75231463 0.063208699
-0.29973149 -0.72341418 0.055977345
-0.053112179 -0.72304511 0.054133534
-0.025968192 -0.72615516 0.069672585
-0.025840173 -0.69705218 0.06135726
-0.025728019 -0.66826737 0.054072857
0.001529146 -0.6712817 0.070387483
0.001581274 -0.64257425 0.063615799
0.0016302411 -0.61404079 0.05725503
0.029037492 -0.58841652 0.068283916
0.029037492 -0.56007087 0.062740564
0.029037492 -0.53238338 0.061113358
0.029037492 -0.5049324 0.061011791
0.056473039 -0.47748557 0.06093049
0.08390107 -0.44998989 0.060442686
0.11131972 -0.42249244 0.0598737
0.13876905 -0.39514172 0.060584784
0.1662301 -0.36778206 0.061316609
0.19373626 -0.34047878 0.062781096
0.22133639 -0.31326526 0.065571308
0.24905771 -0.28610656 0.069631457
0.27579835 -0.23042436 0.058634996
0.30378318 -0.20340325 0.065999389
0.33055165 -0.14813314 0.057660699
0.359115 -0.12110719 0.070142388
0.35819834 -0.093371585 0.060219169
0.35761747 -0.06584464 0.053931236
0.38680765 0.2090849 0.072002769
0.35784957 0.37253278 0.056443453
0.35853845 0.40079492 0.063900828
0.33090773 0.45544538 0.061865807
0.30399045 0.51132929 0.068692088
0.27590251 0.53750759 0.060137868
0.24809955 0.5639568 0.054072857
0.22153866 0.62142271 0.069325209
0.19392444 0.64846653 0.066855788
0.16638443 0.67565346 0.065326571
-0.29974461 0.70127982 0.056119323
0.1389094 0.70308602 0.065143228
-0.3004559 0.73027897 0.063819408
0.11144754 0.73060912 0.06540823
0.083865114 0.75650561 0.058107138
0.083911404 0.78459048 0.061113358
0.083965912 0.81284511 0.06465435
-0.27273628 0.8393721 0.060727239
0.08403217 0.84133625 0.068957567
0.056439437 0.86578101 0.056565404
-0.19206613 -0.86785793 0.087224007
-0.10922854 -0.8683306 0.089205384
-0.16421053 -0.86689401 0.083184958
-0.13671689 -0.86747903 0.085636139
-0.27458745 -0.83914942 0.082588315
-0.081320286 -0.83876467 0.080922723
-0.053790227 -0.81174922 0.083493948
-0.3021878 -0.78394026 0.082567692
-0.053543754 -0.78183943 0.072821021
-0.026259383 -0.78523761 0.088585973
-0.026109451 -0.75556493 0.078847408
0.0014092233 -0.72941625 0.085965991
0.0014728699 -0.70019674 0.077697992
0.029037492 -0.67440736 0.08730638
0.029037492 -0.6455766 0.080573082
-0.30148607 -0.61704117 0.07497108
0.029037492 -0.61690933 0.074192762
-0.30236277 -0.59103167 0.084461689
0.056663543 -0.59122825 0.085677385
-0.30234563 -0.5633865 0.084276438
0.056620769 -0.5627467 0.080120921
-0.30151826 -0.5344612 0.07531929
0.056607172 -0.5349052 0.078354836
0.056607485 -0.50734121 0.078395844
0.084194869 -0.47991893 0.079525352
0.1117636 -0.45228711 0.079093814
-0.33032608 -0.42573169 0.087925434
0.13933264 -0.4246881 0.078888535
-0.33031577 -0.39807722 0.087822318
0.16693489 -0.39719409 0.079627991
-0.32977346 -0.3698923 0.082403183
0.1945789 -0.36975428 0.081025243
-0.32970965 -0.34223244 0.081765413
0.22227776 -0.34235033 0.083040953
-0.32966229 -0.3145965 0.081292629
0.25010934 -0.31505519 0.086708307
-0.32961911 -0.286971 0.080860972
-0.32958618 -0.25935924 0.080531955
0.27691457 -0.25895828 0.074745655
-0.32955948 -0.23175627 0.080264807
0.3049446 -0.23180699 0.081086993
-0.32955125 -0.20416746 0.080182672
0.33325601 -0.20467493 0.089597821
-0.32954299 -0.17657991 0.080100536
0.33199316 -0.17632978 0.074684143
-0.3295348 -0.1489937 0.080018163
0.36021531 -0.14907207 0.082053542
-0.32952654 -0.12140866 0.079936147
-0.32958004 -0.093839154 0.080470324
-0.32965204 -0.066264257 0.081189752
-0.3297261 -0.038678549 0.081930161
-0.32979816 -0.011081237 0.082650304
-0.33018366 0.016550982 0.086502075
0.38799882 0.016531114 0.083905697
-0.33021668 0.044188585 0.086831927
0.3878814 0.044125427 0.08273232
-0.33027035 0.07183595 0.08736825
0.38774762 0.07169798 0.081395388
-0.33039838 0.099514291 0.088647842
0.38752756 0.099223316 0.079196572
-0.33052653 0.12721255 0.089928031
0.38718468 0.12666774 0.075770378
0.38694689 0.1541077 0.07339406
0.38687727 0.18160164 0.072698355
0.38689363 0.23666528 0.072862029
0.38697353 0.26425409 0.073660254
0.38732833 0.29208788 0.077205777
0.38798648 0.3202562 0.083782196
0.35958189 0.4296445 0.075196505
-0.30156937 0.48482901 0.075872779
0.33234397 0.48523831 0.078827024
-0.30200166 0.51306415 0.080552697
-0.30218402 0.54095465 0.082526803
0.30543768 0.54171908 0.087491989
-0.30148607 0.56733507 0.074970961
0.2772215 0.56801462 0.079176068
-0.30172092 0.59530914 0.077513456
0.24929701 0.59463221 0.073516965
0.22265112 0.65273684 0.089969754
0.19489761 0.68000251 0.087925434
0.16719867 0.70735675 0.086481452
0.13956073 0.7349506 0.086295843
-0.30155042 0.76029062 0.075667739
0.11168306 0.76027727 0.075606227
0.11175458 0.78851742 0.078704
-0.30286586 0.79101849 0.089907408
0.11184002 0.816944 0.082403183
0.1119442 0.84562141 0.086914539
-0.246372 0.87022913 0.074622631
-0.21954982 0.87278485 0.084997416
0.084114663 0.87015355 0.074315548
-0.24773325 -0.86907047 0.09230566
-0.22010635 -0.86924332 0.093029737
-0.081950516 -0.87123817 0.10138953
-0.054071195 -0.84216815 0.095659852
-0.30456924 -0.81729752 0.10834765
-0.026427394 -0.81532228 0.099498749
0.0012618117 -0.78880042 0.10511529
0.001338426 -0.75895607 0.095162749
-0.331011 -0.73117828 0.094769239
0.029037492 -0.73282379 0.10299122
0.029037492 -0.70345026 0.094603419
0.056811087 -0.67764753 0.10484433
0.05675827 -0.64865905 0.097982883
0.056708835 -0.61985081 0.091561079
0.084654368 -0.62286693 0.10937047
0.084561922 -0.59408778 0.1033659
0.084477127 -0.56547767 0.097858429
0.084446795 -0.53746963 0.095888138
0.084445834 -0.50975639 0.095825911
0.11221276 -0.4824079 0.098543406
0.13993019 -0.45465207 0.098294258
0.16765656 -0.42693844 0.098377466
0.1954312 -0.3993333 0.099477887
0.22327659 -0.37181109 0.10157681
0.25120831 -0.34433752 0.10455275
0.27928451 -0.31693873 0.108953
0.2780939 -0.28781062 0.091767907
0.30622292 -0.26054814 0.09769249
0.33453822 -0.2332636 0.10474026
0.36168107 -0.17740311 0.097920656
-0.33065474 0.15493035 0.091209769
-0.33079344 0.18267386 0.092595577
-0.33094257 0.21044481 0.094085813
-0.33109185 0.23823898 0.095577359
-0.33125994 0.26607051 0.097256899
-0.33145517 0.29395103 0.099207759
-0.3316527 0.32186335 0.10118186
-0.33183587 0.34979206 0.10301232
-0.33192337 0.37764588 0.10388637
0.3612197 0.45951021 0.092926502
0.33397484 0.51562852 0.098086834
0.30699974 0.57263958 0.10778427
0.27863812 0.59905356 0.099623084
0.250579 0.62585056 0.094334364
0.19589391 0.71196312 0.109496
0.16804673 0.73956859 0.10851443
0.13978657 0.76416224 0.093630195
0.13988738 0.79258031 0.096904278
0.14000246 0.82115591 0.10064137
0.14014663 0.85001451 0.10532367
0.11208495 0.87475842 0.093009353
-0.19429378 -0.90440631 0.12339628
-0.054536156 -0.87467551 0.11579323
-0.026617995 -0.84591353 0.11187851
0.0011758991 -0.81906748 0.11627543
0.029037492 -0.79250503 0.12230229
-0.33313593 -0.76328772 0.11600304
0.029037492 -0.76251733 0.1122967
0.056933824 -0.736386 0.12078846
0.056868136 -0.70684731 0.11225486
0.084863178 -0.68098962 0.12293339
0.084754869 -0.65183115 0.11589837
0.11288843 -0.62598807 0.12780035
0.11274493 -0.59703338 0.12158728
0.11261404 -0.56825817 0.11591923
0.11256663 -0.54009914 0.11386633
0.11254439 -0.51212269 0.11290336
0.1405323 -0.48493415 0.1178484
0.16841488 -0.45708889 0.11807919
0.19631265 -0.42926919 0.11856198
0.22428691 -0.4015801 0.12032604
0.25235191 -0.37396729 0.12312269
0.28055525 -0.34643829 0.12729418
0.30755502 -0.28959882 0.11499715
0.33601999 -0.26224881 0.12223899
0.3631154 -0.20595999 0.11344743
-0.33428487 0.43608475 0.12748396
0.36276579 0.48951122 0.10966289
0.33572641 0.54653502 0.11877215
0.28014818 0.63064605 0.12141907
0.25189668 0.65749633 0.11573064
-0.33317786 0.68548685 0.11642241
0.22383508 0.68462443 0.11194122
-0.33432922 0.71565205 0.12792695
0.19675398 0.74364299 0.12811673
0.16818829 0.76816303 0.11219215
0.16831882 0.79675049 0.11558378
-0.30494374 0.82387185 0.11240137
0.1684674 0.8254981 0.11944389
0.16866329 0.85459858 0.1245333
-0.166921 -0.90689141 0.1334846
-0.13952139 -0.91006196 0.14635503
-0.026923614 -0.87847841 0.13172889
0.0010777581 -0.84987319 0.12902427
0.029037492 -0.82298964 0.13384449
-0.33607104 -0.7974689 0.14533257
0.057085752 -0.79643267 0.14052463
0.057007305 -0.76626623 0.13033378
0.085118324 -0.74013203 0.13950503
0.084980376 -0.71036732 0.13054514
-0.33441791 -0.68207592 0.12881327
0.11321124 -0.68447119 0.14177835
-0.33570686 -0.6563983 0.14169347
0.1130412 -0.65510976 0.13441598
0.14142518 -0.62921357 0.14684546
0.14122139 -0.60004658 0.14022696
0.14104114 -0.57109964 0.13437378
0.14097208 -0.54277045 0.1321305
0.14091414 -0.51452619 0.13024938
-0.33526278 -0.48747396 0.13725555
0.16918318 -0.48757663 0.13804054
-0.33477738 -0.45885345 0.13240552
0.19723682 -0.45961294 0.1385709
0.22533983 -0.43172926 0.13986599
0.25351784 -0.40392193 0.14205492
0.28186843 -0.37628162 0.1462487
0.3089 -0.31893012 0.13246894
0.33756298 -0.29155901 0.14046085
0.36463428 -0.23481253 0.12989032
-0.33513761 0.40912068 0.13600492
0.36480805 0.52055544 0.13177121
0.33761695 0.57802498 0.14109826
0.30864295 0.60405076 0.12913001
-0.33444959 0.63201129 0.12913013
-0.33528826 0.66152012 0.13751006
0.28174448 0.66280401 0.14445925
