ply
format ascii 1.0
comment PCL generated
element vertex 1336
property float x
property float y
property float z
element camera 0
property float view_px
property float view_py
property float view_pz
property float x_axisx
property float x_axisy
property float x_axisz
property float y_axisx
property float y_axisy
property float y_axisz
property float z_axisx
property float z_axisy
property float z_axisz
property float focal
property float scalex
property float scaley
property float centerx
property float centery
property int viewportx
property int viewporty
property float k1
property float k2
end_header
0.20479977 0.45633948 -0.1980902
0.17816049 0.48074824 -0.21016288
0.20480075 0.48242372 -0.19807172
0.15221897 0.50691646 -0.20893586
0.20480172 0.50850815 -0.19805372
0.12639615 0.53379148 -0.20324087
0.20480271 0.53459293 -0.19803548
0.12639672 0.55983639 -0.20322299
0.20480271 0.56067508 -0.19803536
0.12642014 0.58600754 -0.20246208
0.20480172 0.58675396 -0.19805372
0.15241238 0.61179888 -0.20391083
0.20480172 0.612836 -0.1980536
0.17837988 0.63755822 -0.20541286
0.20480075 0.63891453 -0.19807184
0.15332381 -0.72118509 -0.18023121
0.12695566 -0.69396007 -0.18507051
0.10080845 -0.66807872 -0.18356895
0.10072012 -0.64114922 -0.18739367
0.10072012 -0.61498517 -0.18739367
0.10087027 -0.58997238 -0.18089187
0.12663986 -0.58741659 -0.19532681
0.12704648 -0.56355017 -0.18212104
0.1791674 -0.5363366 -0.18836212
0.17928816 0.45795473 -0.18574762
0.152733 0.4827688 -0.19558132
0.1270849 0.48480669 -0.18087363
0.10089952 0.51120347 -0.17962539
0.12666956 0.5090481 -0.19436216
0.10072012 0.53623128 -0.18739355
0.10072012 0.56239527 -0.18739367
0.10077504 0.58896208 -0.18501568
0.12691228 0.61488515 -0.18647933
0.15313403 0.64129955 -0.18516195
0.20624511 -0.74940521 -0.17126787
0.10119066 -0.69771218 -0.16701829
0.10117785 -0.56601387 -0.16757333
0.12764156 -0.54046959 -0.16279531
0.15350071 -0.53839391 -0.17563593
0.20627694 -0.51290274 -0.1706773
0.20649804 0.43413952 -0.16657448
0.12776162 0.46146864 -0.15889633
0.15362622 0.4597047 -0.17237473
0.10121375 0.48686507 -0.16601896
0.10114796 0.61800361 -0.16886723
0.12761474 0.645271 -0.16366661
0.20593835 0.66905916 -0.17696035
0.18125196 -0.91468835 -0.14323008
0.18125196 -0.88818437 -0.14323008
0.18125196 -0.86168027 -0.14323032
0.18125196 -0.83517635 -0.1432302
0.18125196 -0.80867237 -0.1432302
0.18125196 -0.78216839 -0.1432302
0.18125196 -0.75566435 -0.1432302
0.23378852 -0.75395542 -0.15088522
0.1278206 -0.72619665 -0.15698063
0.23378852 -0.72751039 -0.15088511
0.23378736 -0.70106149 -0.1509037
0.23378736 -0.67461658 -0.1509037
0.23378736 -0.64817166 -0.1509037
0.23378736 -0.62172675 -0.1509037
0.23378736 -0.59528172 -0.1509037
0.23378621 -0.56883383 -0.15092242
0.23378736 -0.54239213 -0.1509037
0.15468304 -0.51686877 -0.14491749
0.18057647 -0.51487684 -0.15785515
0.23378736 -0.51594722 -0.1509037
0.1812537 -0.49062997 -0.14319277
0.1812537 -0.46412575 -0.14319265
0.1812537 -0.43762147 -0.14319277
0.1812537 -0.4111172 -0.14319265
0.1812537 -0.38461289 -0.14319277
0.1812537 -0.35810873 -0.14319265
0.1812537 -0.33160445 -0.14319253
0.1812537 -0.30510023 -0.14319265
0.1812537 -0.27859592 -0.14319265
0.1812537 -0.25209168 -0.14319265
0.1812537 -0.22558735 -0.14319265
0.1812537 -0.1990831 -0.14319265
0.1812537 -0.1725788 -0.14319265
0.1812537 -0.14607455 -0.14319265
0.1812537 -0.11957024 -0.14319277
0.1812537 -0.093065977 -0.14319277
0.1812537 -0.066561669 -0.14319277
0.1812537 -0.040057588 -0.14319265
0.1812537 -0.013553282 -0.14319265
0.1812537 0.012950971 -0.14319265
0.1812537 0.039455391 -0.14319265
0.1812537 0.065959647 -0.14319253
0.1812537 0.092463955 -0.14319265
0.1812537 0.1189681 -0.14319277
0.1812537 0.14547251 -0.14319265
0.1812537 0.17197666 -0.14319277
0.1812537 0.19848107 -0.14319265
0.1812537 0.22498521 -0.14319277
0.1812537 0.25148964 -0.14319289
0.1812537 0.27799359 -0.14319265
0.1812537 0.30449802 -0.14319265
0.1812537 0.33100238 -0.14319265
0.1812537 0.35750657 -0.14319265
0.18124418 0.38398868 -0.143399
0.18132131 0.41068414 -0.141729
0.15486795 0.43739876 -0.14011359
0.18076742 0.43572262 -0.15372121
0.23378852 0.43607196 -0.15088511
0.23378852 0.46251705 -0.15088499
0.23378736 0.48895955 -0.15090358
0.23378736 0.51540434 -0.1509037
0.23378621 0.54184639 -0.1509223
0.23378736 0.56829435 -0.1509037
0.23378736 0.5947392 -0.1509037
0.23378736 0.62118411 -0.1509037
0.23378852 0.6476323 -0.15088511
0.18068908 0.67320532 -0.15541685
0.23378736 0.67407393 -0.1509037
0.15528879 -0.91847384 -0.12917984
0.20856507 -0.91873389 -0.12821496
0.15528879 -0.89186168 -0.12917995
0.20856507 -0.89211428 -0.12821496
0.15528879 -0.86524969 -0.12917972
0.20856507 -0.86549467 -0.12821496
0.15528879 -0.83863741 -0.12917995
0.20856507 -0.83887506 -0.12821507
0.15528879 -0.81202531 -0.12917972
0.20856507 -0.81225556 -0.12821507
0.15528879 -0.78541315 -0.12917984
0.20856507 -0.78563595 -0.12821507
0.15528879 -0.75880098 -0.12917984
0.12859344 -0.51887578 -0.13188195
0.15528879 -0.49267966 -0.12917972
0.20856607 -0.4928236 -0.128196
0.15528879 -0.46606743 -0.12917984
0.20856607 -0.46620372 -0.12819624
0.15528879 -0.43945542 -0.12917984
0.20856607 -0.43958402 -0.12819612
0.15528879 -0.41284317 -0.12917984
0.20856607 -0.41296437 -0.12819612
0.15528879 -0.38623112 -0.12917972
0.20856607 -0.38634473 -0.12819612
0.15528879 -0.3596189 -0.12917984
0.20856607 -0.35972488 -0.12819612
0.15528879 -0.33300683 -0.12917972
0.20856607 -0.33310518 -0.12819612
0.15528879 -0.30639461 -0.12917972
0.20856607 -0.30648553 -0.12819612
0.15528879 -0.27978253 -0.12917972
0.20856607 -0.27986583 -0.128196
0.15528879 -0.25317028 -0.12917972
0.20856607 -0.25324601 -0.12819624
0.15528879 -0.22655809 -0.12917984
0.20856607 -0.22662635 -0.12819624
0.15528879 -0.19994597 -0.12917972
0.20856607 -0.20000669 -0.128196
0.15528879 -0.1733339 -0.12917995
0.20856607 -0.17338699 -0.128196
0.15528879 -0.14672181 -0.12917984
0.20856607 -0.14676717 -0.12819612
0.15528879 -0.12010957 -0.12917984
0.20856607 -0.12014747 -0.12819612
0.15528879 -0.093497545 -0.12917972
0.20856607 -0.093527749 -0.12819612
0.15528879 -0.066885307 -0.12917984
0.2085671 -0.066908434 -0.12817717
0.15528879 -0.040273234 -0.12917984
0.2085671 -0.040288668 -0.12817705
0.15528879 -0.013660992 -0.12917995
0.2085671 -0.013668736 -0.12817717
0.15528879 0.012951083 -0.12917972
0.20856813 0.012951083 -0.12815821
0.15528879 0.039563328 -0.12917984
0.20856813 0.039571069 -0.12815833
0.15528879 0.066175342 -0.12917972
0.20856813 0.066191122 -0.12815833
0.15528879 0.092787474 -0.12917984
0.20856813 0.092811212 -0.12815833
0.15528879 0.11939971 -0.12917972
0.20856813 0.11943115 -0.12815809
0.15528879 0.14601184 -0.12917984
0.20856813 0.14605108 -0.12815809
0.15528879 0.17262392 -0.12917972
0.20856813 0.17267112 -0.12815809
0.15528879 0.19923605 -0.12917995
0.20856813 0.19929111 -0.12815809
0.15528879 0.22584829 -0.12917972
0.20856813 0.22591117 -0.12815809
0.15528879 0.25246042 -0.12917972
0.20856813 0.25253114 -0.12815809
0.15528879 0.27907249 -0.12917972
0.20856813 0.27915114 -0.12815821
0.15528879 0.30568463 -0.12917995
0.20856813 0.30577111 -0.12815809
0.15528879 0.3322967 -0.12917972
0.20856813 0.33239117 -0.12815821
0.15529461 0.35892403 -0.12902856
0.2085671 0.3590093 -0.12817717
0.15535943 0.38571888 -0.12734449
0.2085671 0.38562912 -0.12817717
0.15542431 0.41253987 -0.12565863
0.2085671 0.412249 -0.12817705
0.12876174 0.43908587 -0.12641656
0.18207407 0.70561707 -0.12543118
0.20856607 0.7050637 -0.12819612
0.18218619 0.73276263 -0.12300384
0.2085671 0.73168725 -0.12817705
0.2085671 0.75830722 -0.12817717
0.2085671 0.78492701 -0.12817717
0.2085671 0.81154698 -0.12817717
0.2085671 0.83816665 -0.12817717
0.20862114 0.86503381 -0.12717402
0.20875081 0.89227241 -0.12476778
0.20888168 0.91955417 -0.12233925
0.2361186 -0.92281985 -0.11304939
0.12917216 -0.89607364 -0.11308742
0.2361186 -0.89608359 -0.11304927
0.12917216 -0.86933774 -0.11308742
0.2361186 -0.86934739 -0.11304927
0.12917216 -0.84260166 -0.11308742
0.2361186 -0.84261107 -0.11304915
0.12917216 -0.81586546 -0.11308742
0.2361186 -0.8158747 -0.11304939
0.12917216 -0.78912961 -0.1130873
0.2361186 -0.78913838 -0.11304927
0.12917216 -0.76239353 -0.11308742
0.26359645 -0.73797268 -0.1023463
0.26359645 -0.71115392 -0.10234618
0.26359245 -0.68432385 -0.10240364
0.26359645 -0.65751672 -0.10234618
0.26359513 -0.63069445 -0.10236526
0.26359513 -0.60387582 -0.10236526
0.26359245 -0.57705075 -0.10240376
0.26359645 -0.55024189 -0.10234606
0.26359645 -0.52342308 -0.10234606
0.12917216 -0.49503332 -0.11308753
0.23611742 -0.49503613 -0.11306834
0.12917216 -0.46829736 -0.1130873
0.23611742 -0.46829987 -0.11306834
0.12917216 -0.44156134 -0.11308753
0.23611742 -0.44156376 -0.11306834
0.12917216 -0.41482517 -0.11308753
0.23611742 -0.41482762 -0.11306834
0.12917216 -0.38808924 -0.11308742
0.23611742 -0.38809136 -0.11306846
0.12917216 -0.36135316 -0.11308742
0.23611742 -0.36135522 -0.11306834
0.12917216 -0.33461726 -0.11308742
0.23611742 -0.33461905 -0.11306834
0.12917216 -0.30788121 -0.11308742
0.2361186 -0.30788481 -0.11304927
0.12917216 -0.28114504 -0.11308753
0.2361186 -0.2811484 -0.11304915
0.12917216 -0.25440907 -0.1130873
0.2361186 -0.25441206 -0.11304927
0.12917216 -0.22767308 -0.11308753
0.2361186 -0.22767572 -0.11304927
0.12917216 -0.20093714 -0.1130873
0.2361186 -0.20093949 -0.11304915
0.12917216 -0.17420107 -0.11308753
0.2361186 -0.17420298 -0.11304927
0.12917216 -0.14746495 -0.11308742
0.2361186 -0.14746681 -0.11304939
0.12917216 -0.12072906 -0.11308742
0.2361186 -0.12073058 -0.11304927
0.12917216 -0.093992993 -0.11308742
0.2361186 -0.09399423 -0.11304915
0.12917216 -0.067257047 -0.1130873
0.2361186 -0.067257836 -0.11304927
0.12917216 -0.040520985 -0.11308742
0.2361186 -0.040521488 -0.11304927
0.12917216 -0.013784809 -0.11308753
0.2361186 -0.013785316 -0.11304915
0.12917216 0.012951083 -0.1130873
0.2361186 0.012951139 -0.11304927
0.12917216 0.039687146 -0.11308753
0.2361186 0.039687425 -0.11304939
0.12917216 0.066423088 -0.1130873
0.23611975 0.066423997 -0.11303008
0.12917216 0.093159154 -0.11308753
0.23611975 0.093160391 -0.1130302
0.12917216 0.11989528 -0.11308753
0.23611975 0.11989701 -0.1130302
0.12917216 0.14663111 -0.11308742
0.23611975 0.14663336 -0.11303008
0.12917216 0.17336728 -0.11308742
0.23611975 0.17336985 -0.11303008
0.12917216 0.20010328 -0.1130873
0.23611975 0.20010632 -0.11303031
0.12917216 0.22683923 -0.11308742
0.23611975 0.22684281 -0.11303008
0.12917216 0.25357535 -0.11308753
0.23611975 0.25357929 -0.1130302
0.12917216 0.28031126 -0.1130873
0.2361186 0.28031421 -0.11304915
0.12917216 0.30704737 -0.11308753
0.2361186 0.30705068 -0.11304927
0.12917216 0.33378336 -0.1130873
0.2361186 0.33378685 -0.11304927
0.1291804 0.36054602 -0.11282027
0.2361186 0.36052313 -0.11304915
0.12923273 0.38746732 -0.11112034
0.2361186 0.38725954 -0.11304915
0.12928513 0.41441503 -0.10941875
0.23611975 0.41399813 -0.1130302
0.26359645 0.4420504 -0.10234594
0.26359645 0.46886906 -0.10234594
0.26359379 0.4956826 -0.10238457
0.26359513 0.52250373 -0.10236526
0.26359513 0.54932219 -0.10236537
0.26359513 0.576141 -0.10236526
0.26359114 0.60294962 -0.10242295
0.26359645 0.62978137 -0.10234618
0.26359645 0.65660006 -0.10234606
0.1560619 0.70888692 -0.10909343
0.23611975 0.70809907 -0.11303031
0.15615548 0.73615909 -0.10666215
0.23612094 0.73483938 -0.11301112
0.15624996 0.76347357 -0.10420811
0.1822976 0.75994211 -0.12059164
0.23612094 0.76157612 -0.113011
0.18241005 0.78716379 -0.11815727
0.23612094 0.78831273 -0.113011
0.18252175 0.81441933 -0.11573851
0.23612094 0.81504929 -0.113011
0.18263452 0.8417176 -0.11329746
0.23612094 0.84178591 -0.113011
0.18274654 0.86904967 -0.11087179
0.23612094 0.86852264 -0.113011
0.18285961 0.89642465 -0.10842371
0.23612094 0.89525908 -0.11301112
0.18297195 0.92383307 -0.10599136
0.23612094 0.9219957 -0.11301112
0.1028117 -0.90033001 -0.096825242
0.1028117 -0.87346876 -0.096825361
0.1028117 -0.84660763 -0.096825242
0.1028117 -0.81974632 -0.096825242
0.1028117 -0.79288507 -0.096825242
0.1028117 -0.76602387 -0.096825242
0.1028117 -0.7391628 -0.096825242
0.1028117 -0.55113429 -0.096825242
0.1028117 -0.5242731 -0.096825242
0.1028117 -0.49741185 -0.096825242
0.1028117 -0.47055057 -0.096825242
0.1028117 -0.4436895 -0.096825242
0.1028117 -0.41682824 -0.096825242
0.1028117 -0.38996699 -0.096825242
0.1028117 -0.36310574 -0.096825242
0.1028117 -0.33624464 -0.096825242
0.1028117 -0.30938336 -0.096825242
0.1028117 -0.2825222 -0.096825242
0.1028117 -0.25566098 -0.096825361
0.1028117 -0.22879979 -0.096825242
0.1028117 -0.20193857 -0.096825242
0.1028117 -0.17507729 -0.096825242
0.1028117 -0.14821617 -0.096825242
0.1028117 -0.121355 -0.096825242
0.1028117 -0.094493717 -0.096825242
0.1028117 -0.067632481 -0.096825361
0.1028117 -0.040771317 -0.096825242
0.1028117 -0.013910089 -0.096825242
0.1028117 0.012951083 -0.096825361
0.1028117 0.039812312 -0.096825242
0.1028117 0.066673428 -0.096825242
0.1028117 0.093534589 -0.096825361
0.1028117 0.12039582 -0.096825242
0.1028117 0.1472571 -0.096825361
0.1028117 0.17411828 -0.096825242
0.1028117 0.2009795 -0.096825242
0.1028117 0.22784078 -0.096825242
0.1028117 0.25470203 -0.096825361
0.1028117 0.28156319 -0.096825242
0.1028117 0.30842441 -0.096825242
0.1028117 0.33528563 -0.096825242
0.10281972 0.36218148 -0.096478581
0.10285979 0.38923237 -0.094743133
0.10289946 0.41630784 -0.093025684
0.10293292 0.44337693 -0.091576815
0.10296595 0.47046563 -0.090146184
0.12972692 0.6848188 -0.095071316
0.12980299 0.71218818 -0.092600703
0.12987857 0.73959184 -0.090146184
0.12995426 0.76703423 -0.087688208
0.13003065 0.79451966 -0.085207343
0.1563438 0.79082215 -0.1017698
0.15643851 0.8182137 -0.099308848
0.15653263 0.84563923 -0.096863747
0.15662761 0.87310809 -0.094395876
0.15672199 0.90061098 -0.09194386
0.2651715 -0.93182892 -0.079612613
0.076203227 -0.90462631 -0.080410123
0.26517013 -0.90482992 -0.079632044
0.076203227 -0.87763876 -0.080410242
0.26517013 -0.87783641 -0.079632044
0.076203227 -0.85065126 -0.080410004
0.26517013 -0.85084289 -0.079632044
0.076203227 -0.82366359 -0.080410242
0.26516879 -0.82384461 -0.079651594
0.076203227 -0.79667598 -0.080410242
0.26516879 -0.79685116 -0.079651475
0.076203227 -0.76968849 -0.080410123
0.26516744 -0.76985353 -0.079671025
0.076203227 -0.74270093 -0.080410123
0.076203227 -0.71571332 -0.080410242
0.076203227 -0.68872577 -0.080410242
0.076203227 -0.66173822 -0.080410242
0.076203227 -0.63475055 -0.080410242
0.076203227 -0.60776305 -0.080410123
0.076203227 -0.58077544 -0.080410242
0.076202922 -0.55378479 -0.080429673
0.076202922 -0.52679724 -0.080429554
0.076202922 -0.49980992 -0.080429554
0.26516205 -0.49990946 -0.07974875
0.076202922 -0.47282258 -0.080429435
0.26516205 -0.47291681 -0.07974875
0.076202922 -0.44583505 -0.080429673
0.26516071 -0.44592163 -0.079768181
0.076202922 -0.41884762 -0.080429554
0.26516071 -0.41892913 -0.079768062
0.076202922 -0.39186028 -0.080429435
0.26516205 -0.39193878 -0.079748869
0.076202922 -0.36487275 -0.080429673
0.26516205 -0.36494616 -0.07974875
0.076202922 -0.33788544 -0.080429554
0.26516205 -0.33795348 -0.07974875
0.076202922 -0.31089792 -0.080429435
0.26516339 -0.31096271 -0.079729199
0.076202922 -0.28391057 -0.080429435
0.26516339 -0.28396991 -0.079729199
0.076202922 -0.25692311 -0.080429554
0.26516339 -0.25697711 -0.079729199
0.076202922 -0.22993572 -0.080429554
0.26516476 -0.22998561 -0.079709768
0.076202922 -0.20294824 -0.080429435
0.26516476 -0.2029926 -0.079709768
0.076202922 -0.17596079 -0.080429554
0.26516476 -0.17599957 -0.079709888
0.076202922 -0.14897339 -0.080429554
0.2651661 -0.14900763 -0.079690456
0.076202922 -0.12198605 -0.080429554
0.2651661 -0.12201439 -0.079690456
0.076202922 -0.094998643 -0.080429435
0.2651661 -0.095021367 -0.079690337
0.076202922 -0.06801112 -0.080429554
0.26516744 -0.068028688 -0.079670906
0.076202922 -0.04102378 -0.080429554
0.26516744 -0.041035455 -0.079670906
0.076202922 -0.014036432 -0.080429554
0.26516744 -0.014042214 -0.079670906
0.26516879 0.012951027 -0.079651356
0.076202922 0.012951195 -0.080429554
0.076202922 0.039938543 -0.080429554
0.26516879 0.039944492 -0.079651594
0.076202922 0.066925891 -0.080429554
0.26516879 0.066937789 -0.079651594
0.076202922 0.093913287 -0.080429435
0.26516744 0.093930855 -0.079671025
0.076202922 0.12090075 -0.080429673
0.26516744 0.1209241 -0.079670906
0.076202922 0.14788809 -0.080429673
0.26516744 0.14791751 -0.079670906
0.076202922 0.17487566 -0.080429435
0.26516744 0.17491069 -0.079670906
0.076202922 0.20186312 -0.080429673
0.26516744 0.20190392 -0.079671025
0.076202922 0.22885051 -0.080429435
0.26516744 0.22889711 -0.079670906
0.076202922 0.25583789 -0.080429435
0.26516744 0.25589058 -0.079670906
0.076202922 0.28282523 -0.080429435
0.2651661 0.2828823 -0.079690456
0.076202922 0.30981272 -0.080429554
0.2651661 0.30987528 -0.079690456
0.076202922 0.33680013 -0.080429435
0.2651661 0.33686841 -0.079690456
0.076210111 0.36383429 -0.079962611
0.2651661 0.36386162 -0.079690456
0.076236777 0.39101204 -0.0782305
0.2651661 0.39085448 -0.079690456
0.076263472 0.41821659 -0.07649672
0.2651661 0.41784772 -0.079690456
0.07628569 0.44541195 -0.075053692
0.076308228 0.47263229 -0.073589921
0.076330483 0.4998726 -0.072144508
0.076353058 0.52713835 -0.070678473
0.076375343 0.55442369 -0.069230556
0.076397955 0.58173472 -0.067762017
0.076420285 0.60906523 -0.066311836
0.076442935 0.63642186 -0.064840674
0.10319933 0.66072106 -0.080040574
0.10323618 0.68801862 -0.078444839
0.2651661 0.68777883 -0.079690337
0.10329333 0.71551663 -0.075970173
0.26516339 0.71476418 -0.079729199
0.10335101 0.74305743 -0.073472738
0.26516205 0.7417531 -0.079748631
0.10340831 0.7706334 -0.070991158
0.26515934 0.76873738 -0.079787731
0.10346615 0.79825234 -0.06848681
0.26515934 0.79572946 -0.079787612
0.13010715 0.82204396 -0.082722902
0.26515934 0.8227219 -0.079787612
0.10352363 0.82590663 -0.065997958
0.13018316 0.84960288 -0.080254436
0.26515934 0.84971434 -0.079787612
0.13025987 0.87720531 -0.0777632
0.26515934 0.87670678 -0.079787612
0.13033609 0.90484208 -0.0752877
0.26515934 0.90369904 -0.079787612
0.265158 0.93068635 -0.079806924
0.022228083 -0.91333628 -0.047131896
0.049343061 -0.90895814 -0.063859463
0.022228083 -0.88609248 -0.047132015
0.049343061 -0.88184321 -0.063859463
0.022228083 -0.85884881 -0.047131896
0.049343061 -0.85472816 -0.063859463
0.022228083 -0.83160496 -0.047131896
0.049343061 -0.82761317 -0.063859463
0.022228083 -0.8043614 -0.047131896
0.049343061 -0.80049831 -0.063859582
0.022228083 -0.77711755 -0.047131896
0.049343061 -0.77338326 -0.063859463
0.022228083 -0.74987382 -0.047131896
0.049343061 -0.74626833 -0.063859582
0.022228083 -0.72263014 -0.047132015
0.049343061 -0.71915334 -0.063859463
0.29425424 -0.72151953 -0.052475095
0.022228083 -0.69538641 -0.047131777
0.049343061 -0.6920383 -0.063859463
0.29425424 -0.69431692 -0.052474976
0.022228083 -0.66814268 -0.047132015
0.29425576 -0.66711801 -0.052455306
0.049343061 -0.66492325 -0.063859463
0.022228083 -0.64089882 -0.047131777
0.049343061 -0.63780832 -0.063859463
0.2942588 -0.63992256 -0.052415967
0.022228083 -0.61365503 -0.047131896
0.049343061 -0.6106934 -0.063859582
0.2942588 -0.61271954 -0.052415848
0.022228083 -0.58640808 -0.047151685
0.049343061 -0.58357841 -0.063859463
0.29425576 -0.58550984 -0.052455306
0.022228083 -0.55916435 -0.047151804
0.049343061 -0.55646342 -0.063859582
0.29425424 -0.55830383 -0.052474976
0.022228083 -0.53192073 -0.047151804
0.049343061 -0.52934837 -0.063859463
0.022228083 -0.50467718 -0.047151804
0.049343061 -0.50223345 -0.063859582
0.022228083 -0.47743359 -0.047151804
0.049343061 -0.47511843 -0.063859463
0.022228083 -0.45019007 -0.047151804
0.049342908 -0.44800097 -0.063879132
0.022228083 -0.42294642 -0.047151685
0.049342908 -0.42088607 -0.063879132
0.022228083 -0.39570278 -0.047151804
0.049342908 -0.39377138 -0.063879132
0.022228083 -0.36845917 -0.047151804
0.049342908 -0.36665648 -0.063879132
0.022228083 -0.34121564 -0.047151804
0.049342908 -0.33954155 -0.063879251
0.29442471 -0.34090441 -0.050260663
0.022228083 -0.313972 -0.047151804
0.049342908 -0.31242692 -0.063879132
0.022228083 -0.2867285 -0.047151685
0.049342908 -0.285312 -0.063879132
0.022228083 -0.25948498 -0.047151685
0.049342908 -0.25819722 -0.063879132
0.2943714 -0.2591922 -0.050952911
0.022228083 -0.23224118 -0.047151804
0.049342908 -0.23108231 -0.063879132
0.022228083 -0.20499767 -0.047151923
0.049342908 -0.20396753 -0.063879132
0.29449478 -0.20486222 -0.049350381
0.022228083 -0.17775404 -0.047151804
0.049342908 -0.17685273 -0.063879013
0.022228083 -0.15051052 -0.047151804
0.049342908 -0.14973786 -0.063879132
0.022228083 -0.12326689 -0.047151685
0.049342908 -0.12262304 -0.063879132
0.29449937 -0.12318455 -0.049291015
0.022228083 -0.096023321 -0.047151685
0.049342908 -0.095508277 -0.063879132
0.29468691 -0.096032515 -0.046854496
0.022228083 -0.068779752 -0.047151566
0.049342908 -0.068393365 -0.063879132
0.022228083 -0.041536059 -0.047151923
0.049342908 -0.041278657 -0.063879013
0.29436839 -0.041477013 -0.050992489
0.022228083 -0.014292432 -0.047151804
0.049342908 -0.014163787 -0.063879013
0.022228083 0.012951083 -0.047151804
0.049342908 0.012951139 -0.063879132
0.022228083 0.040194713 -0.047151685
0.049342908 0.04006584 -0.063879132
0.022228083 0.06743817 -0.047151804
0.049342908 0.067180768 -0.063879132
0.022228083 0.094681799 -0.047151685
0.049342908 0.094295636 -0.063879132
0.022228083 0.12192553 -0.047151804
0.049342908 0.1214104 -0.063879013
0.022228083 0.14916916 -0.047151804
0.049342908 0.14852531 -0.063879132
0.022228083 0.17641257 -0.047151804
0.049342908 0.17564002 -0.063879251
0.022228083 0.20365621 -0.047151804
0.049342908 0.20275478 -0.063879132
0.022228083 0.23089983 -0.047151804
0.049342908 0.22986969 -0.063879132
0.049342908 0.25698447 -0.063879013
0.022228083 0.25814345 -0.047151566
0.022228083 0.28538692 -0.047151685
0.049342908 0.2840994 -0.063879013
0.022228083 0.31263065 -0.047151804
0.049342908 0.31121433 -0.063879132
0.022228083 0.33987421 -0.047151804
0.049342908 0.33832908 -0.063879013
0.022228083 0.36718515 -0.046477795
0.049347296 0.36550087 -0.063309789
0.049360909 0.39281055 -0.061541319
0.04937423 0.42014319 -0.059810519
0.049385443 0.44746894 -0.058353901
0.04939682 0.47481966 -0.056876063
0.29425424 0.47539547 -0.052475214
0.049408052 0.50219065 -0.055417061
0.29425424 0.50259823 -0.052475095
0.049419448 0.52958709 -0.053936839
0.29425576 0.52980363 -0.052455187
0.049430698 0.55700332 -0.052474976
0.29425728 0.5570094 -0.052435756
0.049442112 0.58444566 -0.050992608
0.29425576 0.58420926 -0.052455187
0.049453381 0.61190766 -0.04952836
0.29425424 0.61140865 -0.052475095
0.049464658 0.63939232 -0.048063278
0.29425424 0.63861114 -0.052475095
0.049475949 0.66689992 -0.046596766
0.076465294 0.66379762 -0.063388109
0.076491915 0.69124883 -0.061659098
0.076530375 0.71888083 -0.059160948
0.0765692 0.74655604 -0.056639314
0.076607771 0.77426678 -0.05413413
0.076646395 0.80201668 -0.051625252
0.076685384 0.82981068 -0.049092889
0.076724119 0.85763979 -0.046576858
0.10358163 0.85360438 -0.063486457
0.10363927 0.88133705 -0.060990691
0.10369744 0.90911412 -0.058471918
-0.0051455069 -0.91775107 -0.030264616
-0.0051455069 -0.89037746 -0.030264854
0.29602253 -0.89057064 -0.029504299
-0.0051455069 -0.86300385 -0.030264735
0.29602253 -0.86319107 -0.029504418
-0.0051455069 -0.83563018 -0.030264854
0.29602253 -0.83581167 -0.02950418
-0.0051455069 -0.80825657 -0.030264735
0.29602253 -0.80843222 -0.029504299
-0.0051455069 -0.78088307 -0.030264854
0.29602253 -0.78105283 -0.029504299
-0.0051455069 -0.75350934 -0.030264854
0.29602253 -0.75367343 -0.029504299
-0.0051455069 -0.72613591 -0.030264854
-0.0051455069 -0.69876218 -0.030264854
-0.0051455069 -0.67138875 -0.030264735
-0.0051455069 -0.64401501 -0.030264854
-0.0051455069 -0.61664152 -0.030264616
-0.0051455069 -0.58926785 -0.030264854
-0.0051455069 -0.56189436 -0.030264735
-0.0051455069 -0.53452069 -0.030264854
0.29602408 -0.53464097 -0.029484272
-0.0051455069 -0.50714701 -0.030264854
0.29602408 -0.50726134 -0.029484391
-0.0051455069 -0.47977358 -0.030264735
0.29602408 -0.47988167 -0.029484391
-0.0051453542 -0.45239729 -0.030284882
0.29602408 -0.45250213 -0.029484272
-0.0051453542 -0.42502388 -0.030284882
0.29602408 -0.4251225 -0.029484391
-0.0051453542 -0.39765042 -0.030284882
0.2960256 -0.39774519 -0.029464245
-0.0051453542 -0.37027708 -0.030284762
0.2960256 -0.37036547 -0.029464245
-0.0051453542 -0.34290367 -0.030284762
-0.0051453542 -0.31553012 -0.030285001
0.29501539 -0.31439364 -0.042587399
-0.0051453542 -0.28815666 -0.030284882
0.29602715 -0.28822795 -0.029444218
-0.0051453542 -0.26078323 -0.030284762
-0.0051453542 -0.23340988 -0.030284882
0.29508731 -0.2326223 -0.041653275
-0.0051453542 -0.20603648 -0.030284643
-0.0051453542 -0.1786629 -0.030284882
0.29603025 -0.17871046 -0.029404163
-0.0051453542 -0.15128946 -0.030284882
0.29603025 -0.15133022 -0.029404163
-0.0051453542 -0.12391612 -0.030284882
-0.0051453542 -0.096542671 -0.030284762
-0.0051453542 -0.069169268 -0.030284762
0.29578081 -0.069114715 -0.032644272
-0.0051453542 -0.041795708 -0.030284882
-0.0051453542 -0.014422368 -0.030284882
0.29510415 -0.014336547 -0.041434646
-0.0051453542 0.012951083 -0.030284882
0.2960287 0.012951083 -0.029424191
-0.0051453542 0.040324423 -0.030284762
0.2960287 0.040331215 -0.029424191
-0.0051453542 0.067697927 -0.030284643
0.2960287 0.067711122 -0.02942431
-0.0051453542 0.095071495 -0.030284882
0.29602715 0.095090866 -0.029444098
-0.0051453542 0.12244472 -0.030284882
0.29602715 0.12247083 -0.029444337
-0.0051453542 0.14981823 -0.030284882
0.2960256 0.14984977 -0.029464245
-0.0051453542 0.17719167 -0.030284762
0.2960256 0.17722963 -0.029464245
-0.0051453542 0.20456497 -0.030284643
0.2960256 0.20460925 -0.029464245
-0.0051453542 0.23193859 -0.030284882
0.29602408 0.23198779 -0.029484391
-0.0051453542 0.25931203 -0.030284882
0.29602408 0.25936756 -0.029484272
-0.0051453542 0.28668532 -0.030284882
0.29602408 0.28674707 -0.029484153
-0.0051453542 0.31405884 -0.030284762
0.29602408 0.31412673 -0.029484272
-0.0051453542 0.34143233 -0.030284882
0.29602253 0.34150445 -0.02950418
-0.0051513612 0.36888382 -0.02950418
0.29602253 0.36888382 -0.02950418
-0.0051652398 0.39645746 -0.027701855
0.022228083 0.39462432 -0.044712305
0.29602253 0.39626339 -0.02950418
0.022228083 0.4220863 -0.042984724
0.29602253 0.42364272 -0.029504299
0.022228083 0.44954538 -0.041494131
0.29602098 0.45101964 -0.029524326
0.022228083 0.47702515 -0.040022373
0.022228083 0.50453055 -0.038529158
0.022228083 0.53205615 -0.037054777
0.022228083 0.55960786 -0.035559297
0.022228083 0.58717924 -0.034082294
0.022228083 0.61477727 -0.03258419
0.022228083 0.64239496 -0.031104922
0.022228083 0.67003548 -0.029624343
0.2960256 0.67006522 -0.029464245
0.022228083 0.69780326 -0.027601719
0.049490456 0.69451028 -0.044712305
0.2960256 0.69744492 -0.029464245
0.049509872 0.72227746 -0.042190075
0.2960256 0.72482461 -0.029464245
0.049529471 0.75008851 -0.039644241
0.29602408 0.75220019 -0.029484272
0.049548943 0.77793515 -0.03711462
0.29602408 0.77957988 -0.029484272
0.049568444 0.80582148 -0.034581304
0.29602408 0.80695933 -0.029484272
0.049588125 0.83375245 -0.032024741
0.29602253 0.83433443 -0.02950418
0.049607679 0.8617186 -0.029484391
0.29602253 0.86171377 -0.02950418
0.04962742 0.88972992 -0.02692008
0.07676322 0.88551319 -0.044037223
0.29602253 0.88909334 -0.029504299
0.076802373 0.91342705 -0.04149425
0.29601943 0.91646266 -0.029544473
-0.032781579 -0.8947084 -0.013215899
-0.032781579 -0.86720353 -0.013216138
-0.032781579 -0.83969879 -0.013215899
-0.032781579 -0.81219399 -0.013215899
-0.032781579 -0.78468919 -0.013215899
-0.032781579 -0.75718415 -0.013215899
-0.032781579 -0.72967929 -0.013215899
-0.032781579 -0.70217454 -0.013215899
-0.032781579 -0.67466962 -0.013216019
-0.032781579 -0.64716488 -0.013216019
-0.032781273 -0.6196565 -0.013236284
-0.032781273 -0.59215182 -0.013236165
-0.032781273 -0.56464708 -0.013236284
-0.032781273 -0.53714246 -0.013236165
-0.032781273 -0.50963771 -0.013236284
-0.032781273 -0.48213309 -0.013236165
-0.032781273 -0.45462838 -0.013236165
-0.032781273 -0.42712381 -0.013236046
-0.032781273 -0.3996191 -0.013236165
-0.032781273 -0.37211445 -0.013236046
-0.032781273 -0.34460971 -0.013236165
-0.032781273 -0.31710508 -0.013236046
-0.032781273 -0.28960034 -0.013236165
-0.032781273 -0.26209572 -0.013236046
-0.032781273 -0.23459098 -0.013236046
-0.032781273 -0.20708635 -0.013235927
-0.032781273 -0.17958167 -0.013236165
-0.032781273 -0.15207705 -0.013236046
-0.032781273 -0.12457232 -0.013236165
-0.032781273 -0.09706758 -0.013236284
-0.032781273 -0.069562957 -0.013236165
-0.032781273 -0.042058218 -0.013236165
-0.032781273 -0.014553597 -0.013236046
-0.032781273 0.012951139 -0.013236165
-0.032781273 0.040455762 -0.013236046
-0.032781273 0.067960501 -0.013236165
-0.032781273 0.095465124 -0.013236046
-0.032781273 0.12296985 -0.013236165
-0.032781273 0.15047447 -0.013236046
-0.032781273 0.17797905 -0.013236165
-0.032781273 0.20548368 -0.013236046
-0.032781273 0.2329884 -0.013236165
-0.032781273 0.26049304 -0.013236046
-0.032781273 0.28799781 -0.013236165
-0.032781273 0.31550238 -0.013236046
-0.032781273 0.34300718 -0.013236165
-0.03279496 0.37060082 -0.012346983
-0.032822974 0.39830863 -0.010527134
-0.032849468 0.42603254 -0.0088067055
-0.0051785093 0.42405003 -0.02597785
-0.0051900931 0.45164201 -0.024472833
-0.0052015353 0.47925463 -0.02298665
-0.0052131396 0.50689322 -0.021479249
-0.0052245986 0.53455204 -0.019990683
-0.0052362215 0.56223702 -0.018480659
-0.0052476991 0.58994246 -0.016989589
-0.0052591879 0.61767101 -0.015497088
-0.005270686 0.64542264 -0.014003634
-0.0052821934 0.67319769 -0.01250875
-0.0052990038 0.7011283 -0.010324717
0.022228083 0.72570717 -0.025054812
0.022228083 0.7536509 -0.022504449
0.022228083 0.78163916 -0.019930363
0.022228083 0.80966324 -0.017372608
0.022228083 0.83772773 -0.014811039
0.022228083 0.86583704 -0.012225747
0.022228083 0.89398247 -0.0096569061
0.049647033 0.91777647 -0.024372578
-0.060683459 -0.89907593 0.0039767027
-0.060683459 -0.87143874 0.0039768219
-0.060683459 -0.8438015 0.0039765835
-0.060683459 -0.81616437 0.0039768219
-0.060683459 -0.78852719 0.0039768219
-0.060683459 -0.76089007 0.0039768219
-0.060683459 -0.73325276 0.0039768219
-0.060683459 -0.70561564 0.0039767027
-0.060683459 -0.6779784 0.0039767027
-0.060683459 -0.65034127 0.0039769411
-0.060683459 -0.62270415 0.0039768219
-0.060683459 -0.59506691 0.0039768219
-0.060683459 -0.56742966 0.0039767027
-0.060683459 -0.53979248 0.0039767027
-0.060683459 -0.51215541 0.0039769411
-0.060683459 -0.4845182 0.0039768219
-0.06068299 -0.45687833 0.0039564371
-0.06068299 -0.42924133 0.0039564371
-0.06068299 -0.40160424 0.0039563179
-0.06068299 -0.37396723 0.0039564371
-0.06068299 -0.34633026 0.0039565563
0.32616976 -0.34625268 0.0031814575
-0.06068299 -0.31869322 0.0039564371
0.32580593 -0.31822479 -0.0011150837
-0.06068299 -0.29105619 0.0039565563
-0.06068299 -0.26341909 0.0039564371
0.32645661 -0.26362032 0.0065689087
-0.06068299 -0.23578207 0.0039564371
0.32581109 -0.23543498 -0.0010540485
-0.06068299 -0.2081451 0.0039563179
-0.06068299 -0.18050814 0.0039564371
-0.06068299 -0.15287116 0.0039565563
-0.06068299 -0.12523401 0.0039564371
0.32609037 -0.12516823 0.0022441149
-0.06068299 -0.097597033 0.0039565563
0.32590586 -0.097477153 6.4969063e-05
-0.06068299 -0.069960013 0.0039563179
-0.06068299 -0.042323034 0.0039564371
0.32654309 -0.042378936 0.0075905323
-0.06068299 -0.01468589 0.0039564371
0.32581109 -0.014647331 -0.0010540485
-0.06068299 0.012951083 0.0039564371
-0.06068299 0.040588111 0.0039561987
-0.06068299 0.068225197 0.0039564371
-0.06068299 0.095862061 0.0039564371
-0.06068299 0.1234991 0.0039563179
-0.06068299 0.15113617 0.0039565563
-0.06068299 0.17877321 0.0039564371
-0.06068299 0.2064103 0.0039564371
-0.06068299 0.23404732 0.0039563179
-0.06068299 0.26168424 0.0039564371
-0.06068299 0.28932133 0.0039565563
-0.06068299 0.31695831 0.0039564371
-0.06068299 0.34459537 0.0039566755
-0.060706072 0.37233236 0.0049561262
-0.06074851 0.40017518 0.0067938566
-0.060788631 0.42803463 0.0085309744
-0.06082359 0.45589337 0.010044694
-0.03287255 0.45375624 -0.0073074102
-0.032895967 0.48150551 -0.0057865381
-0.032919079 0.50927562 -0.0042847395
-0.032942533 0.53707182 -0.0027616024
-0.03296601 0.56489199 -0.0012370348
-0.032989189 0.59273243 0.00026869774
-0.03301239 0.62059623 0.0017755032
-0.033035606 0.64848357 0.0032835007
-0.033058845 0.6763941 0.0047929287
-0.033094369 0.70448178 0.0071001053
-0.033134662 0.73266679 0.0097174644
-0.0053188 0.72917002 -0.007753253
-0.005338626 0.7572521 -0.0051778555
-0.0053586345 0.78537923 -0.0025787354
-0.0053785164 0.81354243 3.9339066e-06
-0.0053984262 0.84174645 0.0025905371
-0.0054183658 0.86999112 0.0051805973
-0.0054384917 0.89828157 0.007794857
-0.0054586455 0.92661321 0.01041317
0.022228083 0.92217332 -0.0070642233
-0.088855162 -0.90348577 0.02133584
-0.088855162 -0.8757149 0.02133584
-0.088855162 -0.84794402 0.02133584
0.32778552 -0.84816515 0.022262692
-0.088855162 -0.8201732 0.021335602
0.32778376 -0.82038248 0.02224195
-0.088855162 -0.79240239 0.021335721
0.32778376 -0.7926048 0.022242069
-0.088855162 -0.76463181 0.021335959
0.32778203 -0.7648226 0.022221684
-0.088855162 -0.73686087 0.02133584
0.32778376 -0.73704922 0.022242188
-0.088855162 -0.70908988 0.021335721
0.32778552 -0.70927548 0.022262931
-0.088855162 -0.68131918 0.021335721
0.32778898 -0.6815055 0.022304058
-0.088855162 -0.65354836 0.021335959
0.32778898 -0.65372729 0.022304058
-0.088855162 -0.62577766 0.021335721
0.32778898 -0.62594903 0.022304177
-0.088855162 -0.59800678 0.02133584
0.32778898 -0.59817076 0.022304177
-0.088855162 -0.57023597 0.021335959
0.32778725 -0.57038903 0.022283196
-0.088855162 -0.54246521 0.02133584
0.32778725 -0.54261112 0.022283435
-0.088855162 -0.51469433 0.021335721
0.32778725 -0.51483297 0.022283316
-0.088855162 -0.48692352 0.021335721
0.32778725 -0.48705488 0.022283316
-0.088854529 -0.45914999 0.021315098
0.32778552 -0.45927402 0.022262812
-0.088854529 -0.43137944 0.021315098
0.32778552 -0.43149596 0.022262692
-0.088854529 -0.40360871 0.021315217
0.32778552 -0.40371814 0.022262812
-0.088854529 -0.37583804 0.021315217
0.32778552 -0.37594017 0.022262931
-0.088854529 -0.34806746 0.021315217
-0.088854529 -0.32029679 0.021315217
-0.088854529 -0.29252613 0.021315098
0.32778552 -0.29260632 0.022262692
-0.088854529 -0.26475546 0.021315217
-0.088854529 -0.23698485 0.021315217
-0.088854529 -0.2092142 0.021315217
0.32778552 -0.20927249 0.022262692
-0.088854529 -0.18144345 0.021315217
0.32778552 -0.18149452 0.022262931
-0.088854529 -0.15367289 0.021315336
0.32778552 -0.15371661 0.022262692
-0.088854529 -0.1259021 0.021315217
-0.088854529 -0.098131537 0.021315217
-0.088854529 -0.070360869 0.021315098
0.32778552 -0.070382819 0.022262812
-0.088854529 -0.042590201 0.021315217
-0.088854529 -0.014819644 0.021315217
-0.088854529 0.012951027 0.021315098
0.32778552 0.012951027 0.022262812
-0.088854529 0.040721752 0.021315217
0.32778552 0.040728994 0.022262692
-0.088854529 0.068492427 0.021315217
0.32778552 0.068507016 0.022262931
-0.088854529 0.096263036 0.021315098
0.32778552 0.096284986 0.022262692
-0.088854529 0.1240337 0.021315217
0.32778552 0.12406273 0.022262812
-0.088854529 0.15180437 0.021315336
0.32778376 0.15184014 0.022242308
-0.088854529 0.17957494 0.021315098
0.32778376 0.17961776 0.022242188
-0.088854529 0.2073456 0.021315217
0.32778376 0.20739563 0.022242188
-0.088854529 0.23511627 0.021315217
0.32778376 0.23517346 0.022242308
-0.088854529 0.26288706 0.021315217
0.32778376 0.26295105 0.022242069
-0.088854529 0.29065755 0.021315098
0.32778376 0.2907289 0.022242188
-0.088854529 0.31842825 0.021315336
0.32778203 0.31850496 0.022221684
-0.088854529 0.34619901 0.021315217
0.32778203 0.34628269 0.022221684
-0.088889413 0.37408289 0.022448182
0.32778203 0.37406015 0.022221684
-0.088946551 0.40206221 0.024303794
0.32778203 0.4018378 0.022221684
-0.088999294 0.4300538 0.026016712
0.32778203 0.42961565 0.022221684
-0.089047 0.45805132 0.027565956
0.32778203 0.45739329 0.022221684
-0.060859054 0.48377815 0.011580229
-0.089094102 0.48607031 0.029095769
0.32778028 0.48516804 0.022200942
-0.060894072 0.51168418 0.013096571
0.32778203 0.51294839 0.022221684
-0.060929596 0.53961641 0.014634728
0.32778203 0.54072613 0.022221565
-0.060964666 0.56756949 0.016153812
0.32778203 0.56850362 0.022221684
-0.060999781 0.59554619 0.017673969
0.32778203 0.59628129 0.022221684
-0.061034918 0.62354642 0.019195318
0.32778376 0.62406248 0.022242069
-0.061070085 0.6515702 0.020718098
0.32778376 0.65184021 0.022242188
-0.061105281 0.679618 0.022242188
0.32778376 0.679618 0.022242188
-0.06116242 0.70787203 0.024716377
0.32778376 0.70739585 0.022242188
-0.061223455 0.73619777 0.027359366
0.32778376 0.73517358 0.022242308
-0.033174701 0.76088858 0.012317657
0.32778376 0.76295143 0.022242308
-0.033214793 0.78915143 0.014922023
0.32778376 0.79072899 0.022242188
-0.033255264 0.8174597 0.017550588
0.32778376 0.81850684 0.022242308
-0.033295475 0.84580451 0.020162344
0.32778376 0.84628469 0.022242308
-0.033335745 0.87419057 0.022777915
0.32778203 0.87405771 0.022221684
-0.033376388 0.90262264 0.025418162
0.32778203 0.90183532 0.022221565
-0.11730141 -0.90794361 0.038884401
-0.11730141 -0.88003772 0.038884401
-0.11730141 -0.85213184 0.038884401
-0.11730141 -0.82422596 0.038884282
-0.11730141 -0.79631996 0.038884401
-0.11730141 -0.7684142 0.038884401
-0.11730141 -0.7405082 0.038884401
-0.11730141 -0.71260232 0.038884401
-0.11730062 -0.68469244 0.038863659
-0.11730062 -0.65678662 0.03886354
-0.11730062 -0.6288808 0.03886354
-0.11730062 -0.60097516 0.03886354
-0.11730062 -0.57306945 0.03886354
-0.11730062 -0.54516363 0.03886354
-0.11730062 -0.51725799 0.038863659
-0.11730062 -0.48935223 0.03886354
-0.11730062 -0.4614464 0.03886354
-0.11730062 -0.43354082 0.038863659
-0.11730062 -0.40563503 0.03886354
-0.11730062 -0.37772921 0.03886354
-0.11730062 -0.34982359 0.038863659
-0.11730062 -0.32191783 0.03886354
-0.11730062 -0.29401201 0.03886354
-0.11730062 -0.2661064 0.038863659
-0.11730062 -0.23820063 0.03886354
-0.11730062 -0.21029481 0.03886354
-0.11730062 -0.1823892 0.038863659
-0.11730062 -0.15448344 0.03886354
-0.11730062 -0.12657756 0.038863659
-0.11730062 -0.098671779 0.03886342
-0.11730062 -0.070766121 0.038863659
-0.11730062 -0.042860348 0.038863659
-0.11730062 -0.014954576 0.03886342
-0.11730062 0.012950971 0.038863659
-0.11730062 0.040856853 0.038863659
-0.11730062 0.068762511 0.03886342
-0.11730062 0.096668288 0.038863659
-0.11730062 0.12457401 0.03886354
-0.11730062 0.15247987 0.03886342
-0.11730062 0.18038559 0.038863659
-0.11730062 0.20829125 0.03886354
-0.11730062 0.23619714 0.03886354
-0.11730062 0.2641027 0.038863659
-0.11730062 0.29200858 0.038863659
-0.11730062 0.31991422 0.03886342
-0.11730062 0.34781995 0.038863659
-0.11734865 0.37585059 0.040111423
-0.11741998 0.40396562 0.041964412
-0.11748656 0.43209505 0.043694496
-0.11754676 0.46023056 0.045258641
-0.11760622 0.48838779 0.046803594
-0.11766655 0.51657164 0.0483706
-0.08914189 0.51411605 0.030647635
-0.089189716 0.54218554 0.032200813
-0.089236945 0.57027632 0.03373456
-0.089284211 0.59839076 0.035269737
-0.089331523 0.62652892 0.036805987
-0.089378871 0.65469122 0.038343787
-0.089507036 0.71129543 0.042506218
-0.089588583 0.73975933 0.045154333
-0.061284102 0.76456076 0.029985309
-0.089670882 0.76826912 0.047827125
-0.06134484 0.79296517 0.032615185
-0.061406136 0.82141525 0.035269618
-0.061467052 0.84990245 0.037907243
-0.061528049 0.87843114 0.040548563
-0.061589144 0.90700144 0.043194056
-0.14602578 -0.91244507 0.056604385
-0.14602578 -0.88440269 0.056604385
-0.14602578 -0.85636038 0.056604266
-0.14602578 -0.8283183 0.056604505
-0.14602578 -0.80027586 0.056604385
-0.14602578 -0.77223343 0.056604266
-0.14602578 -0.74419147 0.056604505
-0.14602481 -0.71614474 0.056583524
-0.14602481 -0.6881026 0.056583524
-0.14602481 -0.66006047 0.056583285
-0.14602481 -0.63201827 0.056583285
-0.14602481 -0.60397613 0.056583405
-0.14602481 -0.57593405 0.056583405
-0.14602481 -0.54789191 0.056583405
-0.14602481 -0.51984972 0.056583524
-0.14602481 -0.49180758 0.056583524
-0.14602382 -0.4637627 0.056562424
-0.14602382 -0.43572068 0.056562304
-0.14602382 -0.40767866 0.056562304
-0.14602382 -0.37963679 0.056562424
-0.14602382 -0.35159472 0.056562424
-0.14602382 -0.32355273 0.056562304
-0.14602382 -0.29551068 0.056562304
-0.14602382 -0.26746881 0.056562424
-0.14602382 -0.23942676 0.056562424
-0.14602382 -0.21138476 0.056562304
-0.14602382 -0.18334287 0.056562543
-0.14602382 -0.15530083 0.056562424
-0.14602382 -0.12725878 0.056562424
-0.14602382 -0.099216834 0.056562304
-0.14602382 -0.071174845 0.056562543
-0.14602382 -0.043132905 0.056562424
-0.14602382 -0.015090911 0.056562424
-0.14602382 0.012951027 0.056562424
-0.14602382 0.040993132 0.056562424
-0.14602382 0.069034964 0.056562304
-0.14602382 0.097077072 0.056562424
-0.14602382 0.125119 0.056562424
-0.14602382 0.15316111 0.056562424
-0.14602382 0.18120293 0.056562304
-0.14602382 0.20924492 0.056562424
-0.14602382 0.23728697 0.056562424
-0.14602382 0.26532909 0.056562424
-0.14602382 0.2933709 0.056562304
-0.14602382 0.32141289 0.056562424
-0.14602481 0.34945682 0.056583405
-0.1460869 0.37763357 0.057927847
-0.1461743 0.40589008 0.059820056
-0.14625402 0.43415636 0.061545849
-0.14632697 0.46243116 0.063125372
-0.14639904 0.49072787 0.064685702
-0.14647213 0.51905173 0.066268325
-0.11772611 0.5447771 0.049918175
-0.11778571 0.57300621 0.051467061
-0.11784539 0.60125983 0.053017259
-0.1179051 0.62953693 0.054568648
-0.11796489 0.65783876 0.056121469
-0.11802874 0.68618387 0.057780623
-0.11813233 0.71475315 0.060472369
-0.11823528 0.74336046 0.063146591
-0.11833835 0.77200991 0.065824986
-0.089752667 0.79681641 0.050483108
-0.089834571 0.82540542 0.053142786
-0.089916587 0.85403603 0.055806518
-0.08999937 0.88271385 0.058495402
-0.09008164 0.91142887 0.061166763
-0.17503119 -0.91698539 0.074477196
-0.17503119 -0.88880557 0.074477196
-0.17503119 -0.86062557 0.074477077
-0.17503119 -0.83244586 0.074477315
-0.17503119 -0.80426592 0.074477315
-0.17503119 -0.77608603 0.074477196
-0.17503119 -0.74790603 0.074477196
-0.17503005 -0.71972197 0.074455976
-0.17503005 -0.69154215 0.074456096
-0.17503005 -0.66336238 0.074455976
-0.17503005 -0.6351828 0.074455976
-0.17503005 -0.60700303 0.074456096
0.36048675 -0.60718971 0.07555902
-0.17503005 -0.57882321 0.074455976
0.36048675 -0.57900155 0.075558901
-0.17503005 -0.5506435 0.074455976
0.36048675 -0.55081344 0.075559139
-0.17503005 -0.52246386 0.074455976
0.36048675 -0.52262515 0.075559139
-0.17503005 -0.49428409 0.074456096
0.36048675 -0.49443698 0.075559139
-0.17503005 -0.46610433 0.074455976
0.36048675 -0.46624863 0.07555902
-0.17503005 -0.43792462 0.074455976
0.36048675 -0.43806046 0.07555902
-0.17503005 -0.40974492 0.074456096
0.36048675 -0.4098722 0.07555902
-0.17503005 -0.38156524 0.074456096
0.36048675 -0.38168401 0.07555902
-0.17503005 -0.35338539 0.074455976
0.36048675 -0.35349584 0.07555902
-0.17503005 -0.32520571 0.074455976
0.36048675 -0.32530764 0.07555902
0.41647029 -0.32497081 0.071913362
-0.17503005 -0.29702598 0.074456096
0.36048675 -0.29711938 0.075559258
0.41651365 -0.29684475 0.072315693
0.44486043 -0.29697934 0.073904872
-0.17503005 -0.2688463 0.074456215
0.36048675 -0.26893118 0.075558901
-0.17503005 -0.24066651 0.074455976
0.36048675 -0.24074289 0.07555902
-0.17503005 -0.21248677 0.074456096
0.36048675 -0.21255475 0.07555902
-0.17503005 -0.18430707 0.074456096
0.36048675 -0.18436649 0.075559139
-0.17503005 -0.15612726 0.074455976
0.36048675 -0.15617828 0.075559139
-0.17503005 -0.12794758 0.074455976
0.36048675 -0.12799013 0.075559139
-0.17503005 -0.099767849 0.074456096
0.36048675 -0.099801749 0.07555902
-0.17503005 -0.071588174 0.074456215
0.36048675 -0.071613491 0.07555902
-0.17503005 -0.043408383 0.074455976
0.36048675 -0.043425389 0.07555902
-0.17503005 -0.015228705 0.074455976
0.36048675 -0.015237125 0.07555902
-0.17503005 0.012951083 0.074456215
0.36048675 0.012951139 0.07555902
-0.17503005 0.041130871 0.074456215
0.36048478 0.041139066 0.075537801
-0.17503005 0.069310546 0.074455976
0.36048675 0.069327384 0.075559139
-0.17503005 0.097490281 0.074456215
0.36048675 0.097515762 0.07555902
-0.17503005 0.12567008 0.074456215
0.36048675 0.12570398 0.07555902
-0.17503005 0.15384974 0.074455976
0.36048675 0.15389223 0.075559139
-0.17503005 0.18202947 0.074455976
0.36048675 0.18208049 0.075559139
-0.17503005 0.2102091 0.074456096
0.36048675 0.21026848 0.07555902
-0.17503005 0.23838888 0.074456215
0.36048675 0.2384568 0.07555902
-0.17503005 0.26656878 0.074455976
0.36048675 0.2666451 0.07555902
-0.17503005 0.29474831 0.074455976
0.36048675 0.29483333 0.07555902
-0.17503005 0.32292807 0.074456215
0.36048675 0.32302159 0.07555902
-0.17503005 0.35110787 0.074456215
0.36048675 0.35120979 0.07555902
-0.17511006 0.37943617 0.075941205
0.36048675 0.3793979 0.07555902
-0.17521304 0.40783334 0.07785213
0.36048675 0.4075861 0.075559139
-0.17530583 0.43623787 0.07957375
0.36048675 0.43577436 0.075559258
-0.17539062 0.46465099 0.08114779
0.36048675 0.46396267 0.07555902
-0.17547669 0.49309114 0.082744837
0.36048675 0.49215099 0.07555902
0.36048675 0.52033901 0.07555902
-0.17556165 0.52155334 0.084321618
-0.17564671 0.55003989 0.08589983
-0.14654431 0.54739696 0.067831039
0.36048675 0.54852724 0.07555902
-0.14661656 0.5757665 0.069395304
0.36048675 0.57671547 0.075559139
-0.14668886 0.60416031 0.070960522
0.36048675 0.60490376 0.075559139
-0.14676122 0.63257855 0.072527289
0.36048675 0.63309211 0.07555902
-0.14683366 0.66102111 0.074095726
0.36048675 0.66128027 0.07555902
-0.14691694 0.68953115 0.075898647
0.36048675 0.68946832 0.07555902
-0.14704151 0.71824104 0.078595638
0.36048675 0.71765667 0.07555902
-0.14716628 0.7469933 0.081296802
0.36048675 0.7458449 0.07555902
-0.1472922 0.77579218 0.084023118
0.36048675 0.77403301 0.075559258
-0.1184416 0.80070138 0.068507314
0.36048675 0.80222136 0.075559258
-0.11854581 0.82943976 0.071214676
0.36048478 0.83040476 0.07553792
-0.11864936 0.85821569 0.073904872
0.36048478 0.85859287 0.075537801
-0.11875305 0.8870343 0.076599121
0.36048478 0.8867808 0.07553792
-0.11885772 0.91590029 0.079318523
-0.20432393 -0.89325702 0.092548013
-0.20432393 -0.86493802 0.092547894
-0.20432393 -0.8366189 0.092547774
-0.20432393 -0.80830008 0.092548013
-0.20432262 -0.77997631 0.092526436
-0.20432262 -0.75165766 0.092526674
-0.20432262 -0.72333866 0.092526436
-0.20432262 -0.6950199 0.092526674
-0.34666839 -0.66808856 0.1000371
-0.20432262 -0.66670102 0.092526555
-0.34666839 -0.63971186 0.10003674
-0.20432262 -0.63838232 0.092526555
-0.34666839 -0.61133528 0.10003686
-0.20432262 -0.61006343 0.092526555
-0.34666839 -0.58295864 0.10003698
-0.20432262 -0.58174449 0.092526555
-0.20432262 -0.55342579 0.092526555
-0.20432262 -0.52510679 0.092526555
-0.20432262 -0.49678797 0.092526317
-0.20432262 -0.46846917 0.092526317
-0.2043213 -0.4401477 0.092504978
-0.2043213 -0.41182899 0.092505217
-0.2043213 -0.38351029 0.092504978
-0.2043213 -0.35519165 0.092504978
-0.2043213 -0.32687306 0.092505097
0.3897675 -0.32631615 0.086476207
-0.2043213 -0.29855433 0.092504978
-0.2043213 -0.27023563 0.092504859
-0.2043213 -0.24191692 0.092505097
-0.2043213 -0.21359824 0.092504978
-0.2043213 -0.1852797 0.092505217
-0.2043213 -0.15696098 0.092504978
-0.2043213 -0.12864223 0.092504978
-0.2043213 -0.10032368 0.092505097
-0.2043213 -0.072004974 0.092504978
-0.2043213 -0.043686271 0.092504859
-0.2043213 -0.015367679 0.092504978
-0.2043213 0.012951027 0.092504978
-0.2043213 0.04126979 0.092505217
-0.2043213 0.069588497 0.092505097
-0.20432262 0.097907707 0.092526555
-0.20432262 0.12622635 0.092526317
-0.20432262 0.15454528 0.092526436
-0.20432262 0.1828642 0.092526317
-0.20432262 0.21118303 0.092526555
-0.20432262 0.23950173 0.092526436
-0.20432262 0.26782066 0.092526436
