ply
format ascii 1.0
comment PCL generated
element vertex 962
property float x
property float y
property float z
element camera 1
property float view_px
property float view_py
property float view_pz
property float x_axisx
property float x_axisy
property float x_axisz
property float y_axisx
property float y_axisy
property float y_axisz
property float z_axisx
property float z_axisy
property float z_axisz
property float focal
property float scalex
property float scaley
property float centerx
property float centery
property int viewportx
property int viewporty
property float k1
property float k2
end_header
-0.46109077 -0.082343809 -0.31388843
-0.48234782 -0.061055049 -0.31403518
-0.46056989 -0.061015658 -0.31659484
-0.4823105 -0.039768297 -0.31422198
-0.46047249 -0.039746106 -0.31710088
-0.46298519 -0.10393338 -0.30404496
-0.44191608 -0.10398237 -0.30245805
-0.42145571 -0.10414124 -0.29729509
-0.48316631 -0.082434878 -0.30994606
-0.4406192 -0.082445718 -0.30947745
-0.42043912 -0.082594514 -0.30303645
-0.50670868 -0.061282933 -0.29923844
-0.4401941 -0.061089806 -0.31177831
-0.42007035 -0.061192349 -0.30511963
-0.40007123 -0.061315604 -0.29711926
-0.50659937 -0.03987959 -0.29976428
-0.44009289 -0.0397829 -0.31232619
-0.41998234 -0.039834503 -0.30561638
-0.4000003 -0.039896742 -0.29753792
-0.44242367 -0.018484443 -0.29971027
-0.421114 -0.018484341 -0.29922485
-0.44263551 0.0029201191 -0.29856396
-0.42112595 0.002915591 -0.2991575
-0.44292232 0.024348395 -0.29701126
-0.42130274 0.024330789 -0.29815912
-0.42168298 0.045787975 -0.29601121
-0.46547201 -0.125793 -0.29112267
-0.44338945 -0.12566374 -0.29448295
-0.42258459 -0.12580097 -0.29091918
-0.40213215 -0.12603065 -0.28495026
-0.48668948 -0.10429381 -0.29234314
-0.40117869 -0.10434803 -0.29057992
-0.38098446 -0.10459026 -0.28271389
-0.5078603 -0.082810089 -0.29369783
-0.40038711 -0.082774155 -0.29525411
-0.38033453 -0.082970947 -0.28673398
-0.38006631 -0.0614499 -0.28839326
-0.36001971 -0.06159351 -0.27906501
-0.37998721 -0.039963357 -0.28888249
-0.35994598 -0.040035263 -0.27954388
-0.40062547 -0.018484391 -0.29384685
-0.3600471 -0.018484391 -0.27888715
-0.46552941 -0.018484341 -0.29082429
-0.38030595 -0.018484291 -0.28691101
-0.46605483 0.0030006766 -0.28809416
-0.40052003 0.0029516201 -0.29446948
-0.38020477 0.0030049533 -0.28753686
-0.35992283 0.0030653067 -0.27969444
-0.46647379 0.024519181 -0.28591716
-0.4006415 0.024398623 -0.29375196
-0.3803103 0.024504425 -0.28688383
-0.36006609 0.024629356 -0.27876413
-0.46704301 0.046089344 -0.28295946
-0.44336948 0.045820698 -0.29459107
-0.4010753 0.04589922 -0.29119051
-0.38080138 0.046068937 -0.28384626
-0.46778724 0.067733034 -0.27909255
-0.44404033 0.067367598 -0.29095995
-0.42245725 0.067346729 -0.29163814
-0.40194067 0.067517824 -0.2860806
-0.44498208 0.089026704 -0.2858628
-0.42361006 0.089055106 -0.2851274
-0.38179782 -0.12631047 -0.27768242
-0.36149099 -0.12662499 -0.26950908
-0.51280195 -0.1049841 -0.26992238
-0.36081538 -0.10486171 -0.27389705
-0.3405875 -0.10514939 -0.26455438
-0.53487253 -0.083406918 -0.26785493
-0.3602621 -0.083184324 -0.27749074
-0.34009066 -0.083404675 -0.26795137
-0.53329498 -0.061653353 -0.27517366
-0.3398689 -0.06174124 -0.26946771
-0.53334528 -0.040070631 -0.27494049
-0.33978626 -0.040108442 -0.27003241
-0.49052438 -0.018484341 -0.27318275
-0.33976415 -0.018484341 -0.27018392
-0.49128172 0.0031445939 -0.26939893
-0.33969164 0.0031346697 -0.27067959
-0.4917703 0.024811136 -0.266958
-0.33990315 0.024776174 -0.26923358
-0.49247834 0.046540529 -0.26342034
-0.36065686 0.046274886 -0.27492666
-0.34047431 0.046496511 -0.26532829
-0.38174909 0.067767233 -0.27798378
-0.36161402 0.068052769 -0.26870978
-0.46847275 0.089424513 -0.27553046
-0.40335834 0.089340642 -0.27770984
-0.38324159 0.089685366 -0.26875114
-0.4691309 0.11116423 -0.27211046
-0.44665286 0.11094673 -0.27681935
-0.42636803 0.11128245 -0.26955044
-0.40608552 0.11164941 -0.26160657
-0.49281362 0.13333091 -0.2617451
-0.4729608 -0.14905207 -0.2522099
-0.3651875 -0.14936204 -0.24549937
-0.4936327 -0.12708132 -0.25765264
-0.34115857 -0.12696595 -0.26065028
-0.32081354 -0.12734129 -0.250898
-0.32026687 -0.10544836 -0.25484324
-0.29982936 -0.10575517 -0.24488246
-0.31979677 -0.083629102 -0.25823581
-0.2993896 -0.083859779 -0.24824333
-0.31956792 -0.061888717 -0.25988746
-0.29914814 -0.062039554 -0.25008821
-0.31948915 -0.040182233 -0.26045609
-0.29905128 -0.040256277 -0.25082827
-0.31945455 -0.018484391 -0.26070559
-0.29901293 -0.018484391 -0.25112128
-0.51734567 -0.018484341 -0.24806142
-0.31939885 0.0032083578 -0.26110756
-0.2989983 0.0032844879 -0.25123322
-0.31961215 0.024924925 -0.25956857
-0.29925236 0.025083089 -0.2492919
-0.32018781 0.046725512 -0.25541401
-0.29979452 0.046962604 -0.2451489
-0.49325755 0.068335511 -0.25952697
-0.34140202 0.068352208 -0.25898564
-0.32108843 0.068662323 -0.24891436
-0.49387756 0.09015961 -0.25642943
-0.36303213 0.090041444 -0.25949907
-0.34272382 0.090409122 -0.24994838
-0.49535653 0.11222981 -0.24904013
-0.38577142 0.11204213 -0.25310218
-0.47143254 0.13341667 -0.26015103
-0.45112994 0.13382433 -0.25258613
-0.45362255 -0.14965783 -0.23909485
-0.4321619 -0.14976259 -0.23682666
-0.41043502 -0.14980435 -0.23592401
-0.34366378 -0.14945339 -0.24352205
-0.32256415 -0.14969623 -0.23826396
-0.30167133 -0.15004066 -0.23080754
-0.51822203 -0.12761278 -0.24384487
-0.30037323 -0.12773278 -0.24072683
-0.27978712 -0.12812766 -0.23046768
-0.54136902 -0.10597588 -0.23771453
-0.27926809 -0.10606921 -0.23468184
-0.5640955 -0.084191278 -0.23389101
-0.27885985 -0.084096469 -0.23799646
-0.56215233 -0.062154971 -0.24259555
-0.27861884 -0.062195636 -0.23995328
-0.25799263 -0.062359653 -0.22930598
-0.56209904 -0.0403179 -0.24283421
-0.27851489 -0.040333524 -0.24079704
-0.25784865 -0.040412404 -0.23055267
-0.27849066 -0.018484391 -0.24099386
-0.25784373 -0.018484443 -0.23059523
-0.51854885 0.0033533424 -0.2422725
-0.27848545 0.0033629593 -0.24103606
-0.25788793 0.0034463163 -0.23021293
-0.51906896 0.025229702 -0.23977029
-0.27875578 0.025243999 -0.23884141
-0.25816292 0.025413563 -0.22783113
-0.51988304 0.047177307 -0.23585343
-0.27928373 0.047207125 -0.23455477
-0.52080524 0.069201142 -0.23141634
-0.30065867 0.068981603 -0.23854578
-0.28010139 0.069308773 -0.22791612
-0.52141184 0.091234699 -0.22849786
-0.32230282 0.090786263 -0.24015021
-0.30177698 0.091176987 -0.23000038
-0.36540556 0.11245875 -0.24408317
-0.34492576 0.11288318 -0.2348938
-0.43085966 0.1342773 -0.24418128
-0.41052827 0.1347519 -0.23537374
-0.39060795 -0.15039283 -0.22318375
-0.28077373 -0.15042631 -0.22245765
-0.54666251 -0.12879395 -0.21315587
-0.25906155 -0.12852871 -0.22004879
-0.25858453 -0.10639267 -0.2241801
-0.25823176 -0.084345013 -0.22723496
-0.23708495 -0.04049556 -0.21974909
-0.23706499 -0.018484391 -0.21993458
-0.54610378 -0.018484341 -0.21574831
-0.23713112 0.0035300292 -0.21932101
-0.23742366 0.025586335 -0.21660638
-0.25866175 0.047462285 -0.22351122
-0.23789445 0.047722585 -0.21223807
-0.25942436 0.069647849 -0.21690667
-0.28114247 0.091582529 -0.21946383
-0.52356255 0.11365654 -0.21815014
-0.32438564 0.11333472 -0.22511852
-0.30370012 0.11378799 -0.21530449
-0.54613465 0.15786029 -0.21560502
-0.52163303 0.15713181 -0.2274338
-0.21724063 -0.19590724 -0.19809711
-0.21657962 -0.17337345 -0.20470202
-0.23864916 -0.15122166 -0.2052356
-0.21651617 -0.15121715 -0.20533633
-0.23810947 -0.12890616 -0.21024299
-0.2166619 -0.12915105 -0.20387983
-0.57191807 -0.1071726 -0.19885015
-0.23860875 -0.10696451 -0.20561016
-0.21651617 -0.10697291 -0.20533633
-0.21657676 -0.084864751 -0.20473087
-0.59311521 -0.062763512 -0.20307148
-0.21713191 -0.062823407 -0.19918311
-0.59315521 -0.040625274 -0.20289838
-0.21613154 -0.018484391 -0.20917952
-0.54761881 0.0036117081 -0.20871949
-0.21622077 0.0036150161 -0.20828807
-0.19512701 0.0036988817 -0.19740176
-0.54905713 0.025810501 -0.20204639
-0.21649018 0.025755795 -0.20559573
-0.19537356 0.025923068 -0.19473231
-0.55000204 0.04805927 -0.19766247
-0.21697557 0.047988027 -0.20074558
-0.54993331 0.070230536 -0.19798124
-0.23861966 0.069998838 -0.20550931
-0.21766308 0.070357047 -0.19387543
-0.26037803 0.091998756 -0.20864761
-0.23952311 0.092442207 -0.19712615
-0.28294998 0.11427368 -0.20478857
-0.26205361 0.11476563 -0.19413686
-0.32781696 0.13663888 -0.20035517
-0.3062157 0.1368691 -0.196082
-0.19614571 -0.21889721 -0.18637371
-0.17450872 -0.21941361 -0.1789211
-0.19559106 -0.19625936 -0.19237816
-0.1747227 -0.19724375 -0.17639399
-0.24035957 -0.17419994 -0.18936443
-0.1960257 -0.17429106 -0.18767297
-0.19587216 -0.10746557 -0.18933535
-0.59548402 -0.085139856 -0.19281459
-0.24008965 -0.085161738 -0.19186926
-0.19624424 -0.085313238 -0.18530726
-0.19565421 -0.062938571 -0.19169462
-0.19593272 -0.040734839 -0.18867934
-0.17448509 -0.040807664 -0.17919993
-0.57681966 -0.018484391 -0.17689383
-0.17392957 0.003788447 -0.18576026
-0.17413512 0.026098637 -0.18333292
-0.19590715 0.048260234 -0.18895626
-0.1746704 0.048536159 -0.17701137
-0.19655511 0.070724465 -0.18194187
-0.55116922 0.092630036 -0.19224727
-0.21851763 0.092895985 -0.18533647
-0.55350423 0.1153533 -0.18141448
-0.24105537 0.11528429 -0.18290842
-0.28501135 0.13730186 -0.1880523
-0.26385465 0.13781448 -0.17853928
-0.15327108 -0.22039263 -0.16478956
-0.17474762 -0.17491473 -0.17609978
-0.26578328 -0.15322623 -0.16183674
-0.57757533 -0.13032003 -0.17350888
-0.17484728 -0.10790932 -0.17492282
-0.24286279 -0.063332148 -0.1661377
-0.17563257 -0.06333968 -0.16564894
-0.22058275 -0.040919363 -0.16470051
-0.15343553 -0.04093504 -0.16265345
-0.17576185 -0.018484291 -0.16412246
-0.15342751 -0.018484341 -0.16275752
-0.57862306 0.0039187744 -0.16881573
-0.15276334 0.026282502 -0.17138565
-0.15328136 0.048821442 -0.16465616
-0.58001202 0.071320228 -0.16259408
-0.17528683 0.071100436 -0.16973209
-0.19736135 0.09336254 -0.1732142
-0.17604217 0.093839981 -0.16081154
-0.2199226 0.11582051 -0.17129707
-0.19866091 0.11638182 -0.15914583
-0.35477212 0.13840531 -0.16757357
-0.24264908 0.13837589 -0.16812098
-0.5782339 0.16063428 -0.17055905
-0.28753549 0.16081904 -0.16755867
-0.26575929 0.16115871 -0.16204488
-0.2223258 -0.22160548 -0.14728296
-0.13178402 -0.22133981 -0.1511184
-0.2438426 -0.19843525 -0.1570462
-0.15382931 -0.1534248 -0.15753794
-0.1323193 -0.15407822 -0.14339232
-0.19927537 -0.13112891 -0.15249407
-0.15435922 -0.1311997 -0.15065444
-0.13236725 -0.1315058 -0.1427002
-0.1539188 -0.10848056 -0.15637541
-0.62953603 -0.086285122 -0.14322686
-0.17721444 -0.08619871 -0.14696777
-0.15457374 -0.086177953 -0.1478678
-0.1320487 -0.086191081 -0.14729786
-0.62650859 -0.063489653 -0.15591311
-0.13189605 -0.063588277 -0.14950156
-0.62683618 -0.04099758 -0.15454054
-0.13195831 -0.041043229 -0.14860237
-0.13183379 -0.018484391 -0.15040004
-0.58265406 0.026600102 -0.1507591
-0.13125673 0.02647751 -0.15872931
-0.10958888 0.026680609 -0.14552665
-0.13172701 0.049115174 -0.15194106
-0.15383965 0.071480073 -0.15740383
-0.13222972 0.071871616 -0.14468527
-0.58258057 0.094214328 -0.15108848
-0.15454602 0.094324298 -0.14822757
-0.17725006 0.11696374 -0.14654768
-0.22133234 0.13896382 -0.15721023
-0.19987461 0.13956746 -0.14600706
-0.3130559 0.16228141 -0.14381337
-0.24419311 0.16166672 -0.15379405
-0.22261131 0.16224346 -0.1444298
-0.10997915 -0.22216623 -0.13918972
-0.13302618 -0.1999044 -0.13318896
-0.11040374 -0.19995952 -0.13229501
-0.15626943 -0.17762294 -0.12583995
-0.11018188 -0.17708091 -0.13589776
-0.17786923 -0.15427017 -0.13923502
-0.17786923 -0.13163918 -0.13923502
-0.6074608 -0.10895535 -0.14095366
-0.13305032 -0.10920512 -0.13284051
-0.11035519 -0.10919774 -0.13308299
-0.11008882 -0.041129384 -0.13740873
-0.088102452 -0.041223481 -0.12518525
-0.60991222 -0.018484391 -0.13033879
-0.11047284 -0.018484391 -0.13117313
-0.11005627 0.0041565299 -0.13793719
-0.087626301 0.0041867588 -0.13402176
-0.087769173 0.026898669 -0.13137019
-0.58645135 0.049535215 -0.13374913
-0.10999493 0.049415477 -0.13893318
-0.088072099 0.049719997 -0.12574852
-0.11043362 0.072268195 -0.13180995
-0.1328752 0.0948193 -0.13536835
-0.58560407 0.11737952 -0.13754475
-0.15567574 0.11756393 -0.13355243
-0.38137156 0.13987072 -0.14038086
-0.17822355 0.14015789 -0.13505077
-0.20094404 0.16285922 -0.13443041
-0.24654275 0.18569615 -0.13199198
-0.22441229 0.18608123 -0.12643349
-0.088252775 -0.22332978 -0.12239575
-0.15675911 -0.20074885 -0.1194787
-0.088178821 -0.20048468 -0.12376821
-0.13446763 -0.17834817 -0.1123836
-0.088527031 -0.17808278 -0.11730635
-0.065981574 -0.17837957 -0.11179972
-0.066142164 -0.15569799 -0.10832286
-0.61279464 -0.13246207 -0.11785746
-0.066100918 -0.13279463 -0.10921586
-0.088251941 -0.10952628 -0.12241113
-0.066076033 -0.10991599 -0.10975456
-0.088826232 -0.087011926 -0.1117537
-0.066051178 -0.087045617 -0.11029315
-0.11096359 -0.063993149 -0.12320411
-0.088193603 -0.063988671 -0.12349379
-0.066001467 -0.064175338 -0.11136961
-0.20205152 -0.018484391 -0.12244153
-0.61310226 0.0043214113 -0.11652541
-0.065621965 0.0042978507 -0.11958587
-0.065747745 0.027121974 -0.1168623
-0.065961011 0.050031848 -0.11224544
-0.61352706 0.072795413 -0.11468601
-0.08837866 0.072629973 -0.12005949
-0.11102653 0.095326819 -0.12218225
-0.088989519 0.09584488 -0.10872328
-0.13387972 0.11814973 -0.12086928
-0.15693578 0.14112066 -0.1171838
-0.61266744 0.16384602 -0.1184082
-0.33928001 0.163894 -0.11762786
-0.17977801 0.16395156 -0.11669374
-0.27155572 0.18709186 -0.11184585
-0.20242694 0.18663944 -0.11837757
-0.066229738 -0.20155258 -0.10642719
-0.089253835 -0.15590596 -0.1038183
-0.11247101 -0.13319834 -0.09872663
-0.089808546 -0.13339864 -0.093524337
-0.043758482 -0.13331421 -0.095716238
-0.043882973 -0.11044789 -0.092481613
-0.66286159 -0.064355232 -0.099687576
-0.66351098 -0.041440167 -0.097051501
-0.043614566 -0.04142154 -0.099455237
-0.066579677 -0.018484443 -0.098850608
-0.043384813 -0.018484443 -0.10542417
-0.020932861 -0.018484341 -0.091157794
-0.043409765 0.004411893 -0.10477602
-0.61636519 0.027344717 -0.10239625
-0.043505527 0.027346397 -0.10228813
-0.043605022 0.05032146 -0.099703074
-0.066196986 0.073027827 -0.10713649
-0.043847032 0.073450312 -0.09341538
-0.61679047 0.09615922 -0.10055494
-0.066753872 0.096370056 -0.095079064
-0.11193792 0.11877261 -0.10738289
-0.089917593 0.11950618 -0.091500401
-0.40957236 0.14173026 -0.1058718
-0.13517779 0.14193174 -0.10213351
-0.15790877 0.16469973 -0.10454428
-0.18054292 0.18738188 -0.10766041
-0.20488957 0.21148312 -0.091718554
-0.20631704 -0.15717866 -0.076265931
-0.64482892 -0.11085857 -0.079143167
-0.021280088 -0.11083582 -0.079881191
-0.66708374 -0.087686464 -0.082547665
-0.11378931 -0.087807178 -0.07731986
-0.021136738 -0.087640509 -0.084536433
-0.021032281 -0.064536296 -0.087928891
0.0016708225 -0.064751402 -0.073950768
-0.02096118 -0.041492529 -0.090238214
0.0017257482 -0.041599553 -0.076328993
0.0017482713 -0.018484391 -0.077304244
-0.13661292 0.0045917369 -0.081418991
-0.020950615 0.0045210999 -0.090581179
0.0017344728 0.0046279188 -0.076706529
-0.021016903 0.027559774 -0.088428617
0.0016821101 0.027775193 -0.074439406
-0.62109023 0.05073183 -0.081936359
-0.02114252 0.050676011 -0.084348798
-0.021340072 0.073927194 -0.077933192
-0.044317834 0.096904851 -0.081183672
-0.6210649 0.11994292 -0.082046151
-0.067719571 0.12030663 -0.074171424
-0.11308407 0.14265178 -0.08877182
-0.090793677 0.14338067 -0.075242758
-0.36722654 0.16606215 -0.082422376
-0.13612947 0.16569416 -0.088397264
-0.11392985 0.1665169 -0.075038075
-0.29789808 0.18906103 -0.083424926
-0.1590845 0.18865594 -0.089271188
-0.18235794 0.21190596 -0.086225986
-0.15988591 0.21247298 -0.078860164
-0.021721609 -0.15767387 -0.06554234
-0.021473378 -0.13416533 -0.073604107
0.0013350621 -0.13471164 -0.059411883
0.001481764 -0.11127057 -0.06576407
0.0015913844 -0.087964371 -0.070510864
-0.044824168 -0.064842701 -0.068028569
0.02458737 -0.064968444 -0.059857249
0.024624087 -0.041708048 -0.062241912
-0.091713645 -0.018484391 -0.058169961
-0.64615822 -0.018484341 -0.073572516
0.024638999 -0.018484341 -0.063210607
0.024627998 0.0047373828 -0.062496066
0.024591289 0.027995797 -0.06011188
0.0015851855 0.051001906 -0.070242286
0.0014348924 0.074364334 -0.063734293
-0.021680146 0.097455122 -0.066888928
-0.044991903 0.12079155 -0.063670754
-0.068305783 0.14412223 -0.06147933
-0.091530181 0.16734603 -0.061574578
-0.1371631 0.18975012 -0.073477983
-0.11485692 0.19068496 -0.059984565
-0.23035529 0.21338242 -0.067047119
-0.13803074 0.21385136 -0.06095469
0.0011352971 -0.15835661 -0.05076158
0.024359688 -0.13526368 -0.04506886
0.024459157 -0.11170893 -0.051529646
-0.045584343 -0.088477798 -0.048278689
0.024533667 -0.088290982 -0.056369066
0.047691904 -0.088622831 -0.041997194
-0.16219077 -0.065136895 -0.048919678
0.047719009 -0.065189205 -0.045518637
-0.06873063 -0.041784637 -0.05228138
0.047737665 -0.041818172 -0.047941804
0.047745194 -0.018484341 -0.048919678
-0.65020269 0.0047825202 -0.056624293
-0.16219077 0.0048418082 -0.048919797
0.047739021 0.0048480667 -0.048118353
-0.65371251 0.028275894 -0.041916728
0.047720127 0.028218081 -0.045663238
0.024525564 0.051334463 -0.055842876
0.047686696 0.051669724 -0.041321039
-0.65093017 0.074677154 -0.053575873
0.024425391 0.074807636 -0.049336433
0.0011703894 0.098017298 -0.05228126
-0.022325821 0.12161143 -0.045920134
-0.045625083 0.14489061 -0.04722023
-0.068953283 0.16821514 -0.047460675
-0.32588151 0.19166712 -0.045807838
-0.092353843 0.19163391 -0.046289444
-0.11588239 0.21520787 -0.043332815
-0.046042144 -0.15902066 -0.036384583
0.024218772 -0.15904224 -0.03591609
0.047603834 -0.1358223 -0.030556679
0.047654167 -0.1121534 -0.037095428
0.071071409 -0.088957585 -0.027504206
-0.70379972 -0.06544625 -0.028820038
0.071071409 -0.065411799 -0.031059384
-0.70450169 -0.041986618 -0.026057005
0.071071409 -0.041929316 -0.033489585
0.071071409 -0.018484494 -0.034460545
0.071071409 0.0049594138 -0.033635259
0.071071409 0.028443521 -0.031027079
0.071071409 0.052010275 -0.026577473
0.047636129 0.075256683 -0.034751654
-0.65526026 0.098665886 -0.035430908
0.024239913 0.09859433 -0.037289143
0.00068365782 0.12229116 -0.031205177
-0.022737503 0.14568122 -0.032550454
-0.39742509 0.16891414 -0.036109924
-0.046181001 0.16911954 -0.032777071
-0.069614284 0.1925441 -0.033149719
-0.25717425 0.21597686 -0.033343911
-0.0932777 0.21630022 -0.029144883
-0.16347831 0.2395203 -0.032194018
-0.13980356 0.23925166 -0.035366297
-0.11684816 0.23990504 -0.027650595
-0.11725134 -0.15972644 -0.021103621
0.047529932 -0.15973316 -0.020956755
0.071071409 -0.16043177 -0.0058332682
0.071071409 -0.13638625 -0.015904903
0.071071409 -0.11260164 -0.022539139
0.094713837 -0.11305415 -0.0078428984
0.094675243 -0.089295894 -0.012855768
0.094647363 -0.065636322 -0.016477942
0.094628729 -0.042041682 -0.018898845
0.094621301 -0.018484443 -0.019862771
0.094628096 0.0050722864 -0.018980384
0.094649129 0.02867105 -0.016248703
-0.66080815 0.052342638 -0.01218307
0.094684348 0.05235444 -0.011673927
0.071071409 0.075711124 -0.019993424
0.04753634 0.099190906 -0.021789074
0.071071409 0.099793643 -0.0061299801
0.02391421 0.12298727 -0.016134143
0.00036811084 0.14648996 -0.017541528
-0.0231921 0.17004263 -0.01778686
-0.046804585 0.19369233 -0.016576052
-0.070490249 0.2174518 -0.014184356
-0.093936451 0.24081378 -0.016919732
0.094846629 -0.16113572 0.0094072819
0.094765656 -0.13695565 -0.0011115074
-0.68834788 -0.11341185 0.0037739277
0.11858471 -0.11351098 0.0069952011
-0.71089327 -0.089572072 -0.00089657307
0.11850653 -0.089637056 0.0019173622
0.11844997 -0.065862879 -0.0017564297
0.11841259 -0.042155061 -0.0041838884
0.14242552 -0.042269055 0.010639668
-0.68714446 -0.018484443 -0.0011115074
0.11839812 -0.018484443 -0.0051242113
0.14240436 -0.018484391 0.0097236633
0.11841235 0.0051861256 -0.0042004585
0.14242861 0.0053012874 0.010773063
0.11845684 0.02890102 -0.0013098717
0.11852847 0.052701257 0.0033427477
0.094735272 0.076171063 -0.0050581694
0.1186321 0.076637059 0.010073304
0.094850726 0.10041215 0.0099400282
0.047375891 0.12368889 -0.00094628334
0.023701753 0.14730948 -0.0023344755
2.1114945e-05 0.17098306 -0.0025165081
-0.35630429 0.19520348 0.0052342415
-0.023704045 0.19476038 -0.0011609793
-0.28577229 0.21941139 0.011272907
-0.047492802 0.21864398 0.0013042688
-0.18939179 0.24197878 -0.0031604767
-0.071041368 0.24205579 -0.0022518635
0.11885779 -0.1618436 0.024732471
0.11880194 -0.13781069 0.021104932
0.14268775 -0.11397281 0.021994352
0.14256856 -0.089981578 0.016833544
0.14248329 -0.06609229 0.013140917
0.16674991 -0.066323683 0.028166175
0.16667162 -0.042384472 0.025623918
0.16664419 -0.018484391 0.02473259
-0.69179159 0.0053550266 0.017753839
0.16667992 0.0054177735 0.025892973
0.14249794 0.029133329 0.013775229
0.14260837 0.053052649 0.018557429
0.14276963 0.077113234 0.025539637
0.11888084 0.10103911 0.026229501
0.071071409 0.12440495 0.014560223
0.047267321 0.14814417 0.013157725
-0.43127885 0.17288709 0.028402328
0.023466572 0.1719349 0.012940764
0.047148153 0.17290163 0.028638124
-0.00036939234 0.19583797 0.014393091
-0.024263278 0.2198524 0.017000675
-0.048104033 0.2437015 0.017184854
0.14310804 -0.16255768 0.040193677
0.14294136 -0.13826764 0.03297627
0.16723019 -0.13868289 0.043763876
0.16702674 -0.11443976 0.03715682
0.16686472 -0.090329356 0.031894803
0.19125286 -0.06655696 0.043321252
0.19115534 -0.042501211 0.040788054
0.19112134 -0.018484391 0.039904952
0.19116907 0.0055351257 0.041144848
-0.69571221 0.029439582 0.033669233
0.16677535 0.029367523 0.028992295
0.19129412 0.029604616 0.044393659
0.1669277 0.053407803 0.033939958
0.16716315 0.077607371 0.041586757
0.14322117 0.10176515 0.045091867
0.095007524 0.12513226 0.030307889
0.071071409 0.14898935 0.028840423
0.095118441 0.14984484 0.044717073
0.071071409 0.17388354 0.044581056
0.023201786 0.19692878 0.030139089
-0.00080127269 0.2210913 0.033094525
-0.2170155 0.24559538 0.039548397
-0.024766132 0.24506874 0.033331156
0.16760109 -0.16327894 0.055809379
0.19184916 -0.13926211 0.05881381
0.19160493 -0.11491121 0.052468419
0.19139972 -0.090681359 0.047137499
0.21617797 -0.091037638 0.062564611
0.21599916 -0.066793598 0.058693528
0.21588179 -0.04261943 0.056152582
0.21583742 -0.018484443 0.055192113
0.21590477 0.005654512 0.056650162
0.21605074 0.029842066 0.059810877
-0.69871068 0.053682759 0.045841694
0.1914904 0.053766981 0.049493194
-0.69893748 0.077766806 0.046762228
0.1918128 0.078108683 0.057868958
0.16777463 0.10239471 0.061445475
0.11918646 0.12586075 0.046080232
0.14361593 0.12660475 0.062185764
0.11941242 0.15070911 0.060757041
0.095241517 0.17487645 0.060705423
0.047012832 0.19804277 0.046216726
0.071071409 0.19916223 0.062375307
0.022906177 0.22234172 0.049339294
-0.0011859015 0.2464592 0.049749374
0.19234128 -0.16400827 0.071599722
0.21672663 -0.13986373 0.074443698
0.216429 -0.11538947 0.068000317
0.24120381 -0.091398343 0.078179717
0.24099499 -0.067034103 0.074304819
0.24085671 -0.042739425 0.071738482
0.24080536 -0.018484391 0.070785642
0.24088752 0.0057750177 0.072310209
0.24106422 0.030085014 0.075589418
0.21622491 0.054092266 0.063581347
0.24124131 0.05444549 0.078875661
0.21672502 0.078618035 0.074409008
-0.70474011 0.10273612 0.070318341
0.19258651 0.10303077 0.077970982
0.16818397 0.12718438 0.07473886
-0.70707124 0.15173432 0.079781175
0.1439327 0.15152536 0.075902343
0.11966273 0.17588091 0.077014327
-0.39065549 0.20022836 0.077762127
0.095379516 0.20028867 0.078631997
-0.31768909 0.22449093 0.077257991
0.0468615 0.22361466 0.06587553
0.022644144 0.24786557 0.066358924
-0.63695425 -0.16497253 0.092475414
0.21733198 -0.1647449 0.087549925
0.2418541 -0.14047207 0.090247512
0.24149963 -0.1158719 0.083669543
0.26648185 -0.091763325 0.093985915
0.26624081 -0.067276791 0.090072155
0.26608226 -0.042860694 0.087497354
0.26602194 -0.018484391 0.086517811
0.26612106 0.0058967974 0.088127613
0.26633045 0.03033025 0.0915277
0.26659554 0.05483719 0.095832109
0.24192402 0.079145759 0.091545343
0.19324285 0.12812141 0.095022917
0.16864207 0.15226439 0.089616418
-0.685637 0.15238521 0.09186101
0.14425021 0.17665909 0.089651465
0.11993836 0.20141684 0.094917536
0.071071409 0.22488908 0.082430482
0.046748687 0.24906565 0.080530286
0.071071409 0.25041339 0.096448064
-0.61437595 -0.16536596 0.10099506
0.24257794 -0.16548993 0.10368013
-0.71226221 -0.1408803 0.10085392
0.26723468 -0.14108635 0.10621035
0.26682007 -0.11635876 0.099478006
0.29201794 -0.092133187 0.11000443
0.29174402 -0.067522794 0.10605109
-0.76041299 -0.042939827 0.097768426
0.29156509 -0.042983696 0.10346794
0.29149529 -0.018484341 0.10246074
0.29161039 0.0060198959 0.10412228
0.2918545 0.030578589 0.10764539
0.29227033 0.055248581 0.11364734
0.26740384 0.079681776 0.10895753
0.21784219 0.1038246 0.098596454
-0.71305424 0.12853926 0.10406923
0.2184462 0.12889045 0.11167371
-0.66330385 0.15286976 0.1008538
0.19382632 0.15337241 0.11018193
0.16927151 0.17791583 0.11005759
0.14466454 0.20229498 0.10759223
0.095536597 0.22616757 0.099037051
0.1201988 0.22715254 0.11183381
0.095645919 0.25183514 0.1132381
-0.59301013 -0.16605811 0.11597967
0.26808238 -0.16624263 0.11997557
-0.69095916 -0.14139256 0.1141634
0.29287347 -0.14170776 0.12235284
0.2924023 -0.1168536 0.11555195
0.31781456 -0.092507325 0.12620342
0.31750989 -0.067772053 0.12224543
0.31730628 -0.043107867 0.11960042
0.3172293 -0.018484391 0.11860073
0.31735849 0.0061444249 0.12027919
0.31764215 0.030829778 0.12396359
0.3181186 0.055629641 0.13015294
0.29317501 0.080228329 0.12670553
0.24321285 0.10447374 0.11546302
-0.69272995 0.12934825 0.12158382
0.24392503 0.12967592 0.12867975
0.21914214 0.15426484 0.12674153
-0.47116593 0.17869285 0.12267494
0.19446783 0.1789498 0.12684906
0.16982059 0.20370115 0.12788975
0.12048776 0.25330564 0.13060248
-0.57166171 -0.1668074 0.13220334
0.29384935 -0.16700298 0.13643861
0.31877205 -0.14233471 0.13864172
0.3182418 -0.11735258 0.13175368
0.34434325 -0.11785592 0.14810216
0.3438746 -0.092885233 0.14256775
0.34353599 -0.068023391 0.13856936
0.34330973 -0.043233305 0.13589728
0.34322882 -0.018484443 0.13494158
0.34337085 0.0062702242 0.13661909
0.34369674 0.03108382 0.14046776
0.34424168 0.056016549 0.14690292
0.31923756 0.080782056 0.14468861
0.26885539 0.10513062 0.13252747
0.26968256 0.13047408 0.14595866
0.24473593 0.1551802 0.14372754
0.21991834 0.17997822 0.14354622
0.1951496 0.20485646 0.14456153
0.14522752 0.22870269 0.13196945
0.17044297 0.22994439 0.14810216
-0.25030774 0.25345179 0.13232934
0.14559673 0.25477511 0.14795673
0.3198829 -0.16777135 0.15307212
0.34493709 -0.14296885 0.15511537
0.37071177 -0.11836451 0.16461802
0.37020037 -0.093266696 0.15908182
0.36982891 -0.068277329 0.15506065
0.36957955 -0.043360025 0.15236115
0.36949372 -0.018484391 0.15143192
0.36965027 0.0063971933 0.15312672
0.37001452 0.031339437 0.15707004
0.37063718 0.056407079 0.16381037
0.34558788 0.081339806 0.16280103
0.2947683 0.10579163 0.14970243
0.29569742 0.13126628 0.163113
0.27058768 0.15609226 0.16065633
0.24563333 0.18101485 0.16038167
0.22073147 0.20600574 0.16115117
0.19591451 0.23120177 0.16443455
0.34618717 -0.16854753 0.16987848
0.37137142 -0.1436093 0.17175865
0.39735535 -0.11887936 0.18134093
0.39679745 -0.09365198 0.17576599
0.3963927 -0.068533763 0.1717217
0.39612162 -0.04348816 0.16901278
0.39602584 -0.018484443 0.16805565
0.39619902 0.0065254346 0.16978621
0.39660513 0.031597704 0.17384422
0.39731079 0.056801625 0.18089569
0.3722086 0.081894651 0.18082154
0.32094288 0.10645131 0.16684139
0.44648686 0.10665411 0.17210901
0.47103119 0.10650317 0.1681844
0.32196626 0.13205253 0.18013549
0.44648474 0.13168103 0.17209065
0.29671633 0.1570172 0.17781973
0.27160591 0.18205014 0.1771903
0.24658796 0.20717971 0.17809737
0.22147316 0.2321852 0.17720878
0.17103189 0.25640678 0.16722775
0.37278712 -0.16934231 0.18708384
0.39807919 -0.14425661 0.18857408
0.42427304 -0.11939904 0.19821835
0.42366999 -0.094041184 0.1926229
0.42323363 -0.068793252 0.18857408
0.42293867 -0.04361783 0.18583703
0.42283642 -0.018484544 0.18488836
0.4230229 0.006654948 0.18661857
0.42347682 0.031859219 0.19083047
0.42426696 0.057200439 0.19816196
0.3991006 0.08244767 0.19878078
0.34739208 0.10711588 0.18410778
0.34852189 0.13285224 0.19744992
0.32312039 0.15794995 0.1951282
0.29780924 0.18306035 0.19359481
0.27268985 0.20833637 0.19479156
0.24742407 0.23344807 0.19361353
0.39968151 -0.17015064 0.20458543
0.42506677 -0.1449113 0.20558333
0.45147082 -0.11992432 0.21527147
0.45082235 -0.094434611 0.20965564
0.45035213 -0.069055229 0.20558321
0.45003277 -0.043748565 0.20281756
0.44992426 -0.018484443 0.20187783
0.45012832 0.0067860894 0.20364487
0.45063719 0.032124355 0.20805168
0.45151022 0.057603382 0.21561241
0.37409991 0.10777743 0.20129561
0.37539795 0.13367879 0.21534729
0.3498002 0.15888856 0.21254623
0.32440883 0.18418556 0.21186566
0.29886967 0.209314 0.20890057
0.27356458 0.23463212 0.20899498
0.4268637 -0.17096676 0.22225654
0.45233673 -0.14557292 0.22277033
0.47894609 -0.12045312 0.2324456
0.47825184 -0.094830737 0.22680914
0.47775206 -0.069319494 0.22275138
0.4774102 -0.043880571 0.21997559
0.47729325 -0.018484443 0.21902609
0.47751784 0.0069186036 0.22084975
0.47808748 0.032392547 0.2254746
0.47907108 0.058015488 0.23346019
0.42627016 0.083000936 0.21674955
0.40118554 0.10848261 0.21961474
0.37695444 0.15994753 0.23219669
0.35104835 0.18513516 0.2272861
-0.36072072 0.23551099 0.22041249
0.45433554 -0.17179005 0.2400806
0.47988886 -0.14623982 0.24009979
0.50670677 -0.12098689 0.24978042
0.50596392 -0.095230162 0.24410415
0.50543237 -0.069585696 0.24004197
0.50506026 -0.044013135 0.23719895
0.50493979 -0.018484341 0.23627794
0.50519598 0.0070522409 0.23823583
0.50583285 0.032663934 0.24310207
0.45398507 0.083625861 0.23704541
0.42851335 0.10917349 0.23756373
0.40266317 0.13455786 0.23437989
0.40376174 0.16065653 0.24535751
0.37824503 0.18629798 0.24616742
0.32716832 0.21200286 0.24771225
0.48217511 -0.1726483 0.25866175
0.50772661 -0.14691232 0.25757337
0.53396481 -0.095633313 0.26156139
0.53340143 -0.069854394 0.25749564
0.53300333 -0.044147335 0.25462246
0.53287971 -0.018484391 0.2537303
0.53316462 0.0071874037 0.25578654
0.53388119 0.032938942 0.26095772
0.5069651 0.05843807 0.25175428
0.48168951 0.084170073 0.25471938
0.42999053 0.13533804 0.25127006
-0.49693915 -0.19921513 0.27485859
0.51030236 -0.17350711 0.27725565
0.53585356 -0.14759053 0.27519238
0.53485173 -0.12154668 0.26796222
0.56227297 -0.096042514 0.27928185
0.56165761 -0.070124976 0.27507472
0.56121856 -0.044281632 0.27207315
0.56110108 -0.018484494 0.27126968
0.56141359 0.0073230248 0.27340651
0.56221825 0.033215225 0.2789079
0.53517437 0.058866106 0.27029026
0.5095703 0.084691793 0.27166164
-0.44603136 0.21421187 0.27959692
-0.47398886 -0.22612637 0.29260182
-0.47370991 -0.20007816 0.29087651
0.53853548 -0.17430571 0.2945472
0.56423277 -0.14826369 0.29268122
0.56312954 -0.12207557 0.28513837
0.59020996 -0.070398249 0.29281998
0.58971554 -0.044416487 0.28960848
0.58960575 -0.018484391 0.28889573
0.5899657 0.0074602738 0.29123318
0.59090441 0.033498928 0.29733062
0.56376594 0.059309453 0.28948963
0.53780723 0.085234679 0.28929162
-0.44960544 -0.22675508 0.30281103
-0.42572385 -0.22766133 0.31752634
-0.52843237 -0.20094207 0.30690813
-0.45179966 -0.20148934 0.31706333
0.56665337 -0.17498396 0.3092308
0.61987787 -0.17528614 0.31577551
0.61944574 -0.14904968 0.31310225
0.61940354 -0.12292858 0.31284118
0.61946523 -0.096826367 0.31322289
0.62015438 -0.070778042 0.31748593
0.61837971 -0.018484494 0.30650795
0.61878747 0.0075973701 0.30903053
0.61997867 0.033792362 0.31639922
0.59276128 0.059769191 0.30939114
0.56708163 0.085938886 0.3121587
-0.50727493 -0.22879213 0.33588791
-0.40180814 -0.22865306 0.33362997
-0.42787418 -0.20230651 0.33222806
0.622531 -0.20230432 0.33218753
0.64857781 -0.20223637 0.33092868
0.59544063 -0.14957659 0.32679367
0.59482414 -0.12323489 0.32278979
0.59563076 -0.097168289 0.32802904
0.64910412 -0.097307116 0.33403671
0.64896643 -0.071020424 0.33322358
0.64865685 -0.044738211 0.33139575
0.64772666 0.0077272393 0.32590306
0.64929014 0.034080952 0.33513498
0.6221897 0.06024684 0.33007669
0.65183723 -0.22967196 0.35017455
0.67821747 -0.22966565 0.35007191
-0.40264329 -0.20270671 0.33965731
-0.37733719 -0.20312324 0.34738553
0.59756559 -0.17643264 0.34059596
0.67872661 -0.17700316 0.35294759
0.62359023 -0.044794798 0.33873963
0.67847192 -0.044893116 0.35150921
0.6786502 -0.018484391 0.35251606
0.67677832 0.0078507476 0.34194362
0.65221977 0.060763061 0.3524338
0.70792347 -0.23076843 0.36797893
0.60185492 -0.20425858 0.36845601
0.67889774 -0.20347504 0.35391402
0.67945182 -0.150741 0.35704339
0.68000686 -0.12438631 0.36017835
0.65446287 -0.018484544 0.36567867
0.70802695 -0.018484391 0.36853909
0.67899245 0.034378201 0.35444903
0.60054553 0.087410405 0.35995138
0.70935196 -0.20464951 0.37571084
0.65649021 -0.15153416 0.37764931
0.70982569 -0.15155822 0.37827504
0.65649021 -0.12492426 0.37764907
0.70996833 -0.12496706 0.37904692
0.68252832 -0.098239616 0.37441969
0.7097255 -0.098316252 0.37773275
0.70859468 -0.071611255 0.37161195
0.70846033 -0.045042377 0.37088466
0.7369628 0.0081511494 0.38098931
0.70945972 0.034714729 0.37629426
0.68328112 0.061369054 0.37867165
0.63252908 -0.23237307 0.39403474
0.73869646 -0.20541947 0.38999736
0.73863578 -0.17869987 0.38968229
0.74107361 -0.09888459 0.40234947
0.68637794 -0.071989208 0.39616227
0.73855495 -0.0451838 0.38926232
0.71331739 0.0082758795 0.3971746
0.74113464 0.035120673 0.40266681
0.7691589 -0.20643105 0.40877092
0.76879787 -0.17949817 0.40696692
0.76940119 -0.15277855 0.40998149
0.7699672 -0.12600678 0.41280949
0.76905692 -0.099021122 0.40826118
0.74158692 -0.072125696 0.40501666
0.76877666 -0.072153941 0.40686107
0.76937568 -0.045342218 0.40985382
0.76943099 0.0083755199 0.41013002
0.71976405 -0.18065754 0.43206787
0.74577576 -0.15342537 0.42678273
0.74742705 -0.12670122 0.43536282
0.79941344 -0.045460075 0.42515326
0.77247214 -0.018484341 0.42532456
0.80059135 -0.018484341 0.43082047
0.77492595 0.035658322 0.43758464
0.80506063 -0.18159318 0.45232332
0.83274299 -0.1272947 0.45463181
0.83166885 -0.099976979 0.44964814
0.80448651 -0.072811432 0.44956148
0.83142531 -0.072795346 0.44851863
0.80406678 0.0086635035 0.44754136
0.8068701 -0.15474349 0.46102905
0.83450395 -0.15481159 0.46280158
0.80737048 -0.12756568 0.46343672
0.80630678 -0.10017718 0.45831883
0.83416432 -0.045737728 0.46122587
0.75190371 -0.018484443 0.4586246
0.86728191 -0.10085101 0.48749459
0.86700445 -0.07337635 0.48625171
0.83843637 -0.018484494 0.48104572
0.37108245 -0.22849219 0.81817377
0.40216002 -0.22917727 0.83088624
0.34386835 -0.23065992 0.8584007
0.43425158 -0.23033948 0.85245645
0 0 0 1 0 0 0 1 0 0 0 1 0 0 0 0 0 962 1 0 0
