ply
format ascii 1.0
comment PCL generated
element vertex 1327
property float x
property float y
property float z
element camera 0
property float view_px
property float view_py
property float view_pz
property float x_axisx
property float x_axisy
property float x_axisz
property float y_axisx
property float y_axisy
property float y_axisz
property float z_axisx
property float z_axisy
property float z_axisz
property float focal
property float scalex
property float scaley
property float centerx
property float centery
property int viewportx
property int viewporty
property float k1
property float k2
end_header
-0.13719347 -0.14412761 -0.12436712
-0.11121133 -0.14413247 -0.12424099
-0.26892599 -0.19714925 -0.10495996
-0.24250676 -0.19696987 -0.10828865
-0.21615185 -0.19679952 -0.11144781
-0.18995264 -0.19671264 -0.11306131
-0.1637862 -0.19663256 -0.11454654
-0.13764367 -0.19655362 -0.11601257
-0.1115488 -0.19650397 -0.11693478
-0.085498065 -0.19649619 -0.11707938
-0.05945066 -0.19649029 -0.11718786
-0.033447955 -0.19658488 -0.11543345
-0.0074205026 -0.19668734 -0.1135323
0.01863509 -0.19679773 -0.11148405
0.044722218 -0.19699922 -0.1077435
-0.37307656 -0.17086241 -0.10819793
-0.34637955 -0.17062852 -0.11326063
-0.32000172 -0.17049798 -0.11608481
-0.29370943 -0.17038697 -0.11848891
-0.26747778 -0.17028779 -0.12063694
0.070737496 -0.17027941 -0.12081742
0.096799195 -0.1704188 -0.11780226
0.122997 -0.17073745 -0.1109035
0.14930022 -0.17105484 -0.10403109
-0.42539713 -0.14477661 -0.10750711
-0.39873046 -0.14461499 -0.11170173
-0.37228122 -0.1445013 -0.11465514
-0.3459574 -0.14441425 -0.11691678
-0.31979132 -0.14437118 -0.11803722
-0.29398984 -0.14446166 -0.11568666
-0.26784149 -0.14442256 -0.1166997
-0.24170728 -0.14438298 -0.11773002
-0.21558897 -0.14434329 -0.11875987
-0.18948905 -0.1443052 -0.11975288
-0.1634078 -0.14426905 -0.12069118
-0.085354179 -0.14426416 -0.12081742
-0.059360567 -0.14429119 -0.12011385
-0.033347789 -0.14430448 -0.11977077
-0.0073300153 -0.14431837 -0.1194098
0.018693324 -0.14433232 -0.1190486
0.044722218 -0.14434683 -0.11866951
0.070756949 -0.14436156 -0.11829019
0.096741118 -0.14423507 -0.12157476
0.12275472 -0.14424205 -0.1213944
0.14883502 -0.14432871 -0.11913908
0.17509784 -0.14456332 -0.11304307
-0.45152283 -0.11866038 -0.10745263
-0.42501706 -0.11857428 -0.11025023
-0.39879456 -0.11854459 -0.11121202
-0.37307879 -0.11863805 -0.10817981
-0.34678164 -0.11858879 -0.10977817
-0.32050928 -0.11853965 -0.11137521
-0.29429066 -0.11849949 -0.11268067
-0.26811904 -0.11846828 -0.11369526
-0.24196152 -0.1184364 -0.11472762
-0.21582277 -0.11840574 -0.11572289
-0.18972439 -0.11838623 -0.11635613
-0.16365249 -0.11837527 -0.1167177
-0.13758714 -0.11836453 -0.11706126
-0.11138946 -0.11826224 -0.12038434
-0.085375711 -0.11826606 -0.12025821
-0.059471261 -0.11838123 -0.11651886
-0.03343292 -0.11839467 -0.11608469
-0.007387612 -0.11840744 -0.11566877
0.01866396 -0.11842082 -0.11523449
0.044722218 -0.11843421 -0.11479998
0.070787162 -0.11844753 -0.11436558
0.096858799 -0.11846097 -0.11393094
0.12293713 -0.11847441 -0.11349618
0.14902216 -0.11848768 -0.11306131
0.17494109 -0.1183629 -0.11711538
0.20100993 -0.1183796 -0.1165731
0.22755229 -0.11866207 -0.10739827
-0.4778482 -0.092573375 -0.10610664
-0.45153081 -0.092543572 -0.10739803
-0.42585859 -0.092617914 -0.10417688
-0.39962223 -0.092601493 -0.10488713
-0.37309223 -0.092527993 -0.10807061
-0.34709641 -0.0925515 -0.10705256
-0.32080472 -0.092514947 -0.108634
-0.29459205 -0.092491046 -0.10966933
-0.26839703 -0.092467599 -0.11068583
-0.24222238 -0.092445329 -0.11164737
-0.21610858 -0.092437007 -0.11201
-0.19000039 -0.092428625 -0.11237264
-0.16391227 -0.092425816 -0.11249948
-0.13782711 -0.09242323 -0.11260808
-0.11158389 -0.092340901 -0.11617517
-0.085534245 -0.092341632 -0.11613917
-0.059597258 -0.092427388 -0.11242676
-0.033527445 -0.092437454 -0.11199176
-0.0074509233 -0.092447467 -0.11155653
0.018632296 -0.092457533 -0.11112118
0.044722218 -0.092467599 -0.11068583
0.070818841 -0.092477717 -0.11025023
0.096922457 -0.092488125 -0.10979629
0.12303264 -0.092498131 -0.10936058
0.14915346 -0.092511237 -0.10879755
0.17528294 -0.092524223 -0.10823417
0.20142111 -0.092537269 -0.1076709
0.22730573 -0.092437848 -0.11197388
0.25359923 -0.09251669 -0.10856128
-0.47806963 -0.066466913 -0.10466874
-0.45185012 -0.066458642 -0.10521495
-0.37330276 -0.06644088 -0.10636139
-0.34741163 -0.066472255 -0.10432267
-0.32113004 -0.066452406 -0.10561538
-0.29489577 -0.066436663 -0.10663438
-0.26870915 -0.066426307 -0.1073072
-0.24256064 -0.066421136 -0.10765254
-0.2164356 -0.066419333 -0.10776174
-0.19031353 -0.066417933 -0.10785258
-0.16419172 -0.066416301 -0.10796154
-0.13807456 -0.066415519 -0.10801601
-0.11179888 -0.066361412 -0.11152029
-0.085707843 -0.06635984 -0.11162889
-0.059731957 -0.066414893 -0.10805249
-0.033631425 -0.066423558 -0.10748899
-0.0075222254 -0.066432267 -0.10692525
0.018595656 -0.06644088 -0.10636139
0.044722218 -0.066449538 -0.10579729
0.070857465 -0.066458195 -0.10523319
0.097001404 -0.066466913 -0.10466874
0.12315404 -0.06647563 -0.10410404
0.27998486 -0.066468373 -0.10457754
-0.11203463 -0.040313944 -0.10641611
-0.085915491 -0.040315408 -0.10623395
-0.059785146 -0.040314674 -0.10632503
0.30552232 -0.014187802 -0.11240876
-0.63496554 0.011954088 -0.10437715
-0.60864848 0.011947058 -0.10528779
-0.58257753 0.011949701 -0.10494184
-0.55651098 0.011952737 -0.10454118
-0.5303396 0.011951333 -0.10472322
-0.50410038 0.011946665 -0.10534215
-0.47800234 0.011948409 -0.10510564
-0.45190072 0.01195032 -0.10486901
-0.4258182 0.011953356 -0.10446835
-0.3997319 0.011956617 -0.10404932
-0.6349473 0.038094457 -0.10446823
-0.60830182 0.038054138 -0.10708892
-0.58213723 0.03805054 -0.10732543
-0.55600196 0.038049132 -0.10741627
-0.52987736 0.038048457 -0.10745251
-0.5037474 0.038047448 -0.10752547
-0.47764662 0.038049132 -0.10741627
-0.45154145 0.03805054 -0.10732543
-0.42542484 0.038050707 -0.10730708
-0.39930555 0.038050707 -0.10730708
-0.37318853 0.038050991 -0.10728908
-0.34706908 0.038050991 -0.10728908
-0.32095164 0.038051382 -0.10727072
-0.29483208 0.038051382 -0.10727072
-0.26871252 0.038051382 -0.10727072
-0.24259298 0.038051382 -0.10727072
-0.21647482 0.038051665 -0.1072526
-0.19035509 0.038051665 -0.1072526
-0.16423652 0.038051944 -0.10723436
-0.13811766 0.038052227 -0.10721624
-0.11199768 0.038052227 -0.10721624
-0.085878387 0.038052507 -0.107198
-0.059767786 0.03805723 -0.10688901
-0.03366797 0.038072359 -0.10590649
-0.0075536035 0.03808805 -0.10488725
0.018576456 0.038103737 -0.10386717
-0.39930317 0.064169601 -0.10732532
-0.37307879 0.064149916 -0.10817969
-0.34696206 0.064149126 -0.10821617
-0.32090068 0.064159922 -0.1077435
-0.0075687468 0.064248607 -0.10390353
-0.55662066 0.11653886 -0.10392177
-0.52967423 0.11635683 -0.108652
-0.5032835 0.11628985 -0.11039531
-0.47733328 0.11632624 -0.10945129
-0.45189011 0.11649977 -0.10494173
-0.5825305 0.14262536 -0.10519671
-0.55487418 0.1422286 -0.11378586
-0.52821946 0.14206907 -0.1172421
-0.50218546 0.14207149 -0.11718786
-0.47619227 0.14208657 -0.11686254
-0.45059654 0.1422286 -0.11378586
-0.42569456 0.14261788 -0.10536051
0.51512134 0.14261207 -0.10548794
0.54035109 0.14232662 -0.11166537
0.56643683 0.14232662 -0.11166537
0.59252548 0.14232737 -0.11164713
0.6186114 0.14232737 -0.11164713
0.64481288 0.1423575 -0.11099422
-0.55642396 0.16876978 -0.1050328
-0.53028721 0.16876978 -0.1050328
-0.50415033 0.16876978 -0.1050328
-0.47801355 0.16876978 -0.1050328
-0.45187679 0.16876978 -0.1050328
0.59340358 0.16870606 -0.10621595
0.6179089 0.1681897 -0.11579537
0.61927867 0.19474185 -0.10770726
0.64320463 0.19397995 -0.12007761
0.64513427 0.22075602 -0.10917902
0.67136329 0.22080258 -0.10850668
0.67096746 0.24674764 -0.11064947
-0.13923658 -0.22442636 -0.086451769
-0.11291257 -0.22436747 -0.087408543
-0.086635128 -0.22435948 -0.087537408
-0.060363661 -0.22435948 -0.087537408
-0.34941566 -0.19811875 -0.086966991
-0.32226735 -0.19768247 -0.095062613
-0.29540077 -0.19733095 -0.10158813
0.070884958 -0.19732708 -0.10166109
0.097147323 -0.19767562 -0.095190883
-0.42799097 -0.17175877 -0.088787675
-0.40033588 -0.17126718 -0.099434018
0.17594589 -0.17165619 -0.091010451
-0.84576231 -0.14514142 -0.098026752
-0.81957155 -0.14514142 -0.098026752
-0.79338086 -0.14514142 -0.098026752
-0.48050895 -0.14549559 -0.088824511
-0.45286405 -0.14513159 -0.098282814
0.20175178 -0.1450457 -0.10051155
0.22866812 -0.14557776 -0.086690784
-0.50600207 -0.1190876 -0.093578458
-0.47833332 -0.11879889 -0.10295594
0.25458968 -0.11912162 -0.092478275
-0.55929375 -0.092972472 -0.088824391
-0.53183305 -0.092808947 -0.095904827
-0.50483704 -0.092696249 -0.10078537
0.28054261 -0.092794605 -0.0965271
-0.58549416 -0.066705748 -0.089155316
-0.55835462 -0.066629261 -0.094128251
-0.53137147 -0.066559866 -0.098630071
-0.50464237 -0.066508129 -0.10198951
-0.42617178 -0.066509366 -0.10191655
-0.39996803 -0.066504195 -0.10224485
0.14931537 -0.066484347 -0.10353911
0.17548539 -0.066493005 -0.10297418
0.20166415 -0.066501722 -0.10240901
0.22785062 -0.066510275 -0.10186183
0.25402981 -0.066514656 -0.10156989
0.30664635 -0.066572696 -0.097807527
-0.61195487 -0.040454872 -0.088107347
-0.58496493 -0.040424731 -0.092019916
-0.55817622 -0.040400714 -0.095135808
-0.53151697 -0.04038047 -0.097770929
-0.50492263 -0.040361352 -0.10025573
-0.47840908 -0.040344369 -0.1024636
-0.45223922 -0.040343639 -0.10255492
-0.42606562 -0.040342625 -0.10268259
-0.40027371 -0.040364049 -0.099908948
-0.37365261 -0.040336158 -0.10352111
-0.34773156 -0.040351346 -0.10155165
-0.32145789 -0.040343523 -0.10257304
-0.29527116 -0.040341105 -0.10288298
-0.26910773 -0.040340319 -0.1029923
-0.24294908 -0.040339757 -0.10306525
-0.21679716 -0.040339757 -0.10306525
-0.1906452 -0.040339757 -0.10306525
-0.16449325 -0.040339757 -0.10306525
-0.13834134 -0.040339757 -0.10306525
-0.033751693 -0.040345773 -0.10228121
-0.0076024272 -0.04035005 -0.10171592
0.018555541 -0.040354379 -0.10115027
0.044722218 -0.040358819 -0.10058451
0.070897609 -0.040363263 -0.1000185
0.097081713 -0.040367536 -0.099452257
0.12327453 -0.040371925 -0.098885894
0.1494761 -0.040376313 -0.098319292
0.17569059 -0.040381484 -0.097643018
0.20191637 -0.040386826 -0.096948028
0.22815287 -0.040392227 -0.09625268
0.2544001 -0.04039757 -0.095556974
0.28039441 -0.040373556 -0.098666787
0.30663085 -0.040378727 -0.098008513
0.33306649 -0.040400997 -0.09511745
-0.74374062 -0.014187858 -0.086157203
-0.66384745 -0.014187802 -0.091193914
-0.63739109 -0.014187802 -0.092258334
-0.58483952 -0.014187802 -0.092698574
-0.53176486 -0.014187802 -0.096307516
-0.50523859 -0.014187802 -0.098301053
-0.47874334 -0.014187858 -0.10029233
-0.45253006 -0.014187802 -0.10056615
-0.42636141 -0.014187802 -0.10054803
-0.37418973 -0.014187858 -0.099160075
-0.0076831579 -0.014187802 -0.096472263
0.018515021 -0.014187802 -0.095886469
0.070940129 -0.014187802 -0.09449482
0.12340812 -0.014187914 -0.093101859
0.14965822 -0.014187802 -0.092405081
0.17591904 -0.014187802 -0.091707826
0.20219062 -0.014187802 -0.091010332
0.22847295 -0.014187858 -0.090312719
0.25476605 -0.014187802 -0.089614749
0.33338165 -0.014187802 -0.091395974
-0.71714222 -0.014187746 -0.087574005
-0.69042325 -0.014187746 -0.089651346
-0.61098659 -0.014187746 -0.093138456
-0.55835789 -0.014187746 -0.094110131
-0.40057507 -0.01418769 -0.097606421
-0.34813225 -0.014187746 -0.098081946
-0.32194194 -0.014187746 -0.098081946
-0.29575166 -0.014187746 -0.098081946
-0.26956135 -0.014187746 -0.098081946
-0.24337105 -0.014187746 -0.098081946
-0.21718077 -0.014187746 -0.098081946
-0.19099049 -0.014187746 -0.098081946
-0.16480018 -0.014187746 -0.098081946
-0.13860987 -0.014187746 -0.098081946
-0.11226353 -0.014187746 -0.10146046
-0.086111173 -0.014187746 -0.10115027
-0.059951793 -0.01418769 -0.10091305
-0.03387275 -0.014187746 -0.097039461
0.044722218 -0.014187746 -0.095190763
0.097168759 -0.014187746 -0.093798637
0.35976931 -0.014187746 -0.089816689
-0.74381715 0.012096925 -0.085825682
-0.71592861 0.012041533 -0.093010187
-0.68820447 0.011988167 -0.099945545
-0.66145962 0.011967078 -0.10268235
-0.3736369 0.011959599 -0.10364854
-0.34753576 0.011962691 -0.10324752
-0.32142842 0.011965841 -0.10284662
-0.29531497 0.011968821 -0.10244536
-0.26919532 0.011971971 -0.10204422
-0.24306951 0.011975119 -0.10164297
-0.21693753 0.011978157 -0.10124159
-0.19079937 0.011981193 -0.10084009
-0.16465503 0.011984454 -0.10043848
-0.13850453 0.011987491 -0.10003686
-0.11234446 0.011990076 -0.09970808
-0.08617723 0.011992047 -0.099434018
-0.060016464 0.011996826 -0.098812819
-0.03385121 0.012003349 -0.097972155
-0.0076733008 0.012009988 -0.097112536
0.01851798 0.012016339 -0.096270919
0.044722218 0.012023201 -0.095392227
0.070940129 0.012030061 -0.0944947
0.097171582 0.012036921 -0.093615174
0.12341702 0.012043895 -0.092716813
0.14967573 0.012050644 -0.091836333
0.17594871 0.012057502 -0.090936899
0.20223556 0.012064364 -0.090037107
0.22853532 0.012071168 -0.089155316
0.30750775 0.012090851 -0.086617112
0.33383775 0.012095463 -0.08600986
0.3601754 0.012099961 -0.085420609
-0.71705192 0.038348302 -0.087978721
-0.68915826 0.038232289 -0.095520377
-0.66174775 0.03814327 -0.10129607
0.044722218 0.038119372 -0.10284662
0.07088384 0.038135398 -0.10180712
0.097061187 0.038151145 -0.10078526
0.12325428 0.038166944 -0.099762917
0.14946315 0.038182691 -0.098739862
0.17568779 0.038198438 -0.097716093
0.20192821 0.038214128 -0.096691608
0.22818443 0.038229872 -0.095666885
0.25445649 0.03824573 -0.094641328
0.28074563 0.038261812 -0.093596935
0.30704951 0.038277727 -0.092570066
0.33336923 0.038293418 -0.091542602
0.35970485 0.038309332 -0.09051466
0.3860563 0.038325135 -0.089486003
0.41243955 0.038343355 -0.088309765
0.43887499 0.038366016 -0.086838007
0.46533328 0.038388625 -0.085365295
-0.69080764 0.064618915 -0.087868333
-0.66302437 0.064450718 -0.095154285
-0.63600975 0.064358264 -0.099160194
-0.60926217 0.064290337 -0.10209894
-0.58296806 0.064273521 -0.10282838
-0.55678523 0.06426964 -0.10299218
-0.53064817 0.06427183 -0.10290122
-0.50451559 0.064274758 -0.10277367
-0.47837821 0.064277284 -0.10266411
-0.45223922 0.064279765 -0.10255468
-0.42608082 0.06427937 -0.10257304
-0.29529488 0.064277679 -0.10264599
-0.26913804 0.064277284 -0.10266411
-0.24298303 0.064277284 -0.10266411
-0.2168266 0.064276837 -0.10268247
-0.19067171 0.064276837 -0.10268247
-0.16451572 0.064276442 -0.10270071
-0.13835999 0.064276047 -0.10271895
-0.11220539 0.064276047 -0.10271895
-0.086051494 0.064276442 -0.10270071
-0.059898432 0.064277679 -0.10264599
-0.03375927 0.064293653 -0.10195303
0.018553294 0.064318955 -0.10085821
0.044722218 0.064345501 -0.099707961
0.070906185 0.064364061 -0.098904252
0.097102538 0.064382613 -0.098099947
0.12331127 0.064401232 -0.097295523
0.14953241 0.064419843 -0.096490502
0.17576595 0.064438455 -0.095685005
0.20201108 0.064456619 -0.094897747
0.22826931 0.06447529 -0.094091654
0.25454 0.06449385 -0.093285322
0.28082311 0.064512521 -0.092478275
0.30711871 0.064531133 -0.091671109
0.33342674 0.064549804 -0.090863585
0.35974556 0.064567968 -0.090073824
0.38607839 0.064586692 -0.089265585
0.41240785 0.064601988 -0.088603854
0.43874544 0.064616777 -0.087960243
0.46511787 0.064636402 -0.087114215
0.49150339 0.064655975 -0.086267352
0.51789939 0.064675093 -0.085438848
-0.63850909 0.090924673 -0.086672544
-0.61155522 0.090816587 -0.090184093
-0.58498865 0.090764008 -0.09189105
-0.55819571 0.090667456 -0.095026016
-0.53128487 0.0905407 -0.099141598
-0.50481051 0.090485081 -0.10094953
-0.47881368 0.090519443 -0.099835992
-0.45320651 0.090639226 -0.095941544
-0.42746687 0.090743087 -0.092569947
-0.40122932 0.090742022 -0.092606783
-0.37498784 0.090739772 -0.092680216
-0.34874964 0.090738088 -0.092735052
-0.32251024 0.090735778 -0.092808485
-0.29627204 0.090733528 -0.092881799
-0.27003494 0.090731226 -0.092955232
-0.24379899 0.090728976 -0.093028426
-0.21756555 0.090727232 -0.093083501
-0.19133168 0.090724982 -0.093156815
-0.16510008 0.090723239 -0.093211889
-0.13886835 0.090720989 -0.093285203
-0.11263773 0.090718798 -0.093358517
-0.086408958 0.090717107 -0.093413472
-0.060180467 0.090714917 -0.093486905
-0.033967074 0.090731226 -0.092955232
-0.0077463426 0.090749331 -0.092368364
0.018483277 0.090767942 -0.0917629
0.044722218 0.090786055 -0.091175556
0.070970342 0.090804726 -0.090569854
0.097227514 0.090822831 -0.089982152
0.12349375 0.090840936 -0.089394212
0.14976959 0.090859555 -0.088787556
0.17605409 0.090877607 -0.088199258
0.20234849 0.090896443 -0.087592483
0.22865126 0.090914547 -0.087003708
0.2549631 0.09093266 -0.086414695
0.28129041 0.090953693 -0.085733652
0.30762824 0.090974666 -0.085052133
0.54422742 0.090971179 -0.085162759
0.57017422 0.090902627 -0.087390065
0.59643495 0.090900324 -0.087463617
0.62311858 0.090975225 -0.085033774
-0.5841018 0.11681733 -0.096691728
-0.42678425 0.11678617 -0.097496629
-0.40196979 0.11719237 -0.086948514
0.51675379 0.116932 -0.093706846
0.54211605 0.11670537 -0.099598408
0.56779742 0.11658097 -0.10282826
0.59383333 0.11655303 -0.10355735
0.62036437 0.11663996 -0.10129607
0.64765954 0.11688554 -0.094916224
-0.61137497 0.14327559 -0.091120601
-0.40112618 0.14317045 -0.093395114
0.49046987 0.14313477 -0.094164968
0.67300242 0.14288223 -0.099635124
-0.61030281 0.16921908 -0.096691728
-0.5836255 0.16908026 -0.099269629
-0.42640188 0.16902715 -0.10025597
-0.40031675 0.16906366 -0.099580169
0.46502951 0.16969669 -0.087831616
0.4903596 0.16930991 -0.095007896
0.64711523 0.16914937 -0.097990394
0.7000466 0.16930306 -0.095135808
-0.58565378 0.19593757 -0.088291407
-0.42805976 0.19593757 -0.088291407
-0.40179649 0.19593862 -0.088272929
0.67409086 0.19560161 -0.093743443
0.67373556 0.27410999 -0.095667005
-0.27189559 -0.2252664 -0.072813034
-0.2451577 -0.22500956 -0.076982617
-0.21848477 -0.22475338 -0.081142187
-0.19201066 -0.22461706 -0.08335638
-0.1656094 -0.22451937 -0.084941626
-0.034159366 -0.22453871 -0.084628344
-0.0079015605 -0.22468293 -0.082286477
0.018392278 -0.22482732 -0.07994163
0.044722218 -0.22515664 -0.074593306
-0.40425956 -0.19906271 -0.069451571
-0.37669343 -0.19855711 -0.078832507
0.12361743 -0.19827667 -0.084038734
0.15022264 -0.19881359 -0.074074149
-0.45648888 -0.17246497 -0.07349956
0.20293947 -0.17240509 -0.074797153
0.25607648 -0.14628416 -0.068335772
-0.50925404 -0.1460869 -0.073462367
-0.82359827 -0.11943878 -0.082175851
-0.79729009 -0.11943929 -0.082157373
-0.77121508 -0.11947005 -0.081160665
-0.56256908 -0.11980369 -0.070325017
-0.53398943 -0.11940814 -0.083172083
0.281957 -0.11962554 -0.076112509
-0.58760631 -0.093228795 -0.077723026
0.30784681 -0.09312515 -0.082212687
-0.64170665 -0.066989958 -0.070696592
-0.61321354 -0.066822603 -0.081566811
0.33398438 -0.066780925 -0.084278226
0.3614566 -0.066976741 -0.071550965
-0.77441323 -0.040611431 -0.067759156
-0.74744409 -0.040593378 -0.070120573
-0.72052032 -0.040575437 -0.072442174
-0.69383675 -0.040564865 -0.073814869
-0.66714376 -0.040553115 -0.075334787
-0.63943124 -0.04050149 -0.082065105
0.36023158 -0.040480234 -0.084812641
0.38754112 -0.040558457 -0.074649096
0.38652772 -0.014187858 -0.084775686
0.41395575 -0.014187858 -0.074241161
0.44123715 -0.014187802 -0.066381454
0.38657379 0.012108453 -0.084315062
0.41324186 0.012135051 -0.080865264
0.44031885 0.012185326 -0.074333906
0.46712396 0.012212319 -0.07082665
0.49389631 0.012234138 -0.067982197
-0.74481773 0.038448121 -0.081492901
0.49179751 0.038409263 -0.084020019
0.51828003 0.038429733 -0.082692385
0.54484785 0.038457006 -0.080920458
0.5715031 0.03849024 -0.078758597
0.59829688 0.038533654 -0.075945973
0.62523216 0.038585782 -0.072553396
0.6522373 0.038639601 -0.069061041
-0.71911019 0.06482935 -0.078758597
0.54431909 0.064695843 -0.084536195
0.57076973 0.064719297 -0.083522439
0.59737033 0.064761974 -0.081677437
0.62403411 0.06480927 -0.079627514
0.65078884 0.064864382 -0.077241898
0.67787212 0.064955927 -0.073276997
0.70511121 0.065058894 -0.068819284
-0.69432074 0.091389738 -0.071569443
-0.66592133 0.091092758 -0.081215978
0.33397815 0.090996094 -0.084351778
0.36033711 0.091017179 -0.083669782
0.3867085 0.091038719 -0.082969308
0.41308072 0.091057442 -0.082360387
0.43941122 0.09106262 -0.082194328
0.46574658 0.091068238 -0.082009792
0.49208954 0.0910751 -0.081788301
0.51848716 0.091093324 -0.081197739
0.65050393 0.091165639 -0.078851104
0.67804694 0.091366395 -0.072330594
0.70502174 0.091459975 -0.069284201
-0.61258537 0.11727368 -0.08483088
-0.37685972 0.11755659 -0.077482343
-0.35050443 0.1175544 -0.077537894
-0.32415399 0.11755361 -0.077556372
-0.2978057 0.11755361 -0.077556372
-0.2714574 0.11755361 -0.077556372
-0.24510913 0.11755361 -0.077556372
-0.21875937 0.11755299 -0.077575088
-0.19240995 0.11755221 -0.077593446
-0.16606079 0.11755148 -0.077611923
-0.13971192 0.1175508 -0.077630639
-0.11336333 0.11755007 -0.077648878
-0.087015748 0.11755007 -0.077648878
-0.060669284 0.11755148 -0.077611923
-0.034325685 0.11755873 -0.077426791
-0.0079812258 0.11757088 -0.077112317
0.018367788 0.11758443 -0.076760769
0.044722218 0.11759781 -0.076408982
0.071082063 0.11761142 -0.076056957
0.097447038 0.11762413 -0.075723648
0.12381758 0.11763775 -0.075371742
0.15019354 0.11765123 -0.075019598
0.1765742 0.11766429 -0.07468617
0.20296001 0.117677 -0.074352384
0.22934997 0.11768914 -0.074037433
0.25574592 0.11770207 -0.073703647
0.28214702 0.11771484 -0.073369503
0.30855328 0.11772766 -0.073035717
0.33496463 0.11774059 -0.072701931
0.3613846 0.11775488 -0.072330594
0.38782513 0.11777496 -0.071810961
0.41427371 0.11779486 -0.071290851
0.44069168 0.11780212 -0.071105361
0.46712169 0.11781202 -0.070845246
0.49182162 0.11731202 -0.08383584
0.67578512 0.11728358 -0.08457315
0.70438552 0.11774481 -0.07259059
-0.37679821 0.1438823 -0.077981949
0.46611282 0.14383385 -0.079035997
0.70206523 0.14357454 -0.084646821
-0.64195955 0.17068818 -0.069432855
-0.37628391 0.17000237 -0.082157254
0.67754328 0.17038506 -0.075056553
0.7308017 0.17052594 -0.072441936
-0.64127928 0.19688961 -0.072831631
-0.37611806 0.19623244 -0.083503962
0.4408676 0.19708988 -0.069581628
0.46621075 0.1965566 -0.078240871
0.72982252 0.19661242 -0.077334404
-0.6151697 0.22337317 -0.071402311
-0.40391681 0.22332701 -0.072070718
-0.37761086 0.22337449 -0.071383834
0.70511842 0.22355488 -0.068782091
0.70416415 0.24958903 -0.073740482
0.6765247 0.30171344 -0.080569625
-0.32667571 -0.22641516 -0.054157853
-0.29932895 -0.22591159 -0.062335134
0.07118094 -0.22585768 -0.063212395
0.097757995 -0.22633094 -0.055526614
-0.4323895 -0.19973123 -0.057044268
0.17706253 -0.19946423 -0.061999083
-0.80480236 -0.1734736 -0.051661491
-0.77793658 -0.17341214 -0.052994609
-0.48538175 -0.17321897 -0.057175279
0.23010537 -0.17308766 -0.060018897
-0.53869987 -0.14678365 -0.055358171
0.28372261 -0.14696574 -0.050628185
-0.5929352 -0.120464 -0.048879385
0.3097353 -0.12019306 -0.057680726
-0.6171267 -0.093609788 -0.061233401
0.33564499 -0.093530327 -0.064667106
0.36368656 -0.093928918 -0.047411203
-0.69912225 -0.06731949 -0.04929328
-0.67135817 -0.067230754 -0.055058002
0.389588 -0.067244083 -0.054195404
0.41536367 -0.040662207 -0.061177492
-0.77601951 -0.014187858 -0.061028004
0.46958402 -0.014187802 -0.050853729
-0.77493757 0.012252808 -0.065561652
0.52084225 0.012263324 -0.064200997
0.54784489 0.01229234 -0.060429931
0.57493281 0.012322765 -0.056482196
0.60216498 0.012357067 -0.052018285
0.62951565 0.012393732 -0.047260404
-0.77925998 0.038972285 -0.047448874
0.67946279 0.038707308 -0.064667106
0.70719725 0.03881016 -0.057980061
0.73513764 0.03892117 -0.050778389
-0.74837649 0.065122105 -0.066083312
0.7329554 0.065223724 -0.061681628
0.76116514 0.065416999 -0.053313732
-0.75264513 0.092127763 -0.047599554
-0.72287661 0.091687836 -0.061887026
0.73223102 0.091582678 -0.065300703
0.75995022 0.091771968 -0.059158802
0.78871667 0.092097171 -0.048596978
-0.69809794 0.11845849 -0.05404532
0.73367 0.1183021 -0.058111191
0.76156318 0.11856056 -0.051398516
-0.64321584 0.1445671 -0.063156366
-0.3523289 0.14463273 -0.061737657
-0.32585883 0.14463273 -0.061737657
-0.29939061 0.14463368 -0.06171906
-0.2729204 0.14463368 -0.06171906
-0.2464502 0.14463368 -0.06171906
-0.21998142 0.14463428 -0.061700463
-0.19351107 0.14463428 -0.061700463
-0.16704184 0.14463514 -0.061681628
-0.14057234 0.14463609 -0.061663032
-0.11410254 0.14463693 -0.061644316
-0.087631747 0.14463693 -0.061644316
-0.061159801 0.14463514 -0.061681628
-0.034694042 0.14464471 -0.06147635
-0.0082254075 0.14465493 -0.061252117
0.018246535 0.14466617 -0.061009288
0.044722218 0.1446768 -0.060785055
0.071201496 0.14468795 -0.060542107
0.097684518 0.14469913 -0.060299158
0.12417127 0.14471027 -0.060056329
0.1506612 0.14472073 -0.059831858
0.1771553 0.14473185 -0.059588909
0.20365314 0.14474311 -0.059345722
0.23015474 0.14475447 -0.059102654
0.25666007 0.1447655 -0.058859348
0.28316915 0.14477679 -0.058616281
0.30968198 0.14478797 -0.058373094
0.33619857 0.14479929 -0.058129907
0.36271888 0.14481047 -0.0578866
0.38924482 0.14482269 -0.05762434
0.41577885 0.14483646 -0.057324886
0.44185749 0.14466617 -0.061009288
0.73270875 0.14457846 -0.062913656
-0.35256189 0.17121148 -0.059719801
0.44145665 0.17095482 -0.064480782
-0.61645877 0.19739011 -0.064704299
-0.35236555 0.1975922 -0.061420083
0.70674008 0.19765779 -0.060355186
-0.64519334 0.22462907 -0.053276181
-0.35216507 0.22394454 -0.063156486
0.44182727 0.22407505 -0.061270833
-0.61832958 0.25103301 -0.05498302
-0.37971869 0.25108764 -0.054270506
-0.353742 0.25145501 -0.049499869
0.70604306 0.2767933 -0.063977242
0.67933881 0.32956284 -0.065338135
-0.2221701 -0.25439084 -0.033268452
-0.19530344 -0.25421339 -0.035829544
-0.16851957 -0.2540848 -0.037686229
-0.141743 -0.25392875 -0.039938331
-0.115044 -0.25383714 -0.041261435
-0.088417754 -0.25383976 -0.041223645
-0.061792072 -0.25384495 -0.041148186
-0.035222907 -0.2540231 -0.038576126
-0.0086176917 -0.25421745 -0.035772681
0.018030647 -0.25441185 -0.032964706
-0.38195503 -0.22752643 -0.036113858
-0.35418984 -0.2269409 -0.045621395
0.12451944 -0.22698039 -0.044980288
0.15144759 -0.22763851 -0.034293294
-0.4620069 -0.20087746 -0.0357728
0.20443869 -0.2005237 -0.042338371
-0.51512319 -0.17414358 -0.037155986
0.257992 -0.17414016 -0.037231684
-0.56889826 -0.14758354 -0.034577966
0.33783031 -0.12077251 -0.038859963
-0.64763582 -0.0940753 -0.041072488
-0.78124642 -0.067476161 -0.039124727
-0.75391245 -0.067430109 -0.042111635
-0.7264868 -0.067374602 -0.04571569
0.41805053 -0.067520425 -0.036246538
0.44390005 -0.040799648 -0.04332006
0.4978759 -0.014187858 -0.037572622
0.52522045 -0.014187802 -0.03260386
0.65710247 0.012437427 -0.041582704
0.6848852 0.012485677 -0.035317659
0.76436597 0.039119229 -0.037913561
0.7895776 0.065618098 -0.04460299
0.81929523 0.06594032 -0.030646563
0.81793511 0.092462361 -0.03673923
-0.75595039 0.11925776 -0.033287406
-0.72678566 0.11883082 -0.044376969
0.78985411 0.11887153 -0.043320179
0.81916791 0.11933727 -0.031216979
-0.72995692 0.1460906 -0.030171156
-0.70152199 0.14572176 -0.038159728
-0.673253 0.1453622 -0.04594171
0.76345807 0.1455313 -0.042281508
0.79202473 0.14594856 -0.033249378
-0.32763433 0.17199057 -0.045263171
-0.30103552 0.17198956 -0.045282006
-0.27443877 0.17198956 -0.045282006
-0.24784206 0.17198956 -0.045282006
-0.22124384 0.17198855 -0.045300961
-0.19464724 0.17198855 -0.045300961
-0.16805063 0.17198855 -0.045300961
-0.14145301 0.17198735 -0.045319557
-0.11485654 0.17198735 -0.045319557
-0.088260099 0.17198735 -0.045319557
-0.061665948 0.17199165 -0.045244217
-0.03507239 0.17199963 -0.045093298
-0.0084776692 0.17201182 -0.044867039
0.018120533 0.17202404 -0.044640899
0.044722218 0.17203718 -0.044395566
0.071327388 0.17204839 -0.04418838
0.097936049 0.1720607 -0.043961644
0.12454776 0.17207178 -0.04375422
0.15116265 0.17208284 -0.043546557
0.17778148 0.17209527 -0.043320179
0.2044038 0.17210725 -0.043093562
0.23102859 0.17211851 -0.0428859
0.25765774 0.17213082 -0.042659402
0.28429037 0.17214313 -0.042432666
0.31092653 0.17215505 -0.042206168
0.33756614 0.17216727 -0.041979432
0.36420926 0.17217958 -0.041752934
0.39085585 0.17219195 -0.041526079
0.41747949 0.17219093 -0.041544795
0.76604241 0.1728211 -0.029847741
-0.56866664 0.19916487 -0.035886526
-0.32929361 0.19953558 -0.029866815
-0.30266961 0.19959182 -0.028953671
-0.27596119 0.19960108 -0.028801322
-0.24925052 0.19961059 -0.028649092
-0.22253598 0.19961867 -0.028515697
-0.19582069 0.19962814 -0.028363347
0.41841853 0.19935304 -0.032831788
0.6056506 0.19949916 -0.030456424
-0.32891268 0.22600612 -0.03340137
0.41855982 0.22613642 -0.031520844
0.76418501 0.22563314 -0.038784027
-0.64896995 0.25261688 -0.03440702
-0.32843661 0.2523542 -0.03781867
0.41870937 0.25294578 -0.030133128
0.44385648 0.25190151 -0.043697476
-0.62164378 0.27901313 -0.037762046
-0.38184068 0.27907419 -0.037042379
0.65833259 0.33263552 -0.034634709
0.65863168 0.35949627 -0.032945752
-0.30376437 -0.2554478 -0.018013835
-0.27647015 -0.25508207 -0.023291826
-0.24927951 -0.25473464 -0.028306246
0.044722218 -0.25486529 -0.026420474
0.071524456 -0.25540793 -0.018588424
0.098446347 -0.25594634 -0.010816932
-0.43890685 -0.22913402 -0.010008931
-0.40997818 -0.22816446 -0.02575314
0.17860016 -0.22839251 -0.022050381
-0.49187735 -0.20199761 -0.014985085
0.23217915 -0.20164475 -0.021534204
-0.54558283 -0.17518011 -0.014716506
0.28629041 -0.17523319 -0.013564944
0.31211239 -0.147883 -0.026801467
-0.62363213 -0.12112448 -0.027430296
0.36667663 -0.12150592 -0.015042543
-0.76133966 -0.094793923 -0.0099513531
-0.7343635 -0.094782956 -0.010432124
-0.70739073 -0.094771378 -0.010932088
-0.68032175 -0.094748147 -0.011932015
0.39239806 -0.094420694 -0.026115537
0.44736916 -0.067874029 -0.013276696
0.47319523 -0.040967338 -0.021534324
0.55260462 -0.014187802 -0.027887344
0.5800516 -0.014187746 -0.023234487
0.60772091 -0.014187746 -0.017649889
0.63558018 -0.014187746 -0.011451364
0.71298856 0.012542868 -0.027887344
0.74118596 0.012599271 -0.020559192
0.79381728 0.039319031 -0.024932981
0.82399267 0.039554939 -0.0096048117
-0.78479707 0.066088282 -0.024246335
0.85061967 0.093265116 -0.010663033
-0.78562212 0.11973874 -0.020788789
0.85036653 0.12008638 -0.011759043
-0.75898254 0.14655319 -0.020157576
0.82130814 0.14648521 -0.02162981
-0.73407167 0.17379689 -0.011739731
-0.70541877 0.17334735 -0.020080924
-0.67700154 0.17292577 -0.027906418
0.55527025 0.17390874 -0.009662509
0.7950983 0.17340627 -0.018990397
-0.68051755 0.20069802 -0.010989904
-0.16910191 0.19963622 -0.028230071
-0.14238212 0.19964576 -0.028077722
-0.11565907 0.19965383 -0.027944446
-0.08893472 0.19966328 -0.027792096
-0.062208023 0.19967264 -0.027639866
-0.035480741 0.19968674 -0.027411222
-0.0087502338 0.19970202 -0.027163744
0.017984379 0.19971493 -0.026954055
0.044722218 0.19972903 -0.026725292
0.071463436 0.19974184 -0.026515841
0.098208167 0.19975603 -0.026287079
0.12495598 0.1997689 -0.026077271
0.15170702 0.19978184 -0.025867701
0.17846204 0.1997959 -0.025638938
0.20521969 0.19980884 -0.02542901
0.23198161 0.19982299 -0.025200009
0.25874588 0.19983587 -0.024990439
0.28551337 0.19984871 -0.024780273
0.31228408 0.19986159 -0.024570704
0.33905807 0.19987458 -0.024360657
0.36583349 0.19988626 -0.024169922
0.39261568 0.19990045 -0.023940802
0.76670724 0.19973376 -0.026649117
0.79550695 0.20032224 -0.017094254
-0.59860587 0.22706017 -0.018186331
-0.51866078 0.22726205 -0.015272737
-0.49169424 0.22719964 -0.016174316
-0.4381775 0.22726205 -0.015272737
-0.30437303 0.22749346 -0.011932015
-0.27757105 0.22753203 -0.011374593
-0.25075397 0.2275655 -0.010893822
-0.22391473 0.22758558 -0.010605216
-0.19707234 0.22760689 -0.010297537
-0.17022406 0.2276268 -0.010008931
-0.14337236 0.22764817 -0.0097011328
0.60826027 0.22732842 -0.014313459
0.74220949 0.22725007 -0.015445471
0.76711941 0.25336677 -0.024666071
-0.65286487 0.28094512 -0.014946818
-0.25087124 0.28140575 -0.009508729
0.66095006 0.28052995 -0.019851446
-0.62513489 0.3073436 -0.019621849
-0.38398629 0.3073436 -0.019621849
-0.27737579 0.30791017 -0.013487935
0.71410096 0.30711389 -0.022107601
0.63471866 0.36126444 -0.016538501
-0.19842196 -0.28434804 0.0091824532
-0.17128979 -0.28420284 0.0072965622
-0.14418678 -0.2840578 0.0054126978
-0.11714242 -0.28396222 0.0041708946
-0.090164989 -0.28396222 0.0041708946
-0.06318754 -0.28396222 0.0041708946
-0.036270622 -0.28416392 0.0067914724
-0.3595925 -0.25677669 0.0011668205
-0.33155197 -0.25607836 -0.0089119673
0.12555298 -0.25668016 -0.00022673607
0.20631672 -0.22964716 -0.0016771555
-0.52238786 -0.20322448 0.0077824593
0.26040205 -0.20290771 0.0019028187
-0.81658697 -0.20259917 -0.0038218498
-0.78936702 -0.20253053 -0.0050958395
-0.60028374 -0.14856398 -0.0091046095
0.34087741 -0.14880377 -0.0028754473
-0.65555942 -0.12192341 -0.0014839172
0.39594215 -0.12225542 0.0092990398
-0.81532365 -0.094817095 -0.0089504719
-0.78832775 -0.094805457 -0.0094510317
0.42168653 -0.09496595 -0.0025082827
0.50279105 -0.041132949 -1.3947487e-05
0.53071421 -0.041187387 0.0070439577
0.72007024 -0.014187858 0.0089101791
0.66350794 -0.01418769 -0.0054044724
0.69157571 -0.014187746 0.0008957386
0.77030987 0.012685873 -0.009316206
0.80013651 0.012791369 0.00438416
0.85180736 0.066520728 -0.0055202246
-0.78895289 0.093383208 -0.0068314075
-0.81755835 0.12054352 0.00012147427
-0.78945917 0.14726672 -0.0047097206
0.85163808 0.14719534 -0.0062531233
-0.76326376 0.17434222 -0.0016192198
0.82490015 0.17413098 -0.0055394173
0.53020328 0.17461041 0.0033563375
0.58462656 0.17477876 0.0064806938
-0.73823023 0.20179921 0.0068885088
-0.70934808 0.20126081 -0.0018514395
-0.68193918 0.22803253 -0.0041499138
-0.11651593 0.22766936 -0.009393096
-0.089654014 0.22768945 -0.0091044903
-0.062786475 0.2277067 -0.0088541508
-0.03591508 0.22772413 -0.0086038113
-0.0090407282 0.2277455 -0.0082957745
0.017838523 0.22776553 -0.0080068111
0.044722218 0.22778556 -0.007717967
0.071610361 0.22780553 -0.0074288845
0.098503262 0.22782683 -0.0071204901
0.12540045 0.22784689 -0.0068312883
0.1523021 0.22786692 -0.0065424442
0.17920819 0.227887 -0.0062531233
0.20611964 0.22790837 -0.0059444904
0.2330348 0.2279284 -0.0056552887
0.25995442 0.22794834 -0.0053658485
0.2868785 0.22796848 -0.0050765276
0.31380555 0.22798714 -0.0048063993
0.34073514 0.22800469 -0.0045554638
0.36767036 0.22802338 -0.0042853355
0.39460978 0.22804192 -0.0040148497
0.58344799 0.22823879 -0.0011746883
0.63809776 0.22855663 0.0034145117
-0.68337041 0.25547609 0.0027360916
-0.60205615 0.25530326 0.00048923492
-0.52099305 0.25520042 -0.00084555149
-0.49405417 0.25520042 -0.00084555149
-0.4676393 0.25547609 0.0027360916
-0.41340739 0.25530019 0.00045049191
-0.27827582 0.25497729 -0.0037446022
0.61048746 0.25522426 -0.00053632259
0.74493414 0.25512451 -0.0018318892
-0.33250883 0.282208 -3.3378601e-05
-0.30553085 0.28218022 -0.00036215782
0.42183861 0.28211802 -0.0010973215
0.63734025 0.28212112 -0.0010584593
0.77139562 0.2818644 -0.0040920973
-0.65612102 0.30927822 0.0013219118
-0.33256099 0.3091979 0.00045061111
-0.30571097 0.30928895 0.0014380217
0.66369927 0.30875668 -0.0043237209
-0.60159516 0.33590069 -0.0020058155
-0.41299233 0.33582932 -0.002720952
-0.38615364 0.33589894 -0.0020253658
-0.27904648 0.3365615 0.0045976639
0.63752043 0.38999274 5.364418e-06
-0.28075993 -0.28542292 0.023146272
-0.25317723 -0.2850056 0.017723322
-0.22567777 -0.28458783 0.01229763
-0.009319704 -0.28439736 0.0098243952
0.017677868 -0.28463128 0.012862682
0.044722218 -0.28517869 0.019972801
-0.41634926 -0.25828442 0.022930503
-0.38781938 -0.25749251 0.011498928
0.15282704 -0.25742364 0.010505557
0.18028697 -0.25820428 0.021774292
-0.46871588 -0.23037231 0.010096908
0.23437361 -0.23093235 0.019190073
0.2888909 -0.20409673 0.023970008
-0.57685637 -0.17633879 0.01036942
0.31493184 -0.17631358 0.0098243952
-0.63213015 -0.14955822 0.016726613
0.3699944 -0.14971778 0.020873308
-0.71577305 -0.12282986 0.027956724
-0.68851441 -0.12281542 0.027484894
0.45135543 -0.095514461 0.02124548
0.47722307 -0.068250403 0.011167765
0.55846792 -0.041227087 0.012200117
0.58630341 -0.041266847 0.017371416
0.74882466 -0.014187802 0.01760602
0.83077914 0.012917673 0.020794868
0.85583663 0.039886553 0.011927366
-0.82090354 0.094015457 0.01370132
0.88380474 0.12114804 0.015828252
-0.82445878 0.14878353 0.028133631
0.88500398 0.14844742 0.020853639
-0.79423916 0.175255 0.015320659
0.85598516 0.17510688 0.0125705
-0.76757735 0.20242527 0.017058849
-0.54986089 0.20202419 0.010544419
-0.52439964 0.20262045 0.020227075
-0.49730161 0.20262188 0.020246744
-0.46961126 0.20237377 0.016218901
0.58765471 0.20298526 0.026149035
0.82965291 0.20234481 0.015750289
-0.74243349 0.23010185 0.025716662
-0.71331453 0.2294668 0.016550779
-0.57997382 0.23025844 0.027976513
0.55935013 0.22958332 0.018231511
0.80156088 0.22908178 0.010992408
-0.22629721 0.25683159 0.020344615
-0.19919394 0.25683028 0.020325065
-0.17209214 0.25683028 0.020325065
-0.14499034 0.25683028 0.020325065
-0.11788855 0.25683028 0.020325065
-0.090786755 0.25683028 0.020325065
-0.063684955 0.25683028 0.020325065
-0.036583167 0.25683028 0.020325065
-0.0094813704 0.25683028 0.020325065
0.017620426 0.25683028 0.020325065
0.044722218 0.25683028 0.020325065
0.071823865 0.25682861 0.020305514
0.098925509 0.25682861 0.020305514
0.12602715 0.25682861 0.020305514
0.1531288 0.25682861 0.020305514
0.18023042 0.25682861 0.020305514
0.20733207 0.25682861 0.020305514
0.23443371 0.25682861 0.020305514
0.26153538 0.25682861 0.020305514
0.2886343 0.25682551 0.020266414
0.31573266 0.25682253 0.020227194
0.34283036 0.25681943 0.020188093
0.3699275 0.25681663 0.020149112
0.39677346 0.25662073 0.01760602
0.58586144 0.25638187 0.014500976
0.640733 0.25672624 0.018975019
-0.68480736 0.28302801 0.0096493959
-0.60443944 0.28334457 0.01338923
-0.57830727 0.28378275 0.018563986
-0.49730459 0.28392705 0.020266414
-0.47011456 0.28387558 0.019659758
-0.41570616 0.28373635 0.018016577
-0.28004965 0.28351969 0.015457392
0.39685956 0.28377452 0.018466234
0.61330348 0.28364047 0.016883016
-0.6870507 0.31104454 0.020442605
-0.60371256 0.31002969 0.0094548464
-0.41626462 0.31121466 0.022283673
-0.2526831 0.31025445 0.011888504
0.42303875 0.31008345 0.010038614
0.77579588 0.31073385 0.0170784
-0.57900405 0.33835298 0.022499442
-0.33430037 0.33776173 0.01658988
0.64212435 0.3388226 0.02718997
-0.57781255 0.36474639 0.015769839
-0.55065984 0.36469159 0.015262127
-0.47074786 0.36563221 0.023989558
-0.44247884 0.36474639 0.015769839
-0.41541469 0.36474848 0.015789151
0.61398965 0.36532393 0.021128058
0.61340767 0.39201608 0.017527699
-0.33687994 -0.28676081 0.040525556
-0.30854988 -0.28593561 0.029805899
0.071886241 -0.28582808 0.028409004
0.099182904 -0.2864913 0.03702414
0.2083969 -0.25969985 0.043359637
-0.44576928 -0.25943348 0.039515853
-0.8286885 -0.23254049 0.045304179
-0.80109602 -0.23246342 0.044053793
-0.77350467 -0.2323817 0.042724967
-0.49889454 -0.2316345 0.030593395
0.26301256 -0.23247811 0.044291973
-0.55316287 -0.20442393 0.030041933
-0.60870385 -0.1775443 0.036470771
0.34396178 -0.17740938 0.033549309
-0.80137074 -0.15065446 0.045204878
-0.66463798 -0.15060312 0.043875098
0.39955723 -0.15066275 0.045423269
-0.77027577 -0.12285433 0.028743505
-0.74302572 -0.12284268 0.028369784
0.42549181 -0.12297922 0.032800078
0.48139334 -0.096063651 0.045026183
0.50774151 -0.068660691 0.037814617
0.77916193 -0.014187802 0.03327322
0.80912775 -0.014187746 0.046098471
0.86287582 0.013084017 0.042407632
0.88894308 0.067510962 0.037359953
0.88730472 0.094532654 0.030494809
0.89108998 0.17692751 0.046356797
-0.79912615 0.20357955 0.035799265
0.50756305 0.2036196 0.036451101
0.56242841 0.20379373 0.039278507
-0.77201015 0.23083198 0.036253691
-0.55377692 0.23065281 0.033667803
-0.4727526 0.23093173 0.037696123
0.83413315 0.23080176 0.035819054
-0.74667329 0.25870708 0.04470861
-0.71732724 0.25797263 0.035167456
-0.30898964 0.25789818 0.034200311
-0.25420532 0.25756449 0.029864788
0.56167418 0.25789222 0.034121394
0.8074019 0.25819787 0.03809166
-0.71793622 0.28542802 0.037992954
-0.20012109 0.28506511 0.033707261
-0.17296608 0.28513372 0.034516096
-0.14575504 0.28513372 0.034516096
-0.11854401 0.28513372 0.034516096
-0.091332972 0.28513372 0.034516096
-0.064121932 0.28513372 0.034516096
-0.036910895 0.28513372 0.034516096
-0.009699855 0.28513372 0.034516096
0.017511182 0.28513372 0.034516096
0.044722218 0.28513372 0.034516096
0.071933255 0.28513372 0.034516096
0.099144295 0.28513372 0.034516096
0.12635534 0.28513372 0.034516096
0.15356636 0.28513372 0.034516096
0.1807774 0.28513372 0.034516096
0.20798844 0.28513372 0.034516096
0.23519947 0.28513372 0.034516096
0.26241052 0.28513372 0.034516096
0.28962156 0.28513372 0.034516096
0.3168326 0.28513372 0.034516096
0.34404364 0.28513372 0.034516096
0.37125468 0.28513372 0.034516096
0.58878499 0.28504667 0.033490181
0.7527349 0.28535613 0.037142754
-0.58110368 0.31233004 0.034358144
-0.5541212 0.31245396 0.035700679
-0.44524056 0.31245396 0.035700679
-0.55452615 0.33991349 0.038091779
-0.44484961 0.33939186 0.032878995
-0.30945826 0.33999279 0.038882613
0.61779845 0.3405737 0.044688821
-0.52571279 0.36610234 0.028349876
-0.49907956 0.36647344 0.031794786
0.56277889 0.36753818 0.041674495
0.58938694 0.36707747 0.037399769
-0.52658516 0.39388895 0.0337466
-0.49938002 0.39388895 0.0337466
0.58906454 0.39406902 0.035305619
-0.44867668 -0.34312037 0.060498476
-0.22950394 -0.31583658 0.062001109
-0.20183718 -0.31553826 0.058477163
-0.17432596 -0.31537911 0.05659771
-0.14684378 -0.31522012 0.054720521
-0.11941361 -0.31510344 0.053343773
-0.092057645 -0.31510344 0.053343773
-0.064701676 -0.31510344 0.053343773
-0.037406083 -0.31532496 0.055958509
-0.010078307 -0.31559077 0.05909729
0.01729775 -0.31585699 0.062241554
-0.39415818 -0.288488 0.062963247
-0.36537108 -0.28758335 0.05121088
0.12667607 -0.28736734 0.048404217
0.15434545 -0.28824592 0.059817791
-0.47607604 -0.26088163 0.060418248
-0.53007907 -0.23315975 0.055359483
-0.58506608 -0.20586246 0.056737781
0.31814077 -0.20558071 0.051509738
-0.64102066 -0.17876616 0.062923312
0.37383622 -0.17874479 0.062462091
0.45557836 -0.12374947 0.057817101
0.53642595 -0.068821579 0.0482651
0.56453526 -0.068904921 0.053682923
0.59284759 -0.069000408 0.059877872
0.61899775 -0.041534185 0.052107573
0.6465131 -0.041541949 0.053104401
0.67406499 -0.041550495 0.054221511
0.7019406 -0.041571923 0.056997418
0.73023748 -0.041608416 0.061740518
0.8403855 -0.014187746 0.063825727
0.89215809 0.040485401 0.05083251
-0.82982469 0.067801028 0.049916625
0.9226411 0.095552079 0.06360507
0.92267072 0.1229917 0.063725471
-0.83180535 0.17755267 0.057957053
0.53677344 0.20450163 0.050772667
0.86545664 0.2046746 0.053583264
-0.80438524 0.23232725 0.057837009
0.48335823 0.23254493 0.060979366
0.51046383 0.23238128 0.058616996
-0.77674079 0.25963321 0.056737781
-0.55675811 0.2592124 0.051270723
-0.44739801 0.2592124 0.051270723
0.48377064 0.26021749 0.064327359
0.83832604 0.25946864 0.054600716
-0.75064105 0.28750178 0.062482238
0.45578396 0.28725749 0.059597611
0.81118411 0.28692222 0.05563879
-0.22893427 0.31419989 0.054600716
-0.20157 0.31420174 0.054620743
-0.17420423 0.31420174 0.054620743
-0.14683947 0.31420365 0.054640651
-0.11947352 0.31420365 0.054640651
-0.092107564 0.31420365 0.054640651
-0.064742222 0.31420541 0.054660559
-0.037326816 0.31400836 0.052526116
-0.0099771395 0.31400836 0.052526116
0.017372539 0.31400836 0.052526116
0.044722218 0.31400836 0.052526116
0.072071895 0.31400836 0.052526116
0.099421576 0.31400836 0.052526116
0.12677126 0.31400836 0.052526116
0.15412094 0.31400836 0.052526116
0.1814706 0.31400836 0.052526116
0.20882028 0.31400836 0.052526116
0.23616998 0.31400836 0.052526116
0.26351964 0.31400836 0.052526116
0.29086933 0.31400836 0.052526116
0.31821901 0.31400836 0.052526116
0.34557039 0.31401026 0.052546144
0.37292022 0.31401026 0.052546144
0.40028602 0.3140249 0.052705646
0.4828949 0.31444171 0.057217479
0.56625366 0.31520048 0.065431595
-0.52958238 0.34133404 0.052286983
-0.5022254 0.3413282 0.052227139
-0.47488084 0.34133017 0.052247167
0.51017606 0.34174749 0.0564183
0.59323317 0.34234449 0.062381983
0.53732878 0.36895075 0.054780483
-0.31367531 -0.3174473 0.081022143
-0.28537062 -0.31677288 0.073058605
-0.25739399 -0.31630412 0.067521334
0.044722218 -0.3164897 0.06971395
0.072272718 -0.31724325 0.078613281
-0.42323151 -0.28945473 0.075520754
0.18220581 -0.28915501 0.071627498
-0.50706434 -0.26249176 0.083657503
0.23700944 -0.26141411 0.068104386
-0.56186187 -0.23476386 0.08140707
0.29221505 -0.23418137 0.07194972
0.34802631 -0.20719945 0.081548929
-0.77999794 -0.15164116 0.07084167
-0.75259721 -0.15165669 0.071244478
-0.72509044 -0.15165439 0.071184039
-0.69756359 -0.15164807 0.071022987
0.42984578 -0.15173188 0.073199749
0.48629394 -0.12458068 0.08481431
0.5126971 -0.096771598 0.075682163
0.62128812 -0.069098875 0.066275358
0.64993 -0.069206625 0.073280454
0.67872405 -0.069318362 0.080536127
0.75863004 -0.041645814 0.066596627
0.78870755 -0.04174282 0.079199791
0.89695221 0.01330339 0.070922256
-0.86143243 0.068189837 0.066757441
0.53899395 0.23294804 0.066797614
0.87120444 0.23375681 0.078471541
-0.80836433 0.26100135 0.07451117
0.51176858 0.26054537 0.068587303
-0.78218067 0.2890099 0.080293179
-0.53229225 0.28805795 0.069049835
0.48450598 0.28816339 0.070297956
0.51371157 0.289276 0.083434463
0.84256816 0.28844351 0.073603153
0.51306742 0.31640875 0.078512073
0.54107726 0.31671563 0.081832647
0.7606709 0.31625006 0.076793551
0.48501998 0.34355414 0.074470758
0.53963524 0.34324947 0.071425796
0.56644171 0.34277821 0.066717148
-0.34252355 -0.31845236 0.092891574
0.099965602 -0.31802648 0.087861896
0.12786813 -0.31905615 0.1000222
-0.45323581 -0.29083121 0.093401551
0.21070729 -0.29082957 0.093381047
-0.81314492 -0.26324591 0.094543815
-0.78517962 -0.26315847 0.093279004
0.26608214 -0.26321769 0.094136
0.3219336 -0.23595691 0.10077977
-0.61789429 -0.20745099 0.086215377
-0.67417514 -0.18008712 0.091525793
0.40410772 -0.18005803 0.090894341
0.46056056 -0.15280056 0.10096431
0.54243731 -0.097140327 0.091647863
0.57089412 -0.097267531 0.097158432
0.59944779 -0.097396649 0.10274732
0.70811653 -0.069470644 0.090425849
0.73780978 -0.069634743 0.10108709
0.81896329 -0.041839376 0.091729641
0.87301624 -0.014187802 0.086317062
0.92931819 0.041099485 0.090710759
0.92968464 0.068777435 0.092198253
-0.87055421 0.096754834 0.10266531
-0.8397283 0.20692486 0.090120554
0.90302789 0.20731047 0.096381783
-0.59214675 0.26271167 0.096729279
0.87646508 0.26305982 0.10125101
-0.5655871 0.29096687 0.10340333
-0.53564578 0.31745106 0.089794636
-0.50922793 0.31818229 0.097710252
-0.48099265 0.31784269 0.094033837
0.65280956 0.31749606 0.090283394
-0.2337101 -0.34830666 0.11664057
-0.20555805 -0.34789479 0.11218286
-0.17761971 -0.34770072 0.11008191
-0.14971501 -0.34750879 0.10800385
-0.12186135 -0.34735498 0.10633898
-0.094097435 -0.34735498 0.10633898
-0.066333503 -0.34735498 0.10633898
-0.038631294 -0.34760192 0.10901165
-0.010899104 -0.34791586 0.11240971
0.016885189 -0.34823212 0.11583483
-0.40094766 -0.32058585 0.11808729
-0.37155175 -0.31945542 0.10473728
0.15596233 -0.32009807 0.11232722
-0.48412696 -0.29252943 0.11546302
0.23988348 -0.29298961 0.12144041
-0.53872579 -0.26423702 0.10884702
-0.59466767 -0.23658419 0.11096728
-0.65112007 -0.20902371 0.11540115
0.37823135 -0.20873478 0.11004078
-0.79039824 -0.18121183 0.1158762
-0.76267612 -0.18123576 0.11639261
-0.73492831 -0.18125573 0.1168263
-0.70717388 -0.18127576 0.11726034
0.4349421 -0.18142483 0.12048769
0.51831412 -0.1256212 0.11860442
0.6283831 -0.097567938 0.11016417
0.6574623 -0.09774328 0.11775661
0.76777059 -0.069806933 0.11226547
0.85038096 -0.041969277 0.10860026
0.90720707 -0.014187802 0.11389446
-0.87151355 0.041341577 0.10644162
-0.84328854 0.041312955 0.10457289
-0.84555423 0.23620239 0.11377072
0.54544264 0.29180804 0.11333752
0.87784415 0.29129028 0.10722244
0.60008305 0.31902879 0.10687315
0.62742949 0.31878772 0.10426521
-0.31945121 -0.35034797 0.13873839
