ply
format ascii 1.0
comment PCL generated
element vertex 789
property float x
property float y
property float z
element camera 1
property float view_px
property float view_py
property float view_pz
property float x_axisx
property float x_axisy
property float x_axisz
property float y_axisx
property float y_axisy
property float y_axisz
property float z_axisx
property float z_axisy
property float z_axisz
property float focal
property float scalex
property float scaley
property float centerx
property float centery
property int viewportx
property int viewporty
property float k1
property float k2
end_header
0.1252767 0.031950966 -0.32881403
0.14264755 0.03192161 -0.3326385
0.1600641 0.031902667 -0.3351047
0.17764533 0.03190209 -0.33517772
0.19524278 0.031902976 -0.33506292
0.21303332 0.031918526 -0.33303601
0.230895 0.031936977 -0.33063889
0.2489689 0.031967111 -0.32672352
0.12518691 0.049564429 -0.33027202
0.14254834 0.049505979 -0.33407086
0.15995491 0.049468182 -0.33652329
0.17752784 0.049467497 -0.33656496
0.19512039 0.049470231 -0.33638775
0.21291827 0.049504206 -0.33418572
0.23076971 0.04954087 -0.33180141
0.24880144 0.049596742 -0.3281737
0.12522565 0.067203566 -0.32964301
0.14258382 0.067113116 -0.33355862
0.15999584 0.067056954 -0.33599138
0.17756757 0.067054555 -0.33609587
0.19515988 0.067057706 -0.33596021
0.21296115 0.067108475 -0.33375722
0.2308013 0.067160465 -0.33150834
0.248873 0.067251779 -0.32755393
0.16041514 0.084805243 -0.33054453
0.17762059 0.084653564 -0.33546984
0.19614433 0.084966555 -0.32530314
0.21366292 0.084922314 -0.32674462
0.23091872 0.084809124 -0.33041877
0.24918151 0.084979542 -0.32488203
0.14279552 0.10242938 -0.33050269
0.16085266 0.10264646 -0.32486099
0.17826153 0.1025295 -0.32790053
0.19579092 0.10248228 -0.32912892
0.21353358 0.10252424 -0.32803726
0.23110864 0.10250038 -0.32865667
0.24918029 0.10264533 -0.32489252
0.12539701 0.12022039 -0.32686025
0.14293361 0.1201442 -0.32850963
0.16049826 0.12010016 -0.32946455
0.17817973 0.12012772 -0.32886648
0.19600341 0.12022195 -0.32682878
0.23138157 0.12025444 -0.32612413
0.2491864 0.12031376 -0.32483989
0.12540543 0.13787858 -0.32672352
0.14284855 0.13771626 -0.32973737
0.16032887 0.13761236 -0.33166528
0.17793387 0.13760664 -0.33176994
0.19563498 0.13765806 -0.33081686
0.21347263 0.13777505 -0.32864606
0.23135436 0.1378973 -0.32637656
0.12639791 -0.003460791 -0.31060773
0.14407939 -0.0034502856 -0.31197172
0.16185962 -0.0034517739 -0.31178004
0.17967351 -0.0034559947 -0.31122607
0.2330492 -0.0034604352 -0.31065029
0.16108565 0.014315186 -0.32183427
0.19673923 0.014315186 -0.31886321
0.24988386 0.014315186 -0.31879967
0.10836849 0.014315253 -0.31531125
0.12586278 0.014315208 -0.31929713
0.14342901 0.014315275 -0.3213591
0.17885123 0.014315208 -0.32093638
0.21477948 0.014315275 -0.31558734
0.23269691 0.014315231 -0.31391919
0.26819789 0.014315231 -0.31391919
0.090838574 0.032089919 -0.31076771
0.10806879 0.032012172 -0.32087314
0.26718917 0.032002665 -0.32210892
0.28553706 0.03204146 -0.31706208
0.30408385 0.032087121 -0.31114072
0.090788372 0.049847953 -0.31185454
0.10800618 0.049691193 -0.32203496
0.26705661 0.04967349 -0.32318521
0.28541917 0.049753927 -0.31796306
0.30393919 0.049842864 -0.31218475
0.090826757 0.067633502 -0.31102347
0.10804373 0.067395352 -0.32133788
0.26713067 0.06736657 -0.32258379
0.28548989 0.06748578 -0.31742245
0.30403513 0.067622662 -0.31149238
0.090850398 0.085422091 -0.31051183
0.10806366 0.085100129 -0.32096821
0.12588951 0.085164957 -0.31886327
0.14327839 0.085021161 -0.32353324
0.26744166 0.085128047 -0.32005894
0.2857551 0.085271686 -0.31539607
0.090667486 0.10304637 -0.3144719
0.10786808 0.1026567 -0.32459766
0.12564608 0.10272523 -0.32281601
0.26749507 0.10284804 -0.31962538
0.28583154 0.10303329 -0.31481194
0.090774104 0.12089923 -0.31216341
0.1079567 0.12040088 -0.32295299
0.21394844 0.12035755 -0.32389164
0.26742733 0.12052919 -0.32017541
0.28592196 0.12080876 -0.31412113
0.090880446 0.13878728 -0.30986112
0.10806879 0.13819386 -0.32087302
0.24945787 0.13810676 -0.32248884
0.26766849 0.13833705 -0.31821734
0.10922471 -0.021409029 -0.29942161
0.12692124 -0.021367526 -0.3021102
0.1447351 -0.021361461 -0.30250746
0.16262552 -0.02137181 -0.30183095
0.18057375 -0.021390909 -0.30059463
0.19822729 -0.021357598 -0.3027544
0.21627234 -0.021389732 -0.30066997
0.091302983 -0.0035369173 -0.30071282
0.10881069 -0.0034877062 -0.307105
0.19765957 -0.0034739356 -0.30890036
0.21574615 -0.0034967661 -0.30592787
0.25137389 -0.0034970548 -0.30589581
0.27003527 -0.0035500862 -0.29900169
0.28837913 -0.0035783127 -0.29534471
0.073637083 0.014315164 -0.29587394
0.30580917 0.014315186 -0.29868925
0.09099441 0.014315231 -0.30739373
0.28697455 0.014315208 -0.30607778
0.073522508 0.03218168 -0.29885095
0.32294732 0.032144569 -0.30367744
0.34211946 0.032211684 -0.29495573
0.073485211 0.050033249 -0.29981983
0.32275918 0.049954101 -0.30496395
0.34188998 0.050085172 -0.2964462
0.073516704 0.067911245 -0.29900163
0.32288772 0.067793772 -0.30408502
0.34207121 0.067997389 -0.29526913
0.073537432 0.085793093 -0.29846299
0.30430555 0.085451961 -0.30954099
0.32318443 0.085682519 -0.30205649
0.073395401 0.10352052 -0.30215305
0.30438688 0.10325879 -0.30895382
0.32329601 0.10355359 -0.30129355
0.07348562 0.12146985 -0.29980916
0.30450383 0.12108642 -0.30810994
0.32341868 0.12144009 -0.3004548
0.073576026 0.13945562 -0.29746056
0.11012226 -0.039655648 -0.28276557
0.12796876 -0.039601795 -0.28510046
0.14606048 -0.039641611 -0.28337699
0.16420591 -0.039689489 -0.28130102
0.18230754 -0.039716832 -0.28011942
0.074163079 -0.021673964 -0.28220832
0.091606349 -0.021490199 -0.29414487
0.23484319 -0.02149242 -0.2940042
0.25353491 -0.021597503 -0.28718048
0.27189654 -0.021648092 -0.28388989
0.073810756 -0.0036089364 -0.29136175
0.30693269 -0.0036149547 -0.29058105
0.32593408 -0.0036713164 -0.28325689
0.056206517 0.01431512 -0.2809729
0.32459489 0.014315208 -0.29241306
0.34386516 0.014315253 -0.2836172
0.056103259 0.032293495 -0.28432631
0.056065671 0.050252974 -0.2855472
0.36148408 0.050247975 -0.28587395
0.056062646 0.068219639 -0.28564531
0.36163729 0.068236232 -0.284926
0.056075737 0.086200863 -0.28522027
0.34240091 0.085957378 -0.2931276
0.36197424 0.08627408 -0.28284186
0.055961475 0.10402942 -0.28893077
0.34251261 0.10389583 -0.29240215
0.36208016 0.10428901 -0.28218651
0.056043193 0.12209492 -0.286277
0.34266776 0.1218585 -0.29139435
0.36229229 0.12234446 -0.28087455
0.056119725 0.14019214 -0.28379172
0.074751079 -0.04002136 -0.26693177
0.092296138 -0.039737836 -0.27921051
0.20056422 -0.039778344 -0.27745628
0.21975172 -0.040045165 -0.26590174
0.056574851 -0.021877183 -0.26901096
0.29044324 -0.021714514 -0.27957207
0.30937883 -0.02181687 -0.2729274
0.32857299 -0.0219357 -0.26521456
0.056378365 -0.0037318766 -0.275392
0.3454448 -0.0037474874 -0.27335703
0.36440492 -0.0037903041 -0.26780587
0.36319458 0.014315208 -0.27529311
0.038475849 0.03241048 -0.26913255
0.36289451 0.032348745 -0.27714914
0.38257968 0.032423764 -0.26739645
0.038437083 0.050479867 -0.27081096
0.38155535 0.050439313 -0.27344501
0.038421042 0.068546154 -0.27150589
0.38174003 0.068526529 -0.27235466
0.038413659 0.086613275 -0.27182549
0.38214913 0.086671367 -0.26993901
0.038336627 0.10455945 -0.27516115
0.38226885 0.10478763 -0.26923203
0.038411878 0.12275881 -0.27190268
0.38251227 0.12294859 -0.26779485
0.038488612 0.14101177 -0.26857996
0.057029568 -0.040314339 -0.25424367
0.23853752 -0.040187828 -0.25972503
0.25744027 -0.040334813 -0.25335938
0.038884893 -0.022148004 -0.25142038
0.34816194 -0.022081958 -0.25570863
0.038722701 -0.0038623214 -0.25844359
0.038583748 0.014315208 -0.26446044
0.38401479 0.014315208 -0.25892282
0.020636721 0.032538489 -0.25249684
0.40251249 0.032503087 -0.25709355
0.40219057 0.050663032 -0.25891173
0.020646727 0.069000185 -0.25184661
0.40243939 0.068869516 -0.25750661
0.020586582 0.08710821 -0.25575334
0.40291214 0.087136433 -0.2548365
0.020562852 0.10524719 -0.2572946
0.40309042 0.10538043 -0.25382942
0.020581761 0.12349023 -0.25606608
0.40305674 0.12358477 -0.2540198
0.020640688 0.14189231 -0.25223893
0.075856045 -0.059017584 -0.23822379
0.093984783 -0.058881231 -0.24265027
0.11222365 -0.058846787 -0.24376845
0.13063662 -0.058908127 -0.24177992
0.14912909 -0.058991045 -0.23908556
0.039139673 -0.040634416 -0.24038815
0.27644387 -0.040482387 -0.2469703
0.2959137 -0.040694796 -0.23777014
0.36878598 -0.02231296 -0.24070507
0.020819834 -0.003999697 -0.24060327
0.38644746 -0.0039692279 -0.24455851
0.02070188 0.014315208 -0.24826437
0.40520585 0.014315208 -0.24188173
0.42404839 0.032642685 -0.23897219
0.020799628 0.050924808 -0.24191552
0.42374077 0.050944395 -0.24063718
0.4239772 0.069288574 -0.23935753
0.42449704 0.087699637 -0.23654395
0.42470068 0.10608818 -0.23544174
0.42462504 0.12442392 -0.23585099
0.0025409274 0.16112196 -0.2359305
0.02081112 0.16079926 -0.2411691
0.057691924 -0.059186675 -0.23273301
0.16849542 -0.059406988 -0.22557873
0.31559694 -0.040919244 -0.2280522
0.020961536 -0.022456197 -0.23139918
0.39039695 -0.02261267 -0.2212379
0.0026400499 -0.0041347612 -0.22305429
0.40759164 -0.0040935893 -0.22840673
0.0025912784 0.032716457 -0.22938979
0.002553096 0.051041223 -0.23434985
0.0025573019 0.069416799 -0.23380363
0.0025532711 0.087767988 -0.2343272
0.0025499426 0.12447435 -0.23475951
0.0025493279 0.14282992 -0.23483914
0.039401852 0.16154663 -0.22903556
0.0025943574 0.17995365 -0.22898972
0.021109479 0.1804525 -0.22179002
0.039728172 -0.059735596 -0.2149055
0.18778665 -0.059719935 -0.21541423
0.20717135 -0.060011894 -0.20593226
0.021142082 -0.041112825 -0.21967238
0.33554944 -0.041162618 -0.2175163
0.0027357768 -0.022776159 -0.21061873
0.002749905 0.014315208 -0.20878339
0.42789733 0.014315208 -0.21813929
0.44686061 0.032822028 -0.2156685
0.44657165 0.051305756 -0.21717006
0.4467828 0.06982626 -0.21607292
0.44749764 0.088444382 -0.21235842
0.44772306 0.10702182 -0.21118742
0.4476248 0.12553948 -0.21169764
-0.015809918 0.16297156 -0.20589727
0.058183581 0.1623022 -0.21676606
-0.015809918 0.18151563 -0.20644468
0.039861232 0.18132861 -0.20914376
0.02149914 -0.060302883 -0.19648087
0.22661319 -0.060276523 -0.19733781
0.0028444305 -0.041647851 -0.19650441
0.3569591 -0.041600145 -0.19856924
0.41323799 -0.022993216 -0.19651616
-0.015809918 -0.0043563023 -0.19428295
0.43122938 -0.0043113548 -0.20010406
-0.015809918 0.014315253 -0.20406646
0.44977942 0.014315253 -0.2005021
-0.015809918 0.032910682 -0.20415992
-0.015809918 0.051505886 -0.20417154
-0.015809918 0.070341244 -0.19377691
-0.015809918 0.088727482 -0.20316768
-0.015809918 0.10756706 -0.19702095
-0.015809918 0.12589902 -0.20391482
-0.015809918 0.14466642 -0.20075953
0.058811814 0.18221413 -0.19636351
-0.015809918 0.20058069 -0.2001158
0.0028419904 0.20083424 -0.19682127
0.24626788 -0.060564175 -0.18799615
0.26636264 -0.060930818 -0.17608917
0.37870923 -0.042044602 -0.17932105
-0.015809918 -0.023100654 -0.18954444
0.45453975 -0.0044988301 -0.17576665
0.47101724 0.033039264 -0.18744028
0.47040713 0.051716462 -0.19048887
0.47074512 0.070456192 -0.18880016
0.47134665 0.089262366 -0.18579471
0.002982486 0.1082773 -0.17857045
0.47169542 0.10806628 -0.18405205
0.47168356 0.12681369 -0.1841113
-0.03461995 0.18360549 -0.17628014
-0.03460893 0.20230533 -0.17771202
0.021721574 0.20197263 -0.18203348
0.0030074716 -0.060954355 -0.17532474
0.28652748 -0.061269119 -0.16510159
-0.015809918 -0.042208761 -0.17221409
-0.034723364 -0.023511669 -0.16284633
0.43847218 -0.02354165 -0.16090119
-0.034632646 0.014315164 -0.17463142
-0.034654573 0.033159804 -0.17178255
-0.034653191 0.052001782 -0.17196232
-0.034651715 0.070840552 -0.17215401
-0.034639455 0.089633368 -0.17374629
-0.03463909 0.10846113 -0.17379427
-0.034635127 0.12726654 -0.1743086
-0.034646094 0.14616843 -0.17288464
-0.034644246 0.16498984 -0.17312413
-0.015809918 -0.061692975 -0.15133691
0.3076368 -0.061789885 -0.14818925
0.40199587 -0.04265824 -0.1527496
0.47928682 0.014315164 -0.14612299
0.49760774 0.033330664 -0.14959341
0.49690112 0.052293852 -0.15299296
0.49722764 0.071319394 -0.15142232
0.060797639 -0.081444338 -0.13187194
-0.034869354 -0.042863123 -0.14388186
0.46121684 -0.023846911 -0.14107156
-0.053924263 0.014315208 -0.14417595
-0.0540196 0.033420075 -0.1379838
-0.054003485 0.052508727 -0.13903034
-0.05393219 0.071498603 -0.14366108
-0.053934641 0.090564698 -0.14350182
0.50055379 0.090813555 -0.13541925
-0.053950697 0.10966717 -0.14245898
0.50085926 0.10999468 -0.1339497
-0.053931996 0.12868142 -0.14367336
0.49912885 0.12874609 -0.14227498
-0.053917661 0.14769226 -0.1446048
-0.054122649 0.16756617 -0.13129008
-0.053902574 0.18573223 -0.1455847
-0.054023959 0.2053854 -0.13770056
0.022589186 -0.081682578 -0.12568009
0.041717008 -0.081563018 -0.12878621
0.080295689 -0.081790417 -0.12287819
0.099706009 -0.081948139 -0.11878216
-0.035019532 -0.062523216 -0.12437332
0.32970104 -0.06246499 -0.12626469
0.42559266 -0.04325904 -0.126737
-0.054163687 -0.024038648 -0.1286248
-0.054219365 -0.004889546 -0.12500823
0.48439381 -0.0049233902 -0.12060714
0.0034923553 -0.082196191 -0.1123364
0.11934666 -0.082225241 -0.1115818
0.13910851 -0.08250878 -0.10421348
0.35230839 -0.063183397 -0.1029346
-0.054394923 -0.043562345 -0.11360562
0.44849694 -0.043723129 -0.10664058
-0.07370396 0.033613145 -0.11288953
-0.073748402 0.052940838 -0.11096513
-0.073715866 0.09152317 -0.11237419
-0.073699608 0.1300946 -0.113078
-0.073806591 0.14964074 -0.10844541
-0.0736738 0.16861884 -0.11419594
-0.015809918 -0.08279606 -0.096750498
0.15898243 -0.082791619 -0.096865177
0.17903489 -0.083107226 -0.088666916
-0.054684035 -0.063433006 -0.094827056
-0.074208379 -0.024617063 -0.091047645
-0.073984511 -0.005076265 -0.10074139
-0.035214059 -0.0050888788 -0.099103451
-0.074186236 0.014315164 -0.092006326
0.50897223 0.014315164 -0.094916224
-0.073977485 0.072482787 -0.10104585
-0.074113742 0.11148831 -0.095145702
-0.035362385 -0.083447047 -0.079835057
0.19986975 -0.083721042 -0.072719693
0.37582627 -0.064011998 -0.076023579
-0.074404828 -0.044279687 -0.082541227
0.49228331 -0.024768827 -0.081188798
-0.093957871 0.072926141 -0.08184576
-0.09396144 0.092466712 -0.081730008
-0.0939551 0.11199667 -0.081936121
-0.093937255 0.13150625 -0.082515597
0.22075905 -0.084255174 -0.05884099
-0.074809551 -0.06435097 -0.06501627
-0.09469977 -0.025129652 -0.057752013
-0.094556548 -0.0053714011 -0.062403321
-0.094436318 0.014315208 -0.066307783
-0.094385773 0.03395918 -0.067949653
-0.094384566 0.053602576 -0.067988753
-0.055289231 -0.084383085 -0.055518746
0.39924216 -0.064742267 -0.052306294
-0.094948314 -0.045038648 -0.049680352
0.47854084 -0.045006894 -0.051053405
-0.075683452 -0.085473999 -0.027175307
0.2429592 -0.085211374 -0.033998847
-0.095445186 -0.065320015 -0.033544183
0.4212054 -0.065142088 -0.039322734
-0.11552417 -0.005627675 -0.02912271
-0.11544004 0.014315164 -0.031308532
-0.11541117 0.034235485 -0.032058597
-0.11542149 0.05415985 -0.031790733
-0.11551644 0.074139059 -0.029324055
-0.11548751 0.094057254 -0.030075192
-0.055871829 -0.10587049 -0.017677903
-0.035781741 -0.10551575 -0.025359273
-0.015809918 -0.10550766 -0.025534272
0.0041904412 -0.10568697 -0.02165246
0.024268465 -0.10591988 -0.016607881
-0.1159991 -0.045798361 -0.016783953
-0.11570013 -0.025640866 -0.024551392
-0.11586681 0.11437201 -0.020220757
-0.11566593 0.13414243 -0.025440097
-0.076208264 -0.10648154 -0.0044500828
0.044426814 -0.1061583 -0.011448264
0.06467028 -0.10640502 -0.0061042309
0.085070834 -0.10674173 0.001183629
-0.096561499 -0.08662425 0.0027092695
0.26587519 -0.086286701 -0.0060632229
-0.11659506 -0.066312946 -0.0013004541
-0.13693666 0.01431512 0.0026955605
-0.13690363 0.034497444 0.0019806623
-0.13691697 0.054684207 0.002269268
-0.13695762 0.095080346 0.0031493902
-0.056351759 -0.12758127 0.013494372
-0.036076888 -0.12755364 0.012981534
-0.015809918 -0.12757744 0.013424993
0.10564292 -0.10713773 0.0097558498
-0.13755788 -0.046558745 0.016145468
-0.13720915 -0.026151279 0.0085949898
-0.13702565 -0.0058874115 0.004622221
-0.13703838 0.074929424 0.0048977137
-0.13754185 0.11575847 0.01579833
-0.13731004 0.13581532 0.0107795
-0.076875426 -0.12817095 0.0244385
0.0045036804 -0.12787999 0.019038677
0.024904506 -0.12818526 0.024704337
0.045393452 -0.1284927 0.030408263
-0.097061738 -0.10756247 0.018955112
0.12638077 -0.10756247 0.018955112
0.14749339 -0.10816225 0.031939983
-0.13827832 -0.06733036 0.03174305
0.4312025 0.15654647 0.019707322
0.45202005 0.15669818 0.022524476
0.43287924 0.17747492 0.029608011
-0.17984299 -0.12921381 0.043790102
-0.15937023 -0.12924513 0.044371843
-0.13893968 -0.12933618 0.046061993
-0.097590372 -0.12880063 0.036122799
0.066004865 -0.12886068 0.037237763
0.086822279 -0.1293698 0.046687484
-0.18007225 -0.10888154 0.047512412
0.16870372 -0.10869389 0.043449759
-0.11802679 -0.087901711 0.035897255
-0.15927546 -0.026675018 0.042613149
-0.15909542 -0.0061541218 0.039272189
-0.15900481 0.014315164 0.037590742
-0.15896906 0.034766462 0.036927223
-0.15898731 0.055222958 0.037266016
-0.15913734 0.075741276 0.04005003
-0.15899415 0.096134752 0.037392974
0.47507095 0.15748887 0.037195325
0.41520396 0.17851093 0.046431541
0.45584801 0.17837009 0.044144869
-0.098384157 -0.15083326 0.061901808
-0.077567719 -0.15037228 0.05441606
-0.056954063 -0.15026139 0.052615404
-0.036374845 -0.15020427 0.051687479
-0.015809918 -0.15053354 0.057035565
0.10780219 -0.12989897 0.056505561
-0.15956168 -0.10890064 0.047925115
-0.13907109 -0.10894599 0.048907399
-0.11866918 -0.10911592 0.052586794
0.19059357 -0.10952684 0.061484933
0.29301047 -0.088624917 0.054687738
-0.15967911 -0.047343016 0.050104141
-0.15982136 0.11718059 0.052743912
-0.15956552 0.13753417 0.047996283
0.41562718 0.15812755 0.049049735
0.47918689 0.17931414 0.059473634
0.41667277 0.19966488 0.055517554
0.0048461594 -0.15093341 0.063527822
0.025600446 -0.15132628 0.06990695
0.046459027 -0.15173534 0.076549053
-0.11921403 -0.13045059 0.066742539
0.12912869 -0.13062342 0.069950342
-0.14004035 -0.089210123 0.069892406
-0.1605166 -0.068374373 0.065646052
-0.18192045 -0.027212435 0.07752347
-0.18175486 -0.00642794 0.074834585
-0.18166818 0.014315208 0.073427081
-0.18163066 0.035042766 0.072817802
-0.18165477 0.055776365 0.073209524
-0.18182732 0.076571748 0.0760113
-0.18161905 0.097219713 0.072629571
0.39914855 0.18029843 0.075459242
0.39866155 0.20082735 0.072296023
0.43983647 0.20071608 0.070688367
-0.11976637 -0.15201515 0.081092596
0.067555614 -0.15241586 0.087599635
0.15071018 -0.13138987 0.084174156
0.21266845 -0.11030934 0.078425884
-0.18238316 -0.04814972 0.085036993
-0.18272986 0.11864014 0.090666533
-0.18245888 0.13930196 0.086266398
0.46372879 0.20196076 0.088655472
-0.12056639 -0.17424649 0.10187793
-0.099407174 -0.17377868 0.095125198
-0.078456506 -0.17362456 0.092901468
-0.057576351 -0.17363371 0.093033791
-0.036721036 -0.17388487 0.096658945
-0.015809918 -0.1743789 0.10379004
0.088862248 -0.1531602 0.099687338
0.17276303 -0.13235265 0.10204089
0.23562613 -0.11140283 0.10210025
-0.1626256 -0.090553179 0.10478425
-0.18335189 -0.06945578 0.10076737
0.38245329 0.182005 0.10316718
0.38199839 0.20275059 0.10005713
0.005209446 -0.17485906 0.11072004
0.026339045 -0.17535518 0.11788034
0.1103593 -0.15391035 0.1118685
-0.20569025 -0.048978232 0.12091112
-0.2051672 -0.027764203 0.1133616
-0.20502965 -0.006709218 0.11137629
-0.20495115 0.014315253 0.11024296
-0.20491295 0.035326712 0.10969162
-0.20494288 0.05634474 0.11012387
-0.20513822 0.077424601 0.11294329
-0.2048758 0.09834452 0.10915554
-0.10062557 -0.19772391 0.13469386
-0.079438128 -0.1977789 0.13540721
0.047722384 -0.17628171 0.13125408
-0.14251971 -0.15463121 0.12357223
0.13222933 -0.15487248 0.12749064
0.19529085 -0.13345538 0.12250412
0.2593877 -0.11269913 0.13016486
-0.20679347 -0.070566326 0.13683474
-0.20629784 0.12014171 0.12968111
-0.20603116 0.14112936 0.1258316
0.36616978 0.16286291 0.13692594
0.36516592 0.18363781 0.12968099
-0.12198622 -0.19803739 0.13876593
-0.058276922 -0.19801988 0.13853776
-0.037112985 -0.19871551 0.14757419
-0.14326718 -0.17687073 0.13975537
0.069316141 -0.17721842 0.14477456
0.15465705 -0.1561518 0.14826345
0.21843566 -0.13475011 0.14653313
-0.18580361 -0.091930792 0.14057791
-0.22909436 -0.028341727 0.15087068
-0.22895263 -0.0069990233 0.14902985
-0.22888067 0.014315164 0.14809501
-0.22884177 0.035618383 0.14758956
-0.22888067 0.056929372 0.14809501
-0.22909671 0.078301348 0.15090132
-0.22893493 0.099565126 0.1487999
-0.14384797 -0.19908153 0.15232968
-0.015809918 -0.19941096 0.15660834
0.0056189671 -0.19997364 0.16391873
0.091084599 -0.17809494 0.15742564
-0.16563196 -0.15690999 0.16057551
0.28443679 -0.11436192 0.16616726
0.32608733 -0.09252768 0.15608442
-0.22962269 -0.049828596 0.15773404
-0.23031969 0.14302103 0.16678822
0.34763747 0.16397008 0.1574719
0.38977653 0.16374174 0.15323663
0.027272327 -0.20109609 0.17849863
-0.16656148 -0.17950831 0.17782545
0.11333276 -0.17939879 0.17624557
0.17742544 -0.15744951 0.16933715
0.24287027 -0.13658156 0.18051994
-0.20959976 -0.093345843 0.17734039
-0.23086494 -0.071706809 0.17387128
-0.23055302 0.12168677 0.16981947
-0.12391295 -0.2235115 0.18882418
-0.10230935 -0.22355826 0.18937624
-0.080738477 -0.22375618 0.19171381
-0.16751288 -0.20240335 0.19548082
0.049153335 -0.20222898 0.1932162
0.1359255 -0.18077324 0.19608319
0.20095007 -0.15909286 0.19601989
-0.25420833 -0.050702505 0.19557595
-0.25369808 -0.028937237 0.18955004
-0.25356317 -0.007298734 0.18795681
-0.25348309 0.014315208 0.18701124
-0.2534444 0.035918314 0.18655455
-0.25350043 0.057531722 0.18721616
-0.25373015 0.079202563 0.18992889
-0.25370476 0.10082233 0.18962884
0.41654879 0.16564079 0.18847716
-0.14605808 -0.22447307 0.20017982
-0.059256591 -0.2246415 0.20216918
0.071278051 -0.20340472 0.20848942
-0.18937723 -0.15925217 0.19860661
-0.21140715 -0.1160829 0.20342767
-0.25544277 0.12323929 0.21015394
-0.25534517 0.14497074 0.2090013
-0.1688683 -0.22620513 0.22063422
-0.037613228 -0.22552122 0.21255815
-0.015809918 -0.22650611 0.22418809
-0.19051349 -0.18222632 0.21705687
0.15883419 -0.18215947 0.21609187
-0.21257356 -0.13872328 0.22026324
0.2678597 -0.13842995 0.21482182
-0.23403712 -0.094798341 0.21507895
-0.25559205 -0.072878294 0.21191669
-0.27875277 0.036226995 0.22666478
0.0062129293 -0.22793604 0.24107623
-0.19174609 -0.20560503 0.23707211
0.093826376 -0.20495743 0.22865903
-0.21377996 -0.16165817 0.23767614
0.22553287 -0.16120681 0.23034751
-0.27947167 -0.051600255 0.23444676
-0.27899697 -0.029549317 0.22930825
-0.27887708 -0.0076070167 0.22801018
-0.27879024 0.014315342 0.22706997
-0.27882466 0.05815091 0.22744274
-0.27906147 0.080128126 0.23000646
-0.27920857 0.10211471 0.23159862
-0.1927285 -0.22894782 0.25302458
0.11670392 -0.20654126 0.24923372
0.18290953 -0.18440428 0.24849319
-0.23612787 -0.11787557 0.24223888
-0.25914848 -0.096293248 0.25391614
-0.28100196 -0.074082151 0.25101256
-0.28024745 0.12449756 0.24284506
-0.28114209 0.14698131 0.2525295
0.028523894 -0.22952072 0.25979042
-0.21514679 -0.18502164 0.25740457
-0.23749176 -0.14086215 0.25995624
-0.30502224 -0.030178985 0.270208
-0.30492198 -0.0079242252 0.26920617
-0.30483016 0.01431512 0.26828849
-0.30479679 0.036544964 0.26795506
-0.30487689 0.058787018 0.26875579
-0.3051075 0.081076197 0.27106023
-0.21660477 -0.20879015 0.2784487
0.14031407 -0.20871904 0.27752507
0.20776451 -0.18690181 0.28454196
-0.23889074 -0.16414943 0.27812958
-0.2615748 -0.11973836 0.28256977
-0.30544403 -0.052523464 0.27442288
-0.30548263 0.10344519 0.27480829
-0.30650228 0.12611999 0.28499734
-0.21752129 -0.23222101 0.29167771
0.051500887 -0.232491 0.29486775
-0.24049093 -0.18789773 0.2989167
-0.26311633 -0.14306153 0.30077457
-0.28500605 -0.097849853 0.29435825
-0.30717421 -0.075335406 0.29171157
-0.30774358 0.14905371 0.29740119
0.16460776 -0.21120693 0.30984294
-0.2642335 -0.16635649 0.3139677
0.25485465 -0.16612783 0.31025481
-0.33192977 -0.030844809 0.31345153
-0.33181486 -0.008256672 0.31238508
-0.33172038 0.014315253 0.31150854
-0.33163336 0.036874074 0.31070125
-0.33172038 0.059445247 0.31150842
-0.33193904 0.082057275 0.31353748
-0.24219541 -0.21207026 0.32105863
-0.28725702 -0.12140841 0.31872571
-0.33246097 -0.053538561 0.31838036
-0.33257264 0.10481894 0.31941652
-0.33356062 0.12779757 0.32858372
-0.24361144 -0.23626657 0.33945334
0.075187378 -0.23592736 0.33544862
-0.26604953 -0.19042625 0.33541358
-0.28908119 -0.14509302 0.33847308
-0.31190634 -0.099568039 0.33899808
-0.33441341 -0.076714434 0.33649695
-0.33519322 0.15119369 0.34373224
-0.26798984 -0.21493928 0.35832775
0.32765657 -0.12307134 0.3547318
-0.35966501 -0.031532079 0.3580972
-0.35952994 -0.0085994639 0.35692739
-0.35942972 0.014315208 0.35605931
-0.35932955 0.03721647 0.35519195
-0.35937655 0.060124077 0.35559905
-0.3595545 0.083063982 0.35714006
-0.29164135 -0.16957243 0.36618769
-0.31502396 -0.12378363 0.37015104
-0.36032563 -0.05458799 0.36381817
-0.36050868 0.10623493 0.36540353
-0.36141023 0.12951526 0.37321126
-0.29376745 -0.19415292 0.38920319
-0.33970004 -0.10135986 0.38555038
-0.36250377 -0.078136593 0.38268137
-0.31712821 -0.14793308 0.39117801
-0.38828015 -0.032243647 0.40430617
-0.38811129 -0.0089535825 0.40293515
-0.38798982 0.014315208 0.40194881
-0.38788864 0.037570007 0.40112746
-0.3878774 0.060823657 0.40103614
-0.38796505 0.08409436 0.40174806
0.10076821 -0.24215664 0.40901327
-0.29592317 -0.21911253 0.4125396
-0.31942427 -0.17252441 0.41412187
-0.34308699 -0.12594645 0.41697729
-0.38906339 -0.055669799 0.41066527
-0.38932368 0.1076936 0.41277874
-0.39004311 0.13126321 0.41861963
-0.36838445 -0.10320964 0.4336096
-0.39152923 -0.079614721 0.43068528
-0.32221454 -0.19781105 0.44200385
-0.34551159 -0.15053567 0.43947518
-0.41744208 0.014315208 0.44925714
-0.41734353 0.037934743 0.44850385
-0.41722775 0.061540864 0.4476192
-0.41710222 0.085131489 0.44665992
-0.41732132 0.10878851 0.44833434
-0.32438156 -0.22304749 0.46365774
-0.41872048 -0.05678679 0.45902586
-0.41780722 -0.032978579 0.45204723
-0.41759002 -0.0093188509 0.45038748
-0.41875771 0.13282926 0.45931005
-0.34857747 -0.17583779 0.46792245
-0.37206498 -0.12818682 0.46548414
-0.37542185 -0.15350373 0.49455547
-0.39795613 -0.10510549 0.48286533
-0.42153063 -0.081148446 0.48049927
-0.44723678 0.014315253 0.49377978
-0.44709444 0.038275316 0.49275255
-0.44705147 0.086188823 0.49244273
-0.44704881 0.11014596 0.49242342
-0.44690931 0.13406506 0.49141657
-0.35177833 -0.20166451 0.49762297
-0.44935575 -0.057942413 0.5090723
-0.4482815 -0.033737272 0.50131965
-0.44778544 -0.0096834954 0.49773955
-0.44755664 0.062287077 0.4960885
-0.44774505 0.15829352 0.49744809
-0.42493454 0.15871213 0.50650978
-0.37887451 -0.17931932 0.5244565
-0.40261921 -0.13073821 0.52072465
-0.40263861 0.15937595 0.52088237
-0.45014113 0.18322164 0.51474023
-0.4284533 -0.10705046 0.53339791
-0.45252541 -0.082732677 0.53194714
-0.42799324 0.18403769 0.52988267
-0.40655777 -0.15663703 0.55270183
-0.4792996 -0.034473136 0.54912341
-0.47841135 -0.010032106 0.54305029
-0.47919977 0.014315208 0.54844069
-0.47884187 0.038685352 0.5459938
-0.47861037 0.06303107 0.54441118
-0.47971407 0.087563239 0.55195713
-0.47874218 0.11177456 0.54531252
-0.47850204 0.1360763 0.54367077
-0.47831771 0.16037026 0.54241037
-0.4781248 0.18464179 0.54109132
-0.40563035 0.18486159 0.54517233
-0.38306564 -0.20603825 0.56075251
-0.43295637 -0.13291304 0.56780779
-0.4809798 -0.059132643 0.56061089
-0.40988278 -0.18272114 0.57969761
-0.46095899 -0.10933733 0.59281123
-0.48455718 -0.084368519 0.58506989
-0.51068062 -0.010428241 0.59450448
-0.5113591 0.039092593 0.59891129
-0.51088113 0.063822269 0.59580648
-0.51096392 0.11334591 0.59634435
-0.51078564 0.13805906 0.59518647
-0.51034051 0.18740094 0.59229529
-0.43807584 -0.15955903 0.60692799
-0.51357937 -0.060350224 0.61333239
-0.51179647 -0.035283439 0.60175169
-0.5120458 0.014315208 0.60337138
-0.51166546 0.088693462 0.60090125
-0.51144522 0.1630058 0.59947073
-0.46739063 -0.13621175 0.63922775
-0.51778543 -0.086079858 0.64065158
-0.54375857 0.064595975 0.64605999
-0.54385161 0.089749731 0.64663601
-0.54381025 0.11488669 0.64637995
-0.54363096 0.13998696 0.64527106
-0.49628615 -0.11212591 0.66526127
-0.5475682 -0.036328517 0.669626
-0.54662895 -0.010961929 0.66381574
-0.54668468 0.01431512 0.66416097
-0.54701954 0.039610911 0.66623247
-0.54967874 -0.061951734 0.68268156
-0.53545761 -0.11559673 0.75543571
-0.56046218 -0.089428201 0.74938679
-0.52191615 -0.14550786 0.84049463
0 0 0 1 0 0 0 1 0 0 0 1 0 0 0 0 0 789 1 0 0
