ply
format ascii 1.0
comment PCL generated
element vertex 1355
property float x
property float y
property float z
element camera 0
property float view_px
property float view_py
property float view_pz
property float x_axisx
property float x_axisy
property float x_axisz
property float y_axisx
property float y_axisy
property float y_axisz
property float z_axisx
property float z_axisy
property float z_axisz
property float focal
property float scalex
property float scaley
property float centerx
property float centery
property int viewportx
property int viewporty
property float k1
property float k2
end_header
-0.22265023 0.30936009 -0.26530898
-0.20326699 0.30936009 -0.26530898
-0.18388377 0.30936009 -0.26530898
-0.16450055 0.30936009 -0.26530898
-0.14511733 0.30936009 -0.26530898
-0.12573412 0.30936009 -0.26530898
-0.10635091 0.30936009 -0.26530898
-0.086967677 0.30936009 -0.26530898
-0.067584455 0.30936009 -0.26530898
-0.048201248 0.30936009 -0.26530898
-0.028818022 0.30936009 -0.26530898
-0.0094348043 0.30936009 -0.26530898
0.0099484138 0.30936009 -0.26530898
0.029331632 0.30936009 -0.26530898
0.04871485 0.30936009 -0.26530898
0.068098076 0.30936009 -0.26530898
0.08748129 0.30936009 -0.26530898
0.10686451 0.30936009 -0.26530898
0.12624773 0.30936009 -0.26530898
0.14563096 0.30936009 -0.26530898
0.16501416 0.30936009 -0.26530898
0.18439738 0.30936009 -0.26530898
0.20378061 0.30936009 -0.26530898
0.22316383 0.30936009 -0.26530898
0.24254707 0.30936009 -0.26530898
0.26193026 0.30936009 -0.26530898
0.28131348 0.30936009 -0.26530898
0.3006967 0.30936009 -0.26530898
0.32007989 0.30936009 -0.26530898
-0.31832671 0.32699338 -0.27478141
-0.29901642 0.32699338 -0.27478141
-0.27970612 0.32699338 -0.27478141
-0.2603958 0.32699338 -0.27478141
-0.24108548 0.32699338 -0.27478141
-0.22177519 0.32699338 -0.27478141
-0.20246489 0.32699338 -0.27478141
-0.18315458 0.32699338 -0.27478141
-0.16384429 0.32699338 -0.27478141
-0.14453399 0.32699338 -0.27478141
-0.12522368 0.32699338 -0.27478141
-0.10591339 0.32699338 -0.27478141
-0.08660309 0.32699338 -0.27478141
-0.067292795 0.32699338 -0.27478141
-0.047982488 0.32699338 -0.27478141
-0.028672189 0.32699338 -0.27478141
-0.0093618874 0.32699338 -0.27478141
0.0099484138 0.32699338 -0.27478141
0.029258715 0.32699338 -0.27478141
0.048569016 0.32699338 -0.27478141
0.067879319 0.32699338 -0.27478141
0.087189615 0.32699338 -0.27478141
0.10649991 0.32699338 -0.27478141
0.12581022 0.32699338 -0.27478141
0.14512052 0.32699338 -0.27478141
0.16443083 0.32699338 -0.27478141
0.18374112 0.32699338 -0.27478141
0.20305142 0.32699338 -0.27478141
0.22236173 0.32699338 -0.27478141
0.24167202 0.32699338 -0.27478141
0.2609823 0.32699338 -0.27478141
0.2802926 0.32699338 -0.27478141
0.29960293 0.32699338 -0.27478141
0.31891322 0.32699338 -0.27478141
-0.31802517 0.34586018 -0.27708542
-0.29873261 0.34586018 -0.27708542
-0.27944005 0.34586018 -0.27708542
-0.26014748 0.34586018 -0.27708542
-0.2408549 0.34586018 -0.27708542
-0.22156236 0.34586018 -0.27708542
-0.20226978 0.34586018 -0.27708542
-0.18297723 0.34586018 -0.27708542
-0.16368465 0.34586018 -0.27708542
-0.14439209 0.34586018 -0.27708542
-0.12509952 0.34586018 -0.27708542
-0.10580698 0.34586018 -0.27708542
-0.086514413 0.34586018 -0.27708542
-0.067221835 0.34586018 -0.27708542
-0.04792928 0.34586018 -0.27708542
-0.028636713 0.34586018 -0.27708542
-0.0093441494 0.34586018 -0.27708542
0.0099484138 0.34586018 -0.27708542
0.029240977 0.34586018 -0.27708542
0.04853354 0.34586018 -0.27708542
0.067826107 0.34586018 -0.27708542
0.08711867 0.34586018 -0.27708542
0.10641123 0.34586018 -0.27708542
0.1257038 0.34586018 -0.27708542
0.14499636 0.34586018 -0.27708542
0.16428892 0.34586018 -0.27708542
0.18358149 0.34586018 -0.27708542
0.20287406 0.34586018 -0.27708542
0.22216661 0.34586018 -0.27708542
0.24145919 0.34586018 -0.27708542
0.26075172 0.34586018 -0.27708542
0.28004429 0.34586018 -0.27708542
0.29933685 0.34586018 -0.27708542
0.31862941 0.34586018 -0.27708542
-0.32057634 0.19407073 -0.25759107
-0.30113372 0.19407073 -0.25759107
-0.28169107 0.19407073 -0.25759107
-0.26224846 0.19407073 -0.25759107
-0.24280579 0.19407073 -0.25759107
-0.22336316 0.19407073 -0.25759107
-0.20392053 0.19407073 -0.25759107
-0.18447791 0.19407073 -0.25759107
-0.16503525 0.19407073 -0.25759107
-0.14559264 0.19407073 -0.25759107
-0.12615001 0.19407073 -0.25759107
-0.10670738 0.19407073 -0.25759107
-0.087264746 0.19407073 -0.25759107
-0.067822114 0.19407073 -0.25759107
-0.048379481 0.19407073 -0.25759107
-0.028936852 0.19407073 -0.25759107
-0.009494219 0.19407073 -0.25759107
0.0099484138 0.19407073 -0.25759107
0.029391047 0.19407073 -0.25759107
0.048833679 0.19407073 -0.25759107
0.068276308 0.19407073 -0.25759107
0.087718949 0.19407073 -0.25759107
0.10716158 0.19407073 -0.25759107
0.1266042 0.19407073 -0.25759107
0.14604685 0.19407073 -0.25759107
0.16548948 0.19407073 -0.25759107
0.18493208 0.19407073 -0.25759107
0.20437475 0.19407073 -0.25759107
0.22381736 0.19407073 -0.25759107
0.24326 0.19407073 -0.25759107
0.26270261 0.19407073 -0.25759107
0.28214526 0.19407073 -0.25759107
0.30158788 0.19407073 -0.25759107
0.32103053 0.19407073 -0.25759107
-0.32054514 0.2134805 -0.25782955
-0.30110434 0.2134805 -0.25782955
-0.28166354 0.2134805 -0.25782955
-0.26222274 0.2134805 -0.25782955
-0.24278192 0.2134805 -0.25782955
-0.22334112 0.2134805 -0.25782955
-0.20390035 0.2134805 -0.25782955
-0.18445863 0.21347874 -0.25784147
-0.16501875 0.2134805 -0.25782955
-0.14557721 0.21347874 -0.25784147
-0.12613715 0.2134805 -0.25782955
-0.10669635 0.2134805 -0.25782955
-0.087255567 0.2134805 -0.25782955
-0.067814767 0.2134805 -0.25782955
-0.048373971 0.2134805 -0.25782955
-0.028933179 0.2134805 -0.25782955
-0.0094923824 0.2134805 -0.25782955
0.0099484138 0.2134805 -0.25782955
0.02938921 0.2134805 -0.25782955
0.048830006 0.2134805 -0.25782955
0.068270802 0.2134805 -0.25782955
0.087711602 0.2134805 -0.25782955
0.10715239 0.2134805 -0.25782955
0.12659319 0.2134805 -0.25782955
0.14603335 0.21347874 -0.25784147
0.16547404 0.21347874 -0.25784147
0.18491475 0.21347874 -0.25784147
0.20435546 0.21347874 -0.25784147
0.22379719 0.2134805 -0.25782955
0.24323796 0.2134805 -0.25782955
0.26267874 0.2134805 -0.25782955
0.28211954 0.2134805 -0.25782955
0.30156034 0.2134805 -0.25782955
0.32100114 0.2134805 -0.25782955
-0.3205139 0.23288634 -0.25806814
-0.30107495 0.23288634 -0.25806814
-0.281636 0.23288634 -0.25806814
-0.26219705 0.23288634 -0.25806814
-0.24275805 0.23288634 -0.25806814
-0.22331911 0.23288634 -0.25806814
-0.20388013 0.23288634 -0.25806814
-0.18444116 0.23288634 -0.25806814
-0.16500223 0.23288634 -0.25806814
-0.14556253 0.2328845 -0.25808012
-0.12612367 0.2328845 -0.25808012
-0.10668479 0.2328845 -0.25808012
-0.087245926 0.2328845 -0.25808012
-0.067807063 0.2328845 -0.25808012
-0.048368469 0.23288634 -0.25806814
-0.028929505 0.23288634 -0.25806814
-0.0094905458 0.23288634 -0.25806814
0.0099484138 0.23288634 -0.25806814
0.029387373 0.23288634 -0.25806814
0.048826151 0.2328845 -0.25808012
0.068265021 0.2328845 -0.25808012
0.087703884 0.2328845 -0.25808012
0.10714276 0.2328845 -0.25808012
0.12658162 0.2328845 -0.25808012
0.1460205 0.2328845 -0.25808012
0.16545936 0.2328845 -0.25808012
0.18489906 0.23288634 -0.25806814
0.204338 0.23288634 -0.25806814
0.22377697 0.23288634 -0.25806814
0.24321595 0.23288634 -0.25806814
0.26265487 0.23288634 -0.25806814
0.28209385 0.23288634 -0.25806814
0.3015328 0.23288634 -0.25806814
0.32097176 0.23288634 -0.25806814
-0.3204827 0.25228867 -0.25830656
-0.30104557 0.25228867 -0.25830656
-0.28160846 0.25228867 -0.25830656
-0.26217133 0.25228867 -0.25830656
-0.24273418 0.25228867 -0.25830656
-0.22329707 0.25228867 -0.25830656
-0.20385996 0.25228867 -0.25830656
-0.18442284 0.25228867 -0.25830656
-0.16498572 0.25228867 -0.25830656
-0.14554857 0.25228867 -0.25830656
-0.12611145 0.25228867 -0.25830656
-0.10667378 0.25228667 -0.25831854
-0.087236747 0.25228667 -0.25831854
-0.067799717 0.25228667 -0.25831854
-0.048362684 0.25228667 -0.25831854
-0.02892565 0.25228667 -0.25831854
-0.0094887093 0.25228867 -0.25830656
0.0099484138 0.25228867 -0.25830656
0.029385537 0.25228867 -0.25830656
0.048822477 0.25228667 -0.25831854
0.068259791 0.25228867 -0.25830656
0.087696537 0.25228667 -0.25831854
0.10713358 0.25228667 -0.25831854
0.12657061 0.25228667 -0.25831854
0.14600828 0.25228867 -0.25830656
0.1654454 0.25228867 -0.25830656
0.18488255 0.25228867 -0.25830656
0.20431967 0.25228867 -0.25830656
0.22375679 0.25228867 -0.25830656
0.24319391 0.25228867 -0.25830656
0.262631 0.25228867 -0.25830656
0.28206813 0.25228867 -0.25830656
0.30150527 0.25228867 -0.25830656
0.32094237 0.25228867 -0.25830656
-0.32045153 0.27168709 -0.25854492
-0.30101621 0.27168709 -0.25854492
-0.28158092 0.27168709 -0.25854492
-0.26214564 0.27168709 -0.25854492
-0.24271034 0.27168709 -0.25854492
-0.22327505 0.27168709 -0.25854492
-0.20383976 0.27168709 -0.25854492
-0.18440446 0.27168709 -0.25854492
-0.16496919 0.27168709 -0.25854492
-0.14553389 0.27168709 -0.25854492
-0.1260986 0.27168709 -0.25854492
-0.10666332 0.27168709 -0.25854492
-0.08722803 0.27168709 -0.25854492
-0.067792743 0.27168709 -0.25854492
-0.048357453 0.27168709 -0.25854492
-0.028922163 0.27168709 -0.25854492
-0.0094868746 0.27168709 -0.25854492
0.0099484138 0.27168709 -0.25854492
0.029383702 0.27168709 -0.25854492
0.048818991 0.27168709 -0.25854492
0.068254277 0.27168709 -0.25854492
0.087689564 0.27168709 -0.25854492
0.10712487 0.27168709 -0.25854492
0.12656015 0.27168709 -0.25854492
0.14599544 0.27168709 -0.25854492
0.16543072 0.27168709 -0.25854492
0.18486603 0.27168709 -0.25854492
0.2043013 0.27168709 -0.25854492
0.2237366 0.27168709 -0.25854492
0.24317189 0.27168709 -0.25854492
0.26260716 0.27168709 -0.25854492
0.28204244 0.27168709 -0.25854492
0.30147773 0.27168709 -0.25854492
0.32091302 0.27168709 -0.25854492
-0.3204203 0.29108214 -0.25878334
-0.30098686 0.29108214 -0.25878334
-0.28155342 0.29108214 -0.25878334
-0.26211995 0.29108214 -0.25878334
-0.24268647 0.29108214 -0.25878334
-0.22325304 0.29108214 -0.25878334
-0.20381957 0.29108214 -0.25878334
-0.18438612 0.29108214 -0.25878334
-0.16495267 0.29108214 -0.25878334
-0.14551921 0.29108214 -0.25878334
-0.12608576 0.29108214 -0.25878334
-0.10665232 0.29108214 -0.25878334
-0.087218851 0.29108214 -0.25878334
-0.067785397 0.29108214 -0.25878334
-0.048351951 0.29108214 -0.25878334
-0.028918494 0.29108214 -0.25878334
-0.0094850399 0.29108214 -0.25878334
0.0099484138 0.29108214 -0.25878334
0.029381867 0.29108214 -0.25878334
0.048815321 0.29108214 -0.25878334
0.068248779 0.29108214 -0.25878334
0.087682232 0.29108214 -0.25878334
0.10711569 0.29108214 -0.25878334
0.12654914 0.29108214 -0.25878334
0.14598259 0.29108214 -0.25878334
0.16541605 0.29108214 -0.25878334
0.1848495 0.29108214 -0.25878334
0.20428295 0.29108214 -0.25878334
0.22371641 0.29108214 -0.25878334
0.24314988 0.29108214 -0.25878334
0.26258329 0.29108214 -0.25878334
0.28201675 0.29108214 -0.25878334
0.30145022 0.29108214 -0.25878334
0.32088366 0.29108214 -0.25878334
-0.32060131 0.36909279 -0.25740016
-0.30115575 0.36909035 -0.25741214
-0.28171176 0.36909035 -0.25741214
-0.26226774 0.36909035 -0.25741214
-0.24282371 0.36909035 -0.25741214
-0.22337969 0.36909035 -0.25741214
-0.20393568 0.36909035 -0.25741214
-0.18449168 0.36909035 -0.25741214
-0.16504766 0.36909035 -0.25741214
-0.14560366 0.36909035 -0.25741214
-0.12615965 0.36909035 -0.25741214
-0.10671563 0.36909035 -0.25741214
-0.087271631 0.36909035 -0.25741214
-0.067827627 0.36909035 -0.25741214
-0.048383612 0.36909035 -0.25741214
-0.028939605 0.36909035 -0.25741214
-0.0094955955 0.36909035 -0.25741214
0.0099484138 0.36909035 -0.25741214
0.029392423 0.36909035 -0.25741214
0.048836432 0.36909035 -0.25741214
0.068280444 0.36909035 -0.25741214
0.087724447 0.36909035 -0.25741214
0.10716847 0.36909035 -0.25741214
0.12661247 0.36909035 -0.25741214
0.14605649 0.36909035 -0.25741214
0.16550049 0.36909035 -0.25741214
0.1849445 0.36909035 -0.25741214
0.20438851 0.36909035 -0.25741214
0.22383252 0.36909035 -0.25741214
0.24327652 0.36909035 -0.25741214
0.26272053 0.36909035 -0.25741214
0.28216454 0.36909035 -0.25741214
0.30160856 0.36909035 -0.25741214
0.32105401 0.36909279 -0.25740016
-0.32246971 0.17641026 -0.24312288
-0.30291569 0.17641026 -0.24312288
-0.2833617 0.17641026 -0.24312288
-0.26380768 0.17641026 -0.24312288
-0.24425368 0.17641026 -0.24312288
-0.22469968 0.17641026 -0.24312288
-0.20514567 0.17641026 -0.24312288
-0.18559165 0.17641026 -0.24312288
-0.16603765 0.17641026 -0.24312288
-0.14648363 0.17641026 -0.24312288
-0.12692963 0.17641026 -0.24312288
-0.10737564 0.17641026 -0.24312288
-0.087821618 0.17641026 -0.24312288
-0.068267614 0.17641026 -0.24312288
-0.04871361 0.17641026 -0.24312288
-0.029159598 0.17641026 -0.24312288
-0.0096055921 0.17641026 -0.24312288
0.0099484138 0.17641026 -0.24312288
0.02950242 0.17641026 -0.24312288
0.049056426 0.17641026 -0.24312288
0.068610437 0.17641026 -0.24312288
0.088164434 0.17641026 -0.24312288
0.10771845 0.17641026 -0.24312288
0.12727246 0.17641026 -0.24312288
0.14682646 0.17641026 -0.24312288
0.16638047 0.17641026 -0.24312288
0.18593448 0.17641026 -0.24312288
0.20548849 0.17641026 -0.24312288
0.22504251 0.17641026 -0.24312288
0.24459651 0.17641026 -0.24312288
0.2641505 0.17641026 -0.24312288
0.28370449 0.17641026 -0.24312288
0.30325851 0.17641026 -0.24312288
0.3228125 0.17641026 -0.24312288
-0.3036187 0.39269051 -0.23741525
-0.28401935 0.39268813 -0.23742741
-0.26442021 0.39268568 -0.23743939
-0.24482246 0.39268568 -0.23743939
-0.22522469 0.39268568 -0.23743939
-0.20562693 0.39268568 -0.23743939
-0.18602917 0.39268568 -0.23743939
-0.16643141 0.39268568 -0.23743939
-0.14683366 0.39268568 -0.23743939
-0.12723589 0.39268568 -0.23743939
-0.10763814 0.39268568 -0.23743939
-0.088040382 0.39268568 -0.23743939
-0.068442628 0.39268568 -0.23743939
-0.048844863 0.39268568 -0.23743939
-0.029247105 0.39268568 -0.23743939
-0.0096493457 0.39268568 -0.23743939
0.0099484138 0.39268568 -0.23743939
0.029546173 0.39268568 -0.23743939
0.049143933 0.39268568 -0.23743939
0.068741694 0.39268568 -0.23743939
0.088339448 0.39268568 -0.23743939
0.1079372 0.39268568 -0.23743939
0.12753497 0.39268568 -0.23743939
0.14713272 0.39268568 -0.23743939
0.16673049 0.39268568 -0.23743939
0.18632825 0.39268568 -0.23743939
0.205926 0.39268568 -0.23743939
0.22552377 0.39268568 -0.23743939
0.24512152 0.39268568 -0.23743939
0.26471928 0.39268568 -0.23743939
0.28431833 0.39268813 -0.23742741
0.30391759 0.39269051 -0.23741525
-0.32560322 0.15962103 -0.21917868
-0.3058649 0.15962103 -0.21917868
-0.28612655 0.15962103 -0.21917868
-0.26638824 0.15962103 -0.21917868
-0.24664988 0.15962103 -0.21917868
-0.22691154 0.15962103 -0.21917868
-0.20717323 0.15962103 -0.21917868
-0.18743488 0.15962103 -0.21917868
-0.16769657 0.15962103 -0.21917868
-0.14795823 0.15962103 -0.21917868
-0.1282199 0.15962103 -0.21917868
-0.10848157 0.15962103 -0.21917868
-0.08874324 0.15962103 -0.21917868
-0.069004908 0.15962103 -0.21917868
-0.049266577 0.15962103 -0.21917868
-0.029528249 0.15962103 -0.21917868
-0.0097899176 0.15962103 -0.21917868
0.0099484138 0.15962103 -0.21917868
0.029686745 0.15962103 -0.21917868
0.049425077 0.15962103 -0.21917868
0.069163404 0.15962103 -0.21917868
0.088901743 0.15962103 -0.21917868
0.10864006 0.15962103 -0.21917868
0.12837839 0.15962103 -0.21917868
0.14811674 0.15962103 -0.21917868
0.16785507 0.15962103 -0.21917868
0.1875934 0.15962103 -0.21917868
0.20733172 0.15962103 -0.21917868
0.22707006 0.15962103 -0.21917868
0.24680838 0.15962103 -0.21917868
0.2665467 0.15962103 -0.21917868
0.28628504 0.15962103 -0.21917868
0.30602336 0.15962103 -0.21917868
0.32576171 0.15962103 -0.21917868
-0.28636524 0.41666487 -0.21711159
-0.26661098 0.41666487 -0.21711159
-0.24685673 0.41666487 -0.21711159
-0.22710249 0.41666487 -0.21711159
-0.20734826 0.41666487 -0.21711159
-0.18759401 0.41666487 -0.21711159
-0.16783978 0.41666487 -0.21711159
-0.14808552 0.41666487 -0.21711159
-0.12833127 0.41666487 -0.21711159
-0.10857704 0.41666487 -0.21711159
-0.088822797 0.41666487 -0.21711159
-0.069068551 0.41666487 -0.21711159
-0.049314313 0.41666487 -0.21711159
-0.02956007 0.41666487 -0.21711159
-0.0098058283 0.41666487 -0.21711159
0.0099484138 0.41666487 -0.21711159
0.029702656 0.41666487 -0.21711159
0.049456898 0.41666487 -0.21711159
0.06921114 0.41666487 -0.21711159
0.088965386 0.41666487 -0.21711159
0.10871963 0.41666487 -0.21711159
0.12847386 0.41666487 -0.21711159
0.14822811 0.41666487 -0.21711159
0.16798235 0.41666487 -0.21711159
0.18773662 0.41666487 -0.21711159
0.20749085 0.41666487 -0.21711159
0.22724509 0.41666487 -0.21711159
0.24699932 0.41666487 -0.21711159
0.26675355 0.41666487 -0.21711159
0.28650779 0.41666487 -0.21711159
-0.32879636 0.14251232 -0.19477862
-0.3088702 0.14251232 -0.19477862
-0.28894404 0.14251232 -0.19477862
-0.26901785 0.14251232 -0.19477862
-0.2490917 0.14251232 -0.19477862
-0.22916552 0.14251232 -0.19477862
-0.20923938 0.14251232 -0.19477862
-0.1893132 0.14251232 -0.19477862
-0.16938704 0.14251232 -0.19477862
-0.14946088 0.14251232 -0.19477862
-0.12953471 0.14251232 -0.19477862
-0.10960856 0.14251232 -0.19477862
-0.0896824 0.14251232 -0.19477862
-0.06975624 0.14251232 -0.19477862
-0.049830072 0.14251232 -0.19477862
-0.029903911 0.14251232 -0.19477862
-0.0099777486 0.14251232 -0.19477862
0.0099484138 0.14251232 -0.19477862
0.029874576 0.14251232 -0.19477862
0.049800739 0.14251232 -0.19477862
0.069726899 0.14251232 -0.19477862
0.08965306 0.14251232 -0.19477862
0.10957922 0.14251232 -0.19477862
0.12950538 0.14251232 -0.19477862
0.14943154 0.14251232 -0.19477862
0.16935772 0.14251232 -0.19477862
0.18928388 0.14251232 -0.19477862
0.20921004 0.14251232 -0.19477862
0.22913621 0.14251232 -0.19477862
0.24906236 0.14251232 -0.19477862
0.26898852 0.14251232 -0.19477862
0.28891465 0.14251232 -0.19477862
0.30884084 0.14251232 -0.19477862
0.328767 0.14251232 -0.19477862
-0.33205086 0.12507495 -0.16990972
-0.31193325 0.12507495 -0.16990972
-0.29181564 0.12507495 -0.16990972
-0.27169803 0.12507495 -0.16990972
-0.25158045 0.12507495 -0.16990972
-0.23146282 0.12507495 -0.16990972
-0.21134521 0.12507495 -0.16990972
-0.1912276 0.12507495 -0.16990972
-0.17111 0.12507495 -0.16990972
-0.15099241 0.12507495 -0.16990972
-0.1308748 0.12507495 -0.16990972
-0.1107572 0.12507495 -0.16990972
-0.090639591 0.12507495 -0.16990972
-0.070521995 0.12507495 -0.16990972
-0.050404396 0.12507495 -0.16990972
-0.030286793 0.12507495 -0.16990972
-0.010169189 0.12507495 -0.16990972
0.0099484138 0.12507495 -0.16990972
0.030066017 0.12507495 -0.16990972
0.05018362 0.12507495 -0.16990972
0.07030122 0.12507495 -0.16990972
0.09037362 0.12492803 -0.17137778
0.11053643 0.12507495 -0.16990972
0.13065404 0.12507495 -0.16990972
0.15077163 0.12507495 -0.16990972
0.17088924 0.12507495 -0.16990972
0.19100684 0.12507495 -0.16990972
0.21112444 0.12507495 -0.16990972
0.23124205 0.12507495 -0.16990972
0.25135964 0.12507495 -0.16990972
0.27147725 0.12507495 -0.16990972
0.29159483 0.12507495 -0.16990972
0.31171244 0.12507495 -0.16990972
0.33183005 0.12507495 -0.16990972
-0.33537018 0.1073004 -0.14454556
-0.31505731 0.1073004 -0.14454556
-0.29474446 0.1073004 -0.14454556
-0.27443162 0.1073004 -0.14454556
-0.25411877 0.1073004 -0.14454556
-0.23380587 0.1073004 -0.14454556
-0.21349302 0.1073004 -0.14454556
-0.19318016 0.1073004 -0.14454556
-0.1728673 0.1073004 -0.14454556
-0.15255444 0.1073004 -0.14454556
-0.13224159 0.1073004 -0.14454556
-0.11192873 0.1073004 -0.14454556
-0.091615871 0.1073004 -0.14454556
-0.07130301 0.1073004 -0.14454556
-0.050990157 0.1073004 -0.14454556
-0.0306773 0.1073004 -0.14454556
-0.010364443 0.1073004 -0.14454556
0.0099484138 0.1073004 -0.14454556
0.030261271 0.1073004 -0.14454556
0.050574128 0.1073004 -0.14454556
0.070861742 0.10719943 -0.14563859
0.091199845 0.1073004 -0.14454556
0.11151271 0.1073004 -0.14454556
0.13182555 0.1073004 -0.14454556
0.15213843 0.1073004 -0.14454556
0.17245127 0.1073004 -0.14454556
0.19276413 0.1073004 -0.14454556
0.21307699 0.1073004 -0.14454556
0.23338985 0.1073004 -0.14454556
0.2537027 0.1073004 -0.14454556
0.27401558 0.1073004 -0.14454556
0.29432842 0.1073004 -0.14454556
0.31464127 0.1073004 -0.14454556
0.33495411 0.1073004 -0.14454556
-0.318241 0.089176372 -0.11869729
-0.29772916 0.089176372 -0.11869729
-0.27721733 0.089176372 -0.11869729
-0.25670549 0.089176372 -0.11869729
-0.23619364 0.089176372 -0.11869729
-0.21568181 0.089176372 -0.11869729
-0.19516996 0.089176372 -0.11869729
-0.17465813 0.089176372 -0.11869729
-0.15414628 0.089176372 -0.11869729
-0.13363445 0.089176372 -0.11869729
-0.11312261 0.089176372 -0.11869729
-0.092610776 0.089176372 -0.11869729
-0.072098941 0.089176372 -0.11869729
-0.051587101 0.089176372 -0.11869729
-0.031075262 0.089176372 -0.11869729
-0.010563424 0.089176372 -0.11869729
0.0099484138 0.089176372 -0.11869729
0.030458208 0.089153811 -0.11896265
0.050972089 0.089176372 -0.11869729
0.071483925 0.089176372 -0.11869729
0.091995761 0.089176372 -0.11869729
0.1125076 0.089176372 -0.11869729
0.13301945 0.089176372 -0.11869729
0.15353128 0.089176372 -0.11869729
0.17404312 0.089176372 -0.11869729
0.19455497 0.089176372 -0.11869729
0.21506679 0.089176372 -0.11869729
0.23557864 0.089176372 -0.11869729
0.25609046 0.089176372 -0.11869729
0.2766023 0.089176372 -0.11869729
0.29711413 0.089176372 -0.11869729
0.31762597 0.089176372 -0.11869729
-0.32148769 0.070693582 -0.09233737
-0.30077294 0.070693582 -0.09233737
-0.28005818 0.070693582 -0.09233737
-0.25934342 0.070693582 -0.09233737
-0.23862863 0.070693582 -0.09233737
-0.2179139 0.070693582 -0.09233737
-0.19719912 0.070693582 -0.09233737
-0.17648438 0.070693582 -0.09233737
-0.15576963 0.070693582 -0.09233737
-0.13505487 0.070693582 -0.09233737
-0.11434011 0.070693582 -0.09233737
-0.093625352 0.070693582 -0.09233737
-0.072910607 0.070693582 -0.09233737
-0.052195847 0.070693582 -0.09233737
-0.031481098 0.070693582 -0.09233737
-0.010766342 0.070693582 -0.09233737
0.0099484138 0.070693582 -0.09233737
0.03066317 0.070693582 -0.09233737
0.051377926 0.070693582 -0.09233737
0.072092675 0.070693582 -0.09233737
0.092752442 0.070556134 -0.094123602
0.11352219 0.070693582 -0.09233737
0.13423693 0.070693582 -0.09233737
0.15495171 0.070693582 -0.09233737
0.17566647 0.070693582 -0.09233737
0.19638121 0.070693582 -0.09233737
0.21709596 0.070693582 -0.09233737
0.23781073 0.070693582 -0.09233737
0.25852546 0.070693582 -0.09233737
0.27924022 0.070693582 -0.09233737
0.29995498 0.070693582 -0.09233737
0.32066974 0.070693582 -0.09233737
-0.32480094 0.051842511 -0.065437078
-0.30387908 0.051842511 -0.065437078
-0.28295726 0.051842511 -0.065437078
-0.26203543 0.051842511 -0.065437078
-0.24111359 0.051842511 -0.065437078
-0.22019176 0.051842511 -0.065437078
-0.19926992 0.051842511 -0.065437078
-0.17834808 0.051842511 -0.065437078
-0.15742625 0.051842511 -0.065437078
-0.13650441 0.051842511 -0.065437078
-0.11558259 0.051842511 -0.065437078
-0.094660759 0.051842511 -0.065437078
-0.073738918 0.051842511 -0.065437078
-0.052817088 0.051842511 -0.065437078
-0.031895254 0.051842511 -0.065437078
-0.010973418 0.051842511 -0.065437078
0.0099484138 0.051842511 -0.065437078
0.030870246 0.051842511 -0.065437078
0.051792081 0.051842511 -0.065437078
0.072713912 0.051842511 -0.065437078
0.093635753 0.051842511 -0.065437078
0.11455758 0.051842511 -0.065437078
0.13547942 0.051842511 -0.065437078
0.15640125 0.051842511 -0.065437078
0.17732309 0.051842511 -0.065437078
0.19824491 0.051842511 -0.065437078
0.21916676 0.051842511 -0.065437078
0.2400886 0.051842511 -0.065437078
0.26101041 0.051842511 -0.065437078
0.28193223 0.051842511 -0.065437078
0.30285406 0.051842511 -0.065437078
0.32377589 0.051842511 -0.065437078
-0.32817936 0.032609954 -0.038007617
-0.30704638 0.032609954 -0.038007617
-0.28591338 0.032609954 -0.038007617
-0.2647804 0.032609954 -0.038007617
-0.24364741 0.032609954 -0.038007617
-0.22251441 0.032609954 -0.038007617
-0.20138143 0.032609954 -0.038007617
-0.18024844 0.032609954 -0.038007617
-0.15911546 0.032609954 -0.038007617
-0.13798247 0.032609954 -0.038007617
-0.1168495 0.032609954 -0.038007617
-0.095716506 0.032609954 -0.038007617
-0.07458353 0.032609954 -0.038007617
-0.053450543 0.032609954 -0.038007617
-0.032317556 0.032609954 -0.038007617
-0.011184571 0.032609954 -0.038007617
0.0099484138 0.032609954 -0.038007617
0.031081399 0.032609954 -0.038007617
0.052214384 0.032609954 -0.038007617
0.073347375 0.032609954 -0.038007617
0.094480351 0.032609954 -0.038007617
0.11561334 0.032609954 -0.038007617
0.13674633 0.032609954 -0.038007617
0.15787931 0.032609954 -0.038007617
0.1790123 0.032609954 -0.038007617
0.20014527 0.032609954 -0.038007617
0.22127827 0.032609954 -0.038007617
0.24241124 0.032609954 -0.038007617
0.26354423 0.032609954 -0.038007617
0.28467721 0.032609954 -0.038007617
0.30581018 0.032609954 -0.038007617
0.32694319 0.032609954 -0.038007617
0.031292543 0.012955025 -0.010579824
0.052628923 0.01292786 -0.011082768
-0.33162668 0.012985229 -0.010019064
-0.31027824 0.012985229 -0.010019064
-0.28892979 0.012985229 -0.010019064
-0.26758134 0.012985229 -0.010019064
-0.24623288 0.012985229 -0.010019064
-0.22488445 0.012985229 -0.010019064
-0.20353599 0.012985229 -0.010019064
-0.18218756 0.012985229 -0.010019064
-0.16083913 0.012985229 -0.010019064
-0.13949068 0.012985229 -0.010019064
-0.11814223 0.012985229 -0.010019064
-0.096793786 0.012985229 -0.010019064
-0.075445354 0.012985229 -0.010019064
-0.054096911 0.012985229 -0.010019064
-0.032748472 0.012985229 -0.010019064
-0.011400029 0.012985229 -0.010019064
0.0099484138 0.01298134 -0.010090947
0.073993742 0.012985229 -0.010019064
0.095342189 0.012985229 -0.010019064
0.11669062 0.012985229 -0.010019064
0.13803907 0.012985229 -0.010019064
0.15938751 0.012985229 -0.010019064
0.18073596 0.012985229 -0.010019064
0.20208439 0.012985229 -0.010019064
0.22343282 0.012985229 -0.010019064
0.24478129 0.012985229 -0.010019064
0.2661297 0.012985229 -0.010019064
0.28747815 0.012985229 -0.010019064
0.3088266 0.012985229 -0.010019064
0.33017504 0.012985229 -0.010019064
-0.335145 -0.0070438236 0.018546343
-0.31357667 -0.0070438236 0.018546343
-0.29200834 -0.0070438236 0.018546343
-0.27043998 -0.0070438236 0.018546343
-0.24887164 -0.0070438236 0.018546343
-0.22730331 -0.0070438236 0.018546343
-0.20573497 -0.0070438236 0.018546343
-0.18416664 -0.0070438236 0.018546343
-0.16259828 -0.0070438236 0.018546343
-0.14102995 -0.0070438236 0.018546343
-0.11946161 -0.0070438236 0.018546343
-0.097893283 -0.0070438236 0.018546343
-0.07632494 -0.0070438236 0.018546343
-0.0547566 -0.0070438236 0.018546343
-0.033188261 -0.0070438236 0.018546343
-0.011619924 -0.0070438236 0.018546343
0.0099484138 -0.0070438236 0.018546343
0.031516753 -0.0070438236 0.018546343
0.053085089 -0.0070438236 0.018546343
0.074653432 -0.0070438236 0.018546343
0.09622176 -0.0070438236 0.018546343
0.1177901 -0.0070438236 0.018546343
0.13935845 -0.0070438236 0.018546343
0.16092679 -0.0070438236 0.018546343
0.18249512 -0.0070438236 0.018546343
0.20406348 -0.0070438236 0.018546343
0.2256318 -0.0070438236 0.018546343
0.24720015 -0.0070438236 0.018546343
0.26876846 -0.0070438236 0.018546343
0.29033679 -0.0070438236 0.018546343
0.31190515 -0.0070438236 0.018546343
0.33347347 -0.0070438236 0.018546343
-0.31694549 -0.02748923 0.047721148
-0.29515257 -0.02748923 0.047721148
-0.27335963 -0.02748923 0.047721148
-0.25156671 -0.02748923 0.047721148
-0.22977377 -0.02748923 0.047721148
-0.20798084 -0.02748923 0.047721148
-0.18618792 -0.02748923 0.047721148
-0.16439499 -0.02748923 0.047721148
-0.14260207 -0.02748923 0.047721148
-0.12080914 -0.02748923 0.047721148
-0.099016219 -0.02748923 0.047721148
-0.077223286 -0.02748923 0.047721148
-0.055430364 -0.02748923 0.047721148
-0.033637438 -0.02748923 0.047721148
-0.011844512 -0.02748923 0.047721148
0.0099484138 -0.02748923 0.047721148
0.03174134 -0.02748923 0.047721148
0.053534266 -0.02748923 0.047721148
0.075327188 -0.02748923 0.047721148
0.097120121 -0.02748923 0.047721148
0.11891304 -0.02748923 0.047721148
0.14070597 -0.02748923 0.047721148
0.16249891 -0.02748923 0.047721148
0.18429182 -0.02748923 0.047721148
0.20608476 -0.02748923 0.047721148
0.22787768 -0.02748923 0.047721148
0.24967061 -0.02748923 0.047721148
0.27146351 -0.02748923 0.047721148
0.29325643 -0.02748923 0.047721148
0.31504938 -0.02748923 0.047721148
0.3368423 -0.02748923 0.047721148
-0.32038346 -0.048365489 0.07749486
-0.29836133 -0.048365489 0.07749486
-0.2763392 -0.048365489 0.07749486
-0.25431708 -0.048365489 0.07749486
-0.23229495 -0.048365489 0.07749486
-0.21027282 -0.048365489 0.07749486
-0.18825069 -0.048365489 0.07749486
-0.16622858 -0.048365489 0.07749486
-0.14420645 -0.048365489 0.07749486
-0.12218432 -0.048365489 0.07749486
-0.10016221 -0.048365489 0.07749486
-0.07814008 -0.048365489 0.07749486
-0.056117956 -0.048365489 0.07749486
-0.034095835 -0.048365489 0.07749486
-0.012073711 -0.048365489 0.07749486
0.0099484138 -0.048365489 0.07749486
0.031970538 -0.048365489 0.07749486
0.053992663 -0.048365489 0.07749486
0.076014787 -0.048365489 0.07749486
0.098036915 -0.048365489 0.07749486
0.12005903 -0.048365489 0.07749486
0.14208116 -0.048365489 0.07749486
0.16410328 -0.048365489 0.07749486
0.18612541 -0.048365489 0.07749486
0.20814753 -0.048365489 0.07749486
0.23016965 -0.048365489 0.07749486
0.25219178 -0.048365489 0.07749486
0.27421388 -0.048365489 0.07749486
0.29623601 -0.048365489 0.07749486
0.31825814 -0.048365489 0.07749486
-0.32299986 -0.069864191 0.10015357
-0.30080333 -0.069864191 0.10015357
-0.27860677 -0.069864191 0.10015357
-0.25641024 -0.069864191 0.10015357
-0.23421367 -0.069864191 0.10015357
-0.2120171 -0.069864191 0.10015357
-0.18982054 -0.069864191 0.10015357
-0.167624 -0.069864191 0.10015357
-0.14542745 -0.069864191 0.10015357
-0.1232309 -0.069864191 0.10015357
-0.10103434 -0.069864191 0.10015357
-0.078837797 -0.069864191 0.10015357
-0.056641247 -0.069864191 0.10015357
-0.03444469 -0.069864191 0.10015357
-0.012248138 -0.069864191 0.10015357
0.0099484138 -0.069864191 0.10015357
0.032144964 -0.069864191 0.10015357
0.054341517 -0.069864191 0.10015357
0.076538071 -0.069864191 0.10015357
0.098734617 -0.069864191 0.10015357
0.12093118 -0.069864191 0.10015357
0.14312774 -0.069864191 0.10015357
0.16532429 -0.069864191 0.10015357
0.18752083 -0.069864191 0.10015357
0.20971738 -0.069864191 0.10015357
0.23191394 -0.069864191 0.10015357
0.25411049 -0.069864191 0.10015357
0.27630705 -0.069864191 0.10015357
0.29850358 -0.069864191 0.10015357
0.32070014 -0.069864191 0.10015357
-0.36929876 -0.11414516 0.11471665
-0.34661525 -0.11416867 0.111673
0.34465626 -0.11414003 0.11539197
0.36642331 -0.11417423 0.1109525
-0.32432461 -0.091884181 0.11162603
-0.30192325 -0.091900751 0.11054516
-0.27964672 -0.091900751 0.11054516
-0.25737014 -0.091900751 0.11054516
-0.23509359 -0.091900751 0.11054516
-0.21281704 -0.091900751 0.11054516
-0.19054051 -0.091900751 0.11054516
-0.16826396 -0.091900751 0.11054516
-0.14598741 -0.091900751 0.11054516
-0.12371086 -0.091900751 0.11054516
-0.10143432 -0.091900751 0.11054516
-0.07915777 -0.091900751 0.11054516
-0.056881223 -0.091900751 0.11054516
-0.03460468 -0.091900751 0.11054516
-0.012328133 -0.091900751 0.11054516
0.0099484138 -0.091900751 0.11054516
0.032224961 -0.091900751 0.11054516
0.054501507 -0.091900751 0.11054516
0.076778054 -0.091900751 0.11054516
0.099054605 -0.091900751 0.11054516
0.12133114 -0.091900751 0.11054516
0.14360769 -0.091900751 0.11054516
0.16588424 -0.091900751 0.11054516
0.18816079 -0.091900751 0.11054516
0.21043734 -0.091900751 0.11054516
0.23271388 -0.091900751 0.11054516
0.25499043 -0.091900751 0.11054516
0.27726695 -0.091900751 0.11054516
0.29954353 -0.091900751 0.11054516
0.32182005 -0.091900751 0.11054516
-0.30418921 -0.13645388 0.13157058
-0.2817508 -0.13645388 0.13157058
-0.25931239 -0.13645388 0.13157058
-0.23687397 -0.13645388 0.13157058
-0.21443558 -0.13645388 0.13157058
-0.19199717 -0.13645388 0.13157058
-0.16955878 -0.13645388 0.13157058
-0.14712039 -0.13645388 0.13157058
-0.12468198 -0.13645388 0.13157058
-0.10224359 -0.13645388 0.13157058
-0.07980518 -0.13645388 0.13157058
-0.057366785 -0.13645388 0.13157058
-0.034928385 -0.13645388 0.13157058
-0.012489986 -0.13645388 0.13157058
0.0099484138 -0.13645388 0.13157058
0.032386813 -0.13645388 0.13157058
0.054825213 -0.13645388 0.13157058
0.077263609 -0.13645388 0.13157058
0.099702016 -0.13645388 0.13157058
0.12214041 -0.13645388 0.13157058
0.14457881 -0.13645388 0.13157058
0.16701722 -0.13645388 0.13157058
0.18945561 -0.13645388 0.13157058
0.21189401 -0.13645388 0.13157058
0.23433241 -0.13645388 0.13157058
0.25677079 -0.13645388 0.13157058
0.2792092 -0.13645388 0.13157058
0.3016476 -0.13645388 0.13157058
-0.30305296 -0.11409662 0.12102759
-0.28069574 -0.11409662 0.12102759
-0.25833848 -0.11409662 0.12102759
-0.23598124 -0.11409662 0.12102759
-0.213624 -0.11409662 0.12102759
-0.19126673 -0.11409662 0.12102759
-0.16890951 -0.11409662 0.12102759
-0.14655226 -0.11409662 0.12102759
-0.12419502 -0.11409662 0.12102759
-0.1018378 -0.11409662 0.12102759
-0.079480544 -0.11409662 0.12102759
-0.057123307 -0.11409662 0.12102759
-0.034766067 -0.11409662 0.12102759
-0.012408827 -0.11409662 0.12102759
0.0099484138 -0.11409662 0.12102759
0.032305654 -0.11409662 0.12102759
0.054662894 -0.11409662 0.12102759
0.077020139 -0.11409662 0.12102759
0.099377379 -0.11409662 0.12102759
0.12173462 -0.11409662 0.12102759
0.14409186 -0.11409662 0.12102759
0.1664491 -0.11409662 0.12102759
0.18880634 -0.11409662 0.12102759
0.21116357 -0.11409662 0.12102759
0.23352084 -0.11409662 0.12102759
0.25587806 -0.11409662 0.12102759
0.27823529 -0.11409662 0.12102759
0.30059254 -0.11409662 0.12102759
0.39020529 -0.11408588 0.12243223
-0.28281516 -0.15897416 0.14220607
-0.26029488 -0.15897416 0.14220607
-0.23777458 -0.15897416 0.14220607
-0.21525431 -0.15897416 0.14220607
-0.19273405 -0.15897416 0.14220607
-0.17021377 -0.15897416 0.14220607
-0.1476935 -0.15897416 0.14220607
-0.12517323 -0.15897416 0.14220607
-0.10265295 -0.15897416 0.14220607
-0.080132678 -0.15897416 0.14220607
-0.057612408 -0.15897416 0.14220607
-0.035092134 -0.15897416 0.14220607
-0.01257186 -0.15897416 0.14220607
0.0099484138 -0.15897416 0.14220607
0.032468688 -0.15897416 0.14220607
0.054988962 -0.15897416 0.14220607
0.077509239 -0.15897416 0.14220607
0.10002951 -0.15897416 0.14220607
0.12254977 -0.15897416 0.14220607
0.14507006 -0.15897416 0.14220607
0.16759034 -0.15897416 0.14220607
0.19011061 -0.15897416 0.14220607
0.21263088 -0.15897416 0.14220607
0.23515114 -0.15897416 0.14220607
0.25767142 -0.15897416 0.14220607
0.28019169 -0.15897416 0.14220607
-0.26227999 -0.204511 0.16369581
-0.23959427 -0.204511 0.16369581
-0.21690859 -0.204511 0.16369581
-0.19422288 -0.204511 0.16369581
-0.17153718 -0.204511 0.16369581
-0.14885148 -0.204511 0.16369581
-0.12616578 -0.204511 0.16369581
-0.10348009 -0.204511 0.16369581
-0.080794379 -0.204511 0.16369581
-0.058108684 -0.204511 0.16369581
-0.035422985 -0.204511 0.16369581
-0.012737285 -0.204511 0.16369581
0.0099484138 -0.204511 0.16369581
0.032634113 -0.204511 0.16369581
0.055319812 -0.204511 0.16369581
0.078005508 -0.204511 0.16369581
0.10069121 -0.204511 0.16369581
0.12337692 -0.204511 0.16369581
0.14606261 -0.204511 0.16369581
0.16874832 -0.204511 0.16369581
0.19143401 -0.204511 0.16369581
0.21411972 -0.204511 0.16369581
0.23680542 -0.204511 0.16369581
0.25949109 -0.204511 0.16369581
-0.28388569 -0.18165915 0.15290356
-0.26128304 -0.18165915 0.15290356
-0.23868042 -0.18165915 0.15290356
-0.21607779 -0.18165915 0.15290356
-0.19347519 -0.18165915 0.15290356
-0.17087255 -0.18165915 0.15290356
-0.14826994 -0.18165915 0.15290356
-0.1256673 -0.18165915 0.15290356
-0.10306469 -0.18165915 0.15290356
-0.080462068 -0.18165915 0.15290356
-0.057859447 -0.18165915 0.15290356
-0.035256829 -0.18165915 0.15290356
-0.012654208 -0.18165915 0.15290356
0.0099484138 -0.18165915 0.15290356
0.032551035 -0.18165915 0.15290356
0.055153657 -0.18165915 0.15290356
0.077756271 -0.18165915 0.15290356
0.1003589 -0.18165915 0.15290356
0.12296152 -0.18165915 0.15290356
0.14556414 -0.18165915 0.15290356
0.16816677 -0.18165915 0.15290356
0.19076939 -0.18165915 0.15290356
0.21337202 -0.18165915 0.15290356
0.23597462 -0.18165915 0.15290356
0.25857726 -0.18165915 0.15290356
0.28117985 -0.18165915 0.15290356
-0.32994938 -0.11379397 0.16033792
0.32648242 -0.11384432 0.15380669
-0.26328278 -0.22753099 0.17455113
-0.24051352 -0.22753099 0.17455113
-0.21774423 -0.22753099 0.17455113
-0.19497497 -0.22753099 0.17455113
-0.17220569 -0.22753099 0.17455113
-0.14943643 -0.22753099 0.17455113
-0.12666717 -0.22753099 0.17455113
-0.10389791 -0.22753099 0.17455113
-0.081128642 -0.22753099 0.17455113
-0.058359381 -0.22753099 0.17455113
-0.035590116 -0.22753099 0.17455113
-0.012820851 -0.22753099 0.17455113
0.0099484138 -0.22753099 0.17455113
0.032717679 -0.22753099 0.17455113
0.055486944 -0.22753099 0.17455113
0.078256205 -0.22753099 0.17455113
0.10102548 -0.22753099 0.17455113
0.12379473 -0.22753099 0.17455113
0.14656401 -0.22753099 0.17455113
0.16933326 -0.22753099 0.17455113
0.19210252 -0.22753099 0.17455113
0.21487181 -0.22753099 0.17455113
0.23764107 -0.22753099 0.17455113
0.26041034 -0.22753099 0.17455113
-0.30900124 -0.15923601 0.17622089
0.3054634 -0.1591858 0.16970038
-0.24237521 -0.27408493 0.19653702
-0.21943669 -0.27408493 0.19653702
-0.19649819 -0.27408493 0.19653702
-0.17355967 -0.27408493 0.19653702
-0.15062116 -0.27408493 0.19653702
-0.12768266 -0.27408493 0.19653702
-0.10474414 -0.27408493 0.19653702
-0.081805632 -0.27408493 0.19653702
-0.058867123 -0.27408493 0.19653702
-0.035928611 -0.27408493 0.19653702
-0.012990098 -0.27408493 0.19653702
0.0099484138 -0.27408493 0.19653702
0.032886926 -0.27408493 0.19653702
0.055825438 -0.27408493 0.19653702
0.078763947 -0.27408493 0.19653702
0.10170247 -0.27408493 0.19653702
0.12464097 -0.27408493 0.19653702
0.14757949 -0.27408493 0.19653702
0.170518 -0.27408493 0.19653702
0.1934565 -0.27408493 0.19653702
0.21639502 -0.27408493 0.19653702
0.23933353 -0.27408493 0.19653702
-0.24144091 -0.25072181 0.18550348
-0.21858732 -0.25072181 0.18550348
-0.19573377 -0.25072181 0.18550348
-0.17288019 -0.25072181 0.18550348
-0.1500266 -0.25072181 0.18550348
-0.12717304 -0.25072181 0.18550348
-0.10431945 -0.25072181 0.18550348
-0.081465885 -0.25072181 0.18550348
-0.058612313 -0.25072181 0.18550348
-0.035758737 -0.25072181 0.18550348
-0.012905162 -0.25072181 0.18550348
0.0099484138 -0.25072181 0.18550348
0.032801989 -0.25072181 0.18550348
0.055655565 -0.25072181 0.18550348
0.078509137 -0.25072181 0.18550348
0.10136272 -0.25072181 0.18550348
0.12421629 -0.25072181 0.18550348
0.14706987 -0.25072181 0.18550348
0.16992344 -0.25072181 0.18550348
0.19277702 -0.25072181 0.18550348
0.21563061 -0.25072181 0.18550348
0.23848416 -0.25072181 0.18550348
-0.28782582 -0.20517102 0.192276
0.28421566 -0.2050207 0.18576705
-0.26642096 -0.25160775 0.20852304
0.26273546 -0.25135711 0.20200968
0.33222428 -0.13645384 0.2070843
-0.22121422 -0.29826778 0.21962762
-0.19809796 -0.29826778 0.21962762
-0.1749817 -0.29826778 0.21962762
-0.15186541 -0.29826778 0.21962762
-0.12874916 -0.29826778 0.21962762
-0.1056329 -0.29826778 0.21962762
-0.08251664 -0.29826778 0.21962762
-0.059400376 -0.29826778 0.21962762
-0.036284115 -0.29826778 0.21962762
-0.013167851 -0.29826778 0.21962762
0.0099484138 -0.29826778 0.21962762
0.033064678 -0.29826778 0.21962762
0.056180943 -0.29826778 0.21962762
0.0792972 -0.29826778 0.21962762
0.10241348 -0.29826778 0.21962762
0.12552974 -0.29826778 0.21962762
0.148646 -0.29826778 0.21962762
0.17176224 -0.29826778 0.21962762
0.19487853 -0.29826778 0.21962762
0.21799479 -0.29826778 0.21962762
0.31084505 -0.1827457 0.22347701
-0.33611155 -0.13645393 0.21370399
-0.2456841 -0.29912913 0.23561311
0.24206905 -0.29893836 0.23207247
0.28923488 -0.22954944 0.24010181
-0.31481725 -0.182849 0.23018646
-0.22354142 -0.32324576 0.24985886
-0.20019244 -0.32324576 0.24985886
-0.17684346 -0.32324576 0.24985886
-0.15349446 -0.32324576 0.24985886
-0.13014549 -0.32324576 0.24985886
-0.1067965 -0.32324576 0.24985886
-0.083447516 -0.32324576 0.24985886
-0.06009854 -0.32324576 0.24985886
-0.036749553 -0.32324576 0.24985886
-0.01340057 -0.32324576 0.24985886
0.0099484138 -0.32324576 0.24985886
0.033297397 -0.32324576 0.24985886
0.056646381 -0.32324576 0.24985886
0.079995364 -0.32324576 0.24985886
0.10334435 -0.32324576 0.24985886
0.12669334 -0.32324576 0.24985886
0.15004233 -0.32324576 0.24985886
0.1733913 -0.32324576 0.24985886
0.1967403 -0.32324576 0.24985886
0.22008927 -0.32324576 0.24985886
0.26738733 -0.27687514 0.25694585
-0.2932857 -0.22975674 0.24683416
-0.2715165 -0.27718639 0.26368427
-0.2265012 -0.34925863 0.28830767
-0.20232831 -0.34873068 0.28068757
-0.17874199 -0.34873068 0.28068757
-0.1551557 -0.34873068 0.28068757
-0.1315694 -0.34873068 0.28068757
-0.1079831 -0.34873068 0.28068757
-0.084396794 -0.34873068 0.28068757
-0.060810495 -0.34873068 0.28068757
-0.037224192 -0.34873068 0.28068757
-0.013637889 -0.34873068 0.28068757
0.0099484138 -0.34873068 0.28068757
0.033534717 -0.34873068 0.28068757
0.05712102 -0.34873068 0.28068757
0.080707327 -0.34873068 0.28068757
0.10429363 -0.34873068 0.28068757
0.12787993 -0.34873068 0.28068757
0.15146624 -0.34873068 0.28068757
0.17505254 -0.34873068 0.28068757
0.19863883 -0.34873068 0.28068757
0.22242236 -0.34892786 0.28353393
-0.24979557 -0.32535869 0.28416729
0.24581686 -0.3251487 0.28075778
-0.32084927 -0.20733917 0.28615677
0.31643337 -0.20718125 0.27931881
-0.29894951 -0.25526083 0.30343032
0.29444614 -0.25499463 0.29651535
-0.20479393 -0.37505656 0.31627572
-0.18093365 -0.37505656 0.31627572
-0.15707339 -0.37505656 0.31627572
-0.13321315 -0.37505656 0.31627572
-0.10935289 -0.37505656 0.31627572
-0.085492626 -0.37505656 0.31627572
-0.061632369 -0.37505656 0.31627572
-0.037772104 -0.37505656 0.31627572
-0.013911845 -0.37505656 0.31627572
0.0099484138 -0.37505656 0.31627572
0.033808671 -0.37505656 0.31627572
0.057668932 -0.37505656 0.31627572
0.0815292 -0.37505656 0.31627572
0.10538945 -0.37505656 0.31627572
0.12924972 -0.37505656 0.31627572
0.15310998 -0.37505656 0.31627572
0.17697023 -0.37505656 0.31627572
0.20083049 -0.37505656 0.31627572
-0.27680352 -0.3037259 0.32091761
0.27221519 -0.30335093 0.31396008
-0.23037302 -0.37677526 0.33860385
0.22591244 -0.37641394 0.33390915
-0.25440979 -0.35274702 0.33865881
0.24973373 -0.35226074 0.33163953
0.3222332 -0.23254156 0.33727407
0.29986072 -0.28140998 0.35512948
-0.32710764 -0.23275563 0.34422719
-0.2079154 -0.40273193 0.36133027
-0.18370831 -0.40273193 0.36133027
-0.15950121 -0.40273193 0.36133027
-0.13529412 -0.40273193 0.36133027
-0.11108704 -0.40273193 0.36133027
-0.086879954 -0.40273193 0.36133027
-0.062672853 -0.40273193 0.36133027
-0.038465768 -0.40273193 0.36133027
-0.014258677 -0.40273193 0.36133027
0.0099484138 -0.40273193 0.36133027
0.034155503 -0.40273193 0.36133027
0.058362596 -0.40273193 0.36133027
0.082569689 -0.40273193 0.36133027
0.10677677 -0.40273193 0.36133027
0.13098386 -0.40273193 0.36133027
0.15519096 -0.40273193 0.36133027
0.17939804 -0.40273193 0.36133027
0.20360515 -0.40273193 0.36133027
-0.30482891 -0.28173578 0.36218107
-0.20950001 -0.47781813 0.38420224
-0.18511684 -0.47781813 0.38420224
-0.16073368 -0.47781813 0.38420224
-0.13635053 -0.47781813 0.38420224
-0.11196738 -0.47781813 0.38420224
-0.087584212 -0.47781813 0.38420224
-0.063201055 -0.47781813 0.38420224
-0.038817901 -0.47781813 0.38420224
-0.014434744 -0.47781813 0.38420224
0.0099484138 -0.47781813 0.38420224
0.034331571 -0.47781813 0.38420224
0.058714729 -0.47781813 0.38420224
0.08309789 -0.47781813 0.38420224
0.10748105 -0.47781813 0.38420224
0.13186421 -0.47781813 0.38420224
0.15624736 -0.47781813 0.38420224
0.18063052 -0.47781813 0.38420224
0.20501368 -0.47781813 0.38420224
0.2295178 -0.40481648 0.38594794
-0.28229639 -0.33128381 0.38037968
0.27723229 -0.33084217 0.37320924
-0.21048182 -0.45485324 0.3983736
-0.18598959 -0.45485324 0.3983736
-0.16149731 -0.45485324 0.3983736
-0.13700508 -0.45485324 0.3983736
-0.11251284 -0.45485324 0.3983736
-0.088020593 -0.45485324 0.3983736
-0.063528329 -0.45485324 0.3983736
-0.039036088 -0.45485324 0.3983736
-0.014543837 -0.45485324 0.3983736
0.0099484138 -0.45485324 0.3983736
0.034440666 -0.45485324 0.3983736
0.058932915 -0.45485324 0.3983736
0.083425164 -0.45485324 0.3983736
0.10791741 -0.45485324 0.3983736
0.13240966 -0.45485324 0.3983736
0.15690191 -0.45485324 0.3983736
0.18139414 -0.45485324 0.3983736
0.20588642 -0.45485324 0.3983736
-0.23437375 -0.40520826 0.39057493
-0.25950322 -0.38140988 0.39880896
0.25434166 -0.38084722 0.39149821
0.32825676 -0.25888017 0.39746511
-0.21112895 -0.43122381 0.40771401
-0.1865648 -0.43122381 0.40771401
-0.16200066 -0.43122381 0.40771401
-0.13743649 -0.43122381 0.40771401
-0.11287235 -0.43122381 0.40771401
-0.0883082 -0.43122381 0.40771401
-0.063744038 -0.43122381 0.40771401
-0.039179891 -0.43122381 0.40771401
-0.014615739 -0.43122381 0.40771401
0.0099484138 -0.43122381 0.40771401
0.034512565 -0.43122381 0.40771401
0.059076719 -0.43122381 0.40771401
0.083640873 -0.43122381 0.40771401
0.10820502 -0.43122381 0.40771401
0.13276917 -0.43122381 0.40771401
0.15733333 -0.43122381 0.40771401
0.18189749 -0.43122381 0.40771401
0.20646164 -0.43122381 0.40771401
0.30548713 -0.30885148 0.4160372
-0.33360943 -0.25915307 0.40455627
-0.21278359 -0.50767398 0.43159676
-0.18803559 -0.50767398 0.43159676
-0.16328759 -0.50767398 0.43159676
-0.1385396 -0.50767398 0.43159676
-0.11379158 -0.50767398 0.43159676
-0.089043587 -0.50767398 0.43159676
-0.06429559 -0.50767398 0.43159676
-0.039547589 -0.50767398 0.43159676
-0.014799587 -0.50767398 0.43159676
0.0099484138 -0.50767398 0.43159676
0.034696415 -0.50767398 0.43159676
0.059444416 -0.50767398 0.43159676
0.084192425 -0.50767398 0.43159676
0.10894042 -0.50767398 0.43159676
0.13368842 -0.50767398 0.43159676
0.15843643 -0.50767398 0.43159676
0.18318443 -0.50767398 0.43159676
0.20793243 -0.50767398 0.43159676
0.28244835 -0.35940844 0.43480814
-0.31093842 -0.30923921 0.42323077
-0.23850845 -0.43460223 0.44428599
0.2332496 -0.43418887 0.43981194
-0.28800201 -0.35991675 0.44214487
-0.26477343 -0.41117582 0.46104705
0.25914222 -0.41056708 0.45385921
0.33451921 -0.2862559 0.46004343
0.31132701 -0.33737287 0.47925627
-0.24278392 -0.46500596 0.49982607
0.23711465 -0.46458298 0.49559903
0.28787208 -0.38911173 0.49885905
-0.31727576 -0.33782262 0.48655736
-0.29392177 -0.38967913 0.50622809
-0.27027816 -0.4421556 0.52605498
0.26413199 -0.44147435 0.51867867
0.31741387 -0.36705309 0.54514837
-0.24720751 -0.49647215 0.55729055
0.24111728 -0.49604994 0.55337226
-0.32388929 -0.36757243 0.55264366
-0.3000932 -0.42065871 0.57303572
0.29351786 -0.42002347 0.56553268
-0.2760044 -0.47439805 0.59367871
0.26932731 -0.47364655 0.58616781
-0.19888896 -0.55412871 0.60783339
-0.17278428 -0.55412871 0.60783339
-0.14667961 -0.55412871 0.60783339
-0.12057495 -0.55412871 0.60783339
-0.094470277 -0.55412871 0.60783339
-0.068365604 -0.55412871 0.60783339
-0.04226093 -0.55412871 0.60783339
-0.016156258 -0.55412871 0.60783339
0.0099484138 -0.55412871 0.60783339
0.036053084 -0.55412871 0.60783339
0.062157758 -0.55412871 0.60783339
0.088262424 -0.55412871 0.60783339
0.1143671 -0.55412871 0.60783339
0.14047179 -0.55412871 0.60783339
0.16657645 -0.55412871 0.60783339
0.19268112 -0.55412871 0.60783339
-0.22597802 -0.55587876 0.62204182
0.21933015 -0.5552175 0.61667252
-0.25179374 -0.52906728 0.61686707
0.24526051 -0.52864075 0.61317456
-0.33076698 -0.39854273 0.6213696
0.3237437 -0.39795005 0.61367071
-0.30652049 -0.45292291 0.64261341
0.29939407 -0.45221278 0.63492727
0.27473608 -0.50715661 0.65642953
-0.28196955 -0.50798583 0.66412389
-0.25711009 -0.56374753 0.6859287
0.24976589 -0.56279612 0.67820394
0.3303417 -0.43014786 0.68509614
-0.33793628 -0.43081793 0.69300973
-0.31322205 -0.48655528 0.71515965
0.30551705 -0.48576224 0.70723629
-0.28818694 -0.54300213 0.7375474
0.28037339 -0.54209149 0.72966075
0.31190869 -0.52076703 0.78271818
