ply
format ascii 1.0
comment PCL generated
element vertex 1122
property float x
property float y
property float z
element camera 1
property float view_px
property float view_py
property float view_pz
property float x_axisx
property float x_axisy
property float x_axisz
property float y_axisx
property float y_axisy
property float y_axisz
property float z_axisx
property float z_axisy
property float z_axisz
property float focal
property float scalex
property float scaley
property float centerx
property float centery
property int viewportx
property int viewporty
property float k1
property float k2
end_header
0.42888445 -0.0926091 -0.30111802
0.43141437 -0.15432401 -0.28682911
0.41057742 -0.13377711 -0.28904533
0.42980108 -0.13351172 -0.29594088
0.45096755 -0.13367313 -0.29174626
0.40981987 -0.11319479 -0.29351807
0.47249657 -0.11342621 -0.28600335
0.42914209 -0.1130055 -0.29966295
0.45036772 -0.11314938 -0.2949928
0.39053074 -0.092944801 -0.28658402
0.40915373 -0.092693768 -0.2974515
0.45056435 -0.092775077 -0.29392862
0.39024937 -0.072454348 -0.28832424
0.39071217 -0.052026317 -0.28546131
0.39051193 -0.031554207 -0.28670001
0.39066839 -0.011084091 -0.28573251
0.390827 0.0094011575 -0.28475106
0.39321002 -0.15510082 -0.27000999
0.4119333 -0.1545915 -0.281039
0.45258707 -0.1545018 -0.28298044
0.47469383 -0.15488946 -0.27458608
0.39190501 -0.13419908 -0.27808273
0.47307837 -0.13401058 -0.28298044
0.3723717 -0.1138692 -0.27161527
0.3911739 -0.11353082 -0.28260529
0.37175614 -0.093198076 -0.27561378
0.35239294 -0.072774768 -0.26751328
0.37130409 -0.072604895 -0.27854991
0.41217694 -0.072588697 -0.27960062
0.43449631 -0.072745427 -0.26942217
0.35209656 -0.052148893 -0.26953971
0.37099665 -0.052064128 -0.28054678
0.41211104 -0.05206836 -0.27998948
0.43446624 -0.052148502 -0.26959205
0.37077138 -0.031554159 -0.28201008
0.41192892 -0.031554159 -0.28106487
0.43431365 -0.031554159 -0.27045393
0.3518922 -0.03155411 -0.27093685
0.35203734 -0.010962542 -0.26994455
0.37092683 -0.011047693 -0.28100014
0.4120979 -0.011040444 -0.28006721
0.43448707 -0.01095894 -0.26947439
0.35218447 0.0096445009 -0.26893854
0.37108046 0.009474244 -0.28000236
0.41226038 0.0094879642 -0.27910769
0.43466064 0.0096513629 -0.26849413
0.37148798 0.030049607 -0.27735555
0.39133704 0.029951658 -0.28159595
0.41280141 0.030082941 -0.27591312
0.37195042 0.050676651 -0.27435184
0.39192393 0.050565317 -0.27796566
0.41344973 0.050746381 -0.27208483
0.3726531 0.07141006 -0.26978791
0.39286408 0.071319066 -0.27215016
0.41694808 -0.17669329 -0.25142825
0.4369846 -0.17648095 -0.25536859
0.45700634 -0.17628202 -0.2590605
0.4785803 -0.17653361 -0.25439119
0.37432903 -0.15561388 -0.25890243
0.35409203 -0.13505307 -0.25589657
0.37307581 -0.13462402 -0.26704216
0.49826759 -0.13491398 -0.25950801
0.3534137 -0.11421044 -0.26053429
0.49783063 -0.11417482 -0.26169121
0.33373457 -0.093710542 -0.25342631
0.35282403 -0.093453243 -0.26456606
0.33332461 -0.072946146 -0.25638485
0.33304146 -0.052234385 -0.25842834
0.33284992 -0.03155411 -0.25981069
0.3329922 -0.010876561 -0.25878394
0.33313093 0.0098163635 -0.25778258
0.33351851 0.030566175 -0.25498581
0.35258251 0.03030682 -0.26621723
0.43527025 0.030333824 -0.26505125
0.33393988 0.051366635 -0.25194466
0.35302359 0.051019989 -0.26320159
0.43596053 0.051083095 -0.26115227
0.35371405 0.071845219 -0.25848091
0.41449001 0.071558028 -0.26594222
0.43711787 0.071993969 -0.25461578
0.35463521 0.092815988 -0.25218284
0.37361455 0.092291296 -0.26354277
0.39422366 0.092282198 -0.26373971
0.41603714 0.092602424 -0.25680697
0.37467396 0.11330298 -0.25666189
0.39625031 0.11359709 -0.25120318
0.3774215 -0.17737287 -0.23881626
0.39723092 -0.17703235 -0.24513698
0.33609638 -0.15665409 -0.23638141
0.3552925 -0.1561318 -0.24768889
0.50015783 -0.1560221 -0.25006378
0.33494952 -0.13548547 -0.24465787
0.31502223 -0.1149014 -0.23809421
0.33429787 -0.11455451 -0.24936104
0.31448576 -0.093969949 -0.24219358
0.48057902 -0.093928009 -0.24400568
0.31409535 -0.073118687 -0.24517691
0.45993784 -0.073149249 -0.24319327
0.29445246 -0.05240766 -0.23592603
0.31382743 -0.052320704 -0.24722397
0.46019149 -0.052362263 -0.24182034
0.29428756 -0.031554159 -0.23726475
0.31365022 -0.031554207 -0.24857819
0.45971146 -0.03155411 -0.24441838
0.29441619 -0.010702897 -0.2362206
0.31378573 -0.010789996 -0.24754286
0.46023583 -0.01074416 -0.24158013
0.29454488 0.010164421 -0.23517573
0.31391788 0.009989541 -0.24653316
0.46041581 0.010080777 -0.24060607
0.31429392 0.030827716 -0.2436595
0.46122354 0.030999191 -0.23623407
0.31469527 0.051716149 -0.24059272
0.31535155 0.072726771 -0.2355777
0.33461604 0.072284609 -0.24706471
0.33549434 0.093345106 -0.24072623
0.43924174 0.093257666 -0.24262023
0.35555682 0.11388388 -0.2458818
0.41847813 0.11407194 -0.24239361
0.35677019 0.13517162 -0.2375859
0.37699801 0.13492647 -0.2415669
0.39867881 0.13525823 -0.23618054
0.33753422 -0.17806324 -0.2260046
0.35752496 -0.1777173 -0.23242557
0.50556529 -0.17822266 -0.22304642
0.31673861 -0.15718082 -0.22497869
0.52741599 -0.1574696 -0.21872592
0.29617548 -0.13636017 -0.22193694
0.31564635 -0.13592173 -0.233325
0.5254072 -0.13611168 -0.22839069
0.27560857 -0.115504 -0.21852243
0.29558474 -0.11525121 -0.22673297
0.52494842 -0.11513219 -0.23059785
0.27516586 -0.09442807 -0.22235644
0.29507726 -0.094231784 -0.23085344
0.27484903 -0.073427871 -0.22510016
0.29470673 -0.073292986 -0.23386168
0.25455824 -0.052537091 -0.2191056
0.27463248 -0.052476607 -0.22697568
0.27449709 -0.031554159 -0.2281481
0.25443554 -0.03155411 -0.22024441
0.25454655 -0.010571955 -0.21921408
0.2746169 -0.010632731 -0.22711062
0.27473682 0.010304559 -0.22607207
0.27535498 0.031357609 -0.22071862
0.2949068 0.031091541 -0.23223746
0.29528773 0.052068636 -0.22914469
0.46211582 0.05199901 -0.23140442
0.29592395 0.073173173 -0.22397912
0.46361256 0.07319925 -0.2233032
0.31619164 0.093879484 -0.22915816
0.31702688 0.11512897 -0.22277582
0.33637303 0.11450341 -0.23438489
0.44315073 0.1152494 -0.22054243
0.33755293 0.13589317 -0.22586954
0.42133373 0.13591397 -0.22553217
0.35814071 0.15666151 -0.22821569
0.37961432 0.15691388 -0.22457349
0.29810342 -0.17912591 -0.20628405
0.3178376 -0.17857108 -0.21658075
0.27703279 -0.15804863 -0.2061882
0.29713669 -0.15768176 -0.21413302
0.25596219 -0.1369704 -0.20607877
0.27612799 -0.13666463 -0.21402431
0.25547308 -0.11574753 -0.21061671
0.25505894 -0.0946104 -0.21445966
0.50788373 -0.094679594 -0.2114625
0.25476009 -0.073548928 -0.21723282
0.48676324 -0.073631503 -0.21187162
0.23436604 -0.052598014 -0.21120334
0.48701519 -0.052602831 -0.21056223
0.21405135 -0.031554159 -0.20331037
0.48666358 -0.031554207 -0.21238971
0.23425688 -0.03155411 -0.21229422
0.21414898 -0.010441404 -0.20225358
0.23436059 -0.010510646 -0.21125805
0.48707563 -0.010502955 -0.21024835
0.23446436 0.010548584 -0.21022105
0.25465912 0.010426208 -0.21816957
0.48727012 0.010563768 -0.20923781
0.25563788 0.03162621 -0.20908773
0.48814696 0.03172791 -0.20468152
0.25597546 0.052782707 -0.20595551
0.27571514 0.05242414 -0.21759951
0.27633244 0.073624529 -0.21225321
0.27708179 0.094959997 -0.20576382
0.29671976 0.094417058 -0.21751797
0.46588832 0.094718896 -0.21098518
0.29751599 0.1157606 -0.21105337
0.29861677 0.13735601 -0.20211613
0.3181704 0.13662183 -0.21403766
0.31941634 0.15830341 -0.20451701
0.33886448 0.15747991 -0.2164042
0.40183192 0.15746108 -0.216676
0.34018335 0.17921633 -0.20688641
0.36073273 0.17893863 -0.21049404
0.38262203 0.1793586 -0.20503771
0.21542625 -0.22252649 -0.18842673
0.21458222 -0.20074463 -0.19756365
0.21457584 -0.17959213 -0.19763243
0.23622413 -0.17986134 -0.19263649
0.27794439 -0.17955643 -0.19829357
0.5331865 -0.17995155 -0.19096243
0.2145835 -0.15844765 -0.19754982
0.23563732 -0.15840375 -0.19850004
0.21457969 -0.13729715 -0.19759119
0.23588832 -0.13735865 -0.19599223
0.55375421 -0.13743947 -0.19389415
0.21456312 -0.11614308 -0.19777024
0.5534507 -0.11621909 -0.19530237
0.21524702 -0.095166862 -0.1903671
0.19387171 -0.010365495 -0.19238758
0.19398886 0.010844577 -0.19100404
0.21424796 0.010687895 -0.20118213
0.21564294 0.032157563 -0.18608117
0.23572828 0.031891696 -0.19759119
0.23606648 0.053144291 -0.19421172
0.48909026 0.052972823 -0.19977987
0.2366329 0.074536793 -0.18855166
0.2565684 0.074078716 -0.20045364
0.49074459 0.07443548 -0.19118404
0.25727385 0.09550751 -0.19390786
0.25798267 0.11703897 -0.18733084
0.27783471 0.11639697 -0.19924343
0.4701432 0.11700531 -0.18795526
0.27889165 0.13809666 -0.19009006
0.44781998 0.13784537 -0.19417036
0.29980311 0.15913707 -0.19248426
0.4261497 0.15881765 -0.19709516
0.32067642 0.18013999 -0.19488847
0.40544111 0.18018135 -0.19434988
0.34258938 0.2017636 -0.18952203
0.36435825 0.20208681 -0.18570602
0.1741872 -0.24494496 -0.17284799
0.19524869 -0.24469253 -0.17612612
0.17440119 -0.22379839 -0.17006826
0.19447516 -0.22274587 -0.18526113
0.19470018 -0.20166597 -0.1826036
0.23786937 -0.20206055 -0.1761961
0.19541585 -0.18085742 -0.1741519
0.19562964 -0.15964487 -0.1716274
0.55623883 -0.15914899 -0.18236685
0.19562964 -0.13829651 -0.17162728
0.19484061 -0.11666115 -0.18094528
0.2372853 -0.11662763 -0.18203247
0.19448458 -0.095287345 -0.18514991
0.53661931 -0.095534436 -0.17444623
0.17419907 -0.074234724 -0.17269373
0.19487722 -0.074114293 -0.18051302
0.51512158 -0.074194491 -0.17530048
0.51568538 -0.052896053 -0.17248333
0.51556748 -0.031554159 -0.17307258
0.15295896 -0.010202682 -0.1712482
0.17344801 -0.010289004 -0.18245053
0.51577526 -0.010208813 -0.17203438
0.1735789 0.01100238 -0.18075013
0.51598316 0.011152491 -0.17099547
0.19533165 0.032409959 -0.17514634
0.19573073 0.053876467 -0.17043352
0.21598475 0.053508654 -0.18238068
0.21652375 0.074999005 -0.17654598
0.21713902 0.09661708 -0.16988552
0.23729365 0.096059941 -0.1819489
0.49319041 0.096220367 -0.17847502
0.23795761 0.11768649 -0.17531455
0.25899428 0.13884464 -0.17794418
0.28001362 0.15997618 -0.18037367
0.28114355 0.18201053 -0.17058814
0.30099776 0.18107176 -0.18278468
0.32242444 0.20244047 -0.18153083
0.38690743 0.20280692 -0.17720318
0.15373552 -0.24593088 -0.16003978
0.15406364 -0.20334715 -0.15530372
0.1752484 -0.20311576 -0.15906262
0.15417096 -0.1819565 -0.15375459
0.17456469 -0.18119192 -0.16794431
0.15406264 -0.16039824 -0.1553179
0.1752495 -0.16022602 -0.15904856
0.26125991 -0.16032416 -0.15692198
0.15406264 -0.1389243 -0.15531778
0.17524731 -0.13877955 -0.15907693
0.17513831 -0.1172909 -0.16049266
0.15406264 -0.095976256 -0.15531778
0.17463513 -0.095705763 -0.16702914
0.23983513 -0.095947593 -0.15655315
0.15374924 -0.074432626 -0.15984142
0.2184716 -0.074500069 -0.15545988
0.15406559 -0.053028449 -0.15527534
0.17547219 -0.053021688 -0.15615571
0.1323493 -0.010109987 -0.15920424
0.13250558 0.011373162 -0.15666652
0.15310694 0.011181541 -0.16911232
0.17480767 0.032649264 -0.16478801
0.51724821 0.032651842 -0.16467512
0.17530076 0.054247543 -0.15838253
0.51858991 0.054260194 -0.15797138
0.19623865 0.075465009 -0.16443515
0.19680761 0.097179197 -0.15771627
0.21775858 0.11834037 -0.16317868
0.2186646 0.140358 -0.15337074
0.2389179 0.13959756 -0.16571879
0.47517776 0.13990632 -0.16070485
0.23990758 0.16167662 -0.15582907
0.26004922 0.1608226 -0.16815555
0.45320967 0.16112924 -0.16372955
0.26111317 0.18295774 -0.15828335
0.43220484 0.18272227 -0.16134143
0.28277564 0.20456389 -0.15645385
0.30269217 0.20349917 -0.16902792
0.30451384 0.2262339 -0.15423799
0.32486126 0.22543278 -0.16291034
0.34673932 0.22574103 -0.15957248
0.1330834 -0.24691284 -0.14728379
0.13365272 -0.22601742 -0.13803923
0.15435438 -0.22511208 -0.15110719
0.2412769 -0.22573295 -0.14214599
0.13337421 -0.20413187 -0.14256179
0.13337421 -0.18255967 -0.14256155
0.13302447 -0.16072515 -0.14824057
0.13337335 -0.1394147 -0.1425761
0.58705711 -0.13953011 -0.13957703
0.13337511 -0.11784347 -0.14254725
0.15468264 -0.11772581 -0.14636934
0.5867334 -0.11789028 -0.14102709
0.13315645 -0.074644096 -0.14609766
0.1332904 -0.053115889 -0.14392281
0.11156216 -0.010016173 -0.14701247
0.11171862 0.011566434 -0.14410889
0.13354652 0.033227094 -0.13976359
0.15426658 0.032935917 -0.15237463
0.15469253 0.054621875 -0.14622629
0.15513231 0.076410212 -0.13987863
0.1757753 0.075935297 -0.15221798
0.52117825 0.076211587 -0.1450392
0.17629707 0.097746216 -0.14543986
0.17683801 0.11967493 -0.13841307
0.19738413 0.11900163 -0.15090764
0.49872619 0.11906611 -0.1497103
0.19823053 0.14112508 -0.14091229
0.21958633 0.16253817 -0.1433928
0.24090435 0.18391344 -0.14586878
0.26268092 0.20564082 -0.1437366
0.41259521 0.20510229 -0.15009522
0.28450394 0.22741178 -0.14148617
0.36931044 0.22645465 -0.15184772
0.11223267 -0.24789158 -0.13456929
0.091207013 -0.22716996 -0.12140381
0.11245984 -0.22654986 -0.13035357
0.11249569 -0.20492476 -0.12968826
0.11298211 -0.18373984 -0.12066162
0.11260803 -0.16167834 -0.12760365
0.59007311 -0.16174927 -0.12606704
0.1124949 -0.13991024 -0.12970281
0.11298053 -0.11851647 -0.1206907
0.1128097 -0.096702687 -0.12386084
0.13392681 -0.09647803 -0.13358867
0.56706065 -0.096511021 -0.13215971
0.091194913 -0.075020283 -0.12166584
0.11224666 -0.0748256 -0.13430965
0.54726613 -0.074996389 -0.12322152
0.1127651 -0.053263962 -0.12468851
0.090676203 -0.009907566 -0.13289595
0.090837076 0.011792749 -0.12941349
0.11265957 0.033530042 -0.12664711
0.11293191 0.055380374 -0.121593
0.13390371 0.054999515 -0.1339637
0.13430433 0.076888241 -0.12745881
0.13472916 0.098895349 -0.12055969
0.15560509 0.098318301 -0.13305485
0.52477819 0.098595507 -0.12705314
0.15610629 0.12035348 -0.12582052
0.17761438 0.14190018 -0.12832761
0.19908424 0.16340858 -0.13083053
0.48153424 0.16372257 -0.12629914
0.22053595 0.18489543 -0.13311243
0.45976496 0.18538874 -0.12670493
0.24240349 0.20672879 -0.13088834
0.26430723 0.228598 -0.12864637
0.39474463 0.22881466 -0.12629914
0.069969863 -0.20623153 -0.1084671
0.091424465 -0.20572481 -0.11669612
0.069980606 -0.18441191 -0.10818803
0.091830313 -0.18442696 -0.10790896
0.070055842 -0.16266543 -0.10623324
0.091801822 -0.16255945 -0.10852575
0.07003434 -0.14079213 -0.10679185
0.091551349 -0.14051658 -0.11394858
0.069976076 -0.11889777 -0.10830557
0.091652781 -0.11879174 -0.11175263
0.069964767 -0.097055122 -0.10859919
0.091286361 -0.096799031 -0.11968589
0.20002671 -0.0533024 -0.11970031
0.54795259 -0.0533006 -0.11991894
0.048271958 -0.031554159 -0.10402524
0.069549829 -0.031554159 -0.11937976
0.069593593 -0.0097947717 -0.11824274
0.069745928 0.012025628 -0.11428499
0.091595963 0.033845641 -0.11298287
0.091774687 0.055764683 -0.1091131
0.54811615 0.055456132 -0.11913192
0.11329183 0.077371128 -0.11491358
0.11366692 0.099477701 -0.10795307
0.13518767 0.12103816 -0.11311448
0.15681131 0.14268124 -0.11564434
0.50607908 0.14293617 -0.11150348
0.17839633 0.16428566 -0.1181699
0.15752144 0.16517088 -0.1053946
0.17924729 0.18689662 -0.10711539
0.19998725 0.18589208 -0.12016642
0.20128423 0.20893362 -0.10484993
0.22193785 0.20782545 -0.11793637
0.44018403 0.20813963 -0.11422634
0.24392755 0.22979769 -0.11565912
0.30931953 0.2516208 -0.11522055
0.33089578 0.25146306 -0.11679828
0.26795456 -0.18513313 -0.094803452
0.59844571 -0.09751787 -0.088562489
0.048304167 -0.053431153 -0.10297894
0.55269551 -0.031554062 -0.097099662
0.048307803 -0.0096762888 -0.10286105
0.55291706 -0.009623738 -0.096033454
0.048451032 0.012273159 -0.0982095
0.55321592 0.012328774 -0.094595909
0.070292979 0.034143679 -0.10007191
0.5534687 0.034298316 -0.093379259
0.070429623 0.056152344 -0.096522331
0.070700452 0.078349903 -0.089485526
0.092091396 0.077858306 -0.10225642
0.55407709 0.078312635 -0.090452313
0.09241578 0.10006516 -0.095233202
0.11408046 0.1217299 -0.10027874
0.53143477 0.12207928 -0.093794823
0.11463879 0.14426568 -0.089917064
0.13582005 0.14346948 -0.10284615
0.13645791 0.16606498 -0.092488647
0.15831585 0.18791184 -0.093928337
0.18043733 0.21005082 -0.091656685
0.20259786 0.23222917 -0.089336753
0.22335772 0.2310071 -0.10256624
0.42247507 0.23226219 -0.088979363
0.26855013 0.25421721 -0.089277148
0.28904912 0.25293148 -0.10212374
0.62171197 -0.14170668 -0.083027005
0.027091991 -0.11994812 -0.074194551
0.62134963 -0.11962789 -0.084595799
0.0269734 -0.097731143 -0.079329729
0.026890431 -0.075616792 -0.082922459
0.049103972 -0.075707927 -0.077004552
0.24728896 -0.075629875 -0.082069993
0.026830759 -0.053565599 -0.085506439
0.071261793 -0.05364725 -0.074901342
0.026807327 -0.03155411 -0.08652091
0.092979565 -0.03155411 -0.083027124
0.026834894 -0.0095413085 -0.085327268
0.026956443 0.012552559 -0.08006382
0.027085733 0.034735128 -0.074465394
0.048787992 0.034439526 -0.087266326
0.04889736 0.056546628 -0.083714485
0.049116459 0.078845836 -0.07659936
0.070973232 0.10065802 -0.082399011
0.071285531 0.12313064 -0.074284673
0.092780322 0.12242693 -0.087340832
0.093263268 0.14506838 -0.076884627
0.11520123 0.16696635 -0.079479575
0.13718803 0.18893534 -0.080633163
0.49130803 0.18949229 -0.07339716
0.15939686 0.21117961 -0.078325152
0.18164384 0.23346278 -0.075983524
0.24762772 0.25527704 -0.078685164
0.027479481 -0.16492018 -0.057415605
0.62531513 -0.16445777 -0.067424893
0.027238209 -0.14229044 -0.067862868
0.005259078 -0.12047938 -0.056943774
0.049708094 -0.12046576 -0.057385206
0.0051870048 -0.098139882 -0.061624885
0.049437594 -0.098035023 -0.066169977
-0.016988741 -0.075983778 -0.059088707
0.0051312409 -0.075888887 -0.06524694
0.58064282 -0.075828895 -0.069146752
0.0050914288 -0.053701699 -0.067832708
0.22643928 -0.053690992 -0.069207072
0.58147031 -0.053721014 -0.065307379
0.2054027 -0.031554159 -0.056212783
0.0050765462 -0.03155411 -0.068799496
0.0050953813 -0.0094046742 -0.067575932
0.0051345043 0.012783933 -0.065035105
0.0051884055 0.035033748 -0.061533928
0.005248297 0.057349503 -0.057643771
0.027170938 0.0569451 -0.070775867
0.5823589 0.057240456 -0.061184883
0.027337451 0.079347514 -0.063565969
0.02750339 0.10185961 -0.056380391
0.049336638 0.10125614 -0.06944859
0.55827332 0.10121842 -0.070263267
0.049593899 0.1238415 -0.061093807
0.071691692 0.14587817 -0.063732505
0.093749776 0.16787571 -0.066351414
0.51473075 0.16786224 -0.06654799
0.11586222 0.18996829 -0.067213178
0.13815887 0.21231911 -0.06486845
0.47111851 0.21251291 -0.062580466
0.16049188 0.23470649 -0.062519789
0.22668631 0.25649327 -0.066532969
0.050073702 -0.18778929 -0.045511842
0.0054963529 -0.16565385 -0.041532159
0.049951967 -0.16528738 -0.049465179
0.005348552 -0.14293438 -0.051132083
0.049830098 -0.14284623 -0.053422809
-0.016870871 -0.12088481 -0.04377687
-0.016907236 -0.098443024 -0.048500657
0.63082254 -0.098556839 -0.043576956
-0.039203536 -0.076155543 -0.047934055
-0.039203536 -0.053909082 -0.040885806
-0.016950412 -0.053807236 -0.054109573
-0.039203536 -0.031554207 -0.041609168
-0.016956281 -0.031554159 -0.054872036
0.18417397 -0.031554207 -0.043116093
0.58647221 -0.031554207 -0.042101264
0.11718225 -0.03155411 -0.042716503
-0.039203536 -0.0091955867 -0.040408611
-0.016947122 -0.0092977211 -0.053682208
0.58668447 -0.0092010368 -0.041116834
-0.016932903 0.012987085 -0.051834941
0.58706951 0.013179626 -0.039330363
-0.016905585 0.035339668 -0.0482862
0.58645898 0.035481125 -0.042162895
-0.0168743 0.057762861 -0.044222355
0.0053605586 0.079856098 -0.050352335
0.0054729134 0.10247519 -0.043054581
0.027701635 0.12455782 -0.04779613
0.049921822 0.14669657 -0.050444126
0.53966171 0.14655831 -0.052690268
0.050252181 0.16972128 -0.039715648
0.072100848 0.1687938 -0.053102493
0.072606027 0.192065 -0.039977431
0.094336346 0.19101235 -0.05365169
0.11671971 0.21346813 -0.051300168
0.13913952 0.23596039 -0.048944712
0.18441679 0.25915235 -0.039962053
0.2055679 0.2577211 -0.054262042
0.027987305 -0.18833286 -0.035426378
-0.016750786 -0.16627058 -0.028177381
-0.039203536 -0.14396027 -0.024477124
-0.016825367 -0.14344501 -0.037865639
0.6581645 -0.14403287 -0.022592187
-0.039203536 -0.12129436 -0.030473709
0.65738797 -0.12143694 -0.025846362
-0.039203536 -0.098749235 -0.035241008
-0.061606787 -0.076360643 -0.034607291
0.072671875 -0.076304294 -0.03826654
-0.061661065 -0.054011703 -0.027556062
0.095190272 -0.053953167 -0.035163879
-0.061655924 -0.031554207 -0.028223991
0.16275185 -0.031554159 -0.029899955
-0.061665252 -0.0090924297 -0.027012467
-0.061680578 0.013399906 -0.025021791
-0.039203536 0.013192669 -0.038482547
-0.039203536 0.0356488 -0.034901023
-0.039203536 0.058179967 -0.030675292
-0.039203536 0.080899931 -0.023231149
-0.016817646 0.080375291 -0.036862612
0.58828753 0.080497764 -0.033679605
-0.016760705 0.1031028 -0.029465556
0.00560892 0.1252895 -0.034220815
0.56547868 0.12521526 -0.035596371
0.027949501 0.14752063 -0.037063241
0.0057766736 0.14836666 -0.023324609
0.028199565 0.17065513 -0.026235104
0.050669182 0.19312766 -0.026172876
0.073230207 0.21580008 -0.023760915
0.095078304 0.21462911 -0.037588
0.11758675 0.23722923 -0.035210133
0.45365232 0.23727629 -0.034700155
0.16320959 0.26082024 -0.023293376
0.005822055 -0.18914378 -0.020377159
-0.039203536 -0.16689238 -0.014714956
0.66205466 -0.1672816 -0.0062907934
-0.061788671 -0.1444799 -0.010980248
-0.061741956 -0.12170782 -0.01704812
-0.08441399 -0.099369831 -0.0083698034
-0.061704919 -0.09905827 -0.021859288
-0.10703704 -0.076776579 -0.0075982809
-0.084217116 -0.076567635 -0.021157503
0.61532718 -0.076694198 -0.012943029
-0.084325954 -0.054115444 -0.014087915
0.61631298 -0.054158166 -0.0085272789
0.14113276 -0.031554159 -0.016578674
0.61615485 -0.031554159 -0.0092352629
-0.084316298 -0.03155411 -0.014714956
-0.084335133 -0.0089882985 -0.013492107
-0.084367029 0.013609286 -0.01142025
-0.084423445 0.036275774 -0.0077558756
-0.061708525 0.035960801 -0.021391511
-0.06174244 0.058601454 -0.016985655
-0.061800167 0.081429049 -0.0094869137
-0.039203536 0.10373492 -0.01578021
0.59317338 0.10395516 -0.0110116
-0.039203536 0.12678602 -0.0064482689
-0.01669086 0.12603453 -0.020392776
-0.016606301 0.14922374 -0.0094082355
0.0059459358 0.17161843 -0.012331009
0.028525386 0.19420892 -0.012126923
0.52534622 0.19426575 -0.011388898
0.051173288 0.21698222 -0.0098016262
0.07386139 0.23980176 -0.0073622465
0.095827818 0.23850855 -0.021360278
0.14167997 0.26238149 -0.0076928139
-0.039203536 -0.19077563 0.0099066496
-0.016574778 -0.18995553 -0.005313158
-0.061864514 -0.16752005 -0.0011274815
-0.084583774 -0.14500473 0.0026576519
-0.10744755 -0.12254617 0.010177612
-0.084488988 -0.12212502 -0.0034983158
-0.107334 -0.099684611 0.0052605867
0.66423929 -0.099629186 0.0028637648
-0.13007009 -0.076987468 0.0061030388
-0.10720108 -0.054219965 -0.00049471855
-0.10718757 -0.031554207 -0.0010801554
-0.10721608 -0.0088832453 0.00015425682
0.61715019 -0.0089213438 -0.0047768354
-0.10726583 0.013820756 0.0023088455
0.61725587 0.013718963 -0.0043035746
-0.10735089 0.036593221 0.0059916973
0.61836767 0.036470458 0.00067675114
-0.084493861 0.059026442 -0.0031821728
0.6173299 0.059002161 -0.0039718151
-0.084610403 0.081963032 0.0043871403
-0.061858065 0.10437309 -0.001965642
-0.061931927 0.12754455 0.0076296329
-0.039203536 0.15008992 0.0046572685
0.57464832 0.15032777 0.00852108
-0.016520863 0.17258987 0.0016906261
0.54936528 0.1721811 -0.004208684
0.0061701052 0.19531399 0.0022294521
0.028909322 0.21819293 0.0044983625
0.50606042 0.21835843 0.0064526796
0.051683094 0.24110574 0.0067545176
0.11981551 0.26376688 0.0061506033
-0.06206784 -0.19160426 0.025285006
-0.10782324 -0.1687935 0.026444912
-0.084736884 -0.16815427 0.012602329
-0.10759142 -0.14553386 0.016407013
-0.13062061 -0.12297121 0.023981333
-0.13046779 -0.10000235 0.019018412
-0.15331842 -0.077200107 0.019916654
-0.13028891 -0.054325458 0.013209105
-0.13027269 -0.031554159 0.012682319
-0.15357466 -0.03155411 0.026573777
-0.13031104 -0.0087772645 0.013928175
-0.13037948 0.014033787 0.016150951
-0.13049495 0.036914371 0.01990068
-0.13064638 0.059888728 0.024818063
-0.10746081 0.059455514 0.010751724
-0.10763729 0.082501978 0.01839304
0.62383616 0.082763031 0.025172234
-0.10781467 0.10566809 0.026074171
-0.084727295 0.10501713 0.011979938
-0.084878907 0.12830961 0.021827102
0.60094142 0.12848222 0.025027394
-0.062018238 0.15096346 0.018841863
-0.039203536 0.17357066 0.015846848
-0.016405236 0.19642898 0.016711116
0.0064283386 0.2194213 0.019002318
0.029296901 0.2424477 0.021281004
0.097743213 0.26516384 0.020109057
-0.085171133 -0.19244075 0.040807962
-0.13112721 -0.16943958 0.040433764
-0.13081521 -0.14606875 0.030301452
-0.15401116 -0.12340023 0.037914515
-0.15381834 -0.10032311 0.032904983
-0.17678617 -0.077415034 0.033876419
-0.17711611 -0.054539509 0.041019559
-0.15359327 -0.05443202 0.02705729
-0.17709656 -0.031554159 0.040596485
-0.17715521 -0.0085621923 0.041866064
-0.15362306 -0.0086702146 0.027831435
-0.15371192 0.014249202 0.030139804
-0.15385823 0.037238635 0.03394115
-0.15405367 0.060325973 0.039019346
-0.13088392 0.08304628 0.032532573
-0.13112269 0.1063247 0.040287375
-0.10804801 0.12908292 0.036177874
-0.085053444 0.15184546 0.033163905
-0.062105209 0.17456102 0.030139804
-0.039203536 0.19755596 0.031351805
-0.016274843 0.2206614 0.033649683
0.0066892803 0.24380276 0.035950661
0.48936337 0.24421993 0.040466309
0.075460494 0.2665723 0.034184098
-0.10851718 -0.19328606 0.056494117
-0.15465103 -0.17009109 0.054538608
-0.17792204 -0.14715293 0.05846858
-0.15425734 -0.14660791 0.044310331
-0.1776223 -0.1238334 0.051979184
-0.17738798 -0.10064635 0.046905875
0.70059603 -0.10091028 0.058336735
-0.20047508 -0.077631809 0.047951818
0.6513868 -0.077593416 0.045468807
-0.20086189 -0.054648213 0.055129766
0.65289032 -0.054623932 0.051978946
-0.20084153 -0.031554159 0.054752111
0.65236074 -0.031554159 0.049685836
-0.20091058 -0.0084531475 0.056033731
0.6530115 -0.0084803477 0.052503943
-0.17726509 0.014466368 0.044245243
0.65390265 0.014652975 0.05636251
-0.17744233 0.037565187 0.048082709
-0.17768669 0.060767993 0.053373218
-0.15435347 0.083595738 0.046807766
-0.15465482 0.10698748 0.054637313
0.62976199 0.10685255 0.051716805
-0.13144235 0.1298638 0.050668359
-0.10831235 0.15273607 0.047624946
-0.10857838 0.17657036 0.059143662
-0.085229076 0.17556089 0.04457128
-0.06222824 0.19869289 0.046121955
-0.039203536 0.2219156 0.048458815
-0.016142949 0.24517286 0.050782919
0.05296674 0.26799923 0.048442364
-0.13210985 -0.19414023 0.072345853
-0.17839895 -0.17074955 0.068794012
-0.20181197 -0.14770302 0.072761297
-0.20145717 -0.1242705 0.06617713
0.70109516 -0.12409153 0.060363173
-0.22520053 -0.101303 0.075339794
-0.2011812 -0.1009732 0.06105566
-0.22438996 -0.077850729 0.062177539
-0.22483215 -0.054757744 0.069357872
-0.22481275 -0.031554062 0.069042683
-0.22489241 -0.0083430801 0.07033658
-0.20162053 0.014850676 0.069208503
-0.20179406 0.038127542 0.072429061
0.65763217 0.038129434 0.07251215
-0.20154728 0.061213762 0.067849398
-0.17804915 0.084150545 0.061220527
-0.17841427 0.10765659 0.069125652
-0.15506524 0.13065216 0.065300226
-0.13179827 0.15363532 0.062227011
-0.13215643 0.17758992 0.073858857
-0.085482866 0.19984251 0.06105566
0.56232214 0.19980192 0.06052804
-0.062361371 0.22318208 0.063416004
-0.039203536 0.24655536 0.065746903
0.030256618 0.26943988 0.062837958
-0.15595303 -0.19500354 0.088366032
-0.20237279 -0.17141345 0.083168864
-0.22592935 -0.14825784 0.087174058
0.70705956 -0.14815775 0.084575295
-0.22551896 -0.12471179 0.080510139
-0.24944925 -0.10163613 0.089760423
-0.24871467 -0.07811217 0.079157352
-0.24903199 -0.05486849 0.083737969
-0.24901345 -0.031554159 0.083470106
-0.24910393 -0.008231895 0.084776282
-0.24928868 0.015131339 0.087442517
-0.22562808 0.015051927 0.082282066
-0.24956112 0.038565032 0.091374993
-0.22569814 0.03838139 0.083419919
-0.22564043 0.061664246 0.082482815
0.66139823 0.061859466 0.088819504
-0.22613314 0.085277006 0.090483427
-0.20197515 0.084711343 0.075789452
-0.20240436 0.10833233 0.083754897
-0.17892003 0.13144842 0.080075741
-0.17946446 0.15546042 0.091863036
-0.15551449 0.1545434 0.076972365
-0.15597631 0.17863682 0.088970661
0.5886125 0.17771778 0.075706244
-0.13269527 0.20217526 0.091358185
-0.10897049 0.2010023 0.076122642
-0.085751802 0.22446126 0.078523278
-0.06249579 0.24795285 0.080877781
0.007327266 0.27089626 0.077389121
-0.18005627 -0.19588241 0.10467589
-0.22657748 -0.17208454 0.097698212
-0.2502782 -0.14881785 0.10172522
-0.2498109 -0.12515736 0.09498024
-0.27395415 -0.10197932 0.10462499
-0.29757303 -0.07853049 0.10632336
-0.27325067 -0.078363493 0.095486283
-0.27348077 -0.054981865 0.098475695
-0.27346388 -0.031554159 0.098255992
-0.27356541 -0.0081180334 0.099575043
-0.27378049 0.015361302 0.10236907
-0.27408752 0.038911045 0.10635722
-0.24996878 0.06211935 0.097259164
-0.25052968 0.085849278 0.10535502
-0.22662953 0.10901525 0.098543286
-0.20300926 0.13225153 0.094980121
-0.20365164 0.15638641 0.10690129
0.61777276 0.15615332 0.10311508
-0.18004058 0.17970136 0.10433626
-0.15665992 0.20335865 0.10673118
-0.10937795 0.22575197 0.093766332
-0.086023353 0.24936467 0.096161366
-0.015716968 0.27377126 0.10611939
0.38241357 0.27294716 0.097884059
-0.204483 -0.19683358 0.12232935
-0.2510179 -0.17276374 0.11240196
-0.27489746 -0.14940104 0.11687839
-0.27436388 -0.12561831 0.1099472
-0.29871774 -0.10233078 0.11984158
-0.32247314 -0.078765757 0.12160838
-0.29819325 -0.055098698 0.11364782
-0.29818022 -0.031554159 0.1134944
-0.29829305 -0.0080006178 0.11482656
-0.27456203 0.062589303 0.11252129
-0.25109476 0.10970669 0.11351144
-0.22733808 0.13306364 0.11004949
-0.22807848 0.1573208 0.12207186
-0.20434986 0.18077692 0.11985874
-0.18086848 0.20455411 0.12226093
-0.13324407 0.22705725 0.10918081
-0.10978982 0.25079107 0.1116004
-0.2291974 -0.19779873 0.14024067
-0.27573153 -0.17347088 0.12771368
-0.29976571 -0.14999151 0.13221776
-0.32423124 -0.1265634 0.14064026
-0.29917291 -0.12608844 0.12521708
-0.32372805 -0.10268527 0.13519335
-0.3476257 -0.079003707 0.13706458
0.69681543 -0.079039223 0.13937211
-0.32315177 -0.055216454 0.12895489
-0.32314381 -0.031554159 0.1288687
-0.32326972 -0.007881891 0.13023162
-0.32400346 0.015912462 0.13817453
-0.29947335 0.015767556 0.12876523
-0.32404193 0.039655432 0.13859105
-0.29945436 0.039423376 0.12854111
-0.29941934 0.063069761 0.12812722
-0.27563739 0.086662859 0.12649059
0.67047203 0.086725049 0.12811005
-0.27667046 0.11092604 0.13991046
-0.25192004 0.133892 0.12542343
-0.25276741 0.15828037 0.1376543
-0.22890788 0.18186328 0.13553977
-0.20532562 0.2057631 0.13796651
-0.15735357 0.22837591 0.12475264
-0.18171017 0.22970811 0.14048386
-0.13379829 0.25223002 0.12717962
-0.039203536 0.27678663 0.13625002
0.41000819 0.27580121 0.12640464
-0.30069393 -0.17418534 0.14317966
-0.32488608 -0.15058854 0.14772928
-0.34954083 -0.1270425 0.15620172
-0.34899199 -0.10304378 0.15071714
-0.37303314 -0.079244077 0.15267754
-0.3483631 -0.055335715 0.14443326
-0.34836137 -0.03155411 0.14441586
-0.34849739 -0.0077623352 0.1457752
-0.34880832 0.016077369 0.14888179
-0.34921968 0.039988019 0.15299273
-0.32453012 0.063554741 0.14387596
-0.30104521 0.087464809 0.14732778
-0.30175799 0.11165734 0.15574551
-0.27759933 0.13532284 0.1519773
-0.25374398 0.18298629 0.15174985
-0.23003775 0.20698866 0.15388656
-0.20631771 0.23105377 0.15637743
-0.15856606 0.25491589 0.15625453
-0.254235 -0.19880083 0.15883696
-0.3259089 -0.17490691 0.15880191
-0.35026097 -0.15119168 0.16339767
-0.37510893 -0.12752721 0.17193878
-0.37451187 -0.10340595 0.16639864
-0.39869726 -0.07948669 0.16843188
-0.37382963 -0.055456001 0.16006827
-0.37383345 -0.031554159 0.16010356
-0.37398332 -0.0076412726 0.16149426
-0.37432724 0.016320664 0.16468549
-0.37477675 0.040354468 0.16885638
-0.34990135 0.064045228 0.15980422
-0.32631719 0.088076547 0.16322148
-0.32711589 0.11240201 0.17186761
-0.30280679 0.13619334 0.16813099
-0.2785559 0.15992764 0.16440308
-0.23119208 0.23242998 0.17263043
-0.2795763 -0.19981506 0.1776588
-0.35138032 -0.17563578 0.1745832
-0.37589428 -0.15180084 0.17922568
-0.40093789 -0.12801656 0.18783617
-0.40028954 -0.10377134 0.18222165
-0.42462593 -0.079731986 0.18436503
-0.39955527 -0.05557755 0.17586231
-0.39956757 -0.031554207 0.175969
-0.39972776 -0.0075191371 0.17735636
-0.40010825 0.01656644 0.18065166
-0.40059689 0.040724523 0.18488324
-0.37553564 0.064540774 0.17589796
-0.51982039 0.088600025 0.17682266
-0.35185206 0.088695295 0.17929709
-0.51961505 0.11256927 0.17548919
-0.35274607 0.11315774 0.18823028
-0.32828024 0.13707399 0.18447208
-0.30387154 0.16093165 0.18070507
-0.27972847 0.18491828 0.17963576
-0.25582671 0.20913821 0.18181121
-0.25635591 0.23385429 0.18944931
-0.30522835 -0.20084268 0.19672847
-0.37711209 -0.17637208 0.19052553
-0.40178999 -0.15241633 0.19521582
-0.4270294 -0.12851068 0.20387876
-0.42633298 -0.1041409 0.19822443
-0.4508214 -0.0799798 0.20046198
-0.42554173 -0.055700317 0.19180012
-0.42556384 -0.031554013 0.19197953
-0.42573866 -0.0073956419 0.19339919
-0.42615759 0.016814992 0.19680047
-0.4266842 0.041098513 0.20107603
-0.40143499 0.065040939 0.19214129
-0.37765056 0.089319736 0.19552183
-0.37864676 0.11392159 0.2047658
-0.35402074 0.13796291 0.20096767
-0.3294507 0.16194385 0.19714296
-0.30520698 0.1860851 0.19647634
-0.28119415 0.21043649 0.19867539
-0.18445376 0.25894636 0.1998843
-0.33119059 -0.20187998 0.21597779
-0.40310818 -0.17711598 0.20663178
-0.42794994 -0.15303731 0.21135235
-0.45339194 -0.12901032 0.22010458
-0.45264435 -0.10451435 0.21439183
-0.47728524 -0.080229908 0.21670723
-0.45179734 -0.055824399 0.20791948
-0.45183057 -0.03155411 0.20817339
-0.45201588 -0.0072710738 0.20958948
-0.45247754 0.017066315 0.213117
-0.45304048 0.041475862 0.21741891
-0.42760757 0.065546796 0.20857286
-0.4037205 0.08995153 0.21193445
-0.40482229 0.11469332 0.22147632
-0.38003403 0.13886112 0.21763802
-0.35530216 0.16296807 0.21377254
-0.33096334 0.18726566 0.21351767
-0.30683672 0.21174878 0.21572232
-0.2817899 0.23529088 0.20641434
-0.35746923 -0.2029281 0.23542738
-0.42937276 -0.17786756 0.22290432
-0.45438251 -0.15366565 0.22767389
-0.48002502 -0.12951449 0.23648
-0.47922525 -0.10489108 0.230708
-0.50402653 -0.080482885 0.23313963
-0.4783242 -0.055949792 0.22420537
-0.47836992 -0.03155411 0.22453535
-0.47856817 -0.0071449988 0.22596622
-0.47907227 0.017320022 0.22960413
-0.47967458 0.041857645 0.23395085
-0.45405579 0.066058151 0.22517729
-0.50447458 0.090885587 0.23620296
-0.43006432 0.090589888 0.22851908
-0.50341797 0.11503997 0.22897887
-0.43127707 0.11547332 0.23836541
-0.40632454 0.13976905 0.23448586
-0.38142875 0.16400313 0.23057914
-0.35699883 0.18845806 0.23072648
-0.33191508 0.21237209 0.22382057
-0.35780215 0.21352187 0.23875391
-0.3075054 0.23674774 0.22361875
-0.38407332 -0.203989 0.25511765
-0.45591 -0.1786271 0.23934591
-0.48108986 -0.15430041 0.24416506
-0.50693786 -0.13002452 0.25304437
-0.50608486 -0.10527222 0.24721241
-0.53150088 -0.080783941 0.2526896
-0.50512385 -0.056076258 0.24064183
-0.50518346 -0.031554207 0.24104965
-0.50539494 -0.007017659 0.2424953
-0.50594616 0.017576698 0.2462641
-0.5065887 0.042243607 0.25065672
-0.48078144 0.066574275 0.24193907
-0.45668402 0.091234326 0.24526072
-0.43289661 0.14068666 0.25151443
-0.40783486 0.16504923 0.24756575
-0.40858173 0.19007275 0.25403392
-0.38315117 0.18955496 0.24656153
0.45599851 -0.22963494 0.27155626
0.47947657 -0.22914663 0.26362598
-0.48272413 -0.17939433 0.25595891
-0.50807643 -0.15494183 0.26082861
-0.5341295 -0.13053943 0.26976347
-0.53322512 -0.10565735 0.26388896
-0.53220582 -0.05620423 0.25726867
-0.53228074 -0.031554159 0.25775528
-0.53250569 -0.0068890527 0.25921619
-0.53310359 0.017835855 0.26309991
-0.53378707 0.042633317 0.26753902
-0.50805444 0.067151278 0.26067865
-0.48358867 0.09188626 0.26219845
-0.45801556 0.11626174 0.25543559
-0.45975488 0.14161408 0.26872623
-0.46004865 0.16649058 0.27097094
-0.43372294 0.16570553 0.25822353
0.43328831 -0.23049814 0.28557193
-0.53682745 -0.18084142 0.28728735
-0.50981951 -0.18016973 0.27274632
-0.53523254 -0.1555614 0.27692819
-0.56096989 -0.13093823 0.28271711
-0.5601474 -0.10597471 0.27762926
-0.55965143 -0.081120566 0.27456164
-0.58617359 -0.056416333 0.28482914
-0.55926943 -0.056319114 0.27219856
-0.5862897 -0.031554159 0.28551483
-0.55937028 -0.031554062 0.27282202
-0.58653176 -0.0066755358 0.28694403
-0.55959642 -0.0067734849 0.27422106
-0.56063199 0.018105574 0.28062701
-0.56138831 0.043043755 0.28530538
-0.5351072 0.067626528 0.27611363
-0.48504239 0.11705888 0.2726897
-0.48535684 0.14195001 0.27495885
0.41056857 -0.2564401 0.3010751
0.43376803 -0.2555933 0.28885162
0.45978048 -0.25609696 0.296121
0.41037673 -0.23136768 0.29969108
-0.61360937 -0.031554256 0.29936457
-0.613868 -0.0065686833 0.30082512
-0.58850831 0.018382639 0.29861522
-0.58930951 0.043460324 0.30334616
-0.56282693 0.068183675 0.29420495
-0.56435144 0.093481056 0.303635
0.38726398 -0.23224479 0.31393409
-0.64142936 -0.03155411 0.31476796
-0.64170182 -0.0064499527 0.31624258
-0.61657363 0.018651918 0.31610668
-0.59086972 0.068748899 0.31255841
0.38850302 -0.25798693 0.32340169
0.36394745 -0.23312962 0.32830286
-0.67009938 -0.0063183792 0.3333559
-0.6447404 0.018907279 0.33268929
-0.61754096 0.043881223 0.32156992
-0.61922514 0.069319181 0.33108222
-0.64853519 -0.26005352 0.35322928
-0.69851899 -0.23442042 0.34926295
-0.67310733 -0.23440337 0.34898567
-0.64790851 -0.23445585 0.34983754
-0.62207967 -0.23429373 0.34720445
-0.5965597 -0.23422915 0.34615636
-0.72404611 -0.20910582 0.35007524
-0.59729725 -0.20912948 0.35051131
-0.57110709 -0.20885533 0.34542489
-0.72444582 -0.18383026 0.35199857
-0.64831519 -0.18383211 0.3520385
-0.62280202 -0.18379721 0.3512845
-0.59729385 -0.18376055 0.35049152
-0.57120293 -0.18355396 0.34601784
-0.74953455 -0.15839902 0.35064995
-0.67384374 -0.15848225 0.35281241
-0.64737821 -0.15825716 0.3469671
-0.62279856 -0.15842259 0.3512646
-0.59729385 -0.15839282 0.35049129
-0.57162511 -0.1583212 0.34862924
-0.72465211 -0.13310201 0.35299087
-0.67383993 -0.13309598 0.3527925
-0.64831519 -0.13307276 0.3520385
-0.62297064 -0.13307884 0.35223663
-0.59729385 -0.13302517 0.35049152
-0.72406667 -0.10765009 0.35017431
-0.6483115 -0.10769271 0.35201859
-0.59729385 -0.10765734 0.35049152
-0.6985507 -0.082273245 0.34942138
-0.67377883 -0.082320109 0.35247481
-0.62271076 -0.082293928 0.35076904
-0.59658647 -0.082225412 0.34631443
-0.67298537 -0.056905456 0.34835207
-0.64750248 -0.056900006 0.34763956
-0.62217075 -0.056900539 0.34771895
-0.69872516 -0.031554159 0.35029316
-0.69905061 -0.0061754193 0.35191941
-0.67358786 0.019196559 0.35148299
-0.64612377 0.044310935 0.34017694
-0.67476958 -0.26035792 0.35762298
-0.62363535 -0.26024485 0.35599113
-0.6993764 -0.20929295 0.35354686
-0.6748845 -0.20954478 0.3582201
-0.64893895 -0.20939365 0.35541463
-0.62420988 -0.20959958 0.35923612
-0.75076723 -0.18403217 0.35636914
-0.6993764 -0.18390179 0.35354686
-0.67514908 -0.18418106 0.35959482
-0.72492039 -0.15853876 0.3542819
-0.70097804 -0.15881848 0.36154914
-0.75010324 -0.1331113 0.35328877
-0.70097804 -0.1333656 0.36154914
-0.70033962 -0.10783913 0.35835946
-0.6740616 -0.10773714 0.35394418
-0.62420988 -0.10785947 0.35923612
-0.72492039 -0.082347937 0.3542819
-0.64860857 -0.082337916 0.35362637
-0.6750378 0.044745892 0.35901701
-0.57625806 -0.23614636 0.37728846
-0.72854435 -0.031554256 0.37171769
-0.67896545 -0.03155411 0.37942529
-0.7289452 -0.0060080811 0.37364614
-0.70292485 0.019501407 0.3712759
-0.75877577 -0.057253078 0.39352393
-0.7590521 -0.03155411 0.39480603
-0.75963616 -0.0058244895 0.39751601
-0.73261619 0.019809853 0.39130807
-0.55548024 -0.21225104 0.40844047
-0.76190686 -0.083175778 0.40805066
-0.73599368 -0.057361096 0.4075582
-0.76250893 0.020110518 0.41084385
-0.79250318 -0.10948166 0.42948687
-0.76477545 -0.10929398 0.4213593
-0.7913543 -0.083426714 0.42434037
-0.79038876 -0.057457201 0.42001534
-0.79070264 -0.031554159 0.42142117
-0.79144681 -0.005614819 0.42475474
-0.79682416 -0.16217846 0.44884253
-0.79432631 -0.13570906 0.43765342
-0.82249779 -0.057664052 0.44688857
-0.7166326 -0.057609208 0.43976402
-0.82284707 -0.03155411 0.44840097
-0.80055469 -0.1890752 0.46555328
-0.82663172 -0.13654464 0.46478903
-0.8247202 -0.11010581 0.45651209
-0.8235175 -0.083841674 0.45130384
-0.82928699 -0.1632348 0.47628677
-0.85619962 -0.084263697 0.47870255
-0.85511869 -0.057873964 0.47417319
-0.85946482 -0.13739443 0.49238503
-0.85745239 -0.11073954 0.48395228
0 0 0 1 0 0 0 1 0 0 0 1 0 0 0 0 0 1122 1 0 0
