ply
format ascii 1.0
comment PCL generated
element vertex 1332
property float x
property float y
property float z
element camera 0
property float view_px
property float view_py
property float view_pz
property float x_axisx
property float x_axisy
property float x_axisz
property float y_axisx
property float y_axisy
property float y_axisz
property float z_axisx
property float z_axisy
property float z_axisz
property float focal
property float scalex
property float scaley
property float centerx
property float centery
property int viewportx
property int viewporty
property float k1
property float k2
end_header
-0.39415237 0.021293661 -0.1251415
-0.36840335 0.021324625 -0.12312746
-0.34262943 0.021356536 -0.12105608
-0.31681481 0.02138711 -0.11907339
-0.290916 0.021408645 -0.11767149
-0.26494631 0.021421308 -0.11685145
-0.23896407 0.021433862 -0.11603129
-0.2129717 0.021446971 -0.11517406
-0.18697067 0.021461422 -0.11424351
-0.16095534 0.021475757 -0.11331236
-0.13493077 0.021491768 -0.11227107
-0.76090938 0.047576651 -0.11208832
-0.73282123 0.047369167 -0.12107444
-0.70594335 0.047276504 -0.12508726
-0.67953563 0.047229193 -0.12713504
-0.65286678 0.047148079 -0.13064563
-0.31575263 0.047170229 -0.12968743
-0.28999659 0.04721798 -0.12762415
-0.26417065 0.047255084 -0.12601173
-0.23840801 0.047318734 -0.1232543
-0.2125302 0.047358289 -0.12154698
-0.18662392 0.04739695 -0.119874
-0.16069591 0.047437176 -0.11812675
-0.1347411 0.047477625 -0.11637759
-0.10876434 0.047520973 -0.11449909
-0.082773909 0.047575869 -0.11212468
0.20333569 0.047237121 -0.126791
-0.70828068 0.073592357 -0.11424339
-0.68115455 0.073435254 -0.11934638
-0.65402287 0.073265098 -0.12486947
-0.6274184 0.073165849 -0.12809503
-0.23788776 0.073106818 -0.13001275
-0.21204767 0.073152959 -0.12851107
-0.18619572 0.073204845 -0.12682712
-0.16026907 0.073228888 -0.12604785
-0.13431621 0.073243394 -0.12557673
-0.10837565 0.073273517 -0.12459743
-0.082494974 0.073378623 -0.12118351
-0.05658504 0.073514916 -0.11676049
-0.030607194 0.073651433 -0.11232603
0.20409644 0.073640779 -0.11267304
0.2299459 0.073526748 -0.11637771
0.25589523 0.073482446 -0.11781716
0.2818239 0.073438652 -0.1192373
0.30775082 0.073402166 -0.12041962
0.33383936 0.07342577 -0.11965585
0.35996884 0.07345818 -0.11860001
0.3859694 0.073449366 -0.11889148
0.41200963 0.073452048 -0.11880028
0.4381724 0.073485181 -0.11772609
0.46433029 0.073513135 -0.11681497
0.49059328 0.073561557 -0.11524701
0.51693934 0.073622204 -0.113276
-0.62999636 0.099640302 -0.11469972
-0.60317338 0.099481858 -0.11881876
-0.57658285 0.099360071 -0.12198293
-0.55025095 0.099285983 -0.12390792
-0.52395779 0.099214025 -0.12577605
-0.49774957 0.099156 -0.12728
-0.47170228 0.099134572 -0.12784123
-0.44563863 0.099105902 -0.12858355
-0.41962194 0.099087887 -0.12905407
-0.39362144 0.099072598 -0.12945211
-0.36763543 0.099060036 -0.12977779
-0.34173238 0.099075384 -0.12937963
-0.31582505 0.099091224 -0.12896359
-0.28998992 0.099140041 -0.12769651
-0.26412767 0.099185459 -0.1265192
-0.23824601 0.099230088 -0.12535918
-0.21233265 0.099267192 -0.12439775
-0.18640234 0.099302731 -0.12347233
-0.160447 0.099330731 -0.12274587
-0.13448052 0.099358626 -0.12201941
-0.10850635 0.099390201 -0.12120163
-0.082559943 0.099471934 -0.11907363
-0.056579579 0.099551879 -0.11699736
-0.030567277 0.099631883 -0.11491859
-0.0045235585 0.099714734 -0.11276436
0.33431405 0.099647395 -0.11451721
0.360111 0.099544846 -0.11717939
0.38617942 0.099554054 -0.11694264
0.41231465 0.099584065 -0.11615896
0.43852717 0.099634729 -0.11484563
0.46458802 0.099634729 -0.11484563
0.49062359 0.099627636 -0.11502814
0.51669908 0.099631883 -0.11491859
0.5427987 0.099641584 -0.11466312
0.56894654 0.099662177 -0.11413383
0.59526032 0.099718295 -0.11267304
-0.36953667 0.12576631 -0.11331236
-0.34340891 0.12574288 -0.11382353
-0.31729999 0.12572424 -0.11422527
-0.29135409 0.12578405 -0.11292887
-0.18820314 -0.16176736 -0.094230652
-0.057093833 -0.16174817 -0.094729304
-0.16183244 -0.1616594 -0.097035766
-0.13553233 -0.16157427 -0.09924686
-0.10935068 -0.16157366 -0.099265218
-0.083232284 -0.1616517 -0.097238421
-0.29315132 -0.13557118 -0.093473196
-0.26650411 -0.13541782 -0.098454833
-0.24012999 -0.13534294 -0.10088491
-0.21403182 -0.13537413 -0.099872947
-0.18779902 -0.13534573 -0.10079288
-0.16163097 -0.13534629 -0.10077465
-0.13546093 -0.13534573 -0.10079288
-0.10929471 -0.13534808 -0.10071933
-0.083127365 -0.1353503 -0.10064566
-0.056963574 -0.13535884 -0.10036969
-0.030809697 -0.13539566 -0.099173188
-0.0046330057 -0.13541491 -0.098546982
0.021553326 -0.13544281 -0.097644091
0.047775298 -0.13555746 -0.093916655
-0.34536728 -0.10929533 -0.095652342
-0.31924361 -0.10931502 -0.094803095
-0.29245135 -0.10917076 -0.1010505
-0.26601666 -0.10909784 -0.10421145
-0.23969595 -0.1090444 -0.10652339
-0.21392219 -0.1091615 -0.10145497
-0.1876971 -0.10913851 -0.10244799
-0.16154079 -0.10913851 -0.10244799
-0.13538788 -0.10914013 -0.10237455
-0.10923384 -0.10914197 -0.10230088
-0.083078668 -0.10914358 -0.10222733
-0.056935955 -0.10915887 -0.10156548
-0.030791841 -0.10918733 -0.10033298
-0.0046284683 -0.109215 -0.099136233
0.021553326 -0.10923631 -0.098215342
0.047748171 -0.10925411 -0.097441435
0.073940173 -0.10924992 -0.097625494
0.10021541 -0.10933176 -0.094082952
-0.37174004 -0.083108746 -0.09423089
-0.34531757 -0.083079733 -0.096113563
-0.31861475 -0.083003081 -0.10108733
-0.29203901 -0.082934961 -0.10551453
-0.26575258 -0.082907066 -0.10733008
-0.23985414 -0.082951024 -0.10446858
-0.21367145 -0.082941823 -0.10507417
-0.18759188 -0.082955934 -0.10415626
-0.16145565 -0.082957834 -0.10402787
-0.13531406 -0.082958616 -0.10397279
-0.10917233 -0.082959898 -0.10389924
-0.083029449 -0.082961015 -0.10382569
-0.056908365 -0.082977414 -0.10276031
-0.030773994 -0.082996882 -0.10149193
-0.0046195388 -0.083015352 -0.10029602
0.021553326 -0.083029747 -0.099357367
0.047738947 -0.083040789 -0.098639131
0.073935635 -0.083051898 -0.097920656
0.10014467 -0.083063886 -0.097146273
0.1264054 -0.083095692 -0.095080018
-0.39782315 -0.056880649 -0.095338583
-0.37138632 -0.05686564 -0.097293735
-0.34479144 -0.056837134 -0.10099518
-0.31800652 -0.056789488 -0.10716498
-0.2917816 -0.056780897 -0.10830092
-0.26572308 -0.056785583 -0.10767817
-0.23968045 -0.056792893 -0.1067251
-0.2134923 -0.056785807 -0.10765994
-0.18744838 -0.056794733 -0.1064868
-0.16136961 -0.056801431 -0.10562456
-0.13524115 -0.056802042 -0.10555124
-0.10911156 -0.056802545 -0.10547781
-0.082985923 -0.056804441 -0.10523927
-0.056880791 -0.056814261 -0.10395432
-0.030756164 -0.056824356 -0.10265005
-0.0046107601 -0.056833677 -0.10143661
0.021553326 -0.056840591 -0.10053551
0.047729876 -0.05684606 -0.099817634
0.073918045 -0.056852028 -0.099062562
0.10012637 -0.056860678 -0.097938776
0.12634292 -0.056867037 -0.097109318
0.15253463 -0.056865811 -0.097256899
-0.42392069 -0.030669572 -0.09620595
-0.39745745 -0.030669628 -0.09830749
-0.37085485 -0.030669572 -0.10189641
-0.34400213 -0.030669628 -0.10831916
-0.31772614 -0.030669628 -0.10996699
-0.29152295 -0.030669628 -0.11110103
-0.26577896 -0.030669628 -0.10701847
-0.23950697 -0.030669628 -0.10897851
-0.21331851 -0.030669628 -0.11016822
-0.18730393 -0.030669572 -0.108832
-0.13516831 -0.030669739 -0.10712826
-0.082949221 -0.030669572 -0.10643172
-0.056853656 -0.030669572 -0.10512912
-0.03073778 -0.030669628 -0.10384429
0.021553326 -0.030669572 -0.10173094
0.10010807 -0.030669628 -0.098731041
0.12632646 -0.030669684 -0.097644091
0.15253463 -0.030669572 -0.097257137
0.17872493 -0.030669684 -0.097385883
0.2050017 -0.030669572 -0.095873713
-0.16124907 -0.030669516 -0.10786152
-0.10905014 -0.030669516 -0.10707343
-0.0046018437 -0.030669516 -0.10259497
0.047720954 -0.030669516 -0.10097682
0.073905863 -0.030669516 -0.09985435
-0.78902894 -0.0045217592 -0.10355043
-0.70898557 -0.0045788866 -0.11097324
-0.68276566 -0.0045837425 -0.11159468
-0.65671641 -0.0045822337 -0.11141205
-0.50027424 -0.004578162 -0.11088169
-0.47448802 -0.0045622066 -0.1087954
-0.4485836 -0.0045509357 -0.10732985
-0.42266405 -0.0045391098 -0.10580814
-0.39623111 -0.004558133 -0.10826433
-0.29148409 -0.0045830719 -0.11152172
-0.26551688 -0.004572304 -0.11011338
-0.23929431 -0.0045848563 -0.11174095
-0.18716082 -0.0045803934 -0.11115599
-0.1611228 -0.0045730844 -0.11020482
-0.13507101 -0.0045655537 -0.10923481
-0.10898951 -0.0045609232 -0.10864902
-0.08291252 -0.0045531671 -0.10762334
-0.056826118 -0.0045431815 -0.10632169
-0.030719407 -0.00453314 -0.10503769
-0.0045929328 -0.0045233201 -0.10375226
0.021553326 -0.0045168512 -0.1029073
0.047714863 -0.0045080353 -0.10176778
0.073893674 -0.004499387 -0.10064566
0.10009021 -0.0044906847 -0.099504709
0.12630376 -0.0044819247 -0.098381281
0.15252826 -0.0044746175 -0.097422719
0.20491226 -0.004475398 -0.097533464
-0.78824508 0.021575453 -0.10683501
-0.10889864 0.021511184 -0.11100972
-0.082863465 0.0215388 -0.10921657
-0.05680706 0.02157071 -0.10714662
-0.030718278 0.021602066 -0.105111
-0.0045926515 0.021622373 -0.10378909
0.021553326 0.021633698 -0.1030544
0.047710195 0.021644184 -0.10237443
0.073878668 0.021655789 -0.10162067
0.10006809 0.021673532 -0.1004616
0.12627484 0.021691049 -0.099320412
0.23135871 0.021781763 -0.093436241
-0.056747425 0.047631159 -0.10972893
-0.030684114 0.047686554 -0.10733008
-0.0045796502 0.047729403 -0.10547793
0.021553326 0.047755569 -0.10433996
0.047703262 0.047780171 -0.1032747
0.073869608 0.047804937 -0.10220909
0.10004856 0.047825582 -0.10130811
0.12623459 0.04784137 -0.10062742
0.23022467 0.047582172 -0.11185062
0.25685948 0.047765717 -0.10389936
0.28291279 0.047738269 -0.10509264
0.30884373 0.047682263 -0.10751319
0.33493906 0.047676794 -0.10775137
0.36105636 0.047677241 -0.10773301
0.38717788 0.047678523 -0.10767817
0.41333413 0.047686554 -0.10733008
0.43964255 0.047722094 -0.10578966
0.46598929 0.047760308 -0.10413802
0.49263686 0.04784438 -0.10049868
0.5194118 0.047939613 -0.096371651
-0.76485002 0.074184112 -0.095024586
-0.73669231 0.073915988 -0.10373414
-0.0045611616 0.073788345 -0.10787976
0.021553326 0.073883742 -0.10478055
0.047705948 0.073940925 -0.10292566
0.073882058 0.073987842 -0.10140002
0.10008171 0.074034818 -0.099872708
0.12632872 0.074105725 -0.097570181
0.15227684 0.073909126 -0.10395443
0.17819627 0.073758997 -0.108832
0.54347104 0.073713861 -0.11029625
0.57020056 0.073834702 -0.10637653
0.59701061 0.073958948 -0.1023376
0.6241653 0.07413245 -0.096703768
-0.71163219 0.10025639 -0.098694444
-0.68411708 0.10001019 -0.10509253
-0.65677857 0.099778883 -0.11110103
0.021553326 0.099825971 -0.10987544
0.047677126 0.099949382 -0.10667002
0.073850088 0.10007229 -0.10347688
0.10006428 0.10018212 -0.10062718
0.1263361 0.10030889 -0.09733057
0.17878968 0.10036059 -0.09598434
0.20487948 0.10027758 -0.09814167
0.23083884 0.10013375 -0.10187805
0.25674251 0.099990942 -0.10558796
0.28259107 0.099849351 -0.10927153
0.30857399 0.099794395 -0.11069882
0.62194014 0.099849351 -0.10927153
0.64882952 0.10001308 -0.10501909
0.6763925 0.10029828 -0.097607017
0.15265681 0.10043397 -0.094082952
-0.65948308 0.12649274 -0.097588658
-0.63247097 0.12629615 -0.10184133
-0.60555679 0.12610792 -0.10591805
-0.57895988 0.12598617 -0.10855746
-0.55505806 0.12658809 -0.095522881
-0.52704942 0.12607415 -0.10665178
-0.50092548 0.12607415 -0.10665178
-0.47480154 0.12607415 -0.10665178
-0.4486776 0.12607415 -0.10665178
-0.42255366 0.12607415 -0.10665178
-0.39687735 0.12624186 -0.10301769
-0.26539144 0.1258457 -0.11159468
-0.23940833 0.12590741 -0.11025989
-0.21338825 0.12595817 -0.10916162
-0.1873513 0.12600888 -0.10806274
-0.16129747 0.12605977 -0.10696328
-0.13522674 0.12611048 -0.10586321
-0.10913488 0.12615629 -0.10487247
-0.083063394 0.12625547 -0.10272372
-0.056960169 0.12635729 -0.10051692
-0.030823022 0.12645943 -0.09830749
-0.0046521649 0.12656337 -0.096058011
0.021553326 0.12667853 -0.093565583
0.30988404 0.12660182 -0.095227718
0.33594257 0.12652488 -0.096887946
0.36183742 0.12638468 -0.099927902
0.387696 0.12624867 -0.10287058
0.41367725 0.12617987 -0.10435843
0.44011077 0.12628944 -0.10198843
0.5192284 0.12649085 -0.097625613
0.54471332 0.12627846 -0.10222745
0.57027173 0.12610696 -0.10593653
0.59718817 0.12632164 -0.10128951
0.62367916 0.12640677 -0.099449396
0.65038967 0.12653944 -0.096574545
-0.31904235 0.15272826 -0.096814394
-0.29297221 0.15280369 -0.095412254
0.59820539 0.15281071 -0.095283031
0.62361073 0.15256518 -0.099835992
-0.29409632 -0.16219035 -0.083243251
-0.26738039 -0.16200317 -0.088106513
-0.24095114 -0.16192189 -0.090218186
-0.21454945 -0.16183782 -0.092401266
-0.030954123 -0.16193824 -0.08979249
-0.0047362242 -0.16211727 -0.08513844
0.021553326 -0.16239598 -0.077900052
-0.37333956 -0.13597436 -0.080378413
-0.34643435 -0.135809 -0.085750937
-0.31955987 -0.13562746 -0.091643095
0.07415273 -0.13586837 -0.083819509
-0.42597246 -0.10964474 -0.080527186
-0.39858606 -0.10944568 -0.089144349
-0.37185735 -0.10935173 -0.093214631
0.12683804 -0.10963319 -0.081029892
-0.81998223 -0.083265513 -0.084042668
-0.79368424 -0.083265513 -0.084042668
-0.76738626 -0.083265513 -0.084042668
-0.74108827 -0.083265513 -0.084042668
-0.47895771 -0.083354943 -0.078235865
-0.45173579 -0.083257258 -0.084581256
-0.42494422 -0.083198734 -0.088384628
-0.39821452 -0.083140545 -0.09216094
0.15284619 -0.083186738 -0.089162588
0.17969905 -0.083384901 -0.076295733
-0.50540376 -0.05701739 -0.077564597
-0.47847557 -0.056986872 -0.081532359
-0.45150685 -0.056950722 -0.086233377
-0.42456618 -0.056911893 -0.091273069
0.17897396 -0.056906369 -0.091994643
0.20562021 -0.056964949 -0.084395289
-0.71460217 -0.030669628 -0.0849154
-0.68816036 -0.030669572 -0.085639477
-0.66172981 -0.030669628 -0.086363316
-0.63540685 -0.030669628 -0.086585879
-0.60903591 -0.030669572 -0.087086678
-0.58320498 -0.030669628 -0.084581256
-0.55711883 -0.030669684 -0.083354831
-0.50514543 -0.030669628 -0.07924211
-0.47795627 -0.030669628 -0.085082531
-0.45071882 -0.030669572 -0.091920495
0.23179999 -0.030669628 -0.086270571
0.25879002 -0.030669628 -0.076034546
-0.53105605 -0.030669516 -0.081867218
0.23144181 -0.0044335555 -0.092086911
0.25802946 -0.0043945592 -0.087012649
0.28497016 -0.0043279473 -0.07836616
0.25772014 0.021811889 -0.091476679
0.28388688 0.021797104 -0.092438459
0.31055927 0.021876993 -0.08725369
0.33710003 0.021921569 -0.084358335
0.363509 0.021939034 -0.083224893
0.39005184 0.02197312 -0.081011415
0.41665274 0.022010388 -0.078590035
0.44332585 0.022052063 -0.075885296
0.49556416 0.021998281 -0.079372764
-0.79321897 0.048179284 -0.085992098
0.54647678 0.048068881 -0.090773463
0.57360089 0.048194349 -0.085342526
0.60112405 0.048362777 -0.078049302
0.65171456 0.07435739 -0.08940351
0.67955053 0.074609838 -0.081197381
-0.76763517 0.10086197 -0.08296454
-0.73939562 0.10052853 -0.091624618
0.70420951 0.10061049 -0.089496017
0.73211682 0.10091626 -0.081551075
-0.7419312 0.12729277 -0.080266714
-0.7147823 0.12711658 -0.084079504
-0.68709713 0.12680829 -0.090754986
0.04779736 0.12679462 -0.091050982
0.074080169 0.126911 -0.088532805
0.10040654 0.12703685 -0.085806727
0.1267819 0.12717332 -0.08285296
0.15320364 0.12731066 -0.079875469
0.17950962 0.12728669 -0.080396891
0.20571736 0.12718537 -0.082592607
0.23183544 0.12704194 -0.085695267
0.25787276 0.12687662 -0.08927381
0.28382573 0.12669381 -0.09323287
0.4683761 0.1270325 -0.085899353
0.49366924 0.1267024 -0.093048334
0.67723072 0.12669297 -0.093251586
0.70438743 0.12690748 -0.088606834
0.73216325 0.12724377 -0.081327677
-0.71580088 0.15366903 -0.079353929
-0.68837649 0.15338629 -0.084599614
-0.66113985 0.15313245 -0.089310884
-0.63465434 0.15306851 -0.090495825
-0.60816336 0.15299772 -0.09180963
-0.58291245 0.15329814 -0.086233497
-0.55598783 0.15309346 -0.090033054
-0.52973294 0.1530925 -0.090051532
-0.50581753 0.15391026 -0.074876904
-0.47729722 0.15311749 -0.089588642
-0.45167917 0.15336525 -0.084989667
-0.42670703 0.15390809 -0.074914098
-0.39847434 0.1530925 -0.090051532
-0.37223327 0.15309753 -0.089959025
-0.34698728 0.15360075 -0.080620527
-0.26695254 0.15292509 -0.09315908
-0.24089842 0.15304665 -0.090903163
-0.21475585 0.15312631 -0.089421988
-0.18850042 0.15312743 -0.08940351
-0.16223972 0.15312341 -0.089477658
-0.13598014 0.15311934 -0.089551687
-0.10976449 0.15317546 -0.088514209
-0.083560303 0.15327913 -0.086585879
-0.057335917 0.15340537 -0.084246755
-0.031075563 0.15353146 -0.081904531
-0.0047786012 0.15365396 -0.079633474
0.021553326 0.15379356 -0.077042222
0.28517839 0.15386792 -0.075661063
0.3113229 0.15372923 -0.078235626
0.33746594 0.15361269 -0.080396891
0.36347368 0.15344141 -0.083577871
0.38944504 0.15327622 -0.08664155
0.41554746 0.15319416 -0.088162065
0.52229899 0.15381564 -0.076631784
0.54728717 0.1533372 -0.085509658
0.57273489 0.15305775 -0.090699553
0.67949325 0.15355349 -0.081495285
0.70660877 0.15376839 -0.077508688
-0.47943532 0.18027298 -0.074970126
-0.29468983 0.18015911 -0.076818347
0.62647945 0.17973946 -0.08363378
0.65193021 0.17945604 -0.088236213
-0.24326284 -0.18955934 -0.060188055
-0.21649835 -0.18937071 -0.064271569
-0.18989894 -0.1892588 -0.066694498
-0.16341484 -0.18921378 -0.067670226
-0.13696222 -0.1891851 -0.068289161
-0.11058339 -0.18923363 -0.067238569
-0.084228888 -0.18934299 -0.06487298
-0.057841953 -0.18946008 -0.062334538
-0.031447932 -0.18967342 -0.057718396
-0.34932134 -0.16312481 -0.05896306
-0.32169634 -0.16268872 -0.07029438
0.047973882 -0.16277228 -0.06812036
0.074573189 -0.16321921 -0.056510329
-0.40100703 -0.13630965 -0.069488764
0.10071336 -0.13621627 -0.072521687
-0.48216844 -0.11020464 -0.056283951
-0.45340425 -0.10982918 -0.072540283
0.15373121 -0.10997641 -0.066168904
-0.50683761 -0.083508641 -0.06825161
0.20690738 -0.083627805 -0.06050849
-0.7469523 -0.057169806 -0.057774901
-0.72083455 -0.057183422 -0.05600071
-0.694305 -0.057182916 -0.056076288
-0.56158513 -0.05717583 -0.056982398
-0.53306317 -0.05707993 -0.069451213
0.2328485 -0.057081491 -0.069244981
0.28654656 -0.030669628 -0.05788815
0.31241307 -0.0042278059 -0.065361381
0.33967251 -0.0041596312 -0.056510448
0.47006807 0.022096859 -0.07297051
0.52278799 0.022091949 -0.073288321
0.55118859 0.022293909 -0.06016922
0.62894076 0.04855486 -0.069732308
0.65699387 0.048760332 -0.060828567
-0.80011028 0.075351447 -0.05711472
0.70761436 0.074878238 -0.072484136
0.73601311 0.075176321 -0.062804699
-0.79708135 0.10136827 -0.069807172
0.76088458 0.10135382 -0.070181847
0.78952026 0.10173853 -0.060188055
-0.80024993 0.12838924 -0.056529403
-0.77016354 0.1276738 -0.072016597
0.76002967 0.12757534 -0.074148059
0.78975582 0.12826885 -0.059132695
-0.77239949 0.15458599 -0.062334538
-0.74376047 0.15406135 -0.072072744
0.047925323 0.15393436 -0.074428558
0.07433705 0.15407334 -0.071848035
0.10079421 0.15422565 -0.069020152
0.1273049 0.15439558 -0.065868258
0.15386502 0.1545669 -0.062692046
0.18029089 0.15452422 -0.063482165
0.20660642 0.15438353 -0.066093922
0.23287043 0.15423301 -0.068888903
0.25906709 0.15406334 -0.072035193
0.44436771 0.15431173 -0.067426205
0.47018066 0.15405917 -0.072109938
0.49793026 0.15458816 -0.062296987
0.65451229 0.15394346 -0.074260354
0.73406357 0.15405531 -0.072184801
0.76188713 0.15441392 -0.065530419
-0.69355214 0.18121353 -0.059698224
-0.66592205 0.1808612 -0.065417647
-0.63847733 0.18054016 -0.070631504
-0.61362976 0.18105815 -0.062221646
-0.58521765 0.18038122 -0.073213458
-0.56131679 0.18128316 -0.058567286
-0.45362461 0.18052062 -0.070949554
-0.42907345 0.18139011 -0.056831479
-0.40266135 0.18143764 -0.056057334
-0.37586901 0.18128906 -0.058472872
-0.34779158 0.18038455 -0.07315743
-0.32268506 0.18116935 -0.060414195
-0.26858768 0.18034203 -0.073849201
-0.24236672 0.18046652 -0.071829438
-0.21609662 0.18057474 -0.070069432
-0.18974416 0.18062791 -0.069207549
-0.16334814 0.18064639 -0.068907619
-0.13693103 0.18064292 -0.068964005
-0.11051553 0.18064058 -0.069001436
-0.084151998 0.180741 -0.067370057
-0.057792451 0.18091924 -0.064478278
-0.031381786 0.18107082 -0.062014818
-0.0049333684 0.18122385 -0.059528708
0.28662792 0.18139011 -0.056831479
0.33903542 0.1809853 -0.063406825
0.36510879 0.18074919 -0.067238569
0.39128757 0.18060717 -0.069545031
0.52431858 0.18102105 -0.062823772
0.54996443 0.18069489 -0.068120122
0.57792628 0.18128191 -0.05858624
0.60340643 0.18091327 -0.064572334
0.70961571 0.18104185 -0.062485099
0.73690957 0.1812879 -0.058491707
-0.61475474 0.2079459 -0.056132793
-0.58822852 0.20794065 -0.056208491
-0.56167471 0.20792376 -0.056453943
-0.34961823 0.20794065 -0.056208491
-0.32311353 0.2079459 -0.056132793
-0.29657105 0.20792376 -0.056453943
0.63087082 0.20775895 -0.058831215
0.65495104 0.20685455 -0.071885705
0.68239945 0.20723498 -0.066393971
0.6837461 0.23420748 -0.059396744
-0.29764029 -0.1902664 -0.04487884
-0.27026546 -0.18984352 -0.054035306
-0.0049846824 -0.18989764 -0.052862883
0.021553326 -0.19014189 -0.047575712
0.048208367 -0.19059992 -0.037659764
-0.37730923 -0.16362375 -0.046000123
0.10140224 -0.16375117 -0.042691588
-0.42953339 -0.13680764 -0.053316832
0.12764888 -0.13676524 -0.054696918
0.15480134 -0.13726801 -0.03836596
-0.83009344 -0.11051148 -0.042996049
-0.80347949 -0.11051148 -0.042996049
-0.77686554 -0.11051148 -0.042996049
-0.75025159 -0.11051148 -0.042996049
0.18090031 -0.11034305 -0.050287604
-0.536057 -0.083775423 -0.050931811
0.23440994 -0.08388377 -0.043890238
-0.66790515 -0.057187155 -0.055509567
-0.64142752 -0.057188772 -0.055301785
-0.61524355 -0.057202831 -0.053486943
-0.58922648 -0.057225317 -0.050571799
0.26053837 -0.057223417 -0.050799251
0.31440684 -0.030669628 -0.041815996
0.36652663 -0.0041331872 -0.053071022
0.39345694 -0.0041051246 -0.049415827
0.42044443 -0.0040767286 -0.045753121
0.44739079 -0.0040547475 -0.042881846
0.47278863 -0.0041262694 -0.052181602
0.49962842 -0.0041099787 -0.050041318
0.52681261 -0.0040769503 -0.045772076
0.57850921 0.022373797 -0.054980397
0.60640061 0.022498319 -0.046892524
0.63450104 0.022630261 -0.038327813
0.68516016 0.048963234 -0.052049041
0.71349734 0.049170107 -0.043091059
0.7648052 0.07550922 -0.051992297
0.79417896 0.075899519 -0.039319754
-0.82941431 0.10229409 -0.045753121
0.81940132 0.10230497 -0.045467973
-0.82802659 0.12862663 -0.051386476
0.82008213 0.12903617 -0.042520285
-0.8021149 0.15532006 -0.048714161
0.7922172 0.1553528 -0.048107147
-0.74985248 0.18213205 -0.04478395
-0.72125 0.18156004 -0.054073095
0.021553326 0.1814831 -0.055320621
0.048100952 0.18171151 -0.051613569
0.07469672 0.18190393 -0.04848671
0.10132453 0.18205371 -0.046056986
0.12795588 0.18213567 -0.044726849
0.15468249 0.18233703 -0.041453958
0.18124676 0.18225507 -0.042786717
0.20768918 0.18205707 -0.045999885
0.2340755 0.18185265 -0.049321055
0.26038361 0.18162392 -0.053032994
0.31352112 0.18167056 -0.052276015
0.42040056 0.18204898 -0.046132922
0.44808102 0.18259424 -0.037277818
0.7652666 0.18182002 -0.049851775
-0.67100048 0.20906062 -0.040044069
-0.64342242 0.20872171 -0.044935703
-0.53568679 0.20814759 -0.05322206
-0.4823342 0.20801385 -0.055150628
-0.45585829 0.20803617 -0.054829359
-0.43155238 0.20920998 -0.037888885
-0.40443888 0.20895112 -0.041625619
-0.37639448 0.2080991 -0.053921938
-0.27018863 0.20802836 -0.054942727
-0.2441753 0.20848611 -0.048334956
-0.21778922 0.2086729 -0.045639038
-0.1914416 0.20894966 -0.041644454
-0.16487163 0.20901968 -0.04063499
-0.13828969 0.20909499 -0.039548278
-0.11169177 0.20917159 -0.038442135
0.34095779 0.20888372 -0.04259634
0.36712024 0.20856912 -0.047139406
0.4747465 0.20925617 -0.037220716
0.52650714 0.20851913 -0.047860622
0.55251747 0.20826435 -0.051537871
0.58028048 0.2087848 -0.044023395
0.60609215 0.20845978 -0.048714161
0.71278208 0.20860182 -0.046664715
0.74100548 0.20914772 -0.038785696
-0.61791736 0.2357766 -0.039014697
-0.59126598 0.23577359 -0.039052606
-0.51143289 0.23582357 -0.038404107
-0.48493713 0.23590437 -0.037354469
-0.4582718 0.2358999 -0.037411809
-0.43160984 0.23589689 -0.037449718
-0.40448111 0.23560193 -0.041282654
-0.32483235 0.23578084 -0.038957357
-0.27165049 0.2358793 -0.037679076
0.58066195 0.23557264 -0.041663527
0.60619491 0.23507649 -0.048107147
0.63226271 0.23485619 -0.050969601
0.657987 0.23451108 -0.055452824
0.66106629 0.26244041 -0.038785577
0.68700498 0.26212898 -0.042463183
-0.24599852 -0.21795584 -0.024650931
-0.032002382 -0.21811461 -0.021705866
-0.21904764 -0.2178036 -0.027475476
-0.19222319 -0.21772404 -0.028953195
-0.16543292 -0.21765581 -0.030219078
-0.13866042 -0.21758562 -0.031521916
-0.11199132 -0.2176321 -0.030659676
-0.085338473 -0.21773024 -0.028838038
-0.058657195 -0.21782747 -0.027033806
-0.35343006 -0.19137678 -0.020838737
-0.3252987 -0.19075523 -0.034297109
0.075027302 -0.19109148 -0.027014732
-0.40563142 -0.1641649 -0.031943202
-0.45839617 -0.13732514 -0.036514044
0.18221332 -0.13777626 -0.021859884
-0.54096848 -0.11102982 -0.020549774
-0.51178271 -0.11067004 -0.036132097
0.2083229 -0.11071361 -0.034239769
-0.72862959 -0.084254041 -0.019836307
-0.70182931 -0.084253483 -0.019874811
-0.6750142 -0.084251642 -0.019990683
-0.56647509 -0.084126785 -0.028108835
0.26231802 -0.084172815 -0.025112271
0.28855562 -0.05736981 -0.031789899
0.34226063 -0.030669628 -0.028492808
0.36962688 -0.030669628 -0.02209115
0.55482167 -0.004006099 -0.036571503
0.58370465 -0.0039004888 -0.022842169
0.66275883 0.022764267 -0.029624581
0.69130015 0.022910213 -0.020144701
0.74235201 0.049419038 -0.032307029
0.7716822 0.049701273 -0.020086884
-0.83217037 0.076045744 -0.034564853
0.82447988 0.076387338 -0.023477316
0.85016173 0.10297684 -0.028012991
0.85237998 0.13013551 -0.018717408
0.82223737 0.15615661 -0.033187628
-0.83484948 0.15666848 -0.023688912
0.8522234 0.15690108 -0.019373536
-0.8079446 0.18339445 -0.024285436
-0.77832276 0.1826307 -0.036686063
-0.54125845 0.18373486 -0.01875627
-0.51445496 0.1837337 -0.018775463
0.69040704 0.18336348 -0.024785399
0.7947498 0.18262595 -0.036762595
0.82550782 0.18371813 -0.019026279
-0.75484961 0.21028313 -0.022399306
-0.7266438 0.20982243 -0.029049158
-0.69858533 0.20937656 -0.035482526
-0.5142352 0.21043521 -0.020202756
-0.085105643 0.20931296 -0.036399484
-0.058518615 0.20954622 -0.033034444
-0.031879876 0.20977992 -0.029662848
-0.0051171519 0.20936485 -0.035654426
0.021553326 0.20961261 -0.032077312
0.048278786 0.20985958 -0.028512001
0.075062215 0.21012029 -0.024746895
0.10188912 0.2103377 -0.021609545
0.12870865 0.21042986 -0.020279765
0.15553905 0.21050462 -0.019199848
0.18224981 0.21037507 -0.021070123
0.20885414 0.21014579 -0.024381399
0.23537236 0.20987688 -0.028262258
0.26188588 0.20966303 -0.031349421
0.28845242 0.20953952 -0.033130169
0.31512451 0.20952502 -0.033340693
0.39613628 0.21013373 -0.024554491
0.42233777 0.209801 -0.029356241
0.44839165 0.20942688 -0.034756184
0.50278717 0.20994729 -0.027244925
0.76958513 0.20976926 -0.02981627
-0.6479634 0.2371372 -0.021339774
-0.5383445 0.23594847 -0.036781549
-0.38001886 0.23704526 -0.022534013
-0.35309803 0.23693863 -0.023919821
-0.24589787 0.23678169 -0.025957942
-0.21909954 0.23672256 -0.026726484
-0.19246565 0.23685411 -0.025016069
-0.16578686 0.23695922 -0.023650527
-0.13907465 0.2370438 -0.022553325
-0.11234559 0.23712814 -0.021455526
-0.085627541 0.23728257 -0.019450545
0.31614563 0.23714155 -0.021281958
0.34267065 0.23692819 -0.024054527
0.36901891 0.23661169 -0.028166533
0.47701141 0.23724705 -0.019913435
0.50318664 0.23690438 -0.024362326
0.52909863 0.23645958 -0.030142069
0.55508941 0.23609844 -0.034832716
0.71701109 0.23681411 -0.025535107
-0.62111521 0.26388687 -0.021705866
-0.59433389 0.26388523 -0.021725059
-0.48760939 0.26410872 -0.019083977
-0.46068308 0.2640304 -0.020009875
-0.43387949 0.26402226 -0.020106196
-0.32656455 0.2638917 -0.021648169
-0.27277648 0.26366019 -0.024381518
-0.24630679 0.26397651 -0.020646095
0.63785696 0.26408428 -0.019373536
0.66418976 0.29064864 -0.021879315
-0.30161533 -0.21918467 -0.0018479824
-0.27366847 -0.218538 -0.013847947
-0.0052671544 -0.21841298 -0.016168356
0.021553326 -0.21871123 -0.010632753
0.048489898 -0.21922562 -0.0010877848
-0.38194901 -0.19207051 -0.0058182478
0.10216366 -0.19189031 -0.0097211599
-0.43456942 -0.16482338 -0.014834523
0.15603167 -0.16514796 -0.0064014196
-0.51712108 -0.13840455 -0.0014580488
-0.48778152 -0.13789809 -0.017906785
0.20998336 -0.1383439 -0.0034253597
-0.57115364 -0.11149332 -0.00048327446
0.2360006 -0.11108723 -0.01806128
-0.64972198 -0.084371537 -0.012202382
-0.62307501 -0.084388606 -0.011097789
-0.5950954 -0.084291309 -0.017424107
0.29054892 -0.084468774 -0.0058959723
0.31679478 -0.057509728 -0.013615727
0.3972005 -0.030669628 -0.01467967
0.42449978 -0.030669572 -0.010632634
0.45175961 -0.030669684 -0.0074114799
0.47910038 -0.030669572 -0.0039508343
0.50644672 -0.030669628 -0.00083422661
0.61207885 -0.0038275179 -0.013363838
0.64071512 -0.0037495233 -0.003230691
0.71998996 0.023056434 -0.010652065
0.74891776 0.023209298 -0.0007172823
-0.84058988 0.0501564 -0.00038599968
0.80140197 0.05000449 -0.0069648027
0.85539329 0.076922528 -0.0060902834
0.88161194 0.10371459 -0.0088483095
0.88210946 0.13068469 -0.0068286657
0.8838551 0.15795882 0.00025784969
0.47915897 0.18467435 -0.0035032034
0.50541431 0.18437974 -0.0082855225
-0.78395921 0.21098424 -0.012279749
0.80002087 0.21092382 -0.01315105
-0.73172653 0.23835903 -0.0054681301
-0.70364147 0.23792103 -0.011155963
-0.67586434 0.23756787 -0.015743136
-0.058911692 0.23754713 -0.016013861
-0.032143332 0.23781368 -0.012550712
-0.0053217132 0.23808074 -0.0090810061
0.021553326 0.23836493 -0.0053904057
0.04847835 0.23858061 -0.0025880337
0.075438179 0.23875463 -0.00032746792
0.15620993 0.23864371 -0.0017700195
0.18304591 0.23848471 -0.0038341284
0.20984186 0.23831412 -0.006051302
0.23668757 0.23824811 -0.0069065094
0.26355916 0.2382257 -0.0071978569
0.28989807 0.23767522 -0.01435101
0.3979629 0.23819444 -0.0076056719
0.74829829 0.23849514 -0.0036978722
0.77433062 0.23817939 -0.0077998638
-0.57017112 0.26519272 -0.0062847137
-0.5148176 0.26433435 -0.01641953
-0.40870559 0.26513347 -0.0069841146
-0.38203213 0.26529309 -0.0050988197
-0.35553765 0.26561615 -0.0012828112
-0.21979086 0.26430672 -0.016748071
-0.19314152 0.26453584 -0.014041305
-0.16628277 0.26450148 -0.01444757
-0.13946782 0.26453584 -0.014041305
-0.11264659 0.26457015 -0.013635039
-0.085834026 0.26464564 -0.012744427
-0.05901492 0.26474735 -0.011543632
-0.032179136 0.26485893 -0.010225654
-0.0053236559 0.26497725 -0.00882864
0.021553326 0.26517782 -0.0064595938
0.048466958 0.26538032 -0.0040675402
0.075417168 0.26558158 -0.0016918182
0.2370639 0.2656574 -0.00079536438
0.26387316 0.26549911 -0.0026659966
0.29056987 0.26524863 -0.0056236982
0.31725439 0.26503149 -0.0081881285
0.34392124 0.26483417 -0.010516286
0.50537664 0.2650004 -0.0085570812
0.53158379 0.26461127 -0.01315093
0.55781424 0.26427391 -0.017134309
0.5860045 0.26499534 -0.0086151361
0.61176765 0.26443744 -0.015201807
0.72042477 0.26500681 -0.0084793568
0.74895018 0.26567718 -0.00056147575
-0.59743267 0.29227957 -0.0042233467
-0.5163421 0.29206774 -0.0065178871
-0.49019021 0.29253677 -0.0014387369
-0.43566287 0.29207113 -0.0064787865
-0.40935019 0.29250804 -0.0017505884
-0.35522074 0.29227957 -0.0042233467
-0.32831609 0.29228675 -0.004145503
-0.27404091 0.29179695 -0.0094497204
-0.24731664 0.29197434 -0.0075280666
-0.22053464 0.29211432 -0.0060126781
-0.19373897 0.29226881 -0.004340291
-0.16692393 0.29243416 -0.0025491714
-0.14007691 0.29259089 -0.00085389614
0.55977207 0.29226172 -0.0044177771
0.58602649 0.29188636 -0.0084793568
0.64080817 0.2924197 -0.0027047396
0.64128441 0.31961301 -1.5377998e-05
0.66732961 0.31912586 -0.0048848391
-0.24920456 -0.24727595 0.016997099
-0.22188479 -0.24705899 0.01347518
-0.19467403 -0.24689697 0.010843396
-0.16759379 -0.24683766 0.0098818541
-0.14052477 -0.24677379 0.0088425875
-0.11354345 -0.24682444 0.0096663237
-0.086588755 -0.24695377 0.011766076
-0.059599515 -0.24707727 0.013769984
-0.32973361 -0.21982412 0.010019183
0.075649776 -0.22000717 0.013416171
-0.41081193 -0.1928066 0.010117412
0.1296235 -0.19277486 0.0094308853
-0.46378624 -0.16548622 0.0023854971
0.18391895 -0.16597436 0.015068054
-0.81392252 -0.13847294 0.00076496601
-0.78697169 -0.13847294 0.00076496601
-0.76002091 -0.13847294 0.00076496601
-0.54699367 -0.13896418 0.016721249
0.23822635 -0.13900612 0.018080473
0.26433548 -0.11159703 0.0040073395
0.31946877 -0.084836088 0.017962456
0.34505713 -0.057628281 0.0017800331
0.37336719 -0.057732217 0.015284419
0.39985815 -0.057691321 0.0099799633
0.4270567 -0.057703204 0.01151073
0.45444843 -0.057725523 0.01441884
0.48189074 -0.057748228 0.017371178
0.53405052 -0.030669628 0.0037140846
0.56181669 -0.030669572 0.0088621378
0.58987123 -0.030669572 0.015304089
0.66962314 -0.0036666766 0.0075296164
0.69852006 -0.0035909154 0.017371297
0.77842098 0.0233924 0.011176944
0.83177185 0.050352164 0.0080977678
0.88699484 0.077510543 0.013003469
-0.84347212 0.1855868 0.011314392
0.85782629 0.18514282 0.0041048527
-0.81549013 0.21234299 0.0073339939
0.83155918 0.21233211 0.0071771145
-0.76097608 0.23916814 0.005043745
0.10240403 0.2388328 0.00068700314
0.12935306 0.23882967 0.00064778328
0.42695016 0.23959488 0.010588288
0.80493081 0.23946065 0.0088424683
0.10239817 0.26576155 0.00043320656
0.12941258 0.26594341 0.0025807619
0.15643907 0.26607898 0.004183054
0.18334401 0.2659466 0.0026195049
0.21022704 0.26581773 0.0010968447
0.39981166 0.26653329 0.0095485449
0.427279 0.26686248 0.01343596
0.77819681 0.26658309 0.010137081
-0.57233489 0.2932694 0.0064917803
-0.38384119 0.29364607 0.0105685
-0.11319935 0.29273677 0.00072586536
0.3456009 0.293378 0.0076668262
0.4809517 0.29361171 0.010195851
0.50733173 0.2931827 0.0055522919
0.61525595 0.29316819 0.0053958893
0.72393888 0.29350832 0.0090779066
0.7521987 0.29406154 0.015067935
-0.5735209 0.32096529 0.013494849
-0.54656422 0.32102221 0.014065027
-0.52022028 0.32148328 0.01867187
-0.41124731 0.32098091 0.013651967
-0.38417912 0.32096529 0.013494849
-0.35713452 0.32096907 0.013534188
0.58890909 0.32055062 0.0093524456
0.61679071 0.3210617 0.014458179
-0.27747586 -0.24814542 0.031115413
-0.032631628 -0.24740939 0.019164562
-0.0055846144 -0.24777308 0.025070667
0.021553326 -0.24816991 0.031512737
-0.35834798 -0.22062023 0.024793625
0.10311225 -0.22097372 0.031353831
-0.4400585 -0.19359139 0.027109742
0.15755291 -0.19386917 0.033121824
-0.49337971 -0.16617827 0.020367861
0.21215108 -0.16681087 0.036802769
-0.73739749 -0.11198583 0.020841599
-0.71028388 -0.11198488 0.02080214
-0.68317485 -0.11198443 0.020782471
-0.65862441 -0.11229088 0.034056187
-0.63074571 -0.11220708 0.030420899
-0.6019789 -0.11199994 0.021453619
0.2933217 -0.11220017 0.030123234
0.50940925 -0.057772778 0.020545721
0.53707296 -0.05780223 0.024378181
0.5648824 -0.057836041 0.028774261
0.59294766 -0.057878777 0.03433466
0.6182732 -0.030669572 0.023211837
0.64655381 -0.030669684 0.029746175
0.67498362 -0.030669516 0.036543727
0.72762722 -0.0035129786 0.027505755
0.80893809 0.023632793 0.026792884
0.86319792 0.050779961 0.026614666
0.91659802 0.10494318 0.023073435
0.91593581 0.13194536 0.020466685
0.86460853 0.21408831 0.032525659
-0.57517993 0.24057287 0.023290753
0.45703375 0.24150571 0.035409093
0.83590174 0.24077994 0.025981069
-0.54971564 0.26856664 0.033559084
0.80905747 0.26803902 0.027327657
-0.55030763 0.29610807 0.037220955
0.40187511 0.29532054 0.028695226
0.42825267 0.29468989 0.021868467
0.45619947 0.29531506 0.02863574
0.45689896 0.32304874 0.034314752
0.48411325 0.3230527 0.034354448
-0.54936558 0.34994289 0.031393647
-0.52217895 0.34994289 0.031393647
-0.49498361 0.34993654 0.031333923
-0.4678002 0.34993872 0.031353712
-0.4406139 0.34993872 0.031353712
-0.41343248 0.34994289 0.031393647
-0.38624817 0.34994519 0.031413317
0.53890473 0.35053667 0.036902308
0.56536812 0.35000083 0.031929851
0.59176373 0.34947053 0.027010798
0.61808914 0.34894407 0.022125125
-0.17006412 -0.27703491 0.055725217
-0.14262792 -0.27694151 0.054376841
-0.11527599 -0.27696237 0.054678679
-0.087952897 -0.27705854 0.056067467
-0.33437613 -0.24970306 0.056409717
-0.30577922 -0.24889138 0.043227673
0.048803061 -0.24866755 0.039593339
0.076310769 -0.24969938 0.056349397
-0.41626579 -0.22221552 0.054397106
-0.38712591 -0.22138654 0.039014935
0.13088745 -0.22200435 0.050478816
-0.46942887 -0.19433044 0.043107867
0.18576616 -0.19488247 0.055061102
-0.82497269 -0.16720597 0.047069907
-0.79766536 -0.16720597 0.047069907
-0.77035809 -0.16720597 0.047069907
-0.52334923 -0.16689523 0.038994908
-0.57778209 -0.13963972 0.038655996
0.26705828 -0.13978288 0.043307662
0.34887299 -0.085222878 0.043087721
0.40438944 -0.085360512 0.052024961
0.43201807 -0.085398227 0.054477572
0.62132466 -0.057931997 0.041229963
0.65032768 -0.05800759 0.051060915
0.70357311 -0.030669628 0.043627501
0.73228943 -0.030669628 0.050799966
0.7571677 -0.0034245513 0.038975
0.78704369 -0.0033305455 0.051181436
-0.85134828 0.023886802 0.043287635
0.8401202 0.023901476 0.044247508
0.89560378 0.051272519 0.047951698
0.92261249 0.078549564 0.046749473
0.92215478 0.16036709 0.044947743
0.86916596 0.24275377 0.051623225
0.48586643 0.26976827 0.047751069
-0.47056708 0.29741073 0.051321983
0.54159009 0.2977747 0.055262327
-0.49770457 0.32461196 0.049936891
-0.44314298 0.32468644 0.050679564
0.43026942 0.32355112 0.039334059
0.51196563 0.32351699 0.038995028
0.56837237 0.32476282 0.051442623
-0.47102103 0.32507858 0.054598212
0.48575893 0.35161743 0.046929598
0.51236665 0.35107425 0.041888952
-0.25311881 -0.27787465 0.067844868
-0.22520168 -0.27742457 0.061350584
-0.1975385 -0.27714792 0.057356596
-0.060627509 -0.2772122 0.058283567
-0.033339325 -0.27768651 0.065131068
-0.0059526395 -0.27822328 0.07287848
-0.36340317 -0.2506448 0.071699977
-0.44569191 -0.22306475 0.070157051
-0.49952459 -0.19522054 0.06238091
-0.5539636 -0.16769741 0.059836507
0.24073452 -0.16765787 0.058807969
-0.74704844 -0.14046992 0.065616846
-0.71959418 -0.14046931 0.065596461
-0.69354892 -0.14068532 0.072614312
-0.60938978 -0.14039885 0.063310385
0.29638943 -0.14060399 0.069974303
0.32274318 -0.11281229 0.056631207
0.37772277 -0.085464947 0.05880785
0.45985365 -0.085457191 0.058303833
0.48763821 -0.085503049 0.061289907
0.51555353 -0.085558563 0.06488812
0.54367071 -0.085629299 0.069487333
0.57185107 -0.085699372 0.074037433
0.67968607 -0.058091778 0.061996818
0.7094568 -0.058185726 0.074200153
0.79220259 -0.030669628 0.0751158
0.76124382 -0.030669516 0.058586001
0.81774986 -0.0032146163 0.066264629
0.87208045 0.024203183 0.063836336
0.90085888 0.21663514 0.06928432
0.45998278 0.27075067 0.059352517
0.5419082 0.32536271 0.057437181
-0.31043699 -0.2796624 0.093649268
-0.2817196 -0.27880201 0.081231356
0.021553326 -0.27876091 0.080639243
0.049183615 -0.27934229 0.089028716
-0.39268085 -0.2515946 0.087122321
0.10412946 -0.25087276 0.07540071
-0.4759084 -0.22412691 0.089869976
0.15936379 -0.22360425 0.080169797
-0.53033024 -0.19623479 0.084338069
0.21454297 -0.19608924 0.081190586
-0.585536 -0.16864438 0.084440351
0.27000588 -0.16869873 0.085852504
-0.66746366 -0.14091238 0.079986215
-0.63925141 -0.14080365 0.076459289
0.35253808 -0.11341576 0.082763672
0.60040021 -0.085797898 0.080435395
0.62921482 -0.085911594 0.087819099
0.73976028 -0.058292955 0.088126659
-0.86336434 -0.0030159503 0.092066646
0.84766746 -0.0031324383 0.0769279
0.90535903 0.024568157 0.087552547
0.93286341 0.052176751 0.087101817
-0.20070951 -0.30849814 0.10884738
-0.17282391 -0.30835137 0.10694051
-0.14499643 -0.30825254 0.10565686
-0.11724372 -0.30826366 0.10580158
-0.089539781 -0.30840245 0.10760367
-0.061828773 -0.30860981 0.11029947
-0.33967772 -0.28075263 0.10938668
0.077063538 -0.2804656 0.10524273
-0.42257169 -0.25273204 0.10559452
0.13247378 -0.25251055 0.10199666
0.1881509 -0.22503349 0.10669208
-0.83644176 -0.19673316 0.095130444
-0.80876446 -0.19673316 0.095130444
-0.78108722 -0.19673316 0.095130444
-0.56198049 -0.19739349 0.10942805
0.24373063 -0.19730255 0.10745859
-0.6177792 -0.16965495 0.11069405
0.32636958 -0.14151184 0.099457383
0.38188571 -0.11382324 0.10040641
0.40915701 -0.11372756 0.096262693
0.43730718 -0.1138204 0.10028279
0.46551782 -0.11391295 0.10429096
0.49365842 -0.1139823 0.10729277
0.5219667 -0.11407184 0.11117148
0.65870655 -0.086074166 0.098385096
0.68854111 -0.086251907 0.1099261
0.77081215 -0.058419932 0.10462201
0.82476854 -0.030669516 0.097704768
0.88146806 -0.0029303133 0.10317457
0.90853047 0.19107474 0.10042715
-0.25710776 -0.30933067 0.11966276
-0.22877713 -0.30881462 0.11295784
-0.034156099 -0.30921677 0.1181823
-0.0063595958 -0.30979887 0.12574375
-0.36915314 -0.28183806 0.12505305
0.10536176 -0.28209499 0.12876034
-0.45280477 -0.25389698 0.1245091
-0.50729322 -0.22550781 0.11549544
-0.7600581 -0.19815786 0.12597406
-0.75739598 -0.16976771 0.11362326
-0.72945106 -0.16974445 0.11302018
-0.70304489 -0.17001535 0.12005913
-0.67669296 -0.17031896 0.1279428
-0.64805526 -0.17017145 0.12411177
0.30016789 -0.16997692 0.11905801
0.55047601 -0.1141837 0.11601567
0.57905871 -0.11429545 0.12085235
0.60815477 -0.11446984 0.12840402
0.71878469 -0.086448006 0.12266934
0.80335432 -0.05859109 0.12685347
0.85867035 -0.030669516 0.1245718
-0.28638473 -0.31061327 0.13632381
0.021553326 -0.31034455 0.13283241
0.049599979 -0.31113613 0.14311576
-0.39910984 -0.28306749 0.14279902
-0.48362637 -0.25519389 0.14556909
0.16136408 -0.25436684 0.13213897
-0.82018316 -0.22707488 0.14457476
-0.79212523 -0.22707488 0.14457476
-0.76406735 -0.22707488 0.14457476
-0.53900909 -0.22686645 0.14070845
0.2173484 -0.22646472 0.13325262
-0.59470814 -0.1987408 0.13859916
0.27367783 -0.19875251 0.13885212
0.44290078 -0.14302891 0.14872468
0.35713023 -0.14252855 0.13247526
0.38657692 -0.14298457 0.14728379
0.41436142 -0.14290038 0.14455342
0.63757926 -0.11467314 0.13720822
0.6675331 -0.11492781 0.14823735
0.74983698 -0.086691417 0.13847268
0.83641875 -0.058768503 0.1498909
-0.87699234 -0.03066946 0.14738977
0.91800112 -0.0026556645 0.13887322
0.94654566 0.025390545 0.14096153
-0.20439652 -0.3413507 0.16871715
-0.17609045 -0.34125274 0.16755998
-0.14777455 -0.34110394 0.16580474
-0.11955653 -0.34111124 0.16589034
-0.31585976 -0.31184727 0.15235305
0.077992991 -0.31286794 0.16561234
-0.43007991 -0.28471327 0.16655385
0.13407148 -0.28383538 0.15388298
0.19056258 -0.25601527 0.1589067
-0.57142997 -0.22833075 0.16788137
0.24697648 -0.22791484 0.16016459
-0.73960912 -0.19981675 0.16189325
-0.71142644 -0.1998187 0.16193604
-0.62767321 -0.20003304 0.16657519
0.33087027 -0.17126815 0.15260792
0.47146365 -0.14314714 0.15256548
0.49997815 -0.14324008 0.15558445
0.52872586 -0.14337465 0.15995145
0.55762684 -0.14352722 0.1649065
0.69795287 -0.11521954 0.16086888
0.78198868 -0.08699809 0.15839517
0.89440686 -0.030669628 0.15739393
-0.2619504 -0.34252372 0.18257034
-0.23292862 -0.34170312 0.17287922
-0.091425553 -0.34136146 0.16884542
-0.063242257 -0.34158674 0.17150497
-0.035086978 -0.34219128 0.17864454
-0.0068288315 -0.34287331 0.18669927
-0.3456881 -0.31316295 0.16944587
-0.51604784 -0.25702804 0.17535102
-0.68640071 -0.20057856 0.17838609
-0.65735102 -0.20039567 0.17442632
0.30430773 -0.2003222 0.1728363
0.5867151 -0.14370202 0.17058253
0.61623824 -0.14394291 0.17840767
0.72878259 -0.11553709 0.17461967
0.81522882 -0.087360665 0.18194425
0.87159604 -0.059004381 0.18054175
-0.29168555 -0.34390852 0.19892359
0.021553326 -0.34354544 0.19463682
-0.37603256 -0.31465963 0.18888628
0.10684247 -0.3149668 0.19287729
-0.46145362 -0.28637919 0.19059861
0.16361587 -0.2863822 0.19064212
-0.83189511 -0.2582559 0.19528913
-0.80344683 -0.2582559 0.19528913
-0.77499855 -0.2582559 0.19528913
-0.54907411 -0.25892061 0.20608282
0.22034627 -0.25786152 0.18888617
-0.60580736 -0.23028432 0.20413744
0.27744183 -0.2296939 0.19318116
0.3622832 -0.17264035 0.18825793
0.39135271 -0.17290016 0.19500637
0.41970044 -0.17286506 0.19409359
0.44862935 -0.17302831 0.19833541
0.47756019 -0.1731718 0.20206332
0.50646651 -0.17329113 0.20516455
0.64626145 -0.14425288 0.18847466
0.67669642 -0.14460753 0.19999123
0.76045662 -0.11592773 0.19153154
0.93085515 -0.030669628 0.19105422
-0.32166356 -0.34528512 0.21518075
0.050137319 -0.34509349 0.21291864
-0.40688747 -0.31629685 0.21015489
-0.4941597 -0.28852621 0.22158718
0.25089639 -0.26001269 0.22381568
-0.75013244 -0.23073623 0.21252346
-0.72153389 -0.23073159 0.21243584
-0.69396859 -0.23101576 0.21771002
-0.63783526 -0.23135297 0.22397029
0.33551514 -0.20192157 0.20746124
0.53568536 -0.1734841 0.21017694
0.56498653 -0.17367837 0.21522486
0.59459835 -0.17393097 0.22178566
0.70767874 -0.14502388 0.21351147
0.79365438 -0.11645868 0.21452165
0.84920245 -0.087748848 0.20715475
0.90757334 -0.059250854 0.21256745
-0.20878664 -0.37617961 0.24000347
-0.17989337 -0.37600672 0.23813355
-0.15105775 -0.37589172 0.23688805
-0.12229267 -0.3759 0.2369771
-0.093666732 -0.37632972 0.24163008
-0.35255527 -0.34722313 0.23806679
-0.43911284 -0.31858596 0.23989213
0.13634804 -0.3176564 0.22781622
0.19361468 -0.28876168 0.22498631
-0.66730899 -0.23158778 0.22832525
0.30918199 -0.23200966 0.23615456
0.62454766 -0.17423967 0.22980881
0.6552372 -0.17468871 0.24147403
0.73922896 -0.14549771 0.22890091
0.82748884 -0.1170198 0.23882341
0.88557512 -0.088271037 0.24107277
0.97123063 -0.0018916298 0.23813367
-0.26778609 -0.37787688 0.25837827
-0.23822726 -0.37704366 0.24935853
-0.064984933 -0.37682262 0.24696517
-0.03629379 -0.3777523 0.25702906
0.079200104 -0.34772691 0.24401677
-0.81525767 -0.29036963 0.24819493
-0.78640217 -0.29036963 0.24819493
-0.7575466 -0.29036963 0.24819493
-0.52750492 -0.29074973 0.25368345
0.22413458 -0.29113126 0.25918806
-0.58406633 -0.26138183 0.24604857
0.3679316 -0.20385873 0.24940336
0.39643392 -0.20369142 0.24578083
0.4252468 -0.2036811 0.24555743
0.45459855 -0.20388769 0.25003016
0.48391542 -0.2040554 0.25366116
0.51333028 -0.20423794 0.25761378
0.68633789 -0.17518802 0.25444651
0.7716276 -0.1460657 0.24734521
-0.0074559487 -0.3787809 0.26816463
-0.38409472 -0.34939307 0.26369345
-0.4721227 -0.32106724 0.27212512
0.16680188 -0.32116675 0.27341676
-0.76244503 -0.26296547 0.27176273
-0.73234868 -0.26263952 0.26646996
-0.7033481 -0.26263803 0.26644719
-0.67491585 -0.262826 0.26949906
-0.61786681 -0.26318607 0.27534509
0.28266504 -0.26276883 0.26857162
0.54299146 -0.20448229 0.26290429
0.57273293 -0.20472631 0.2681874
0.6029318 -0.20508309 0.2759124
0.71787632 -0.17573699 0.26870728
0.80581069 -0.14685579 0.27300894
0.86327183 -0.117744 0.27017796
0.95051903 -0.059699737 0.27087951
0.10892765 -0.35104218 0.28316808
-0.64808255 -0.26358646 0.28184676
0.34180045 -0.23446327 0.2816875
0.40161991 -0.23532076 0.29760218
0.43105388 -0.23541994 0.29944026
0.63349056 -0.20550875 0.28512871
0.66479737 -0.2060999 0.29792392
0.75030041 -0.176419 0.28642952
0.92457366 -0.088928901 0.28380609
-0.8279413 -0.32359889 0.30501068
-0.79864842 -0.32359889 0.30501068
-0.76935554 -0.32359889 0.30501068
-0.50706744 -0.32434779 0.31474054
0.37306625 -0.23571876 0.30498779
0.46082205 -0.23566163 0.30392754
0.49058104 -0.23586927 0.30777895
0.78388506 -0.17727192 0.30858731
0.84070307 -0.14769101 0.30012977
0.90139091 -0.11865325 0.30955756
-0.74411196 -0.32515624 0.3252424
0.19873953 -0.32597992 0.33594275
-0.74498957 -0.29601133 0.32962739
-0.71527803 -0.29592887 0.32843709
-0.68571854 -0.29589668 0.32797027
-0.65617454 -0.29586738 0.32755029
-0.62776858 -0.29630128 0.333812
-0.56699699 -0.29551733 0.32249534
0.25731349 -0.29589969 0.32801688
0.31640449 -0.26655054 0.32997775
-0.59945554 -0.2968162 0.34124494
0.52391225 -0.23752326 0.33847463
0.55447567 -0.23791708 0.34578443
0.58544976 -0.23842092 0.35513246
0.70341986 -0.20854777 0.35092509
0.88079756 -0.14918604 0.34868324
-0.81268287 -0.35840526 0.37012231
-0.78288871 -0.35840526 0.37012231
-0.75309455 -0.35840526 0.37012231
0.34877485 -0.26864886 0.36405075
0.61777061 -0.23934573 0.37229371
0.73647195 -0.20939922 0.36935914
0.82476306 -0.17941216 0.36419332
0.3796944 -0.26943031 0.37673974
0.41041553 -0.26996952 0.38549352
0.44091693 -0.27030593 0.39095759
0.46954766 -0.26959997 0.37949347
0.49938151 -0.26958367 0.37922978
