ply
format ascii 1.0
comment PCL generated
element vertex 1153
property float x
property float y
property float z
element camera 1
property float view_px
property float view_py
property float view_pz
property float x_axisx
property float x_axisy
property float x_axisz
property float y_axisx
property float y_axisy
property float y_axisz
property float z_axisx
property float z_axisy
property float z_axisz
property float focal
property float scalex
property float scaley
property float centerx
property float centery
property int viewportx
property int viewporty
property float k1
property float k2
end_header
-0.26648572 0.20295054 -0.2907483
-0.24916334 0.20295054 -0.2907483
-0.23184095 0.20295054 -0.2907483
-0.21451859 0.20295054 -0.2907483
-0.1971962 0.20295054 -0.2907483
-0.17987382 0.20295054 -0.2907483
-0.16255143 0.20295054 -0.2907483
-0.14522907 0.20295054 -0.2907483
-0.12790667 0.20295054 -0.2907483
-0.1105843 0.20295054 -0.2907483
-0.09326192 0.20295054 -0.2907483
-0.075939544 0.20295054 -0.2907483
-0.058617149 0.20295054 -0.2907483
-0.041294772 0.20295054 -0.2907483
-0.023972388 0.20295054 -0.2907483
-0.0066500092 0.20295054 -0.2907483
0.010672371 0.20295054 -0.2907483
0.027994752 0.20295054 -0.2907483
0.045318894 0.20296466 -0.29063416
0.062642157 0.20296466 -0.29063416
0.079965413 0.20296466 -0.29063416
0.097288676 0.20296466 -0.29063416
0.11461194 0.20296466 -0.29063416
0.13193519 0.20296466 -0.29063416
0.14925846 0.20296466 -0.29063416
0.16658172 0.20296466 -0.29063416
0.18390498 0.20296466 -0.29063416
0.20122825 0.20296466 -0.29063416
0.21855152 0.20296466 -0.29063416
0.23587477 0.20296466 -0.29063416
0.25319803 0.20296466 -0.29063416
0.27052128 0.20296466 -0.29063416
-0.26631057 0.22008687 -0.2921707
-0.24899791 0.2200855 -0.29218119
-0.23168544 0.22008416 -0.29219157
-0.21437417 0.22008416 -0.29219157
-0.19692495 0.21988872 -0.29368454
-0.17975162 0.22008416 -0.29219157
-0.16244034 0.22008416 -0.29219157
-0.14512908 0.22008416 -0.29219157
-0.12781781 0.22008416 -0.29219157
-0.11050654 0.22008416 -0.29219157
-0.093195751 0.2200855 -0.29218119
-0.075884394 0.2200855 -0.29218119
-0.058573041 0.2200855 -0.29218119
-0.041261688 0.2200855 -0.29218119
-0.023950495 0.22008687 -0.2921707
-0.0066390624 0.22008687 -0.2921707
0.010672371 0.22008687 -0.2921707
0.027983803 0.22008687 -0.2921707
0.045298275 0.22011265 -0.29197365
0.062611215 0.22011265 -0.29197365
0.079924174 0.22011265 -0.29197365
0.097237118 0.22011265 -0.29197365
0.11455006 0.22011265 -0.29197365
0.13186303 0.22011265 -0.29197365
0.14917599 0.22011265 -0.29197365
0.16648892 0.22011265 -0.29197365
0.18380187 0.22011265 -0.29197365
0.20106563 0.2200366 -0.29255462
0.21842776 0.22011265 -0.29197365
0.23574072 0.22011265 -0.29197365
0.25305367 0.22011265 -0.29197365
0.27036661 0.22011265 -0.29197365
0.28790984 0.22035736 -0.29010409
-0.23132035 0.23692596 -0.2955792
-0.21453835 0.23762268 -0.29055089
-0.19721252 0.23761985 -0.29057181
-0.17989054 0.23762268 -0.29055089
-0.19708015 0.25473401 -0.29200464
-0.2857776 0.16992773 -0.27569896
-0.26779577 0.16945215 -0.28011221
-0.25039154 0.16945215 -0.28011221
-0.23298725 0.16945215 -0.28011221
-0.21558298 0.16945215 -0.28011221
-0.19817874 0.16945215 -0.28011221
-0.18077448 0.16945215 -0.28011221
-0.16337021 0.16945215 -0.28011221
-0.14596595 0.16945215 -0.28011221
-0.12856169 0.16945215 -0.28011221
-0.11115745 0.16945215 -0.28011221
-0.093753189 0.16945215 -0.28011221
-0.076348923 0.16945215 -0.28011221
-0.058944661 0.16945215 -0.28011221
-0.041540407 0.16945215 -0.28011221
-0.024136145 0.16945215 -0.28011221
-0.0067318873 0.16945215 -0.28011221
0.010672371 0.16945215 -0.28011221
0.02807663 0.16945215 -0.28011221
0.045482505 0.16946343 -0.2800073
0.062887572 0.16946343 -0.2800073
0.080292635 0.16946343 -0.2800073
0.097697698 0.16946343 -0.2800073
0.11510277 0.16946343 -0.2800073
0.13250785 0.16946343 -0.2800073
0.14991291 0.16946343 -0.2800073
0.16731797 0.16946343 -0.2800073
0.18472303 0.16946343 -0.2800073
0.2021281 0.16946343 -0.2800073
0.21953318 0.16946343 -0.2800073
0.23693824 0.16946343 -0.2800073
0.2543433 0.16946343 -0.2800073
0.27174836 0.16946343 -0.2800073
0.28949231 0.16975985 -0.27725595
-0.28485048 0.18654796 -0.28278321
-0.26701394 0.1861234 -0.28646004
-0.24965851 0.1861234 -0.28646004
-0.23230313 0.1861234 -0.28646004
-0.21494775 0.1861234 -0.28646004
-0.19759235 0.1861234 -0.28646004
-0.18023695 0.1861234 -0.28646004
-0.16288155 0.1861234 -0.28646004
-0.14552616 0.1861234 -0.28646004
-0.12817077 0.1861234 -0.28646004
-0.11081538 0.1861234 -0.28646004
-0.093459994 0.1861234 -0.28646004
-0.076104596 0.1861234 -0.28646004
-0.058749203 0.1861234 -0.28646004
-0.041393809 0.1861234 -0.28646004
-0.024038415 0.1861234 -0.28646004
-0.0066830227 0.1861234 -0.28646004
0.010672371 0.1861234 -0.28646004
0.028027765 0.1861234 -0.28646004
0.045385085 0.18613786 -0.28633481
0.062741436 0.18613786 -0.28633481
0.080097795 0.18613786 -0.28633481
0.097454146 0.18613786 -0.28633481
0.1148105 0.18613786 -0.28633481
0.13216686 0.18613786 -0.28633481
0.14952323 0.18613786 -0.28633481
0.16687958 0.18613786 -0.28633481
0.18423593 0.18613786 -0.28633481
0.2015923 0.18613786 -0.28633481
0.21894865 0.18613786 -0.28633481
0.23630501 0.18613786 -0.28633481
0.25366136 0.18613786 -0.28633481
0.27101773 0.18613786 -0.28633481
0.28862995 0.18637773 -0.28425741
-0.28423154 0.20334911 -0.28751284
0.28805971 0.20317987 -0.28888732
-0.28408572 0.22055063 -0.28862703
-0.2857101 0.23960909 -0.27621454
-0.26774541 0.23901242 -0.28052104
-0.25034311 0.23901102 -0.28053159
-0.16296829 0.23834574 -0.2853331
-0.14593762 0.23901242 -0.28052104
-0.12834181 0.23857448 -0.28368253
-0.11096504 0.23857448 -0.28368253
-0.09358827 0.23857448 -0.28368253
-0.0762119 0.23857582 -0.28367221
-0.058835041 0.23857582 -0.28367221
-0.041458193 0.23857582 -0.28367221
-0.024081334 0.23857582 -0.28367221
-0.0067044822 0.23857582 -0.28367221
0.010672371 0.23857582 -0.28367221
0.028049305 0.23857728 -0.28366178
0.045426242 0.23857728 -0.28366178
0.062803172 0.23857728 -0.28366178
0.080180109 0.23857728 -0.28366178
0.097557038 0.23857728 -0.28366178
0.11493397 0.23857728 -0.28366178
0.13249145 0.23904157 -0.28031135
0.14989418 0.23904157 -0.28031135
0.16706985 0.23858738 -0.28358853
0.18457864 0.23882374 -0.28188312
0.20142552 0.23793402 -0.28830439
0.21906529 0.23838192 -0.28507221
0.2367526 0.23882672 -0.2818622
0.25431052 0.23904157 -0.28031135
0.27171323 0.23904157 -0.28031135
0.28943792 0.23940375 -0.2776975
-0.26733541 0.25592676 -0.2838499
-0.2499889 0.25596347 -0.28359896
-0.23235933 0.25562128 -0.28593856
-0.21483716 0.25538325 -0.28756487
-0.18088377 0.25666228 -0.27882147
-0.16346957 0.25666228 -0.27882147
0.20186026 0.25602621 -0.28317022
0.21975236 0.25683579 -0.27763444
0.23680817 0.2562986 -0.28130704
0.2545979 0.25683427 -0.27764487
0.27231517 0.25720665 -0.2750985
-0.27014565 0.13640599 -0.26103354
-0.25259453 0.13640599 -0.26103354
-0.23504339 0.13640599 -0.26103354
-0.21749228 0.13640599 -0.26103354
-0.19994114 0.13640599 -0.26103354
-0.18239002 0.13640599 -0.26103354
-0.16483888 0.13640599 -0.26103354
-0.14728776 0.13640599 -0.26103354
-0.12973663 0.13640599 -0.26103354
-0.11218552 0.13640599 -0.26103354
-0.094634391 0.13640599 -0.26103354
-0.07708326 0.13640599 -0.26103354
-0.059532132 0.13640599 -0.26103354
-0.041981008 0.13640599 -0.26103354
-0.02442988 0.13640599 -0.26103354
-0.0068787551 0.13640599 -0.26103354
0.010672371 0.13640599 -0.26103354
0.028223496 0.13640599 -0.26103354
0.045775447 0.13641094 -0.26098013
0.063326985 0.13641094 -0.26098013
0.080878519 0.13641094 -0.26098013
0.098430052 0.13641094 -0.26098013
0.11598159 0.13641094 -0.26098013
0.13353314 0.13641094 -0.26098013
0.15108468 0.13641094 -0.26098013
0.16863622 0.13641094 -0.26098013
0.18618774 0.13641094 -0.26098013
0.20373927 0.13641094 -0.26098013
0.22129083 0.13641094 -0.26098013
0.23884235 0.13641094 -0.26098013
0.25639388 0.13641094 -0.26098013
0.27394542 0.13641094 -0.26098013
-0.28700614 0.1534289 -0.26631105
-0.2688317 0.15288959 -0.27170163
-0.25136268 0.15288959 -0.27170163
-0.23389366 0.15288959 -0.27170163
-0.21642467 0.15288959 -0.27170163
-0.19895566 0.15288959 -0.27170163
-0.18148667 0.15288959 -0.27170163
-0.16401766 0.15288959 -0.27170163
-0.14654866 0.15288959 -0.27170163
-0.12907965 0.15288959 -0.27170163
-0.11161065 0.15288959 -0.27170163
-0.094141647 0.15288959 -0.27170163
-0.076672651 0.15288959 -0.27170163
-0.059203643 0.15288959 -0.27170163
-0.041734636 0.15288959 -0.27170163
-0.024265636 0.15288959 -0.27170163
-0.0067966329 0.15288959 -0.27170163
0.010672371 0.15288959 -0.27170163
0.028141376 0.15288959 -0.27170163
0.045612004 0.15290011 -0.27159601
0.063081816 0.15290011 -0.27159601
0.080551632 0.15290011 -0.27159601
0.098021448 0.15290011 -0.27159601
0.11549126 0.15290011 -0.27159601
0.13296109 0.15290011 -0.27159601
0.1504309 0.15290011 -0.27159601
0.16790073 0.15290011 -0.27159601
0.18537053 0.15290011 -0.27159601
0.20284036 0.15290011 -0.27159601
0.22031017 0.15290011 -0.27159601
0.23777999 0.15290011 -0.27159601
0.2552498 0.15290011 -0.27159601
0.27271962 0.15290011 -0.27159601
0.29062217 0.15325166 -0.26808238
-0.28735247 0.25887904 -0.26366472
-0.14675462 0.25813836 -0.26872897
-0.12906794 0.25767577 -0.27189177
-0.11160041 0.25767577 -0.27189177
-0.09413287 0.25767577 -0.27189177
-0.076665327 0.25767577 -0.27189177
-0.059197787 0.25767577 -0.27189177
-0.041730247 0.25767577 -0.27189177
-0.024262708 0.25767577 -0.27189177
-0.006795167 0.25767577 -0.27189177
0.010672371 0.25767577 -0.27189177
0.028139908 0.25767577 -0.27189177
0.045607451 0.25767577 -0.27189177
0.063074991 0.25767577 -0.27189177
0.080542527 0.25767577 -0.27189177
0.098010473 0.25767726 -0.27188128
0.1154781 0.25767726 -0.27188128
0.133127 0.25816941 -0.26851702
0.15062054 0.25816941 -0.26851702
0.16800548 0.25794014 -0.27008396
0.18548775 0.25794172 -0.27007341
0.29098296 0.25866136 -0.26515341
-0.25190917 0.27590117 -0.26696897
-0.23374346 0.27495793 -0.27309543
-0.21689828 0.27590117 -0.26696897
-0.19939286 0.27590117 -0.26696897
-0.1818874 0.27590117 -0.26696897
-0.16438279 0.27590284 -0.26695842
-0.23646532 0.11997215 -0.24783975
-0.21881263 0.11997215 -0.24783975
-0.20115992 0.11997215 -0.24783975
-0.18350726 0.11997215 -0.24783975
-0.16585456 0.11997215 -0.24783975
-0.14820187 0.11997215 -0.24783975
-0.13054916 0.11997215 -0.24783975
-0.11289648 0.11997215 -0.24783975
-0.095243782 0.11997215 -0.24783975
-0.077591091 0.11997215 -0.24783975
-0.059938397 0.11997215 -0.24783975
-0.042285703 0.11997215 -0.24783975
-0.024633013 0.11997215 -0.24783975
-0.0069803214 0.11997215 -0.24783975
0.010672371 0.11997215 -0.24783975
0.028325062 0.11997215 -0.24783975
0.045978256 0.11997481 -0.24780726
0.063631199 0.11997481 -0.24780726
0.081284136 0.11997481 -0.24780726
0.098937079 0.11997481 -0.24780726
0.11659002 0.11997481 -0.24780726
0.13424297 0.11997481 -0.24780726
0.15189591 0.11997481 -0.24780726
0.16954885 0.11997481 -0.24780726
0.1872018 0.11997481 -0.24780726
0.20485474 0.11997481 -0.24780726
0.22250769 0.11997481 -0.24780726
0.24016063 0.11997481 -0.24780726
-0.28869385 0.13710973 -0.25341463
0.29221737 0.13695118 -0.25513113
-0.28901595 0.27836692 -0.25095332
-0.27066284 0.27746159 -0.25683439
-0.14757869 0.27746159 -0.25683439
-0.12980103 0.27697605 -0.25998771
-0.11224187 0.27697605 -0.25998771
-0.094682693 0.27697605 -0.25998771
-0.077123515 0.27697605 -0.25998771
-0.059564333 0.27697605 -0.25998771
-0.042005159 0.27697605 -0.25998771
-0.024445981 0.27697605 -0.25998771
-0.0068868035 0.27697605 -0.25998771
0.010672371 0.27697605 -0.25998771
0.028231546 0.27697605 -0.25998771
0.045790724 0.27697605 -0.25998771
0.063349903 0.27697605 -0.25998771
0.080909073 0.27697605 -0.25998771
0.098468252 0.27697605 -0.25998771
0.11602743 0.27697605 -0.25998771
0.1337698 0.27749941 -0.25658834
0.15135515 0.27749941 -0.25658834
0.16870792 0.27698249 -0.25994503
0.18640396 0.27725559 -0.25817174
0.20397709 0.27725559 -0.25817174
0.22155027 0.27725559 -0.25817174
0.23912342 0.27725559 -0.25817174
0.25669771 0.27725732 -0.25816101
0.27445132 0.27749777 -0.25659889
0.29254389 0.27813193 -0.25248009
-0.13054053 0.29647636 -0.24797982
-0.11288951 0.296478 -0.24796909
-0.095237814 0.296478 -0.24796909
-0.077586114 0.296478 -0.24796909
-0.059934411 0.296478 -0.24796909
-0.042282719 0.296478 -0.24796909
0.045975763 0.296478 -0.24796909
0.063627705 0.29647991 -0.24795836
0.081278823 0.29647636 -0.24797982
0.098930016 0.29647467 -0.24799073
0.11658205 0.29647636 -0.24797982
0.13423309 0.29647467 -0.24799073
-0.29069668 0.29807177 -0.23811018
-0.2721473 0.29699329 -0.24478239
-0.25447357 0.29699674 -0.24476075
-0.23679714 0.29699674 -0.24476075
-0.21912183 0.29699856 -0.24474984
-0.20144437 0.29699674 -0.24476075
-0.18376797 0.29699674 -0.24476075
-0.16609158 0.29699674 -0.24476075
-0.14834552 0.29683429 -0.24576622
-0.024683747 0.29703176 -0.24454433
-0.0070056887 0.29703176 -0.24454433
0.010672371 0.29703176 -0.24454433
0.028350431 0.29703176 -0.24454433
0.15204823 0.29690406 -0.24533373
0.16975993 0.29699674 -0.24476075
0.18743549 0.29699507 -0.2447716
0.20511088 0.29699329 -0.24478239
0.22278811 0.29699507 -0.2447716
0.24046442 0.29699507 -0.2447716
0.25813958 0.29699329 -0.24478239
0.27581578 0.29699329 -0.24478239
0.29412365 0.29782224 -0.23965424
-0.27364612 0.31673035 -0.23261338
-0.25587875 0.31673416 -0.23259145
-0.23796734 0.31651205 -0.23390275
-0.22001627 0.31618863 -0.23581207
-0.202271 0.31618863 -0.23581207
-0.18452573 0.31618863 -0.23581207
-0.16678043 0.31618863 -0.23581207
-0.14903514 0.31618863 -0.23581207
-0.13128987 0.31618863 -0.23581207
-0.1135446 0.31618863 -0.23581207
-0.095799319 0.31618863 -0.23581207
-0.078054033 0.31618863 -0.23581207
-0.060308751 0.31618863 -0.23581207
-0.042563215 0.31618682 -0.23582298
-0.024871144 0.31677106 -0.23237282
-0.0070993872 0.31677106 -0.23237282
0.010672371 0.31677106 -0.23237282
0.02844413 0.31677106 -0.23237282
0.046162933 0.31618863 -0.23581207
0.063907959 0.31618682 -0.23582298
0.081653155 0.31618682 -0.23582298
0.099398769 0.31618863 -0.23581207
0.11714406 0.31618863 -0.23581207
0.13488874 0.31618682 -0.23582298
0.15263395 0.31618682 -0.23582298
0.17037839 0.316185 -0.23583382
0.18812351 0.316185 -0.23583382
0.20586862 0.316185 -0.23583382
0.22361374 0.316185 -0.23583382
0.24145597 0.31634933 -0.23486334
0.25945222 0.31673217 -0.23260248
0.27722093 0.31673035 -0.23261338
-0.23792262 0.33419856 -0.2343176
-0.21956655 0.33313829 -0.24030602
-0.20187894 0.33318254 -0.24005616
-0.18486419 0.33464167 -0.23181492
0.20555432 0.33327287 -0.23954552
0.22317255 0.33308449 -0.24060994
0.24126615 0.33376598 -0.2367602
-0.22012872 0.35188684 -0.2346887
-0.2024141 0.35196546 -0.23426288
0.20605989 0.35209262 -0.23357505
0.22368626 0.35182035 -0.23504871
-0.23875484 0.10395481 -0.2265957
-0.22093751 0.10395396 -0.22660679
-0.20312135 0.10395396 -0.22660679
-0.18530521 0.10395396 -0.22660679
-0.16748822 0.10395305 -0.22661775
-0.14967217 0.10395305 -0.22661775
-0.1318561 0.10395305 -0.22661775
-0.11403946 0.10395217 -0.22662866
-0.096223488 0.10395217 -0.22662866
-0.078407079 0.10395141 -0.22663975
-0.060591187 0.10395141 -0.22663975
-0.042775299 0.10395141 -0.22663975
-0.024959408 0.10395141 -0.22663975
-0.0071435189 0.10395141 -0.22663975
0.010672371 0.10395141 -0.22663975
0.02848826 0.10395141 -0.22663975
0.046304151 0.10395141 -0.22663975
0.064120039 0.10395141 -0.22663975
0.081935927 0.10395141 -0.22663975
0.099751815 0.10395141 -0.22663975
0.11756771 0.10395141 -0.22663975
0.13538361 0.10395141 -0.22663975
0.15319949 0.10395141 -0.22663975
0.17101538 0.10395141 -0.22663975
0.18883127 0.10395141 -0.22663975
0.20664717 0.10395141 -0.22663975
0.22446306 0.10395141 -0.22663975
0.24227895 0.10395141 -0.22663975
0.29572254 0.31773651 -0.22667265
0.18892945 0.33578387 -0.22536427
-0.238491 0.35292968 -0.22904384
-0.18516479 0.3530736 -0.22826493
0.18881182 0.35332721 -0.22689229
0.24188043 0.35263819 -0.23062187
-0.22160254 0.37247509 -0.21996105
-0.20374034 0.3724857 -0.21990573
0.20729135 0.37265378 -0.21903223
0.22503203 0.37237507 -0.22048032
0.24376871 0.37405479 -0.21175307
-0.26086855 0.034408875 -0.18937844
-0.24276583 0.034408875 -0.18937844
0.22802046 0.03446649 -0.1881296
0.24600783 0.034408875 -0.18937844
0.26411057 0.034408875 -0.18937844
-0.27847186 0.052293077 -0.19343323
-0.26023594 0.052216291 -0.194857
-0.24217539 0.052216291 -0.194857
0.22754622 0.052302301 -0.19326365
0.24545959 0.052216291 -0.194857
0.26352012 0.052216291 -0.194857
-0.27810746 0.070182443 -0.19639188
-0.25988692 0.070090696 -0.19787955
-0.24184962 0.070090696 -0.19787955
0.22732288 0.070226103 -0.19568115
0.24515709 0.070090696 -0.19787955
0.26319435 0.070090696 -0.19787955
-0.27825198 0.088312417 -0.19521827
-0.26004177 0.088220984 -0.19653845
-0.24199416 0.088220984 -0.19653845
-0.22354661 0.087944061 -0.200535
-0.20552978 0.087944061 -0.200535
-0.18751197 0.087943345 -0.20054615
-0.16949521 0.087943345 -0.20054615
-0.15147768 0.087942585 -0.20055753
-0.133461 0.087942585 -0.20055753
-0.11544434 0.087942585 -0.20055753
-0.097427145 0.087941751 -0.20056862
-0.07941056 0.087941751 -0.20056862
-0.061393622 0.087940991 -0.20057982
-0.043377127 0.087940991 -0.20057982
-0.025360625 0.087940991 -0.20057982
-0.0073441276 0.087940991 -0.20057982
0.010672371 0.087940991 -0.20057982
0.02868887 0.087940991 -0.20057982
0.046705369 0.087940991 -0.20057982
0.064721867 0.087940991 -0.20057982
0.082738362 0.087940991 -0.20057982
0.10075486 0.087940991 -0.20057982
0.11877137 0.087940991 -0.20057982
0.13678786 0.087940991 -0.20057982
0.15480436 0.087940991 -0.20057982
0.17282085 0.087940991 -0.20057982
0.19083737 0.087940991 -0.20057982
0.20885386 0.087940991 -0.20057982
0.22687037 0.087940991 -0.20057982
0.24488798 0.087941751 -0.20056862
0.26333889 0.088220984 -0.19653845
-0.2788735 0.10675862 -0.19017226
-0.26052311 0.10658948 -0.19236988
0.26378936 0.10659036 -0.19235855
-0.28057602 0.016807608 -0.17634964
-0.26185998 0.01663661 -0.18079245
-0.24369116 0.01663661 -0.18079245
0.22881234 0.016684145 -0.17955738
0.24686708 0.01663661 -0.18079245
0.2650359 0.01663661 -0.18079245
-0.27921745 0.034501165 -0.18737984
-0.22621401 0.071568683 -0.17388052
-0.20799199 0.071568683 -0.17388052
-0.18976995 0.071568683 -0.17388052
-0.17154704 0.071568042 -0.17389214
-0.15332508 0.071568042 -0.17389214
-0.13510315 0.071568042 -0.17389214
-0.1168806 0.071567252 -0.17390358
-0.098658755 0.071567252 -0.17390358
-0.080436453 0.071566612 -0.17391503
-0.062214684 0.071566612 -0.17391503
-0.043992922 0.071566612 -0.17391503
-0.025771156 0.071566612 -0.17391503
-0.007549393 0.071566612 -0.17391503
0.010672371 0.071566612 -0.17391503
0.028894134 0.071566612 -0.17391503
0.0471159 0.071566612 -0.17391503
0.065337665 0.071566612 -0.17391503
0.083559424 0.071566612 -0.17391503
0.10178119 0.071566612 -0.17391503
0.12000296 0.071566612 -0.17391503
0.13822474 0.071566612 -0.17391503
0.15644649 0.071566612 -0.17391503
0.17466825 0.071566612 -0.17391503
0.19289002 0.071566612 -0.17391503
0.21111178 0.071566612 -0.17391503
-0.28001896 0.12564275 -0.18087232
-0.2613844 0.12530077 -0.18491095
0.26459202 0.12530077 -0.18491095
-0.26363459 -0.0010589883 -0.16542387
-0.24534743 -0.0010589883 -0.16542387
0.23008478 -0.0010699853 -0.16578287
0.24840507 -0.0010589883 -0.16542387
0.26660609 -0.0010835305 -0.16622257
-0.22745839 0.017381333 -0.16144603
-0.28286019 -0.00082430989 -0.15780431
-0.22832064 -0.00067123771 -0.15282995
-0.22894406 0.054816723 -0.14660037
-0.21051204 0.054816723 -0.14660037
-0.19207899 0.054816082 -0.14661217
-0.17364705 0.054816082 -0.14661217
-0.15521511 0.054816082 -0.14661217
-0.13678244 0.054815382 -0.14662373
-0.1183506 0.054815382 -0.14662373
-0.099918202 0.054814786 -0.14663553
-0.081486434 0.054814786 -0.14663553
-0.063054681 0.054814786 -0.14663553
-0.044622645 0.054814219 -0.14664727
-0.02619097 0.054814219 -0.14664727
-0.0077593001 0.054814219 -0.14664727
0.010672371 0.054814219 -0.14664727
0.029104043 0.054814219 -0.14664727
0.047535714 0.054814219 -0.14664727
0.065967388 0.054814219 -0.14664727
0.084399052 0.054814219 -0.14664727
0.10283073 0.054814219 -0.14664727
0.1212624 0.054814219 -0.14664727
0.13969408 0.054814219 -0.14664727
0.15812576 0.054814219 -0.14664727
0.17655742 0.054814219 -0.14664727
0.1949891 0.054814219 -0.14664727
0.21342076 0.054814219 -0.14664727
-0.26643434 -0.018786144 -0.14117742
-0.24796052 -0.018786144 -0.14117742
0.23235773 -0.018786144 -0.14117742
0.25083148 -0.018786144 -0.14117742
0.26973128 -0.018694844 -0.13722444
-0.23097637 -0.018442463 -0.12629217
-0.23173657 0.0376736 -0.11869603
-0.21308973 0.0376736 -0.11869603
-0.19444288 0.0376736 -0.11869603
-0.17579511 0.037672952 -0.11870807
-0.15714836 0.037672952 -0.11870807
-0.13850163 0.037672952 -0.11870807
-0.11985422 0.03767243 -0.11872017
-0.10120757 0.03767243 -0.11872017
-0.082560912 0.03767243 -0.11872017
-0.063913889 0.037671871 -0.11873215
-0.045267317 0.037671871 -0.11873215
-0.026620757 0.037671871 -0.11873215
-0.0079741934 0.037671871 -0.11873215
0.010672371 0.037671871 -0.11873215
0.029318936 0.037671871 -0.11873215
0.047965501 0.037671871 -0.11873215
0.066612057 0.037671871 -0.11873215
0.085258625 0.037671871 -0.11873215
0.10390518 0.037671871 -0.11873215
0.12255175 0.037671871 -0.11873215
0.14119831 0.037671871 -0.11873215
0.15984491 0.037671871 -0.11873215
0.17849144 0.037671871 -0.11873215
0.197138 0.037671871 -0.11873215
0.21578458 0.037671871 -0.11873215
-0.21572821 0.02012606 -0.090133548
-0.19686149 0.02012606 -0.090133548
-0.17799477 0.02012606 -0.090133548
-0.15912807 0.02012606 -0.090133548
-0.14026058 0.020125583 -0.090146005
-0.12139397 0.020125583 -0.090146005
-0.10252678 0.020125151 -0.090158284
-0.083660252 0.020125151 -0.090158284
-0.064793736 0.020125151 -0.090158284
-0.045926917 0.020124629 -0.090170681
-0.02706049 0.020124629 -0.090170681
-0.0081940601 0.020124629 -0.090170681
0.010672371 0.020124629 -0.090170681
0.029538803 0.020124629 -0.090170681
0.048405234 0.020124629 -0.090170681
0.067271657 0.020124629 -0.090170681
0.086138092 0.020124629 -0.090170681
0.10500453 0.020124629 -0.090170681
0.12387095 0.020124629 -0.090170681
0.14273739 0.020124629 -0.090170681
0.16160382 0.020124629 -0.090170681
0.18047024 0.020124629 -0.090170681
0.19933669 0.020124629 -0.090170681
0.21820416 0.020125151 -0.090158284
0.2190855 -0.017367568 -0.07975018
-0.2184308 0.0021601543 -0.060876846
-0.19933888 0.0021601543 -0.060876846
-0.18024597 0.0021598563 -0.060889602
-0.16115415 0.0021598563 -0.060889602
-0.14206231 0.0021598563 -0.060889602
-0.1229698 0.0021594241 -0.060902238
-0.10387807 0.0021594241 -0.060902238
-0.084786326 0.0021594241 -0.060902238
-0.065694198 0.0021590739 -0.060914874
-0.046602555 0.0021590739 -0.060914874
-0.027510911 0.0021590739 -0.060914874
-0.0084192706 0.0021590739 -0.060914874
0.010672371 0.0021590739 -0.060914874
0.029764012 0.0021590739 -0.060914874
0.048855655 0.0021590739 -0.060914874
0.067947298 0.0021590739 -0.060914874
0.087038934 0.0021590739 -0.060914874
0.10613058 0.0021590739 -0.060914874
0.12522222 0.0021590739 -0.060914874
0.14431387 0.0021590739 -0.060914874
0.16340551 0.0021590739 -0.060914874
0.18249714 0.0021590739 -0.060914874
0.20158879 0.0021590739 -0.060914874
0.22068149 0.0021594241 -0.060902238
-0.22119753 -0.016240116 -0.030926228
-0.20187505 -0.016240116 -0.030926228
-0.18255256 -0.016240116 -0.030926228
-0.16323008 -0.016240116 -0.030926228
-0.14390677 -0.016240332 -0.030939221
-0.12458438 -0.016240332 -0.030939221
-0.10526139 -0.016240552 -0.030952096
-0.085939102 -0.016240552 -0.030952096
-0.066616811 -0.016240552 -0.030952096
-0.047294211 -0.016240984 -0.03096509
-0.027972016 -0.016240984 -0.03096509
-0.0086498233 -0.016240984 -0.03096509
0.010672371 -0.016240984 -0.03096509
0.029994566 -0.016240984 -0.03096509
0.04931676 -0.016240984 -0.03096509
0.068638951 -0.016240984 -0.03096509
0.087961145 -0.016240984 -0.03096509
0.10728334 -0.016240984 -0.03096509
0.12660554 -0.016240984 -0.03096509
0.14592773 -0.016240984 -0.03096509
0.16524991 -0.016240984 -0.03096509
0.18457212 -0.016240984 -0.03096509
0.20389532 -0.016240552 -0.030952096
-0.22403191 -0.035090175 -0.00024330616
-0.20447321 -0.035090175 -0.00024330616
-0.18491451 -0.035090175 -0.00024330616
-0.16535583 -0.035090175 -0.00024330616
-0.14579713 -0.035090175 -0.00024330616
-0.12623774 -0.03509035 -0.0002566576
-0.10667916 -0.03509035 -0.0002566576
-0.08712057 -0.03509035 -0.0002566576
-0.067561574 -0.03509061 -0.00026988983
-0.048003089 -0.03509061 -0.00026988983
-0.028444599 -0.03509061 -0.00026988983
-0.0088861147 -0.03509061 -0.00026988983
0.010672371 -0.03509061 -0.00026988983
0.030230857 -0.03509061 -0.00026988983
0.049789343 -0.03509061 -0.00026988983
0.069347829 -0.03509061 -0.00026988983
0.08890631 -0.03509061 -0.00026988983
0.10846479 -0.03509061 -0.00026988983
0.1280233 -0.03509061 -0.00026988983
0.14758177 -0.03509061 -0.00026988983
0.16714026 -0.03509061 -0.00026988983
0.18669875 -0.03509061 -0.00026988983
0.20625825 -0.03509035 -0.0002566576
0.22581796 -0.035090175 -0.00024330616
0.24537787 -0.035089917 -0.00023019314
-0.22693768 -0.054406688 0.031212449
-0.20713684 -0.054406688 0.031212449
-0.187336 -0.054406688 0.031212449
-0.16753516 -0.054406688 0.031212449
-0.14773349 -0.054406773 0.031198978
-0.12793276 -0.054406773 0.031198978
-0.10813203 -0.054406773 0.031198978
-0.088330775 -0.054406859 0.03118515
-0.068530142 -0.054406859 0.03118515
-0.0487292 -0.054406989 0.031171799
-0.028928675 -0.054406989 0.031171799
-0.0091281524 -0.054406989 0.031171799
0.010672371 -0.054406989 0.031171799
0.030472893 -0.054406989 0.031171799
0.050273418 -0.054406989 0.031171799
0.07007394 -0.054406989 0.031171799
0.089874461 -0.054406989 0.031171799
0.10967498 -0.054406989 0.031171799
0.12947552 -0.054406989 0.031171799
0.14927605 -0.054406989 0.031171799
0.16907656 -0.054406989 0.031171799
0.18887804 -0.054406859 0.03118515
0.20867971 -0.054406773 0.031198978
0.22848159 -0.054406688 0.031212449
-0.28784943 -0.034404632 0.044282794
-0.26718897 -0.034512989 0.037239909
-0.24734171 -0.034512989 0.037239909
0.26869735 -0.034511343 0.037348986
0.28913465 -0.034427144 0.042816281
-0.26944116 -0.054199457 0.058137655
-0.24943303 -0.054199457 0.058137655
0.25077224 -0.054199152 0.058165431
0.27078053 -0.054199152 0.058165431
-0.22991499 -0.074207529 0.063443065
-0.20986606 -0.074207529 0.063443065
-0.1898171 -0.074207529 0.063443065
-0.16976814 -0.074207529 0.063443065
-0.14971921 -0.074207529 0.063443065
-0.12966952 -0.074207529 0.063428998
-0.10962068 -0.074207529 0.063428998
-0.089571841 -0.074207529 0.063428998
-0.069522567 -0.074207529 0.06341517
-0.04947383 -0.074207529 0.06341517
-0.029425096 -0.074207529 0.06341517
-0.0093763629 -0.074207529 0.06341517
0.010672371 -0.074207529 0.06341517
0.030721106 -0.074207529 0.06341517
0.050769839 -0.074207529 0.06341517
0.070818573 -0.074207529 0.06341517
0.090867303 -0.074207529 0.06341517
0.11091603 -0.074207529 0.06341517
0.13096477 -0.074207529 0.06341517
0.15101352 -0.074207529 0.06341517
0.17106225 -0.074207529 0.06341517
0.19111194 -0.074207529 0.063428998
0.21116185 -0.074207529 0.063443065
0.23121198 -0.074207574 0.063456893
0.29244772 -0.054080755 0.073557854
-0.29131243 -0.054075211 0.074273348
-0.23296788 -0.094510883 0.096491575
-0.21266453 -0.094510883 0.096491575
-0.19236118 -0.094510883 0.096491575
-0.17205782 -0.094510883 0.096491575
-0.15175447 -0.094510883 0.096491575
-0.13145112 -0.094510883 0.096491575
-0.11114776 -0.094510883 0.096491575
-0.090843856 -0.094510749 0.096477389
-0.070540622 -0.094510749 0.096477389
-0.050237369 -0.094510749 0.096477389
-0.0299339 -0.094510667 0.096462965
-0.0096307648 -0.094510667 0.096462965
0.010672371 -0.094510667 0.096462965
0.030975506 -0.094510667 0.096462965
0.051278643 -0.094510667 0.096462965
0.071581781 -0.094510667 0.096462965
0.091884911 -0.094510667 0.096462965
0.11218806 -0.094510667 0.096462965
0.1324912 -0.094510667 0.096462965
0.15279511 -0.094510749 0.096477389
0.17309836 -0.094510749 0.096477389
0.19340257 -0.094510883 0.096491575
0.21370703 -0.09451101 0.09650588
0.23401171 -0.094511144 0.096520185
-0.27295151 -0.074207529 0.090709925
-0.25269267 -0.074207529 0.090709925
0.25378117 -0.074207529 0.090738177
0.27404025 -0.074207529 0.090738177
0.29605284 -0.074207529 0.10700893
-0.23610063 -0.11533636 0.13040423
-0.21553621 -0.11533636 0.13040423
-0.1949718 -0.11533636 0.13040423
-0.17440738 -0.11533636 0.13040423
-0.15384294 -0.11533636 0.13040423
-0.13327853 -0.11533636 0.13040423
-0.11271345 -0.1153361 0.13038981
-0.092149153 -0.1153361 0.13038981
-0.071584396 -0.11533588 0.13037491
-0.051020201 -0.11533588 0.13037491
-0.03045601 -0.11533588 0.13037491
-0.0098918201 -0.11533588 0.13037491
0.010672371 -0.11533588 0.13037491
0.031236563 -0.11533588 0.13037491
0.051800754 -0.11533588 0.13037491
0.072364941 -0.11533588 0.13037491
0.092929132 -0.11533588 0.13037491
0.11349332 -0.11533588 0.13037491
0.13405752 -0.11533588 0.13037491
0.1546225 -0.1153361 0.13038981
0.17518681 -0.1153361 0.13038981
0.19575213 -0.11533636 0.13040423
0.21631767 -0.11533657 0.1304189
0.23688343 -0.11533675 0.13043356
-0.27655098 -0.094723478 0.12410879
-0.25603503 -0.094723478 0.12410879
0.25686783 -0.094723783 0.12415242
0.27738413 -0.094723783 0.12415242
-0.2594648 -0.11576705 0.1583811
0.26003391 -0.11576784 0.15842617
0.28081402 -0.11576784 0.15842617
-0.23931356 -0.13670395 0.16518533
-0.21848139 -0.13670395 0.16518533
-0.19764926 -0.13670395 0.16518533
-0.17681709 -0.13670395 0.16518533
-0.15598492 -0.13670395 0.16518533
-0.13515276 -0.13670395 0.16518533
-0.1143206 -0.13670395 0.16518533
-0.093487859 -0.13670361 0.16517043
-0.072655812 -0.13670361 0.16517043
-0.051823765 -0.13670361 0.16517043
-0.030991491 -0.13670334 0.16515553
-0.01015956 -0.13670334 0.16515553
0.010672371 -0.13670334 0.16515553
0.031504303 -0.13670334 0.16515553
0.052336235 -0.13670334 0.16515553
0.073168159 -0.13670334 0.16515553
0.094000094 -0.13670334 0.16515553
0.11483202 -0.13670334 0.16515553
0.13566464 -0.13670361 0.16517043
0.15649751 -0.13670395 0.16518533
0.17733058 -0.13670439 0.16520047
0.19816287 -0.13670439 0.16520047
0.2189963 -0.1367047 0.16521537
0.23982997 -0.13670504 0.16523051
-0.28182724 -0.1159932 0.1730665
-0.2215043 -0.15863541 0.20088422
-0.20039733 -0.15863541 0.20088422
-0.17929035 -0.15863541 0.20088422
-0.1581834 -0.15863541 0.20088422
-0.13707641 -0.15863541 0.20088422
-0.11596946 -0.15863541 0.20088422
-0.094862483 -0.15863541 0.20088422
-0.073755041 -0.15863493 0.20086873
-0.052648183 -0.15863493 0.20086873
-0.031541333 -0.15863493 0.20086873
-0.010434479 -0.15863493 0.20086873
0.010672371 -0.15863493 0.20086873
0.031779222 -0.15863493 0.20086873
0.052886076 -0.15863493 0.20086873
0.073992923 -0.15863493 0.20086873
0.095099777 -0.15863493 0.20086873
0.11620662 -0.15863493 0.20086873
0.1373142 -0.15863541 0.20088422
0.15842201 -0.15863588 0.2008996
0.17953004 -0.15863632 0.20091498
0.20063725 -0.15863632 0.20091498
0.22174565 -0.15863688 0.20093048
0.24285427 -0.15863732 0.20094585
-0.2629824 -0.13735859 0.19353116
0.26328245 -0.13736007 0.19359267
-0.28572896 -0.13772213 0.20926976
0.28581211 -0.13770132 0.20836997
-0.26659283 -0.15951991 0.22960889
-0.24526475 -0.15951991 0.22960889
0.2666153 -0.15952186 0.22967184
-0.22460803 -0.18115324 0.2375375
-0.20321889 -0.18115324 0.2375375
-0.18182977 -0.18115324 0.2375375
-0.16044064 -0.18115324 0.2375375
-0.13905151 -0.18115324 0.2375375
-0.11766239 -0.18115324 0.2375375
-0.096273266 -0.18115324 0.2375375
-0.074884146 -0.18115324 0.2375375
-0.053495008 -0.18115324 0.2375375
-0.03210564 -0.18115258 0.23752165
-0.010716635 -0.18115258 0.23752165
0.010672371 -0.18115258 0.23752165
0.032061376 -0.18115258 0.23752165
0.053450383 -0.18115258 0.23752165
0.074839383 -0.18115258 0.23752165
0.096228391 -0.18115258 0.23752165
0.117618 -0.18115324 0.2375375
0.13900788 -0.1811538 0.23755324
0.16039798 -0.18115436 0.23756921
0.18178833 -0.18115506 0.23758507
0.20317891 -0.18115562 0.23760068
0.22456852 -0.18115562 0.23760068
-0.28972411 -0.1600351 0.24634027
0.28954017 -0.16001295 0.24562311
-0.22779723 -0.20428184 0.27520013
-0.20611817 -0.20428184 0.27520013
-0.18443912 -0.20428184 0.27520013
-0.16276006 -0.20428184 0.27520013
-0.14108101 -0.20428184 0.27520013
-0.11940197 -0.20428184 0.27520013
-0.097722903 -0.20428184 0.27520013
-0.076043352 -0.20428114 0.27518392
-0.054364417 -0.20428114 0.27518392
-0.032685488 -0.20428114 0.27518392
-0.011006559 -0.20428114 0.27518392
0.010672371 -0.20428114 0.27518392
0.0323513 -0.20428114 0.27518392
0.054030232 -0.20428114 0.27518392
0.075709157 -0.20428114 0.27518392
0.097388089 -0.20428114 0.27518392
0.11906764 -0.20428184 0.27520013
0.14074746 -0.20428261 0.27521622
0.16242751 -0.20428334 0.27523279
0.18410783 -0.20428413 0.275249
0.20578837 -0.20428491 0.27526522
0.22746794 -0.20428491 0.27526522
-0.27030143 -0.18227431 0.26666713
-0.24868806 -0.18227431 0.26666713
0.24842492 -0.18227687 0.26673186
0.27003875 -0.18227687 0.26673186
0.29334775 -0.18292883 0.28367054
-0.27410892 -0.20564504 0.30471385
-0.25220266 -0.20564504 0.30471385
0.25164816 -0.20564888 0.30479681
0.27355504 -0.20564888 0.30479681
-0.23107266 -0.22804523 0.31388116
-0.20909585 -0.22804523 0.31388116
-0.18711902 -0.22804523 0.31388116
-0.16514219 -0.22804523 0.31388116
-0.14316536 -0.22804523 0.31388116
-0.12118856 -0.22804523 0.31388116
-0.099211745 -0.22804523 0.31388116
-0.077234916 -0.22804523 0.31388116
-0.055258092 -0.22804523 0.31388116
-0.033281013 -0.22804442 0.31386447
-0.011304322 -0.22804442 0.31386447
0.010672371 -0.22804442 0.31386447
0.032649063 -0.22804442 0.31386447
0.054625757 -0.22804442 0.31386447
0.076602452 -0.22804442 0.31386447
0.098579653 -0.22804523 0.31388116
0.12055713 -0.22804619 0.31389785
0.14253485 -0.22804706 0.31391466
0.16451283 -0.22804797 0.31393135
0.18649107 -0.22804892 0.31394804
0.20846957 -0.22804981 0.31396484
0.23044832 -0.22805069 0.31398153
-0.27802098 -0.22965775 0.34380567
-0.25581381 -0.22965775 0.34380567
0.2549586 -0.22966243 0.34389114
0.27716643 -0.22966243 0.34389114
-0.23443934 -0.25247055 0.35363972
-0.21215646 -0.25247055 0.35363972
-0.18987358 -0.25247055 0.35363972
-0.16759069 -0.25247055 0.35363972
-0.14530781 -0.25247055 0.35363972
-0.12302493 -0.25247055 0.35363972
-0.10074205 -0.25247055 0.35363972
-0.078459166 -0.25247055 0.35363972
-0.056176279 -0.25247055 0.35363972
-0.033893395 -0.25247055 0.35363972
-0.011610513 -0.25247055 0.35363972
0.010672371 -0.25247055 0.35363972
0.032955255 -0.25247055 0.35363972
0.055238139 -0.25247055 0.35363972
0.077521019 -0.25247055 0.35363972
0.099804424 -0.25247163 0.35365701
0.1220881 -0.25247267 0.35367405
0.14437206 -0.25247377 0.35369134
0.16665626 -0.25247484 0.35370851
0.18894072 -0.25247583 0.35372555
0.21122546 -0.25247693 0.35374284
0.23351048 -0.252478 0.35376012
-0.25952718 -0.25434056 0.38400412
0.25836274 -0.25434592 0.38409197
0.28088003 -0.25434592 0.38409197
-0.2379026 -0.27758709 0.39453888
-0.21530487 -0.27758709 0.39453888
-0.19270715 -0.27758709 0.39453888
-0.17010941 -0.27758709 0.39453888
-0.14751171 -0.27758709 0.39453888
-0.12491397 -0.27758709 0.39453888
-0.10231625 -0.27758709 0.39453888
-0.07971853 -0.27758709 0.39453888
-0.057120796 -0.27758709 0.39453888
-0.034522805 -0.27758586 0.39452112
-0.011925218 -0.27758586 0.39452112
0.010672371 -0.27758586 0.39452112
0.03326996 -0.27758586 0.39452112
0.055867549 -0.27758586 0.39452112
0.078465536 -0.27758709 0.39453888
0.10106381 -0.27758825 0.39455652
0.12366235 -0.27758959 0.39457417
0.14626117 -0.27759069 0.39459193
0.16886026 -0.27759197 0.39460957
0.19145961 -0.2775932 0.39462721
0.21405925 -0.27759439 0.39464486
0.23665914 -0.27759564 0.39466274
-0.28358009 -0.25528598 0.39935553
-0.24146359 -0.30342203 0.43659198
-0.21854213 -0.30342203 0.43659198
-0.19562069 -0.30342203 0.43659198
-0.17269924 -0.30342203 0.43659198
-0.14977778 -0.30342203 0.43659198
-0.12685633 -0.30342203 0.43659198
-0.10393488 -0.30342203 0.43659198
-0.081013441 -0.30342203 0.43659198
-0.058091979 -0.30342203 0.43659198
-0.035170533 -0.30342203 0.43659198
-0.012249081 -0.30342203 0.43659198
0.010672371 -0.30342203 0.43659198
0.033593822 -0.30342203 0.43659198
0.056515276 -0.30342203 0.43659198
0.079437137 -0.30342346 0.43661034
0.10235929 -0.30342489 0.43662858
0.12528172 -0.30342621 0.43664658
0.14820445 -0.30342764 0.43666494
0.17112744 -0.30342898 0.43668294
0.1940507 -0.3034305 0.4367013
0.21697426 -0.30343193 0.43671942
0.23989809 -0.30343318 0.43673766
-0.26334384 -0.27971965 0.42532063
0.26186305 -0.27972716 0.42542899
-0.28785178 -0.28087807 0.4420408
0.28612521 -0.28079718 0.44087291
-0.22193693 -0.33007786 0.48069191
-0.19867471 -0.33007613 0.48067307
-0.17541392 -0.33007613 0.48067307
-0.15215313 -0.33007613 0.48067307
-0.12889235 -0.33007613 0.48067307
-0.10563157 -0.33007613 0.48067307
-0.082370207 -0.33007461 0.48065436
-0.059109557 -0.33007461 0.48065436
-0.035848916 -0.33007461 0.48065436
-0.012588416 -0.33007613 0.48067307
0.010672371 -0.33007613 0.48067307
0.033933159 -0.33007613 0.48067307
0.057193946 -0.33007613 0.48067307
0.080454729 -0.33007613 0.48067307
0.10371552 -0.33007613 0.48067307
0.12697631 -0.33007613 0.48067307
0.1502371 -0.33007613 0.48067307
0.17349687 -0.33007461 0.48065436
0.19675753 -0.33007461 0.48065436
0.22001816 -0.33007461 0.48065436
0.2432788 -0.33007461 0.48065436
-0.27192241 -0.3803519 0.51818633
-0.24837284 -0.3803519 0.51818633
0.22283283 -0.38066152 0.52128065
0.246168 -0.3803519 0.51818633
0.2700741 -0.38077325 0.52239692
-0.27183196 -0.35671195 0.51720738
-0.24828993 -0.35671195 0.51720738
0.22276886 -0.35700294 0.52035749
0.24609266 -0.35671195 0.51720738
0.26998937 -0.35709879 0.52139628
-0.27221537 -0.33352125 0.52135742
-0.24864136 -0.33352125 0.52135742
-0.27255347 -0.40463758 0.52501774
-0.2489513 -0.40463758 0.52501774
0.22329906 -0.40496022 0.52801013
0.24669389 -0.40463758 0.52501774
0.27073282 -0.4051936 0.53017581
-0.22576112 -0.35792777 0.5303694
-0.20211777 -0.35792777 0.5303694
-0.17847441 -0.35792777 0.5303694
-0.15483107 -0.35792777 0.5303694
-0.13118772 -0.35792777 0.5303694
-0.10754438 -0.35792777 0.5303694
-0.083901025 -0.35792777 0.5303694
-0.060257677 -0.35792777 0.5303694
-0.036613133 -0.35792068 0.53029227
-0.012970381 -0.35792068 0.53029227
0.010672371 -0.35792068 0.53029227
0.034315124 -0.35792068 0.53029227
0.057957876 -0.35792068 0.53029227
0.081600629 -0.35792068 0.53029227
0.10524338 -0.35792068 0.53029227
0.12888613 -0.35792068 0.53029227
0.1525289 -0.35792068 0.53029227
0.17617165 -0.35792068 0.53029227
0.19981439 -0.35792068 0.53029227
0.2703957 -0.33393088 0.52619469
-0.27311757 -0.31069916 0.53112447
0.27136028 -0.31119651 0.53758597
-0.27396977 -0.43001023 0.5403496
-0.25024959 -0.43001023 0.5403496
0.22434172 -0.43032306 0.54305959
0.24787414 -0.43001023 0.5403496
0.27228063 -0.43094605 0.54845488
-0.27703452 -0.45781669 0.5735265
-0.25305894 -0.45781669 0.5735265
0.22657946 -0.45804244 0.57535863
0.25042811 -0.45781669 0.5735265
-0.23026885 -0.38743114 0.58892667
-0.20617473 -0.38743114 0.58892667
-0.18208061 -0.38743114 0.58892667
-0.15798649 -0.38743114 0.58892667
-0.13389236 -0.38743114 0.58892667
-0.10979825 -0.38743114 0.58892667
-0.085704125 -0.38743114 0.58892667
-0.061609995 -0.38743114 0.58892667
-0.037515875 -0.38743114 0.58892667
-0.013421752 -0.38743114 0.58892667
0.010672371 -0.38743114 0.58892667
0.034766495 -0.38743114 0.58892667
0.05886155 -0.38743713 0.58898699
0.082956128 -0.38743713 0.58898699
0.10705072 -0.38743713 0.58898699
0.1311453 -0.38743713 0.58898699
0.15523989 -0.38743713 0.58898699
0.17933448 -0.38743713 0.58898699
0.20342909 -0.38743713 0.58898699
-0.23456651 -0.44206586 0.64475489
-0.23698486 -0.42092767 0.67617023
-0.21315581 -0.42238471 0.68968976
-0.18828602 -0.42238471 0.68968976
-0.16341622 -0.42238471 0.68968976
-0.13854641 -0.42238471 0.68968976
-0.11367662 -0.42238471 0.68968976
-0.08880683 -0.42238471 0.68968976
-0.063937023 -0.42238471 0.68968976
-0.039059315 -0.42232931 0.68917584
-0.014193472 -0.42232931 0.68917584
0.010672371 -0.42232931 0.68917584
0.035538215 -0.42232931 0.68917584
0.060404059 -0.42232931 0.68917584
0.085269898 -0.42232931 0.68917584
0.11013574 -0.42232931 0.68917584
0.13500158 -0.42232931 0.68917584
0.15986742 -0.42232931 0.68917584
0.18473327 -0.42232931 0.68917584
0.20959912 -0.42232931 0.68917584
0.18772775 -0.453612 0.74474669
0.19034272 -0.48488271 0.79327464
-0.22464819 -0.46640849 0.85556781
-0.19850145 -0.46640849 0.85556781
-0.17235473 -0.46640849 0.85556781
-0.14620802 -0.46640849 0.85556781
-0.12006127 -0.46640849 0.85556781
-0.093914546 -0.46640849 0.85556781
-0.067767821 -0.46640849 0.85556781
-0.041621085 -0.46640849 0.85556781
-0.015470899 -0.46635658 0.85511851
0.010672371 -0.46635658 0.85511851
0.03681564 -0.46635658 0.85511851
0.062958911 -0.46635658 0.85511851
0.089102171 -0.46635658 0.85511851
0.11524545 -0.46635658 0.85511851
0.14138871 -0.46635658 0.85511851
0.16753198 -0.46635658 0.85511851
0.21981853 -0.46635658 0.85511851
0 0 0 1 0 0 0 1 0 0 0 1 0 0 0 0 0 1153 1 0 0
