ply
format ascii 1.0
comment PCL generated
element vertex 1314
property float x
property float y
property float z
element camera 1
property float view_px
property float view_py
property float view_pz
property float x_axisx
property float x_axisy
property float x_axisz
property float y_axisx
property float y_axisy
property float y_axisz
property float z_axisx
property float z_axisy
property float z_axisz
property float focal
property float scalex
property float scaley
property float centerx
property float centery
property int viewportx
property int viewporty
property float k1
property float k2
end_header
-0.48095703 -0.028102139 -0.20481074
0.56547177 -0.028102193 -0.20515597
-0.53023773 -0.003210796 -0.2080704
-0.50509316 -0.0032229237 -0.2096374
-0.48021126 -0.0032231379 -0.20965457
-0.45533472 -0.0032229237 -0.2096374
-0.43067265 -0.003210796 -0.2080704
-0.40606791 -0.00319409 -0.20588064
0.49055904 -0.0031975377 -0.20632923
0.51519561 -0.003210796 -0.2080704
0.53983361 -0.0032229237 -0.2096374
0.56470984 -0.0032231379 -0.20965457
0.58959198 -0.0032229237 -0.2096374
0.6147607 -0.003210796 -0.2080704
-0.50639862 -0.028102193 -0.20156169
-0.45656395 -0.028102193 -0.20123303
-0.43297392 -0.028102139 -0.19146228
0.51793492 -0.028102139 -0.19027829
0.54093504 -0.028102247 -0.20282412
0.59146935 -0.028102139 -0.19903421
-0.55631816 -0.0031592175 -0.20135403
0.64085132 -0.0031628832 -0.20183861
-0.5828861 0.021919202 -0.19255865
-0.55758917 0.021894298 -0.1941756
-0.38279849 0.02191893 -0.19257605
0.46756488 0.02191947 -0.19254124
0.64232939 0.02189457 -0.19415808
0.66764438 0.02191893 -0.19257605
-0.53422618 -0.028102193 -0.18451953
-0.41077757 -0.028102193 -0.16989219
0.61953193 -0.028102139 -0.18224549
0.49557388 -0.028102031 -0.17204273
-0.3850435 -0.0029512309 -0.17434871
0.46948934 -0.0029843766 -0.17865288
-0.41036713 0.022219889 -0.17302907
0.49542958 0.022219889 -0.17302907
-0.58547789 0.047253899 -0.1785301
-0.35959435 0.047290869 -0.17693257
0.44459438 0.047290437 -0.1769501
0.67046273 0.047254704 -0.17849481
-0.51376903 -0.053394526 -0.15596914
-0.48737264 -0.053339176 -0.16314042
-0.46224689 -0.053345159 -0.16237855
-0.43838304 -0.053421691 -0.15242529
0.52371883 -0.053419642 -0.15271056
0.54747045 -0.053344995 -0.16239643
0.57232052 -0.053327102 -0.16471589
0.59934944 -0.053405575 -0.15452766
-0.36144882 0.022407074 -0.16087174
-0.31179917 0.02253928 -0.15228271
0.44582993 0.022304937 -0.16750932
-0.38714302 0.047744036 -0.15730286
-0.31192589 0.047889285 -0.15101624
0.47244763 0.047744036 -0.15730286
-0.6139437 0.0729082 -0.1611377
-0.36123598 0.072859474 -0.16271532
0.446455 0.072858937 -0.16273296
0.69918197 0.072907016 -0.16117322
-0.54230988 -0.053542148 -0.13678777
-0.4156003 -0.053570986 -0.13304007
0.5006882 -0.053539939 -0.13707578
-0.56546772 -0.028102139 -0.14967752
-0.38921809 -0.028102193 -0.14045513
0.65220177 -0.028102193 -0.14285982
0.47405672 -0.028102085 -0.14569068
-0.59302032 -0.002669245 -0.13770545
0.44973022 -0.002669245 -0.13770545
-0.28668779 0.022574205 -0.1500169
-0.26142824 0.022588488 -0.14908803
-0.2361462 0.022601154 -0.1482662
-0.21084905 0.022613227 -0.14747977
-0.1855354 0.022624277 -0.14676428
-0.16020401 0.022633329 -0.14617372
-0.13485776 0.022640605 -0.14570856
-0.109494 0.02264357 -0.14551151
-0.084126674 0.022646267 -0.14533246
-0.058755748 0.022648584 -0.14518929
-0.033382073 0.022650201 -0.14508188
-0.0080067459 0.02265187 -0.14497447
0.017370239 0.022653434 -0.14486706
0.042749017 0.022655427 -0.14474165
0.068129718 0.02265742 -0.14461613
0.093512356 0.022659309 -0.14449084
0.11889748 0.022661518 -0.14434755
0.14427929 0.022661518 -0.14434755
0.16965447 0.022659309 -0.14449084
0.19502844 0.02265742 -0.14461613
0.22041148 0.022658177 -0.14456248
0.24578916 0.022657584 -0.14459825
0.27116215 0.022656292 -0.14468789
0.29652315 0.02265295 -0.14490283
0.32189405 0.02265187 -0.14497447
0.34724772 0.022648312 -0.14520717
0.37260944 0.022646267 -0.14533246
-0.66949868 0.048216544 -0.13684189
-0.64337534 0.048137747 -0.1402576
-0.28682142 0.047945715 -0.14856994
-0.26153868 0.047964036 -0.14778376
-0.23623978 0.047980852 -0.14705038
-0.21093082 0.047998264 -0.14629912
-0.18561365 0.048016854 -0.14549363
-0.16028409 0.04803545 -0.14468789
-0.13492724 0.048046552 -0.1442039
-0.10955261 0.048051566 -0.14398897
-0.084175207 0.048056901 -0.14375615
-0.058793813 0.048061967 -0.1435411
-0.033409387 0.048067302 -0.14330792
-0.0080202613 0.048069403 -0.14321852
0.017370239 0.048070595 -0.14316463
0.042762123 0.048073448 -0.14303911
0.068156213 0.048076786 -0.14289558
0.09355209 0.048079699 -0.14277005
0.11895046 0.048083045 -0.14262676
0.14434621 0.048083417 -0.14260876
0.16973312 0.048079319 -0.14278805
0.19511631 0.048074745 -0.14298534
0.22049536 0.048069835 -0.14320052
0.24586612 0.048063152 -0.14348722
0.27123386 0.048056901 -0.14375615
0.29659444 0.048049897 -0.14406085
0.32193542 0.048039168 -0.14452672
0.34727997 0.048030868 -0.14488482
0.37262487 0.048023865 -0.14518929
0.39795882 0.048015565 -0.14554739
0.73063034 0.048318572 -0.13242674
-0.72087234 0.073724516 -0.13462675
-0.69432199 0.073568106 -0.13970101
-0.6678865 0.07341747 -0.14459813
-0.6420337 0.073344655 -0.14696085
-0.59233987 0.073516153 -0.14138877
-0.31203312 0.073252656 -0.1499455
-0.28690565 0.073323146 -0.14765847
-0.26165378 0.073361203 -0.14642429
-0.23637204 0.073394775 -0.14533257
-0.21105115 0.073418386 -0.14456248
-0.18571956 0.073442802 -0.14377403
-0.16037486 0.073466457 -0.14300323
-0.13499928 0.073477454 -0.14264464
-0.10961194 0.073483653 -0.14244747
-0.084221587 0.073489636 -0.14225006
-0.05882819 0.073495887 -0.14205277
-0.03343175 0.07350187 -0.14185536
-0.008031169 0.073503651 -0.14180148
0.017370239 0.073503003 -0.14181936
0.042771235 0.07350187 -0.14185536
0.068171948 0.073501386 -0.14187336
0.093572393 0.073500738 -0.14189112
0.118972 0.073499657 -0.14192712
0.14437313 0.073500201 -0.14190924
0.16976792 0.073496267 -0.14203489
0.19516173 0.073492974 -0.1421423
0.22055389 0.073489636 -0.14225006
0.24593693 0.073483005 -0.14246523
0.27129871 0.073469266 -0.14291346
0.29665667 0.073456541 -0.14332592
0.3220132 0.073445551 -0.14368451
0.34736067 0.073433422 -0.14407873
0.37270206 0.073421352 -0.14447284
0.39801878 0.073404156 -0.14502811
0.42419094 0.073603034 -0.13856864
0.67788947 0.073516153 -0.14138877
0.72996199 0.07369671 -0.13552749
0.75582206 0.073753349 -0.13368928
-0.74631649 0.09917897 -0.13468087
-0.71994418 0.099021003 -0.13878429
-0.6939311 0.098915949 -0.14151454
-0.66818821 0.098853171 -0.14314663
-0.64246356 0.098789141 -0.14481318
-0.61701304 0.098774418 -0.1451894
-0.33862501 0.099039108 -0.13831699
-0.31247503 0.09876132 -0.14552939
-0.28731245 0.098849013 -0.14325428
-0.26204675 0.098905668 -0.1417836
-0.23675163 0.098958805 -0.14040148
-0.21139793 0.098991245 -0.13955724
-0.18603127 0.0990237 -0.13871241
-0.16065259 0.099057004 -0.13784945
-0.13522907 0.099063963 -0.13766956
-0.10979792 0.099066064 -0.13761544
-0.084367067 0.099069446 -0.13752556
-0.058937721 0.099077746 -0.13730967
-0.03350478 0.099085405 -0.13711154
-0.008068379 0.099091008 -0.13696778
0.017370239 0.099095806 -0.13684189
0.042810798 0.099100709 -0.13671577
0.068251908 0.09910211 -0.13667989
0.093691915 0.099100709 -0.13671577
0.11913192 0.099100009 -0.13673389
0.14456542 0.099093065 -0.13691378
0.16999032 0.099081203 -0.13721967
0.19541341 0.099071607 -0.13747156
0.22084041 0.099066809 -0.13759756
0.24626172 0.099059805 -0.13777733
0.27163732 0.099031404 -0.13851464
0.29701841 0.099010766 -0.13905406
0.32238615 0.098987967 -0.13964689
0.34776819 0.098974064 -0.1400063
0.37314862 0.098961443 -0.1403296
0.39851159 0.098944947 -0.14076054
0.42337549 0.098774418 -0.1451894
0.73019886 0.09918873 -0.1344285
0.75593883 0.099237174 -0.13316631
-0.72129905 0.12472597 -0.13271558
-0.6953885 0.12463187 -0.13475299
-0.66956598 0.12455043 -0.13651776
-0.64376026 0.12446634 -0.13833499
-0.61798626 0.12438355 -0.14013195
-0.33831328 0.12433365 -0.14120936
-0.31319678 0.12446731 -0.13831687
-0.28793806 0.12455204 -0.13648188
-0.26262993 0.12462528 -0.13489687
-0.23727803 0.12468684 -0.13356304
-0.21186693 0.12472257 -0.13278747
0.29756737 0.12473276 -0.1325711
0.32298148 0.12470354 -0.13320243
0.34838957 0.124676 -0.13379765
0.3738234 0.1246634 -0.13406789
0.39925313 0.12465104 -0.13433838
0.42460549 0.12461106 -0.13520324
-0.49395829 -0.079234883 -0.1203649
-0.46807039 -0.079201087 -0.122563
0.55418295 -0.07922706 -0.12087381
0.57982242 -0.079234183 -0.1204195
0.62893945 -0.053584136 -0.1313256
-0.36498362 -0.0026118439 -0.13025999
-0.3139742 -0.002614053 -0.13054907
-0.28847277 -0.0026152935 -0.13069332
-0.26297671 -0.0026160479 -0.1308018
-0.23748504 -0.0026165862 -0.13087416
-0.21199702 -0.0026168022 -0.1309104
-0.18652067 -0.0026157778 -0.13076568
-0.16104111 -0.0026147533 -0.13063931
-0.13555878 -0.0026139989 -0.13053095
-0.11006992 -0.002614053 -0.13054907
-0.084580772 -0.002614323 -0.13058519
-0.059092604 -0.0026144851 -0.13060319
-0.033604711 -0.0026146453 -0.13062131
-0.0081170965 -0.0026147533 -0.13063931
0.017370239 -0.0026147533 -0.13063931
0.042857572 -0.0026147533 -0.13063931
0.068344906 -0.0026147533 -0.13063931
0.093832247 -0.0026147533 -0.13063931
0.11931958 -0.0026147533 -0.13063931
0.14480692 -0.0026147533 -0.13063931
0.17029342 -0.0026149694 -0.1306572
0.19578062 -0.0026149694 -0.1306572
0.22126669 -0.0026150774 -0.13067532
0.24675 -0.0026155077 -0.13072956
0.27223247 -0.0026159398 -0.1307838
0.29772019 -0.0026157778 -0.13076568
0.3232066 -0.0026157778 -0.13076568
0.34869111 -0.0026159398 -0.1307838
0.37417734 -0.0026159398 -0.1307838
-0.67349046 0.023072697 -0.1176362
-0.64627814 0.02294771 -0.12575471
0.73299521 0.023013949 -0.12145531
-0.75072402 0.048707381 -0.1155957
-0.72326982 0.048515886 -0.12388754
-0.6963141 0.048364006 -0.13045859
0.42654282 0.048617803 -0.11947393
0.75699127 0.048410408 -0.12845206
0.78405255 0.048566222 -0.12170947
-0.77583152 0.074246451 -0.11767268
-0.74787194 0.073930241 -0.12794554
-0.34076357 0.074221872 -0.11847353
0.78206539 0.073857315 -0.13031411
0.80996418 0.074168034 -0.12021947
-0.80098391 0.099765852 -0.11943758
-0.77341455 0.099443719 -0.12780058
-0.59530532 0.099538624 -0.12533796
-0.36554986 0.099537924 -0.12535608
0.45134634 0.099537924 -0.12535608
0.6810984 0.099537924 -0.12535608
0.7082839 0.099844977 -0.11738133
0.78205287 0.099344969 -0.13036823
0.80882925 0.099552587 -0.12497556
0.83635652 0.099864483 -0.11687124
0.86203313 0.099877045 -0.11654329
-0.79998606 0.12515223 -0.12348843
-0.77331096 0.12493293 -0.12823498
-0.74724984 0.12482201 -0.1306392
-0.59431583 0.12481947 -0.13069355
-0.36539924 0.12500569 -0.12666035
-0.1864506 0.12476359 -0.13190329
-0.16102067 0.12480433 -0.13101864
-0.13554209 0.12481026 -0.13089216
-0.11005948 0.1248135 -0.13081992
-0.084575213 0.12481597 -0.13076556
-0.059090517 0.12481947 -0.13069355
-0.033604432 0.12482201 -0.1306392
-0.0081177913 0.12482606 -0.13054907
0.017370239 0.12483096 -0.13044047
0.042860217 0.1248377 -0.13029599
0.068352148 0.12484363 -0.13016951
0.093846016 0.12484933 -0.13004303
0.11934184 0.12485527 -0.12991655
0.14482987 0.12484933 -0.13004303
0.17030761 0.12483521 -0.13035035
0.19577965 0.12482017 -0.13067532
0.22124779 0.12480594 -0.13098252
0.24671121 0.12479194 -0.13128936
0.272156 0.1247694 -0.13177705
0.68003011 0.12481947 -0.13069355
0.70540816 0.12479523 -0.13121724
0.73181081 0.12499227 -0.12694991
0.75762171 0.12505333 -0.12562776
0.78373808 0.12517148 -0.12307107
0.81015944 0.12534092 -0.11940122
0.83685941 0.12555221 -0.11483002
0.8623665 0.12553345 -0.11523104
-0.80172825 0.15107565 -0.11641574
-0.77538431 0.15090695 -0.11954689
-0.74925339 0.15077668 -0.12196386
-0.72320908 0.15065837 -0.12415934
-0.69720697 0.15054223 -0.12631619
-0.67128009 0.15043691 -0.12827122
-0.64540899 0.15033834 -0.13009727
-0.61956996 0.15024111 -0.13190329
-0.59709841 0.15111795 -0.11563206
-0.36630255 0.15094522 -0.11883736
-0.33933377 0.15024984 -0.13174081
-0.31411159 0.15038803 -0.12917542
-0.2887584 0.15047292 -0.12760162
-0.26338565 0.15056072 -0.12597203
-0.23796006 0.150629 -0.12470353
-0.21247852 0.15066916 -0.1239599
-0.18698446 0.15070812 -0.12323427
-0.16148023 0.15074827 -0.12249017
-0.13593939 0.15075906 -0.12229049
-0.11039127 0.1507639 -0.12219965
-0.084842332 0.15076983 -0.12209082
-0.059291705 0.15077572 -0.12198174
-0.03373912 0.15078072 -0.12189114
-0.0081856996 0.15078935 -0.12172759
0.017370239 0.15079619 -0.12160039
0.042928137 0.15080303 -0.12147343
0.068487987 0.15081009 -0.12134612
0.094049796 0.15081689 -0.12121904
0.11961357 0.15082373 -0.12109184
0.1451723 0.15082066 -0.12114632
0.17071593 0.1508012 -0.12150955
0.19625397 0.15078153 -0.1218729
0.22178642 0.15076202 -0.12223613
0.24731329 0.15074262 -0.12259912
0.27284157 0.15072779 -0.1228714
0.2983641 0.15071216 -0.12316179
0.32387882 0.15069453 -0.12348819
0.34938854 0.15067692 -0.12381494
0.37489128 0.15065837 -0.12415934
0.40038872 0.15063983 -0.12450421
0.42587638 0.15061936 -0.12488484
0.45169526 0.1507376 -0.12268996
0.70750892 0.15082276 -0.12110984
0.73349279 0.15092845 -0.11914659
0.75959283 0.15105516 -0.1167984
0.78578454 0.15119454 -0.11420965
-0.69982827 0.17681164 -0.11415505
-0.67381608 0.17669378 -0.11606967
-0.64792126 0.17660286 -0.11754513
-0.62204242 0.17650999 -0.11905563
-0.59593201 0.17633185 -0.1219455
-0.57042921 0.1763497 -0.12165487
-0.39116943 0.17616777 -0.12461269
-0.36596674 0.17634426 -0.12174571
-0.34069693 0.17650768 -0.11909211
-0.31534111 0.17664345 -0.11688948
-0.2898944 0.17674094 -0.11530411
-0.39348024 -0.053780317 -0.10585117
0.47898829 -0.05374755 -0.11009979
0.45395166 -0.028102193 -0.10544777
-0.36858493 -0.028102085 -0.099071503
0.68348998 -0.0024821684 -0.11340678
-0.72895366 0.023368534 -0.098426938
-0.70115203 0.023220964 -0.10801339
0.428922 0.023341801 -0.10015726
0.76061082 0.023155805 -0.11223829
0.78937835 0.023365032 -0.098647952
-0.77990156 0.049053177 -0.10061717
-0.34165424 0.04883156 -0.11020947
0.81502408 0.049090102 -0.09901619
-0.80585116 0.074800506 -0.099678874
0.84128588 0.074887335 -0.096860766
-0.83250821 0.10066727 -0.096012354
0.66123527 0.10067089 -0.095920086
-0.82846522 0.12568614 -0.11192763
-0.57264358 0.12581451 -0.1091485
0.45346975 0.12581538 -0.10913014
0.65868604 0.1258136 -0.10916674
-0.85678262 0.15187056 -0.10166538
-0.8284142 0.15130658 -0.11212862
-0.57466251 0.15208173 -0.09774518
0.66051549 0.15197842 -0.099660397
0.68352652 0.15124778 -0.11322427
0.81228316 0.15139434 -0.110502
0.83909827 0.15165083 -0.10574102
0.86695361 0.15211239 -0.097173929
-0.83112824 0.17759439 -0.10144472
-0.80458373 0.17738624 -0.10482395
-0.77830702 0.17723395 -0.10729921
-0.75202703 0.17707036 -0.1099534
-0.72589892 0.17693755 -0.11211026
-0.54642421 0.17691411 -0.11249375
-0.52164876 0.17723857 -0.10722589
-0.49621826 0.17733343 -0.10568619
-0.47060859 0.17736264 -0.10520935
-0.44457245 0.1772057 -0.10775709
-0.41813618 0.17684215 -0.11366224
-0.26442647 0.17684102 -0.11368048
-0.23890556 0.17691864 -0.11242092
-0.21332608 0.17696129 -0.11172676
-0.18773593 0.17700391 -0.11103237
-0.16213706 0.17704912 -0.11030078
-0.13651597 0.17707951 -0.10980713
-0.11088657 0.17710866 -0.10933137
-0.08525043 0.17713913 -0.10883737
-0.05960118 0.17715502 -0.10858083
-0.033945452 0.17716062 -0.10848951
-0.0082891565 0.17717293 -0.10828805
0.017370239 0.17718644 -0.10806823
0.043032877 0.17719907 -0.10786688
0.068698898 0.17721252 -0.10764718
0.09436661 0.1772216 -0.10750055
0.12003602 0.17722951 -0.10737228
0.14570457 0.17723274 -0.10731733
0.17137145 0.17723274 -0.10731733
0.19703831 0.17723274 -0.10731733
0.22269391 0.1772216 -0.10750055
0.24833396 0.17719907 -0.10786688
0.27398676 0.17719108 -0.10799491
0.29963291 0.17717981 -0.10817802
0.32527113 0.17716511 -0.10841632
0.35090208 0.17714818 -0.10869086
0.37654257 0.17713913 -0.10883737
0.40217239 0.17712565 -0.10905695
0.42775148 0.17708841 -0.10966074
0.45335966 0.17706928 -0.10997188
0.47885662 0.17700282 -0.11105037
0.50424349 0.17689718 -0.11276805
0.53032988 0.17708178 -0.10977054
0.55628556 0.17719907 -0.10786688
0.58209097 0.17725091 -0.10702431
0.60707957 0.17701425 -0.11086774
0.63259417 0.17697242 -0.11154389
0.65863669 0.17710316 -0.10942292
0.68465012 0.17721482 -0.10761046
0.71066517 0.17731851 -0.10592449
0.73677373 0.17744176 -0.10392475
0.76297939 0.17758311 -0.10162866
0.78926355 0.17773603 -0.099145055
-0.70370305 0.20367141 -0.096178412
-0.67735291 0.20347226 -0.099053025
-0.65122104 0.20333326 -0.10105836
-0.62511343 0.20319206 -0.10309851
-0.59910882 0.20307742 -0.10475051
-0.57321435 0.20299624 -0.10592449
-0.54736912 0.20292753 -0.10691428
-0.52161324 0.20289071 -0.10744572
-0.49589658 0.20286787 -0.10777533
-0.47018772 0.20284641 -0.10808659
-0.44459027 0.20287821 -0.10762882
-0.41899049 0.20291238 -0.10713434
-0.39337415 0.20294154 -0.1067127
-0.36781263 0.20300762 -0.10575962
-0.34228605 0.20310549 -0.10434699
-0.31677455 0.20322882 -0.10256588
-0.29124433 0.20335869 -0.10069084
-0.26568538 0.20348886 -0.098813772
-0.24009632 0.20361789 -0.096952796
-0.34499019 -0.028102139 -0.079255223
-0.31910735 -0.028102139 -0.079255223
-0.26649225 -0.028102139 -0.089285254
-0.24067943 -0.028102139 -0.089377761
-0.21487062 -0.028102139 -0.089433193
-0.1890752 -0.028102139 -0.089285254
-0.16327651 -0.028102139 -0.089155436
-0.11166671 -0.028102193 -0.089062929
-0.085858755 -0.028102139 -0.089081526
-0.060051076 -0.028102139 -0.089100003
-0.034243401 -0.028102193 -0.089136958
-0.0084364377 -0.028102139 -0.089155436
0.017370239 -0.028102139 -0.089155436
0.043177061 -0.028102193 -0.089136958
0.068983883 -0.028102193 -0.089136958
0.094790697 -0.028102193 -0.089136958
0.12059752 -0.028102193 -0.089136958
0.14640434 -0.028102193 -0.089136958
0.17221031 -0.028102139 -0.089155436
0.19801599 -0.028102247 -0.089174032
0.22382252 -0.028102247 -0.089174032
0.24962519 -0.028102139 -0.089229703
0.27542704 -0.028102139 -0.089285254
0.32703841 -0.028102139 -0.089285254
0.35284406 -0.028102139 -0.089285254
0.37864977 -0.028102139 -0.089285254
0.4056136 -0.028102139 -0.079255223
-0.29230648 -0.028102085 -0.089192748
-0.13747495 -0.028102085 -0.089044452
0.30123425 -0.028102085 -0.089266658
0.43149877 -0.028102031 -0.079236627
-0.65489209 -0.0022458322 -0.082716703
0.7149058 -0.0022674985 -0.085521698
0.73919952 -0.0023224186 -0.092670679
0.76745039 -0.0022372622 -0.081600904
-0.7846483 0.023640983 -0.080726385
-0.75670606 0.023503006 -0.089692593
-0.34433287 0.023569677 -0.085354567
0.71379656 0.023485057 -0.090858579
-0.62823182 0.049370199 -0.086894631
0.66460741 0.049566381 -0.078398108
0.71288258 0.049177088 -0.095255971
0.6642167 0.075393207 -0.080428362
-0.57600629 0.10089278 -0.090155125
-0.85979509 0.12669174 -0.090155363
-0.54976571 0.15235029 -0.092763066
-0.39508772 0.15234819 -0.092799902
0.48138803 0.15234922 -0.092781425
0.63606054 0.15234922 -0.092781425
-0.85855186 0.17799717 -0.094905496
0.81582016 0.17794946 -0.095680356
0.84271884 0.17823507 -0.091043591
0.87109876 0.17886242 -0.080856442
-0.83635366 0.20473172 -0.080875158
-0.80956727 0.20447403 -0.084593534
-0.78305686 0.20428 -0.08739531
-0.75648379 0.20405401 -0.090655088
-0.73013145 0.20388111 -0.093150973
-0.21443012 0.20369819 -0.095790982
-0.18874499 0.20377748 -0.094646931
-0.16304129 0.20385557 -0.093520641
-0.13730833 0.20391572 -0.092652082
-0.11156058 0.20397328 -0.091820359
-0.08580061 0.20403224 -0.090969563
-0.06002713 0.20409007 -0.090136766
-0.034240834 0.20414774 -0.089303732
-0.0084371511 0.20416434 -0.089062929
0.017370239 0.20417599 -0.088896275
0.043180764 0.20419259 -0.088655353
0.068995863 0.20421323 -0.088359118
0.094815515 0.20423371 -0.088062525
0.12063973 0.2042542 -0.087766051
0.14646138 0.204262 -0.08765471
0.17227963 0.204262 -0.08765471
0.19809785 0.204262 -0.08765471
0.2239161 0.204262 -0.08765471
0.24973303 0.20426071 -0.087673306
0.27554256 0.204253 -0.087784529
0.30134255 0.20423883 -0.087988496
0.32711881 0.20420919 -0.088414431
0.35290527 0.20419134 -0.08867383
0.37867373 0.20416434 -0.089062929
0.40445971 0.20415168 -0.08924818
0.43025196 0.20414376 -0.089359164
0.45605224 0.20414127 -0.089396238
0.4818545 0.20414004 -0.089414835
0.50765377 0.2041374 -0.089451909
0.53345531 0.20413616 -0.089470387
0.55933142 0.20416683 -0.089025855
0.58522063 0.2042004 -0.08854413
0.61119282 0.20426324 -0.087636232
0.63716877 0.2043222 -0.086783171
0.66332585 0.20444186 -0.085057616
0.68953949 0.2045718 -0.0831815
0.71584833 0.20472385 -0.080986857
0.74224377 0.20489302 -0.07854712
-0.71075976 -0.0020975061 -0.063439131
-0.68270516 -0.002173394 -0.073302031
-0.63192898 -0.0021301154 -0.067683816
-0.34671909 -0.0020957291 -0.063213468
0.40746593 -0.0020957291 -0.063213468
0.43181109 -0.0021996424 -0.076701045
0.79794836 -0.0020829029 -0.061538815
-0.81547379 0.023950618 -0.060616136
-0.63011104 0.023696281 -0.077130079
0.40671164 0.023810003 -0.069745779
0.82231772 0.023829944 -0.068452716
-0.84003359 0.04984352 -0.066388965
-0.81131846 0.049587511 -0.077484488
-0.58080977 0.049921401 -0.063025355
-0.57951707 0.075704299 -0.070326567
-0.55495495 0.12798655 -0.062122226
-0.39715797 0.12734604 -0.07599175
0.48498267 0.12776875 -0.066839457
0.64084303 0.127766 -0.066895723
-0.52765626 0.15357333 -0.070064425
-0.50211823 0.15371874 -0.067364931
-0.47622335 0.15374804 -0.066820741
-0.44996929 0.15364102 -0.068808794
-0.42341799 0.15339893 -0.073301911
0.50975078 0.15330125 -0.07511425
0.53641707 0.15356421 -0.070232987
0.56252992 0.15361772 -0.069239855
0.58844233 0.15360275 -0.069521189
0.61368114 0.15338382 -0.073582172
0.76879007 0.20509724 -0.07559979
0.79560333 0.2053677 -0.071693182
0.82306564 0.20580949 -0.065318704
-0.76345581 0.23217322 -0.060465455
-0.73690718 0.23199354 -0.062799573
-0.71035057 0.2317981 -0.06533742
-0.68376374 0.2315772 -0.068208694
-0.65736073 0.23140977 -0.070382833
-0.63099533 0.2312441 -0.072535038
-0.604774 0.23112462 -0.074086785
-0.57865947 0.2310413 -0.075170398
-0.55258077 0.23096658 -0.076141119
-0.52658641 0.23092477 -0.076682448
-0.50062627 0.2308961 -0.077055454
-0.47468275 0.23087312 -0.077353835
-0.44879818 0.23088042 -0.077260733
-0.42292917 0.2308975 -0.077036858
-0.3971166 0.23095216 -0.076327682
-0.37129521 0.23100819 -0.075599909
-0.34554523 0.23112322 -0.07410562
-0.31979108 0.23125274 -0.072422981
-0.29403538 0.23140256 -0.070476532
-0.268269 0.23156987 -0.06830287
-0.24248959 0.23175757 -0.065863132
-0.21671847 0.23199646 -0.062762022
-0.19087325 0.23220222 -0.060088396
-0.32269681 -0.054261185 -0.043387175
-0.29623926 -0.05423623 -0.046619058
-0.27009547 -0.054235365 -0.046733141
-0.24395637 -0.054234829 -0.046808958
-0.21781844 -0.054234236 -0.046885014
-0.19169456 -0.054235313 -0.046751976
-0.16556862 -0.05423623 -0.046619058
-0.13944064 -0.054237306 -0.046486139
-0.11330476 -0.054237146 -0.046505094
-0.087169178 -0.054236986 -0.046524167
-0.06103345 -0.05423677 -0.046562076
-0.034898594 -0.054236501 -0.046581268
-0.0087640304 -0.05423639 -0.046600103
0.017370239 -0.05423639 -0.046600103
0.043504506 -0.05423639 -0.046600103
0.069638774 -0.05423639 -0.046600103
0.095773049 -0.05423639 -0.046600103
0.1219079 -0.054236501 -0.046581268
0.14804158 -0.05423639 -0.046600103
0.17417586 -0.05423639 -0.046600103
0.2003091 -0.05423623 -0.046619058
0.22644205 -0.05423623 -0.046637893
0.25257209 -0.054235689 -0.046695113
0.27870274 -0.054235365 -0.046733141
0.30483758 -0.054235473 -0.046714187
0.33096921 -0.054235365 -0.046733141
0.35710055 -0.054235313 -0.046751976
0.38323569 -0.054235365 -0.046733141
0.40983659 -0.054266572 -0.042683005
-0.63594997 -0.028102139 -0.046789885
0.69520026 -0.028102139 -0.054898858
0.74691761 -0.028102139 -0.056863308
-0.60957867 -0.028102085 -0.048080921
0.72128242 -0.028102085 -0.054842114
0.7753107 -0.028102085 -0.046391249
-0.76679826 -0.0019632522 -0.045992136
-0.73893267 -0.0020227525 -0.053726673
-0.55751294 0.024159845 -0.047017813
-0.53138191 0.024159845 -0.047017813
-0.50525087 0.024159845 -0.047017813
-0.47911978 0.024159845 -0.047017813
-0.45298874 0.024159845 -0.047017813
0.53999418 0.024160277 -0.046998858
0.56612539 0.024160277 -0.046998858
0.59225661 0.024160277 -0.046998858
0.61838782 0.024160277 -0.046998858
0.64451903 0.024160277 -0.046998858
-0.8678422 0.050004728 -0.059409857
0.85090619 0.050041862 -0.057806969
-0.872006 0.07653027 -0.043501496
-0.84174907 0.076033555 -0.059636116
0.85157603 0.20651834 -0.055087805
-0.81690544 0.23260899 -0.054804087
-0.79012227 0.23237933 -0.057788253
-0.16498813 0.23240979 -0.057391763
-0.138991 0.2325 -0.056221366
-0.11296351 0.23256533 -0.055371284
-0.086922362 0.23262952 -0.054539561
-0.060868427 0.23269339 -0.0537076
-0.03480285 0.23276351 -0.052799582
-0.0087173264 0.23277359 -0.052667022
0.017370239 0.23277651 -0.052629113
0.043458968 0.23278524 -0.052515626
0.0695512 0.2328027 -0.052288413
0.095646925 0.23282014 -0.0520612
0.12174556 0.2328362 -0.05185318
0.14784449 0.23284651 -0.051720619
0.17394897 0.23286252 -0.051512122
0.20005564 0.23287697 -0.051322818
0.22616522 0.2328916 -0.051133394
0.25222915 0.23285218 -0.051644921
0.27828819 0.23281579 -0.052118182
0.30433023 0.23277061 -0.05270493
0.33038259 0.2327414 -0.053083301
0.35639501 0.23268621 -0.053802252
0.38243717 0.23265992 -0.054142714
0.40846753 0.23262952 -0.054539561
0.43448943 0.23259734 -0.054955482
0.46056432 0.23260038 -0.054917693
0.48659527 0.23257838 -0.055201292
0.51264673 0.23256965 -0.05531466
0.53874302 0.23258434 -0.055125594
0.5648483 0.23260187 -0.054898739
0.59105641 0.23266433 -0.054085851
0.6172201 0.23270212 -0.053594232
0.64345431 0.23276614 -0.052761674
0.66978163 0.23286252 -0.051512122
0.69613218 0.23296024 -0.05024302
0.72271138 0.23313533 -0.047967076
-0.50606483 0.2597872 -0.041730881
-0.47978443 0.25972438 -0.042473555
-0.4535867 0.25970489 -0.04270196
-0.4274075 0.25969529 -0.042816162
-0.40128398 0.25972259 -0.042492628
0.069688536 0.2596485 -0.043368101
0.069606923 0.28531802 -0.048668981
-0.37583613 -0.054315835 -0.036274552
-0.34923971 -0.054288562 -0.039825082
0.43635303 -0.054288562 -0.039825082
0.46291411 -0.054310609 -0.036962152
-0.66388929 -0.028102193 -0.037764311
-0.69216508 -0.028102085 -0.027788162
0.80548114 -0.028102085 -0.02892077
-0.79811633 -0.0017962251 -0.02428937
0.82873547 -0.0019289739 -0.041559458
0.85628104 0.024329942 -0.035987735
-0.56028217 0.050668515 -0.030666232
-0.53402525 0.050668515 -0.030666232
-0.50776541 0.050668247 -0.030685544
-0.48150855 0.050668247 -0.030685544
-0.45525181 0.050668247 -0.030685544
-0.42899501 0.050668247 -0.030685544
0.51625186 0.050668515 -0.030666232
0.54250878 0.050668515 -0.030666232
0.5687657 0.050668515 -0.030666232
0.59502262 0.050668515 -0.030666232
0.62127954 0.050668515 -0.030666232
0.64753652 0.050668515 -0.030666232
0.88360536 0.050646529 -0.031624556
0.88546389 0.077121295 -0.024308562
-0.87554604 0.10320899 -0.02997601
-0.5599739 0.1031124 -0.032486677
-0.40354025 0.10343249 -0.024173856
0.64622515 0.10290937 -0.03776443
-0.53379911 0.12937482 -0.032065272
-0.50815231 0.12955457 -0.028172135
-0.48195761 0.12958048 -0.027615309
-0.45549101 0.12951818 -0.028959155
-0.42882949 0.12938015 -0.031950474
0.51565254 0.12925005 -0.034764171
0.54252058 0.12944295 -0.0305897
0.56892383 0.12948477 -0.029688358
0.59491551 0.12941012 -0.031298876
0.62043214 0.12921835 -0.035452604
-0.8470192 0.23383395 -0.038890362
-0.69246453 0.26108992 -0.02634716
-0.66562468 0.26085716 -0.029093266
-0.63882798 0.260625 -0.031835437
-0.61202484 0.26037067 -0.034840703
-0.58543456 0.26019579 -0.036904812
-0.55889261 0.26002932 -0.038871169
-0.53242755 0.25988722 -0.040549278
-0.37522143 0.25979847 -0.041597486
-0.34923148 0.25994211 -0.039901376
-0.32327098 0.26013261 -0.037649751
-0.2974121 0.26044834 -0.033922434
0.096117564 0.260638 -0.031682134
-0.71929783 0.26130313 -0.023827314
0.095918939 0.28609264 -0.040282488
-0.59063327 -0.054537132 -0.007542491
0.67702663 -0.054488357 -0.013866067
0.70399851 -0.05451094 -0.010939956
0.72997224 -0.054494828 -0.013033152
0.75568497 -0.054470517 -0.016187906
0.78345007 -0.0545187 -0.0099310875
-0.74911278 -0.028102139 -0.0081255436
-0.72061956 -0.028102085 -0.017695308
0.83592212 -0.028102085 -0.01144433
0.8607443 -0.0017466955 -0.017868996
-0.56307495 0.077433355 -0.014175892
-0.53669107 0.077433355 -0.014175892
-0.51030719 0.077433355 -0.014175892
-0.48392338 0.077433355 -0.014175892
-0.45753944 0.077433355 -0.014175892
-0.43115306 0.077432871 -0.014195204
-0.4047693 0.077432871 -0.014195204
0.49227995 0.077433355 -0.014175892
0.51866663 0.077434003 -0.014156342
0.54505062 0.077434003 -0.014156342
0.57143468 0.077434003 -0.014156342
0.59781539 0.077433355 -0.014175892
0.62419927 0.077433355 -0.014175892
0.65058315 0.077433355 -0.014175892
0.49222362 0.10380147 -0.014582276
-0.74620521 0.26152998 -0.021149755
-0.27260339 0.26187146 -0.017115712
-0.40797645 -0.081270501 0.011843562
-0.38097066 -0.081214234 0.008191824
-0.35401976 -0.081157856 0.0045285225
-0.32712412 -0.081101321 0.0008534193
-0.30027318 -0.081042737 -0.0029504299
-0.27379131 -0.081040576 -0.0030868053
-0.24731611 -0.081039444 -0.003164649
-0.22084209 -0.081038155 -0.0032427311
-0.19438124 -0.08103998 -0.0031256676
-0.16791965 -0.081042089 -0.0029894114
-0.14145596 -0.081044137 -0.0028529167
-0.11498418 -0.081043921 -0.0028723478
-0.088512704 -0.081043646 -0.0028920174
-0.062041514 -0.081043325 -0.0029114485
-0.035570633 -0.081043005 -0.0029308796
-0.0091000479 -0.081042737 -0.0029504299
0.017370239 -0.081042737 -0.0029504299
0.043840528 -0.081042737 -0.0029504299
0.070310816 -0.081042737 -0.0029504299
0.09678109 -0.081042737 -0.0029504299
0.12325139 -0.081042737 -0.0029504299
0.14972165 -0.081042737 -0.0029504299
0.17619106 -0.081042409 -0.002969861
0.20266117 -0.081042409 -0.002969861
0.22912893 -0.081041925 -0.0030087233
0.2555947 -0.081040904 -0.0030671358
0.28206259 -0.081040576 -0.0030868053
0.30853182 -0.081040576 -0.0030868053
0.33500105 -0.081040576 -0.0030868053
0.36146832 -0.081040256 -0.0031063557
0.38793951 -0.081040576 -0.0030868053
0.41494715 -0.08111237 0.0015759468
0.44181359 -0.081157535 0.0045089722
0.46872574 -0.081202805 0.0074470043
0.49568379 -0.08124803 0.010389805
-0.67317367 -0.054661475 0.0086233616
-0.64478838 -0.054588392 -0.00086414814
-0.6177367 -0.054564893 -0.003924489
0.81341839 -0.054637007 0.0054484606
-0.77699494 -0.028102193 -0.0018392801
-0.53938282 0.1044582 0.0024749041
-0.51287073 0.1044582 0.0024749041
-0.48635876 0.1044582 0.0024749041
-0.45984668 0.1044582 0.0024749041
-0.43333459 0.1044582 0.0024749041
0.52110201 0.10445873 0.0024944544
0.54761422 0.10445873 0.0024944544
0.57412642 0.10445873 0.0024944544
0.60063863 0.10445873 0.0024944544
0.62714732 0.1044582 0.0024749041
-0.54387408 -0.081553943 0.030257463
-0.46216267 -0.081383526 0.019189596
-0.43504208 -0.081327148 0.01552248
0.52268803 -0.081293516 0.013337851
0.54974133 -0.081339218 0.016310573
0.63117087 -0.081476122 0.025199771
0.65841091 -0.081522197 0.028193116
0.73888338 -0.081547529 0.029840469
0.76484925 -0.081493422 0.02632916
0.79176623 -0.081508726 0.027320385
-0.73075008 -0.054820791 0.029304504
-0.70188409 -0.054741129 0.018972516
0.84577423 -0.054824833 0.029840469
-0.8108964 -0.028102085 0.029264927
0.87194455 -0.028102085 0.027598023
-0.8360039 -0.0014342554 0.02272594
0.89896244 0.025327839 0.028828025
-0.24906431 0.26497579 0.019544959
-0.22259331 0.26518679 0.02203393
-0.19613175 0.26546299 0.025298953
-0.16965877 0.26580054 0.029284477
0.17726654 0.26504111 0.020314813
-0.33167028 -0.10864992 0.046281219
-0.3044104 -0.10854731 0.0418365
-0.27758348 -0.10854402 0.041696429
-0.25076336 -0.10854229 0.041616559
-0.22394447 -0.10854041 0.04153657
-0.19713788 -0.10854273 0.041636586
-0.17033191 -0.10854591 0.041776419
-0.14352378 -0.10854919 0.04191637
-0.11670811 -0.10854919 0.04191637
-0.089891821 -0.10854876 0.041896462
-0.063075386 -0.10854774 0.041856408
-0.036259871 -0.10854731 0.0418365
-0.0094446614 -0.10854688 0.041816592
0.017370239 -0.10854688 0.041816592
0.044185139 -0.10854688 0.041816592
0.071000353 -0.10854731 0.0418365
0.097815402 -0.10854731 0.0418365
0.12463046 -0.10854731 0.0418365
0.15144552 -0.10854731 0.0418365
0.17825964 -0.10854688 0.041816592
0.20507346 -0.10854644 0.041796446
0.23188575 -0.10854547 0.041756392
0.25869602 -0.10854402 0.041696429
0.28551 -0.10854402 0.041696429
0.31232399 -0.10854402 0.041696429
0.33913612 -0.10854359 0.041676521
0.36594993 -0.10854359 0.041676521
0.39301389 -0.10859722 0.043997407
0.42019266 -0.10866658 0.04700315
-0.65387309 -0.081801653 0.046341419
-0.62610978 -0.081725441 0.041396618
-0.5986405 -0.081668258 0.037682295
-0.57122642 -0.081610858 0.033955812
0.68569791 -0.081568331 0.031191349
0.71303219 -0.081614628 0.034194946
0.82257062 -0.081782252 0.045078754
-0.78766364 -0.054936722 0.044357777
-0.75956619 -0.054893013 0.038699865
-0.14301556 0.26593846 0.030913234
-0.11631291 0.26600069 0.031648636
-0.089590356 0.26603949 0.032105803
-0.062860765 0.26607817 0.03256321
-0.036124755 0.26612037 0.033060431
-0.0093824677 0.26617759 0.033737063
0.017370239 0.26622307 0.034274459
0.044131067 0.26626694 0.034792304
0.12448903 0.26647437 0.037243485
0.15132555 0.26659954 0.038719893
-0.46852785 -0.10908519 0.065126181
-0.44104075 -0.10899826 0.061361074
-0.41361022 -0.10891095 0.057583809
-0.38623875 -0.10882401 0.053814888
-0.35892397 -0.10873665 0.050033927
0.44741827 -0.10873611 0.050013781
0.47469097 -0.1088058 0.053029895
0.50201362 -0.10887608 0.056071281
0.52938092 -0.10894588 0.059097767
0.55679566 -0.10901583 0.062129498
0.5842579 -0.10908611 0.065166593
-0.68273485 -0.081956387 0.056393862
-0.30611879 0.29538697 0.060330153
-0.27848184 0.29464573 0.05230546
-0.60686147 -0.1095237 0.084114313
-0.57907301 -0.1094353 0.080287933
-0.55134797 -0.10934757 0.076490283
-0.52368271 -0.10926004 0.072700739
-0.49607408 -0.10917229 0.068899274
0.61177117 -0.10915688 0.068229198
0.63933259 -0.1092277 0.071297169
0.66694224 -0.10929862 0.074370265
0.69459629 -0.10936929 0.077428699
0.72167313 -0.10936794 0.077367544
0.748016 -0.10928504 0.073779821
0.77430081 -0.10920183 0.070179105
0.80197883 -0.10926861 0.073067188
-0.74112743 -0.082280576 0.077449203
-0.71187299 -0.082120128 0.06703198
0.8571111 -0.082278907 0.07734704
-0.33438957 0.29659921 0.073454022
-0.2534464 0.29687774 0.076469898
-0.39164561 -0.13717298 0.10063994
-0.3639617 -0.13705415 0.096777797
-0.33633798 -0.13693552 0.09292376
-0.30865872 -0.13677841 0.087825656
-0.28147751 -0.13677403 0.087682247
-0.25430316 -0.13677156 0.087599993
-0.22712873 -0.13676833 0.087497473
-0.19996724 -0.13677092 0.087579489
-0.1728078 -0.13677534 0.087723255
-0.14564614 -0.13677981 0.087867022
-0.11847754 -0.13678035 0.087887406
-0.091306716 -0.13677905 0.087846398
-0.064137004 -0.13677841 0.087825656
-0.036967605 -0.13677782 0.08780539
-0.0097985249 -0.13677712 0.087784767
0.017370239 -0.13677712 0.087784767
0.044539005 -0.13677712 0.087784767
0.07170777 -0.13677712 0.087784767
0.098877013 -0.13677782 0.08780539
0.12604593 -0.13677782 0.08780539
0.15321407 -0.13677712 0.087784767
0.18038282 -0.13677712 0.087784767
0.20754938 -0.13677593 0.087743521
0.23471656 -0.13677534 0.087723255
0.26188058 -0.13677339 0.087661624
0.28904843 -0.13677339 0.087661624
0.31621623 -0.13677339 0.087661624
0.34338212 -0.13677275 0.08764112
0.3705498 -0.13677275 0.08764112
0.39803183 -0.13686255 0.090558052
0.42557836 -0.13695768 0.093644619
0.4531756 -0.13705355 0.096757174
0.48081875 -0.13714889 0.099854589
0.50851035 -0.1372444 0.10295737
-0.66320658 -0.10977136 0.094839454
-0.63417614 -0.10954548 0.085056782
0.83481503 -0.10984664 0.098098516
-0.79824299 -0.082476385 0.090167403
-0.77000189 -0.082403623 0.085446239
-0.82461661 -0.055263069 0.086758733
-0.87890714 0.026217777 0.086635709
-0.22764741 0.29858798 0.094983697
-0.200727 0.29904366 0.099916458
-0.17345147 0.29902077 0.099668622
-0.14613208 0.29890245 0.098387837
-0.11888169 0.29890245 0.098387837
-0.091635756 0.2989158 0.0985322
-0.06438712 0.29892743 0.098656297
-0.037147388 0.2990036 0.099482536
-0.0098993964 0.29913348 0.10088813
0.017370239 0.29926342 0.1022948
-0.53097707 -0.13777167 0.12007868
-0.50298852 -0.13765126 0.11617386
-0.47506428 -0.1375321 0.11229849
-0.44719797 -0.13741228 0.10841072
-0.41939265 -0.1372928 0.10453153
0.53625053 -0.13734013 0.10606563
0.56404263 -0.1374366 0.1092
0.5918805 -0.13753268 0.11231935
0.61977082 -0.13762948 0.11546481
0.64771056 -0.1377266 0.11861598
0.75738275 -0.13773367 0.11884582
0.78399897 -0.1376206 0.11517298
-0.72213471 -0.11026941 0.11640346
-0.69256449 -0.11001772 0.1055057
0.044660583 0.29938191 0.10357857
-0.31302071 -0.16576509 0.13504589
-0.28547388 -0.16575861 0.1348772
-0.25793606 -0.16575533 0.13479269
-0.23039961 -0.16575199 0.1347084
-0.20287223 -0.16575366 0.13475084
-0.17534988 -0.16575943 0.1348983
-0.14782524 -0.16576509 0.13504589
-0.12029347 -0.16576584 0.13506699
-0.092760079 -0.16576509 0.13504589
-0.065227017 -0.16576423 0.13502479
-0.037694275 -0.16576336 0.13500345
-0.010161854 -0.1657626 0.13498259
0.017370239 -0.1657626 0.13498259
0.044902332 -0.1657626 0.13498259
0.072434425 -0.1657626 0.13498259
0.099966526 -0.1657626 0.13498259
0.12749927 -0.16576336 0.13500345
0.15503071 -0.1657626 0.13498259
0.18256183 -0.16576174 0.13496149
0.21009262 -0.16576099 0.13494039
0.23762178 -0.16575943 0.1348983
0.26515031 -0.16575764 0.13485599
0.29268146 -0.16575764 0.13485599
0.32021075 -0.1657569 0.134835
0.34774172 -0.1657569 0.134835
0.37527269 -0.1657569 0.134835
0.40318793 -0.16589411 0.13840067
-0.6433416 -0.13822073 0.13466644
-0.61530489 -0.13813256 0.13180232
-0.58713162 -0.13801166 0.12787199
-0.55902368 -0.13789143 0.1239711
0.67569989 -0.13782373 0.12177265
0.70373893 -0.13792107 0.12493491
0.73071152 -0.13784701 0.12252617
0.81425577 -0.13801739 0.12806082
-0.78075945 -0.11066728 0.13363397
-0.75174689 -0.11050759 0.12671757
-0.45352286 -0.16660011 0.15674162
-0.42533237 -0.16644678 0.15275609
-0.39720184 -0.16629279 0.14875805
-0.3691361 -0.16614005 0.14479017
-0.34113228 -0.16598767 0.14083111
0.43111247 -0.16601624 0.1415714
0.45908654 -0.16613849 0.14474785
0.48711014 -0.16626093 0.14792967
0.51518363 -0.16638361 0.15111744
0.54331011 -0.16650735 0.15433216
-0.70267403 -0.13887817 0.15601611
-0.67284 -0.13853571 0.14489615
-0.86492038 -0.028102139 0.14011216
-0.56690925 -0.16721641 0.17275083
-0.53847069 -0.16706243 0.16875124
-0.51009178 -0.16690791 0.16473913
-0.48177594 -0.16675387 0.16073596
0.57148695 -0.16663131 0.15755236
0.59971434 -0.16675554 0.16077864
0.62799233 -0.16687988 0.16401052
0.65632117 -0.16700454 0.16724837
0.68470091 -0.16712947 0.17049205
0.71313167 -0.16725452 0.17374134
0.73998493 -0.16706653 0.16885889
0.76699281 -0.16692117 0.16508222
0.79447025 -0.16687001 0.16375351
-0.7326892 -0.13922209 0.167184
0.84977466 -0.13908944 0.16287565
-0.81464875 -0.11130401 0.16120636
-0.84574425 -0.083786875 0.17529285
0.90754718 -0.055920176 0.17212665
-0.34605831 -0.19583842 0.19005489
-0.31749904 -0.19553687 0.18352473
-0.2895804 -0.19552976 0.18337321
-0.26166749 -0.19552475 0.18326497
-0.23375772 -0.1955207 0.18317831
-0.20585594 -0.19552179 0.18319988
-0.17796083 -0.19552873 0.1833514
-0.1500634 -0.1955359 0.18350315
-0.12215945 -0.19553773 0.1835463
-0.094252847 -0.19553687 0.18352473
-0.066346079 -0.19553483 0.18348169
-0.038440302 -0.19553375 0.18345988
-0.010534866 -0.19553278 0.18343806
0.017370239 -0.19553278 0.18343806
0.045275509 -0.19553375 0.18345988
0.07318078 -0.19553375 0.18345988
0.10108606 -0.19553375 0.18345988
0.12899132 -0.19553375 0.18345988
0.15689659 -0.19553375 0.18345988
0.18480086 -0.19553278 0.18343806
0.21270365 -0.19553073 0.18339479
0.24060574 -0.19552873 0.1833514
0.26850867 -0.19552776 0.18333006
0.29641128 -0.19552679 0.18330836
0.32431537 -0.19552679 0.18330836
0.3522175 -0.19552583 0.18328655
0.38012362 -0.19552679 0.18330836
0.40848327 -0.19572201 0.18753552
0.43679619 -0.19587243 0.19079387
-0.65276861 -0.16771431 0.1856916
-0.62397981 -0.16752605 0.18079829
-0.595411 -0.16737056 0.17675924
-0.79155886 -0.13967842 0.18200958
-0.76261216 -0.13952821 0.17712617
-0.48867309 -0.19678323 0.21051204
-0.46002233 -0.19659357 0.20640647
-0.4314332 -0.19640337 0.20228827
-0.40291107 -0.19621462 0.19820142
-0.37445283 -0.19602631 0.19412339
0.46515995 -0.19602329 0.1940583
0.49357766 -0.19617538 0.19735014
0.5220468 -0.1963277 0.20064819
0.55056763 -0.19648023 0.20395195
0.57914025 -0.19663319 0.20726192
0.60776478 -0.1967863 0.21057785
-0.7130757 -0.16857256 0.20798612
-0.68277526 -0.16813131 0.19652116
0.82949513 -0.16812377 0.19632494
-0.60392028 -0.19754501 0.22700441
-0.5750137 -0.1973547 0.22288394
-0.54616857 -0.19716379 0.21875072
-0.51738846 -0.19697332 0.21462679
0.63644141 -0.19693965 0.21389985
0.66516632 -0.19709244 0.21720588
0.69394737 -0.19724642 0.22053993
0.72209555 -0.19723618 0.22031891
0.7495026 -0.19705585 0.21641183
0.77811092 -0.19715561 0.21857417
-0.77344441 -0.16931903 0.22738147
-0.74350357 -0.16900465 0.2192142
-0.37991792 -0.22674614 0.24483299
-0.35112154 -0.22652087 0.24065018
-0.3223905 -0.22629589 0.23647666
-0.29379988 -0.22611949 0.23320258
-0.26550311 -0.2261135 0.23309135
-0.23720808 -0.22610752 0.23298013
-0.2089216 -0.22610752 0.23298013
-0.18064351 -0.22611593 0.23313594
-0.15236302 -0.22612433 0.23329163
-0.12407671 -0.22612789 0.23335826
-0.095785961 -0.22612554 0.2333138
-0.067496389 -0.22612433 0.23329163
-0.039207172 -0.22612308 0.23326933
-0.010918295 -0.22612186 0.23324692
0.017370239 -0.22612186 0.23324692
0.045658775 -0.22612186 0.23324692
0.073947653 -0.22612308 0.23326933
0.10223635 -0.22612308 0.23326933
0.13052505 -0.22612308 0.23326933
0.15881291 -0.22612186 0.23324692
0.18710041 -0.22612073 0.23322499
0.21538639 -0.22611824 0.2331804
0.24367166 -0.22611593 0.23313594
0.27195781 -0.22611465 0.23311353
0.30024529 -0.22611465 0.23311353
0.32853281 -0.22611465 0.23311353
0.35681826 -0.2261135 0.23309135
0.38510782 -0.22611465 0.23311353
0.41392601 -0.22638007 0.23803771
0.44264084 -0.22656183 0.24141014
0.47140831 -0.22674382 0.24478841
-0.66246444 -0.1980608 0.23817182
-0.63289595 -0.19773677 0.23115647
0.89626807 -0.11315682 0.24143231
-0.49557579 -0.31307214 0.2603277
-0.46691328 -0.31297481 0.25906324
0.53098041 -0.31344122 0.26512098
0.55863816 -0.31297994 0.25913095
0.58800292 -0.31341851 0.26482689
-0.55331826 -0.28491193 0.26518917
-0.52450252 -0.28477871 0.26326549
-0.49597973 -0.28477716 0.26324308
-0.46746027 -0.28477716 0.26324308
-0.43894088 -0.28477716 0.26324308
-0.41064614 -0.28491193 0.26518917
0.50245547 -0.28491193 0.26518917
0.53072017 -0.28477716 0.26324308
0.55923963 -0.28477716 0.26324308
0.58775908 -0.28477716 0.26324308
0.61643577 -0.28484452 0.26421571
-0.4957636 -0.22765419 0.26168287
-0.46670371 -0.22742669 0.25746167
-0.43770725 -0.2271986 0.25322747
0.52910185 -0.22710891 0.25156367
0.55802494 -0.2272907 0.25493824
0.58700436 -0.22747406 0.25834119
0.61603725 -0.22765781 0.2617507
0.64512372 -0.22784196 0.26516652
-0.40877974 -0.22697218 0.24902558
0.50022858 -0.22692621 0.24817288
-0.72377324 -0.19913523 0.2614342
-0.69300497 -0.19859222 0.24967659
0.81303889 -0.19860251 0.24990106
-0.80963302 -0.17068887 0.2629714
-0.83547425 -0.14181477 0.25138366
-0.52625489 -0.31422067 0.27524686
-0.4399963 -0.31395626 0.27181232
0.50484055 -0.3148495 0.2834146
0.47456336 -0.28527319 0.2704041
0.64531165 -0.28498727 0.26627636
-0.58459204 -0.25742114 0.28213465
-0.55562478 -0.25730008 0.28017044
-0.41237867 -0.25730157 0.28019345
-0.38380748 -0.25734654 0.28092396
0.44734329 -0.25742114 0.28213465
0.4757691 -0.25730157 0.28019345
0.64767247 -0.257303 0.2802161
-0.64177215 -0.22871061 0.28128934
-0.61266929 -0.2285693 0.27866459
-0.58334243 -0.22833963 0.27440453
-0.55408269 -0.22811069 0.27015424
-0.52488983 -0.22788222 0.26591372
0.67426389 -0.22802623 0.26858854
0.70345783 -0.22821105 0.27201676
0.73151165 -0.22806185 0.26924646
0.7616384 -0.22848204 0.2770462
-0.78483266 -0.20000274 0.28021634
-0.7545917 -0.19964929 0.27256238
-0.41432202 -0.31589699 0.2970233
0.62024254 -0.31518412 0.28776407
-0.38488579 -0.28669542 0.29092956
-0.29813498 -0.25756055 0.28439808
-0.26944393 -0.25755355 0.28428364
-0.24075459 -0.25754642 0.28416908
-0.21207263 -0.25754493 0.28414655
-0.18340088 -0.25755483 0.28430665
-0.1547267 -0.25756475 0.28446662
-0.12604652 -0.25756896 0.28453517
-0.097362459 -0.25756758 0.28451252
-0.068678759 -0.25756615 0.28448951
-0.03999541 -0.25756475 0.28446662
-0.011312407 -0.25756335 0.28444374
0.017370239 -0.25756335 0.28444374
0.046052884 -0.25756335 0.28444374
0.07473553 -0.25756335 0.28444374
0.10341871 -0.25756475 0.28446662
0.13210154 -0.25756475 0.28446662
0.16078347 -0.25756335 0.28444374
0.18946402 -0.25756055 0.28439808
0.21814507 -0.25755906 0.28437519
0.24682437 -0.25755635 0.28432953
0.27550453 -0.25755483 0.28430665
0.30418611 -0.25755483 0.28430665
0.33286577 -0.25755355 0.28428364
0.36154717 -0.25755355 0.28428364
0.67847967 -0.25805333 0.29239941
-0.67247462 -0.22930698 0.29235339
-0.50314575 -0.34619534 0.31495917
-0.47381771 -0.34592968 0.31182265
0.53791195 -0.34621096 0.31514525
0.56638569 -0.34595317 0.31210101
-0.5606159 -0.31709516 0.31258857
0.4801141 -0.31731701 0.31547081
-0.59051931 -0.28862625 0.31880009
0.4517197 -0.28871185 0.32003534
-0.35831141 -0.25929096 0.31249595
-0.73478884 -0.23060654 0.31647134
-0.70353365 -0.22995526 0.30438507
-0.8197723 -0.20130403 0.3083899
-0.53504527 -0.34792149 0.33534682
-0.4462865 -0.34686613 0.32288218
0.51130468 -0.34770685 0.33280981
0.59697711 -0.34688598 0.32311571
-0.38966769 -0.31884331 0.33529973
-0.30259466 -0.28989154 0.33706367
-0.27349603 -0.28988189 0.33692276
-0.2444029 -0.28987527 0.33682847
-0.21531264 -0.28987038 0.33675802
-0.18623614 -0.28988189 0.33692276
-0.15715823 -0.28989494 0.33711076
-0.12807286 -0.28989971 0.33718145
-0.098983519 -0.28989816 0.33715796
-0.069893993 -0.28989494 0.33711076
-0.040805548 -0.28989315 0.33708704
-0.011717478 -0.28989154 0.33706367
0.017370239 -0.28989154 0.33706367
0.046458133 -0.28989315 0.33708704
0.075546026 -0.28989315 0.33708704
0.10463393 -0.28989315 0.33708704
0.13372181 -0.28989315 0.33708704
0.16280881 -0.28989154 0.33706367
0.19189435 -0.2898882 0.33701646
0.22098045 -0.28988665 0.33699322
0.25006616 -0.28988492 0.33696949
0.27915156 -0.28988343 0.33694601
0.30823654 -0.28988189 0.33692276
0.33732313 -0.28988189 0.33692276
0.36640978 -0.28988189 0.33692276
-0.65156806 -0.26077628 0.33661675
0.39492041 -0.26044065 0.33116722
0.71416938 -0.26036853 0.32999468
-0.76586682 -0.23116361 0.32680953
0.79942226 -0.23085639 0.32110834
-0.85520142 -0.17353067 0.33680499
-0.88376534 -0.11530869 0.33461833
-0.4198848 -0.34875596 0.34519863
0.63103992 -0.34954822 0.35455549
0.65898997 -0.31974757 0.3470428
-0.36231863 -0.29096365 0.35253787
0.45654917 -0.32088804 0.3618598
0.42740166 -0.26240599 0.36307609
-0.63186985 -0.26418957 0.39203858
0.88077384 -0.2067374 0.42602491
0 0 0 1 0 0 0 1 0 0 0 1 0 0 0 0 0 1314 1 0 0
