ply
format ascii 1.0
comment PCL generated
element vertex 1307
property float x
property float y
property float z
element camera 1
property float view_px
property float view_py
property float view_pz
property float x_axisx
property float x_axisy
property float x_axisz
property float y_axisx
property float y_axisy
property float y_axisz
property float z_axisx
property float z_axisy
property float z_axisz
property float focal
property float scalex
property float scaley
property float centerx
property float centery
property int viewportx
property int viewporty
property float k1
property float k2
end_header
0.53588909 -0.18202099 -0.32333982
0.53537434 -0.15976816 -0.32591188
0.5348109 -0.13754374 -0.32872689
0.53430384 -0.11537354 -0.3312602
0.53417289 -0.093300112 -0.33191466
0.55803066 -0.093568206 -0.32320797
0.53415543 -0.071249828 -0.33200192
0.55754459 -0.071398906 -0.32554686
0.53414083 -0.049201149 -0.33207464
0.55810976 -0.049343619 -0.32282794
0.53415251 -0.027154628 -0.33201647
0.55810976 -0.027225439 -0.32282794
0.53416413 -0.005107305 -0.33195829
0.55810976 -0.005107305 -0.32282782
0.53417575 0.016941022 -0.33190012
0.55810976 0.017010879 -0.32282794
0.53418738 0.0389902 -0.33184206
0.55810976 0.03912906 -0.32282794
0.53416413 0.061036274 -0.33195829
0.55691385 0.061114296 -0.32858121
0.53416997 0.083084948 -0.33192909
0.55783314 0.083324336 -0.32415879
0.53418452 0.10513593 -0.33185649
0.55835617 0.10552911 -0.32164228
0.53461266 0.12728338 -0.3297174
0.53516984 0.14949848 -0.3269335
0.53568721 0.17174429 -0.32434881
0.53636086 0.19408387 -0.32098293
0.53938514 -0.27209136 -0.30587232
0.56089932 -0.27176484 -0.30940652
0.58265316 -0.27156445 -0.31157601
0.49446967 -0.24965097 -0.30813587
0.5145247 -0.24869357 -0.31944382
0.53676575 -0.24873449 -0.31895983
0.559677 -0.24904548 -0.31528735
0.58153951 -0.24892223 -0.31674278
0.6052565 -0.24951088 -0.30979037
0.49447235 -0.22742091 -0.30812097
0.51443154 -0.22651207 -0.31992769
0.53709775 -0.2267143 -0.31730092
0.56041467 -0.22714247 -0.31173825
0.58256102 -0.22712202 -0.31200337
0.49447235 -0.20518956 -0.30812109
0.51442307 -0.2043685 -0.31997168
0.53676867 -0.20443968 -0.31894517
0.56053424 -0.20497876 -0.31116295
0.58370703 -0.20528898 -0.30668652
0.49447235 -0.18295826 -0.30812097
0.51440895 -0.1822238 -0.32004511
0.58403575 -0.1831405 -0.3051616
0.49447235 -0.16072685 -0.30812097
0.51440895 -0.16008422 -0.32004523
0.55956089 -0.16031057 -0.3158462
0.58401662 -0.16088153 -0.30525041
0.49447235 -0.1384954 -0.30812109
0.51440048 -0.13794267 -0.32008898
0.5590784 -0.13803147 -0.31816733
0.58400381 -0.13862534 -0.30530965
0.49447235 -0.11626422 -0.30812097
0.51439202 -0.11580184 -0.32013297
0.55854797 -0.11577915 -0.32071924
0.58399427 -0.11637056 -0.30535412
0.49447235 -0.094032742 -0.30812109
0.51438355 -0.093661465 -0.32017708
0.58400059 -0.094118878 -0.30532444
0.60505551 -0.093953662 -0.31069076
0.49447235 -0.071801357 -0.30812109
0.51438642 -0.071523286 -0.3201623
0.58399743 -0.071865596 -0.30533934
0.60368806 -0.071600556 -0.31681621
0.49447235 -0.049570072 -0.30812097
0.51438922 -0.04938481 -0.32014775
0.58398783 -0.049612217 -0.30538368
0.6036815 -0.049435724 -0.31684554
0.49447235 -0.027338587 -0.30812097
0.51440328 -0.027246583 -0.32007444
0.5839687 -0.027359083 -0.30547261
0.60364544 -0.027270235 -0.31700706
0.49446967 -0.005107305 -0.30813575
0.51440895 -0.005107305 -0.32004511
0.58394313 -0.0051073548 -0.30559111
0.60362577 -0.0051072547 -0.31709528
0.49446967 0.017124027 -0.30813587
0.51440328 0.017032076 -0.32007444
0.5839591 0.017144173 -0.30551708
0.60363889 0.01705543 -0.31703663
0.49446967 0.039355163 -0.30813587
0.51440048 0.039171204 -0.3200891
0.58398145 0.039397206 -0.30541348
0.60367495 0.039220612 -0.31687498
0.49446967 0.061586395 -0.30813575
0.51438355 0.06130828 -0.32017684
0.58399427 0.061650686 -0.30535412
0.60368806 0.061385952 -0.31681609
0.49446967 0.083817728 -0.30813587
0.51439488 0.083448708 -0.32011843
0.58400059 0.083904222 -0.30532444
0.60446644 0.083657771 -0.3133297
0.49446687 0.10604831 -0.30815053
0.51439768 0.10558829 -0.32010365
0.58399743 0.10615665 -0.30533934
0.60602546 0.10611792 -0.30634618
0.49446687 0.12827945 -0.30815053
0.51439202 0.12772606 -0.32013309
0.55888927 0.12777488 -0.31907725
0.58399743 0.12840939 -0.30533934
0.49446687 0.15051068 -0.30815065
0.51440895 0.14986971 -0.32004499
0.55938673 0.1500508 -0.31668389
0.5840134 0.15066618 -0.30526531
0.49446687 0.17274186 -0.30815065
0.51441461 0.17201103 -0.32001567
0.58402616 0.17292316 -0.30520594
0.49446687 0.19497289 -0.30815077
0.51443154 0.19415697 -0.31992781
0.58404851 0.19518417 -0.30510211
0.49446967 0.21720514 -0.30813587
0.51443154 0.21629751 -0.31992781
0.5371154 0.21650648 -0.3172127
0.56045759 0.2169438 -0.31153178
0.58360821 0.2172814 -0.30714524
0.49446967 0.23943642 -0.30813587
0.51441461 0.23843043 -0.32001567
0.53695077 0.23859826 -0.31803513
0.55983603 0.23889571 -0.31452227
0.58166301 0.23875615 -0.31616962
0.60556984 0.23941521 -0.30838704
0.51606727 0.26136348 -0.31142843
0.53795749 0.26121774 -0.31300557
0.56015122 0.26121774 -0.31300557
0.58186585 0.26101249 -0.31522846
0.60593957 0.26179755 -0.30673087
0.51855332 -0.27277139 -0.29851055
0.47445688 -0.25071207 -0.2956059
0.47448066 -0.22839473 -0.29547155
0.47449651 -0.2060722 -0.2953819
0.47449651 -0.18374278 -0.29538202
0.56400025 -0.18379784 -0.294487
0.47449651 -0.16141331 -0.29538202
0.47449651 -0.13908386 -0.29538202
0.47449651 -0.11675436 -0.29538202
0.60656446 -0.11642528 -0.30393171
0.47449651 -0.094424911 -0.29538202
0.47449383 -0.07209526 -0.29539704
0.47449383 -0.049765907 -0.29539692
0.47449383 -0.027436554 -0.29539692
0.47449383 -0.0051073548 -0.29539692
0.47449383 0.017221998 -0.29539692
0.47449651 0.039551601 -0.29538202
0.47449651 0.061880998 -0.29538214
0.47449651 0.084210403 -0.29538214
0.47449651 0.10653976 -0.29538202
0.47449651 0.12886925 -0.2953819
0.47449651 0.15119871 -0.2953819
0.47449651 0.17352818 -0.29538202
0.56384522 0.17353728 -0.29523289
0.47449651 0.19585761 -0.29538214
0.5642826 0.19601372 -0.29312849
0.47449115 0.21818456 -0.29541183
0.47446743 0.24050249 -0.29554605
0.49622318 0.26254439 -0.2986443
0.36604437 -0.27519038 -0.27232409
0.38845602 -0.27513021 -0.27297544
0.4989225 -0.27410877 -0.28403389
0.34360087 -0.2527245 -0.27183914
0.36542392 -0.25230438 -0.27680171
0.38780135 -0.25224936 -0.27745104
0.41090435 -0.25259894 -0.27332366
0.45433086 -0.25181282 -0.28260541
0.34360087 -0.23021388 -0.27183914
0.36542392 -0.22983195 -0.27680182
0.38780135 -0.2297819 -0.27745116
0.41090435 -0.23009965 -0.27332366
0.45433596 -0.22938739 -0.28257537
0.34360287 -0.20770425 -0.271824
0.36542392 -0.20735948 -0.27680171
0.38780135 -0.20731442 -0.27745116
0.41090435 -0.20760034 -0.27332366
0.45433339 -0.20695837 -0.28259051
0.45433596 -0.18453141 -0.28257549
0.4336729 -0.16269171 -0.27165723
0.45434359 -0.16210586 -0.28253031
0.4336729 -0.14017965 -0.27165735
0.45434359 -0.13967754 -0.28253019
0.4336729 -0.11766759 -0.27165735
0.45434359 -0.11724906 -0.28253031
0.4336729 -0.095155582 -0.27165723
0.45434359 -0.094820738 -0.28253019
0.4336729 -0.072643481 -0.27165723
0.45434359 -0.07239227 -0.28253031
0.4336729 -0.050131418 -0.27165735
0.45434359 -0.049964048 -0.28253043
0.4336729 -0.027619362 -0.27165735
0.45434359 -0.027535677 -0.28253031
0.4336729 -0.005107305 -0.27165735
0.63519108 -0.005107305 -0.27637875
0.45434359 -0.0051072547 -0.28253031
0.4336729 0.017404802 -0.27165735
0.45434359 0.017321117 -0.28253019
0.63642508 0.017409515 -0.27103567
0.4336729 0.03991691 -0.27165735
0.45434359 0.03974944 -0.28253019
0.4336729 0.062428869 -0.27165723
0.45434359 0.062177815 -0.28253031
0.4336729 0.084940925 -0.27165723
0.45434359 0.084606186 -0.28253019
0.4336729 0.10745294 -0.27165723
0.45434359 0.1070345 -0.28253019
0.4336729 0.1299651 -0.27165723
0.45434359 0.12946293 -0.28253031
0.4336729 0.15247715 -0.27165735
0.45434359 0.1518912 -0.28253031
0.45434359 0.17431955 -0.28253019
0.45433339 0.1967438 -0.28259027
0.34360287 0.22000045 -0.271824
0.36542392 0.21961729 -0.27680171
0.38780135 0.21956739 -0.27745104
0.41090435 0.2198851 -0.27332366
0.45433596 0.21917285 -0.28257525
0.34360287 0.24251126 -0.271824
0.36542392 0.24208961 -0.27680182
0.38780135 0.24203479 -0.27745116
0.41090435 0.24238427 -0.27332366
0.4543283 0.24159697 -0.28262043
0.34360287 0.26502195 -0.271824
0.36542392 0.26456219 -0.27680171
0.38780135 0.2645022 -0.27745128
0.41090435 0.26488346 -0.27332366
0.47690788 0.26410398 -0.28176272
0.32303837 -0.27669632 -0.25602233
0.34426647 -0.27570507 -0.26675308
0.41172868 -0.27559271 -0.26796925
0.43621036 -0.27670193 -0.25596094
0.47909722 -0.27546078 -0.26939702
0.61682236 -0.27651531 -0.25798202
0.32225507 -0.25352535 -0.26238179
0.43499246 -0.25343111 -0.26349485
0.32225507 -0.23094192 -0.26238179
0.43499246 -0.23085618 -0.26349497
0.32225507 -0.20835848 -0.26238179
0.43499246 -0.20828134 -0.26349485
0.41281447 -0.16327044 -0.26091671
0.41281447 -0.14067575 -0.26091659
0.41281447 -0.11808101 -0.26091647
0.41281447 -0.095486224 -0.26091671
0.41281447 -0.072891481 -0.26091671
0.41281447 -0.050296787 -0.26091647
0.6391995 -0.050326001 -0.25902188
0.41281447 -0.027702045 -0.26091659
0.63683504 -0.027637754 -0.26926041
0.41281447 -0.0051072547 -0.26091659
0.41281447 0.017487537 -0.26091671
0.41281447 0.040082231 -0.26091659
0.63839543 0.040057775 -0.26250386
0.41281447 0.062676974 -0.26091659
0.41281447 0.085271761 -0.26091671
0.41281447 0.10786641 -0.26091647
0.41281447 0.1304612 -0.26091647
0.41281447 0.15305594 -0.26091659
0.3222532 0.22072627 -0.26239705
0.43499246 0.22064167 -0.26349485
0.61713326 0.22117315 -0.25658906
0.32225507 0.24331093 -0.26238167
0.43499246 0.24321657 -0.26349497
0.32225507 0.26589423 -0.26238179
0.43499246 0.26579136 -0.26349485
0.30250987 -0.27837953 -0.23780167
0.30146533 -0.25484079 -0.24684763
0.30146533 -0.23213778 -0.24684763
0.6180371 -0.23169951 -0.25254059
0.30146533 -0.20943463 -0.24684763
0.62095374 -0.20994543 -0.23947585
0.62061495 -0.18709217 -0.24099338
0.37063244 -0.1644401 -0.23921239
0.39180005 -0.16385269 -0.2501123
0.62016606 -0.1642357 -0.24300408
0.37063244 -0.14167823 -0.23921239
0.39180005 -0.14117476 -0.25011218
0.6198281 -0.14143319 -0.24451792
0.37063244 -0.11891637 -0.23921239
0.39180005 -0.11849684 -0.2501123
0.37063244 -0.096154504 -0.23921239
0.39180005 -0.095819011 -0.25011206
0.37063244 -0.073392697 -0.23921239
0.39180005 -0.073141031 -0.25011206
0.37063244 -0.050630879 -0.23921239
0.39180005 -0.050463106 -0.25011206
0.37063244 -0.027869068 -0.23921239
0.39180005 -0.027785182 -0.25011218
0.37063244 -0.0051073548 -0.23921227
0.39180005 -0.005107305 -0.25011218
0.37063244 0.017654508 -0.23921239
0.39180005 0.017570671 -0.2501123
0.37063244 0.040416323 -0.23921227
0.39180005 0.040248599 -0.25011218
0.37063244 0.063178137 -0.23921239
0.39180005 0.062926427 -0.2501123
0.64052969 0.062853664 -0.25326204
0.37063244 0.085939951 -0.23921239
0.39180005 0.085604303 -0.25011206
0.37063244 0.10870177 -0.23921239
0.39180005 0.10828223 -0.25011206
0.37063244 0.13146357 -0.23921239
0.39180005 0.13096015 -0.25011218
0.61971092 0.13119432 -0.2450428
0.37063244 0.15422544 -0.23921239
0.39180005 0.15363818 -0.25011206
0.62002808 0.15398791 -0.24362206
0.62044913 0.17683186 -0.24173605
0.6208638 0.19970292 -0.23987854
0.30146354 0.22192192 -0.24686301
0.30146354 0.2446249 -0.24686301
0.30146354 0.26732793 -0.24686301
0.4609015 0.26761001 -0.24380744
0.46346536 -0.2792232 -0.22866869
0.28139737 -0.25691122 -0.22239721
0.28139737 -0.23401999 -0.22239721
0.28139904 -0.21112977 -0.22238159
0.3493056 -0.16503096 -0.22824717
0.3493056 -0.14218462 -0.2282474
0.3493056 -0.11933846 -0.22824728
0.3493056 -0.096492209 -0.22824717
0.3493056 -0.073645957 -0.2282474
0.3493056 -0.050799757 -0.22824728
0.3493056 -0.027953558 -0.22824728
0.3493056 -0.0051072547 -0.22824728
0.3493056 0.017738897 -0.22824728
0.3493056 0.040585149 -0.22824728
0.3493056 0.063431397 -0.22824728
0.3493056 0.086277649 -0.22824728
0.3493056 0.1091238 -0.22824717
0.3493056 0.13197011 -0.22824728
0.3493056 0.1548163 -0.22824728
0.28139904 0.22380646 -0.22238147
0.28139904 0.24669796 -0.22238147
0.28166106 0.26981387 -0.2199502
0.65071875 -0.25803363 -0.20914197
0.65068227 -0.23502818 -0.20930016
0.30617744 -0.16622752 -0.20603967
0.32782188 -0.16562703 -0.21718478
0.30617744 -0.14321044 -0.20603943
0.32782188 -0.14269565 -0.2171849
0.30617744 -0.12019321 -0.20603943
0.32782188 -0.11976425 -0.21718466
0.30617744 -0.09717603 -0.20603967
0.32782188 -0.096832864 -0.21718478
0.30617744 -0.074158899 -0.20603943
0.32782188 -0.073901474 -0.2171849
0.30617744 -0.051141664 -0.20603943
0.32782188 -0.050970085 -0.21718466
0.30617744 -0.028124437 -0.20603955
0.32782188 -0.028038695 -0.2171849
0.32782188 -0.005107305 -0.2171849
0.30617744 -0.0051072547 -0.20603955
0.30617744 0.017909877 -0.20603943
0.32782188 0.017824035 -0.21718466
0.30617744 0.04092706 -0.20603955
0.32782188 0.040755477 -0.21718478
0.30617744 0.06394434 -0.20603943
0.32782188 0.06368687 -0.2171849
0.30617744 0.086961374 -0.20603943
0.32782188 0.086618356 -0.2171849
0.30617744 0.10997865 -0.20603943
0.32782188 0.10954965 -0.21718478
0.30617744 0.13299583 -0.20603943
0.32782188 0.13248108 -0.21718478
0.30617744 0.15601301 -0.20603967
0.32782188 0.15541252 -0.21718478
0.65009129 0.22461662 -0.21185935
0.65101105 0.24792615 -0.20787644
0.64972693 0.27041566 -0.21343696
0.28436872 -0.16683187 -0.1948266
0.28436872 -0.14372839 -0.1948266
0.28436872 -0.12062482 -0.19482648
0.28436872 -0.097521342 -0.19482648
0.28436872 -0.074417822 -0.19482648
0.28436872 -0.05131425 -0.1948266
0.28436872 -0.028210826 -0.1948266
0.28436872 -0.005107305 -0.1948266
0.28436872 0.01799617 -0.1948266
0.28436872 0.041099742 -0.19482648
0.28436872 0.064203218 -0.19482648
0.28436872 0.087306686 -0.19482648
0.28436872 0.11041016 -0.19482636
0.28436872 0.13351384 -0.1948266
0.28436872 0.15661725 -0.1948266
0.4701502 0.29580164 -0.18919647
0.24025984 -0.16805579 -0.1721139
0.26239738 -0.16744147 -0.18351305
0.24025984 -0.14477743 -0.1721139
0.26239738 -0.1442509 -0.18351305
0.24025984 -0.12149896 -0.1721139
0.26239738 -0.12106024 -0.18351305
0.24025984 -0.098220699 -0.1721139
0.26239738 -0.097869769 -0.18351305
0.24025984 -0.074942343 -0.1721139
0.26239738 -0.074679054 -0.18351305
0.24025984 -0.051663976 -0.1721139
0.26239738 -0.051488437 -0.18351316
0.24025984 -0.028385717 -0.1721139
0.26239738 -0.02829792 -0.18351305
0.24025984 -0.005107305 -0.1721139
0.26239738 -0.0051072044 -0.18351305
0.24025984 0.018171057 -0.1721139
0.26239738 0.018083263 -0.18351305
0.24025984 0.04144932 -0.1721139
0.26239738 0.041273881 -0.18351305
0.24025984 0.064727783 -0.1721139
0.26239738 0.064464495 -0.18351305
0.24025984 0.088006146 -0.1721139
0.26239738 0.087655112 -0.18351305
0.24025984 0.1112844 -0.17211378
0.26239738 0.11084563 -0.18351305
0.24025984 0.13456272 -0.1721139
0.26239738 0.13403624 -0.18351305
0.24025984 0.15784113 -0.1721139
0.26239738 0.15722692 -0.18351293
0.21845563 -0.26264331 -0.15470493
0.26485434 -0.26228288 -0.15896153
0.21816026 -0.23896241 -0.15819299
0.26485601 -0.23890448 -0.1589452
0.21814089 -0.21556102 -0.15842199
0.26485601 -0.21552473 -0.15894532
0.21812011 -0.19216214 -0.15866721
0.21811597 -0.16877775 -0.1587162
0.21811597 -0.1453962 -0.1587162
0.21811597 -0.12201481 -0.1587162
0.21811597 -0.09863317 -0.15871632
0.21811597 -0.07525178 -0.15871632
0.21811597 -0.051870234 -0.1587162
0.21811597 -0.028488796 -0.1587162
0.21811597 -0.005107305 -0.1587162
0.21811597 0.018274188 -0.15871632
0.21811597 0.041655678 -0.1587162
0.21811597 0.065037116 -0.15871632
0.21811597 0.08841861 -0.1587162
0.21811597 0.11180015 -0.1587162
0.21811597 0.13518164 -0.1587162
0.21811597 0.15856308 -0.15871632
0.21811597 0.18194453 -0.15871632
0.21813257 0.2053396 -0.15851998
0.26485434 0.20530897 -0.15896153
0.28713122 0.20460024 -0.16919374
0.21815197 0.22874023 -0.1582911
0.26485434 0.22868872 -0.15896153
0.21816997 0.25214291 -0.15807843
0.26485434 0.25206831 -0.15896153
0.19639254 -0.26412746 -0.13717747
0.24249028 -0.26321372 -0.14796841
0.19589826 -0.2400859 -0.14359844
0.24308936 -0.24024871 -0.14148319
0.19588044 -0.21657202 -0.14382946
0.24310006 -0.21674255 -0.14136744
0.19587536 -0.1930718 -0.14389563
0.24310313 -0.19322966 -0.14133418
0.19587536 -0.16957621 -0.14389575
0.19587536 -0.14608078 -0.14389575
0.19587536 -0.12258518 -0.14389563
0.19587536 -0.099089585 -0.14389575
0.19587536 -0.075594038 -0.14389551
0.19587536 -0.052098393 -0.14389575
0.19587536 -0.02860285 -0.14389563
0.19587536 -0.005107305 -0.14389575
0.19587536 0.01838829 -0.14389575
0.19587536 0.041883785 -0.14389563
0.19587536 0.065379433 -0.14389563
0.19587536 0.088874973 -0.14389551
0.19587536 0.11237052 -0.14389575
0.19587536 0.13586617 -0.14389551
0.19587536 0.15936171 -0.14389575
0.19587536 0.18285729 -0.14389563
0.24310161 0.1830139 -0.14135087
0.19587536 0.2063528 -0.14389551
0.24310313 0.20653029 -0.1413343
0.19589062 0.22986367 -0.1436975
0.24309395 0.23003781 -0.14143348
0.19590841 0.25338036 -0.14346635
0.2428482 0.25332719 -0.14409375
0.24337535 0.27734837 -0.13838756
0.17406321 -0.26561618 -0.11959755
0.17342128 -0.24122022 -0.12886286
0.17341667 -0.21760437 -0.12892962
0.17341667 -0.19399351 -0.12892962
0.45767224 -0.19434635 -0.12319994
0.17341667 -0.17038266 -0.12892973
0.17341667 -0.14677206 -0.12892962
0.17341667 -0.12316121 -0.12892962
0.17341667 -0.099550411 -0.12892962
0.17341667 -0.075939655 -0.12892962
0.17341667 -0.052328806 -0.12892973
0.17341667 -0.028718106 -0.1289295
0.17341667 -0.005107305 -0.12892962
0.17341667 0.018503446 -0.12892962
0.17341667 0.042114299 -0.12892962
0.17341667 0.065724999 -0.12892973
0.17341667 0.089335851 -0.12892962
0.17341667 0.11294665 -0.12892962
0.17341667 0.1365573 -0.12892962
0.17341667 0.1601682 -0.1289295
0.17341667 0.18377896 -0.12892962
0.45767763 0.18413389 -0.12316644
0.17341667 0.20738965 -0.12892962
0.45766681 0.20778434 -0.12323344
0.17341667 0.2310006 -0.12892962
0.17343053 0.2546283 -0.12872958
0.29391435 -0.29053134 -0.10625422
0.15073664 -0.24237855 -0.11381626
0.15073664 -0.21865134 -0.11381626
0.15073664 -0.19492428 -0.11381602
0.27036795 -0.19553705 -0.10386658
0.43625933 -0.19524314 -0.10863829
0.15073664 -0.17119718 -0.11381626
0.15073664 -0.14747001 -0.11381626
0.15073664 -0.12374285 -0.11381626
0.15073664 -0.10001584 -0.11381614
0.15073664 -0.076288633 -0.11381614
0.15073664 -0.052561522 -0.11381626
0.15073664 -0.028834365 -0.11381626
0.15073664 -0.005107305 -0.11381614
0.15073664 0.018619806 -0.11381626
0.15073664 0.042346917 -0.11381626
0.15073664 0.066074125 -0.11381626
0.15073664 0.089801088 -0.11381614
0.15073664 0.11352819 -0.11381614
0.15073664 0.13725555 -0.11381614
0.15073664 0.16098267 -0.11381626
0.15073664 0.18470973 -0.11381602
0.27036455 0.18532023 -0.10390031
0.43625671 0.18502747 -0.10865498
0.15073664 0.20843683 -0.11381602
0.43626192 0.20879664 -0.10862124
0.15073664 0.23216394 -0.11381626
0.15073664 0.255891 -0.11381602
0.22247384 0.28022441 -0.107252
0.26913822 0.27940214 -0.11615479
0.15147784 -0.26712471 -0.10178065
0.1277981 -0.243505 -0.09918201
0.1277981 -0.21966535 -0.099182129
0.1277981 -0.19582549 -0.09918201
0.41437566 -0.19603616 -0.095761538
0.1277981 -0.17198567 -0.099182129
0.1277981 -0.14814596 -0.099182129
0.1277981 -0.1243062 -0.099182129
0.1277981 -0.10046639 -0.09918201
0.1277981 -0.076626688 -0.09918201
0.1277981 -0.052786876 -0.099182129
0.1277981 -0.028947067 -0.09918201
0.1277981 -0.005107305 -0.099182129
0.1277981 0.018732406 -0.099182129
0.1277981 0.042572316 -0.099182129
0.1277981 0.066412024 -0.099182129
0.1277981 0.090251788 -0.099182129
0.1277981 0.11409149 -0.099182129
0.1277981 0.13793126 -0.099182129
0.1277981 0.16177127 -0.099182129
0.1277981 0.18561092 -0.099182129
0.41437566 0.18582159 -0.095761657
0.1277981 0.20945069 -0.09918201
0.31926963 0.20990279 -0.092657924
0.41437566 0.20968771 -0.095761657
0.1277981 0.2332904 -0.099182129
0.1277981 0.25713015 -0.09918201
0.12864877 -0.26868153 -0.0833956
0.081253931 -0.24577591 -0.069683433
0.10463592 -0.24463436 -0.08451128
0.081253931 -0.22170898 -0.069683433
0.10463592 -0.22068161 -0.084511399
0.081253931 -0.19764213 -0.069683433
0.10463592 -0.19672899 -0.08451128
0.29642785 -0.19682625 -0.082931876
0.32126158 -0.19728965 -0.075407267
0.34559715 -0.19744603 -0.07286799
0.36917844 -0.19722912 -0.076390743
0.39223498 -0.19680302 -0.083309531
0.081253931 -0.17357525 -0.069683552
0.10463592 -0.17277633 -0.084511161
0.081253931 -0.1495084 -0.069683552
0.10463592 -0.14882357 -0.084511399
0.081253931 -0.12544164 -0.069683433
0.10463592 -0.12487091 -0.08451128
0.081253931 -0.10137481 -0.069683433
0.10463592 -0.1009181 -0.08451128
0.081253931 -0.077307902 -0.069683433
0.10463592 -0.076965436 -0.08451128
0.081253931 -0.053240985 -0.069683552
0.10463592 -0.053012777 -0.084511161
0.081253931 -0.029174171 -0.069683671
0.10463592 -0.029060066 -0.084511399
0.081253931 -0.0051073548 -0.069683433
0.10463592 -0.0051074051 -0.084511161
0.081253931 0.01895956 -0.069683433
0.10463592 0.018845458 -0.08451128
0.081253931 0.043026377 -0.069683433
0.10463592 0.042798121 -0.08451128
0.081253931 0.06709329 -0.069683433
0.10463592 0.066750832 -0.08451128
0.081253931 0.091160156 -0.069683433
0.10463592 0.090703592 -0.08451128
0.081253931 0.11522697 -0.069683433
0.10463592 0.11465615 -0.08451128
0.081253931 0.13929389 -0.069683433
0.10463592 0.13860901 -0.08451128
0.10463592 0.16256163 -0.08451128
0.081253931 0.1633606 -0.069683552
0.081253931 0.18742752 -0.069683552
0.10463592 0.18651448 -0.08451128
0.29642785 0.18661164 -0.082931757
0.32126158 0.18707499 -0.075407267
0.345595 0.18723032 -0.072885156
0.36917621 0.18701345 -0.076407909
0.39223498 0.1865883 -0.083309531
0.081253931 0.21149443 -0.069683552
0.10463592 0.21046704 -0.08451128
0.34505916 0.21097116 -0.077235699
0.36918071 0.211031 -0.076373458
0.39223734 0.21055153 -0.083292484
0.081253931 0.23556125 -0.069683433
0.10463592 0.23441991 -0.08451128
0.081253931 0.25962818 -0.069683433
0.10463592 0.25837252 -0.08451128
0.20043357 0.28230938 -0.084682822
0.10554759 -0.27025849 -0.064773321
0.057647493 -0.24692686 -0.05473125
0.057647493 -0.22274494 -0.054731369
0.057647493 -0.19856302 -0.05473125
0.057647493 -0.17438102 -0.05473125
0.057647493 -0.15019909 -0.05473125
0.057647493 -0.12601706 -0.054731369
0.057647493 -0.10183514 -0.054731131
0.057647493 -0.07765317 -0.054731369
0.057647493 -0.053471144 -0.054731369
0.057647493 -0.029289328 -0.05473125
0.057647493 -0.005107305 -0.05473125
0.057647493 0.019074716 -0.05473125
0.057647493 0.043256588 -0.054731131
0.057647493 0.067438506 -0.05473125
0.057647493 0.091620632 -0.05473125
0.057647493 0.11580245 -0.05473125
0.057647493 0.13998437 -0.05473125
0.057647493 0.16416651 -0.05473125
0.057647493 0.18834841 -0.05473125
0.057647493 0.21253024 -0.05473125
0.057647493 0.23671231 -0.05473125
0.057647493 0.26089427 -0.05473125
0.17824511 0.28466001 -0.059237123
0.082156837 -0.27182904 -0.046225667
0.033814158 -0.24808896 -0.039635301
0.033814158 -0.22379087 -0.039635301
0.033814158 -0.19949265 -0.039635301
0.033814158 -0.17519452 -0.039635181
0.033814158 -0.15089628 -0.039635301
0.033814158 -0.12659821 -0.039635181
0.033814158 -0.10229992 -0.039635301
0.033814158 -0.078001842 -0.039635301
0.033814158 -0.053703614 -0.03963542
0.033814158 -0.029405486 -0.039635301
0.033814158 -0.0051072547 -0.039635301
0.033814158 0.019190826 -0.039635301
0.033814158 0.043489005 -0.03963542
0.033814158 0.067787185 -0.039635181
0.033814158 0.092085317 -0.039635301
0.033814158 0.11638355 -0.039635181
0.033814158 0.14068167 -0.039635301
0.033814158 0.1649799 -0.039635301
0.033814158 0.18927804 -0.03963542
0.033814158 0.21357626 -0.039635301
0.033814158 0.23787434 -0.03963542
0.033837821 0.2622593 -0.038610816
0.15553363 0.28681371 -0.035922647
0.058475811 -0.27338675 -0.027830839
0.0097484589 -0.24925128 -0.024536252
0.0097484589 -0.2248369 -0.024536133
0.0097484589 -0.20042256 -0.024536133
0.0097484589 -0.17600802 -0.024536133
0.0097484589 -0.15159369 -0.024536252
0.0097484589 -0.12717935 -0.024536133
0.0097484589 -0.1027649 -0.024536252
0.0097484589 -0.078350469 -0.024536133
0.0097484589 -0.05393618 -0.024536133
0.0097484589 -0.029521644 -0.024536252
0.0097484589 -0.005107305 -0.024536133
0.0097484589 0.019307032 -0.024536133
0.0097484589 0.043721471 -0.024536252
0.0097484589 0.06813591 -0.024536133
0.0097484589 0.092550449 -0.024536252
0.0097484589 0.11696464 -0.024536252
0.0097484589 0.14137907 -0.024536133
0.0097484589 0.16579361 -0.024536252
0.0097484589 0.190208 -0.024536133
0.0097484589 0.21462224 -0.024536133
0.0097484589 0.23903672 -0.024536252
0.0098265372 0.26388058 -0.01946497
0.034518655 -0.27497017 -0.0091298819
-0.014549419 -0.25041649 -0.0093997717
-0.014549419 -0.22588563 -0.0093998909
-0.014549419 -0.20135468 -0.0093998909
-0.014549419 -0.17682378 -0.0093998909
-0.014549419 -0.15229283 -0.0093998909
-0.014549419 -0.12776189 -0.0093998909
-0.014549419 -0.10323094 -0.0093998909
-0.014549419 -0.078700043 -0.0093998909
-0.014549419 -0.054169197 -0.0093998909
-0.014549419 -0.029638201 -0.0093998909
-0.014549419 -0.005107305 -0.0093998909
-0.014549419 0.019423593 -0.0093998909
-0.014549419 0.043954641 -0.0093998909
-0.014549419 0.068485536 -0.0093998909
-0.014549419 0.093016386 -0.0093998909
-0.014549419 0.11754728 -0.0093998909
-0.014549419 0.14207838 -0.0093998909
-0.014549419 0.16660912 -0.0093997717
-0.014549419 0.19114003 -0.0093998909
-0.014549419 0.21567091 -0.0093998909
-0.014549419 0.24020177 -0.0093998909
0.13248105 0.28899792 -0.012276888
0.010287374 -0.27662972 0.010467291
-0.03908034 -0.25159293 0.0058816671
-0.03908034 -0.22694433 0.0058816671
-0.03908034 -0.20229582 0.0058817863
-0.03908034 -0.17764716 0.0058815479
-0.03908034 -0.15299866 0.0058817863
-0.03908034 -0.12835005 0.0058815479
-0.03908034 -0.10370159 0.0058816671
-0.03908034 -0.079052977 0.0058815479
-0.03908034 -0.054404471 0.0058816671
-0.03908034 -0.029755864 0.0058815479
-0.03908034 -0.0051072547 0.0058817863
-0.03908034 0.019541305 0.0058816671
-0.03908034 0.044189662 0.0058816671
-0.03908034 0.068838373 0.0058815479
-0.03908034 0.093486778 0.0058816671
-0.03908034 0.11813549 0.0058815479
-0.03908034 0.14278395 0.0058817863
-0.03908034 0.16743265 0.0058815479
-0.03908034 0.19208106 0.0058815479
-0.03908034 0.21672978 0.0058816671
-0.03908034 0.24137823 0.0058816671
-0.014476744 0.26553228 4.1007996e-05
-0.014243616 -0.27831134 0.030325532
-0.06384781 -0.25278205 0.021328807
-0.06384781 -0.22801451 0.021328568
-0.06384781 -0.2032471 0.021328688
-0.06384781 -0.17847957 0.021328449
-0.06384781 -0.15371209 0.021328688
-0.06384781 -0.12894468 0.021328688
-0.06384781 -0.10417715 0.021328568
-0.06384781 -0.079409726 0.021328688
-0.06384781 -0.054642301 0.021328688
-0.06384781 -0.029874779 0.021328688
-0.06384781 -0.0051073548 0.021328688
-0.06384781 0.019660167 0.021328449
-0.06384781 0.044427741 0.021328688
-0.06384781 0.069195166 0.021328807
-0.06384781 0.093962692 0.021328688
-0.06384781 0.11873011 0.021328688
-0.06384781 0.14349748 0.021328926
-0.06384781 0.168265 0.021328688
-0.06384781 0.19303243 0.021328688
-0.06384781 0.2177999 0.021328449
-0.06384781 0.24256738 0.021328688
-0.03908034 0.2672044 0.019788504
-0.088855118 -0.2539812 0.036906958
-0.088855118 -0.2290938 0.036906958
-0.088855118 -0.20420642 0.036906958
-0.088855118 -0.17931904 0.036906838
-0.088855118 -0.15443169 0.036907077
-0.088855118 -0.12954436 0.036907077
-0.088855118 -0.10465696 0.036907077
-0.088855118 -0.079769522 0.036906958
-0.088855118 -0.054882083 0.036907077
-0.088855118 -0.029994644 0.036906958
-0.088855118 -0.0051073548 0.036906958
-0.088855118 0.019780036 0.036906958
-0.088855118 0.044667475 0.036906958
-0.088855118 0.069554813 0.036906958
-0.088855118 0.094442256 0.036906958
-0.088855118 0.11932954 0.036907077
-0.088855118 0.14421694 0.036907077
-0.088855118 0.16910432 0.036906958
-0.088855118 0.19399171 0.036906958
-0.088855118 0.21887915 0.036907077
-0.088855118 0.24376649 0.036906958
-0.063989714 0.26889578 0.039762497
-0.03908034 -0.28106818 0.062882543
-0.11410578 -0.2551921 0.052636981
-0.11410578 -0.23018353 0.052636862
-0.11410578 -0.20517518 0.052636862
-0.11410578 -0.18016666 0.052636862
-0.11410578 -0.15515821 0.052636862
-0.11410578 -0.13014965 0.052636862
-0.11410578 -0.10514124 0.052636981
-0.11410578 -0.080132782 0.052636862
-0.11410578 -0.05512432 0.052636981
-0.11410578 -0.030115765 0.052636862
-0.11410578 -0.0051073548 0.052636862
-0.11410578 0.019901205 0.052636862
-0.11410578 0.044909716 0.052636981
-0.11410578 0.069918223 0.052636981
-0.11410578 0.094926529 0.052636862
-0.11410578 0.11993504 0.052636862
-0.11410578 0.14494351 0.052636981
-0.11410578 0.16995206 0.052636862
-0.11410578 0.19496046 0.052636862
-0.11410578 0.21996902 0.052636862
-0.11410578 0.24497747 0.052636981
-0.089210734 0.27060995 0.060005069
-0.13960393 -0.25641626 0.068539619
-0.13960393 -0.23128538 0.0685395
-0.13960393 -0.20615456 0.068539619
-0.13960393 -0.18102357 0.0685395
-0.13960393 -0.15589274 0.068539619
-0.13960393 -0.13076176 0.068539619
-0.13960393 -0.10563078 0.0685395
-0.13960393 -0.080500044 0.0685395
-0.13960393 -0.055369068 0.0685395
-0.13960393 -0.030238237 0.068539619
-0.13960393 -0.0051074051 0.0685395
-0.13960393 0.020023674 0.0685395
-0.13960393 0.04515446 0.068539619
-0.13960393 0.070285492 0.0685395
-0.13960393 0.09541627 0.068539619
-0.13960393 0.1205471 0.0685395
-0.13960393 0.14567803 0.068539619
-0.13960393 0.17080891 0.0685395
-0.13960393 0.19593994 0.0685395
-0.13960393 0.22107072 0.068539619
-0.13960393 0.24620175 0.068539619
-0.11474843 0.27234238 0.080464363
-0.064353377 -0.28311068 0.087003708
-0.1653522 -0.25765106 0.084579587
-0.1653522 -0.2323966 0.084579587
-0.1653522 -0.20714229 0.084579587
-0.1653522 -0.18188794 0.084579587
-0.1653522 -0.15663359 0.084579468
-0.1653522 -0.13137923 0.084579587
-0.1653522 -0.10612477 0.084579587
-0.1653522 -0.08087042 0.084579587
-0.1653522 -0.055616114 0.084579468
-0.1653522 -0.03036166 0.084579587
-0.1653522 -0.0051074051 0.084579587
-0.1653522 0.020147152 0.084579587
-0.1653522 0.045401406 0.084579587
-0.1653522 0.070655964 0.084579587
-0.1653522 0.095910169 0.084579587
-0.1653522 0.12116453 0.084579468
-0.1653522 0.14641897 0.084579587
-0.1653522 0.17167334 0.084579468
-0.1653522 0.19692779 0.084579587
-0.1653522 0.22218199 0.084579587
-0.1653522 0.24743634 0.084579587
-0.090003327 -0.28518367 0.111485
-0.19135475 -0.25889799 0.10077786
-0.19135475 -0.233519 0.10077798
-0.19135475 -0.20813984 0.10077798
-0.19135475 -0.18276079 0.10077798
-0.19135475 -0.1573817 0.10077786
-0.19135475 -0.13200273 0.10077798
-0.19135475 -0.10662358 0.10077786
-0.19135475 -0.081244551 0.10077798
-0.19135475 -0.05586547 0.10077786
-0.19135475 -0.030486386 0.10077798
-0.19135475 -0.0051072044 0.10077798
-0.19135475 0.02027173 0.10077798
-0.19135475 0.045650911 0.10077798
-0.19135475 0.071029797 0.10077798
-0.19135475 0.096408978 0.10077786
-0.19135475 0.12178805 0.1007781
-0.19135475 0.14716715 0.10077798
-0.19135475 0.17254622 0.10077798
-0.19135475 0.19792522 0.10077786
-0.19135475 0.22330429 0.10077798
-0.19135475 0.24868348 0.10077786
-0.14060847 0.27409497 0.10116327
-0.21764471 -0.26019928 0.11768186
-0.21764471 -0.23469006 0.11768186
-0.21764471 -0.20918088 0.11768198
-0.21764471 -0.18367173 0.11768198
-0.21764471 -0.15816249 0.11768198
-0.21764471 -0.13265327 0.11768186
-0.21764471 -0.1071441 0.11768186
-0.21764471 -0.081634924 0.11768198
-0.21764471 -0.056125697 0.11768198
-0.21764471 -0.030616429 0.11768198
-0.21764471 -0.0051072044 0.11768198
-0.21764471 0.020401817 0.11768198
-0.21764471 0.04591104 0.11768198
-0.21764471 0.07142026 0.11768198
-0.21764471 0.096929483 0.11768198
-0.21764471 0.12243876 0.11768198
-0.21764471 0.14794794 0.11768198
-0.21764471 0.17345695 0.11768198
-0.21764471 0.19896618 0.11768198
-0.21764471 0.22447544 0.11768186
-0.21764471 0.24998477 0.11768186
-0.16679734 0.27587017 0.12212539
-0.11604822 -0.28732288 0.13674736
-0.24422018 -0.2615321 0.13499618
-0.24422018 -0.23588963 0.13499629
-0.24422018 -0.21024716 0.13499606
-0.24422018 -0.18460475 0.13499606
-0.24422018 -0.15896226 0.13499618
-0.24422018 -0.13331975 0.13499606
-0.24422018 -0.10767723 0.13499618
-0.24422018 -0.082034707 0.13499606
-0.24422018 -0.056392193 0.13499629
-0.24422018 -0.030749824 0.13499629
-0.24422018 -0.0051073548 0.13499606
-0.24422018 0.020535216 0.13499618
-0.24422018 0.046177533 0.13499629
-0.24422018 0.071820155 0.13499606
-0.24422018 0.097462572 0.13499618
-0.24422018 0.12310509 0.13499629
-0.24422018 0.14874756 0.13499606
-0.24422018 0.17439009 0.13499629
-0.24422018 0.20003255 0.13499606
-0.24422018 0.22567506 0.13499618
-0.24422139 0.25131899 0.13501573
-0.21921474 0.27796108 0.14681816
-0.19308706 0.27723837 0.13828373
-0.27107483 -0.26287889 0.15249217
-0.27107483 -0.23710182 0.15249228
-0.27107483 -0.2113246 0.15249228
-0.27107483 -0.18554755 0.15249228
-0.27107483 -0.15977031 0.15249228
-0.27107483 -0.13399309 0.15249217
-0.27107483 -0.10821598 0.1524924
-0.27107483 -0.082438812 0.15249217
-0.2710762 -0.056662042 0.15251219
-0.2710762 -0.030884672 0.15251219
-0.2710762 -0.0051072547 0.15251219
-0.2710762 0.020669915 0.15251219
-0.2710762 0.046447285 0.15251219
-0.2710762 0.072224699 0.15251219
-0.2710762 0.098001823 0.15251219
-0.2710762 0.12377924 0.15251219
-0.2710762 0.14955676 0.15251207
-0.2710762 0.17533387 0.15251195
-0.2710762 0.20111124 0.15251195
-0.2710762 0.22688861 0.15251207
-0.2710762 0.25266603 0.15251207
-0.24538705 0.27856433 0.15394366
-0.29822081 -0.26424783 0.17027354
-0.29823938 -0.23835039 0.17051458
-0.29823938 -0.21243452 0.17051446
-0.29823938 -0.18651865 0.17051458
-0.29823938 -0.16060272 0.17051446
-0.29823938 -0.13468684 0.17051458
-0.29823938 -0.10877096 0.17051446
-0.29823938 -0.082855083 0.17051458
-0.29823938 -0.056939106 0.17051458
-0.29823938 -0.03102323 0.17051458
-0.29823938 -0.0051071546 0.17051458
-0.29823938 0.020808522 0.17051458
-0.29823938 0.046724498 0.17051458
-0.29824093 0.072640926 0.17053461
-0.29824093 0.098556906 0.17053461
-0.29824093 0.12447308 0.17053461
-0.29824093 0.150389 0.17053461
-0.29824093 0.17630513 0.17053461
-0.29824093 0.20222116 0.17053461
-0.29824093 0.22813734 0.17053461
-0.29823163 0.25404394 0.17041397
-0.27220243 0.27981961 0.16876769
-0.29895732 0.2807574 0.17984092
-0.32565489 -0.26562959 0.18822443
-0.32567725 -0.23959571 0.18848836
-0.3257013 -0.21355897 0.18877256
-0.32570648 -0.18750574 0.18883359
-0.32570648 -0.16144885 0.18883336
-0.32570648 -0.13539191 0.18883359
-0.32570648 -0.10933497 0.18883359
-0.32570648 -0.083278023 0.18883336
-0.32570821 -0.057221483 0.18885374
-0.32570821 -0.031164397 0.18885374
-0.32570821 -0.0051072547 0.18885374
-0.32570821 0.020949837 0.18885374
-0.32570821 0.047006827 0.18885374
-0.32570821 0.073064022 0.18885374
-0.32570821 0.099121109 0.18885374
-0.32570821 0.1251782 0.18885374
-0.32570821 0.15123504 0.18885374
-0.32570821 0.17729218 0.18885374
-0.32570821 0.20334922 0.18885374
-0.32568929 0.22939093 0.18863046
-0.32566521 0.25542441 0.18834627
-0.32618877 0.2820012 0.19452906
-0.3274695 -0.29349643 0.20965362
-0.30085096 -0.29305494 0.20444
-0.27492121 -0.29335725 0.20800996
-0.24902955 -0.29378751 0.21309054
-0.22265166 -0.29357666 0.21059978
-0.43303978 -0.26774696 0.21572912
-0.40669805 -0.26769134 0.21500719
-0.43303978 -0.24148296 0.21572912
-0.40669805 -0.24143291 0.21500719
-0.43303978 -0.21521901 0.21572912
-0.40669805 -0.2151745 0.21500719
-0.43303978 -0.18895499 0.21572912
-0.40669805 -0.18891618 0.21500719
-0.35353673 -0.16233552 0.20803046
-0.35353673 -0.13613079 0.20803046
-0.35353673 -0.10992608 0.20803046
-0.35353673 -0.083721459 0.20803046
-0.35353673 -0.05751669 0.20803046
-0.35353673 -0.031312022 0.20803046
-0.35353673 -0.0051072547 0.20803046
-0.35353673 0.021097414 0.20803046
-0.35353673 0.047302034 0.20803046
-0.35353673 0.073506854 0.20803046
-0.35353673 0.099711522 0.20803046
-0.35353673 0.12591629 0.20803046
-0.35353673 0.15212096 0.20803046
-0.35353673 0.17832573 0.20803046
-0.43303978 0.20500439 0.215729
-0.40669805 0.20495999 0.21500719
-0.43303978 0.23126841 0.21572912
-0.40669805 0.2312184 0.21500719
-0.43303978 0.2575323 0.21572912
-0.40669805 0.25747678 0.21500719
-0.4601593 -0.26828164 0.2226752
-0.38096049 -0.26809198 0.22021198
-0.35569918 -0.26895636 0.23143947
-0.4601593 -0.24196428 0.2226752
-0.38096049 -0.24179354 0.22021198
-0.35569918 -0.24257138 0.23143947
-0.4601593 -0.2156468 0.2226752
-0.38096049 -0.21549502 0.22021198
-0.35569918 -0.21618651 0.23143947
-0.46015677 -0.18932813 0.22265458
-0.38096049 -0.18919654 0.22021198
-0.35569918 -0.18980168 0.23143971
-0.38183424 -0.16330141 0.22894275
-0.38183424 -0.13693574 0.22894299
-0.38183424 -0.11057001 0.22894251
-0.38183424 -0.084204331 0.22894275
-0.38183424 -0.057838708 0.22894251
-0.38183424 -0.031473033 0.22894275
-0.38183424 -0.0051072547 0.22894275
-0.38183424 0.021258373 0.22894251
-0.38183424 0.047624148 0.22894275
-0.38183424 0.073989674 0.22894251
-0.38183424 0.1003554 0.22894275
-0.38183424 0.12672113 0.22894299
-0.38183424 0.15308671 0.22894275
-0.38183424 0.17945255 0.22894275
-0.4601593 0.20543215 0.22267544
-0.38096049 0.20528036 0.22021198
-0.35570109 0.20597306 0.23146033
-0.4601593 0.23174967 0.22267544
-0.38096049 0.23157899 0.2202121
-0.35570109 0.23235817 0.23146033
-0.4601593 0.25806713 0.2226752
-0.38096049 0.25787741 0.22021198
-0.35570109 0.25874329 0.23146033
-0.46084419 0.28485531 0.22823596
-0.43358371 0.2841951 0.22043943
-0.40718985 0.28412151 0.21957076
-0.38145387 0.28459337 0.22514212
-0.48848093 -0.26946053 0.23799002
-0.48848093 -0.24302524 0.2379899
-0.48848093 -0.21658991 0.2379899
-0.48848093 -0.19015452 0.23799002
-0.41048151 -0.16427919 0.25011361
-0.41048151 -0.13775051 0.25011361
-0.41048151 -0.11122191 0.25011361
-0.41048151 -0.084693268 0.25011361
-0.41048151 -0.058164734 0.25011361
-0.41048151 -0.031636044 0.25011361
-0.41048151 -0.0051072547 0.25011361
-0.41048151 0.021421336 0.25011361
-0.41048151 0.047949973 0.25011361
-0.41048151 0.074478664 0.25011337
-0.41048151 0.1010074 0.25011361
-0.41048151 0.127536 0.25011361
-0.41048151 0.15406454 0.25011361
-0.41048151 0.18059324 0.25011361
-0.48847818 0.20637405 0.23796904
-0.48847818 0.23280913 0.23796904
-0.48847818 0.25924441 0.23796904
-0.48955572 0.28637674 0.24620295
-0.35625795 0.28563884 0.23748851
-0.51948053 -0.27199632 0.27092969
-0.51948053 -0.24530742 0.27092993
-0.51948053 -0.21861857 0.27092993
-0.51948053 -0.19192967 0.27092993
-0.43948516 -0.16526924 0.27154768
-0.43948516 -0.13857569 0.27154791
-0.43948516 -0.11188187 0.27154768
-0.43948516 -0.085188322 0.27154768
-0.43948516 -0.058494516 0.27154768
-0.43948516 -0.031800959 0.27154768
-0.43948516 -0.005107455 0.27154768
-0.43948516 0.021586351 0.27154768
-0.43948516 0.048279908 0.27154768
-0.43948516 0.074973717 0.27154768
-0.43948516 0.10166727 0.27154768
-0.43948516 0.12836093 0.27154791
-0.43948764 0.15505554 0.27156889
-0.43948764 0.1817494 0.27156889
-0.51948053 0.20840392 0.27092993
-0.51948053 0.23509276 0.27092993
-0.51948053 0.26178166 0.27092993
-0.46885189 -0.16627172 0.29325032
-0.46885189 -0.13941079 0.29325008
-0.46885189 -0.11255027 0.29325008
-0.46885189 -0.085689388 0.29325008
-0.46885189 -0.058828808 0.29325032
-0.46885189 -0.031968083 0.29325008
-0.46885189 -0.0051072547 0.29325008
-0.46885189 0.021753322 0.29325008
-0.46885189 0.048614152 0.29325008
-0.46885455 0.07547538 0.29327178
-0.46885455 0.10233626 0.29327178
-0.46885455 0.12919703 0.29327178
-0.46885455 0.15605791 0.29327178
-0.46885455 0.18291879 0.29327178
-0.52322906 0.29076135 0.29798245
-0.4985885 -0.16728662 0.31522596
-0.4985885 -0.14025672 0.31522596
-0.4985885 -0.11322697 0.31522596
-0.4985885 -0.086196966 0.31522596
-0.4985885 -0.059167061 0.31522596
-0.49859136 -0.03213736 0.31524801
-0.49859136 -0.0051072547 0.31524789
-0.49859136 0.021922849 0.31524789
-0.49859136 0.048952855 0.31524801
-0.49859136 0.075982906 0.31524789
-0.49859136 0.10301296 0.31524789
-0.49859136 0.13004297 0.31524789
-0.49859136 0.15707302 0.31524801
-0.49859136 0.18410307 0.31524789
-0.36592263 -0.3047128 0.34211183
-0.52870202 -0.16831452 0.33748031
-0.52870202 -0.14111333 0.33748043
-0.52870202 -0.11391209 0.33748043
-0.52870512 -0.086711511 0.33750248
-0.52870512 -0.059510123 0.33750272
-0.52870512 -0.03230869 0.33750236
-0.52870512 -0.0051073548 0.33750248
-0.52870512 0.022094179 0.33750248
-0.52870512 0.049295515 0.33750248
-0.52870512 0.076496854 0.33750248
-0.52870512 0.10369828 0.33750248
-0.52870512 0.13089962 0.33750248
-0.52870512 0.15810096 0.33750248
-0.5591538 -0.25145784 0.35970485
-0.55916369 -0.22408968 0.35977221
-0.55916035 -0.19671582 0.35974979
-0.55916035 -0.16934325 0.35974979
-0.55916035 -0.14197049 0.35974979
-0.55916035 -0.11459782 0.35974979
-0.55916035 -0.087225251 0.35974979
-0.55916369 -0.059852988 0.35977221
-0.55916369 -0.032480072 0.35977221
-0.55916369 -0.0051072547 0.35977221
-0.55916369 0.022265412 0.35977221
-0.55916369 0.049638327 0.35977221
-0.55916369 0.077011041 0.35977209
-0.55916369 0.10438401 0.35977209
-0.55916369 0.13175672 0.35977221
-0.55916369 0.15912944 0.35977221
-0.55916369 0.18650243 0.35977221
-0.53220731 0.18666431 0.36277771
-0.55916369 0.21387503 0.35977221
-0.55916035 0.24124643 0.35974979
-0.58956867 -0.25282714 0.37946701
-0.58956867 -0.22530268 0.37946689
-0.58956867 -0.19777812 0.37946689
-0.58956867 -0.17025387 0.37946701
-0.58956867 -0.14272937 0.37946701
-0.58956867 -0.11520502 0.37946689
-0.58956867 -0.087680563 0.37946689
-0.58956867 -0.060156211 0.37946701
-0.58956867 -0.032631706 0.37946689
-0.58956867 -0.0051073548 0.37946701
-0.58956867 0.02241705 0.37946701
-0.58956867 0.049941503 0.37946689
-0.58956867 0.077465907 0.37946701
-0.58956867 0.10499031 0.37946701
-0.58956867 0.13251472 0.37946689
-0.58956867 0.16003917 0.37946689
-0.58956867 0.18756346 0.37946701
-0.58956867 0.21508798 0.37946689
-0.58956867 0.24261248 0.37946701
-0.56166673 0.26993805 0.37688589
-0.62072384 -0.25438321 0.4019264
-0.62072384 -0.22668566 0.40192616
-0.62072384 -0.1989886 0.4019264
-0.62072384 -0.17129108 0.40192616
-0.62072384 -0.14359385 0.4019264
-0.62072384 -0.11589655 0.4019264
-0.62072384 -0.088199265 0.40192616
-0.62072384 -0.060501929 0.40192616
-0.62072384 -0.032804541 0.40192616
-0.62072384 -0.0051071546 0.40192616
-0.62072384 0.022589833 0.4019264
-0.62072384 0.050287321 0.4019264
-0.62072384 0.077984661 0.4019264
-0.62072384 0.105682 0.4019264
-0.62072384 0.13337924 0.40192616
-0.62072384 0.16107647 0.4019264
-0.62072384 0.18877387 0.4019264
-0.62072384 0.2164712 0.4019264
-0.62072384 0.24416843 0.40192616
-0.59318906 0.271947 0.40298188
-0.56801409 -0.28349358 0.4202832
-0.65227675 -0.25596046 0.42469263
-0.65227675 -0.22808787 0.42469263
-0.65221775 -0.20019636 0.42434406
-0.65227675 -0.17234252 0.42469263
-0.65227675 -0.1444701 0.42469263
-0.65227675 -0.11659751 0.42469263
-0.65227675 -0.08872509 0.42469287
-0.65227675 -0.060852308 0.42469263
-0.65227675 -0.032979831 0.42469263
-0.65227675 -0.0051071546 0.42469263
-0.65227675 0.022765223 0.42469263
-0.65227675 0.0506378 0.42469239
-0.65227675 0.078510381 0.42469263
-0.65227675 0.1063828 0.42469263
-0.65227675 0.13425548 0.42469263
-0.65227675 0.16212796 0.42469263
-0.65206039 0.18993178 0.42341518
-0.65227675 0.21787307 0.42469263
-0.65227675 0.24574584 0.42469263
-0.62509239 0.27394599 0.42894983
-0.68436909 -0.25761178 0.44852555
-0.68423152 -0.22950777 0.44774914
-0.71283418 -0.20161887 0.45073998
-0.6824159 -0.20090503 0.43749428
-0.68423152 -0.1734075 0.44774914
-0.68423152 -0.14535756 0.4477489
-0.68423152 -0.11730749 0.4477489
-0.68423152 -0.089257367 0.44774914
-0.68423152 -0.061207447 0.4477489
-0.68423152 -0.033157326 0.4477489
-0.68423152 -0.0051073548 0.44774914
-0.68423152 0.022942819 0.44774914
-0.68423152 0.050992791 0.44774914
-0.68423152 0.079042859 0.44774914
-0.68423152 0.10709293 0.44774914
-0.68423152 0.13514301 0.44774914
-0.68423152 0.16319299 0.44774914
-0.71241206 0.19128105 0.4484551
-0.68213427 0.19060473 0.43590355
-0.68423152 0.21929312 0.44774914
-0.68423152 0.24734309 0.44774914
-0.60209215 -0.28661323 0.46080935
-0.74373108 -0.20240963 0.46541321
-0.74306864 0.19200951 0.46197093
-0.65759957 0.27603775 0.45612228
-0.71763235 -0.25956437 0.47671068
-0.71680731 -0.23101634 0.4722451
-0.71680731 -0.174539 0.4722451
-0.71680731 -0.14630046 0.4722451
-0.71680731 -0.11806187 0.47224534
-0.71680731 -0.089823328 0.47224534
-0.71680731 -0.061584536 0.4722451
-0.71680731 -0.033345945 0.47224534
-0.71680731 -0.0051073548 0.47224534
-0.71680731 0.023131236 0.47224534
-0.71680731 0.051369928 0.4722451
-0.71680731 0.079608619 0.4722451
-0.71680731 0.10784721 0.47224534
-0.71680731 0.13608581 0.4722451
-0.71680731 0.16432439 0.47224534
-0.77508384 0.19304751 0.48123491
-0.71680731 0.22080168 0.47224534
-0.71680731 0.24904031 0.4722451
-0.69075072 0.27822772 0.48456931
-0.7500149 -0.23260632 0.49806464
-0.77635723 -0.20360492 0.48759735
-0.7500149 -0.17573166 0.49806464
-0.7500149 -0.14729407 0.4980644
-0.75001955 -0.11885764 0.49808872
-0.75001955 -0.090420052 0.49808896
-0.75001955 -0.061982423 0.49808872
-0.7500428 -0.033545792 0.4982096
-0.7500475 -0.0051073548 0.49823391
-0.75005215 0.023331784 0.49825799
-0.75005215 0.051770218 0.49825823
-0.75005215 0.080209255 0.49825823
-0.75005215 0.1086482 0.49825823
-0.75005215 0.13708714 0.49825823
-0.75005215 0.16552576 0.49825823
-0.7500475 0.22240214 0.49823391
-0.7500428 0.25083923 0.4982096
-0.75123185 -0.26148197 0.50438821
-0.72456664 0.28051206 0.51424348
-0.78561795 -0.062533349 0.53386629
-0.78561795 -0.033820201 0.53386652
-0.78562289 -0.0051073548 0.53389108
-0.78562289 0.023605891 0.53389108
-0.78562289 0.052318938 0.53389132
-0.75616068 0.28172496 0.52999914
-0.78934282 -0.26481369 0.55247724
-0.79022115 -0.23622753 0.55686533
-0.79014617 -0.17843026 0.55649078
-0.79017121 -0.14954768 0.55661547
-0.79019618 -0.12066361 0.5567404
-0.79015625 -0.091769859 0.55654085
-0.78958714 0.0814896 0.55369794
-0.79021114 0.1104513 0.55681551
-0.79018617 0.13933623 0.55669057
-0.79015625 0.16821784 0.55654085
-0.79015625 0.22599302 0.55654085
-0.79028612 0.25492546 0.55719006
0 0 0 1 0 0 0 1 0 0 0 1 0 0 0 0 0 1307 1 0 0
