ply
format ascii 1.0
comment PCL generated
element vertex 965
property float x
property float y
property float z
element camera 1
property float view_px
property float view_py
property float view_pz
property float x_axisx
property float x_axisy
property float x_axisz
property float y_axisx
property float y_axisy
property float y_axisz
property float z_axisx
property float z_axisy
property float z_axisz
property float focal
property float scalex
property float scaley
property float centerx
property float centery
property int viewportx
property int viewporty
property float k1
property float k2
end_header
0.3704049 0.21388462 -0.45091462
0.39178938 0.21389738 -0.45067763
0.4304654 0.17228793 -0.41738033
0.32080007 0.21391183 -0.45040798
0.34286392 0.21406189 -0.44762468
0.40986264 0.20553994 -0.44732165
0.43616885 0.19104974 -0.43000913
0.20204562 0.24309221 -0.43953872
0.23519528 0.23984796 -0.4347589
0.27491108 0.24351558 -0.43342876
0.30311409 0.2362293 -0.43544745
0.33705783 0.23506683 -0.43155432
0.37288821 0.22863919 -0.44206619
0.40253365 0.22886333 -0.43842816
-0.054557256 0.27299193 -0.42412639
0.0033445358 0.27323917 -0.421206
0.03893733 0.27281138 -0.42625737
0.074693501 0.27263647 -0.4283247
0.10935369 0.2575295 -0.43771863
0.13885337 0.26516965 -0.43200111
0.17227885 0.26275176 -0.43238258
0.20425221 0.25829133 -0.42782402
0.22704244 0.2587598 -0.42174006
-0.025337152 0.28794345 -0.41832829
0.0034654289 0.28779581 -0.4199276
0.03250511 0.28793758 -0.41839123
0.054285645 0.28801844 -0.41751599
0.41651922 0.17234144 -0.41564298
0.43615031 0.15824635 -0.39891815
0.29341823 0.23219474 -0.38433433
0.35854614 0.24473551 -0.41582108
-0.090108052 0.27430728 -0.40859222
0.2440035 0.25969556 -0.40958309
-0.25136009 0.30590618 -0.38333416
-0.22899875 0.30527881 -0.3896029
-0.19954711 0.3049103 -0.39328504
-0.17016689 0.30429006 -0.3994813
-0.13368797 0.30371782 -0.4052012
-0.094810128 0.29902935 -0.40365744
-0.070558064 0.29412615 -0.40424037
-0.031772472 0.29633611 -0.40662456
-0.0017588288 0.30485517 -0.39383578
0.076565474 0.28847191 -0.41260791
0.099667668 0.28941712 -0.40237451
-0.17769006 0.32049531 -0.38464117
-0.13359487 0.31959131 -0.39302826
0.44218516 0.10693467 -0.35507369
0.44601709 0.12921841 -0.36687517
0.27795929 0.20414725 -0.35408497
0.30602902 0.20378318 -0.36196566
0.34312677 0.2000187 -0.3624723
0.37554097 0.19474822 -0.36369395
0.40598971 0.19356626 -0.36834025
0.43115205 0.18869886 -0.36690283
0.076283872 0.24913678 -0.35229254
0.10547358 0.24874413 -0.35796165
0.1427781 0.24125111 -0.35801554
0.17176139 0.24091062 -0.36325002
0.19823501 0.23814593 -0.36784697
0.23870343 0.22453043 -0.3633678
0.27331069 0.22533125 -0.37530065
0.30281287 0.21794063 -0.37564325
0.32432532 0.21779233 -0.37839723
-0.013547972 0.27905244 -0.35255527
0.038925648 0.26416099 -0.35157514
0.068023995 0.2635783 -0.35914421
0.10352674 0.26991707 -0.37262702
-0.33657229 0.30273122 -0.36552811
-0.30393299 0.30716303 -0.37077451
-0.27403927 0.30678913 -0.37451005
-0.32777792 0.32386538 -0.35337019
-0.30476266 0.32310209 -0.36045241
-0.26725233 0.32267261 -0.36443758
-0.22950093 0.32127804 -0.37737679
-0.20022176 0.32228959 -0.36799145
-0.16304618 0.32155976 -0.37476397
-0.14825022 0.320869 -0.38117242
0.43794906 0.089100555 -0.32736635
0.47219521 0.11441635 -0.33100438
0.41579747 0.14490549 -0.31649184
0.43708533 0.14482391 -0.32178617
0.27840835 0.17536752 -0.31736565
0.30679116 0.17509122 -0.32634044
0.34409496 0.16741177 -0.32884812
0.37245083 0.16720892 -0.33618402
0.40535873 0.16854876 -0.34252071
0.43260384 0.15967818 -0.33691883
0.14125293 0.20583829 -0.31746912
0.17076367 0.20556949 -0.32329035
0.20826161 0.19782735 -0.32604623
0.23728675 0.19754586 -0.33274961
0.2700718 0.19354498 -0.33854151
0.30973428 0.18949644 -0.34617662
0.33160597 0.18939394 -0.34884167
0.019178912 0.23618296 -0.31957054
0.041382819 0.23578522 -0.32602954
0.074112609 0.23062426 -0.32738948
0.10129617 0.227819 -0.33208752
0.13476312 0.22382763 -0.33608794
0.17543232 0.21980417 -0.34106207
0.20435178 0.21944869 -0.34765649
-0.17109723 0.28190121 -0.31891227
-0.12928322 0.27749795 -0.32591224
-0.097689234 0.27109861 -0.32678866
-0.067576468 0.27070495 -0.3319087
-0.033414945 0.26245627 -0.33369613
0.0024792999 0.25760084 -0.33850121
0.039801762 0.24981859 -0.3424511
0.061774135 0.24943197 -0.34803176
-0.23206508 0.29727706 -0.31729007
-0.20140642 0.29663986 -0.32418799
-0.17097041 0.29612806 -0.32972813
-0.13318782 0.29530528 -0.33863449
-0.10317888 0.29470173 -0.34516859
-0.35952419 0.33326161 -0.33643675
-0.33967638 0.3361488 -0.33326244
-0.36134589 0.35795429 -0.31953335
-0.34592518 0.35770851 -0.32152748
-0.35987967 0.40917537 -0.33313823
-0.34595048 0.40336281 -0.321275
-0.34521216 0.42499837 -0.32865262
0.44221127 0.063047826 -0.29585719
0.4323771 0.11441635 -0.28544736
0.27778026 0.14540072 -0.28432679
0.30688664 0.14527346 -0.29257822
0.3375684 0.1375221 -0.29330397
0.37400889 0.13742486 -0.30134583
0.40891421 0.12972675 -0.3001852
0.44177532 0.12974183 -0.30596495
0.14605421 0.17637515 -0.2846427
0.16840228 0.17620356 -0.29021645
0.20597947 0.17215097 -0.2960515
0.23938051 0.16668701 -0.29846215
0.27099353 0.16551836 -0.30435634
0.30305755 0.16031291 -0.30943727
0.32489857 0.16020508 -0.31411028
0.037129089 0.20711645 -0.28979731
0.077700675 0.20168349 -0.29562759
0.10543406 0.198948 -0.29950476
0.13302773 0.19621216 -0.30383945
0.17308033 0.19092849 -0.30897141
-0.12502657 0.23832637 -0.28476596
-0.094223998 0.23791915 -0.29137945
-0.060857929 0.23261738 -0.29359126
-0.032825701 0.22981563 -0.29748392
-0.0025216937 0.22943994 -0.30399776
0.035584897 0.22166482 -0.30653095
0.065356791 0.22121981 -0.31478882
-0.2331851 0.26882908 -0.2909348
-0.20197265 0.27552468 -0.30322647
-0.17136794 0.26073277 -0.29563332
-0.13598111 0.25855619 -0.30450773
-0.094655052 0.25225273 -0.30731845
-0.064330138 0.25174797 -0.31460428
-0.31768075 0.29924968 -0.29593563
-0.29459894 0.29153755 -0.29572487
-0.26322958 0.29068455 -0.3054738
-0.2325592 0.28302404 -0.30565286
-0.33734608 0.36997712 -0.30483532
-0.33806264 0.39666781 -0.29710984
-0.33319086 0.42265072 -0.29477334
-0.36489502 0.48580751 -0.28660131
-0.34905365 0.50057679 -0.29026651
0.44197673 0.027834468 -0.25216222
0.30679038 0.11441628 -0.25838923
0.34525004 0.10654958 -0.2616272
0.37486887 0.10657822 -0.26827407
0.40588051 0.095563203 -0.2634275
0.43584365 0.093523987 -0.26434994
0.15098515 0.14591482 -0.25092959
0.17378542 0.14583504 -0.25610256
0.20717293 0.14052422 -0.25991559
0.23917603 0.13937709 -0.26727295
0.27460289 0.1261398 -0.26229143
0.31060982 0.12997115 -0.27617979
0.0093943924 0.17747414 -0.24895096
0.032448635 0.17727183 -0.2555213
0.070735574 0.17698842 -0.26472688
0.10527557 0.16759971 -0.26361108
0.13760051 0.16636437 -0.27141738
0.17122355 0.16116923 -0.27235675
0.19340509 0.16100568 -0.27943611
-0.12462498 0.20894168 -0.2502811
-0.093274705 0.2086674 -0.25621843
-0.059399016 0.20323858 -0.26010871
-0.030919917 0.20043439 -0.26446772
-0.0001282841 0.20014372 -0.27130485
0.038611129 0.19228363 -0.2737627
0.069105834 0.19204341 -0.28000212
-0.25853541 0.24045652 -0.25017691
-0.23475176 0.24022341 -0.25396276
-0.20306028 0.23968676 -0.26267695
-0.17174664 0.23180819 -0.26292539
-0.136529 0.22762805 -0.26791525
-0.093730561 0.22347477 -0.2729435
-0.070619687 0.22309902 -0.27991414
-0.32096401 0.27142888 -0.25716209
-0.29691747 0.26303828 -0.26406527
-0.26521495 0.26253864 -0.27104568
-0.23391837 0.25458327 -0.27367902
-0.20259894 0.25415713 -0.27983046
-0.31927723 0.28544325 -0.2770822
-0.3598828 0.47504917 -0.25996375
-0.35086849 0.48848081 -0.27213144
0.37149245 0.066439062 -0.21933866
0.40120989 0.066637009 -0.22791052
0.4323023 0.066699155 -0.23059893
0.17139012 0.11441624 -0.22053123
0.21092206 0.10640882 -0.22328544
0.24448347 0.10376658 -0.22841334
0.26947778 0.1038134 -0.2361815
0.30507064 0.090522304 -0.23052597
0.33309782 0.087940186 -0.23545527
0.37388414 0.082770318 -0.24134445
0.035483241 0.1463711 -0.22128963
0.066685826 0.14625984 -0.22851372
0.10288259 0.13981529 -0.23179817
0.13764659 0.13424617 -0.23343182
0.17652345 0.1302595 -0.23872638
0.20794827 0.12230715 -0.24044132
0.23234844 0.11441644 -0.23676395
-0.11623004 0.17845656 -0.21704316
-0.092339411 0.17832097 -0.22145009
-0.057935521 0.17282313 -0.22657776
-0.029074676 0.17000295 -0.2325027
-0.00017267466 0.16727197 -0.23594689
0.033892155 0.16193403 -0.23923564
0.064798921 0.16176189 -0.24669552
-0.26038346 0.21053043 -0.21588111
-0.23613387 0.21028069 -0.22128892
-0.20402479 0.2100219 -0.22689319
-0.17216134 0.2020162 -0.22703767
-0.13633548 0.19777244 -0.23381519
-0.092831157 0.19359195 -0.23977065
-0.069316305 0.19335023 -0.24605131
-0.29944071 0.23373383 -0.22956491
-0.26987866 0.23074117 -0.23576975
-0.23548999 0.22544052 -0.23646235
-0.20355055 0.22500703 -0.24450684
-0.32296222 0.25736234 -0.23356438
-0.38625956 0.44762957 -0.23559356
-0.3388555 0.44797567 -0.23345208
-0.37022555 0.46323469 -0.23714042
0.43666667 -0.031812958 -0.18617773
0.44583517 0.0020217448 -0.21103215
0.38015699 0.033121176 -0.18470383
0.41055626 0.033429913 -0.19272518
0.44143116 0.033635736 -0.19807243
0.24228323 0.06559962 -0.18299031
0.27279913 0.065831035 -0.1930089
0.31319618 0.057711191 -0.19348645
0.34359276 0.057941563 -0.20195293
0.37585676 0.049909614 -0.20189977
0.40567029 0.050192997 -0.21110415
0.43746924 0.050227284 -0.21221447
0.014547959 0.11441635 -0.18200445
0.038464129 0.11441629 -0.18762803
0.070116878 0.11441629 -0.19551158
0.10387349 0.098149791 -0.18373275
0.13411266 0.10631492 -0.20075631
0.16986483 0.092820846 -0.19563651
0.19867784 0.090175599 -0.20060897
0.23883224 0.082157463 -0.20153999
0.27686965 0.082331181 -0.21282792
-0.11568877 0.14697766 -0.1818862
-0.091425449 0.14689311 -0.18738627
-0.059389748 0.14673445 -0.19768977
-0.027079619 0.1386185 -0.19795442
0.0047219992 0.13853957 -0.20497441
0.036972374 0.13052326 -0.20445442
0.068371251 0.13046302 -0.21229649
0.1017153 0.11441644 -0.201828
-0.26223725 0.17955184 -0.18147874
-0.23762418 0.17940605 -0.18620944
-0.20490244 0.17915842 -0.19425225
-0.1698188 0.17371884 -0.19504094
-0.13534369 0.16923469 -0.20121336
-0.091877952 0.1627406 -0.20430827
-0.068002112 0.1625652 -0.21190786
-0.29906294 0.20595653 -0.19783854
-0.27199143 0.20047587 -0.19999051
-0.23688562 0.19498491 -0.20358181
-0.20444137 0.19468305 -0.21142268
-0.32589382 0.23549516 -0.19894409
-0.34108952 0.4679549 -0.20926809
-0.34233475 0.48641166 -0.19578815
0.44143176 -0.049384318 -0.16898322
0.40462071 -0.0011098087 -0.15291691
0.43665183 -0.00091924518 -0.15645361
0.24860007 0.031739213 -0.14879966
0.27235389 0.031943329 -0.15410495
0.30350536 0.032277614 -0.1627872
0.33652446 0.02399943 -0.16206861
0.3656435 0.02145274 -0.1663115
0.40800548 0.016252138 -0.17149734
0.43927985 0.016494639 -0.17674828
0.11623761 0.06482482 -0.14944124
0.13994458 0.065010212 -0.15746808
0.17534342 0.059545271 -0.1594398
0.20468912 0.056925654 -0.16429353
0.23402581 0.054317966 -0.16861415
0.26870698 0.04900977 -0.17267513
0.29196325 0.049199432 -0.17883658
-0.090460844 0.11441635 -0.15172601
-0.057776891 0.11441624 -0.15973639
-0.024380095 0.097898841 -0.15113878
0.0079426169 0.09797354 -0.16083241
0.040849373 0.08971478 -0.16066027
0.072874486 0.089812875 -0.16898203
0.10608822 0.081597343 -0.16516423
0.13762891 0.081743583 -0.17465377
0.16121852 0.081840567 -0.18096375
-0.2309231 0.14748539 -0.14891028
-0.20592745 0.14736727 -0.15658617
-0.17285702 0.14721832 -0.16625977
-0.13512437 0.13736609 -0.16443348
-0.090966836 0.1307846 -0.170506
-0.058559105 0.13072571 -0.17816067
-0.025428489 0.11441649 -0.16928887
-0.0013744235 0.11441644 -0.17684531
-0.3016488 0.17465989 -0.16183591
-0.27401668 0.169076 -0.1656878
-0.23843266 0.16360059 -0.16707253
-0.2054047 0.16339642 -0.17591453
-0.18082407 0.16327704 -0.18108177
-0.32890451 0.21295491 -0.16338921
-0.31158084 0.19608164 -0.17508745
-0.34388375 0.50568336 -0.17901921
-0.36193761 0.54179114 -0.16152167
-0.34542477 0.53342915 -0.16233754
-0.3626411 0.5596897 -0.15449214
-0.34648955 0.56045491 -0.15081096
0.43690199 -0.086207159 -0.12500048
0.439623 -0.036751173 -0.11490107
0.27973449 -0.0030717924 -0.11650729
0.31155279 -0.0026264116 -0.12477255
0.34706417 -0.0080481246 -0.12798715
0.37651396 -0.010566898 -0.13268137
0.40993643 -0.018882327 -0.13231444
0.44136977 -0.018459491 -0.13918066
0.14492914 0.03064765 -0.12044144
0.1769549 0.031028673 -0.1303401
0.21075666 0.022539854 -0.12763309
0.24029374 0.020029522 -0.13373256
0.27610219 0.014566794 -0.13501048
0.30734614 0.015011467 -0.14463544
-0.013966992 0.06406007 -0.11632681
0.010689005 0.064222164 -0.12334561
0.043481097 0.064398319 -0.13097095
0.077004254 0.055977471 -0.12922359
0.10697591 0.053358104 -0.13461161
0.14242676 0.047974139 -0.1390419
0.16656813 0.048138693 -0.14438844
-0.19850188 0.11441635 -0.12085366
-0.17331162 0.11441624 -0.12705493
-0.13490415 0.10437605 -0.12902713
-0.089789748 0.089324072 -0.12670779
-0.056693934 0.089411676 -0.13422036
-0.023283392 0.081089117 -0.13215399
0.0092927068 0.081247494 -0.14244032
-0.30711955 0.14785828 -0.12469435
-0.2733739 0.13940567 -0.12984419
-0.24263057 0.13659674 -0.13299108
-0.20946197 0.12550539 -0.12906528
-0.17310706 0.13098355 -0.14464831
-0.11512461 0.11441644 -0.14524317
-0.33238241 0.1813734 -0.12231731
-0.31433403 0.1642414 -0.13932276
-0.33044106 0.19723032 -0.14524317
-0.37480891 0.58431309 -0.1167655
-0.34904319 0.58293313 -0.12316704
0.44460654 -0.10578773 -0.096404552
0.38031167 -0.056087591 -0.08190465
0.40374684 -0.055430062 -0.090444803
0.44002521 -0.060957067 -0.092417717
0.23492247 -0.021825172 -0.084528923
0.26741841 -0.021315195 -0.092809439
0.3013624 -0.029835813 -0.092767954
0.33557311 -0.038372003 -0.091505527
0.36784923 -0.037877224 -0.098647118
0.4071818 -0.03706985 -0.11029959
0.098590314 0.012273081 -0.085350513
0.13157076 0.012660228 -0.093729496
0.1629732 0.0012170002 -0.091640472
0.19910318 -0.004194878 -0.095665455
0.23955488 -0.0036184341 -0.10636258
0.32333604 -0.020322673 -0.10892725
0.33924255 -0.02006454 -0.11311936
-0.071600698 0.046278469 -0.083971739
-0.037878998 0.046490915 -0.090875626
-0.0013044626 0.040918566 -0.094360828
0.026980385 0.035253175 -0.094086647
0.063412204 0.029746205 -0.097020149
0.10448739 0.030162513 -0.10783768
0.17980719 0.013473123 -0.11133265
-0.19082564 0.080366924 -0.085245848
-0.16521189 0.080492988 -0.093429089
-0.13694476 0.074845433 -0.095274925
-0.10874854 0.069250524 -0.09792304
-0.07224118 0.063739032 -0.10242248
-0.038791373 0.063893601 -0.10911489
0.045229658 0.04711581 -0.111166
-0.30073291 0.11441635 -0.095916986
-0.25843042 0.10590759 -0.094954491
-0.22455131 0.097462997 -0.094512939
-0.19891098 0.09752921 -0.1031394
-0.17348665 0.097595476 -0.11171699
-0.3176066 0.13135186 -0.096810818
-0.29160735 0.12282361 -0.10550237
-0.23240072 0.11441644 -0.11052108
-0.33497655 0.16534159 -0.091681719
-0.35939747 0.60429591 -0.10242796
0.43693477 -0.14375353 -0.060998201
0.41399574 -0.093181647 -0.049500465
0.43924302 -0.092934214 -0.052179098
0.24995807 -0.05871778 -0.047737598
0.27496189 -0.058325715 -0.052830219
0.30734798 -0.057512574 -0.063393116
0.34193957 -0.066219844 -0.062481642
0.37235379 -0.068678223 -0.067331791
0.40883559 -0.07413616 -0.070116758
0.43377143 -0.073884748 -0.073084116
0.11128435 -0.024002172 -0.049179554
0.13637003 -0.023586713 -0.055925846
0.17312703 -0.0290794 -0.060364008
0.20380774 -0.031600036 -0.065836191
0.23821881 -0.040174194 -0.065493584
0.2709671 -0.039585598 -0.073987722
-0.035959393 0.01075346 -0.052447319
-0.0019894838 0.011167563 -0.061415434
0.035238087 0.0054455847 -0.062349081
0.066327542 0.0027936026 -0.066762209
0.10070702 -0.0057729259 -0.066383123
0.13395885 -0.005312942 -0.074917555
-0.18287666 0.045163512 -0.047761679
-0.16553092 0.045293435 -0.051985979
-0.13965525 0.045583442 -0.061403036
-0.10528611 0.037017137 -0.063616037
-0.070933357 0.028498523 -0.06460309
-0.036996245 0.028831899 -0.073267221
-0.01166293 0.02904927 -0.078913212
-0.29496562 0.079897806 -0.054775
-0.25720698 0.074240856 -0.061829805
-0.2255131 0.071457982 -0.066669464
-0.19120824 0.062876239 -0.065063477
-0.16538166 0.063021928 -0.071375847
-0.14825022 0.063181058 -0.078264475
-0.31976771 0.10580079 -0.068736792
-0.29365319 0.09731134 -0.074804783
-0.33739939 0.14880706 -0.063069344
-0.35931134 0.63357967 -0.07359767
0.44465089 -0.16459596 -0.031517267
0.44812286 -0.13114911 -0.018252134
0.29912767 -0.096119188 -0.017701149
0.34025082 -0.094952412 -0.030332088
0.37537992 -0.10383748 -0.029177189
0.40223557 -0.11277264 -0.026607037
0.43547589 -0.11210652 -0.033261538
0.14150652 -0.061200149 -0.015488148
0.17518467 -0.06041903 -0.025636673
0.21254611 -0.06601084 -0.029037237
0.24164513 -0.071832694 -0.029017687
0.27880451 -0.077326186 -0.032443523
0.31162065 -0.076478206 -0.042458534
-0.025216863 -0.026193418 -0.013600111
0.00079913437 -0.025872387 -0.018810272
0.035200641 -0.025362097 -0.027096272
0.070090994 -0.034104206 -0.027639627
0.10150066 -0.036622055 -0.033405542
0.13891342 -0.042224728 -0.03589654
0.16391283 -0.041665293 -0.043972015
-0.16581815 0.009008646 -0.014674187
-0.13950092 0.0093111023 -0.021220446
-0.10161573 0.0036520958 -0.025569916
-0.069787741 0.0010248423 -0.031490564
-0.034901455 -0.0076629743 -0.031304598
-0.0005620271 -0.0072164387 -0.03959322
0.025035173 -0.0068834126 -0.04577136
-0.28835595 0.04436332 -0.021781445
-0.26179475 0.044547305 -0.027756929
-0.2268931 0.035743125 -0.02684927
-0.19474132 0.033012323 -0.031685829
-0.1656691 0.027321771 -0.034036398
-0.13958062 0.027609974 -0.041520119
-0.32243237 0.079579838 -0.034122229
-0.29604131 0.062258273 -0.038303137
-0.26956636 0.062423535 -0.045467615
-0.36531991 0.67011124 -0.040974855
-0.358316 0.69209731 -0.02278614
0.34104785 -0.13468748 0.014580727
0.37452084 -0.13368136 0.0052456856
0.41056633 -0.14286056 0.0077414513
0.43561751 -0.14217147 0.0015685558
0.17269233 -0.099545516 0.019388676
0.19828504 -0.098841704 0.01177001
0.23637056 -0.10454545 0.0091366768
0.26779228 -0.10692882 0.0030436516
0.303455 -0.1158694 0.0043389797
0.33641672 -0.11470348 -0.0073122978
0.012301296 -0.063974373 0.020546675
0.038327083 -0.063286938 0.011617899
0.073004976 -0.062594675 0.0026261806
0.10863107 -0.071648292 0.0046238899
0.1442889 -0.080616273 0.0064103603
0.17811266 -0.079642139 -0.0050930977
0.20373997 -0.079178192 -0.010571718
-0.13044164 -0.028052546 0.016588211
-0.10391949 -0.027476095 0.0072314739
-0.065541178 -0.03329467 0.0052626133
-0.036013693 -0.039189078 0.0050456524
0.0020935535 -0.044784151 0.0010449886
0.036702454 -0.044121005 -0.0085253716
-0.26386189 0.0077067986 0.013515711
-0.22798702 0.0081101581 0.0047821999
-0.19256875 -0.0008148253 0.0053372383
-0.16596986 -0.0096211433 0.0050349236
-0.13942425 -0.0093162283 -0.0006248951
-0.1130375 -0.0088280737 -0.0096814632
-0.32622552 0.043226279 0.015152216
-0.30151236 0.031860963 0.00040626526
-0.26279768 0.02631139 -0.0077826977
-0.32424435 0.061618019 -0.010584354
-0.34368831 0.38092291 0.011199236
-0.34409577 0.41708663 0.016010761
-0.34343427 0.44266987 0.0081992149
-0.34417614 0.50626808 0.016960382
-0.37184948 0.70877212 -0.003562212
0.44812524 -0.19280741 0.050804853
0.31188783 -0.15625942 0.047305346
0.33697605 -0.15515384 0.037731409
0.36706293 -0.17488524 0.052021742
0.40143532 -0.17394689 0.044402599
0.43527722 -0.17286441 0.035614014
0.21356007 -0.13885075 0.053212166
0.23939183 -0.13800868 0.045396805
0.27370018 -0.1369625 0.035689592
0.30772445 -0.13592884 0.026099443
0.35407591 -0.15468699 0.033688068
0.37945002 -0.15390989 0.026957989
0.050480083 -0.10238033 0.050078392
0.076910928 -0.10174384 0.043187141
0.11197519 -0.10094827 0.034575224
0.13386801 -0.1137412 0.042660475
0.16294977 -0.11302225 0.035386801
0.2012361 -0.11858021 0.031426668
0.22707683 -0.11792902 0.024919271
-0.10308355 -0.066281788 0.050522566
-0.067246512 -0.06560453 0.041724443
-0.028373562 -0.071412839 0.038904667
0.0015645027 -0.077369161 0.038437366
0.040036067 -0.082845934 0.032740831
0.075135335 -0.082170077 0.024759769
-0.25680858 -0.030328222 0.053543091
-0.22937658 -0.029783703 0.044702053
-0.19024694 -0.035637282 0.041778088
-0.16623104 -0.038463108 0.038960457
-0.14225911 -0.041214131 0.035444021
-0.10348194 -0.046774246 0.029770374
-0.076769702 -0.046414964 0.024583101
-0.30115068 -0.0025324151 0.039640427
-0.26497895 -0.011279516 0.035809278
-0.22870672 -0.010721482 0.025452375
-0.32793751 0.024572693 0.037391663
-0.34485012 0.40037981 0.02491951
-0.34612215 0.4741835 0.039941788
-0.34492126 0.48987937 0.025759697
-0.34675044 0.54750758 0.047361612
-0.3456645 0.57205033 0.0345366
-0.34648255 0.60999858 0.044197559
-0.3470521 0.63853043 0.050923824
-0.34702975 0.69268388 0.050659418
-0.36237362 0.7389431 0.021138906
-0.34711814 0.74717784 0.051703691
-0.37349606 0.76310241 0.043929815
0.34668782 -0.1972113 0.084457159
0.37214041 -0.19599575 0.075168848
0.40702611 -0.1950841 0.068202019
0.44107419 -0.2076149 0.070941925
0.18190071 -0.16070944 0.085844278
0.20843646 -0.15996531 0.079399824
0.24732897 -0.16555953 0.074848175
0.27613822 -0.16452801 0.066041231
0.29876012 -0.17751676 0.073386192
0.33301538 -0.176166 0.06242013
0.016680166 -0.12381642 0.083750725
0.043432325 -0.12291593 0.074752092
0.070287526 -0.12233291 0.068926096
0.098163918 -0.13199785 0.073963642
0.1347259 -0.14118397 0.074860573
0.17003474 -0.1402182 0.065899372
0.19604561 -0.13927546 0.057150602
-0.065716073 -0.10569838 0.085996628
-0.029607013 -0.10463735 0.074510813
0.0062692314 -0.10374504 0.064851046
0.032931536 -0.10300181 0.056805134
0.10547867 -0.12118924 0.057496309
-0.22167581 -0.069147639 0.087751389
-0.19401252 -0.068611048 0.080779791
-0.16648994 -0.067980878 0.072594643
-0.1360956 -0.073880337 0.069915295
-0.10259939 -0.0864821 0.075682163
-0.066442698 -0.085575424 0.064975739
-0.039571829 -0.084827341 0.056141615
-0.30306876 -0.031271286 0.068856955
-0.26979887 -0.043642797 0.071801186
-0.23018903 -0.049446218 0.068337202
-0.202728 -0.049017154 0.062142849
-0.33014733 0.0052780509 0.066098213
-0.34737599 0.53077012 0.054748535
-0.34751254 0.66692162 0.056361437
-0.34752429 0.71223831 0.056499958
-0.3484323 0.73316091 0.06722331
-0.36618111 0.78636986 0.062356234
-0.34799647 0.76813132 0.062076092
-0.36830059 0.81124246 0.085300207
-0.35008177 0.79330432 0.086702108
0.3998571 -0.23861009 0.11684227
0.43497121 -0.23737684 0.1084094
0.2419723 -0.20147803 0.11706114
0.26849306 -0.20046443 0.1093154
0.30767736 -0.20599487 0.10420561
0.33846471 -0.21214244 0.1041224
0.37731981 -0.21752873 0.098792076
0.41223127 -0.21636102 0.090364933
0.06554243 -0.1644589 0.1183157
0.10178798 -0.16341394 0.10926604
0.14161068 -0.16930127 0.10655189
0.17207867 -0.17513815 0.10381079
0.21184099 -0.1810506 0.10207748
0.23810434 -0.17994905 0.093134403
-0.092513174 -0.12711078 0.11667013
-0.064957127 -0.12624317 0.10799837
-0.025038786 -0.13201809 0.10380197
0.0057743341 -0.13819858 0.10399938
0.036547676 -0.14430082 0.10378027
0.06349732 -0.14337528 0.095192909
0.0906602 -0.1428718 0.090521812
-0.23184869 -0.089904167 0.11609507
-0.19444588 -0.08879564 0.1030035
-0.16675521 -0.098446168 0.10705423
-0.13899919 -0.10791162 0.10995555
-0.10219827 -0.10667714 0.096592426
-0.29652542 -0.070927747 0.11087489
-0.26837304 -0.070369057 0.10361886
-0.24025363 -0.069590501 0.09350419
-0.14825022 -0.087621905 0.089142799
-0.33444327 -0.034538142 0.1219039
-0.30481732 -0.051334105 0.095585346
-0.33213797 -0.014305048 0.091957569
-0.35141215 0.81624848 0.10241342
-0.37050396 0.83674097 0.10915256
0.37033743 -0.26274425 0.152915
0.4054879 -0.26100463 0.14161587
0.43989676 -0.2590242 0.12875247
0.20959598 -0.2245957 0.14979506
0.2367658 -0.22365534 0.14300752
0.2745536 -0.23322859 0.1440444
0.31243911 -0.24286249 0.1459167
0.34763044 -0.24112803 0.13405681
0.37409592 -0.24003276 0.12656951
0.11588141 -0.20631483 0.1540215
0.14315689 -0.20520461 0.14553738
0.17924723 -0.20373389 0.13429785
0.20625043 -0.20276847 0.12692142
0.22434762 -0.20229179 0.12327909
0.28155646 -0.22195408 0.13072991
0.2992956 -0.22124293 0.12559843
-0.053957939 -0.16846058 0.15297079
-0.026033409 -0.16765788 0.14601898
0.010740653 -0.16617179 0.13315034
0.039297968 -0.17633203 0.13950777
0.067762122 -0.18614039 0.14340186
0.10406175 -0.18463126 0.13114905
0.13128084 -0.18375012 0.12399554
-0.18594788 -0.13061848 0.15171957
-0.16705126 -0.12999719 0.1455121
-0.13573682 -0.13576281 0.14032698
-0.10451029 -0.14174742 0.13768244
-0.064092293 -0.14743549 0.13286686
-0.036501341 -0.14633122 0.12261963
-0.31809303 -0.093169458 0.15465522
-0.29813021 -0.091668658 0.13693333
-0.27013248 -0.10124899 0.13879228
-0.2326248 -0.11055367 0.13855648
-0.19493659 -0.10963329 0.12859368
-0.31621158 -0.072207458 0.12749863
-0.35319328 0.8410328 0.12344766
-0.36691016 0.87039 0.13788748
0.25358766 -0.2682865 0.18891263
0.27183664 -0.26748088 0.18367982
0.29897535 -0.26621047 0.17542815
0.33936745 -0.27190581 0.17105675
0.3750729 -0.28522182 0.17530465
0.41082972 -0.28357351 0.16510892
0.10919219 -0.22885466 0.18053055
0.13697684 -0.22785607 0.17332411
0.16848448 -0.23401529 0.17178202
0.19995877 -0.24015 0.17040277
0.2406567 -0.24604347 0.16766453
0.2677058 -0.24481839 0.15928864
-0.062515005 -0.19047675 0.17860842
-0.024930179 -0.18915647 0.1678884
0.0046586543 -0.21051502 0.18611622
0.032628134 -0.20927843 0.1766665
0.069790274 -0.20791858 0.16627431
0.097497135 -0.20694566 0.15884042
-0.13872698 -0.17168048 0.18085575
-0.10079708 -0.1703907 0.16968584
-0.072652124 -0.16907665 0.15830541
0.0030243397 -0.18813285 0.15957808
0.021696448 -0.18771115 0.15615463
-0.30120644 -0.13413763 0.18688488
-0.27205396 -0.13315451 0.17706156
-0.23056415 -0.1389356 0.17115641
-0.19890578 -0.14526209 0.17114735
-0.1672156 -0.15109918 0.16686106
-0.14825022 -0.15046081 0.16093874
-0.31999874 -0.11458165 0.18216157
-0.29963085 -0.11265466 0.16130042
-0.3559885 0.8887136 0.15645742
-0.36707199 0.91358674 0.17497826
0.23931879 -0.2925311 0.22052026
0.26660278 -0.29080173 0.20982194
0.31714436 -0.31219563 0.22220778
0.34434944 -0.31058323 0.21268773
0.37141162 -0.30901182 0.20340943
0.17072845 -0.27223867 0.21458244
0.20794666 -0.27067107 0.20440102
0.23564672 -0.26948068 0.19666934
0.3033542 -0.28915352 0.19962597
0.33065331 -0.28786275 0.19164133
-0.031971782 -0.23441905 0.22068715
-0.0032993257 -0.23349351 0.21400809
0.034508109 -0.2318778 0.20234799
0.073168188 -0.24184144 0.20443225
0.11190504 -0.25174403 0.20663953
0.13976717 -0.2504057 0.19748902
0.15838158 -0.24970892 0.19272566
-0.18703756 -0.19588238 0.22249651
-0.16761161 -0.19536591 0.21830416
-0.13862962 -0.19393429 0.20667958
-0.10007934 -0.20364237 0.20684242
-0.061587341 -0.21303517 0.20537281
-0.02364108 -0.21149969 0.19364047
-0.29298508 -0.15572593 0.20979404
-0.23524356 -0.17550898 0.21401143
-0.1963428 -0.17406812 0.20153403
-0.16741197 -0.17300975 0.19236898
-0.32208246 -0.13667485 0.21223736
-0.2634806 -0.15445447 0.19799614
-0.24400294 -0.15369132 0.19091392
0.31259039 -0.33663234 0.25070429
0.13620895 -0.29756993 0.25168896
0.17406932 -0.29582193 0.2408762
0.21157816 -0.29405022 0.22991657
0.23388001 -0.31671858 0.24891543
0.27098739 -0.31458199 0.23629951
0.29864353 -0.31304744 0.2272377
-0.030633703 -0.2580359 0.24965739
-0.001707375 -0.2568475 0.24153161
0.047855109 -0.27779427 0.25066853
0.076466277 -0.2764127 0.24169469
0.10497168 -0.27515581 0.23353052
0.13336316 -0.27402735 0.2262013
-0.12859516 -0.23937497 0.25645351
-0.099332064 -0.23785278 0.24546885
-0.06061969 -0.23617965 0.23339391
0.036418706 -0.25495341 0.22858143
-0.28578264 -0.19994369 0.25546932
-0.26592207 -0.19937512 0.25085497
-0.23613462 -0.19800231 0.23970842
-0.19705376 -0.20795944 0.24095416
-0.16779059 -0.21776998 0.24155283
-0.13852879 -0.21655193 0.23224664
-0.32432351 -0.15947542 0.24458432
-0.29435259 -0.17775398 0.23345375
-0.26465723 -0.1766012 0.22347069
-0.34326816 0.42644498 0.23654294
0.20956004 -0.34278548 0.28545785
0.23802394 -0.3412056 0.27653384
0.27534577 -0.3387467 0.26264644
0.040402472 -0.3026239 0.28295255
0.069461405 -0.30121487 0.27423692
0.10214776 -0.30732504 0.27099562
0.13921741 -0.3217575 0.27866864
0.17740279 -0.31980035 0.26711226
0.20597464 -0.3185252 0.259583
-0.13833548 -0.26297891 0.28345275
-0.098838896 -0.26119736 0.2712729
-0.059263736 -0.27130121 0.27241707
-0.02943252 -0.28164265 0.27566385
-0.00027345121 -0.28021833 0.26641178
0.028672442 -0.27874526 0.25684428
-0.28728849 -0.22324795 0.28341317
-0.22782715 -0.24367994 0.2875216
-0.19778401 -0.24213627 0.27638197
-0.16799253 -0.24094528 0.26778769
-0.14825022 -0.2400389 0.26124477
-0.30611402 -0.20131135 0.26657414
-0.26705107 -0.22218621 0.27529931
-0.2370339 -0.22094175 0.26579046
-0.20728263 -0.22010067 0.25936413
-0.32651526 -0.18269211 0.27621937
-0.34488755 0.40937242 0.25757933
-0.34705013 0.46233162 0.28567195
0.20373923 -0.3683261 0.31610537
0.2419458 -0.36584491 0.30267572
0.012894407 -0.32873157 0.31984806
0.042448997 -0.32723773 0.311028
0.071842209 -0.32576853 0.30235291
0.099453896 -0.34084311 0.31205845
0.14239037 -0.34661627 0.30709338
0.17122531 -0.34482974 0.29700303
0.1904617 -0.3438409 0.29141879
-0.057799652 -0.30775633 0.31470132
-0.028074004 -0.30620056 0.3050766
0.0013378412 -0.30446902 0.29436588
-0.23885505 -0.26804954 0.31812024
-0.19835654 -0.26629555 0.30612803
-0.16828713 -0.27635768 0.30605483
-0.13822453 -0.28712481 0.31127095
-0.09833324 -0.28504327 0.29775167
-0.29825893 -0.23567346 0.30177307
-0.26836652 -0.24593261 0.30377889
-0.24799702 -0.24467221 0.29468274
-0.32896656 -0.20685729 0.31160092
-0.34795678 0.50385433 0.29744983
-0.34896711 0.53592169 0.31057405
-0.34900612 0.56612539 0.31108141
-0.34990048 0.60846019 0.32269883
-0.34990114 0.63870865 0.32270694
0.16815209 -0.39592752 0.35500884
0.19748303 -0.39401504 0.34507179
0.10620382 -0.37416959 0.34773445
0.13544711 -0.37192202 0.33556843
0.16491386 -0.3704946 0.32784271
-0.087062918 -0.33429074 0.35267305
-0.06689503 -0.33303714 0.34527278
-0.036679067 -0.33191553 0.33864903
0.00083652139 -0.34639814 0.34387422
0.034698129 -0.35311833 0.34381771
0.064443067 -0.35150686 0.33471608
-0.2502349 -0.29352248 0.35282493
-0.22947165 -0.29169074 0.34092855
-0.19889055 -0.29059285 0.33379722
-0.16865066 -0.31399271 0.35327935
-0.13811004 -0.31210366 0.34159327
-0.097731471 -0.31004137 0.3288362
-0.29049656 -0.27168086 0.34294868
-0.2697022 -0.27018166 0.33269763
-0.3098622 -0.24921054 0.32743716
-0.35123962 0.67263448 0.3400948
-0.35173488 0.70452172 0.34652805
-0.35230252 0.72657341 0.35390234
0.079140663 -0.40238103 0.38854384
0.10899079 -0.40009502 0.37666488
0.13868478 -0.39796761 0.36561036
0.16191611 -0.42320529 0.3893044
-0.086348496 -0.36016345 0.3836081
-0.065966278 -0.35871649 0.37543464
-0.034907877 -0.3697255 0.37920046
0.0063782483 -0.3804208 0.38157034
0.036913574 -0.37935388 0.37579417
0.066782832 -0.37712535 0.36373234
-0.18960947 -0.34053549 0.38954663
-0.16887592 -0.33934885 0.3825407
-0.13799705 -0.33742857 0.37120223
-0.10734202 -0.33557406 0.36025119
-0.025484167 -0.35618708 0.36114836
-0.29207206 -0.29650337 0.37218618
-0.26496804 -0.31134206 0.37909532
-0.23049253 -0.31735593 0.3740828
-0.19945325 -0.31559029 0.36316061
-0.31227693 -0.27514717 0.36664724
-0.33235943 -0.23334557 0.36057258
-0.35310179 0.74945617 0.36428547
-0.35380471 0.77219075 0.37341619
0.081823036 -0.4293932 0.42022109
0.10198575 -0.42776176 0.41206908
0.13202256 -0.42539456 0.40024209
-0.02264528 -0.40893772 0.42261219
0.0083009899 -0.40744606 0.41486144
0.038975656 -0.40565559 0.40555811
0.059203312 -0.40421745 0.39808559
-0.19010845 -0.36695316 0.42195654
-0.16912763 -0.36576381 0.41523933
-0.13786379 -0.36388928 0.4046514
-0.096176185 -0.37466395 0.40645981
-0.064928062 -0.38551679 0.40915227
-0.044482566 -0.38366851 0.39914823
-0.26321274 -0.3453719 0.41810465
-0.23131804 -0.34245667 0.40089154
-0.2104156 -0.34146309 0.39502501
-0.30392265 -0.3111271 0.3996911
0.063880801 -0.45833769 0.45884824
-0.02112025 -0.43648019 0.45562983
-0.00032919645 -0.43500468 0.44825745
0.030691624 -0.43298128 0.43814802
0.072741762 -0.44326147 0.43673396
-0.19063303 -0.39417729 0.45602942
-0.16937916 -0.39267817 0.4479146
-0.14825022 -0.39119765 0.43990088
-0.095366172 -0.41458449 0.45195436
-0.063970178 -0.41233405 0.44026041
-0.043203451 -0.41081741 0.43238044
-0.26462299 -0.37215289 0.45132303
-0.23244849 -0.36972383 0.43760467
-0.21114495 -0.36777675 0.42660713
-0.12724444 -0.38972238 0.43191624
-0.10631984 -0.3887482 0.42664289
-0.30589831 -0.33750206 0.43370295
0.0019391477 -0.46488544 0.49035287
0.032971397 -0.46127656 0.47298956
-0.084063053 -0.44187263 0.48257136
-0.062934518 -0.44013581 0.47389436
-0.041983217 -0.43817213 0.46408319
-0.25508577 -0.3983942 0.4788537
-0.23344541 -0.39675459 0.46997976
-0.2015323 -0.40820709 0.4740119
-0.16964608 -0.4204801 0.48258948
-0.13762823 -0.41757342 0.46748471
-0.29729235 -0.37529358 0.46906257
-0.31850505 -0.35378438 0.4677794
-0.32183334 -0.49312469 0.52182317
-0.13738982 -0.49376372 0.52478838
0.003639102 -0.49314103 0.52189994
-0.25586629 -0.48823395 0.49913335
-0.12654103 -0.47173157 0.52329063
-0.09408693 -0.47065416 0.51810718
-0.061822511 -0.46897075 0.51000762
-0.029828861 -0.46698615 0.50045919
0.035240814 -0.49007884 0.50769281
0.066836342 -0.4878259 0.4972415
0.088 -0.48694792 0.49316764
-0.25679541 -0.42830959 0.5232718
-0.23477983 -0.42639384 0.51331687
-0.16994973 -0.44977078 0.52203321
-0.13747112 -0.44678697 0.5071249
-0.10522628 -0.444895 0.49767208
-0.29904008 -0.40257743 0.50149655
-0.27721924 -0.40145978 0.49544644
-0.21272781 -0.42289695 0.49514675
-0.32051563 -0.38084674 0.50042701
-0.19172944 -0.49429277 0.52724338
-0.16998807 -0.49424323 0.52701354
-0.09372656 -0.49615118 0.53586531
-0.060894951 -0.49707064 0.54013109
-0.02826 -0.49647245 0.53735614
-0.32319158 -0.47601083 0.54387927
-0.30119687 -0.4755207 0.54152107
-0.26836327 -0.47523186 0.54013109
-0.2355307 -0.47472671 0.53770137
-0.20281558 -0.47491518 0.53860736
-0.17004235 -0.47397122 0.5340662
-0.14825022 -0.47269228 0.52791238
-0.33491319 -0.45657161 0.55601287
-0.30129904 -0.44314137 0.54341745
-0.27181247 -0.44530144 0.53590178
-0.23538268 -0.45194462 0.53289509
-0.20266888 -0.45151266 0.53073692
-0.33573133 -0.43696228 0.56823301
-0.32461244 -0.41467032 0.56695056
-0.35268965 0.46651435 0.65401459
-0.35244039 0.50010872 0.65041637
-0.35242739 0.52277082 0.65022922
0 0 0 1 0 0 0 1 0 0 0 1 0 0 0 0 0 965 1 0 0
