ply
format ascii 1.0
comment PCL generated
element vertex 938
property float x
property float y
property float z
element camera 1
property float view_px
property float view_py
property float view_pz
property float x_axisx
property float x_axisy
property float x_axisz
property float y_axisx
property float y_axisy
property float y_axisz
property float z_axisx
property float z_axisy
property float z_axisz
property float focal
property float scalex
property float scaley
property float centerx
property float centery
property int viewportx
property int viewporty
property float k1
property float k2
end_header
0.34823239 -0.31715447 -0.37655711
0.35477996 -0.2765246 -0.37473822
0.36740476 -0.23254655 -0.37451386
0.38733137 -0.081832878 -0.36838841
0.38645786 -0.053560335 -0.37332153
0.37633246 -0.015962437 -0.3775444
0.37483251 0.027412049 -0.375247
0.37415802 0.069059223 -0.37182593
0.36881101 0.1072271 -0.36620975
0.26063567 -0.40882376 -0.32350016
0.28586489 -0.36507803 -0.33601308
0.29157633 -0.32469642 -0.33154011
0.32275665 -0.31893924 -0.35800338
0.29869157 -0.2835494 -0.32648516
0.32400972 -0.28168014 -0.34960961
0.3253122 -0.23462009 -0.34091878
0.35090816 -0.23344682 -0.36000466
0.32963187 -0.19039731 -0.33348608
0.36098027 -0.1862286 -0.35624456
0.33674866 -0.14900213 -0.32886553
0.36216825 -0.14845975 -0.34906054
0.33744073 -0.12028877 -0.32437086
0.36348414 -0.10091318 -0.34112549
0.36770487 -0.056308303 -0.33493495
0.38808495 0.079010561 -0.36413193
0.38229048 0.12023847 -0.36123896
0.37957573 0.15521596 -0.3586812
0.38565052 0.20828292 -0.351017
0.41418004 0.21610004 -0.32530642
0.38218743 0.25208321 -0.34354353
0.41475731 0.26457563 -0.3221817
0.37959385 0.28755403 -0.34015894
0.4075343 0.2959522 -0.32673192
0.37350243 0.33879042 -0.33850861
0.40370578 0.33061355 -0.3301487
0.40389431 0.37877595 -0.32907295
0.40778631 0.42433718 -0.32520485
0.42076302 0.46937117 -0.32437062
0.42678273 0.5073266 -0.32647514
0.1878573 -0.49304375 -0.27845979
0.20657928 -0.46237421 -0.28704858
0.22464572 -0.4506582 -0.30049276
0.20713617 -0.43388039 -0.28148341
0.23433094 -0.41182616 -0.30040359
0.26110911 -0.39006239 -0.31965661
0.23545922 -0.36443412 -0.29029727
0.2618627 -0.36184022 -0.31353784
0.24527685 -0.32548749 -0.28993368
0.26872754 -0.32035476 -0.30994368
0.24631499 -0.28723061 -0.28094363
0.27265912 -0.28533971 -0.30432367
0.28256583 -0.23699692 -0.30229759
0.28718805 -0.1907061 -0.29679179
0.31863678 -0.17808463 -0.32147074
0.29329139 -0.14991459 -0.29503798
0.31947476 -0.14935493 -0.31574154
0.29898262 -0.10620585 -0.28909135
0.32797462 -0.09729591 -0.3103416
0.30458283 -0.062293522 -0.28396893
0.32589084 -0.050722074 -0.29800892
0.35711342 -0.043334361 -0.32161999
0.33212686 -0.013751104 -0.29552197
0.35768002 -0.01436048 -0.31811476
0.33314359 0.02543813 -0.28874683
0.35872531 0.024467289 -0.31164885
0.34306556 0.07426168 -0.28783584
0.36038947 0.073432431 -0.30135441
0.36222166 0.12285006 -0.29002047
0.36335683 0.16250116 -0.2829988
0.38218045 0.20112199 -0.28726745
0.41481447 0.24537101 -0.32187223
0.41614819 0.43929544 -0.31488895
0.43831325 0.42301843 -0.29978108
0.40966296 0.46505299 -0.31482863
0.40283656 0.50314915 -0.31705332
0.45538616 0.49798277 -0.31149411
0.41150856 0.54475009 -0.30481935
0.43876529 0.54010093 -0.29743218
0.4110738 0.60060513 -0.2893362
0.41572791 0.64830732 -0.28162551
0.13804398 -0.54481494 -0.24464059
0.15853451 -0.50108898 -0.25295353
0.16573356 -0.45806625 -0.24974537
0.18863937 -0.4550975 -0.26999331
0.17121653 -0.40932983 -0.2437315
0.19864807 -0.40627962 -0.26775503
0.17166926 -0.38018247 -0.23838544
0.19942169 -0.36784551 -0.25973797
0.20028761 -0.32926133 -0.25071859
0.22745375 -0.32697785 -0.27443767
0.20577325 -0.28515181 -0.24538755
0.2332183 -0.27365834 -0.26642084
0.21158113 -0.23107792 -0.23706675
0.23869516 -0.229678 -0.26129842
0.23945712 -0.19053899 -0.25448728
0.26658148 -0.17986456 -0.27522588
0.24028151 -0.15120637 -0.24707603
0.2671051 -0.1505632 -0.27097487
0.25060111 -0.10165121 -0.24382424
0.27720666 -0.10150125 -0.26859975
0.25161439 -0.061917048 -0.23504901
0.27666807 -0.058139671 -0.25723529
0.27958983 -0.012516074 -0.24974537
0.30606186 -0.013151035 -0.27329516
0.28351653 0.023971811 -0.24491549
0.3071081 0.026412763 -0.26574397
0.29067314 0.067204118 -0.24095273
0.31714457 0.065863952 -0.26415825
0.29149711 0.097435445 -0.23465586
0.32540476 0.11804068 -0.25784874
0.33246684 0.16335125 -0.25351739
0.33895928 0.20528138 -0.25000191
0.36452889 0.20240852 -0.27574849
0.33983254 0.23569167 -0.24419165
0.36020452 0.24670428 -0.26165056
0.36040366 0.29011011 -0.25212526
0.36878759 0.33411202 -0.24905992
0.3787533 0.38369349 -0.24885607
0.3829779 0.42107192 -0.24335861
0.39045125 0.46514383 -0.2384305
0.44404423 0.56650448 -0.27000189
0.44400513 0.5959233 -0.27020502
0.38452637 0.62449825 -0.2734158
0.40342176 0.66254127 -0.27750969
0.44556272 0.63751221 -0.26211143
0.36860001 0.6902194 -0.25056505
0.40450352 0.68396437 -0.27139974
0.053916425 -0.66784644 -0.19715428
0.060642876 -0.63425672 -0.19676805
0.074103616 -0.58690822 -0.19759083
0.09964624 -0.58893609 -0.2218833
0.1034719 -0.54372048 -0.21330094
0.10407592 -0.49517903 -0.20283341
0.13258395 -0.50112307 -0.22835898
0.1142022 -0.45488274 -0.20261574
0.13950534 -0.44847515 -0.22431779
0.1147238 -0.41562748 -0.19414592
0.14320605 -0.41244644 -0.2191844
0.14950942 -0.37087169 -0.21479654
0.15397725 -0.32896918 -0.20889091
0.17323212 -0.30218536 -0.2199285
0.15483475 -0.27368128 -0.19869351
0.18304637 -0.27198786 -0.22185779
0.15540688 -0.24385469 -0.19126177
0.1837759 -0.2324293 -0.21361828
0.19378945 -0.19228134 -0.21332645
0.19820429 -0.15425017 -0.20928788
0.20490594 -0.10197503 -0.20270967
0.23255388 -0.1017854 -0.22711396
0.21520029 -0.05155655 -0.20090246
0.23985861 -0.048467241 -0.22104573
0.21606044 -0.010967605 -0.19230723
0.24369933 -0.011620179 -0.21646452
0.24469464 0.028877437 -0.20754313
0.27208161 0.03786806 -0.23057103
0.24866669 0.066065922 -0.20214176
0.27276325 0.068120182 -0.22503638
0.25560319 0.10990053 -0.20050526
0.28312373 0.11831497 -0.22200465
0.25644922 0.14078499 -0.19317842
0.28256983 0.16344811 -0.21048737
0.31180435 0.17739052 -0.23185229
0.28556859 0.21056622 -0.20265627
0.31257379 0.20792684 -0.22629881
0.29576433 0.25097606 -0.20204902
0.31971163 0.25166529 -0.22275877
0.29698771 0.29264712 -0.19270039
0.32378882 0.28911498 -0.2174859
0.32500803 0.33056954 -0.20892334
0.35186136 0.34707713 -0.23070574
0.32775867 0.37772754 -0.20379734
0.35283232 0.38811937 -0.22439885
0.33002979 0.42328116 -0.1974051
0.35999215 0.43208864 -0.22108984
0.33741593 0.46461377 -0.19307685
0.36446238 0.47034279 -0.21385622
0.3744331 0.51046562 -0.21399832
0.37540591 0.54701984 -0.20808434
0.40327394 0.56874084 -0.22176433
0.37766171 0.59581029 -0.19451022
0.39513052 0.59160113 -0.21080065
0.39667428 0.62420428 -0.20168567
0.29560584 0.70442164 -0.20325947
0.35547173 0.70322204 -0.20725536
0.3958751 0.69336092 -0.20640469
-0.026529917 -0.80250001 -0.14738536
-0.026520213 -0.76163924 -0.14612436
-0.0060386732 -0.71857488 -0.15383124
0.014099404 -0.7144376 -0.17127275
0.022235133 -0.67774475 -0.1709528
0.026463725 -0.62985659 -0.16564894
0.028044686 -0.58769238 -0.15817356
0.054486759 -0.58984649 -0.18233633
0.03505145 -0.5440408 -0.15355897
0.064785786 -0.53975391 -0.17830706
0.035254076 -0.51429892 -0.14697814
0.065124363 -0.50031531 -0.17028451
0.065466896 -0.46063486 -0.16222668
0.094915181 -0.45720366 -0.18631625
0.069120005 -0.42379937 -0.15685749
0.095384836 -0.41773212 -0.17760062
0.076174818 -0.37978724 -0.15274835
0.10563686 -0.36701667 -0.17579865
0.10624225 -0.31703278 -0.16525722
0.13530032 -0.30479157 -0.18915176
0.10671994 -0.2767323 -0.15700316
0.13578555 -0.27489281 -0.18214798
0.11699875 -0.23568411 -0.1572051
0.14286953 -0.23113185 -0.17753458
0.11754414 -0.19503435 -0.14834905
0.14669533 -0.19405192 -0.17148066
0.14733058 -0.15347612 -0.16278791
0.17603664 -0.1426938 -0.18680906
0.15282553 -0.10747258 -0.15796041
0.17677768 -0.10216358 -0.17805791
0.15845676 -0.050986197 -0.15164208
0.18714546 -0.051263995 -0.17554855
0.18798754 -0.010258369 -0.16601968
0.19435899 0.028734572 -0.1629045
0.21726267 0.040190138 -0.1802938
0.19889279 0.071933284 -0.15899706
0.22414033 0.074149176 -0.17910218
0.1998257 0.11367631 -0.14889789
0.22801815 0.11181611 -0.17431951
0.2384138 0.159547 -0.17205405
0.24260478 0.20451379 -0.16504025
0.25001591 0.25633457 -0.15985227
0.27766198 0.25310853 -0.18526363
0.26022488 0.29723379 -0.16048002
0.27882183 0.29504529 -0.17584729
0.26097631 0.32896295 -0.15397239
0.28338093 0.33855513 -0.17132831
0.28422183 0.37640682 -0.16465783
0.29088455 0.42011383 -0.16080046
0.31807393 0.42538157 -0.18660474
0.30128503 0.46127757 -0.15986228
0.32421857 0.47265813 -0.1788547
0.30232549 0.5040102 -0.15191197
0.33002573 0.51962948 -0.17365503
0.33140713 0.56275153 -0.16397977
0.35853922 0.56722271 -0.1873312
0.33596826 0.60229063 -0.15605354
0.35995269 0.60002398 -0.17815113
0.3427251 0.63630366 -0.1567781
0.37113863 0.642537 -0.17156887
0.33242399 0.69781363 -0.15693045
0.37115282 0.68331766 -0.17151737
0.39874959 0.66803956 -0.18943143
-0.067947954 -0.85245609 -0.1165905
-0.067999579 -0.80215645 -0.10988402
-0.047120407 -0.80745304 -0.12896204
-0.068040542 -0.76173043 -0.10456252
-0.040242869 -0.75172019 -0.13084197
-0.036771819 -0.71507215 -0.12507153
-0.026458103 -0.67339957 -0.12575531
-0.016028937 -0.63173056 -0.126508
-0.015922125 -0.59197152 -0.11726689
0.014728159 -0.57662141 -0.14404655
-0.0054841153 -0.55023348 -0.11781168
0.014908373 -0.54703784 -0.1362431
-0.0053184144 -0.49983302 -0.10704923
0.021865956 -0.50283647 -0.13256311
0.025470771 -0.45531017 -0.12669063
0.025764249 -0.40473592 -0.1158731
0.056107745 -0.40183002 -0.14022231
0.036253542 -0.36321142 -0.1145196
0.063122593 -0.35750693 -0.1364007
0.036514297 -0.32227343 -0.10605168
0.066758573 -0.32000285 -0.13171697
0.067121364 -0.27921143 -0.12309241
0.067511894 -0.23818882 -0.11386037
0.097402588 -0.23666845 -0.14015579
0.078026667 -0.19654106 -0.11265445
0.097899944 -0.19577 -0.13092613
0.07837753 -0.16549814 -0.10505843
0.10826866 -0.15435129 -0.13019013
0.10891283 -0.10262545 -0.11905169
0.13845593 -0.092135787 -0.14360428
0.11282302 -0.054015212 -0.11168766
0.13909498 -0.050783727 -0.13438034
0.12005027 -0.0086874366 -0.10765505
0.14953597 -0.0093592852 -0.13263988
0.15015373 0.032404929 -0.1241703
0.15072805 0.074398771 -0.11632371
0.17975646 0.072863579 -0.1428802
0.16130939 0.11618604 -0.11458564
0.18058433 0.11482942 -0.13310361
0.1620461 0.15871771 -0.10501575
0.19105783 0.15638514 -0.13135242
0.1918315 0.19872791 -0.12255263
0.22070186 0.20659125 -0.14592719
0.19580899 0.2374759 -0.11692476
0.2213396 0.23826605 -0.1395545
0.20327945 0.28334078 -0.11151028
0.23023926 0.29492339 -0.13305211
0.2039005 0.31561708 -0.10478759
0.23309462 0.34374022 -0.12546563
0.23398174 0.38673744 -0.11691737
0.26233536 0.39266619 -0.14220285
0.24445601 0.42843565 -0.11667633
0.26322997 0.42508313 -0.13445544
0.2453344 0.47175321 -0.10852575
0.27363861 0.46662888 -0.1336453
0.27478933 0.51014602 -0.12395239
0.28485125 0.55117285 -0.12613082
0.29494542 0.59200585 -0.12883687
0.3240239 0.61921763 -0.14366508
0.28688794 0.62793529 -0.11035824
0.32154113 0.64727509 -0.1313746
0.28344977 0.7033174 -0.13811612
0.32136178 0.68121278 -0.1248517
-0.12119883 -0.88565266 -0.074292421
-0.089040831 -0.87832093 -0.09935689
-0.1176843 -0.85765135 -0.073613405
-0.089043587 -0.84692168 -0.099178076
-0.1106543 -0.81247044 -0.071069717
-0.089161083 -0.80703008 -0.091546059
-0.11065563 -0.77012217 -0.071012497
-0.089220151 -0.76594853 -0.087709665
-0.11086897 -0.7299366 -0.061774731
-0.078720659 -0.72365618 -0.08851552
-0.080989227 -0.67808485 -0.075360537
-0.073599055 -0.63209176 -0.072844028
-0.047120407 -0.63761044 -0.097687721
-0.068319567 -0.58000565 -0.068316221
-0.047120407 -0.58700871 -0.087718248
-0.068373792 -0.5494073 -0.061272144
-0.034536179 -0.54032826 -0.08985877
-0.036593724 -0.49366683 -0.078585863
-0.026103627 -0.45131919 -0.079405069
-0.015507042 -0.40885204 -0.081365824
-0.015388306 -0.36771563 -0.071164846
0.015817665 -0.36504501 -0.096869707
-0.0047554448 -0.32541889 -0.070482969
0.016000591 -0.32378674 -0.088948965
-0.0046063028 -0.28377002 -0.060796022
0.026517421 -0.28179044 -0.087802649
0.026744716 -0.24017952 -0.07938242
0.026995599 -0.19834363 -0.070073843
0.05782789 -0.19726297 -0.095531225
0.037691489 -0.15603358 -0.067821026
0.065006413 -0.15193805 -0.090437174
0.037911236 -0.12434854 -0.060684919
0.068708241 -0.10287976 -0.085598707
0.069221213 -0.050079998 -0.073439598
0.099752963 -0.039868817 -0.09653759
0.080000758 -0.0076687187 -0.069914341
0.1002007 -0.008161813 -0.088228941
0.080414534 0.035082988 -0.060955524
0.11066979 0.033913851 -0.088559866
0.11119458 0.076527566 -0.079443216
0.11508544 0.11565971 -0.073291302
0.1417032 0.11748908 -0.096733809
0.12243606 0.16191225 -0.068914413
0.14228816 0.16019882 -0.08829093
0.12295371 0.20517418 -0.06050849
0.15280962 0.20233408 -0.087871075
0.15359488 0.24571568 -0.077115774
0.18330494 0.25333133 -0.10097456
0.15760517 0.28530484 -0.070620298
0.18389979 0.28570962 -0.093949556
0.16497573 0.33176237 -0.066958666
0.19122621 0.33180505 -0.089923382
0.16541024 0.36448142 -0.061314106
0.19713867 0.37726057 -0.086491108
0.19617255 0.42594406 -0.073665857
0.22553958 0.43203321 -0.097585678
0.20020142 0.46936199 -0.068115473
0.22630785 0.47554889 -0.0899086
0.2076105 0.51253939 -0.064625025
0.2368917 0.51782799 -0.088931561
0.20798872 0.53468072 -0.060530901
0.23782323 0.56202185 -0.079952717
0.23879592 0.60657501 -0.070612431
0.26727498 0.59936285 -0.099424124
0.25010532 0.65063107 -0.064256668
0.2753188 0.64720559 -0.09034276
0.24249066 0.69514835 -0.069362879
0.27883995 0.68579328 -0.09010148
-0.19838382 -0.88136816 -0.015069008
-0.16865775 -0.88949764 -0.036644936
-0.16308656 -0.85041392 -0.03319788
-0.13223571 -0.84787047 -0.057967663
-0.15450805 -0.80132544 -0.032155514
-0.13240877 -0.81744015 -0.052347422
-0.1546534 -0.75928497 -0.02837944
-0.13247186 -0.76462889 -0.050298452
-0.15498993 -0.71825385 -0.019635916
-0.12553394 -0.70893574 -0.045053959
-0.12211619 -0.67081416 -0.039921999
-0.12227468 -0.62912917 -0.034060478
-0.089685835 -0.61390066 -0.057462692
-0.11886173 -0.59101546 -0.027346611
-0.08979366 -0.58323681 -0.050459146
-0.11175586 -0.5450452 -0.023370981
-0.082749099 -0.53755379 -0.047223091
-0.11192556 -0.51386732 -0.016022921
-0.079243995 -0.49897602 -0.043221235
-0.079331465 -0.45721662 -0.035598516
-0.075818956 -0.41872597 -0.028777361
-0.047120407 -0.41211227 -0.054055214
-0.068656258 -0.37256193 -0.024579048
-0.047120407 -0.37050244 -0.044355154
-0.068696678 -0.34074801 -0.019328117
-0.036460496 -0.32776782 -0.043995857
-0.036426581 -0.28566289 -0.034849882
-0.021468595 -0.24477249 -0.037187338
-0.014945827 -0.19993356 -0.03260088
-0.011294816 -0.16072267 -0.027568102
0.016906425 -0.15652129 -0.049725056
-0.004055988 -0.11412335 -0.025051832
0.025501646 -0.09893021 -0.046370983
-0.0039432123 -0.081832618 -0.017726898
0.027892247 -0.049655449 -0.036756039
0.028203741 -0.0064661652 -0.02517271
0.059476815 -0.0072069168 -0.052691221
0.039025962 0.036629952 -0.024482965
0.059843451 0.035835877 -0.043165684
0.039235316 0.069289625 -0.017683744
0.070552319 0.078685224 -0.042074442
0.071006238 0.12227288 -0.031354189
0.10188958 0.13103847 -0.056887627
0.074893303 0.16223972 -0.024502277
0.10233331 0.16370712 -0.048653126
0.08224155 0.20924181 -0.021399736
0.10275733 0.20722249 -0.040784121
0.082574025 0.2424033 -0.014201403
0.11341269 0.25001594 -0.04106307
0.1140312 0.29428202 -0.030309916
0.1445222 0.30145228 -0.056045294
0.12490109 0.33747688 -0.028887272
0.14502798 0.33449715 -0.048744917
0.12548013 0.38203987 -0.019484758
0.1524443 0.38150585 -0.044155359
0.15645616 0.42184797 -0.037956476
0.15715687 0.46658829 -0.028419971
0.1870714 0.47171155 -0.056494474
0.16785137 0.50934672 -0.029602528
0.18774197 0.50533092 -0.048575878
0.16864653 0.55469286 -0.019273281
0.19515279 0.55241525 -0.044907808
0.19932157 0.59330225 -0.037989616
0.20355238 0.63444078 -0.030799389
0.23024575 0.6435864 -0.050558805
0.20485877 0.69544065 -0.036495447
0.23119007 0.67815828 -0.041122437
0.16823363 0.71497738 -0.024636745
-0.24251072 -0.88510418 -0.0019519329
-0.22059511 -0.88415337 -0.005289793
-0.25475496 -0.86865878 0.017045498
-0.21021594 -0.85365069 0.0021789074
-0.20727034 -0.81691825 0.014138699
-0.17693691 -0.80663991 -0.011558533
-0.19982007 -0.76897383 0.01158452
-0.17712133 -0.7643311 -0.0075654984
-0.2002928 -0.72733557 0.02035737
-0.17747147 -0.72271502 1.4781952e-05
-0.20074099 -0.69631529 0.028674603
-0.16661565 -0.6790936 -0.00080323219
-0.16693908 -0.63715661 0.0068371296
-0.1673013 -0.59516215 0.015477657
-0.13364667 -0.57935876 -0.012145519
-0.16382433 -0.55584723 0.019767761
-0.13392195 -0.54838359 -0.003205061
-0.15667066 -0.50907028 0.024031162
-0.12677009 -0.50166178 -0.0013401508
-0.12327548 -0.46242929 0.003070116
-0.12355106 -0.42013249 0.013160706
-0.090378627 -0.40626949 -0.012464046
-0.11258049 -0.37639442 0.012336731
-0.090475097 -0.37446961 -0.0061981678
-0.11276109 -0.33344674 0.020156622
-0.08332482 -0.32783628 -0.0025513172
-0.1129251 -0.30118173 0.027258396
-0.079772174 -0.28839639 0.0024936199
-0.079885706 -0.24545543 0.012019157
-0.047120407 -0.23328424 -0.01157999
-0.076299086 -0.2057211 0.017683506
-0.047120407 -0.20109785 -0.0050480366
-0.069024183 -0.15848362 0.023215771
-0.039909512 -0.15424941 -0.00027012825
-0.036273874 -0.10357394 0.0057532787
-0.021078978 -0.05136203 0.0058002472
-0.014438309 -0.0054806024 0.011392593
-0.010700371 0.034788214 0.018486023
0.017938413 0.037454523 -0.0050384998
-0.00328153 0.082571417 0.025250435
0.025230296 0.084636137 -0.001349926
0.029046141 0.12501906 0.0061938763
0.029337391 0.1695227 0.017042875
0.061140127 0.17799261 -0.0094771385
0.040276632 0.21314692 0.016133785
0.06142398 0.21124801 -0.0021021366
0.040582053 0.25801909 0.026052952
0.068798624 0.25875348 0.0019431114
0.072666936 0.29941881 0.007819891
0.073084131 0.34447592 0.017729282
0.10441284 0.34030721 -0.010061502
0.084043607 0.38817793 0.017616034
0.10491286 0.38513479 -0.00078225136
0.084487334 0.43363866 0.02722311
0.11572449 0.42852917 -0.0010211468
0.11626898 0.4738358 0.0084991455
0.1168036 0.51936531 0.017715693
0.14765078 0.51331294 -0.010888338
0.12770537 0.56284714 0.016648531
0.14834079 0.55885255 -0.00092887878
0.12829292 0.60886788 0.026189327
0.1591129 0.60210943 -0.0016694069
0.16031146 0.6497978 0.014840841
0.19109334 0.65446436 -0.0089979172
0.16386659 0.69669652 0.013361454
0.19120479 0.68730009 -0.0076816082
0.083319351 0.72254586 0.0019352436
0.12631395 0.72030127 -0.0059449673
0.1475396 0.71843612 -0.012493372
-0.33449328 -0.85552895 0.049434185
-0.2765519 -0.85144079 0.061750889
-0.24535213 -0.84169137 0.039060116
-0.26993757 -0.80598462 0.072311401
-0.2461952 -0.80070961 0.051228523
-0.22298209 -0.8072623 0.033469677
-0.23876484 -0.75249016 0.049904823
-0.22294205 -0.77412581 0.032819271
-0.23545824 -0.71318722 0.055608749
-0.23208368 -0.67362857 0.060658932
-0.20113987 -0.66489959 0.036077023
-0.22484654 -0.62611139 0.063744545
-0.20145719 -0.62200332 0.041965485
-0.22521904 -0.58272994 0.069793224
-0.20184913 -0.57916665 0.049239159
-0.19469951 -0.53186667 0.052927971
-0.17914188 -0.54390788 0.036180973
-0.19126382 -0.49197105 0.057790279
-0.18005747 -0.44739908 0.056003571
-0.15710643 -0.45575872 0.035353184
-0.1806148 -0.40443245 0.068069935
-0.15761769 -0.40226474 0.048635006
-0.15043467 -0.35479471 0.052731514
-0.13503355 -0.37853301 0.032895088
-0.14687075 -0.31447482 0.056129932
-0.14330754 -0.27414787 0.060281277
-0.11309143 -0.26873922 0.034460545
-0.13604356 -0.22632194 0.065695763
-0.11339366 -0.22541183 0.047548294
-0.10613114 -0.17768446 0.050905704
-0.091099888 -0.19178139 0.03438282
-0.10256085 -0.1372222 0.056668758
-0.091408163 -0.10397674 0.054405689
-0.069124743 -0.10380586 0.036279202
-0.091559283 -0.070709527 0.064221382
-0.069212742 -0.059740573 0.047710419
-0.047120407 -0.037849225 0.034637451
-0.091699459 -0.037253685 0.073326111
-0.069273077 -0.02643938 0.055548191
-0.047120407 -0.015746027 0.039482594
-0.069361977 0.01826515 0.06709671
-0.039787687 0.02841305 0.042632103
-0.069408871 0.051898018 0.073187828
-0.039772972 0.065686822 0.052457333
-0.02948969 0.10852338 0.053305626
-0.024951998 0.15094532 0.057592392
-0.0030523092 0.14953472 0.040138721
-0.024871819 0.19628468 0.068007946
0.0043507181 0.19773355 0.045047283
0.0081231445 0.23879465 0.050200462
0.019123629 0.29034612 0.050228596
0.019428596 0.3285622 0.059488297
0.041053452 0.33699304 0.041362286
0.019684911 0.37468293 0.070586681
0.048502676 0.37434769 0.045258999
0.052417271 0.41605398 0.052325249
0.063454814 0.46027347 0.052327633
0.063939288 0.50678909 0.063247681
0.085222483 0.50268734 0.043139458
0.064151645 0.54129076 0.06876421
0.092680931 0.55107999 0.045918465
0.096617952 0.59280229 0.051182747
0.10075872 0.63549888 0.059765816
0.12939705 0.64630175 0.044117928
0.11546533 0.69434631 0.058979988
0.13678651 0.68333626 0.045144558
0.052946843 0.71867001 0.066397667
0.096817628 0.71545374 0.054791451
-0.40868986 -0.85016763 0.11340952
-0.37141192 -0.85339677 0.083052158
-0.31682807 -0.85720503 0.097502708
-0.29347402 -0.84328938 0.087129116
-0.31849486 -0.81680155 0.11554623
-0.29400718 -0.81127465 0.093425274
-0.31826681 -0.78229427 0.11307716
-0.28240842 -0.76516819 0.088292122
-0.28308573 -0.72218847 0.09664011
-0.2837379 -0.67889893 0.10470772
-0.24801005 -0.66218054 0.077424049
-0.27233523 -0.63360751 0.10345793
-0.24843533 -0.62985122 0.083562374
-0.27301878 -0.59009349 0.11233759
-0.24892655 -0.5863409 0.090652466
-0.23769474 -0.54134399 0.089705467
-0.23823196 -0.4976849 0.097936153
-0.23480636 -0.4571535 0.10308838
-0.20333724 -0.4500508 0.076854706
-0.22765826 -0.4090476 0.10940123
-0.20400879 -0.40680245 0.089317322
-0.22813034 -0.37597394 0.11706686
-0.19283162 -0.36196038 0.089095592
-0.19329715 -0.3178969 0.098495483
-0.18988779 -0.27716592 0.10554361
-0.15883632 -0.26057833 0.080296516
-0.18253987 -0.22852536 0.10974884
-0.15916219 -0.22747779 0.08876276
-0.18283394 -0.19492739 0.11611652
-0.14792845 -0.18259384 0.086796761
-0.1483081 -0.13801475 0.0977211
-0.13709009 -0.09306445 0.099682808
-0.11405548 -0.10414425 0.07620573
-0.1372593 -0.059298113 0.10517883
-0.1142723 -0.070633382 0.085594177
-0.13747481 -0.036655389 0.11217642
-0.10694218 -0.022045773 0.090604782
-0.10333113 0.019286156 0.096645832
-0.099677645 0.060739428 0.10227537
-0.069446944 0.074452981 0.078133583
-0.092212893 0.10981822 0.10667467
-0.069509752 0.10848553 0.086292744
-0.092285447 0.14399251 0.11138725
-0.069586799 0.1540776 0.096302032
-0.047120407 0.15250179 0.076840401
-0.069692202 0.20032734 0.10999393
-0.047120407 0.19829732 0.088896751
-0.069753855 0.23503551 0.11800241
-0.035953175 0.24323565 0.089990139
-0.035910852 0.28942257 0.1006012
-0.024618722 0.33445805 0.10088682
-0.0024585053 0.33129993 0.078707695
-0.024539677 0.38108608 0.11115456
-0.002263505 0.37796548 0.091372967
0.0089195818 0.42291114 0.091919899
0.0091348141 0.46989039 0.10311699
0.042079411 0.47566614 0.074680805
0.020433404 0.51490378 0.10299778
0.042322181 0.51073456 0.082565308
0.020653814 0.56203043 0.11254168
0.049867988 0.55996573 0.086205482
0.053750686 0.60212588 0.090872288
0.065523259 0.65036893 0.10440016
0.087159663 0.65670788 0.0850811
0.058080696 0.69970357 0.10646009
0.087260738 0.69084084 0.087269306
-0.47100627 -0.86086404 0.15427685
-0.43387741 -0.8553468 0.13319683
-0.36687875 -0.84693754 0.14481926
-0.34235096 -0.84259033 0.12795305
-0.34374762 -0.80058181 0.14190912
-0.335769 -0.75774956 0.13762999
-0.33243477 -0.7207607 0.14236307
-0.32870054 -0.68292809 0.14318752
-0.32093543 -0.64086533 0.14196634
-0.29649067 -0.63724077 0.12275457
-0.32200009 -0.59722102 0.1534915
-0.29728007 -0.59351563 0.13207674
-0.32273793 -0.56416345 0.16147947
-0.28589472 -0.54792142 0.13137674
-0.28662777 -0.50373828 0.14044523
-0.2833522 -0.46280366 0.14713335
-0.25100401 -0.44429249 0.12063789
-0.27612126 -0.4138703 0.15264034
-0.25170511 -0.41143095 0.13075781
-0.27682936 -0.38045466 0.16183853
-0.24449623 -0.36267561 0.13578796
-0.24120545 -0.32152587 0.14336491
-0.23776859 -0.28008497 0.1492362
-0.20578049 -0.26315832 0.12219572
-0.23039965 -0.23073286 0.15391588
-0.20618592 -0.22952244 0.12971973
-0.19899118 -0.18053408 0.13637638
-0.195503 -0.13887598 0.14239931
-0.19196227 -0.097085923 0.14799356
-0.16042347 -0.093150243 0.12153196
-0.1843926 -0.058954038 0.14986229
-0.16071415 -0.059114076 0.12908411
-0.18478869 -0.024462562 0.15843773
-0.15320405 -0.021229938 0.1301775
-0.14966542 0.020683609 0.13693619
-0.14611882 0.062808722 0.14469433
-0.11510473 0.076797366 0.12163925
-0.13865523 0.11268842 0.1505127
-0.11525696 0.11122936 0.12823105
-0.13884729 0.14748444 0.1567502
-0.10775544 0.16058435 0.1302042
-0.1041512 0.20315433 0.1393919
-0.10045728 0.24562487 0.1456604
-0.069805868 0.2584489 0.12475967
-0.092936859 0.29616877 0.15369749
-0.069866285 0.29348633 0.13260794
-0.069951117 0.34054273 0.14362812
-0.047120407 0.3373282 0.12104511
-0.070022754 0.38768071 0.1529336
-0.047120407 0.3841573 0.13063002
-0.07008791 0.42345229 0.16139793
-0.035789985 0.42981848 0.1317935
-0.031950027 0.47295478 0.13959885
-0.035703596 0.50184369 0.15138006
-0.0017320178 0.51957476 0.12589407
-0.024235759 0.54750586 0.15063477
-0.001609955 0.55531359 0.13382244
-0.024180535 0.58342361 0.1578083
0.0096870549 0.6002481 0.13143349
0.009916652 0.63711929 0.14284182
0.043451488 0.64274251 0.11924028
0.021461651 0.68400562 0.14752245
0.043611869 0.67804933 0.12444878
-0.09274891 0.71666598 0.14148998
-0.069982775 0.71835017 0.14774036
-0.035686545 0.7184025 0.14793491
0.0096937269 0.71399748 0.13158512
-0.48899418 -0.84929776 0.19894218
-0.41945791 -0.84977889 0.20083523
-0.39337307 -0.84358871 0.17646742
-0.38182497 -0.80886686 0.17610025
-0.38255179 -0.76416349 0.18248892
-0.38338554 -0.71947169 0.18994236
-0.37125361 -0.672212 0.18541288
-0.34609073 -0.65677595 0.16532326
-0.37241971 -0.62786222 0.1962328
-0.34670544 -0.62337554 0.1714654
-0.37331378 -0.59442234 0.20452881
-0.34799844 -0.57942891 0.18438578
-0.34035707 -0.53701377 0.18463612
-0.33685815 -0.49889868 0.18824959
-0.32488471 -0.46374711 0.18471813
-0.30016327 -0.44989517 0.16612577
-0.32590663 -0.41869143 0.19578123
-0.30081969 -0.41623777 0.17387772
-0.29380453 -0.36703104 0.18163586
-0.29033828 -0.32499787 0.18637753
-0.28703725 -0.28303435 0.19350863
-0.25421453 -0.26591629 0.16697788
-0.27975151 -0.23303324 0.19979858
-0.25492555 -0.23189902 0.17724085
-0.24348645 -0.18576109 0.17820597
-0.24409312 -0.13974588 0.18752861
-0.24055518 -0.09731067 0.19270658
-0.2081892 -0.081833012 0.16689587
-0.23300663 -0.058596976 0.19624758
-0.20856285 -0.058769606 0.17383003
-0.2333782 -0.023615096 0.20228195
-0.20902267 -0.024000753 0.18236351
-0.19745861 0.022229165 0.18153048
-0.19394267 0.064950973 0.18871689
-0.1620353 0.079048082 0.16340828
-0.18641557 0.11552288 0.19366026
-0.16239946 0.11415157 0.17286968
-0.18689273 0.15112115 0.20399141
-0.15487793 0.1643773 0.1764307
-0.15128192 0.20738897 0.1833787
-0.1476683 0.25062242 0.19098997
-0.11607312 0.26293081 0.16357136
-0.14009556 0.30170268 0.19728851
-0.11629891 0.29866326 0.1733489
-0.14036253 0.33775675 0.20595884
-0.10091845 0.34062946 0.17130852
-0.10893034 0.37375218 0.18715286
-0.10126454 0.41290522 0.19045734
-0.093572713 0.46399269 0.19499731
-0.07016243 0.45966801 0.17107821
-0.093700059 0.50041294 0.203269
-0.070251212 0.50801051 0.18261099
-0.047120407 0.51580632 0.16381741
-0.070327856 0.55638134 0.19256783
-0.047120407 0.55183947 0.17111683
-0.070405066 0.59342229 0.20259714
-0.039462268 0.60283339 0.17586422
-0.035569098 0.64878225 0.19079876
-0.0011564679 0.6535902 0.16327715
-0.10513206 0.70767283 0.19429588
-0.070310973 0.7066468 0.19037485
-0.035567224 0.69359589 0.18485212
-0.0011127405 0.68879414 0.16611767
-0.42106962 -0.82973135 0.21392107
-0.39750665 -0.67748237 0.21226549
-0.39964598 -0.62237179 0.23079252
-0.39844745 -0.64395595 0.22041321
-0.40096223 -0.58898556 0.24219179
-0.37382728 -0.57189298 0.20929337
-0.37498748 -0.53849334 0.22005892
-0.3757807 -0.49265403 0.2274189
-0.37677205 -0.44678557 0.23661757
-0.35065991 -0.45541993 0.21098089
-0.3778767 -0.41258904 0.24686766
-0.3513723 -0.42117819 0.21809959
-0.34011209 -0.37476942 0.2222271
-0.34102243 -0.32866687 0.2317481
-0.32919794 -0.28162858 0.2314105
-0.30409741 -0.26872516 0.21258545
-0.33033007 -0.23522966 0.24366617
-0.30472732 -0.23404525 0.22002411
-0.33090389 -0.20007592 0.24987793
-0.29303139 -0.18719417 0.21966934
-0.29404965 -0.14060275 0.2322197
-0.28207248 -0.093570463 0.22994852
-0.25724676 -0.081832752 0.21074438
-0.28279626 -0.058265232 0.2393508
-0.25773084 -0.058431566 0.217731
-0.2834442 -0.022744216 0.2477684
-0.25831461 -0.023162011 0.22615719
-0.24668543 0.023808785 0.227036
-0.24338517 0.067297712 0.23680115
-0.21038121 0.081428021 0.20757437
-0.23572536 0.11857116 0.24039412
-0.2109033 0.11706413 0.21726322
-0.20354047 0.1683673 0.22503185
-0.19988094 0.21185991 0.22990847
-0.20026496 0.24792576 0.23761129
-0.16382219 0.2682727 0.20983315
-0.18857825 0.28361717 0.24048424
-0.16411576 0.29255223 0.21746016
-0.18892182 0.31993788 0.24792242
-0.16449219 0.32897377 0.22724056
-0.15275601 0.37574598 0.2260294
-0.14905629 0.41981497 0.23255014
-0.11707453 0.43116447 0.20693493
-0.14127788 0.47135273 0.23568535
-0.11725608 0.46757552 0.21479559
-0.14164007 0.5207361 0.24744797
-0.10959467 0.5191505 0.2195859
-0.10179694 0.55833507 0.22030449
-0.10995389 0.59327495 0.23715353
-0.070486374 0.61914611 0.21316004
-0.094229773 0.63661313 0.23767519
-0.070568383 0.64505482 0.22381401
-0.094327807 0.68527055 0.2440424
-0.070556358 0.67982602 0.22225046
-0.37888014 -0.37803766 0.25617886
-0.38022083 -0.33164701 0.26861858
-0.36867625 -0.28431049 0.27157211
-0.35491335 -0.29492015 0.25348425
-0.3565411 -0.23653217 0.26974964
-0.35740095 -0.18922824 0.27834177
-0.33155483 -0.17664431 0.25692463
-0.35843074 -0.14169469 0.28863192
-0.33226079 -0.1412237 0.26456738
-0.33344191 -0.093757458 0.27735281
-0.30733007 -0.10548815 0.25076151
-0.33413643 -0.057914861 0.28487158
-0.30789053 -0.069967724 0.25738001
-0.33461171 -0.03391761 0.29001665
-0.30909723 -0.022275787 0.27163124
-0.29734552 0.025399856 0.27301931
-0.29385215 0.069360927 0.27916527
-0.26023433 0.083922327 0.2538662
-0.2863757 0.12154669 0.28584909
-0.2608811 0.12006073 0.26320171
-0.24919702 0.16775778 0.26553679
-0.24973756 0.20416287 0.27382517
-0.24616596 0.23658139 0.28012657
-0.23854584 0.28906387 0.28619337
-0.21334071 0.2862393 0.26249647
-0.2055739 0.33797163 0.26472855
-0.20204632 0.38284594 0.27329588
-0.19844964 0.42780045 0.28115034
-0.1654589 0.43885675 0.25235605
-0.1905597 0.46801779 0.28338385
-0.16578299 0.47589019 0.26077604
-0.19088838 0.50523162 0.29049969
-0.16605809 0.51285565 0.26792383
-0.15824917 0.5529542 0.27019405
-0.15038911 0.59314656 0.27253294
-0.14283489 0.64800668 0.28625059
-0.11834844 0.64233351 0.26209593
-0.19073483 0.70804667 0.28717613
-0.15065368 0.69858885 0.28135681
-0.11840714 0.6904254 0.26463795
-0.38333714 -0.2739566 0.29753447
-0.38438165 -0.2504636 0.30722618
-0.35976899 -0.093838848 0.30200481
-0.36061198 -0.057717834 0.31042814
-0.36191297 -0.0334034 0.32342815
-0.33563155 -0.0097051039 0.30105686
-0.33651841 0.026704699 0.31065655
-0.32886654 0.079129934 0.31453419
-0.32551306 0.1239101 0.32200193
-0.3133527 0.16019659 0.32188559
-0.28713921 0.15818591 0.29576778
-0.31430548 0.19750723 0.33313751
-0.2878412 0.19500893 0.30488634
-0.28894776 0.2446472 0.31926107
-0.26353478 0.25481164 0.30150461
-0.28964812 0.29409716 0.32835913
-0.26404405 0.29176727 0.30885506
-0.2902565 0.33149871 0.33626223
-0.25194877 0.33979514 0.30752516
-0.24816902 0.38449362 0.31125259
-0.25296754 0.41450655 0.32323456
-0.2410465 0.46360442 0.32679892
-0.21548866 0.45936123 0.3023572
-0.24157855 0.50154173 0.33543873
-0.21598722 0.50920951 0.31160927
-0.20406891 0.5578655 0.31359148
-0.20041947 0.60382783 0.32149839
-0.16724664 0.61489952 0.29880333
-0.19281544 0.64664245 0.33222198
-0.16773188 0.65390122 0.31140995
-0.20055315 0.68529308 0.32486343
-0.16755494 0.68894804 0.30681276
-0.34026492 0.1624544 0.35121441
-0.34125113 0.20005926 0.36189032
-0.31512547 0.24709159 0.34282064
-0.31644821 0.29768983 0.35844183
-0.31684923 0.33502081 0.3631773
-0.29078603 0.35676524 0.34314108
-0.31735146 0.36036351 0.36910868
-0.29133499 0.38217473 0.35027218
-0.29206005 0.42029878 0.35969114
-0.26609266 0.42910251 0.33842325
-0.29311395 0.47167012 0.37338161
-0.26672584 0.46719345 0.34756327
-0.26759675 0.51837063 0.36013365
-0.24184144 0.52667046 0.33970737
-0.26833254 0.55722451 0.37075424
-0.24222524 0.56446052 0.34593964
-0.26852322 0.58237576 0.37350655
-0.2429149 0.60344791 0.35713816
-0.24412471 0.64463341 0.37678289
-0.21820724 0.63918936 0.352808
-0.26870126 0.68139017 0.37607574
-0.24275076 0.68842351 0.35447311
-0.21838064 0.67660546 0.3560257
-0.31866169 0.38719329 0.38458157
-0.32071048 0.42807248 0.40877676
-0.29395726 0.51057565 0.38433647
-0.29442218 0.54879105 0.39037609
-0.28711361 0.60495138 0.40251064
-0.28337508 0.6516856 0.40793848
-0.32192314 0.667629 0.42309713
-0.29389191 0.68315887 0.3834877
-0.34733063 0.66869271 0.4277029
0 0 0 1 0 0 0 1 0 0 0 1 0 0 0 0 0 938 1 0 0
