ply
format ascii 1.0
comment PCL generated
element vertex 972
property float x
property float y
property float z
element camera 1
property float view_px
property float view_py
property float view_pz
property float x_axisx
property float x_axisy
property float x_axisz
property float y_axisx
property float y_axisy
property float y_axisz
property float z_axisx
property float z_axisy
property float z_axisz
property float focal
property float scalex
property float scaley
property float centerx
property float centery
property int viewportx
property int viewporty
property float k1
property float k2
end_header
0.36476833 0.14333518 -0.46181273
0.39731804 0.14293002 -0.46933007
0.43131837 0.14286144 -0.47060418
0.26800731 0.17081793 -0.46316338
0.29737231 0.16604169 -0.46568155
0.32870173 0.16352139 -0.46919847
0.36230665 0.16333304 -0.47230577
0.39220819 0.15968777 -0.47595572
0.43026632 0.15634076 -0.47451925
0.22689989 0.18470521 -0.46174169
0.26058713 0.18436605 -0.46614671
0.28878352 0.1846374 -0.46262288
0.26616126 0.14480112 -0.4346056
0.30277213 0.13991271 -0.43837953
0.33096382 0.13860403 -0.44569826
0.36609933 0.12501654 -0.43831158
0.40015656 0.12462769 -0.44717646
0.43123531 0.12564677 -0.44533443
0.13364711 0.17309834 -0.43024921
0.16081637 0.17257896 -0.43774486
0.19562212 0.1655086 -0.43859482
0.22908077 0.16490091 -0.44790602
0.25956279 0.16115503 -0.45240736
0.28993872 0.15744321 -0.45662022
0.03105814 0.20648253 -0.43337297
0.06436035 0.20321926 -0.43851399
0.095923983 0.19849201 -0.44089746
0.13198283 0.1928345 -0.44631481
0.16317496 0.1936996 -0.45275927
0.19314727 0.18510929 -0.4564929
-0.038225211 0.22578312 -0.42952061
-0.0090305731 0.21974778 -0.43152595
0.014231309 0.21480998 -0.43438315
0.33715355 0.10397103 -0.39684272
0.36364722 0.10368824 -0.40602899
0.39820951 0.099990718 -0.41000867
0.42077869 0.096571535 -0.40489531
0.13734397 0.14695285 -0.39467549
0.16499591 0.146521 -0.40268946
0.19971353 0.14260089 -0.40906882
0.23057699 0.13751271 -0.41129327
0.26441264 0.12505026 -0.404351
0.29567069 0.12330976 -0.41211653
0.33299792 0.11750391 -0.416471
0.35280272 0.11726041 -0.42279434
0.029869415 0.17530783 -0.39835644
0.06761542 0.1701593 -0.40375066
0.093289889 0.16745052 -0.40875626
0.12469599 0.16356638 -0.41433477
0.16280583 0.15963314 -0.42105865
-0.098673016 0.20414539 -0.39499974
-0.077154912 0.20359312 -0.4015224
-0.038706489 0.19747865 -0.40626192
-0.0062240101 0.19543408 -0.41393828
0.029022932 0.18817328 -0.41668868
0.056848787 0.18758537 -0.42432475
-0.2416558 0.24698819 -0.39560127
-0.20562363 0.23947179 -0.39899969
-0.17545277 0.23487426 -0.40197921
-0.14097291 0.23136389 -0.40846944
-0.10531992 0.22375792 -0.41395712
-0.076940358 0.22321543 -0.41962314
-0.048724845 0.21595412 -0.42199731
0.36603859 0.075909123 -0.36341238
0.40022692 0.075769998 -0.37244797
0.42189282 0.075766742 -0.37266016
0.22810274 0.1050486 -0.36185026
0.26261717 0.10471012 -0.3728416
0.29860625 0.097402878 -0.37396765
0.32424328 0.0948897 -0.37838626
0.36141226 0.089976326 -0.38412857
0.38846198 0.089807451 -0.39144111
0.098944597 0.13865337 -0.36853456
0.12240446 0.13827567 -0.37643003
0.1639694 0.12774155 -0.37501383
0.19428316 0.1237217 -0.37904954
0.23192242 0.11874482 -0.38423085
-0.077590317 0.17771074 -0.36367369
-0.037670109 0.17343725 -0.37282133
-0.0052613951 0.16945846 -0.37809658
0.030948251 0.15881357 -0.37524176
0.059910521 0.15164043 -0.37429786
0.088494115 0.14779937 -0.37896514
-0.20133346 0.2069425 -0.36196756
-0.17157561 0.20602058 -0.3728559
-0.13526542 0.19853276 -0.37547874
-0.10862797 0.1957877 -0.37980723
-0.077355959 0.19067903 -0.3841393
-0.055765443 0.19022632 -0.39001894
-0.33944675 0.23593701 -0.36315751
-0.30667669 0.23977976 -0.37265348
-0.27257216 0.23466958 -0.37523055
-0.2362842 0.22729366 -0.37703824
-0.20720395 0.21987957 -0.37950301
-0.18503973 0.21918353 -0.38703871
-0.33749545 0.26349461 -0.37631083
-0.31051669 0.26207793 -0.38859105
-0.278267 0.26215139 -0.3881073
-0.3361671 0.29844502 -0.3850956
-0.31511092 0.2989715 -0.3812871
-0.33328658 0.32434183 -0.38821936
-0.31632707 0.32909593 -0.37251043
-0.31667578 0.3584598 -0.36999393
0.4035624 0.046817627 -0.32816339
0.26262248 0.07643614 -0.32918167
0.2975308 0.07626126 -0.3405416
0.33406314 0.06884414 -0.34196615
0.3639591 0.0615451 -0.33980274
0.3984302 0.061469637 -0.34960866
0.42266446 0.054142997 -0.34050488
0.12928006 0.10603503 -0.32981229
0.16499221 0.1056924 -0.34094048
0.20160288 0.098255612 -0.34240627
0.23104846 0.090944186 -0.34221888
0.26613075 0.090715557 -0.35211992
-0.003909342 0.13572997 -0.32794404
0.025306344 0.13526775 -0.33794975
0.062013872 0.12776858 -0.34003854
0.09872856 0.12039016 -0.34148359
0.12731615 0.12005472 -0.35019994
0.14849538 0.11976811 -0.35764766
-0.17393814 0.17973574 -0.33444595
-0.13427529 0.17438066 -0.34045172
-0.10717078 0.17160039 -0.3453505
-0.075397961 0.15973166 -0.33924484
-0.044008061 0.15555397 -0.34355354
-0.0044821501 0.14940456 -0.34917903
0.017229207 0.14901024 -0.35649562
-0.34685609 0.20469476 -0.3301394
-0.30039793 0.20990078 -0.3270328
-0.26945856 0.20892066 -0.33860707
-0.23981482 0.20137323 -0.34037399
-0.21223196 0.19837582 -0.34734559
-0.17280513 0.19308636 -0.35286617
-0.34157795 0.22271456 -0.34881258
-0.31261545 0.22293805 -0.34639287
-0.28963047 0.22221659 -0.35420418
0.2984845 0.046817679 -0.29466581
0.32664019 0.046817627 -0.3048358
0.36641905 0.040792599 -0.30816102
0.39785069 0.036811918 -0.31038404
0.4321748 0.036828268 -0.31253409
0.16265285 0.076945424 -0.29610062
0.19164979 0.076808527 -0.30499578
0.23154995 0.070727758 -0.30900812
0.26638719 0.061802167 -0.3064208
0.29434729 0.061716627 -0.3175416
0.31541309 0.061664972 -0.32425189
0.027148813 0.10712567 -0.29439473
0.056664497 0.10678722 -0.30538392
0.096812345 0.1006323 -0.30977225
0.13139075 0.091737866 -0.30785179
0.16020727 0.091503561 -0.31799746
0.18173987 0.091349959 -0.32464886
-0.10094024 0.13716742 -0.29682541
-0.078276008 0.13682967 -0.30413795
-0.037804522 0.13060583 -0.30850101
-0.0033624396 0.12169547 -0.30756927
0.026188001 0.12132999 -0.31706595
-0.35687664 0.16726223 -0.29717755
-0.23690054 0.16757445 -0.29210687
-0.20832652 0.17241774 -0.31003332
-0.16825473 0.15925699 -0.30471802
-0.14047694 0.15642458 -0.31077361
-0.10798756 0.15123945 -0.31512594
-0.085478097 0.15081201 -0.32305813
-0.34035698 0.19163811 -0.30700135
-0.30961406 0.20111154 -0.3129611
-0.27266729 0.18887974 -0.30986238
-0.24264273 0.18136404 -0.31094289
-0.31099656 0.29455817 -0.30262899
-0.3119179 0.33310866 -0.29558849
-0.3122685 0.36367446 -0.29290915
-0.35712272 0.43858233 -0.29557896
-0.33126283 0.46258891 -0.30087638
-0.34249982 0.48446482 -0.29253674
0.42734072 0.00080746412 -0.26064968
0.19723362 0.046817727 -0.26103187
0.22659406 0.046817679 -0.27019835
0.26368627 0.042983763 -0.27674365
0.2953603 0.031550277 -0.2696569
0.3349545 0.026485508 -0.27550435
0.36021155 0.021420574 -0.27603793
0.39977071 0.016447468 -0.28034639
0.43684661 0.016503341 -0.28397465
0.066769578 0.077451594 -0.26323104
0.09662094 0.077299774 -0.27308607
0.13462633 0.069620028 -0.27423072
0.16529217 0.06206394 -0.27241802
0.19454959 0.061988659 -0.28217959
0.21627128 0.06193085 -0.28969598
-0.078767747 0.10813311 -0.26167727
-0.040552814 0.1077658 -0.27360487
-0.0024413131 0.10010694 -0.27345037
0.028083071 0.092558756 -0.27230668
0.057940423 0.092303596 -0.28335524
0.080229692 0.092149392 -0.29003119
-0.20138195 0.13877775 -0.26196003
-0.17008449 0.13826641 -0.27302933
-0.13963622 0.13063808 -0.2722404
-0.11150226 0.12787075 -0.27802563
-0.078513846 0.12260628 -0.28390741
-0.055765443 0.12233789 -0.29088306
-0.34164017 0.16421852 -0.26347899
-0.30821857 0.16921295 -0.26550078
-0.27638474 0.16853179 -0.2765615
-0.2487914 0.15854256 -0.27326775
-0.2075077 0.15301587 -0.28216028
-0.33598658 0.1831474 -0.2852025
-0.30544928 0.1830028 -0.2872889
-0.31254619 0.37912235 -0.29078722
-0.31349757 0.40310559 -0.2835176
-0.31460723 0.43508977 -0.27503824
-0.31613708 0.46802038 -0.2633481
-0.33429289 0.49754068 -0.27938175
-0.33883134 0.52882367 -0.2652359
0.32564181 0.00011379272 -0.23061204
0.36203125 0.00039293244 -0.24270129
0.40083069 -0.0074004009 -0.24227667
0.43312836 -0.015264306 -0.23678041
0.45486224 -0.0073894635 -0.24287629
0.10013709 0.046817627 -0.22771811
0.13041484 0.046817627 -0.2370975
0.16916201 0.039028473 -0.23815966
0.20032799 0.031296331 -0.23665571
0.23354971 0.026115425 -0.23966789
0.25928536 0.020958358 -0.24025059
0.29224423 0.015882647 -0.24365878
0.32114026 0.016048919 -0.25446033
-0.032398649 0.077987105 -0.22843862
-0.0015191399 0.07782013 -0.2392807
0.029509917 0.070036203 -0.23860788
0.057631977 0.067401074 -0.24438
0.090914704 0.062258542 -0.24712038
0.12195178 0.054506578 -0.24587274
0.17534083 0.046817828 -0.25151277
-0.16483574 0.10914367 -0.22885942
-0.14105743 0.10884095 -0.2386899
-0.10732374 0.10350581 -0.24318027
-0.079061322 0.093387626 -0.23641276
-0.040366665 0.093085594 -0.24949574
-0.35072836 0.13217558 -0.23627782
-0.28165618 0.14028411 -0.22934699
-0.23766696 0.13580959 -0.24190187
-0.2030293 0.12432006 -0.23938084
-0.17147098 0.12394822 -0.24904227
-0.33472899 0.15530348 -0.2397058
-0.31132209 0.15523106 -0.24105096
-0.27896163 0.15456277 -0.25345373
-0.31751665 0.50104529 -0.25280619
-0.31936178 0.53526032 -0.23870683
-0.33994427 0.56867146 -0.23947787
-0.32085449 0.56140244 -0.22730064
0.37215632 -0.032427114 -0.1941123
0.39418104 -0.032121796 -0.20204306
0.43111971 -0.031714465 -0.21262622
0.46530634 -0.032132503 -0.20176363
0.23693275 -0.00064834952 -0.19761157
0.26680091 -0.00038858131 -0.20885587
0.2984553 -0.0083309449 -0.20778823
0.33035603 -0.016223703 -0.20562363
0.35989317 -0.015924495 -0.21533704
0.38174379 -0.015683595 -0.22316194
0.0076096207 0.046817727 -0.19478631
0.031014375 0.046817727 -0.20310903
0.054247878 0.046817727 -0.21135926
0.091297679 0.036277596 -0.2062397
0.12508252 0.031090667 -0.20994902
0.15664202 0.023168776 -0.20896244
0.19580585 0.015367776 -0.21021962
0.22587979 0.015523672 -0.22035241
-0.13510522 0.078553647 -0.19164419
-0.11105883 0.078405939 -0.20123911
-0.076768324 0.073049352 -0.20555639
-0.043949366 0.066472352 -0.207582
-0.00092805177 0.062487982 -0.21732688
0.069633193 0.046817828 -0.21673179
-0.35476616 0.101868 -0.20867109
-0.26200342 0.11027575 -0.19209814
-0.23711622 0.10989185 -0.20455694
-0.20257983 0.10446373 -0.20937419
-0.17636999 0.099223413 -0.20922756
-0.14208752 0.093896203 -0.21439576
-0.1182819 0.093705103 -0.22267032
-0.33449963 0.1309357 -0.2031858
-0.30753306 0.13333638 -0.2086792
-0.26773846 0.12532069 -0.21338534
-0.24325049 0.1249364 -0.2233665
-0.32232255 0.57993162 -0.21608257
-0.33922958 0.60598004 -0.2069478
-0.32432234 0.59972906 -0.2008009
-0.34922141 0.62579316 -0.19236708
0.43558624 -0.065952182 -0.16020489
0.45977116 -0.065955892 -0.16013432
0.29751268 -0.033478234 -0.16680384
0.33512083 -0.032957215 -0.18033743
0.36102527 -0.045397375 -0.17042708
0.39979288 -0.049091246 -0.17646122
0.42931989 -0.048610393 -0.18687439
0.45305699 -0.048586521 -0.18739033
0.13729268 -0.0014467835 -0.16303658
0.16055575 -0.0012566857 -0.17126942
0.19477102 -0.0065261349 -0.17568922
0.22153541 -0.011878133 -0.17481971
0.26308411 -0.01695789 -0.18178105
-0.079908416 0.046817679 -0.16312432
-0.039822206 0.046817694 -0.17784834
-0.0024107359 0.036110189 -0.17411709
0.032115065 0.030837353 -0.17704368
0.064188749 0.022774717 -0.17512465
0.096303307 0.014801122 -0.1734128
0.12733987 0.014971197 -0.18445992
-0.20832366 0.078933135 -0.16699815
-0.17556468 0.078761205 -0.17816782
-0.14654908 0.068143576 -0.17153668
-0.11173862 0.06280636 -0.1759603
-0.087599367 0.062734589 -0.18527794
-0.33871579 0.10552687 -0.17235279
-0.30360582 0.11077231 -0.17596745
-0.27493823 0.10023998 -0.16957998
-0.23936868 0.094710648 -0.17912817
-0.21462566 0.094475701 -0.18929696
-0.3120223 0.30307472 -0.17240548
-0.31242242 0.32753468 -0.16915679
-0.31224906 0.35940722 -0.17056441
-0.3122142 0.39945188 -0.17084742
-0.31267816 0.44022354 -0.16708064
-0.31334218 0.46537986 -0.16168952
-0.3268455 0.63681549 -0.18152046
-0.33643892 0.66435915 -0.16937423
0.33714047 -0.067779794 -0.12628651
0.35961977 -0.067212999 -0.13680649
0.39796168 -0.066619411 -0.14782119
0.42623249 -0.083896652 -0.13041687
0.45851654 -0.083789349 -0.13215709
0.19748616 -0.034880761 -0.13036418
0.22868615 -0.034457523 -0.14136004
0.26134151 -0.04267342 -0.14040351
0.29448387 -0.050929707 -0.13665581
0.32478362 -0.050346699 -0.14928126
0.042375438 -0.0022528209 -0.1281395
0.066483706 -0.0020857453 -0.13537169
0.10142579 -0.0074209645 -0.14073062
0.12848091 -0.012826018 -0.14125252
0.1633842 -0.018118929 -0.14407134
0.18663496 -0.017822418 -0.15370274
-0.35084099 0.046817727 -0.12342763
-0.17021418 0.046817727 -0.12904787
-0.1453051 0.046817679 -0.13840818
-0.10989299 0.041364789 -0.14306784
-0.080214918 0.030527731 -0.13682127
-0.036266603 0.024028521 -0.14246154
0.0011567473 0.014284935 -0.13988042
0.033233456 0.014450256 -0.15062189
-0.34323037 0.073943511 -0.13892937
-0.30130047 0.079555586 -0.12655616
-0.27556372 0.07937815 -0.13809347
-0.23962605 0.073819622 -0.14541554
-0.21017635 0.063070484 -0.14166021
-0.1803038 0.057593439 -0.14336038
-0.33131105 0.095443413 -0.14739752
-0.30671725 0.095386155 -0.14987731
-0.31406713 0.48270178 -0.15580368
-0.31459054 0.49976152 -0.15155411
-0.31547436 0.5256629 -0.14437842
-0.31662402 0.56039774 -0.13504434
-0.31786892 0.5874061 -0.12493682
-0.33997419 0.70461583 -0.14314866
-0.35057107 0.73469752 -0.12537575
0.40937063 -0.1026902 -0.0949893
0.43258151 -0.10217191 -0.10247278
0.45624375 -0.10183021 -0.10740542
0.24394175 -0.069735125 -0.090001345
0.26760033 -0.06926699 -0.098686934
0.29853404 -0.068539083 -0.11219597
0.33029026 -0.080064371 -0.10372353
0.36498076 -0.085184798 -0.1094985
0.39582604 -0.084556952 -0.11969376
0.10196527 -0.036206741 -0.095913172
0.13419494 -0.0357784 -0.10704136
0.1696583 -0.041188959 -0.11039519
0.20051777 -0.052393835 -0.10496044
0.23213577 -0.051894967 -0.11576104
-0.039208617 -0.0029392987 -0.098407984
0.0018473938 -0.0025748052 -0.11419249
0.032372527 -0.013810012 -0.1064868
0.067927197 -0.019157555 -0.11034369
0.091965444 -0.018840473 -0.12064004
-0.35338166 0.030283527 -0.10509181
-0.24634162 0.046817627 -0.1003685
-0.20372686 0.046817727 -0.11731291
-0.18015379 0.030234426 -0.098721266
-0.14639175 0.030342739 -0.1127913
-0.11635898 0.019225057 -0.10570621
-0.080529243 0.013819601 -0.1096611
-0.055765443 0.01398357 -0.12031245
-0.33726966 0.063376859 -0.10186529
-0.31476223 0.068826489 -0.10535264
-0.27840245 0.063308232 -0.11076808
-0.25257728 0.063218594 -0.12240148
-0.22065097 0.046817828 -0.11102605
-0.31810203 0.6042828 -0.12304449
-0.31930211 0.63154906 -0.11330104
-0.32062122 0.66758519 -0.1025908
-0.32183295 0.70367599 -0.092752934
-0.33492807 0.73651361 -0.11975861
-0.34529516 0.76654428 -0.1037097
0.39988947 -0.12194334 -0.060681343
0.41485783 -0.12126203 -0.069532156
0.2315934 -0.088410154 -0.057127953
0.25571463 -0.087882549 -0.065691948
0.3313911 -0.10468993 -0.066128016
0.37054846 -0.10365 -0.081136227
0.39420176 -0.1031713 -0.088046312
0.4385578 -0.12075154 -0.076163292
0.46410257 -0.12088163 -0.074473143
0.087560154 -0.054360274 -0.062385082
0.11221858 -0.053972725 -0.07077527
0.15529558 -0.071381837 -0.059441328
0.19585317 -0.070617735 -0.073621988
0.22799301 -0.070023924 -0.084639788
0.27945724 -0.087271363 -0.075616837
0.30304176 -0.08669737 -0.084936857
-0.072647803 -0.020711724 -0.059868813
-0.047360178 -0.02049775 -0.066818714
0.028293401 -0.037273955 -0.068187714
0.069342814 -0.036596347 -0.085790873
0.1365521 -0.053528663 -0.080390453
0.1608901 -0.0531771 -0.087999582
-0.35818264 -0.0035851076 -0.070443869
-0.1988827 0.013145298 -0.065867901
-0.13154924 -0.0036984757 -0.065535069
-0.10607444 -0.0034913085 -0.074508905
-0.080827236 -0.0032776408 -0.083762646
-0.022252243 -0.020208698 -0.07620573
0.0026119612 -0.019911539 -0.085856676
-0.34063825 0.034266047 -0.075894356
-0.30715388 0.046817727 -0.075864315
-0.27361944 0.038402725 -0.075821638
-0.2400741 0.030062398 -0.076370478
-0.21424413 0.030136975 -0.086065531
-0.17312324 0.013286944 -0.075062752
-0.1475767 0.013436902 -0.084803104
-0.3230347 0.74006194 -0.08299613
-0.3246201 0.76936442 -0.070124149
-0.34053668 0.79514527 -0.076490641
-0.35812029 0.81950235 -0.070893764
-0.34154442 0.82010198 -0.0691998
0.3043941 -0.1246869 -0.025042295
0.32835415 -0.12390839 -0.035154819
0.36004287 -0.12290494 -0.048189878
0.39294919 -0.13497657 -0.039470911
0.42877278 -0.14019978 -0.044380665
0.45322996 -0.13981393 -0.048937082
0.13296482 -0.090440765 -0.024153948
0.15798032 -0.089986995 -0.031520605
0.19085866 -0.089255929 -0.043390751
0.22298482 -0.10112692 -0.036088943
0.25950319 -0.10656078 -0.039124012
0.2916393 -0.10570805 -0.051432371
-0.0043752529 -0.055962693 -0.027691364
0.020944096 -0.055478994 -0.038165092
0.057750612 -0.061054889 -0.041277409
0.089303441 -0.072664976 -0.035628557
0.12247159 -0.072015941 -0.047675371
-0.15868583 -0.021795955 -0.02466011
-0.13261218 -0.021480922 -0.034888506
-0.095482141 -0.02701081 -0.041017056
-0.072872892 -0.038719658 -0.030628681
-0.047259122 -0.038359534 -0.039981365
-0.013437066 -0.037859615 -0.052970886
-0.34508497 0.0042438395 -0.042145729
-0.29593432 0.012507834 -0.024462461
-0.26899558 0.01270324 -0.037151337
-0.2314266 0.0071086176 -0.044512272
-0.20068872 -0.0043272264 -0.038311481
-0.16593194 -0.0040232129 -0.051477432
-0.32824758 0.029787611 -0.040672541
-0.3019222 0.029842569 -0.04782176
-0.31187978 0.32855523 -0.034936905
-0.31249434 0.36345559 -0.029614925
-0.32692224 0.8094461 -0.051433325
-0.3336831 0.84096217 -0.042321444
-0.34518704 0.86400807 -0.041365623
-0.34716669 0.8867389 -0.026238203
0.3789753 -0.16185786 0.0060274601
0.40329251 -0.16106284 -0.0025787354
0.43542954 -0.16000429 -0.014038801
0.46051198 -0.15969321 -0.017405272
0.2308428 -0.12689234 0.0036065578
0.26385066 -0.12595426 -0.0085785389
0.29668611 -0.13811 -0.0013296604
0.33358794 -0.1435395 -0.0049407482
0.36565721 -0.14239767 -0.018425226
0.066091947 -0.092447847 0.0084395409
0.091211088 -0.091529906 -0.0064682961
0.12596849 -0.10030778 -0.0050632954
0.16077909 -0.10910238 -0.002440691
0.19386381 -0.10813026 -0.016470432
-0.090554669 -0.057550047 0.0066745281
-0.073096499 -0.057168651 -0.0015816689
-0.047148034 -0.056731444 -0.011048317
-0.015357416 -0.068641126 -0.0040178299
0.021929264 -0.074066222 -0.0096256733
0.047342248 -0.073474616 -0.020605087
-0.34921914 -0.030895565 -0.01055479
-0.23835757 -0.022736032 0.0058681965
-0.20270854 -0.022325952 -0.0074441433
-0.16811875 -0.031039771 -0.0066702366
-0.13360906 -0.039659437 -0.0062081814
-0.1073949 -0.03923149 -0.017330647
-0.33210036 0.0035933107 -0.0093920231
-0.30995518 0.0005591698 -0.0014770031
-0.27180302 -0.0050273053 -0.0079984665
-0.24477836 -0.0047313981 -0.020815372
-0.31360859 0.3992117 -0.019964933
-0.31418419 0.43444258 -0.014979839
-0.31543487 0.47094727 -0.0041484833
-0.31594843 0.50648248 0.00029873848
-0.31701916 0.59544778 0.0095715523
-0.33122513 0.87319672 -0.01649785
-0.3386955 0.9072144 -0.0025901794
0.2973541 -0.16505408 0.040626764
0.33020887 -0.1637345 0.026342392
0.36562368 -0.172718 0.027883768
0.39316618 -0.18205552 0.034086704
0.4257375 -0.18080762 0.021617413
0.46036381 -0.18062013 0.019743204
0.13814744 -0.12946667 0.037050009
0.16376173 -0.12881714 0.028611183
0.20145082 -0.13443904 0.025070667
0.23483017 -0.14692137 0.034997702
0.2678549 -0.14561386 0.019557476
-0.011733588 -0.094125494 0.035680532
0.023044452 -0.093301237 0.022295952
0.05566518 -0.10568807 0.032282352
0.09349627 -0.1112373 0.02837491
0.11901992 -0.11048912 0.017576218
-0.35394517 -0.067233071 0.02555871
-0.17035908 -0.058949504 0.036976337
-0.13462591 -0.058309186 0.023112297
-0.1026426 -0.070457608 0.031318665
-0.073323734 -0.07609044 0.027937412
-0.047042467 -0.075532749 0.017590523
-0.33652785 -0.023372892 0.026554823
-0.31124562 -0.023656536 0.035764217
-0.27463767 -0.023216229 0.021466494
-0.24077889 -0.04127707 0.035818815
-0.20463052 -0.040742207 0.021920204
-0.17777438 -0.040331434 0.011251688
-0.31752986 0.53544462 0.013994217
-0.31765115 0.56185019 0.015045166
-0.31786788 0.63219255 0.01692152
-0.3189598 0.6697225 0.026377916
-0.31976393 0.70681787 0.033342361
-0.32070929 0.73567176 0.041529179
-0.32086653 0.75375396 0.042891026
-0.34428203 0.93867922 0.018738508
0.37430775 -0.20405836 0.074887276
0.39927882 -0.20301668 0.065221786
0.43255526 -0.20178615 0.053803921
0.4578858 -0.20115183 0.047919035
0.22163594 -0.16795336 0.072012901
0.25556073 -0.16667236 0.058146477
0.2914094 -0.17574696 0.05952549
0.32713926 -0.18471459 0.060658693
0.3520959 -0.1837126 0.05064559
0.033901103 -0.13251534 0.076653242
0.060348354 -0.13184464 0.067940474
0.095329367 -0.13095482 0.056381226
0.12854132 -0.14346974 0.063883066
0.16666344 -0.14892806 0.058694839
0.19249943 -0.1482475 0.050658703
-0.3582308 -0.095518947 0.058306932
-0.10049154 -0.096264973 0.070423126
-0.073566318 -0.095589325 0.059449434
-0.043888256 -0.10151853 0.058659554
-0.011149898 -0.11385462 0.066154003
0.023988225 -0.11270542 0.049566507
-0.34097609 -0.060136337 0.062669992
-0.24323231 -0.060296353 0.066135406
-0.20660591 -0.059647378 0.052083969
-0.17204548 -0.078392133 0.070652246
-0.13574797 -0.077577785 0.055541515
-0.33925 -0.041771132 0.048655748
-0.31462255 -0.042441625 0.066073895
-0.27779487 -0.041987907 0.054285049
-0.32160372 0.77344245 0.049274683
-0.32256129 0.802751 0.057568073
-0.3238667 0.8421948 0.068873167
-0.32442755 0.87071484 0.073729992
0.38004884 -0.22556613 0.10596204
0.40550795 -0.22452815 0.096971989
0.43926463 -0.22320478 0.085511208
0.4659043 -0.22301157 0.083837271
0.22545546 -0.18905595 0.10403943
0.29847226 -0.20751847 0.1069932
0.33222836 -0.20583688 0.09139061
0.35753337 -0.2047555 0.081356525
0.13486463 -0.17105652 0.10560536
0.16994646 -0.1698752 0.092817783
0.19587344 -0.16887286 0.081965923
0.25990671 -0.18769194 0.09040904
0.28542766 -0.18663023 0.079800129
-0.037601616 -0.13482054 0.10659838
-0.01051211 -0.13424158 0.099078417
0.016256347 -0.13323678 0.086024284
0.062045716 -0.15258716 0.10190701
0.09739203 -0.15140098 0.087899446
-0.34590551 -0.10735171 0.10269189
-0.17361754 -0.098215103 0.10208726
-0.13675368 -0.097133428 0.084523201
-0.10111497 -0.11637795 0.10257363
-0.073808335 -0.11556831 0.0908885
-0.055765443 -0.11508541 0.08391881
-0.33532178 -0.070391804 0.090322495
-0.30924296 -0.061815482 0.099026442
-0.2807152 -0.061149288 0.084600687
-0.24592462 -0.079942346 0.099421978
-0.20877022 -0.079176992 0.085219145
-0.3251316 0.89981294 0.079827547
0.30362713 -0.22964792 0.14131045
0.33786833 -0.22782113 0.12548971
0.36348751 -0.22660823 0.11498547
0.39449444 -0.24723528 0.13446093
0.4291375 -0.2459593 0.12410188
0.46546358 -0.24579047 0.12272954
0.12868074 -0.19296232 0.1430738
0.15542769 -0.1919377 0.1328361
0.19064167 -0.19047584 0.11822772
0.22925621 -0.21063329 0.13589525
0.26409864 -0.20908265 0.12150788
-0.037334874 -0.15591848 0.14124894
-0.0098604225 -0.15521926 0.1329906
0.063833013 -0.17399989 0.13746905
0.099496521 -0.17239918 0.12013984
-0.34995258 -0.13704935 0.13555002
-0.1017302 -0.13696276 0.13442683
-0.074053995 -0.13606784 0.1228013
-0.055765443 -0.13553707 0.11590576
0.026395194 -0.15407166 0.11943817
-0.25834137 -0.10051024 0.13935614
-0.23920336 -0.099932641 0.12997675
-0.21092343 -0.09920013 0.11808205
-0.17526881 -0.11862904 0.13506651
-0.1379468 -0.11751063 0.11892319
-0.33052042 -0.081401259 0.12649584
-0.30311635 -0.081431493 0.12705684
-0.27430421 -0.080663294 0.11279988
-0.31135023 0.32978877 0.11857963
-0.31168127 0.36672765 0.12165093
-0.31305337 0.40519106 0.13438272
-0.31391731 0.49857414 0.14239883
0.4009873 -0.27012253 0.16891599
0.43587792 -0.26858163 0.15714025
0.4621827 -0.26765081 0.15002799
0.23341733 -0.23305412 0.17080879
0.26857445 -0.23119883 0.15474176
0.29947141 -0.25232917 0.17581797
0.32563806 -0.2508764 0.1640234
0.36031091 -0.24906854 0.14934492
0.065376371 -0.19550206 0.16845274
0.10170233 -0.19403549 0.15379906
0.1584405 -0.21397223 0.16687703
0.19404534 -0.2122599 0.1509881
-0.3528358 -0.15741824 0.15895891
-0.10240825 -0.15833259 0.1697576
-0.074339688 -0.15749893 0.15991354
-0.046416312 -0.16721389 0.16423225
-0.0092075467 -0.17670821 0.16678691
0.027578972 -0.17546777 0.15335941
-0.2613619 -0.12139767 0.17502642
-0.17699572 -0.13966718 0.16955829
-0.13910098 -0.13834065 0.15232515
-0.3333272 -0.10121517 0.15080357
-0.30665606 -0.10184929 0.16109943
-0.27760679 -0.10107663 0.14855123
-0.24195114 -0.1207494 0.16567135
-0.21310803 -0.11976407 0.15144897
-0.31468388 0.43519536 0.14951181
-0.31468093 0.46292484 0.14948416
-0.31474867 0.53705031 0.15011287
-0.3158626 0.56701207 0.16044879
-0.31636125 0.59593356 0.16507554
-0.31686416 0.63429523 0.16974211
0.3984381 -0.29383495 0.20549679
0.42516187 -0.29266647 0.19706416
0.45184845 -0.2915915 0.1893065
0.22850081 -0.25639969 0.20886636
0.30462268 -0.27563491 0.2110374
0.33109897 -0.27400997 0.19862175
0.36656299 -0.27228302 0.1854248
0.13395667 -0.23776554 0.21161079
0.16136691 -0.23641823 0.19994307
0.1977154 -0.23484178 0.1862905
0.24649951 -0.2554473 0.20113397
0.26412874 -0.25425917 0.19148779
0.28188348 -0.25331458 0.18381906
-0.0085029304 -0.1990038 0.203444
0.028658308 -0.19712269 0.18464684
0.067208052 -0.21808337 0.205024
0.094985463 -0.21699642 0.19493794
0.1224113 -0.21578221 0.18367171
-0.34816584 -0.17011185 0.19804025
-0.17878735 -0.16135724 0.20547676
-0.14033382 -0.15985899 0.18778324
-0.093593091 -0.18014818 0.20402575
-0.074604034 -0.17924535 0.19425273
-0.055765443 -0.17835382 0.18460202
-0.3378537 -0.13187507 0.19000387
-0.31024033 -0.12282436 0.19561934
-0.27265948 -0.13245042 0.19766545
-0.23494154 -0.14176542 0.1968143
-0.20581073 -0.14073879 0.18348002
-0.31822017 0.67484301 0.18232465
-0.31887683 0.70459622 0.18841743
-0.32009277 0.73596668 0.19970036
-0.32094437 0.76658922 0.20760179
-0.32141382 0.78683805 0.21195793
0.33680829 -0.29789561 0.23480248
0.36334321 -0.29608917 0.22176671
0.39308518 -0.30654445 0.2279129
0.43221179 -0.3167792 0.23297548
0.45876288 -0.31525773 0.22257352
0.16453168 -0.25970808 0.23572755
0.20126441 -0.25782719 0.22045636
0.25980064 -0.2783277 0.23161435
0.28678975 -0.27670673 0.21922708
-0.017357331 -0.22203918 0.24172807
0.069020547 -0.24118958 0.24126458
0.097137995 -0.23987623 0.22989058
0.11572605 -0.23900153 0.22231483
-0.35952362 -0.19998592 0.21325731
-0.094128609 -0.20254289 0.23880839
-0.074891828 -0.20182525 0.23163795
-0.046270438 -0.20051493 0.21854496
0.0017084666 -0.2213939 0.23574114
0.029916018 -0.21979754 0.22092938
-0.34250185 -0.18257152 0.23025823
-0.23757789 -0.16367811 0.23288536
-0.20804495 -0.1625665 0.21975899
-0.17086989 -0.18339126 0.23913217
-0.14165971 -0.18218841 0.22611237
-0.11270754 -0.18095072 0.21271324
-0.31392875 -0.14441432 0.23122406
-0.28439826 -0.14370967 0.22207093
-0.32158321 0.80629694 0.21352959
-0.3215555 0.82520288 0.21327257
0.33331633 -0.32281008 0.27420831
0.41174641 -0.34277555 0.27753019
0.43001932 -0.34181014 0.27125978
0.45828903 -0.34114572 0.26694393
0.26428056 -0.30234283 0.26689744
0.30088168 -0.30020154 0.25144386
0.36024627 -0.32083994 0.26073885
0.38706449 -0.31899834 0.24814773
0.08993075 -0.26402444 0.27077246
0.12745669 -0.2617982 0.25269723
0.16776389 -0.28364238 0.27222586
0.19580102 -0.2821539 0.26085162
0.22357675 -0.28070158 0.24975443
-0.34697142 -0.22497462 0.26896572
-0.094712764 -0.22581358 0.27675056
-0.075160451 -0.22471245 0.26653385
-0.046129122 -0.22347276 0.25503039
0.0025484823 -0.244752 0.27211499
0.031287245 -0.24340661 0.26046491
-0.34494147 -0.2038015 0.25138569
-0.1725626 -0.20624284 0.27578068
-0.14295879 -0.20502256 0.26358771
-0.11355676 -0.20361139 0.24948573
-0.32694748 -0.16625394 0.26330423
-0.30786744 -0.16649929 0.26620245
-0.27790123 -0.1656405 0.25605822
-0.24035996 -0.18632852 0.27093053
-0.20041201 -0.18458456 0.25205159
-0.30906954 0.39754629 0.27821493
-0.30878302 0.41661263 0.275352
0.43771547 -0.3677063 0.31125045
0.45703965 -0.36737105 0.30917621
0.26891142 -0.32707334 0.30335784
0.29659027 -0.32511327 0.28995633
0.32696018 -0.33590785 0.29629612
0.36621049 -0.34573588 0.2967577
0.39356378 -0.34390336 0.28485584
0.1900284 -0.30714723 0.30156994
0.22754714 -0.30490226 0.28536844
0.0034579225 -0.26904014 0.31149507
0.032591052 -0.26740104 0.29818678
0.061331972 -0.2654421 0.28228164
0.092050172 -0.28827205 0.3076036
0.13018912 -0.2859709 0.2900188
-0.35015985 -0.24757664 0.29657841
-0.14423707 -0.22837411 0.30050969
-0.11440319 -0.22682504 0.2861371
-0.075466886 -0.248704 0.30634093
-0.045983225 -0.24716692 0.29302955
-0.016761232 -0.2457139 0.28044605
-0.33026919 -0.18847124 0.29412556
-0.30161375 -0.18918924 0.301898
-0.23294657 -0.20911063 0.30443788
-0.20267639 -0.20779125 0.29125452
-0.27096879 -0.1879497 0.28847837
-0.31241968 0.3429572 0.31169128
-0.31054494 0.37016633 0.29295826
-0.31091213 0.43935108 0.29662681
0.34406695 -0.37300631 0.34403586
0.36275923 -0.37170705 0.3359983
0.39102909 -0.37019938 0.32667255
0.41891396 -0.36852676 0.31632566
0.19376218 -0.33248791 0.34037638
0.23178971 -0.33000249 0.32338357
0.26428846 -0.35324955 0.34556174
0.29253837 -0.35126367 0.33266187
0.32045963 -0.34920865 0.3193152
0.033820353 -0.29167068 0.33357382
0.063069835 -0.28988212 0.31990719
0.10379163 -0.31218565 0.33793235
0.13298208 -0.31083694 0.32819819
0.1616044 -0.30887848 0.31406379
-0.35326454 -0.27051467 0.32346606
-0.045828573 -0.27170572 0.33313537
-0.016140763 -0.27017972 0.32074666
-0.23577717 -0.23320056 0.34529352
-0.20498019 -0.23167853 0.3311708
-0.17433915 -0.2298543 0.31424403
-0.13556093 -0.25241545 0.33848286
-0.10535103 -0.25057784 0.32256866
-0.3331542 -0.21075763 0.32089448
-0.3051945 -0.21258529 0.33915901
-0.27435973 -0.21152101 0.32852364
-0.25371411 -0.21051557 0.31847692
-0.31327057 0.47270784 0.32019377
-0.314466 0.50451869 0.33213949
-0.31520861 0.53577256 0.33956027
0.3690626 -0.39824015 0.37498999
0.39774853 -0.39663222 0.36549568
0.43637949 -0.39510444 0.35647345
0.20732644 -0.35793892 0.37602019
0.29747611 -0.37709552 0.36933088
0.32584867 -0.37496653 0.3561604
0.10637455 -0.33826476 0.37987351
0.13571662 -0.33618209 0.36563468
0.16480148 -0.33416158 0.35181952
0.23592994 -0.35553968 0.36043572
-0.35695189 -0.29452696 0.35539913
-0.045680128 -0.29670921 0.3720758
-0.0056295507 -0.2942307 0.35313535
0.025251016 -0.31775641 0.37813497
0.055084459 -0.31603059 0.36567998
0.084557183 -0.31401163 0.35111117
-0.33890095 -0.27676579 0.37421799
-0.21756664 -0.25655967 0.37437248
-0.13672209 -0.27700895 0.37619209
-0.10611962 -0.27536729 0.36286449
-0.075795457 -0.27366257 0.34902334
-0.33691612 -0.24440299 0.35580134
-0.2989659 -0.23691614 0.37977028
-0.27791721 -0.23592101 0.3705349
-0.25680923 -0.23464359 0.35868382
-0.19676426 -0.25532249 0.36365986
-0.17621502 -0.25430632 0.35485816
-0.1558961 -0.25357425 0.34851837
-0.31609169 0.56747007 0.34838438
-0.31735998 0.60020769 0.361058
-0.31818521 0.63221574 0.36930418
-0.31860417 0.66348588 0.37349081
-0.31897947 0.70485085 0.37724042
-0.31903452 0.73536742 0.37779045
0.39465833 -0.42407992 0.40667367
0.43502852 -0.42352647 0.403548
0.30197692 -0.40293375 0.40270329
0.33089328 -0.40089253 0.39065027
0.3500253 -0.39955211 0.38273644
0.41446388 -0.42341155 0.4028995
0.12871346 -0.36313543 0.40977168
0.15834489 -0.36104196 0.39617395
0.19942713 -0.37166372 0.3985281
0.23034778 -0.38235232 0.40184832
0.25919351 -0.37992355 0.38682437
0.056687944 -0.34170771 0.40341306
0.086588629 -0.33957192 0.3888104
-0.34103921 -0.29958633 0.39405894
-0.10692535 -0.30090237 0.40411639
-0.076079465 -0.2985208 0.38591743
-0.035286624 -0.32180095 0.40732431
-0.004863251 -0.31980962 0.3929534
-0.27072126 -0.26023188 0.40617561
-0.23860842 -0.25792077 0.38615966
-0.19941443 -0.28152302 0.41284132
-0.16790172 -0.27932811 0.39502287
-0.31933782 -0.23702945 0.3808217
0.32688481 -0.42894134 0.43413162
0.36573023 -0.4260954 0.4180572
0.23443574 -0.40921277 0.43977976
0.26353586 -0.40642047 0.42329216
0.058365948 -0.36825487 0.44302225
0.09866526 -0.36504748 0.42219019
0.16167337 -0.38808599 0.43731713
0.19171971 -0.38628122 0.42615366
-0.343867 -0.3235985 0.42029762
-0.097235247 -0.32641053 0.44059062
-0.076414913 -0.32487285 0.42949343
-0.055765443 -0.323387 0.41877079
-0.0040924698 -0.34606776 0.43322182
0.026413888 -0.34353402 0.41589975
-0.16975054 -0.3054547 0.43890214
-0.13816613 -0.30338517 0.42308879
-0.31306288 -0.2619406 0.42097211
-0.26307976 -0.28488532 0.44014025
-0.24152401 -0.28341982 0.42824221
-0.2203927 -0.28243688 0.42026186
0.34365219 -0.45771003 0.47788334
0.23885822 -0.43720698 0.48081517
0.2684195 -0.43425491 0.4641428
0.29818982 -0.43206313 0.4517622
0.36333728 -0.45610553 0.4691999
0.39384523 -0.45511323 0.46382833
0.10140914 -0.39332348 0.46971583
0.13191533 -0.39110413 0.45598674
0.19566217 -0.4141331 0.46883202
0.21502817 -0.41144839 0.45298076
0.0071097538 -0.37235022 0.46962404
0.027708925 -0.37055406 0.45795798
-0.34715226 -0.34863576 0.45078039
-0.16094173 -0.33181694 0.47960854
-0.13945407 -0.32978114 0.46491599
-0.10807064 -0.34067494 0.467592
-0.076735616 -0.35161567 0.47115397
-0.045369178 -0.3488695 0.45237803
-0.32911983 -0.31064573 0.47856975
-0.24476317 -0.31017804 0.47499514
-0.21248561 -0.30839032 0.46133471
-0.32646623 -0.28635255 0.45205307
-0.30669743 -0.28775823 0.46346641
-0.28503421 -0.28666419 0.45458317
0.32454541 -0.46026355 0.49170542
0.21948743 -0.44016796 0.49754
0.0081463382 -0.40056488 0.51450944
0.029090159 -0.3986741 0.50281453
0.060343608 -0.39655536 0.48970723
0.13551602 -0.42075929 0.50795794
0.16604444 -0.41800821 0.49171424
-0.045196351 -0.37677443 0.4983592
-0.013657466 -0.3742623 0.48204184
-0.22594169 -0.33607867 0.51036596
-0.20452869 -0.33571631 0.5077498
-0.18287215 -0.33450255 0.49898863
-0.11934967 -0.35588229 0.5003252
-0.30930948 -0.31236973 0.49174261
-0.27816236 -0.31321841 0.49822855
-0.3096576 0.36418289 0.49551129
-0.31055054 0.39715534 0.5051775
-0.012994319 -0.40227917 0.52511382
0.11487018 -0.42243022 0.51782537
-0.20667824 -0.36280248 0.54764009
-0.16281445 -0.35996845 0.52826309
-0.14123333 -0.35915479 0.52269936
-0.098735631 -0.38288417 0.5380435
-0.077176131 -0.38139623 0.52837825
-0.31158677 0.43054983 0.51639509
-0.31236309 0.46379721 0.52479935
-0.313685 0.4981769 0.53910923
-0.31444427 0.52106225 0.54732847
-0.1851598 -0.36293122 0.54851818
-0.29380882 -0.34270802 0.55820656
-0.31504697 0.54377389 0.5538528
-0.31555983 0.56640655 0.55940509
-0.31589895 0.59960568 0.56307602
-0.30944821 0.40428746 0.74289918
-0.31022298 0.44007015 0.75204873
-0.31086504 0.46425349 0.75963044
0 0 0 1 0 0 0 1 0 0 0 1 0 0 0 0 0 972 1 0 0
