ply
format ascii 1.0
comment PCL generated
element vertex 1328
property float x
property float y
property float z
element camera 0
property float view_px
property float view_py
property float view_pz
property float x_axisx
property float x_axisy
property float x_axisz
property float y_axisx
property float y_axisy
property float y_axisz
property float z_axisx
property float z_axisy
property float z_axisz
property float focal
property float scalex
property float scaley
property float centerx
property float centery
property int viewportx
property int viewporty
property float k1
property float k2
end_header
0.062514462 0.29441318 -0.11550236
0.077567153 0.29451573 -0.11483598
0.092686258 0.29480562 -0.11295414
-0.10287934 0.30972907 -0.11371589
-0.087726444 0.30933675 -0.11614275
-0.072658032 0.30914232 -0.11734527
-0.057642289 0.30912712 -0.11743903
-0.04263448 0.30915746 -0.11725152
-0.027624834 0.30919883 -0.11699575
-0.012611251 0.30924022 -0.11673987
0.0024062698 0.30928156 -0.11648399
0.017427731 0.30932295 -0.11622804
0.032453135 0.30936435 -0.11597192
0.047482483 0.30940574 -0.11571586
0.062515773 0.30944723 -0.11545968
0.077569462 0.30955771 -0.11477625
0.092688225 0.3098591 -0.11291134
-0.10288025 0.32477283 -0.11369884
-0.087728411 0.32436609 -0.11609995
-0.072660334 0.32416534 -0.11728567
-0.057644911 0.32415369 -0.1173538
-0.042636644 0.32418692 -0.11715776
-0.027626278 0.32423025 -0.11690193
-0.012612039 0.32427505 -0.11663759
0.0024062698 0.32431838 -0.11638159
0.017428519 0.32436177 -0.11612552
0.032454845 0.32440659 -0.11586094
0.047485042 0.3244499 -0.11560482
0.06251999 0.32449767 -0.11532301
0.077571765 0.32460043 -0.11471641
0.092689812 0.32491198 -0.11287713
-0.08772999 0.33939463 -0.11606586
-0.072663285 0.33919215 -0.11720884
-0.057649899 0.33919528 -0.11719179
-0.042640187 0.33922848 -0.11700439
-0.027628509 0.33927229 -0.11675698
-0.012613092 0.33931753 -0.11650109
0.0024062698 0.3393628 -0.11624503
0.017429572 0.33940816 -0.11598915
0.032456949 0.33945507 -0.11572438
0.047488201 0.33950046 -0.1154682
0.062525772 0.33955941 -0.11513519
-0.10288118 0.33981675 -0.11368167
0.077576041 0.33965316 -0.11460531
-0.10288394 0.35486734 -0.11363024
-0.087733932 0.35443303 -0.11598057
-0.072667226 0.35422501 -0.11710668
-0.057655148 0.35424086 -0.11702126
-0.042643536 0.35427079 -0.11685926
-0.027630743 0.35431635 -0.1166119
-0.012614142 0.35436213 -0.11636448
0.0024062698 0.35440943 -0.11610848
0.017430622 0.35445675 -0.11585248
0.03245905 0.35450563 -0.11558777
0.047491752 0.35455608 -0.11531454
0.062531821 0.35462558 -0.1149385
0.077579983 0.35470614 -0.11450267
-0.10288947 0.3699286 -0.11352772
-0.087739058 0.36947778 -0.11586958
-0.072672471 0.36926597 -0.11697024
-0.057660136 0.36928731 -0.11685938
-0.042647082 0.36931688 -0.11670589
-0.027633106 0.36936447 -0.11645842
-0.012615323 0.36941206 -0.116211
0.0024062698 0.36945978 -0.11596346
0.017431675 0.3695074 -0.11571574
0.032461155 0.36955836 -0.11545116
0.047496092 0.36962083 -0.11512655
0.062537611 0.36969319 -0.11475062
0.07758525 0.36976722 -0.11436594
-0.10290054 0.38501185 -0.1133222
-0.087748528 0.38454309 -0.1156646
-0.072683632 0.38433981 -0.1166802
-0.057669856 0.38436708 -0.11654377
-0.042652402 0.38438079 -0.11647546
-0.02763639 0.38442689 -0.11624515
-0.012616768 0.38447118 -0.11602318
0.0024062698 0.38451731 -0.11579269
0.017432857 0.38456345 -0.1155622
0.03246339 0.38461474 -0.1153059
0.047501024 0.38469347 -0.11491293
0.062544718 0.38477215 -0.11451972
0.077594794 0.38485271 -0.11411792
-0.1029153 0.40011263 -0.11304832
-0.08775878 0.39961496 -0.11544251
-0.07271155 0.39950842 -0.11595488
-0.057685621 0.39949259 -0.11603177
-0.042661861 0.39948547 -0.1160658
-0.027642831 0.39953515 -0.11582696
-0.012620054 0.39958307 -0.11559623
0.0024062698 0.39962924 -0.11537427
0.017436145 0.39967892 -0.11513501
0.032469966 0.3997322 -0.11487871
0.047509119 0.39979783 -0.11456251
0.062555775 0.39988136 -0.11416072
0.077606976 0.39995608 -0.11380148
-0.087769434 0.41469216 -0.11521196
-0.072730944 0.41464064 -0.11545116
-0.057692982 0.41456693 -0.11579269
-0.04267152 0.41459832 -0.11564749
-0.027649272 0.41464981 -0.11540848
-0.012623277 0.41469955 -0.11517775
0.0024062698 0.41475117 -0.11493862
0.017439632 0.4148064 -0.11468214
0.032477073 0.41486344 -0.11441714
0.047518399 0.41491884 -0.1141606
0.062566049 0.41499075 -0.11382717
0.077626742 0.41510686 -0.11328799
-0.087788768 0.42981493 -0.1147933
-0.072742775 0.4297367 -0.11514372
-0.057707973 0.42970052 -0.1153059
-0.04268612 0.42976537 -0.11501551
-0.027659927 0.42983207 -0.11471635
-0.012629066 0.42989698 -0.11442578
0.0024062698 0.4299542 -0.11416924
0.017445622 0.43001342 -0.11390418
0.032489188 0.43007451 -0.11363029
0.047536969 0.43013558 -0.11335641
0.062590823 0.43021029 -0.11302257
-0.087813251 0.44496986 -0.1142633
-0.072770081 0.44493043 -0.11443436
-0.057738759 0.44496 -0.11430609
-0.042708427 0.44501919 -0.11404943
-0.027674539 0.44508442 -0.11376721
-0.012636177 0.44514567 -0.11350203
0.0024062698 0.44520491 -0.11324513
0.017452737 0.44526625 -0.11297989
-0.072815523 0.46024731 -0.11325371
-0.057777487 0.4602963 -0.11304832
-0.11879262 -0.52122307 -0.099548221
-0.10334007 -0.51975274 -0.10516584
-0.088227466 -0.51971889 -0.10529524
-0.073251612 -0.52060127 -0.10192388
-0.058188636 -0.52118444 -0.099695861
-0.043041911 -0.52120715 -0.099609017
0.07814122 -0.52112538 -0.099921465
-0.13387997 -0.50584394 -0.10045063
-0.11848497 -0.50480407 -0.10454416
-0.10314186 -0.50371164 -0.10884422
-0.087993309 -0.50332546 -0.11036479
-0.073012725 -0.50389308 -0.10813022
-0.057950392 -0.50407022 -0.10743296
-0.042865407 -0.50411618 -0.10725212
-0.027779091 -0.50418621 -0.10697651
-0.012688333 -0.50424963 -0.10672671
0.0024062698 -0.50431973 -0.1064508
0.017504456 -0.50436789 -0.10626119
0.03260782 -0.50445336 -0.1059249
0.047713373 -0.50450587 -0.10571796
0.062804058 -0.50440949 -0.1060974
0.077880286 -0.50425625 -0.10670078
0.093031235 -0.50456506 -0.10548508
0.10830397 -0.50535977 -0.10235667
-0.13369097 -0.49002904 -0.10317868
-0.1183235 -0.48904687 -0.10716599
-0.1030095 -0.48802838 -0.11130023
-0.072837599 -0.48768851 -0.11268008
-0.057812307 -0.48787636 -0.11191756
-0.042763006 -0.48793334 -0.11168611
-0.027710279 -0.48799255 -0.11144602
-0.012653854 -0.48805159 -0.11120594
0.0024062698 -0.48811719 -0.11093986
0.017470486 -0.48818269 -0.11067384
0.032539066 -0.48825249 -0.11039066
0.047610022 -0.4883011 -0.11019319
0.062673189 -0.4882631 -0.11034763
0.077737927 -0.48825034 -0.11039919
0.092884429 -0.48867792 -0.10866356
0.10814145 -0.48948854 -0.10537279
0.12357096 -0.49078652 -0.10010368
-0.14897017 -0.4753947 -0.10113555
-0.13355869 -0.47445148 -0.10508811
-0.11821433 -0.47353256 -0.10893875
0.032503158 -0.47262946 -0.11272299
0.047556546 -0.47268063 -0.11250877
0.06260743 -0.47268674 -0.11248308
0.077656403 -0.47267857 -0.11251736
0.092770569 -0.47300994 -0.11112869
0.10804111 -0.47393912 -0.10723501
0.12346794 -0.47524175 -0.10177654
-0.14886618 -0.45994505 -0.10248649
-0.13347262 -0.45905736 -0.10633022
0.10796783 -0.45853445 -0.10859472
0.1234077 -0.45988309 -0.10275477
-0.11814078 -0.45817918 -0.11013299
0.092694558 -0.45756918 -0.11277437
-0.14880757 -0.44464791 -0.10324782
-0.13341771 -0.44378275 -0.10712296
-0.11808793 -0.44291916 -0.11099142
0.10792845 -0.44329107 -0.10932547
0.12336882 -0.44461697 -0.10338616
-0.16421282 -0.43024912 -0.099895418
-0.14876698 -0.42941281 -0.1037752
-0.1333819 -0.42857987 -0.10763967
-0.11806468 -0.4277761 -0.11136878
0.10790206 -0.42811093 -0.10981524
0.12334219 -0.42940345 -0.10381842
-0.16417977 -0.41502073 -0.10028589
-0.1487377 -0.41421649 -0.10415542
-0.13335866 -0.41342252 -0.10797524
-0.1180425 -0.41264233 -0.11172903
0.10788401 -0.41297048 -0.11015028
0.12331932 -0.41420931 -0.10418999
-0.16415992 -0.39982972 -0.10051996
-0.14872307 -0.39906403 -0.1043455
-0.13334732 -0.39830488 -0.10813874
-0.11803141 -0.39755023 -0.11190891
0.10785902 -0.39780942 -0.11061388
0.12330069 -0.39903462 -0.10449231
-0.16414672 -0.38465723 -0.10067606
-0.14871377 -0.38392773 -0.10446644
-0.13334017 -0.38320124 -0.10824203
-0.1180256 -0.3824774 -0.11200321
0.10782851 -0.38263571 -0.11118013
0.1232858 -0.38387629 -0.10473406
-0.16414158 -0.36950487 -0.10073674
-0.14870645 -0.36879826 -0.10456133
-0.13333361 -0.36810073 -0.10833675
-0.1180198 -0.36740601 -0.1120975
0.10782297 -0.36755636 -0.11128312
0.12327783 -0.36874247 -0.10486358
-0.16413864 -0.35435799 -0.10077149
-0.1487018 -0.35367629 -0.10462195
-0.13332707 -0.3530018 -0.10843134
-0.11801399 -0.35233602 -0.11219174
0.1078299 -0.35251972 -0.11115438
0.12327092 -0.35361362 -0.10497582
-0.16413642 -0.33921313 -0.10079747
-0.14869913 -0.33855963 -0.1046564
-0.13332289 -0.33791018 -0.10849148
-0.11801083 -0.33727476 -0.11224329
0.10783684 -0.3374809 -0.11102575
0.12326986 -0.33850259 -0.10499305
-0.16413864 -0.32407713 -0.10077149
-0.14870113 -0.32345328 -0.10463047
-0.13332407 -0.32283187 -0.10847431
-0.11801136 -0.32222399 -0.11223459
0.10784099 -0.32243195 -0.1109485
0.12327731 -0.32341418 -0.10487223
-0.16414085 -0.30894068 -0.10074544
-0.14870311 -0.3083466 -0.10460448
-0.13332586 -0.30775464 -0.10844857
-0.11801346 -0.30717713 -0.11220032
0.10784376 -0.3073777 -0.11089706
0.12328421 -0.30832255 -0.10475999
-0.16414306 -0.29380378 -0.10071945
-0.14870511 -0.29323936 -0.10457861
-0.13332766 -0.2926771 -0.10842276
-0.11801663 -0.29213214 -0.112149
0.10784701 -0.29232404 -0.11083698
0.12329166 -0.29323056 -0.10463917
-0.16414598 -0.27866784 -0.10068476
-0.14870779 -0.278133 -0.10454416
-0.13333003 -0.27760038 -0.1083883
-0.11801928 -0.27708516 -0.11210608
0.10785764 -0.27728847 -0.11063951
0.12329645 -0.27813065 -0.10456133
-0.16414818 -0.26353008 -0.10065877
-0.14870977 -0.26302508 -0.10451823
-0.13333182 -0.26252189 -0.1083625
-0.11802243 -0.2620388 -0.11205471
0.10786181 -0.26223409 -0.11056226
0.12329804 -0.26302278 -0.1045354
-0.16415112 -0.24839307 -0.10062402
-0.14871176 -0.24791664 -0.10449231
-0.13333361 -0.24744314 -0.10833669
-0.11802508 -0.2469904 -0.11201185
0.10784654 -0.24713406 -0.11084557
0.12330069 -0.24791664 -0.10449231
-0.16415407 -0.23325545 -0.10058945
-0.14871444 -0.23280884 -0.10445768
-0.13333659 -0.23236585 -0.10829371
0.12330442 -0.23281181 -0.10443175
-0.11802824 -0.23194249 -0.11196035
0.10783868 -0.23205437 -0.1109913
-0.16415626 -0.21811637 -0.10056341
-0.14871708 -0.21770041 -0.10442322
-0.13333897 -0.21728703 -0.10825932
-0.11802983 -0.21689084 -0.11193472
0.10784839 -0.21701203 -0.11081117
0.12330868 -0.2177069 -0.10436279
-0.16415992 -0.20297867 -0.10052001
-0.14871976 -0.20259154 -0.10438865
-0.13334197 -0.2022085 -0.10821629
-0.11803141 -0.20183901 -0.11190897
0.10785811 -0.20196685 -0.11063093
0.12331241 -0.2026002 -0.10430217
-0.16416286 -0.18783952 -0.10048538
-0.14872307 -0.187483 -0.10434538
-0.13334495 -0.18712936 -0.10817325
-0.11803299 -0.18678665 -0.11188328
0.10786412 -0.18691269 -0.11051935
0.12331612 -0.18749256 -0.10424173
-0.16416581 -0.17269985 -0.10045063
-0.1487264 -0.1723737 -0.10430217
-0.13334791 -0.17204952 -0.10813022
-0.11803511 -0.17173463 -0.11184901
0.10786828 -0.17185381 -0.1104421
0.12331932 -0.17238319 -0.10418993
-0.16416875 -0.15755956 -0.10041606
-0.14872971 -0.1572637 -0.10425913
-0.13335089 -0.15696906 -0.10808712
-0.11803669 -0.15668143 -0.11182338
0.1078729 -0.15679435 -0.11035627
0.12332251 -0.15727304 -0.1041382
-0.16417241 -0.1424194 -0.10037261
-0.14873303 -0.14215313 -0.10421586
-0.13335329 -0.14188731 -0.10805279
-0.11803827 -0.14162779 -0.11179757
0.10788401 -0.14174202 -0.11015022
0.12332942 -0.1421663 -0.10402578
-0.16417535 -0.12727802 -0.10033786
-0.1487357 -0.1270413 -0.10418135
-0.13335627 -0.12680554 -0.1080097
-0.11803986 -0.12657388 -0.11177182
0.10789465 -0.12668586 -0.10995275
0.12333315 -0.12705465 -0.10396528
-0.16417903 -0.11213658 -0.10029459
-0.14873904 -0.11192945 -0.10413808
-0.13335925 -0.11172316 -0.10796666
-0.11804197 -0.11151996 -0.11173755
0.10787985 -0.11160132 -0.11022747
0.12333687 -0.11194208 -0.10390472
-0.16418269 -0.096994422 -0.1002512
-0.14874236 -0.096816882 -0.10409492
-0.13336223 -0.09664005 -0.10792369
-0.11804408 -0.096465461 -0.11170322
0.10786597 -0.09652178 -0.11048502
0.1233406 -0.096828438 -0.10384434
-0.16418636 -0.081851639 -0.10020781
-0.14874569 -0.081703678 -0.10405171
-0.13336462 -0.081556052 -0.10788918
-0.11804619 -0.081410535 -0.11166888
0.10787199 -0.081460446 -0.11037344
0.12334432 -0.081714019 -0.10378385
-0.16419005 -0.066708192 -0.10016435
-0.14874834 -0.066589557 -0.10401714
-0.1333676 -0.066471718 -0.10784614
-0.11804884 -0.066355243 -0.11162609
0.10788216 -0.066399671 -0.11018449
0.12334805 -0.066598617 -0.10372329
-0.16419299 -0.051563896 -0.10012972
-0.14875168 -0.051475145 -0.10397393
-0.13337058 -0.051386688 -0.10780323
-0.11805147 -0.051299386 -0.11158329
0.10789049 -0.05133523 -0.11003
0.12335178 -0.051482279 -0.10366285
-0.16419666 -0.036419187 -0.10008633
-0.14875501 -0.036360037 -0.10393071
-0.13337356 -0.036301028 -0.10776013
-0.11805411 -0.036242891 -0.11154026
0.10789419 -0.036267184 -0.10996121
0.1233555 -0.03636501 -0.10360229
-0.16420034 -0.02127376 -0.10004294
-0.14875832 -0.021244196 -0.10388756
-0.13337654 -0.021214712 -0.10771716
-0.11805675 -0.021185603 -0.11149734
0.10789789 -0.021198008 -0.10989255
0.12335924 -0.021246832 -0.10354185
-0.164204 -0.0061277617 -0.099999607
0.10790808 -0.0061277812 -0.10970354
-0.14876099 -0.0061277417 -0.10385299
-0.13337892 -0.0061277021 -0.1076827
-0.11805886 -0.006127682 -0.11146319
0.12336297 -0.0061277216 -0.10348123
-0.16420694 0.0090188719 -0.099964857
-0.14876431 0.008989308 -0.10380965
-0.1333819 0.0089598037 -0.10763955
-0.11806151 0.008930793 -0.11142027
0.10791872 0.0089454576 -0.10950595
0.12336669 0.0089923199 -0.10342073
-0.16421062 0.024166219 -0.099921405
-0.14876762 0.024106991 -0.1037665
-0.1333849 0.024048021 -0.10759652
-0.11806414 0.023989845 -0.11137742
0.1079127 0.024016971 -0.10961771
0.12336988 0.024113214 -0.10336894
-0.16421428 0.0393143 -0.099878132
-0.14877096 0.039225388 -0.10372329
-0.13338788 0.039136995 -0.1075536
-0.11806679 0.039049629 -0.11133444
0.10789742 0.039082818 -0.10990119
0.12337042 0.039233848 -0.10336024
-0.16421796 0.054462854 -0.099834681
-0.1487743 0.054344498 -0.10368013
-0.13339026 0.054226261 -0.10751903
-0.11806943 0.054110106 -0.11129159
0.10789604 0.054152135 -0.10992688
0.12337148 0.05435488 -0.10334301
-0.1642209 0.069611803 -0.099799991
-0.14877696 0.069463879 -0.1036455
-0.13339324 0.069316439 -0.10747594
-0.11807207 0.069171235 -0.11124873
0.10790576 0.069229014 -0.10974658
0.12337255 0.069476224 -0.10332566
-0.16422457 0.084761821 -0.099756598
-0.14878027 0.084584184 -0.10360235
-0.13339624 0.084407292 -0.10743296
-0.11807472 0.084233001 -0.11120582
0.10791549 0.084308714 -0.10956609
0.12337361 0.084597751 -0.10330826
-0.16422752 0.099911921 -0.099721909
-0.14878295 0.09970472 -0.10356772
-0.13339861 0.099498287 -0.10739851
-0.11807682 0.09929496 -0.1111716
0.10792058 0.099386528 -0.10947156
0.12337521 0.099720076 -0.10328239
-0.16423118 0.11506315 -0.099678576
-0.14878626 0.11482632 -0.10352457
-0.13340159 0.11459035 -0.10735548
-0.11807946 0.11435802 -0.11112869
0.10792428 0.11446436 -0.10940289
0.12338373 0.11484975 -0.10314405
-0.16423413 0.13021448 -0.099643826
-0.14878893 0.12994801 -0.10348994
-0.13340399 0.12968247 -0.10732102
-0.11808158 0.12942103 -0.1110943
0.10793262 0.12954904 -0.10924822
0.12339225 0.12998147 -0.10300559
-0.1642378 0.14536689 -0.099600434
-0.14879227 0.14507081 -0.10344672
-0.13340697 0.14477585 -0.10727799
-0.11808369 0.14448464 -0.11105996
0.10794374 0.14464009 -0.10904187
0.12339971 0.14511414 -0.10288453
-0.16424073 0.16051926 -0.099565685
-0.1487949 0.16019358 -0.10341215
-0.13340935 0.15986919 -0.10724354
-0.1180858 0.15954879 -0.11102563
0.10794652 0.15972126 -0.10899031
0.12340077 0.16023971 -0.10286725
-0.16424368 0.17567216 -0.099530995
-0.14879759 0.17531689 -0.10337746
-0.13341174 0.17496288 -0.10720909
-0.11808793 0.17461358 -0.11099136
0.10793123 0.17477219 -0.10927391
0.12340184 0.17536564 -0.10285002
-0.14880091 0.19044161 -0.10333425
-0.13341413 0.19005722 -0.10717458
-0.11809003 0.18967874 -0.11095697
0.10792428 0.18983428 -0.10940284
0.12340504 0.19049519 -0.10279799
-0.14880359 0.20556606 -0.10329974
-0.13341711 0.20515305 -0.10713148
-0.11809268 0.20474543 -0.11091423
0.10792983 0.20491938 -0.10929972
0.12340876 0.20562662 -0.10273737
-0.11809479 0.21981181 -0.11087984
-0.1488069 0.22069205 -0.10325646
-0.1334195 0.22024848 -0.10709703
0.10793956 0.22001497 -0.10911918
0.12341197 0.22075798 -0.10268563
-0.14880957 0.23581764 -0.10322189
-0.13342188 0.23534454 -0.10706258
-0.1180969 0.23487863 -0.11084557
0.10794652 0.23510705 -0.10899031
0.12341569 0.23589118 -0.10262501
-0.14881289 0.25094485 -0.10317862
-0.13342427 0.25044107 -0.10702819
-0.11809954 0.24994713 -0.11080265
0.10795023 0.2501933 -0.10892153
0.12341889 0.25102407 -0.10257304
-0.14881556 0.26607159 -0.10314399
-0.13342665 0.26553816 -0.10699373
-0.11810219 0.26501632 -0.11075962
0.10795763 0.26529008 -0.10878396
0.12342369 0.26616141 -0.10249513
-0.14881822 0.2811988 -0.10310948
-0.13343084 0.28063947 -0.10693341
-0.11810482 0.2800861 -0.11071682
0.10796829 0.28039774 -0.10858613
0.12343168 0.28130767 -0.10236537
-0.14882088 0.29632655 -0.10307479
-0.13343441 0.29574046 -0.1068818
-0.11810853 0.29515919 -0.11065668
0.10797941 0.29550979 -0.10837966
0.12343222 0.29643711 -0.10235667
-0.14882487 0.31145772 -0.10302299
-0.1334386 0.31084353 -0.10682136
-0.1181117 0.31023195 -0.11060512
0.10796458 0.31054711 -0.10865492
0.12343061 0.31156123 -0.10238266
-0.13344337 0.32594916 -0.10675251
-0.11811645 0.32530972 -0.11052793
0.10795347 0.32559201 -0.10886133
-0.14883021 0.3265925 -0.10295379
0.12342902 0.32668483 -0.10240865
-0.14883819 0.34173453 -0.1028499
-0.13345054 0.34106186 -0.1066491
-0.11812227 0.34039187 -0.11043352
0.092694953 0.33997893 -0.11276585
0.1079618 0.34069759 -0.10870659
0.12343701 0.34183577 -0.10227883
-0.14884752 0.35688126 -0.10272878
-0.13345771 0.35617623 -0.10654569
-0.11812861 0.35547695 -0.11033052
0.092702076 0.35505545 -0.11261171
0.10797247 0.35581344 -0.10850877
0.12344928 0.35700133 -0.10207969
-0.14885685 0.37203011 -0.10260767
-0.13346545 0.37129369 -0.10643351
-0.11813496 0.37056366 -0.11022753
0.092709199 0.37013438 -0.11245733
0.10798637 0.37094399 -0.10825062
0.12346101 0.37216836 -0.10188919
-0.14886618 0.38718054 -0.10248649
-0.13347383 0.3864148 -0.10631281
-0.1181413 0.38565189 -0.11012447
0.092716709 0.38521758 -0.11229461
0.10800121 0.38608208 -0.10797536
0.12347434 0.3873435 -0.10167265
-0.1488895 0.40237093 -0.10218358
-0.13349414 0.40157345 -0.10601979
-0.11815929 0.40078098 -0.10983241
0.092726611 0.40031388 -0.1120804
0.1080244 0.40125644 -0.10754496
0.12349994 0.40256342 -0.10125679
-0.14891416 0.41756949 -0.10186327
-0.13351625 0.41674224 -0.10570067
-0.11818627 0.4159461 -0.10939425
-0.10293053 0.41521946 -0.11276579
0.092755914 0.41550395 -0.1114459
0.10805782 0.41647854 -0.10692477
0.12352878 0.41780102 -0.10078877
-0.13354793 0.43194696 -0.10524333
-0.11821433 0.43112195 -0.10893875
-0.10295223 0.43035752 -0.11236322
0.077657059 0.43032688 -0.11250025
0.092790388 0.43072885 -0.11069953
0.10809357 0.43171972 -0.10626113
-0.14895216 0.43281171 -0.1013695
-0.10297855 0.4455215 -0.1118747
0.032503158 0.44532555 -0.11272299
0.047557935 0.44538888 -0.11244887
0.062616661 0.44545019 -0.11218321
0.077687733 0.44556111 -0.11170322
0.12355494 0.43303621 -0.10036385
-0.14899886 0.44808769 -0.10076278
-0.13359338 0.44720432 -0.10458726
-0.11824822 0.44632658 -0.10838825
0.092841543 0.44604871 -0.10959184
0.10811123 0.44689351 -0.10593361
0.12359234 0.44832006 -0.099756539
-0.14908901 0.46350765 -0.099591732
-0.13366762 0.46257123 -0.10351586
-0.11830335 0.46162197 -0.10749328
-0.10304648 0.46087736 -0.11061376
-0.08789666 0.46043739 -0.11245733
-0.04274223 0.46040669 -0.1125859
-0.027698399 0.46049461 -0.11221743
-0.012648044 0.46055603 -0.11196035
0.0024062698 0.46061945 -0.11169469
0.017464675 0.46068284 -0.11142892
0.032527175 0.46074623 -0.11116296
0.047594365 0.46081588 -0.11087132
0.062670015 0.46091631 -0.11045069
0.07774619 0.46097976 -0.11018455
0.092879266 0.46131611 -0.10877526
0.10814749 0.46215487 -0.10526067
-0.13377312 0.47806558 -0.10199302
-0.11840099 0.47710136 -0.10590768
-0.10312147 0.4762848 -0.10922235
-0.087992519 0.47599909 -0.11038196
-0.072901934 0.47584486 -0.11100858
-0.057849277 0.47591659 -0.11071676
-0.042794116 0.47600967 -0.11033905
-0.027731681 0.47607946 -0.11005574
-0.012664823 0.4761472 -0.10978097
0.0024062698 0.47621271 -0.10951459
0.017481463 0.47627842 -0.10924816
0.032560758 0.47634405 -0.10898167
0.047644358 0.47641176 -0.10870653
0.062729813 0.47646055 -0.10850871
0.077817313 0.47650298 -0.10833675
0.092948429 0.47676376 -0.10727787
0.10823778 0.47767344 -0.10358495
-0.13393168 0.49377811 -0.099704564
-0.11853073 0.49273735 -0.10380113
-0.10328151 0.4921146 -0.10625261
-0.088121168 0.49177328 -0.10759658
-0.07299915 0.49154806 -0.10848284
-0.05794695 0.49178627 -0.10754496
-0.04287396 0.49195483 -0.10688174
-0.027784662 0.49202263 -0.10661453
-0.012691319 0.49209282 -0.1063388
0.0024062698 0.49216503 -0.10605431
0.017508173 0.492235 -0.10577828
0.032614592 0.49230954 -0.1054849
0.047726724 0.49239725 -0.10513979
0.062845506 0.49249595 -0.10475141
0.077933721 0.4923535 -0.10531241
0.09306632 0.49250242 -0.10472536
0.10836978 0.49341452 -0.10113555
-0.11873493 0.50872236 -0.10048532
-0.10355864 0.50855899 -0.10110962
-0.088309251 0.50792688 -0.10352457
-0.073194653 0.50795859 -0.10340339
-0.058097646 0.50815547 -0.10265094
-0.042979263 0.50824165 -0.1023221
-0.027855014 0.50831419 -0.102045
-0.012726571 0.50838888 -0.1017592
0.0024062698 0.50846148 -0.10148221
0.017543314 0.50853163 -0.10121346
0.032684628 0.50860441 -0.10093611
0.047829408 0.50866789 -0.1006934
0.062979802 0.50874728 -0.10039002
0.078070149 0.50838667 -0.1017679
0.093207717 0.50841391 -0.10166401
-0.119315 -0.53865826 -0.091066003
-0.088978186 -0.53920376 -0.089041531
0.078586675 -0.53939056 -0.08834821
0.093621261 -0.53821516 -0.092710614
0.10895392 -0.53886598 -0.090295315
-0.10377155 -0.53701675 -0.097158432
-0.16534762 -0.52463979 -0.086493969
-0.14976217 -0.52350038 -0.090847075
-0.13426198 -0.52242988 -0.094937027
-0.02789733 -0.52128893 -0.09929657
-0.012747871 -0.52136844 -0.098992586
0.0024062698 -0.52143896 -0.098723292
0.017564088 -0.52149355 -0.098514795
0.032728732 -0.52160954 -0.098071575
0.04788715 -0.52157772 -0.098193347
0.063016683 -0.52131623 -0.099192262
0.093321078 -0.52131164 -0.099209785
0.1085035 -0.52145714 -0.098653853
0.12409358 -0.52329874 -0.091617525
-0.18043481 -0.50894064 -0.088260472
-0.16485082 -0.50789899 -0.092361033
-0.14933193 -0.50686377 -0.096435905
0.12376629 -0.50673783 -0.096931994
0.13948053 -0.50873333 -0.089076638
-0.19579202 -0.49400046 -0.087056816
-0.18016754 -0.4929913 -0.091153622
-0.1646076 -0.49198619 -0.09523356
-0.14911374 -0.4909918 -0.099270463
0.13925965 -0.49271753 -0.092264771
-0.19557497 -0.47823679 -0.089225769
-0.17997852 -0.47728842 -0.093200028
-0.16444314 -0.47633967 -0.097175717
0.13911681 -0.47701958 -0.094326437
-0.21108826 -0.46361601 -0.086590767
-0.19543725 -0.4626897 -0.090601861
-0.17985108 -0.46177113 -0.094579399
-0.16432826 -0.46085826 -0.098532259
0.13903706 -0.46156377 -0.095477521
0.15483333 -0.46340901 -0.0874874
-0.2109831 -0.44814858 -0.087566435
-0.19534262 -0.44725993 -0.09154743
-0.17976972 -0.44638643 -0.095460117
-0.16425766 -0.44551444 -0.099366069
0.13900325 -0.44627354 -0.095965624
0.15479209 -0.44804662 -0.088023365
-0.21092725 -0.43279481 -0.088084757
-0.19529183 -0.43193904 -0.092054963
0.15475693 -0.4327096 -0.088479936
-0.17971982 -0.4310886 -0.096000373
0.13896945 -0.43099099 -0.096453249
-0.21088183 -0.41746908 -0.088506162
-0.19525072 -0.41664609 -0.092465937
-0.17968281 -0.4158282 -0.096401036
0.13894293 -0.41573772 -0.096836329
0.15472856 -0.41739792 -0.088848531
-0.21085818 -0.40219033 -0.088725567
-0.19522797 -0.40139619 -0.09269321
-0.1796611 -0.40060699 -0.096636236
0.13893268 -0.40053734 -0.096984327
0.15471505 -0.4021306 -0.089023888
-0.21084021 -0.38692507 -0.088892341
-0.19520959 -0.38615823 -0.092876732
-0.1796426 -0.38539627 -0.096836329
0.13892181 -0.38533762 -0.097140849
0.1547029 -0.38686928 -0.08918196
-0.21082224 -0.37166232 -0.089059055
-0.19519822 -0.37093604 -0.092990279
-0.17963938 -0.37021908 -0.096871138
0.13891156 -0.37014183 -0.097288907
0.15469141 -0.37161213 -0.089331031
-0.21081468 -0.35641932 -0.089129269
-0.19519474 -0.35572952 -0.093025327
-0.17963617 -0.3550424 -0.096906006
0.13890313 -0.35495305 -0.097410738
0.15468399 -0.35636646 -0.089427531
-0.21081468 -0.34118918 -0.089129329
-0.19519384 -0.34052798 -0.09303391
-0.17963456 -0.33986926 -0.096923411
0.13890795 -0.33979851 -0.097341061
0.15468535 -0.34114173 -0.089409888
-0.21081753 -0.32596338 -0.089102983
-0.19519648 -0.32533219 -0.093007743
0.15469007 -0.32592374 -0.089348495
-0.17963696 -0.32470345 -0.096897244
0.13891216 -0.3246415 -0.097280145
-0.21082132 -0.31073859 -0.089067817
-0.1951991 -0.31013596 -0.092981637
-0.17963938 -0.30953714 -0.096871197
0.13891578 -0.30948219 -0.09722805
0.1546948 -0.3107048 -0.089287162
-0.2108251 -0.29551312 -0.089032769
-0.1952026 -0.29494071 -0.092946649
-0.1796426 -0.29437175 -0.096836329
0.13892001 -0.29432344 -0.097167075
0.15469952 -0.2954849 -0.089225769
-0.21082793 -0.28028601 -0.089006424
-0.19520609 -0.27974492 -0.092911601
-0.179645 -0.2792047 -0.096810222
0.13892362 -0.27916238 -0.097114861
0.15470357 -0.28026289 -0.089173019
-0.21083172 -0.26505956 -0.088971257
-0.19520873 -0.26454729 -0.092885494
-0.17964824 -0.26403823 -0.096775472
0.13892484 -0.26399615 -0.097097397
0.15470764 -0.26504007 -0.089120448
-0.2108355 -0.24983262 -0.088936269
-0.19521222 -0.24935053 -0.092850447
-0.17965063 -0.24887027 -0.096749306
0.13893026 -0.24883707 -0.097019136
0.15471168 -0.24981636 -0.089067876
-0.21083833 -0.23460405 -0.088909924
-0.19521572 -0.23415309 -0.092815578
-0.17965387 -0.23370293 -0.096714437
0.13893567 -0.2336767 -0.096940875
0.1547164 -0.23459294 -0.089006484
-0.21084212 -0.21937609 -0.088874817
-0.19521834 -0.21895422 -0.092789352
0.15472044 -0.21936762 -0.088953793
-0.17965707 -0.21853495 -0.096679688
0.1389405 -0.21851435 -0.096871257
-0.21084495 -0.20414668 -0.088848531
-0.19522184 -0.2037558 -0.092754364
-0.17966028 -0.20336647 -0.096644819
0.13894594 -0.20335169 -0.096792817
0.15472451 -0.20414144 -0.088901222
-0.21084873 -0.18891773 -0.088813424
-0.19522533 -0.18855694 -0.092719436
-0.17966351 -0.18819749 -0.09661001
0.13895136 -0.18818785 -0.096714437
0.15472925 -0.18891531 -0.08883965
-0.21085252 -0.17368822 -0.088778257
-0.19522884 -0.17335743 -0.092684388
-0.17966673 -0.17302805 -0.096575141
0.13895558 -0.17302133 -0.096653521
0.15473464 -0.17368892 -0.088769555
-0.21085629 -0.15845814 -0.08874315
-0.19523233 -0.15815744 -0.09264946
-0.17966993 -0.15785792 -0.096540391
0.13895558 -0.15784919 -0.096653521
0.15474072 -0.15846223 -0.088690519
-0.21086101 -0.14322811 -0.088699341
-0.19523583 -0.14295687 -0.092614472
-0.17967317 -0.14268729 -0.096505523
0.13896041 -0.14268185 -0.096583962
0.15474275 -0.14323057 -0.088664174
-0.2108648 -0.12799686 -0.088664234
-0.19524021 -0.12775637 -0.092570782
-0.17967637 -0.1275162 -0.096470714
0.13896464 -0.12751296 -0.096522987
0.15474749 -0.12800071 -0.088602722
-0.21086858 -0.11276513 -0.088629067
-0.1952437 -0.11255458 -0.092535913
0.15475288 -0.11277035 -0.088532567
-0.17967959 -0.1123445 -0.096435905
0.13896826 -0.11234266 -0.096470714
-0.21087237 -0.097532921 -0.08859396
-0.1952472 -0.097352386 -0.092500925
-0.17968361 -0.097172685 -0.096392274
0.13897187 -0.097171456 -0.09641856
0.15475762 -0.09753859 -0.088471115
-0.21087615 -0.08230003 -0.088558793
-0.19525072 -0.082149677 -0.092465937
-0.17968763 -0.082000233 -0.096348763
0.13897549 -0.081999496 -0.096366286
0.15476236 -0.082305737 -0.088409722
-0.21087994 -0.067066669 -0.088523686
-0.19525421 -0.066946328 -0.09243089
-0.17969166 -0.066827044 -0.096305251
0.1389785 -0.066826545 -0.096322656
0.15476708 -0.067072116 -0.08834821
-0.21088372 -0.051832728 -0.088488638
-0.19525859 -0.051742706 -0.092387199
-0.17969488 -0.051653102 -0.096270382
0.13898213 -0.051653102 -0.096270382
0.1547718 -0.051837403 -0.088286698
-0.21088751 -0.036598295 -0.088453472
-0.19526209 -0.036538236 -0.092352271
-0.1796989 -0.036478553 -0.096226931
0.13898575 -0.036478788 -0.096218109
0.15477654 -0.0366018 -0.088225305
-0.21089225 -0.021363365 -0.088409543
-0.19526647 -0.021333324 -0.092308521
-0.17970292 -0.021303464 -0.09618336
0.13899058 -0.02130376 -0.096148431
0.15478128 -0.021365246 -0.088163853
-0.19527082 -0.0061277812 -0.092264712
-0.21089603 -0.0061277021 -0.088374615
-0.17970695 -0.0061277417 -0.096139729
0.1389948 -0.0061277417 -0.096087515
0.15478601 -0.0061277021 -0.088102281
-0.21090075 0.009108495 -0.088330686
-0.1952752 0.0090785548 -0.092221022
-0.17971097 0.0090487134 -0.096096158
0.13899902 0.0090492684 -0.09602654
0.15479073 0.0091106743 -0.088040829
-0.21090548 0.024345327 -0.088286698
-0.19527958 0.024285445 -0.092177331
-0.17971417 0.024225663 -0.096061289
0.13900386 0.024227269 -0.095956862
0.15479547 0.024350142 -0.087979436
-0.21090926 0.039582692 -0.088251591
-0.19528309 0.039492931 -0.092142403
-0.1797182 0.039403386 -0.096017778
0.13900867 0.039406419 -0.095887125
0.15480019 0.039590459 -0.087917864
-0.210914 0.054820891 -0.088207781
-0.19528747 0.05470109 -0.092098653
-0.17972225 0.054581743 -0.095974147
0.13901351 0.054586638 -0.095817447
0.15480494 0.054831769 -0.087856472
-0.21091779 0.070059463 -0.088172674
-0.19529095 0.069909625 -0.092063606
-0.17972545 0.069760397 -0.095939398
0.13901834 0.069767848 -0.09574765
0.15480967 0.070073947 -0.0877949
-0.21092252 0.085298948 -0.088128746
-0.19529533 0.08511921 -0.092019975
-0.17972948 0.084940135 -0.095895827
0.13902317 0.084950186 -0.095677972
0.15481441 0.085317083 -0.087733388
-0.17973271 0.10012 -0.095861077
0.139028 0.10013364 -0.095608294
-0.21092631 0.10053857 -0.08809346
-0.19529885 0.10032891 -0.091984987
0.15481913 0.10056128 -0.087671936
-0.21093105 0.11577925 -0.088049591
-0.19530322 0.11553963 -0.091941178
-0.17973673 0.11530092 -0.095817387
0.13903284 0.11531816 -0.095538616
0.15482387 0.11580633 -0.087610424
-0.21093483 0.13102008 -0.088014543
-0.19530672 0.13075046 -0.09190619
-0.17973994 0.13048194 -0.095782578
0.13903646 0.13050246 -0.095486343
0.15482862 0.13105235 -0.087548852
-0.21093954 0.14626212 -0.087970555
-0.19531108 0.14596254 -0.09186244
-0.17974396 0.14566413 -0.095739067
0.13904008 0.14568762 -0.09543401
0.15483402 0.1463 -0.087478697
-0.21094428 0.16150491 -0.087926686
-0.1953146 0.16117449 -0.091827393
-0.17974719 0.16084629 -0.095704138
0.1390437 0.16087359 -0.095381677
0.15484078 0.16155018 -0.087390721
-0.21094806 0.17674743 -0.087891519
-0.19531898 0.17638789 -0.091783762
-0.1797504 0.17602895 -0.09566927
0.13904974 0.17606363 -0.095294535
0.15484686 0.176801 -0.087311685
-0.2109528 0.1919914 -0.08784771
-0.19532248 0.19160105 -0.091748655
-0.17975442 0.191213 -0.095625758
-0.16424735 0.19082655 -0.099487603
0.13905577 0.19125494 -0.095207334
0.15485296 0.19205287 -0.08723253
-0.17975765 0.20639683 -0.095590889
-0.16425031 0.20598058 -0.099452734
0.13906121 0.20644663 -0.095128834
-0.21095659 0.20723517 -0.087812483
-0.19532686 0.20681563 -0.091704905
0.15485904 0.20730615 -0.087153435
-0.21096133 0.22248043 -0.087768614
-0.19533035 0.22202986 -0.091669917
-0.17976168 0.22158219 -0.095547318
-0.16425398 0.22113618 -0.099409461
0.13906665 0.22163959 -0.095050395
0.15486515 0.22256051 -0.08707428
-0.21096607 0.23772638 -0.087724626
-0.19533473 0.23724581 -0.091626227
-0.17976491 0.2367672 -0.09551245
-0.16425693 0.23629147 -0.099374771
0.13907209 0.23683374 -0.094971895
0.15487123 0.23781618 -0.086995244
-0.21096985 0.25297183 -0.087689459
-0.19533911 0.25246236 -0.091582537
-0.17976893 0.25195381 -0.095468819
-0.1642606 0.25144833 -0.09933126
0.13907512 0.2520245 -0.094928324
0.15487732 0.2530731 -0.086916208
-0.21097457 0.26821908 -0.08764565
-0.19534262 0.26767844 -0.091547489
-0.17977296 0.26714116 -0.095425308
-0.16426353 0.26660469 -0.09929657
0.13907512 0.26720989 -0.094928265
0.15488137 0.26832747 -0.086863458
-0.21097836 0.28346568 -0.087610364
-0.195347 0.28289631 -0.091503739
-0.17977616 0.28232774 -0.095390439
-0.16426721 0.28176281 -0.099253237
0.13907875 0.28240302 -0.094875932
0.15488137 0.283575 -0.086863399
-0.2109831 0.29871419 -0.087566495
-0.1953505 0.29811338 -0.091468632
-0.1797802 0.29751638 -0.095346808
-0.16427015 0.29692033 -0.099218428
0.13908599 0.29760492 -0.094771206
0.15488882 0.29883736 -0.086766601
-0.17978342 0.31270424 -0.09531194
-0.16427383 0.31207973 -0.099175036
0.13909566 0.31281421 -0.094631732
-0.21098879 0.31396484 -0.087513864
-0.19535488 0.31333259 -0.091425002
0.15489966 0.31410837 -0.086625874
-0.21099921 0.32922375 -0.087417126
-0.19536451 0.32856134 -0.091328681
-0.17979066 0.32789999 -0.09523356
-0.16427825 0.32724124 -0.099122882
0.13910472 0.32802406 -0.094500899
0.15490913 0.32937858 -0.08650279
-0.21100961 0.34448412 -0.087320447
-0.19537415 0.34379143 -0.091232419
-0.17979953 0.34309998 -0.095137656
-0.16428779 0.34241435 -0.099009991
0.13911198 0.34323138 -0.094396234
0.1549166 0.34464598 -0.086406112
-0.21102004 0.35974586 -0.087223828
-0.19538289 0.35902151 -0.0911448
-0.1798092 0.3583031 -0.09503293
-0.1642981 0.35759094 -0.098888338
0.13912165 0.35844663 -0.09425658
0.15492472 0.35991651 -0.086300552
-0.21103045 0.37500927 -0.087127149
-0.19539429 0.37425795 -0.091031015
-0.17982046 0.37351131 -0.09491086
-0.16430838 0.37276921 -0.098766685
0.13913134 0.37366408 -0.094116926
-0.21104752 0.39028645 -0.086968839
-0.19541007 0.38950497 -0.09087348
-0.17983416 0.38872659 -0.094762504
-0.16431943 0.3879512 -0.098636508
0.13914162 0.38888547 -0.093968511
-0.21108162 0.40559885 -0.086652339
-0.19544074 0.40478536 -0.090566874
-0.17986238 0.40397665 -0.094457328
-0.16434518 0.4031713 -0.098332345
0.13915856 0.40412915 -0.093724072
-0.1798922 0.41923538 -0.094134331
-0.16437316 0.41840178 -0.098002017
-0.21111859 0.42092201 -0.086309254
-0.1954723 0.42007229 -0.090251446
0.13919485 0.41943681 -0.093199968
-0.19553107 0.43542483 -0.08966428
-0.17994381 0.43455163 -0.093575597
-0.16441733 0.43367994 -0.097480178
0.13923119 0.43475255 -0.092675686
-0.19559252 0.45079252 -0.089050293
-0.1799995 0.44988665 -0.092972875
-0.16446891 0.44898632 -0.096871138
0.13926752 0.45007655 -0.092151105
-0.19572343 0.46633533 -0.087742209
-0.1801158 0.46538764 -0.091713667
-0.16457067 0.46444374 -0.095669329
0.12366399 0.46374595 -0.098592997
0.13934149 0.46553805 -0.091083467
-0.19587035 0.4819378 -0.086274087
-0.18025088 0.48095801 -0.090251446
-0.16469327 0.47998002 -0.094221592
-0.14920002 0.47901237 -0.098149717
0.12375021 0.47924802 -0.097193122
0.13942586 0.48105305 -0.089865804
-0.18049891 0.49686161 -0.087566495
-0.16491304 0.49583027 -0.091626227
-0.14939162 0.49480531 -0.095660627
0.12389559 0.49501571 -0.094832301
0.13962838 0.49702004 -0.086942434
-0.16518764 0.51188987 -0.088383257
-0.14961872 0.51075721 -0.092710614
-0.13414244 0.50972295 -0.096662223
0.10857236 0.50953627 -0.09737581
0.12410274 0.51108241 -0.091468692
0.078365982 0.5255903 -0.094081998
0.093487822 0.52518135 -0.095599473
-0.134637 0.52681828 -0.089523911
-0.11917497 0.52579027 -0.093339741
-0.10411022 0.52645469 -0.09087348
-0.088779256 0.52578789 -0.093348503
-0.073601514 0.52592677 -0.092832983
-0.058426075 0.52615523 -0.091984868
-0.043225866 0.5262472 -0.091643691
-0.02802014 0.52633446 -0.091319919
-0.01280936 0.5264194 -0.091004729
0.0024062698 0.52650183 -0.090698183
0.017626755 0.52658927 -0.090374172
0.032851286 0.52666014 -0.090111256
0.048081081 0.5267452 -0.089795709
0.063258283 0.52632743 -0.091346085
0.10887324 0.52620715 -0.091792345
0.093879558 0.54271209 -0.087118268
-0.16632979 -0.54301518 -0.074895263
-0.15061429 -0.54169965 -0.079777718
-0.13496035 -0.54033124 -0.084856629
-0.073964857 -0.54072565 -0.083393037
-0.058706123 -0.54086119 -0.082889974
-0.043437611 -0.54097289 -0.082475007
-0.028162437 -0.54108006 -0.082077503
-0.012880532 -0.54116577 -0.081759453
0.0024062698 -0.5412634 -0.081396937
0.017698787 -0.54136586 -0.081016719
0.032989129 -0.54132771 -0.08115828
0.048243213 -0.54089206 -0.082775235
0.063441023 -0.5401817 -0.085411608
0.12470231 -0.54117292 -0.081732869
-0.21253397 -0.52812541 -0.073176205
-0.19673605 -0.52696151 -0.077623487
-0.18100677 -0.52579796 -0.082068741
0.13990302 -0.52555996 -0.082978249
0.15588218 -0.52794588 -0.073862433
-0.22757435 -0.51208514 -0.075882494
-0.21179579 -0.51103252 -0.080025733
-0.19608364 -0.5099867 -0.084142745
0.15534917 -0.51083922 -0.080786705
-0.24307075 -0.49708176 -0.074548125
-0.22723609 -0.49603149 -0.078812003
-0.21148139 -0.49501377 -0.082943022
0.15509827 -0.49474218 -0.084045708
0.1710926 -0.49685162 -0.075482488
-0.24277288 -0.48116237 -0.076966584
-0.22696312 -0.48015782 -0.081175983
-0.21123433 -0.47918907 -0.085235417
0.1549308 -0.47895378 -0.086221397
0.17088349 -0.48092723 -0.077951789
-0.25846201 -0.4664835 -0.074174166
-0.242598 -0.46551073 -0.078386486
-0.22681007 -0.46456042 -0.082501531
0.17078213 -0.46533465 -0.079148829
-0.2583397 -0.45092964 -0.075108886
-0.24246372 -0.4499546 -0.079476595
-0.22669183 -0.44905072 -0.083525419
0.1707184 -0.44985965 -0.079901755
-0.2582908 -0.43551108 -0.075482488
-0.24239282 -0.43452612 -0.080052316
-0.22662665 -0.43365589 -0.084089875
0.17068091 -0.4344632 -0.080344319
-0.25824076 -0.42009652 -0.075864792
-0.24233177 -0.4191232 -0.08054781
0.17064793 -0.41908449 -0.080733776
-0.22657473 -0.41829354 -0.084539413
-0.25819305 -0.40469149 -0.076229215
-0.24231108 -0.40379348 -0.080715954
-0.22655235 -0.40298936 -0.084733307
0.17062996 -0.40374738 -0.080945969
-0.25815237 -0.38930225 -0.076540172
-0.24229036 -0.38846618 -0.080884099
-0.22653404 -0.38769487 -0.084891915
0.17061497 -0.38842025 -0.081122875
0.18665887 -0.38998735 -0.072980106
-0.25814423 -0.37396374 -0.076602459
-0.2422751 -0.37314981 -0.081007898
-0.22651473 -0.37240136 -0.085059285
0.1706015 -0.37309915 -0.08128202
0.18664983 -0.3746148 -0.073078156
-0.25814191 -0.35863405 -0.076620221
-0.24226314 -0.35784 -0.081105173
-0.22649743 -0.35711333 -0.085209072
0.17060076 -0.35780716 -0.081290841
0.18664899 -0.35925964 -0.073087037
-0.25814074 -0.34330627 -0.076629043
-0.24225333 -0.34253466 -0.081184804
-0.22649743 -0.34185317 -0.085209012
0.1706 -0.3425152 -0.081299722
0.18664818 -0.34390455 -0.073096037
-0.25813842 -0.327977 -0.076646864
-0.24225114 -0.32724065 -0.081202447
-0.22650148 -0.32659864 -0.085173726
0.1706045 -0.32723343 -0.081246614
0.18664983 -0.32855397 -0.073078156
-0.25813958 -0.31265232 -0.076637924
0.18665476 -0.31320858 -0.07302469
-0.24225442 -0.31195363 -0.081175923
-0.22650556 -0.31134349 -0.085138559
0.17060974 -0.31195223 -0.081184745
-0.25814655 -0.29733381 -0.076584697
-0.24225877 -0.29666743 -0.081140637
-0.22650862 -0.29608664 -0.085112095
0.17061423 -0.29666877 -0.081131756
0.18665971 -0.29786241 -0.072971165
-0.25815353 -0.28201458 -0.07653141
-0.24226314 -0.28138077 -0.081105232
-0.22651269 -0.28083047 -0.085076928
0.17061873 -0.28138456 -0.081078649
-0.25815934 -0.26669335 -0.076486886
-0.2422664 -0.26609248 -0.081078649
-0.22651573 -0.2655727 -0.085050464
0.17062323 -0.26609942 -0.081025541
-0.25816515 -0.25137141 -0.076442599
-0.24227077 -0.25080475 -0.081043303
-0.22651979 -0.25031555 -0.085015178
0.17062847 -0.25081453 -0.080963731
-0.25816983 -0.23604785 -0.076406896
-0.2422751 -0.23551653 -0.081007898
-0.22652388 -0.23505785 -0.084979951
0.17063296 -0.23552771 -0.080910623
-0.25817561 -0.22072463 -0.076362491
-0.24228056 -0.22022869 -0.080963731
-0.22652693 -0.2197987 -0.084953547
0.17063744 -0.22024015 -0.080857575
-0.25818029 -0.20539986 -0.076327026
-0.242286 -0.20494026 -0.080919385
-0.22653098 -0.20454001 -0.084918261
0.17064194 -0.20495176 -0.080804467
-0.25818494 -0.19007438 -0.076291442
-0.24229145 -0.18965104 -0.080875158
-0.22653505 -0.18928082 -0.084883034
0.1706472 -0.18966326 -0.080742538
-0.25819075 -0.17474934 -0.076247096
-0.2422969 -0.17436111 -0.080830991
-0.22653811 -0.17402025 -0.084856749
0.17065243 -0.17437392 -0.080680549
-0.25819656 -0.15942352 -0.076202512
-0.24230126 -0.1590699 -0.080795586
-0.22654319 -0.15876073 -0.084812522
0.17065693 -0.15908284 -0.080627501
-0.25820237 -0.14409703 -0.076158166
-0.24230562 -0.1437782 -0.080760241
-0.22654727 -0.14349982 -0.084777415
0.17066218 -0.14379162 -0.080565572
-0.25820702 -0.12876928 -0.076122522
-0.24231108 -0.12848637 -0.080716014
-0.22655134 -0.12823841 -0.084742129
0.17066742 -0.12849946 -0.080503702
-0.25821167 -0.11344101 -0.076086938
-0.24231543 -0.11319352 -0.080680549
-0.22655541 -0.11297652 -0.084706903
0.17067342 -0.11320679 -0.080432892
-0.25821748 -0.098112591 -0.076042533
-0.24231979 -0.097900011 -0.080645204
-0.22655948 -0.097714067 -0.084671557
0.17067866 -0.097912654 -0.080370843
-0.25822333 -0.082783483 -0.075998187
-0.24232523 -0.082606331 -0.080600977
-0.22656354 -0.082451001 -0.08463645
0.17068392 -0.082617566 -0.080309033
-0.25822914 -0.067453735 -0.075953662
-0.2423296 -0.067311779 -0.080565512
-0.22656763 -0.067187481 -0.084601104
0.17068915 -0.067321569 -0.080246925
-0.25823379 -0.052123096 -0.075918078
-0.24233505 -0.052016728 -0.080521405
-0.22657169 -0.051923361 -0.084565878
0.1706944 -0.052024476 -0.080184996
-0.2582396 -0.036791988 -0.075873613
-0.2423394 -0.03672095 -0.08048594
-0.22657678 -0.03665885 -0.08452177
0.17069966 -0.036726557 -0.080123007
-0.25824425 -0.02146014 -0.075838089
-0.24234377 -0.021424633 -0.080450475
-0.22658084 -0.021393523 -0.084486485
0.1707049 -0.021427644 -0.080061018
-0.25824776 -0.0061277021 -0.075811446
-0.24234921 -0.0061277216 -0.080406368
-0.22658493 -0.0061277021 -0.084451318
0.17071015 -0.0061277021 -0.079999208
-0.25825241 0.0092051327 -0.075775862
-0.24235357 0.0091698226 -0.080370903
-0.22658898 0.0091385953 -0.084415972
0.17071538 0.0091730524 -0.0799371
-0.25825703 0.024538543 -0.075740218
-0.24235903 0.024467923 -0.080326617
-0.22659306 0.024405565 -0.084380865
0.17072064 0.024474898 -0.079875231
-0.25826055 0.039872251 -0.075713575
-0.24236338 0.039766539 -0.080291271
-0.22659814 0.039673127 -0.084336758
0.17072588 0.039777596 -0.079813123
-0.25826636 0.055206988 -0.07566911
-0.24236883 0.055066064 -0.080246925
-0.22660223 0.05494123 -0.084301412
0.17073114 0.0550813 -0.079751194
-0.25826868 0.070541367 -0.075651407
-0.24237318 0.070365861 -0.08021158
-0.22660732 0.070210136 -0.084257424
0.17073639 0.070385978 -0.079689205
-0.25826985 0.08587563 -0.075642467
-0.24237864 0.085666597 -0.080167353
-0.22661138 0.085479386 -0.084222198
0.17074163 0.085691504 -0.079627156
-0.25827217 0.1012104 -0.075624645
-0.24238302 0.10096753 -0.080131888
-0.22661647 0.10074963 -0.08417809
0.17074689 0.10099815 -0.079565227
-0.25827685 0.11654665 -0.07558912
-0.24238738 0.1162691 -0.080096543
-0.22662055 0.1160199 -0.084142745
0.17075214 0.1163056 -0.079503238
-0.25828499 0.13188528 -0.075526834
-0.24239282 0.13157177 -0.080052197
-0.22662565 0.13129139 -0.084098577
0.1707574 0.1316141 -0.07944119
-0.25829196 0.14722419 -0.075473487
-0.24239719 0.14687438 -0.080016792
-0.22663072 0.1465636 -0.084054589
0.17076264 0.1469235 -0.079379141
-0.25830013 0.16256459 -0.075411201
-0.24240154 0.16217761 -0.079981446
-0.2266348 0.1618357 -0.084019244
0.17076789 0.16223387 -0.079317153
-0.2583071 0.17790522 -0.075357914
-0.24240591 0.17748141 -0.079945982
-0.2266399 0.17710918 -0.083975255
0.17077315 0.17754519 -0.079255104
-0.25831291 0.19324578 -0.075313389
-0.24241026 0.19278567 -0.079910517
-0.22664395 0.19238244 -0.08393991
0.17077839 0.1928575 -0.079193056
-0.25831759 0.20858604 -0.075277865
-0.24241462 0.20809054 -0.079875052
-0.22664905 0.20765722 -0.083895802
0.17078516 0.20817266 -0.079113364
-0.25832108 0.22392581 -0.075251162
-0.24242009 0.22339697 -0.079830766
-0.22665414 0.22293264 -0.083851695
0.17079191 0.22348902 -0.079033554
-0.25832573 0.23926711 -0.075215578
-0.24242555 0.2387041 -0.079786599
-0.22665823 0.2382078 -0.083816528
0.17079864 0.23880664 -0.078953803
-0.25833037 0.25460893 -0.075179994
-0.2424299 0.25401068 -0.079751194
-0.22666331 0.25348446 -0.083772361
0.17080541 0.25412551 -0.078874111
-0.25833502 0.26995125 -0.07514441
-0.24243535 0.26931906 -0.079706848
-0.22666737 0.26876068 -0.083737075
0.17081216 0.26944554 -0.078794181
-0.25833851 0.28529295 -0.075117707
-0.24244082 0.28462818 -0.079662561
-0.22667247 0.28403872 -0.083693027
0.17081816 0.28476551 -0.078723311
-0.22667758 0.29931742 -0.08364892
-0.25834087 0.30063355 -0.075099885
-0.24244517 0.29993656 -0.079627216
0.17082042 0.30007976 -0.078696728
-0.25834435 0.31597599 -0.075073183
-0.2424528 0.3152498 -0.079565167
-0.22668572 0.31460103 -0.083578348
0.17083243 0.31541312 -0.078554928
-0.25835717 0.33133075 -0.074975371
-0.242467 0.33057311 -0.079450011
-0.22669795 0.3298918 -0.08347255
0.17084144 0.33074257 -0.078448534
-0.25836998 0.3466872 -0.074877441
-0.24248554 0.34590417 -0.07929939
-0.22671118 0.3451857 -0.083357751
0.17085046 0.34607372 -0.078342021
-0.2583828 0.36204505 -0.07477957
-0.24250409 0.36123788 -0.079148829
-0.22672546 0.36048302 -0.083234251
0.17085871 0.36140484 -0.078244507
-0.25839794 0.37740776 -0.074663877
-0.24252266 0.37657371 -0.078998029
-0.22674176 0.37578562 -0.083093047
0.15493555 0.37519541 -0.086159766
0.17086773 0.3767392 -0.078138053
-0.25842354 0.39278844 -0.074468017
-0.24254011 0.39191017 -0.078856409
-0.22675908 0.39109227 -0.082942963
0.15494706 0.39047831 -0.086010218
0.17088726 0.39210007 -0.077907503
0.15496942 0.4057928 -0.085719645
-0.25848183 0.40822399 -0.07402271
-0.2425696 0.40726909 -0.078616977
-0.22679272 0.40643048 -0.082651556
0.17091505 0.40748471 -0.077579141
-0.25854012 0.42366633 -0.073577225
-0.2426395 0.42270237 -0.078049481
-0.22684576 0.42180935 -0.082192421
0.15500127 0.42113829 -0.08530587
0.17094813 0.42288792 -0.077188432
-0.2586031 0.43912351 -0.073095977
-0.24270836 0.43814251 -0.077490389
-0.22691309 0.43722302 -0.08160913
-0.21118593 0.43631321 -0.085684538
0.15504467 0.43652368 -0.084742129
0.17099851 0.43834272 -0.076593518
-0.24278381 0.45360363 -0.076877773
-0.22698662 0.45265806 -0.080972493
-0.21125522 0.45171836 -0.085041583
0.15508878 0.45191979 -0.084169269
0.17104968 0.45380881 -0.075989187
-0.2429502 0.46925044 -0.075526834
-0.22713786 0.46826354 -0.079662561
-0.21139391 0.467287 -0.083754778
0.15517502 0.46745539 -0.08304882
0.17115438 0.46943507 -0.074752808
-0.24314204 0.48496893 -0.073969245
-0.22729956 0.48391137 -0.078262329
-0.21155277 0.48292136 -0.082280695
0.155277 0.48305857 -0.081724107
0.17128561 0.48515761 -0.073203027
-0.21186356 0.49893686 -0.079396904
-0.19614805 0.49789479 -0.083498836
0.15553051 0.49918231 -0.078430831
-0.22764418 0.49998328 -0.075277805
-0.21230173 0.51530606 -0.075331211
-0.19652931 0.51416546 -0.079689205
-0.18082495 0.51302749 -0.084037006
0.13991098 0.51333457 -0.08286345
0.15589316 0.51572782 -0.073719859
-0.18149287 0.53024471 -0.076806724
-0.16579795 0.52906758 -0.081175923
-0.15017585 0.52790976 -0.085473239
0.1245691 0.52833468 -0.083895922
0.14045934 0.53074539 -0.074948549
-0.1356727 0.54618818 -0.074574769
0.063721023 0.54570508 -0.076318085
0.078793362 0.54385942 -0.082978249
0.10944627 0.5443638 -0.081158102
0.079352237 -0.5601387 -0.068458259
-0.19803402 -0.5457747 -0.064653456
-0.18214002 -0.5443877 -0.069800913
0.14067115 -0.54382437 -0.071891785
0.15680388 -0.54651934 -0.06188947
-0.26032358 -0.53158736 -0.059949279
-0.24434374 -0.5304715 -0.064212739
-0.22840577 -0.5293017 -0.068682194
0.17201416 -0.53037024 -0.064599454
-0.2755419 -0.51569939 -0.061655045
-0.25938714 -0.51431489 -0.067104995
-0.24345732 -0.51322138 -0.071409583
