ply
format ascii 1.0
comment PCL generated
element vertex 1374
property float x
property float y
property float z
element camera 0
property float view_px
property float view_py
property float view_pz
property float x_axisx
property float x_axisy
property float x_axisz
property float y_axisx
property float y_axisy
property float y_axisz
property float z_axisx
property float z_axisy
property float z_axisz
property float focal
property float scalex
property float scaley
property float centerx
property float centery
property int viewportx
property int viewporty
property float k1
property float k2
end_header
0.30760962 -0.36223394 0.0028634667
0.30758411 -0.34692836 0.0026977062
0.30756569 -0.33163264 0.0025780201
0.30754724 -0.31633896 0.002458334
0.30753168 -0.3010498 0.0023571253
0.3075189 -0.28576475 0.0022742748
0.30750901 -0.2704832 0.0022097826
0.30749765 -0.25520173 0.0021361709
0.30748633 -0.2399213 0.0020626187
0.3074764 -0.2246431 0.0019981265
0.30746508 -0.20936476 0.0019245148
0.30745375 -0.19408777 0.0018509626
0.30744383 -0.17881262 0.0017865896
0.3074325 -0.16353773 0.0017129779
0.30742258 -0.14826457 0.0016485453
0.30741125 -0.13299194 0.0015749335
0.30739993 -0.11772038 0.0015013814
0.30739003 -0.10245044 0.0014371276
0.30737868 -0.087180972 0.0013635159
0.30736738 -0.071912795 0.0012899041
0.30735746 -0.056645911 0.0012256503
0.30734614 -0.041379895 0.0011520982
0.30733481 -0.026115023 0.0010784864
0.30732492 -0.010851196 0.0010141134
0.30731499 0.0044115307 0.00094985962
0.3073037 0.019673251 0.00087630749
0.30729377 0.034933906 0.00081193447
0.30728388 0.050193727 0.00074756145
0.30727255 0.065452091 0.00067406893
0.30726266 0.080709688 0.00060981512
0.30725273 0.095966414 0.00054550171
0.30724144 0.1112216 0.00047183037
0.30723155 0.12647617 0.00040769577
0.30722165 0.14172982 0.00034326315
0.30721033 0.1569818 0.00026983023
0.30719903 0.17223246 0.00019645691
0.30718771 0.18748207 0.00012290478
0.30717638 0.20273064 4.9412251e-05
0.30716509 0.21797794 -2.4020672e-05
0.30715376 0.23322423 -9.7513199e-05
0.30714104 0.24846809 -0.00018006563
0.30712974 0.26371208 -0.00025355816
0.30711985 0.27895612 -0.00031781197
0.30711418 0.29420352 -0.00035458803
0.30710995 0.30945176 -0.00038218498
0.30710569 0.32469964 -0.00040960312
0.30710146 0.33994707 -0.00043708086
0.3070958 0.35519242 -0.00047379732
0.30709156 0.37043893 -0.00050133467
0.30710995 0.38571438 -0.00038206577
0.30713397 0.40099943 -0.0002259016
0.30717638 0.41631249 4.9412251e-05
0.30723578 0.43165439 0.00043523312
0.30735746 0.44709569 0.0012256503
0.30751184 0.4625999 0.0022283196
-0.3327902 0.47620285 -0.0045498013
0.30781677 0.47836047 0.0042088628
-0.3332071 0.49204868 -0.0020880103
0.29123312 0.4913978 -0.0046502948
-0.33403164 0.50856233 0.0027806163
0.29200923 0.50800622 0.0006557107
0.27647269 0.52273005 -0.0013362169
-0.3367213 -0.53442156 0.018662393
0.29345173 -0.51695347 0.010518134
-0.35186052 -0.50326169 0.01719445
0.30937797 -0.50256073 0.014348924
-0.35119846 -0.48698148 0.013455153
0.30866387 -0.48608807 0.0097110868
-0.35082805 -0.47113931 0.011363029
0.30832732 -0.47025296 0.0075250268
0.32544571 -0.47283149 0.018690407
0.32516158 -0.45703983 0.016932964
-0.35065547 -0.45557874 0.010388255
-0.35056347 -0.44013137 0.009868741
0.32497597 -0.44140649 0.015784681
-0.35048631 -0.42470932 0.0094329119
0.32486141 -0.42588219 0.015075862
-0.35043383 -0.40932187 0.0091363192
0.32479057 -0.41042298 0.014637768
-0.35039771 -0.39395684 0.0089324713
0.32471979 -0.3949706 0.014199972
-0.35036162 -0.37859496 0.0087285638
0.32467911 -0.37955931 0.0139485
-0.35032389 -0.36323458 0.0085154772
0.32464752 -0.36416188 0.013752878
-0.35030916 -0.34789947 0.0084321499
0.32462043 -0.34877217 0.013585389
-0.35029605 -0.33256713 0.0083580613
0.32460085 -0.33339256 0.013464272
-0.35028291 -0.31723583 0.0082839727
0.3245813 -0.31801483 0.013343394
-0.35028291 -0.30191672 0.0082839727
0.32456326 -0.30264029 0.013231635
-0.35028127 -0.28659609 0.008274734
0.32455119 -0.28727269 0.013157248
-0.35027963 -0.27127576 0.0082654357
0.32453915 -0.27190614 0.013082802
-0.35026979 -0.25594983 0.0082100034
0.32452717 -0.25654081 0.013008356
-0.3502616 -0.24062583 0.0081637502
0.32451659 -0.2411778 0.012943327
-0.35025176 -0.22530155 0.008108139
0.32450461 -0.22581463 0.012868881
-0.35024521 -0.20997994 0.0080711246
0.32449254 -0.21045263 0.012794435
-0.35024193 -0.19466069 0.0080525875
0.3244805 -0.1950918 0.012719989
-0.35023865 -0.17934166 0.0080341101
0.32446852 -0.17973208 0.012645602
-0.35024193 -0.16402572 0.0080525279
0.324458 -0.16437431 0.012580514
-0.35024685 -0.14871018 0.0080803037
0.32444596 -0.14901686 0.012506127
-0.35024193 -0.13339083 0.0080525875
0.32443392 -0.13366053 0.012431741
-0.35023046 -0.11806989 0.0079877973
0.32442191 -0.11830536 0.012357354
-0.35022062 -0.10275035 0.0079323053
0.32441139 -0.10295177 0.012292266
-0.35021242 -0.087432072 0.0078860521
0.32439935 -0.087598853 0.012217939
-0.35020751 -0.072114974 0.0078581572
0.32438734 -0.072246991 0.012143493
-0.35020423 -0.056798611 0.0078396797
0.32437682 -0.056896616 0.012078464
-0.35019934 -0.041482419 0.0078119636
0.32436481 -0.041546978 0.012004077
-0.35020098 -0.026166894 0.0078211427
0.32435429 -0.02619865 0.011939049
-0.35020423 -0.010851253 0.0078396797
0.32434225 -0.010851253 0.011864662
-0.35020259 0.0044644829 0.007830441
0.32433024 0.0044950237 0.011790395
-0.35019276 0.01977944 0.0077748299
0.32431972 0.019840237 0.011725247
-0.35018292 0.035093505 0.0077193975
0.32430771 0.035184253 0.01165098
-0.35017309 0.050406616 0.007663846
0.32429573 0.050527088 0.011576593
-0.3501682 0.065720081 0.0076360106
0.32428518 0.065869212 0.011511564
-0.35016492 0.081033401 0.0076176524
0.3242732 0.081209809 0.011437237
-0.35015997 0.096346058 0.007589817
0.32426268 0.096549816 0.011372328
-0.35016328 0.11166105 0.0076083541
0.32425216 0.11188882 0.01130718
-0.3501682 0.12697701 0.0076361299
0.32424015 0.12722622 0.011232972
-0.35016164 0.14228836 0.0075991154
0.32422963 0.14256316 0.011167884
-0.35014689 0.15759532 0.0075158477
0.32421914 0.1578991 0.011102915
-0.35013214 0.17290099 0.0074325204
0.3242071 0.17323311 0.011028707
-0.35012886 0.18821183 0.0074139833
0.32419661 0.188567 0.010963678
-0.35012725 0.20352329 0.0074047446
0.3241846 0.20389883 0.010889351
-0.35012725 0.21883574 0.0074047446
0.32417262 0.21922961 0.010815084
-0.35012886 0.23414938 0.0074140429
0.32416061 0.23455915 0.010740817
-0.3501305 0.24946316 0.0074232221
0.3241486 0.24988751 0.010666668
-0.35013214 0.264777 0.0074325204
0.32413507 0.26521367 0.010583103
-0.35013378 0.28009105 0.0074418187
0.32412606 0.2805424 0.010527432
-0.35013378 0.29540384 0.0074417591
0.32411706 0.29587027 0.010471761
-0.35013545 0.310718 0.0074510574
0.32411107 0.31120041 0.010434568
-0.35013545 0.32603091 0.0074510574
0.32410657 0.32653144 0.010406792
-0.35013708 0.3413454 0.0074602962
0.32410207 0.34186208 0.010378838
-0.35013708 0.35665831 0.0074602962
0.32409757 0.35719234 0.010351121
-0.35014361 0.37197834 0.0074973106
0.32410359 0.3725346 0.010388255
-0.35015833 0.38730821 0.0075805783
0.32412159 0.38789228 0.010499597
-0.35021242 0.40268546 0.0078860521
0.32414407 0.40325755 0.010638833
-0.35026655 0.41806743 0.0081915259
0.3241981 0.41866699 0.010972917
-0.35031241 0.43344378 0.0084507465
0.32425514 0.43408576 0.011325836
-0.35043871 0.44892913 0.0091642141
0.32440686 0.4496451 0.012264311
-0.35058975 0.4644587 0.010017037
0.32457078 0.46523678 0.013278186
-0.35087246 0.48018458 0.011613846
0.32492468 0.481134 0.015467584
-0.35143924 0.49634254 0.014814973
0.3082718 0.49439907 0.0071642399
0.32550168 0.49741513 0.019036651
0.30918872 0.5112685 0.013119936
-0.33577481 0.52661246 0.013073564
0.29413879 0.52718961 0.015215874
-0.35299227 -0.52027327 0.023586571
0.31079581 -0.52026618 0.023558378
0.32667097 -0.50549734 0.026269853
-0.36974552 -0.49109933 0.030710638
0.32581973 -0.488783 0.0210042
-0.36938372 -0.4751552 0.028752327
0.34277657 -0.47546536 0.030095398
-0.36917779 -0.45942962 0.027637839
0.34244829 -0.45954561 0.028157234
-0.36904356 -0.44380474 0.026911139
0.34225166 -0.4438231 0.026996076
-0.36899304 -0.42828521 0.026637673
0.34211272 -0.42818922 0.026175499
-0.36899474 -0.41282663 0.026647031
0.3420361 -0.41264167 0.025723159
-0.36898082 -0.39735147 0.026571572
0.34196112 -0.39710304 0.025280416
-0.3688972 -0.38180789 0.026119173
0.34190527 -0.38159209 0.024950862
-0.36886761 -0.36632293 0.025958776
0.34187341 -0.36611116 0.02476263
-0.36884147 -0.35084373 0.025817573
0.34184629 -0.350638 0.024602532
-0.36881536 -0.33536667 0.025676191
0.341824 -0.33517185 0.024470806
-0.36878929 -0.31989181 0.025534749
0.34180325 -0.31970915 0.024348378
-0.36877707 -0.30443016 0.025468886
0.34178415 -0.30424976 0.024235606
-0.36882061 -0.28901127 0.025704443
0.34177139 -0.28879726 0.024160326
-0.36886412 -0.27358869 0.025939941
0.34175867 -0.27334601 0.024085164
-0.36887631 -0.25814173 0.026005864
0.34174588 -0.25789586 0.024009705
-0.36886585 -0.24267961 0.025949419
0.34173477 -0.242448 0.023943961
-0.36883801 -0.22720805 0.025798559
0.34172201 -0.22700009 0.02386862
-0.36880842 -0.21173796 0.025638402
0.34170929 -0.21155331 0.023793459
-0.36878058 -0.19627129 0.025487661
0.3416965 -0.19610777 0.023718238
-0.36875099 -0.18080603 0.025327623
0.34168378 -0.18066335 0.023643017
-0.36875445 -0.16535704 0.025346398
0.34167266 -0.16522084 0.023577213
-0.36879796 -0.14992273 0.025581956
0.3416599 -0.14977866 0.023501992
-0.36882582 -0.13447964 0.025732696
0.34164718 -0.1343376 0.023426771
-0.36879098 -0.11901596 0.025544286
0.34163445 -0.11889771 0.02335149
-0.36877534 -0.10355996 0.025459468
0.34162328 -0.10345955 0.023285806
-0.36875793 -0.088104881 0.025365293
0.34161055 -0.088021934 0.023210585
-0.36874053 -0.0726512 0.025271058
0.34159783 -0.072585464 0.023135364
-0.36872488 -0.057199266 0.0251863
0.3415851 -0.05715017 0.023060143
-0.36871269 -0.04174893 0.025120378
0.34157234 -0.041716032 0.022984922
-0.36873183 -0.02630087 0.02522397
0.3415612 -0.026283074 0.022919178
-0.36877534 -0.010851253 0.025459468
0.34154847 -0.010851176 0.022843957
-0.36880317 0.004601365 0.025610209
0.34153575 0.0045795608 0.022768795
-0.36881363 0.020054933 0.025666654
0.34152302 0.020009063 0.022693813
-0.36878577 0.035504453 0.025516033
0.3415103 0.035437483 0.022618592
-0.36875793 0.050951675 0.025365293
0.34149918 0.050865106 0.022552848
-0.3687301 0.066396601 0.025214553
0.34148645 0.066291288 0.022477627
-0.3687005 0.081838794 0.025054514
0.34147373 0.081716351 0.022402525
-0.36868834 0.097283587 0.024988472
0.34146258 0.097140707 0.022336781
-0.36871094 0.112739 0.02511096
0.34144986 0.11256348 0.022261679
-0.36875445 0.12820399 0.025346458
0.34143713 0.12798508 0.022186637
-0.36873183 0.1436452 0.02522397
0.34142601 0.14340626 0.022120833
-0.36871618 0.15908761 0.025139272
0.34141329 0.15882574 0.022045732
-0.3687005 0.17452873 0.025054514
0.34140056 0.1742439 0.02197063
-0.36868486 0.18996862 0.024969757
0.34138945 0.18966193 0.021904945
-0.36866921 0.20540722 0.024884999
0.3413783 0.20507902 0.021839201
-0.36865529 0.22084551 0.024809659
0.34136719 0.22049497 0.021773517
-0.36866051 0.23629543 0.024837971
0.34135446 0.23590882 0.021698356
-0.36868834 0.25176182 0.024988592
0.34134176 0.25132146 0.021623433
-0.36873358 0.26724353 0.025233388
0.34132904 0.26673293 0.021548331
0.34131789 0.28214473 0.021482527
-0.36874053 0.28269875 0.025271058
-0.3687388 0.29814735 0.025261641
0.34130996 0.29755837 0.021435738
-0.36872661 0.31358671 0.025195718
0.34130204 0.31297123 0.021388769
-0.36871618 0.32902652 0.025139213
0.34129569 0.32838503 0.021351278
-0.36870399 0.3444638 0.02507323
0.34129089 0.34379977 0.021323144
-0.3686918 0.35990012 0.025007308
0.34128615 0.35921425 0.021294892
-0.3686831 0.37533912 0.024960339
0.34130204 0.3746517 0.021388769
-0.36869881 0.39080366 0.025044978
0.34132111 0.39009434 0.021501362
-0.36875099 0.40631059 0.025327623
0.34134492 0.40554458 0.021642208
-0.36880666 0.421826 0.025629044
0.34140536 0.42104346 0.021998763
-0.36886585 0.43735033 0.025949359
0.34147212 0.43655631 0.022393107
-0.36894077 0.45289913 0.02635473
0.34164399 0.45221853 0.023407936
-0.36909759 0.46856007 0.027203739
0.34185427 0.46795049 0.02464962
-0.36942738 0.48446468 0.028988779
0.34222287 0.48393181 0.026826322
0.34293208 0.50045776 0.031013787
-0.35246202 0.51322412 0.020591676
0.32666489 0.51470035 0.026232123
-0.37178078 -0.52488154 0.041726828
0.32837769 -0.523637 0.036827743
0.3441734 -0.50847149 0.038343608
-0.37044662 -0.5075261 0.034505606
0.34321466 -0.49156982 0.032682359
0.36085102 -0.49443981 0.04470855
0.36029938 -0.47812065 0.041592896
0.35993367 -0.46208382 0.039527357
0.35972574 -0.44627097 0.038353205
0.35956872 -0.43053594 0.037466168
0.35948768 -0.41490048 0.037008584
0.35940507 -0.3992703 0.03654176
0.35932583 -0.38365084 0.036094368
0.35929209 -0.3680838 0.035903931
0.35926345 -0.35252452 0.035741985
0.35923988 -0.33697239 0.035608828
0.35921627 -0.32142231 0.035475612
0.35919607 -0.30587706 0.035361469
0.3591826 -0.29033884 0.035285413
0.35916913 -0.27480182 0.035209298
0.35915565 -0.25926599 0.035133183
0.35914388 -0.24373232 0.035066724
0.35913038 -0.22819877 0.034990489
0.35911691 -0.21266632 0.034914434
0.35910347 -0.19713499 0.034838438
0.35909167 -0.1816057 0.0347718
0.3590782 -0.16607679 0.034695804
0.35906476 -0.15054895 0.034619749
0.35905126 -0.1350223 0.034543693
0.35903782 -0.11949679 0.034467578
0.35902604 -0.10397287 0.034401119
0.35901254 -0.088449717 0.034325123
0.3589991 -0.072927698 0.034249127
0.35898563 -0.057406783 0.034173071
0.35897219 -0.041887138 0.034097016
0.35896039 -0.026368637 0.034030616
0.35894695 -0.010851176 0.033954501
0.35893351 0.0046650292 0.033878565
0.35892004 0.020180132 0.033802509
0.35890657 0.035694059 0.033726573
0.3588948 0.05120711 0.033660114
0.35888135 0.066718765 0.033584058
0.37646839 0.06715066 0.044804692
0.35886791 0.082229249 0.033508122
0.37645417 0.082747474 0.044727862
0.35885447 0.097738616 0.033432126
0.37644002 0.098343104 0.044650972
0.358841 0.11324672 0.03335613
0.3764258 0.11393753 0.044574261
0.35882923 0.12875436 0.033289731
0.37641162 0.12953085 0.044497371
0.35881579 0.14426018 0.033213854
0.37639743 0.14512292 0.0444206
0.35880235 0.15976498 0.033137798
0.376385 0.1607146 0.044353485
0.35878891 0.17526849 0.033061862
0.37637261 0.17630529 0.044286311
0.3587755 0.19077085 0.032985985
0.37635842 0.19189405 0.044209421
0.35876372 0.20627303 0.032919586
0.37634599 0.20748262 0.044142365
0.35875025 0.22177322 0.032843649
0.37633362 0.22307016 0.044075131
0.35873681 0.23727217 0.032767713
0.37631941 0.2386554 0.04399848
0.35872337 0.25276989 0.032691777
0.37630704 0.25424087 0.043931246
0.35871163 0.26826781 0.032625437
0.37629461 0.26982513 0.043864071
0.35870153 0.28376612 0.032568455
0.37628043 0.28540701 0.043787301
0.35869312 0.29926497 0.032521069
0.37627155 0.30099222 0.043739319
0.35868475 0.3147631 0.032473624
0.37626091 0.31657511 0.043681741
0.35867634 0.3302606 0.032426178
0.37625206 0.33215868 0.043633938
0.35866961 0.34575891 0.03238827
0.37624142 0.34773979 0.0435763
0.35867134 0.36126551 0.032397687
0.37625739 0.3633467 0.043662727
0.35869145 0.37679222 0.032511473
0.37628576 0.37896773 0.04381603
0.35871664 0.3923265 0.032653928
0.3763141 0.3945913 0.043969512
0.35874355 0.40786484 0.032805622
0.37634248 0.41021705 0.044123113
0.35880068 0.42344233 0.033128381
0.37638858 0.42586613 0.044372618
0.35889146 0.43906724 0.03364104
0.35907146 0.45481661 0.034657836
0.35934266 0.47070435 0.036189437
0.35972574 0.48677146 0.038353205
-0.3700572 0.50080919 0.032397747
0.36059791 0.50357348 0.043278933
-0.3712633 0.51802272 0.038925886
0.34437066 0.51817524 0.039508283
-0.35606009 0.53411347 0.040913463
0.31239349 0.5322333 0.033935487
0.34690163 -0.52811444 0.054452956
-0.38975248 -0.51237053 0.054171801
0.36197484 -0.51160294 0.051055908
-0.3893128 -0.49615285 0.051887274
0.37869027 -0.49733266 0.056830823
-0.38904503 -0.4801766 0.050495684
0.37802184 -0.48080415 0.053212821
-0.38896886 -0.46444407 0.05009979
0.37761796 -0.46465108 0.05102694
-0.38887596 -0.44869891 0.04961741
0.37740034 -0.44874886 0.049848855
-0.38877389 -0.43295121 0.049086809
0.37722388 -0.43291116 0.048893988
-0.3887516 -0.41729474 0.048971117
0.37713665 -0.41718477 0.048421621
-0.38872749 -0.40163821 0.048845828
0.37705475 -0.40147126 0.04797852
-0.38870335 -0.3859835 0.048720479
0.37697291 -0.38576469 0.047535479
-0.38867742 -0.37032914 0.048585534
0.37690356 -0.37007678 0.047160029
-0.38865143 -0.35467684 0.048450708
0.37687331 -0.35443056 0.046996355
-0.38863105 -0.33903131 0.048344612
0.37685019 -0.33879301 0.046871245
-0.38863477 -0.32340658 0.048363805
0.3768253 -0.323156 0.046736538
-0.38864216 -0.30778447 0.048402369
0.37680221 -0.30752251 0.046611488
-0.38864958 -0.2921617 0.048440874
0.37678802 -0.29189762 0.046534717
-0.388657 -0.2765384 0.048479497
0.37677377 -0.27627382 0.046457708
-0.38864958 -0.26090503 0.048440874
0.37676135 -0.26065242 0.046390295
-0.38863662 -0.24526891 0.04837352
0.37674713 -0.24503101 0.046313286
-0.38862363 -0.22963379 0.048306048
0.37673292 -0.22941074 0.046236515
0.39451978 -0.21493052 0.057540357
-0.38861063 -0.21399967 0.048238516
0.37671867 -0.21379161 0.046159565
-0.38860878 -0.19837202 0.04822892
0.37670448 -0.19817379 0.046082675
0.39450476 -0.19922496 0.057462692
-0.38861805 -0.1827493 0.04827708
0.37669206 -0.18255785 0.046015263
0.39448979 -0.18352054 0.057384789
-0.3886255 -0.16712518 0.048315704
0.37667784 -0.16694219 0.045938492
0.39447483 -0.16781737 0.057307065
-0.38863477 -0.15150116 0.048363864
0.37666366 -0.1513277 0.045861423
0.39445987 -0.1521154 0.05722928
-0.38864031 -0.13587517 0.048392773
0.37664944 -0.13571456 0.045784533
0.39444491 -0.13641454 0.057151556
-0.38862732 -0.12024349 0.04832536
0.37663522 -0.12010247 0.045707643
0.39443183 -0.12071542 0.057083488
-0.38861436 -0.10461297 0.048257947
0.3766228 -0.10449206 0.045640528
0.39441687 -0.10501693 0.057005703
-0.38859951 -0.088983037 0.048180759
0.37660861 -0.088882275 0.045563638
0.39440191 -0.089319699 0.056927979
-0.38859025 -0.07335519 0.048132598
0.37659439 -0.073273726 0.045486689
0.39438695 -0.07362356 0.056850255
-0.38858837 -0.057728924 0.048122942
0.37658018 -0.057666283 0.045409799
0.39437196 -0.057928707 0.05677253
-0.38859397 -0.042103507 0.048151791
0.37656599 -0.04206007 0.045332909
0.394357 -0.042234994 0.056694806
-0.38859764 -0.026477505 0.048171043
0.37655357 -0.02645513 0.045265734
0.39434394 -0.026542496 0.056626737
0.37653935 -0.010851253 0.045188785
-0.38860136 -0.010851215 0.048190475
0.39432898 -0.010851215 0.056549013
-0.38859764 0.0047750743 0.048171163
0.37652519 0.004751524 0.045112073
0.3943159 0.004839004 0.056481123
-0.3885847 0.020400334 0.048103631
0.37651098 0.02035312 0.045035064
0.39430094 0.020528045 0.056403458
-0.38857171 0.036024533 0.048036277
0.37649676 0.035953462 0.044958293
0.39428782 0.036216211 0.05633533
-0.38855872 0.051647671 0.047968864
0.37648258 0.051552631 0.044881463
0.39427289 0.051903013 0.056257606
-0.38855502 0.067271687 0.047949612
0.39425981 0.067588829 0.056189775
-0.38855872 0.082897119 0.047968864
0.39424488 0.083273254 0.056112051
-0.38856798 0.098524489 0.048016965
0.39423177 0.098956995 0.056044042
-0.38857725 0.11415253 0.048065126
0.39421684 0.11463914 0.055966318
-0.3885847 0.12978075 0.048103631
0.39420187 0.13032001 0.055888832
-0.38857725 0.1454035 0.048065186
0.39418879 0.14600049 0.055820763
-0.38856429 0.16102327 0.047997653
0.39417386 0.16167915 0.055743098
-0.38855129 0.176642 0.0479303
0.39416081 0.17735742 0.055675209
-0.38854203 0.19226159 0.047882199
0.39414585 0.19303365 0.055597544
-0.38853836 0.20788357 0.047862828
0.39413276 0.20870985 0.055529594
-0.38853836 0.22350749 0.047862947
0.39411783 0.22438379 0.055451989
-0.38854575 0.23913619 0.047901332
0.39410287 0.24005662 0.055374444
-0.38855317 0.25476536 0.047939956
0.39408982 0.25572944 0.055306435
-0.38856056 0.27039522 0.04797852
0.39407489 0.27139992 0.05522877
-0.38856798 0.2860257 0.048016965
0.3940618 0.28707057 0.05516088
-0.38857171 0.30165377 0.048036277
0.39404687 0.30273867 0.055083334
-0.38857725 0.31728369 0.048065186
0.39404503 0.3184166 0.0550735
-0.38858283 0.33291399 0.048094153
0.39404875 0.33409938 0.05509311
-0.38858837 0.34854484 0.048122942
0.3940506 0.34978068 0.055102706
-0.38859209 0.36417434 0.048142254
0.39405248 0.36546198 0.055112422
-0.38859397 0.3798022 0.04815191
0.39407673 0.38116604 0.055238426
-0.38859397 0.39542845 0.04815191
0.3941085 0.39687979 0.055403352
-0.38859582 0.41105652 0.048161566
0.39413837 0.41259393 0.055558801
-0.38861623 0.42670554 0.048267543
0.39417201 0.42831481 0.055733383
-0.38866442 0.44238853 0.048518062
0.37651449 0.4416154 0.045054376
0.39434019 0.44419441 0.056607366
-0.38875905 0.45813096 0.04900974
0.37669563 0.45744392 0.046034515
-0.38882586 0.47384664 0.049356818
0.37704408 0.47350386 0.047920704
-0.38906363 0.48978639 0.050592422
0.37743601 0.48965079 0.050042093
-0.38949156 0.50599617 0.052815914
0.37850186 0.50675708 0.055811048
-0.3902773 0.52272689 0.056898892
0.36233446 0.52172923 0.053086996
-0.39111695 -0.52984405 0.061261714
0.38013732 -0.51495498 0.06466347
0.39695439 -0.50052083 0.070191085
0.39621121 -0.48383328 0.066329479
0.39563259 -0.46739602 0.063322902
0.39536741 -0.45135608 0.061944962
0.39511386 -0.43534994 0.06062746
0.39499375 -0.41950288 0.060003519
0.3949075 -0.40369913 0.059555173
0.39482126 -0.38790256 0.059107125
0.39473695 -0.37211448 0.058668971
0.39468262 -0.35635954 0.058386683
0.41277775 -0.34258512 0.070328891
0.39465642 -0.34063262 0.058250427
0.39463207 -0.32490927 0.058124006
0.41276002 -0.32677469 0.070240319
0.3946096 -0.30918926 0.05800724
0.41274035 -0.31096417 0.070141971
0.39459273 -0.29347512 0.057919741
0.41272062 -0.29515505 0.070043385
0.41270486 -0.27935013 0.069964767
0.39457777 -0.27776369 0.057841897
0.39456281 -0.26205334 0.057764113
0.41268909 -0.26354635 0.069885969
0.39454785 -0.24634422 0.057686269
0.41267332 -0.24774382 0.069807291
0.39453283 -0.23063633 0.057608485
0.41265762 -0.23194245 0.069728434
0.41264185 -0.21614245 0.069649816
0.41262609 -0.20034352 0.069571078
0.41261032 -0.18454576 0.06949228
0.41259459 -0.1687493 0.069413662
0.41257882 -0.15295403 0.069334924
0.41256306 -0.13715996 0.069256186
0.41254732 -0.12136719 0.069177628
0.41253155 -0.10557558 0.069099009
0.41251585 -0.089785106 0.069020212
0.41249809 -0.073995613 0.068931639
0.41248041 -0.058207449 0.068843186
0.41246271 -0.04242067 0.068754792
0.41244501 -0.026635297 0.068666279
0.41242927 -0.010851176 0.068587661
0.41241154 0.0049315365 0.068499267
0.41239581 0.020713072 0.068420649
0.41238007 0.036493432 0.06834203
0.41236436 0.052272614 0.068263412
0.41234666 0.068050124 0.068174958
0.41233093 0.083826803 0.068096399
0.41231516 0.099602222 0.068017781
0.41229749 0.11537591 0.067929268
0.41228178 0.1311488 0.067850709
0.41226408 0.14691974 0.067762375
0.41224834 0.16269028 0.067683756
0.41223261 0.17845953 0.067605197
0.41221887 0.19422846 0.067536473
0.41220513 0.20999639 0.067467749
0.41219133 0.22576332 0.067398965
0.41217563 0.2415279 0.067320526
0.41216189 0.25729272 0.067251742
0.41214615 0.27305493 0.067173362
0.41213045 0.28881595 0.067094743
0.41211668 0.30457744 0.067026019
0.4121049 0.32033941 0.066967189
0.41209903 0.33610529 0.066937685
0.41209117 0.35186914 0.066898465
0.41208526 0.36763415 0.066868961
0.41208133 0.38340053 0.066849411
0.41214809 0.39923733 0.067183077
0.41223654 0.41510195 0.067624867
0.4123427 0.43099228 0.068155229
0.41246271 0.44690618 0.068754792
0.39455342 0.46014154 0.057715416
0.39487186 0.47623619 0.059369981
0.39555356 0.49282122 0.062912285
0.38116223 0.52621102 0.070210874
0.36617163 -0.53327292 0.074759245
-0.41068667 -0.51884657 0.080461025
0.39935803 -0.51939327 0.082680762
-0.41029102 -0.50249988 0.078484058
-0.41008851 -0.48640656 0.077472389
0.41512236 -0.48746228 0.08204329
-0.40994969 -0.47039986 0.076778591
0.41431668 -0.47067645 0.078017831
-0.40981087 -0.45440397 0.076085269
0.4137437 -0.45420343 0.07515502
-0.40977523 -0.43852577 0.075907111
0.41339552 -0.43800786 0.073415399
-0.40974748 -0.42265821 0.075768411
0.41319796 -0.42198968 0.072428226
-0.40971977 -0.40679276 0.07562989
0.41303018 -0.40601528 0.071590006
-0.40969202 -0.39092955 0.075491309
0.41294929 -0.3901341 0.071185946
-0.40968609 -0.37508771 0.075461626
0.41287434 -0.37426436 0.070811629
-0.40968212 -0.35924798 0.075441778
0.41280735 -0.35840708 0.070476651
-0.40967816 -0.34340847 0.075422049
-0.4096742 -0.3275694 0.0754022
-0.40967026 -0.31173059 0.075382471
-0.4096683 -0.29589358 0.075372577
0.43122476 -0.29696137 0.083079457
-0.4096643 -0.28005525 0.075352907
0.43120819 -0.28105596 0.082999647
-0.40966034 -0.26421732 0.075332999
0.43119368 -0.2651529 0.082929909
-0.40965641 -0.24837966 0.07531327
0.43117711 -0.24924991 0.082850337
-0.40965241 -0.23254228 0.075293422
0.4311626 -0.23334916 0.08278048
-0.40965241 -0.21670723 0.075293481
0.43114606 -0.21744846 0.082700729
-0.40965044 -0.20087118 0.075283527
0.43113154 -0.20154993 0.082631052
-0.40964845 -0.18503538 0.075273693
0.43111497 -0.18565162 0.082551301
-0.40964648 -0.16919969 0.075263739
0.43110049 -0.16975528 0.082481563
-0.40964451 -0.15336414 0.075253904
0.43108395 -0.15385938 0.082401752
-0.40964252 -0.1375287 0.07524395
0.43106738 -0.13796465 0.082322061
-0.40964055 -0.12169354 0.075234115
0.43105286 -0.12207177 0.082252443
-0.40963656 -0.10585805 0.075214326
0.43103629 -0.10617935 0.082172751
-0.40963063 -0.090022422 0.075184703
0.4310177 -0.090287887 0.082083106
-0.40962473 -0.074187227 0.075154901
0.43099698 -0.074397497 0.081983507
-0.40962073 -0.058352783 0.075135171
0.4309763 -0.05850862 0.081883907
-0.40961677 -0.042518597 0.075115323
0.43095559 -0.042621311 0.081784368
-0.40961084 -0.026684679 0.0750857
0.43093488 -0.026735503 0.081684828
-0.4096069 -0.010851215 0.07506597
0.43091831 -0.010851176 0.081605136
-0.40960094 0.0049818689 0.075036287
0.4309018 0.0050318586 0.081525505
-0.40959698 0.020814646 0.075016439
0.43088523 0.020913638 0.081445992
-0.40959105 0.036646854 0.074986875
0.43086869 0.036794316 0.081366301
-0.40958709 0.052479025 0.074967027
0.43085214 0.052673627 0.081286669
-0.40958509 0.068311282 0.074957073
0.43083557 0.068551727 0.081207037
-0.40958509 0.084143676 0.074957073
0.43081906 0.084428646 0.081127524
-0.40958509 0.099976189 0.074957073
0.43080249 0.10030442 0.081047893
-0.40958509 0.11580867 0.074957192
0.43078598 0.11617888 0.080968261
-0.40958509 0.13164116 0.074957252
0.43076941 0.13205214 0.080888629
-0.40958509 0.14747362 0.074957073
0.4307529 0.14792411 0.080809176
-0.40958509 0.16330612 0.074957073
0.43073842 0.16379578 0.080739439
-0.40958509 0.17913862 0.074957073
0.43072185 0.17966539 0.080659926
-0.40958509 0.1949711 0.074957192
0.43070534 0.19553383 0.080580354
-0.40958312 0.21080251 0.074947238
0.43069085 0.21140213 0.080510795
-0.40957916 0.22663264 0.074927449
0.43067434 0.22726814 0.080431283
-0.40957719 0.24246366 0.074917436
0.4306578 0.24313305 0.08035171
-0.40957522 0.25829461 0.07490766
0.43064335 0.25899792 0.080282032
-0.40957326 0.27412531 0.074897826
0.43062681 0.27486038 0.080202579
-0.40957126 0.28995591 0.074887991
0.43061236 0.29072303 0.080133021
-0.40957126 0.30578789 0.074887872
0.43059582 0.30658314 0.080053449
-0.40957326 0.32162139 0.074897826
0.43058136 0.32244363 0.07998383
-0.40957522 0.33745512 0.07490772
0.43057516 0.33830974 0.079954028
-0.40957916 0.35329059 0.074927449
0.43059582 0.35419819 0.080053449
-0.40958509 0.36912844 0.074957073
0.43061852 0.37009013 0.080162644
-0.40958908 0.3849647 0.074976981
0.43065366 0.38599518 0.080331802
-0.40959305 0.40080124 0.07499665
0.43070948 0.40192285 0.080600262
-0.40960887 0.41665062 0.075075924
0.43079218 0.41788143 0.080998123
-0.40964648 0.43252441 0.075263858
0.43093073 0.43390414 0.08166486
-0.40974155 0.44846532 0.075738847
0.43116674 0.4500418 0.082800388
-0.40984857 0.46442738 0.076273382
0.41284674 0.46313405 0.070673645
-0.40996158 0.48040459 0.076838017
0.41330856 0.4794842 0.07298094
-0.41008851 0.49640793 0.077472389
0.41435242 0.49658626 0.078196526
0.39716101 0.51068282 0.071264744
-0.41049573 0.51277661 0.079506874
-0.41211259 -0.53653115 0.087585151
0.41670105 -0.50523156 0.089930654
0.43292427 -0.47363195 0.091256201
0.43236321 -0.45709211 0.088556826
0.43203643 -0.44082817 0.086984634
0.43180156 -0.42467692 0.08585453
0.43166655 -0.4086355 0.085204899
0.43153372 -0.39260611 0.084565878
0.43143827 -0.37661839 0.084106803
0.43138435 -0.36067143 0.083847284
0.43133256 -0.34473023 0.083597958
0.43127865 -0.32879135 0.083338737
0.43123928 -0.31286663 0.083149254
0.44986328 -0.074823186 0.095807791
0.44984588 -0.058828365 0.095727086
0.4498263 -0.042834561 0.095636249
0.44980893 -0.026842281 0.095555484
0.44979152 -0.010851215 0.09547472
0.44977197 0.0051385211 0.095384002
0.44975457 0.021127041 0.095303357
0.44973716 0.037114307 0.095222592
0.44971976 0.053100247 0.095141888
0.44970021 0.069084629 0.09505111
0.4496828 0.085068062 0.094970465
0.44966546 0.10105032 0.09488976
0.44964588 0.11703054 0.094799101
0.44962847 0.13301025 0.094718516
0.4496111 0.14898863 0.094637811
0.44959158 0.16496494 0.094547033
0.44957417 0.18094073 0.094466448
0.4495568 0.19691542 0.094385743
0.44954157 0.21288987 0.094315231
0.44952422 0.22886206 0.094234645
0.44951335 0.24483664 0.094184279
0.44950032 0.26080927 0.094123721
0.4494873 0.27678093 0.094063342
0.44947428 0.2927517 0.094002843
0.4494634 0.30872309 0.093952417
0.44945037 0.32469189 0.093892097
0.44945469 0.3406736 0.093912184
0.44945908 0.35665557 0.093932509
0.44946557 0.37263969 0.09396261
0.44952855 0.38867477 0.094254851
0.4495959 0.4047184 0.094567239
0.44971105 0.42081273 0.095101595
0.44984588 0.43693519 0.095726967
0.43152127 0.46632859 0.084506035
0.43223828 0.48305774 0.087955654
0.41695628 0.51574856 0.091206074
-0.41162422 0.53011972 0.085145056
0.4199397 -0.52516538 0.10611218
-0.43209228 -0.50932175 0.10707068
0.43621761 -0.50932908 0.10710126
-0.43179139 -0.49290764 0.10562301
0.43399197 -0.49077627 0.096393287
-0.43164742 -0.47668457 0.10493046
0.45211071 -0.47697571 0.10623443
-0.43153322 -0.46050292 0.10438079
0.4513233 -0.46011499 0.10258132
-0.43146342 -0.44437414 0.10404509
0.45095575 -0.44371548 0.10087621
-0.43142959 -0.42828512 0.10388237
0.45072857 -0.42747247 0.099821925
-0.4314 -0.41220257 0.10373992
0.45057356 -0.4113102 0.099103093
-0.43137041 -0.39612225 0.1035977
0.45043176 -0.39517033 0.098445177
-0.43136618 -0.38006571 0.10357726
0.45034456 -0.37908536 0.098040581
-0.43136406 -0.36401114 0.10356724
0.45029005 -0.36303234 0.097787678
-0.43135983 -0.34795511 0.1035468
0.45023558 -0.34698322 0.097534955
-0.43135774 -0.33190095 0.10353661
0.45018548 -0.33094111 0.097302437
-0.43135563 -0.31584704 0.10352653
0.45014626 -0.31491011 0.097120583
-0.43135139 -0.29979181 0.10350615
0.4501223 -0.29889157 0.097009361
-0.43134716 -0.28373685 0.10348576
0.45010269 -0.28287745 0.096918523
-0.43134293 -0.26768231 0.10346556
0.45008311 -0.26686475 0.096827626
-0.43133873 -0.25162798 0.10344517
0.4500635 -0.25085336 0.096736729
-0.4313345 -0.23557402 0.10342485
0.45004389 -0.23484348 0.096645772
-0.43133023 -0.21952033 0.1034044
0.45002434 -0.21883491 0.096554756
-0.43132603 -0.20346701 0.10338414
0.45000473 -0.20282775 0.096464038
-0.43132183 -0.18741398 0.10336375
0.44998729 -0.18682288 0.096383214
-0.4313176 -0.17136124 0.10334349
0.44996774 -0.17081843 0.096292317
-0.43131334 -0.15530887 0.10332316
0.44995034 -0.15481614 0.096211612
-0.43131125 -0.13925733 0.10331297
0.4499329 -0.138815 0.096130729
-0.43130913 -0.12320606 0.10330284
0.4499155 -0.12281524 0.096050024
-0.43130913 -0.1071554 0.10330284
0.44989809 -0.10681663 0.095969319
-0.4313049 -0.091103911 0.10328251
0.44988072 -0.090819247 0.095888495
-0.43129855 -0.075052373 0.10325193
-0.43129435 -0.059001692 0.10323167
-0.431288 -0.042951029 0.10320115
-0.4312838 -0.026900891 0.10318083
-0.43127745 -0.010851215 0.10315037
-0.43127531 0.0051982356 0.10314018
-0.43127322 0.021247532 0.1031301
-0.43127111 0.037296642 0.10311991
-0.43126899 0.053345557 0.10310972
-0.43126899 0.069394782 0.10310972
-0.43126687 0.085443549 0.10309947
-0.43126476 0.10149209 0.10308939
-0.43126267 0.11754055 0.1030792
-0.43126056 0.13358879 0.10306907
-0.43125841 0.14963694 0.10305882
-0.43125632 0.16568486 0.1030488
-0.43125632 0.18173365 0.10304874
-0.43125421 0.19778128 0.10303861
0.46870112 0.19833298 0.10855097
-0.43125212 0.21382892 0.10302836
0.46868512 0.2144164 0.1084795
-0.43124998 0.22987628 0.10301834
0.46866918 0.23049872 0.10840797
-0.43124786 0.24592356 0.10300809
0.46865094 0.24657859 0.10832614
-0.43124577 0.26197061 0.10299796
0.46863496 0.26265848 0.10825485
-0.43124363 0.27801749 0.10298777
0.46861675 0.27873605 0.10817301
-0.43124577 0.29406732 0.10299808
0.46860304 0.29481524 0.10811168
-0.43124577 0.31011569 0.1029979
0.46858937 0.31089348 0.10805064
-0.43124786 0.32616568 0.10300821
0.46858481 0.32697746 0.10803008
-0.43124998 0.34221572 0.10301828
0.46858707 0.34306625 0.10804027
-0.43125212 0.35826609 0.10302842
0.46858937 0.35915518 0.10805053
-0.43125421 0.37431648 0.10303861
0.46861675 0.37526503 0.10817307
-0.43125632 0.39036709 0.1030488
0.468676 0.39140442 0.10843867
-0.43127957 0.40643823 0.10316062
-0.43130705 0.42251527 0.10329264
-0.4313345 0.43859443 0.10342479
-0.43138942 0.454705 0.10368925
0.45013973 0.45323193 0.097090364
-0.43150991 0.47089261 0.10426903
0.45061284 0.46974161 0.099285305
-0.43163052 0.48708919 0.10484904
0.45152703 0.48677361 0.10352653
-0.4319312 0.50350803 0.10629565
0.43389335 0.50095195 0.095918894
0.40190956 0.53294492 0.095938921
-0.43262303 -0.52603042 0.10962415
0.45338425 -0.49441341 0.11214292
0.47063625 -0.46327016 0.11721939
0.47024336 -0.4467465 0.11545944
0.46995658 -0.43034515 0.11417466
0.4697755 -0.41405466 0.11336362
0.46962431 -0.39780143 0.1126864
0.46953046 -0.38160411 0.11226606
0.46945494 -0.36542708 0.11192775
0.46940005 -0.34927016 0.11168182
0.46936116 -0.33312821 0.11150765
0.46931997 -0.31698734 0.11132318
0.46928111 -0.30085084 0.11114901
0.46925825 -0.28472632 0.11104661
0.46923998 -0.26860589 0.11096472
0.46922168 -0.25248685 0.11088282
0.46920338 -0.23636895 0.11080086
0.46918508 -0.22025234 0.11071914
0.46916682 -0.20413697 0.11063713
0.46914855 -0.18802288 0.11055523
0.46913028 -0.17191014 0.11047345
0.46911195 -0.15579849 0.11039144
0.46909368 -0.13968827 0.11030972
0.46907541 -0.12357923 0.1102277
0.46905714 -0.10747142 0.11014593
0.46903661 -0.091364555 0.11005384
0.46901834 -0.075259343 0.109972
0.46900007 -0.059155382 0.1098901
0.46898177 -0.043052752 0.10980827
0.4689635 -0.026951298 0.10972637
0.46894524 -0.010851215 0.10964465
0.46892703 0.0052476926 0.10956281
0.46890646 0.021345157 0.1094709
0.46888819 0.037441406 0.10938907
0.46886992 0.053536441 0.10930717
0.46884942 0.069629841 0.10921526
0.46883112 0.085722215 0.10913342
0.46881285 0.10181338 0.1090517
0.46879464 0.11790328 0.10896987
0.46877408 0.13399124 0.10887796
0.46875584 0.15007859 0.10879612
0.46873757 0.16616465 0.10871446
0.46871933 0.18224943 0.10863262
0.46875128 0.40756208 0.10877585
0.46889275 0.42378658 0.10940945
0.46904573 0.44003209 0.11009473
0.46940917 0.45649853 0.11172277
0.47004372 0.47327045 0.11456519
0.47103214 0.49046439 0.11899281
0.45352352 0.50510764 0.11278898
-0.43243393 0.52019638 0.10871446
0.43749362 0.52134603 0.11324048
0.45609617 -0.51353467 0.12472486
0.47319353 -0.49823123 0.12867463
-0.45399204 -0.4831903 0.13407242
0.47159487 -0.48038656 0.12151349
-0.45390177 -0.46681246 0.13365382
0.49028277 -0.46652624 0.13232571
-0.45379132 -0.45042157 0.13314116
0.48979336 -0.44981176 0.13020664
-0.45373723 -0.43409106 0.13289028
0.48944679 -0.43325359 0.12870592
-0.45370343 -0.4177824 0.13273346
0.48925924 -0.41685095 0.12789387
-0.45369214 -0.40149549 0.13268119
0.4890863 -0.40047258 0.12714493
-0.4536809 -0.38520935 0.1326288
0.48898545 -0.38416111 0.12670827
-0.45366737 -0.36892232 0.13256609
0.48888463 -0.36785635 0.12627184
-0.45365608 -0.35263795 0.13251394
0.48884866 -0.3516036 0.12611598
-0.45364484 -0.33635429 0.13246167
0.48881266 -0.33535334 0.12596017
-0.45364031 -0.32007617 0.13244081
0.48877907 -0.31910697 0.12581474
-0.45363584 -0.30379814 0.13241976
0.48874551 -0.30286279 0.12566936
-0.45363131 -0.28752068 0.1323989
0.48870474 -0.28661683 0.12549275
-0.45362681 -0.27124342 0.1323781
0.48869514 -0.2703903 0.12545139
-0.45362231 -0.25496647 0.13235712
0.4886688 -0.25415578 0.12533712
-0.45361781 -0.23868988 0.1323362
0.48864239 -0.23792319 0.12522286
-0.45361331 -0.22241357 0.13231534
0.48861602 -0.2216924 0.12510884
-0.45360881 -0.20613766 0.13229454
0.48859206 -0.20546424 0.12500489
-0.45360431 -0.18986198 0.13227355
0.48857293 -0.18923947 0.12492192
-0.45359978 -0.17358674 0.13225275
0.48855373 -0.17301592 0.12483895
-0.45359528 -0.15731168 0.13223171
0.48853454 -0.15679379 0.12475592
-0.45359305 -0.14103764 0.13222134
0.48851541 -0.14057282 0.12467289
-0.45359078 -0.12476382 0.13221085
0.48849621 -0.12435308 0.12458992
-0.45358852 -0.10849003 0.13220036
0.48847708 -0.10813471 0.12450689
-0.45358628 -0.092216551 0.13219005
0.48845789 -0.091917641 0.12442398
-0.45358178 -0.075942859 0.13216907
0.48843876 -0.075701758 0.12434089
-0.45357728 -0.059669446 0.13214821
0.48841956 -0.059487227 0.1242581
-0.45357275 -0.043396372 0.13212723
0.48839805 -0.043273829 0.1241647
-0.45357051 -0.027123678 0.13211691
0.48837888 -0.027061801 0.12408167
-0.45356828 -0.010851215 0.13210642
0.48835969 -0.010851176 0.12399882
-0.45356601 0.0054210974 0.13209593
0.48834056 0.0053581176 0.12391591
-0.45356375 0.021693297 0.1320855
0.48832142 0.021566235 0.123833
-0.45356375 0.03796557 0.1320855
0.48830226 0.037773058 0.12374997
-0.45356151 0.054237466 0.13207513
0.48828313 0.053978596 0.12366712
-0.45355925 0.070509285 0.13206464
0.48826155 0.070182495 0.12357372
-0.45355925 0.086781338 0.13206464
0.48824242 0.086385369 0.12349093
-0.45355698 0.10305288 0.13205415
0.48822325 0.10258699 0.12340814
-0.45355475 0.11932421 0.13204378
0.48820415 0.11878736 0.12332517
-0.45355251 0.13559549 0.13203335
0.4881826 0.13498576 0.12323189
-0.45355025 0.15186651 0.13202286
0.48816347 0.15118349 0.12314892
0.48814672 0.16738078 0.1230765
-0.45354798 0.16813742 0.13201237
-0.45355025 0.18441018 0.13202286
0.48812756 0.18357599 0.12299371
-0.45355251 0.20068298 0.13203335
0.48811081 0.19977103 0.12292111
-0.45355475 0.21695593 0.13204366
0.48809171 0.21596378 0.1228382
-0.45355925 0.23323028 0.13206464
0.48807496 0.2321565 0.12276578
-0.45356151 0.2495036 0.13207513
0.48805821 0.24834819 0.12269324
-0.45356375 0.26577711 0.13208544
0.48804146 0.26453859 0.12262088
-0.45356601 0.28205091 0.13209605
0.48802474 0.28072795 0.1225484
-0.45356601 0.29832327 0.13209593
0.48800561 0.29691464 0.12246543
-0.45356601 0.31459558 0.13209593
0.48798889 0.31310174 0.12239313
-0.45356601 0.33086795 0.13209593
0.48798171 0.32929438 0.1223619
0.48798171 0.34549171 0.12236202
-0.45356601 0.34714025 0.13209593
-0.45356828 0.36341441 0.13210642
0.48798409 0.36169103 0.12237233
-0.45357051 0.37968886 0.13211673
0.48803911 0.37793252 0.12261051
-0.45359305 0.39598134 0.13222128
0.48810363 0.3941856 0.12289011
-0.45361781 0.41227779 0.13233638
0.48820177 0.41047212 0.12331474
-0.45365384 0.4285866 0.13250345
0.48834294 0.42680389 0.12392622
-0.45368767 0.44489589 0.13266033
0.48855135 0.4432078 0.12482858
0.48892543 0.45978588 0.12644851
-0.45378232 0.46127063 0.13309944
-0.45389277 0.47766909 0.13361204
0.48973316 0.47682244 0.12994593
0.47338426 0.50923139 0.12952894
0.45805684 0.52657431 0.13382125
-0.4555155 -0.53379405 0.14114034
-0.45464045 -0.51648331 0.13708079
0.47640258 -0.51790768 0.1430493
-0.4542855 -0.49979222 0.13543397
0.4933157 -0.50210744 0.14545888
0.4913542 -0.48383611 0.13696522
0.5096454 -0.45294222 0.1452685
0.50923175 -0.43622154 0.14353502
0.50905287 -0.41971689 0.14278537
0.50886661 -0.40321803 0.14200473
0.50872821 -0.38676673 0.14142495
0.50865281 -0.37036905 0.14110875
0.508605 -0.35399494 0.14090848
0.50856227 -0.33762723 0.14072955
0.5085271 -0.32126683 0.14058197
0.50848687 -0.3049058 0.14041352
0.50844163 -0.28854471 0.14022404
0.50840896 -0.2721929 0.14008707
0.50840896 -0.25585902 0.14008707
0.50838888 -0.23951621 0.14000297
0.50836122 -0.22317138 0.13988721
0.50833362 -0.20682834 0.1397714
0.50830603 -0.1904871 0.13965565
0.50827837 -0.17414771 0.13953984
0.50825077 -0.15781 0.1394242
0.50822067 -0.14147346 0.13929796
0.50819808 -0.12514056 0.13920319
0.50817794 -0.10880962 0.13911903
0.50815791 -0.092480004 0.13903499
0.50813532 -0.076151282 0.13894033
0.50811523 -0.059824351 0.13885623
0.50809515 -0.043498669 0.13877207
0.50807512 -0.027174313 0.13868797
0.50805503 -0.010851253 0.13860393
0.50803494 0.0054705562 0.13851982
0.50801235 0.021790881 0.13842517
0.50799233 0.038110029 0.13834107
0.50797224 0.054427814 0.13825709
0.50795221 0.07074438 0.13817298
0.50793213 0.087059654 0.13808894
0.50791204 0.10337364 0.13800484
0.50789201 0.11968624 0.1379208
0.50787199 0.13599753 0.13783687
0.50785697 0.15230919 0.13777381
0.50783187 0.16861638 0.13766873
0.50781178 0.1849238 0.13758469
0.50779426 0.20123117 0.13751119
0.50777674 0.21753722 0.1374377
0.50775921 0.23384228 0.13736415
0.50774163 0.250146 0.13729072
0.50772411 0.26644874 0.13721716
0.50770658 0.2827504 0.13714367
0.50768656 0.29904932 0.13705975
0.50766647 0.31534684 0.13697588
0.50764644 0.33164322 0.13689178
0.50765145 0.347956 0.13691282
0.50770158 0.36430258 0.13712275
0.5077517 0.3806524 0.13733262
0.50780928 0.39701155 0.13757426
0.50792462 0.41342285 0.13805741
0.50808263 0.42987871 0.13871956
0.50831354 0.4464106 0.13968718
0.5087257 0.46312693 0.14141428
0.50971866 0.48043188 0.14557523
-0.45405746 0.49413538 0.13437599
0.49104172 0.49443048 0.13561219
-0.4544279 0.51084876 0.13609445
-0.45526126 0.52813399 0.13996083
0.51142377 -0.4873533 0.15272033
0.51027733 -0.46988666 0.14791626
0.52948421 -0.43938386 0.15933472
0.52920449 -0.42268318 0.15819913
0.5290463 -0.40609133 0.15755689
0.52887762 -0.38950178 0.15687221
0.52870381 -0.37291926 0.15616673
0.5286538 -0.35642874 0.15596366
0.52860117 -0.33993977 0.15574998
0.52855116 -0.32345566 0.15554696
0.52850908 -0.30697915 0.1553762
0.52849066 -0.29051775 0.15530133
0.52850121 -0.27407208 0.15534407
0.52845907 -0.25760102 0.1551733
0.52840912 -0.24112923 0.15497035
0.52838546 -0.22467117 0.15487438
0.52835393 -0.20821166 0.15474629
0.52833813 -0.1917595 0.15468222
0.52833289 -0.17531164 0.15466082
0.52832502 -0.15886341 0.15462887
0.52831709 -0.14241563 0.15459687
0.52828032 -0.125962 0.15444744
0.52823824 -0.1095098 0.15427679
0.52823037 -0.093065403 0.15424466
0.5282225 -0.076621622 0.15421283
0.52820671 -0.060177505 0.15414882
0.52818042 -0.043733839 0.15404212
0.52815682 -0.027291767 0.1539461
0.52813053 -0.010851215 0.15383953
0.52810687 0.0055877799 0.15374357
0.52808326 0.022025291 0.15364754
0.52806228 0.038461588 0.15356231
0.52804124 0.054896478 0.15347695
0.52802289 0.07133054 0.15340233
0.52800447 0.087763496 0.15332776
0.52798873 0.10419577 0.15326375
0.52797031 0.12062656 0.15318912
0.52794671 0.13705453 0.15309334
0.52789944 0.15347381 0.15290141
0.52786011 0.16989282 0.15274167
0.52784175 0.18631707 0.15266711
0.52781552 0.2027372 0.15256053
0.52779448 0.2191578 0.15247548
0.52778924 0.23558454 0.15245402
0.52778143 0.25200984 0.15242213
0.52777618 0.26843584 0.15240085
0.52775514 0.28485259 0.15231562
0.52773154 0.30126661 0.15221971
0.52769482 0.31767097 0.15207082
0.52765554 0.33407128 0.15191108
0.52767384 0.35050878 0.15198565
0.52772367 0.36697 0.15218794
0.5277788 0.38343835 0.15241146
0.52789682 0.39995933 0.15289086
0.52804649 0.41651326 0.15349835
0.52821195 0.43309003 0.1541701
0.52853537 0.44981518 0.15548295
0.52906996 0.46675202 0.15765321
0.51141107 0.49850029 0.15266722
0.49394935 0.51383138 0.14820266
-0.47805113 -0.52407283 0.16888458
0.49706289 -0.52235478 0.16168469
-0.4776555 -0.50710809 0.16711241
0.5137912 -0.50607544 0.16264111
-0.47725815 -0.49016887 0.1653325
0.53249818 -0.49156126 0.17156994
-0.47703204 -0.47342232 0.16431963
0.53081834 -0.4735153 0.16475058
-0.47688305 -0.45676318 0.16365224
0.5300684 -0.4563587 0.16170609
-0.47682542 -0.44019631 0.16339403
-0.47681341 -0.42367268 0.16334021
-0.47680378 -0.40715182 0.16329712
-0.47679657 -0.39063361 0.16326493
-0.47678939 -0.37411588 0.16323262
-0.47677979 -0.35759684 0.16318959
-0.47677734 -0.34108353 0.1631788
-0.47677979 -0.32457346 0.16318971
-0.47678456 -0.30806476 0.16321117
-0.47678697 -0.2915543 0.16322184
-0.4767918 -0.27504504 0.16324341
-0.47679657 -0.25853539 0.16326493
-0.47680378 -0.2420266 0.1632973
-0.47680858 -0.22551619 0.16331869
-0.47681341 -0.20900556 0.16334027
-0.47680378 -0.19248903 0.16329724
-0.47679418 -0.17597316 0.16325414
-0.47678456 -0.15945795 0.16321117
-0.47677258 -0.14294288 0.16315734
-0.47676295 -0.12642907 0.16311425
-0.47675094 -0.10991547 0.16306049
-0.47674134 -0.093403101 0.16301757
-0.47673416 -0.076891705 0.16298532
-0.47673172 -0.060381375 0.16297448
0.54919004 -0.060590371 0.17202538
-0.47673416 -0.0438715 0.16298521
0.54915422 -0.0440084 0.17188418
-0.47673655 -0.027361434 0.16299599
0.54920661 -0.027431477 0.17209041
-0.47674134 -0.010851215 0.16301757
0.5492397 -0.010851215 0.17222059
-0.47674373 0.0056593074 0.1630283
0.54918736 0.0057283649 0.17201447
-0.47674856 0.022170056 0.16304976
0.54915154 0.022305854 0.17187357
-0.47675094 0.038680919 0.16306055
0.54911572 0.038881142 0.17173249
-0.47675094 0.055191632 0.16306055
0.54907715 0.05545396 0.17158079
-0.47674617 0.071701474 0.16303909
0.54897797 0.072015196 0.1711905
-0.47674134 0.08821097 0.16301757
0.54889542 0.088573426 0.17086542
-0.47673655 0.10472027 0.16299599
0.54895872 0.10515772 0.17111474
-0.47673172 0.12122916 0.16297448
0.54903585 0.12174911 0.17141819
-0.47672695 0.13773769 0.1629529
0.54895598 0.13830236 0.17110384
-0.47672215 0.1542459 0.16293156
0.54892015 0.15486421 0.17096293
-0.47671494 0.1707529 0.1628992
0.54888439 0.17142369 0.17082214
-0.47671017 0.18726034 0.1628778
0.54884863 0.18798123 0.1706813
-0.47671255 0.20377071 0.16288841
0.54876059 0.20451587 0.17033452
-0.47671732 0.22028233 0.16290998
0.54866982 0.22104406 0.16997743
-0.47671255 0.23678944 0.16288841
0.54873031 0.23763552 0.17021555
-0.47671017 0.25329751 0.1628778
0.54884863 0.25425872 0.1706813
-0.47670773 0.26980537 0.16286701
0.54874957 0.27077702 0.17029136
-0.47670534 0.28631315 0.16285622
0.54871935 0.28732687 0.17017227
-0.47670293 0.30282068 0.16284555
0.54869187 0.30387649 0.17006391
-0.47669816 0.31932652 0.16282392
0.54866159 0.3204228 0.16994482
-0.47670054 0.33583707 0.16283464
0.54860657 0.33695149 0.16972846
-0.47670773 0.35235155 0.16286701
0.54854888 0.35347503 0.16950113
-0.47671494 0.36886644 0.16289926
0.54866159 0.37011394 0.16994494
-0.47672457 0.38538384 0.16294235
0.54892015 0.38686568 0.17096299
-0.47674856 0.40191442 0.16304976
0.54911572 0.40358537 0.17173254
-0.47677496 0.41844863 0.16316807
-0.47679898 0.43498257 0.16327554
-0.47687584 0.45156905 0.16362
-0.47702244 0.46823072 0.16427672
-0.47716913 0.48490256 0.16493374
0.53024572 0.48432344 0.16242611
-0.47742665 0.5017029 0.16608727
-0.47797871 0.51884604 0.16856015
0.51496387 0.5185985 0.16755527
0.55178124 -0.44396532 0.18222541
0.55118108 -0.42685241 0.1798628
0.55061001 -0.40979701 0.17761469
0.55034971 -0.39299291 0.17659026
0.55011463 -0.37622136 0.17566496
0.54992396 -0.3594923 0.17491424
0.54976934 -0.34279653 0.17430544
0.54966718 -0.32614046 0.17390329
0.54966992 -0.30954784 0.17391431
0.54968095 -0.2929593 0.17395771
0.54966438 -0.27635664 0.1738925
0.5496285 -0.25974628 0.17375124
0.54958987 -0.24313681 0.17359912
0.54955399 -0.22653086 0.17345798
0.5495016 -0.20992111 0.17325157
0.5494051 -0.19329973 0.17287153
0.54939955 -0.1767119 0.17284995
0.54943544 -0.16013557 0.17299104
