ply
format ascii 1.0
comment PCL generated
element vertex 1381
property float x
property float y
property float z
element camera 0
property float view_px
property float view_py
property float view_pz
property float x_axisx
property float x_axisy
property float x_axisz
property float y_axisx
property float y_axisy
property float y_axisz
property float z_axisx
property float z_axisy
property float z_axisz
property float focal
property float scalex
property float scaley
property float centerx
property float centery
property int viewportx
property int viewporty
property float k1
property float k2
end_header
0.4979189 -0.24201962 -0.0091507435
-0.35275936 -0.22055134 -0.00312078
0.5223245 -0.2209883 0.0049893856
-0.37463415 -0.17688239 -0.0028520823
0.54401582 -0.17714211 0.0038943291
-0.39651307 -0.13320524 -0.0025833845
-0.41874799 -0.067673914 9.0837479e-05
-0.43918037 0.019497171 -0.0092101097
-0.46264604 0.0854332 0.0011380911
0.6525262 0.26025188 -0.00025308132
0.04073086 -0.61837399 0.021349311
0.062738895 -0.61820751 0.020484209
0.08473362 -0.61804122 0.019619942
0.10671507 -0.61787492 0.018755913
0.12868324 -0.6177088 0.01789248
0.15083492 -0.6182456 0.02068162
-0.047377665 -0.596304 0.021121621
-0.025283741 -0.59467983 0.012331009
-0.0033251557 -0.59381747 0.0076627731
0.018590899 -0.59365922 0.0068061352
0.040493771 -0.59350103 0.0059500933
0.17232496 -0.59462422 0.012029529
0.19477245 -0.59593415 0.01911974
-0.069250062 -0.57309812 0.014459252
-0.047140617 -0.57155168 0.0057249069
0.21611798 -0.572393 0.010477066
0.23866203 -0.57364702 0.017559528
-0.11328205 -0.55148417 0.016590953
-0.091021307 -0.55000269 0.0078433752
0.25986335 -0.5501861 0.0089262724
0.2825022 -0.55138171 0.015985966
-0.15738146 -0.52984279 0.018755913
-0.13496737 -0.52842164 0.0099649429
0.30410641 -0.52882117 0.012436748
-0.17939511 -0.50784874 0.018846869
0.32611287 -0.50692451 0.012843966
0.34812742 -0.48502386 0.013266563
-0.20050408 -0.46203172 0.0058598518
0.37014854 -0.46311659 0.01368916
-0.22262344 -0.44048089 0.0085952282
0.39217615 -0.44120294 0.014112115
-0.24478406 -0.41888678 0.011320829
0.41421032 -0.41928267 0.014534831
-0.26698714 -0.39725131 0.014051676
0.43700841 -0.39792401 0.019877553
-0.28923276 -0.37557435 0.016787767
0.45842284 -0.35351795 0.016152382
-0.31081039 -0.33123267 0.012934566
0.4797816 -0.30922729 0.012436748
-0.33280849 -0.28732941 0.013236284
0.5010795 -0.26504952 0.00870049
-0.35480937 -0.24341594 0.013523221
-0.3768127 -0.19949295 0.013794899
-0.39882019 -0.15556167 0.014066815
0.56629384 -0.11149073 0.0058147907
-0.42164207 -0.089690603 0.019877672
0.58859885 -0.045750655 0.0077229738
-0.44220909 -0.0018412247 0.010461926
0.61092734 0.020076476 0.0096037388
-0.46584955 0.064476043 0.020954728
-0.48750728 0.19642539 0.018786192
-0.50994515 0.37286538 0.021212578
0.040970527 -0.64351761 0.036916137
0.06309817 -0.64334267 0.036041617
0.085212372 -0.64316785 0.035167813
0.10731315 -0.64299297 0.034294486
0.12940051 -0.64281833 0.033421755
0.1516899 -0.64344388 0.03654778
-0.047617294 -0.62132555 0.036685944
-0.025402818 -0.61961538 0.027799726
-0.0033251557 -0.61870724 0.023080707
0.018709514 -0.61854059 0.022214651
0.17329615 -0.61961538 0.027799726
0.1958705 -0.6209951 0.034968495
0.24000132 -0.59856802 0.03337574
-0.069607832 -0.5979352 0.029950976
0.21733063 -0.59724778 0.026229978
-0.11387922 -0.57622254 0.032105923
-0.091496117 -0.57465684 0.023263097
0.26131696 -0.57490456 0.024662137
0.28408477 -0.5761683 0.031800032
-0.15821877 -0.5544824 0.034294486
-0.13568066 -0.55297732 0.025407672
0.3058854 -0.55357617 0.028943539
-0.18037473 -0.53242898 0.034754038
0.32801947 -0.53155643 0.029355764
-0.20269826 -0.51072526 0.037529945
0.35016176 -0.50953251 0.02978313
-0.2015951 -0.48624384 0.021607399
0.37231064 -0.48750216 0.030210853
-0.22383799 -0.46459699 0.024373055
0.39446613 -0.46546507 0.030638456
-0.24612264 -0.44290632 0.027129054
0.41662821 -0.4434216 0.031066418
-0.26845023 -0.42117393 0.02989006
-0.29082084 -0.39939958 0.032656431
0.46136063 -0.37746441 0.034325123
-0.31262621 -0.35488194 0.02978313
0.48285127 -0.33286101 0.030562162
-0.33475265 -0.31072068 0.030073285
0.50428295 -0.28837299 0.026793599
-0.35688356 -0.26655048 0.03036356
0.52565569 -0.24400084 0.023020029
-0.37901694 -0.22237048 0.030638456
0.54839349 -0.20008634 0.026641369
-0.40115455 -0.1781821 0.030913591
0.57085282 -0.13392521 0.028592825
0.59333634 -0.067673862 0.030516148
-0.44527784 -0.023478638 0.030394077
0.61585015 -0.0013336912 0.032442451
-0.44514853 0.52878767 0.029554248
-0.4460364 0.55212194 0.035320997
-0.48874471 0.57219726 0.026093125
-0.46668264 0.57220072 0.026108265
-0.44611904 0.57437724 0.035857558
0.59242964 0.57221097 0.026153922
0.6144914 0.57220751 0.026138663
0.63655627 0.57220751 0.026138663
0.65861762 0.57220417 0.026123405
0.018950639 -0.66912025 0.053537607
0.041212812 -0.66893649 0.052653193
0.063461378 -0.66875273 0.051769137
0.085696362 -0.66856897 0.050885677
0.10791776 -0.66838551 0.050002813
0.1301256 -0.66820216 0.049120545
0.15255441 -0.66892362 0.052590966
-0.047859546 -0.64662093 0.052420378
-0.025523193 -0.64482284 0.043437004
-0.0033251557 -0.64386803 0.038666368
0.01882942 -0.64369291 0.037791014
0.17427814 -0.64488453 0.04374516
0.19698077 -0.64633554 0.050994277
-0.069969505 -0.62304336 0.045611739
0.21855678 -0.62237871 0.042158127
0.24135682 -0.62376916 0.049383521
-0.1144829 -0.60123104 0.047790408
-0.091976091 -0.59957939 0.038850665
0.26278672 -0.59989756 0.040572643
0.28568497 -0.60123104 0.047790408
-0.15906523 -0.57939124 0.050002813
-0.1364017 -0.57780057 0.041018844
0.30768344 -0.57861662 0.045627475
-0.18136437 -0.55728173 0.050823808
0.32994828 -0.55647486 0.046059728
-0.20381375 -0.53548056 0.05363071
0.35221976 -0.53432661 0.0464921
0.37449792 -0.51217157 0.04692471
-0.2250661 -0.48898166 0.040326595
0.39678276 -0.49000996 0.047357559
-0.24747615 -0.46719366 0.043113112
0.41907653 -0.46784389 0.047805786
-0.26992965 -0.44536358 0.045905352
-0.29242665 -0.42349106 0.048702717
0.439816 -0.42218685 0.038113475
0.46433854 -0.40171933 0.052746177
-0.31446195 -0.37881064 0.046816468
0.48596016 -0.35679704 0.048919439
-0.3367199 -0.33438963 0.0471102
0.50752461 -0.31199336 0.045102715
-0.35898235 -0.28995958 0.047403693
0.52903223 -0.26730791 0.041296005
-0.38124737 -0.24551967 0.047682047
0.55284172 -0.22340064 0.049755216
-0.40373957 -0.2011454 0.049569368
0.57548529 -0.15672162 0.051738024
-0.42457673 -0.11201613 0.039942145
-0.44839221 -0.045420393 0.050622225
-0.46910053 0.043224953 0.041065097
0.5745281 0.48795432 0.046955585
0.57405835 0.50970972 0.044608951
0.57359254 0.53143299 0.04228127
0.57312745 0.55312139 0.039957523
0.57266003 0.57477123 0.037622094
0.01907319 -0.69482756 0.069457531
0.1534286 -0.69468892 0.068814278
0.041457765 -0.69463474 0.068563342
0.063828588 -0.69444209 0.067669511
0.086185664 -0.69424963 0.066776395
0.10852902 -0.69405717 0.065883756
0.13085866 -0.69386488 0.064991713
-0.048104458 -0.67219436 0.068327904
-0.025644887 -0.67030674 0.059245586
-0.0033251557 -0.66930419 0.054422736
0.17527111 -0.67043614 0.059868932
0.1981035 -0.67195976 0.067199349
-0.070335142 -0.64842707 0.061444521
0.21979664 -0.64779043 0.058264017
0.24272752 -0.64925289 0.065570712
-0.11509323 -0.62651414 0.063646793
-0.092461318 -0.62477487 0.05460906
0.26427287 -0.62516981 0.05666101
0.28730309 -0.6265744 0.063959599
-0.15992099 -0.60457391 0.065883756
-0.13713063 -0.60289574 0.056800842
0.30950421 -0.60395271 0.062521815
-0.18236513 -0.58241379 0.06707406
0.33189967 -0.5816853 0.062959313
0.35430187 -0.55941105 0.063396692
0.37671083 -0.53713006 0.063834548
-0.22630796 -0.51363939 0.056458712
0.39912656 -0.51484245 0.064272285
-0.24884486 -0.49175334 0.059276819
0.42154902 -0.49254811 0.064710259
-0.27142566 -0.46982461 0.062100172
-0.29405048 -0.44785315 0.064929247
0.44265723 -0.44675887 0.056567669
-0.31631956 -0.40302497 0.064053297
0.4891091 -0.38104111 0.06751287
-0.33871061 -0.35834128 0.064350367
0.51080799 -0.33591723 0.063646913
-0.36110434 -0.31364712 0.064631939
0.53244925 -0.29091316 0.059791088
-0.38350442 -0.26894516 0.064929128
-0.42755517 -0.13465756 0.060305715
0.59815353 -0.089950815 0.053692937
0.62084907 -0.023090024 0.055634737
-0.47239503 0.02167277 0.061444521
0.64418721 0.11095017 0.060321331
0.019197097 -0.72081918 0.085553646
0.04170543 -0.72061735 0.084649444
0.064199857 -0.72041565 0.083745718
0.086680382 -0.72021401 0.082842708
0.10914703 -0.72001249 0.081940174
0.13159981 -0.7198112 0.081038237
0.15431267 -0.72074485 0.085220456
-0.048352081 -0.69805074 0.084411502
-0.025767926 -0.69607145 0.075228572
-0.0033251557 -0.69502044 0.070352435
0.17627525 -0.69627529 0.076174259
0.1992389 -0.69787318 0.083587408
-0.070704818 -0.67409074 0.077451825
0.22105041 -0.6734879 0.074551344
0.24411367 -0.67502362 0.081940174
-0.1157109 -0.65207964 0.07969439
-0.092951894 -0.65024769 0.070540786
0.26577574 -0.65072584 0.072929859
0.28893945 -0.65220308 0.080310941
-0.16078621 -0.63003469 0.081940174
-0.13786761 -0.62826741 0.072756886
0.31134638 -0.62958729 0.079615355
-0.18337721 -0.60782993 0.083508134
0.33387405 -0.60719258 0.080057979
0.35640851 -0.58479106 0.080500603
-0.20494178 -0.56051457 0.069912791
0.37894982 -0.56238264 0.080943346
-0.2275638 -0.53857505 0.072772741
0.40149799 -0.53996754 0.081386447
-0.25022897 -0.51658982 0.075622439
0.42405292 -0.51754558 0.081829429
-0.27293858 -0.49456173 0.078477979
-0.29569268 -0.47249043 0.081338882
0.44553754 -0.47165024 0.075275898
-0.31819955 -0.42753035 0.081497073
0.46735236 -0.42628533 0.071389198
-0.34072527 -0.38258064 0.081797838
0.51413375 -0.36015069 0.082430959
-0.36325371 -0.33762032 0.082082748
0.53591043 -0.31482351 0.078525305
-0.38578653 -0.29265112 0.082367659
0.55736232 -0.24709389 0.073244691
-0.40657803 -0.22449443 0.070054054
0.58019316 -0.17988887 0.075260043
-0.4305737 -0.15762094 0.080943465
0.60304582 -0.11259027 0.07723093
-0.45155317 -0.067673862 0.071153641
-0.47573903 -0.00018619001 0.082130194
-0.49762976 0.17947851 0.078556895
-0.61051708 0.29214352 0.081180692
-0.58784491 0.29203057 0.080263257
-0.56536645 0.29203248 0.080279112
-0.54288477 0.29203248 0.080279112
-0.52039754 0.29202855 0.080247641
-0.49830198 0.60729468 0.082526207
-0.47580558 0.6072982 0.082541823
-0.45330897 0.60730183 0.082557797
0.58166647 0.60731649 0.082621217
0.60416287 0.60731292 0.082605124
0.62665904 0.60730916 0.082589388
0.64915138 0.60730183 0.082557797
0.019322384 -0.74709994 0.10182869
0.041955847 -0.74688882 0.1009146
0.064575247 -0.74667788 0.10000086
0.087180592 -0.74646699 0.099087596
0.10977191 -0.74625623 0.098175168
0.13234921 -0.74604559 0.097263098
0.15520675 -0.74709624 0.10181284
-0.048602454 -0.72419465 0.10067391
-0.025892327 -0.72212178 0.091388702
-0.0033251557 -0.72102112 0.086458206
0.17729072 -0.72240651 0.092663884
0.20038716 -0.72408009 0.10016108
-0.071078584 -0.70003915 0.093636632
0.22231837 -0.69947571 0.091022372
0.24551551 -0.70108646 0.098495126
-0.11633481 -0.677926 0.095904112
-0.093447894 -0.67600238 0.086648941
0.2672956 -0.67657053 0.089382768
0.29059431 -0.67812204 0.096847415
-0.16166104 -0.65577853 0.098175168
-0.13861275 -0.65392011 0.088889599
0.31321043 -0.65552568 0.09691143
-0.18440078 -0.63353521 0.10012913
0.33587182 -0.6330021 0.09735918
0.35854012 -0.61047173 0.09780705
-0.2060826 -0.58583182 0.086379051
0.38121533 -0.58793449 0.098255157
-0.22883388 -0.56379306 0.089271307
0.40389746 -0.56539041 0.098703504
-0.25162882 -0.54170811 0.092153549
0.42658651 -0.54283941 0.099151611
-0.27446866 -0.51957977 0.095041513
-0.29744482 -0.49754101 0.098847508
0.4484528 -0.49686289 0.094211221
-0.32010391 -0.45233375 0.099167705
0.47040525 -0.45116985 0.090273857
-0.34276426 -0.40711296 0.099455953
0.49229881 -0.40559918 0.086347222
0.5175029 -0.38469964 0.10145974
-0.36542907 -0.36188334 0.099744439
0.53941661 -0.33904475 0.097503185
-0.3880983 -0.3166447 0.10003293
0.56195694 -0.27117538 0.097119093
-0.409457 -0.24817689 0.090831161
0.58497506 -0.20343547 0.099151611
0.60802168 -0.13560128 0.10117114
-0.45475692 -0.09024547 0.091962457
-0.68076736 0.27104729 0.093237877
-0.65818954 0.27104908 0.09325397
-0.63560796 0.27104908 0.09325397
-0.61302644 0.27104908 0.09325397
-0.59044492 0.27104908 0.09325397
-0.56786644 0.27105099 0.093269944
-0.54528481 0.27105099 0.093269944
-0.52270037 0.27104908 0.09325397
-0.63569391 0.29367977 0.093652725
-0.54544693 0.31632918 0.094147444
-0.5232771 0.31663841 0.096511483
-0.4332439 0.58851784 0.099199891
-0.43218067 0.60946649 0.091930628
0.56236041 0.61114889 0.099215984
0.042209063 -0.77345425 0.11736143
0.064954832 -0.77323371 0.11643744
0.087686397 -0.77301335 0.11551416
0.11040377 -0.77279329 0.11459136
0.13310696 -0.77257305 0.11366904
-0.048855633 -0.75063097 0.11711836
-0.026018117 -0.74846262 0.10772908
-0.0033251557 -0.74731135 0.10274363
0.17831779 -0.74883485 0.10934079
0.20154852 -0.75058615 0.11692381
0.24693333 -0.7274462 0.1152389
-0.071456902 -0.72628069 0.11001837
0.22360073 -0.72575891 0.10768068
-0.1169657 -0.70406091 0.11229503
-0.093949415 -0.70204365 0.10293627
0.26883268 -0.70270884 0.10602248
0.2923069 -0.70441973 0.11396027
-0.16254479 -0.68180668 0.11457515
-0.13936619 -0.67985857 0.10520208
0.31509665 -0.68177307 0.11441338
-0.18543607 -0.65953434 0.1169399
0.3378934 -0.65911931 0.11486661
0.36069712 -0.63645864 0.11531973
-0.20723639 -0.61143726 0.10303271
0.38350788 -0.61379099 0.11577332
-0.23011841 -0.58929831 0.10595798
0.40632558 -0.59111655 0.11622691
-0.25304461 -0.56711274 0.10887313
0.42925465 -0.56855565 0.11739385
-0.27601767 -0.54488581 0.11181045
-0.29923269 -0.5229162 0.11671293
0.45140621 -0.52240533 0.11339426
-0.32202977 -0.4774369 0.1170373
0.47350058 -0.47638166 0.10942149
-0.34482807 -0.4319436 0.11732888
0.4955301 -0.43047774 0.10542727
-0.36763087 -0.38644135 0.11762083
-0.3904382 -0.3409301 0.11791289
-0.41237965 -0.27220106 0.11192322
-0.43363544 -0.18091348 0.10187697
-0.45800927 -0.11314222 0.11308694
-0.72915876 0.24987833 0.10634422
-0.70647645 0.24987833 0.10634422
-0.68379784 0.24988003 0.10636032
-0.66111547 0.24988003 0.10636032
-0.63843304 0.24988003 0.10636032
-0.61575061 0.24988003 0.10636032
-0.59306818 0.24988003 0.10636032
-0.57038885 0.24988179 0.10637653
-0.54770631 0.24988179 0.10637653
-0.52502376 0.24988179 0.10637653
-0.66277599 0.296161 0.11379862
-0.57046008 0.31797791 0.10674667
-0.43538859 0.54631114 0.11386335
-0.43431237 0.56746531 0.10650539
0.56527591 0.56915927 0.11436474
0.56381285 0.59020627 0.10676277
0.042465128 -0.80031842 0.13399339
0.065338694 -0.80008823 0.13305902
0.088197894 -0.79985833 0.13212538
0.11104273 -0.79962838 0.13119209
0.13387324 -0.7993986 0.13025951
-0.049111657 -0.77736467 0.13374758
-0.026145313 -0.7750988 0.12425256
0.17935658 -0.77556556 0.12620866
0.20272206 -0.77739203 0.13386226
-0.0033251557 -0.77389562 0.11921108
0.019449072 -0.77367485 0.11828589
0.15611106 -0.7737484 0.11859429
-0.071839094 -0.75281322 0.1265676
0.22489774 -0.75234246 0.12452936
0.24836741 -0.75410801 0.13217437
-0.11760366 -0.73048925 0.12886989
-0.094456546 -0.72837645 0.11940598
0.27038738 -0.72914582 0.12285233
0.29407886 -0.73111355 0.13166678
-0.16343932 -0.70813048 0.13117576
-0.14012808 -0.70608741 0.12169707
0.31700552 -0.70833522 0.13212538
-0.18648328 -0.6858325 0.13394427
0.33993921 -0.68554974 0.13258386
0.36288002 -0.66275722 0.13304269
-0.20840341 -0.63733572 0.11987686
0.3858279 -0.63995773 0.13350165
-0.23141767 -0.61509591 0.12283599
0.40878516 -0.61715424 0.13397706
-0.25447664 -0.59280878 0.12578464
-0.27758303 -0.57047993 0.12875545
0.45440105 -0.54828638 0.132846
0.476634 -0.50192267 0.12880456
0.4988066 -0.45568472 0.12477398
0.52091616 -0.4095704 0.12073803
0.54344523 -0.36384118 0.11930847
-0.41534236 -0.29657227 0.13330495
0.56662756 -0.29565489 0.12138832
0.58983922 -0.2273719 0.12345457
-0.4367438 -0.20454295 0.12312901
0.61307991 -0.15899315 0.12550747
0.63554096 -0.044857234 0.12379658
-0.78148115 0.20696943 0.13292801
-0.75859421 0.20696943 0.13292801
-0.73570728 0.20696943 0.13292801
-0.71282035 0.20696943 0.13292801
-0.68993717 0.206971 0.13294446
-0.66705012 0.206971 0.13294446
-0.6441595 0.20696943 0.13292801
-0.62127256 0.20696943 0.13292801
-0.59838563 0.20696943 0.13292801
-0.5755018 0.206971 0.13294446
-0.55261475 0.206971 0.13294446
-0.52973062 0.20697241 0.1329608
-0.75520039 0.22851939 0.11956835
-0.73241627 0.22851939 0.11956835
-0.70963609 0.22852106 0.11958444
-0.68685186 0.22852106 0.11958444
-0.66407126 0.22852264 0.11960089
-0.64128345 0.22852106 0.11958444
-0.61849922 0.22852106 0.11958444
-0.59571493 0.22852106 0.11958444
-0.57293385 0.22852264 0.11960089
-0.5501495 0.22852264 0.11960089
-0.52736807 0.22852434 0.11961722
-0.71111566 0.27480549 0.12578475
-0.62112957 0.3213141 0.13223982
-0.59568572 0.31963879 0.11943841
-0.43755481 0.50368094 0.12867367
-0.43646783 0.5250476 0.12124181
0.56822151 0.52673477 0.12967086
0.56674331 0.54800016 0.12199008
0.065726891 -0.82724637 0.14986873
0.088715158 -0.82700652 0.14892411
0.11168891 -0.82676667 0.14798045
0.13464817 -0.82652724 0.14703739
-0.026274072 -0.80203921 0.14097869
-0.0033251557 -0.80077922 0.13586378
0.019577187 -0.80054879 0.13492835
0.15702571 -0.80070645 0.13556838
0.18040732 -0.80260372 0.14327049
-0.072225593 -0.77964497 0.14330351
0.22620969 -0.77923185 0.14157188
0.24981798 -0.78107721 0.14930522
-0.11824884 -0.75721598 0.14563191
-0.094969392 -0.7550056 0.13606095
0.2719599 -0.75588644 0.13987529
0.29587218 -0.7581293 0.14958692
-0.16435288 -0.73478872 0.14812934
-0.14089853 -0.73261178 0.13837802
0.31893739 -0.73521769 0.15005076
-0.20958385 -0.66353226 0.13691509
-0.23273191 -0.64119071 0.13990831
-0.25592655 -0.61880422 0.1429075
-0.27916643 -0.59636956 0.14589632
0.43210506 -0.59477359 0.13688219
-0.30104411 -0.54860443 0.13481355
0.47980887 -0.52780151 0.14844406
-0.32397914 -0.50284708 0.13512528
0.50212359 -0.48122287 0.14435983
-0.34691712 -0.4570781 0.1354208
0.52437449 -0.43476927 0.14027047
-0.36985964 -0.41129988 0.1357162
0.54799724 -0.38927859 0.14394701
-0.39280671 -0.36551273 0.13601184
0.57137597 -0.3205424 0.14606166
0.59478444 -0.25170761 0.1481626
-0.43989739 -0.22851628 0.14469039
-0.4613063 -0.13637105 0.13450193
-0.48485589 -0.021813732 0.13852608
-0.50818735 0.16180901 0.14089644
-0.80799574 0.18522264 0.14639223
-0.78500521 0.18522264 0.14639223
-0.76201457 0.18522264 0.14639223
-0.7390281 0.18522401 0.14640892
-0.71603733 0.18522401 0.14640892
-0.69304669 0.18522401 0.14640892
-0.67005599 0.18522401 0.14640892
-0.64706522 0.18522401 0.14640892
-0.62407106 0.18522264 0.14639223
-0.60108048 0.18522264 0.14639223
-0.57809305 0.18522401 0.14640892
-0.64679444 0.32300395 0.14515281
-0.5549649 0.34605598 0.14566493
-0.53136909 0.3455779 0.14221501
0.57029313 0.48299968 0.1404351
0.56970739 0.50535864 0.13739157
0.54806435 0.62156302 0.14431047
-0.46235171 0.64381713 0.14129186
-0.43940279 0.6438213 0.14130831
-0.41731849 0.64531463 0.1475668
0.54750055 0.64380944 0.14125884
0.57045162 0.64380944 0.14125884
0.59340268 0.64380944 0.14125884
0.61635375 0.64380944 0.14125884
0.6393013 0.64380544 0.14124238
0.089238316 -0.85446334 0.16591394
0.11234245 -0.85421354 0.16495955
0.13543192 -0.85396385 0.16400564
-0.026404163 -0.82928109 0.15787804
-0.0033251557 -0.82796699 0.15270519
0.019706748 -0.8277266 0.15175903
0.042724092 -0.82748646 0.15081346
0.15795094 -0.82797545 0.15273845
0.18147022 -0.8299548 0.16052985
-0.072616473 -0.80678123 0.16022933
-0.049370576 -0.8044005 0.15056479
0.20391026 -0.80451083 0.15101242
0.22753678 -0.80643195 0.15881157
-0.11890133 -0.78424609 0.16258419
-0.095488042 -0.78193617 0.15290439
0.2735506 -0.78293628 0.15709531
-0.16528866 -0.76180321 0.16549528
-0.14167771 -0.75943673 0.15524781
-0.18754257 -0.71243483 0.15114522
0.34200972 -0.71229899 0.15051496
-0.21077797 -0.6900323 0.15415061
0.36508927 -0.68937314 0.15097928
-0.23406136 -0.66758806 0.15717852
0.38817593 -0.66644019 0.15144384
-0.25739193 -0.64509833 0.16021276
0.41127211 -0.64350343 0.15192497
-0.28076822 -0.62255996 0.16323626
0.43499571 -0.6213423 0.15664577
-0.30287611 -0.5746063 0.1531204
0.45743302 -0.57450783 0.15253925
-0.32595253 -0.52857012 0.15343606
0.5054847 -0.50710058 0.16420639
-0.34903187 -0.48252189 0.15373504
0.52788168 -0.46030509 0.16007924
-0.37211585 -0.43646455 0.15403426
-0.3952044 -0.39039797 0.15433335
-0.41834828 -0.32129914 0.15499854
0.61821908 -0.18277469 0.15023327
-0.46465403 -0.15993962 0.15624619
0.66626006 0.093950197 0.15919495
-0.83475626 0.16327934 0.15999568
-0.81166095 0.16327934 0.15999568
-0.78856564 0.16327934 0.15999568
-0.76546609 0.16327791 0.1599791
-0.74237913 0.16328044 0.16001248
-0.7192837 0.16328044 0.16001248
-0.69618827 0.16328044 0.16001248
-0.67309284 0.16328044 0.16001248
-0.64999384 0.16327934 0.15999568
-0.81208825 0.20961635 0.16158164
-0.78769755 0.23223324 0.15667903
-0.7633822 0.25477463 0.15177584
-0.74321038 0.27914727 0.1633867
-0.69414431 0.30076307 0.15116179
-0.58046073 0.34786361 0.15871155
0.55094993 0.57898045 0.15992892
-0.41978887 0.60329539 0.16539478
0.54950184 0.60032552 0.15209103
-0.41867805 0.62458104 0.15737844
-0.026535738 -0.85683358 0.17497027
-0.0033251557 -0.85546428 0.16973829
0.15888691 -0.8555609 0.17010772
0.18254547 -0.85762405 0.17798996
0.019837784 -0.85521382 0.16878128
0.042985998 -0.85496348 0.16782498
0.066119507 -0.85471338 0.16686904
-0.073011823 -0.83422709 0.17734826
-0.049632441 -0.83174407 0.16757333
0.20511223 -0.83194423 0.16836178
0.22887932 -0.83394849 0.17625153
-0.11956128 -0.81158507 0.1797303
-0.096012592 -0.80917323 0.16993976
0.2512854 -0.80835909 0.16663444
0.27515981 -0.81030035 0.17451525
-0.14246577 -0.78656709 0.17230988
0.29768726 -0.78547275 0.16772425
0.32089272 -0.76242644 0.16819394
-0.18861419 -0.73934662 0.16854644
0.34410536 -0.73937291 0.16866374
-0.21198598 -0.71684086 0.17158687
0.36732531 -0.71631223 0.16913378
-0.23540632 -0.69429308 0.17465019
0.39055246 -0.69324422 0.16960394
-0.25887439 -0.6716994 0.17771983
0.41378921 -0.67017245 0.17009091
-0.28238872 -0.6490562 0.18077874
0.43792254 -0.64826298 0.17665648
-0.30473086 -0.60093004 0.17165399
0.4605054 -0.60107899 0.17249489
-0.32795036 -0.55461168 0.17197359
0.48302603 -0.55402511 0.16834497
-0.35117283 -0.50828093 0.17227638
0.53143287 -0.48618013 0.18013597
-0.37439996 -0.46194088 0.17257917
-0.39763179 -0.41559148 0.17288196
0.55262572 -0.41514325 0.16899955
-0.42139843 -0.34638941 0.17701089
0.57620084 -0.34584635 0.17113292
0.59980947 -0.27645126 0.17326915
-0.44309971 -0.25284213 0.16658437
-0.46804854 -0.18385468 0.17829382
-0.86175686 0.14113386 0.17370689
-0.83855599 0.14113386 0.17370689
-0.81535518 0.14113386 0.17370689
-0.79215431 0.14113386 0.17370689
-0.76895344 0.14113386 0.17370689
-0.74575675 0.14113492 0.1737237
-0.72255975 0.14113621 0.17374051
-0.69935477 0.14113492 0.1737237
-0.67687631 0.32716656 0.17696023
-0.60617697 0.34968519 0.17185569
0.55386585 0.53594965 0.17571211
0.5524025 0.55751985 0.1677916
-0.42191347 0.56020862 0.18072808
-0.42084962 0.58180869 0.1730504
-0.1202288 -0.83923805 0.19707322
-0.096543141 -0.83672208 0.18716991
0.25276995 -0.8359592 0.18416595
0.27678782 -0.83798444 0.19213891
-0.14326365 -0.81401259 0.18958449
0.29952452 -0.81314999 0.18608332
-0.16623539 -0.78913343 0.18306422
0.32287189 -0.78996742 0.1865586
-0.18969837 -0.76657337 0.18615115
0.3462266 -0.76677746 0.18703413
-0.21320933 -0.74396735 0.18924427
0.36958864 -0.74358016 0.18750989
-0.23676707 -0.72131121 0.19232655
0.39295805 -0.72037566 0.18798578
-0.26037428 -0.69861251 0.19543219
0.41633475 -0.69716364 0.18846178
0.44089118 -0.67554897 0.19695342
-0.30661041 -0.62758511 0.19043553
0.46361902 -0.62800688 0.19271863
-0.32997307 -0.58097762 0.19074202
0.48628634 -0.58060014 0.18851268
-0.35334048 -0.53436095 0.1910485
0.50889087 -0.53332478 0.18431854
-0.37671259 -0.48773474 0.19135523
-0.40008944 -0.44109905 0.19166183
0.55733258 -0.44144565 0.19447613
0.58111084 -0.37158066 0.19664562
-0.44634676 -0.27752623 0.18878484
0.62657499 -0.2076517 0.19043553
-0.86569804 0.11878508 0.18754399
-0.84239537 0.1187861 0.1875608
-0.81908786 0.1187861 0.1875608
-0.79578036 0.1187861 0.1875608
-0.77246857 0.11878508 0.18754399
-0.74916953 0.11878726 0.18757784
-0.72586191 0.11878726 0.18757784
-0.84392869 0.18917726 0.19309402
-0.72630012 0.30547452 0.18941438
-0.6321196 0.35152245 0.18511593
-0.53971994 0.37543482 0.18938029
0.55681258 0.49246401 0.19166195
-0.42405987 0.51667994 0.19621825
0.55533379 0.51426268 0.18365753
-0.42298508 0.53850168 0.18846178
-0.40043983 0.63311684 0.19433939
0.53331971 0.63229787 0.19079316
-0.39912623 0.65408099 0.18430173
0.53190631 0.65372515 0.18281019
-0.14406992 -0.84177029 0.20704114
0.30138433 -0.84116721 0.20466757
-0.16719323 -0.8167851 0.20083988
0.32487541 -0.81784672 0.20514894
-0.1907953 -0.79412073 0.20396304
0.34837389 -0.79451853 0.20563018
-0.21444589 -0.77140963 0.20709252
0.37187979 -0.77118325 0.20611203
-0.23814385 -0.74864811 0.21021152
0.39539316 -0.7478404 0.20659363
-0.26189184 -0.72584355 0.21335399
0.41891631 -0.72449398 0.20709276
-0.28402826 -0.67586392 0.19852734
-0.30851182 -0.65457118 0.20943558
0.46677741 -0.65530205 0.21323311
-0.33202118 -0.60767442 0.209746
0.48959064 -0.60753399 0.2089529
-0.3555353 -0.56076801 0.21005619
0.51234287 -0.55990243 0.2047019
-0.37905419 -0.51385212 0.21036685
0.5350318 -0.51240355 0.20046258
-0.40257791 -0.46692663 0.21067739
-0.42449605 -0.37185282 0.19936621
-0.44964471 -0.30257887 0.21133304
0.60492313 -0.30161551 0.19881833
-0.47149599 -0.20812507 0.2006855
-0.49532881 -0.044245057 0.20331049
-0.89309043 0.096230209 0.20150852
-0.8696804 0.096231252 0.20152569
-0.84626538 0.096231252 0.20152569
-0.82285041 0.096231252 0.20152569
-0.79943538 0.096231252 0.20152569
-0.77602041 0.096231252 0.20152569
-0.75260961 0.096232116 0.20154297
-0.65931153 0.35403168 0.20322454
-0.59082043 0.37882245 0.21254194
-0.56482309 0.37684536 0.19902396
-0.42514014 0.49474615 0.20401454
0.53617209 0.58910549 0.20690346
-0.40176445 0.61201662 0.20446146
0.53474367 0.61076081 0.19883549
-0.44834328 0.68183047 0.20243502
-0.42491889 0.68182606 0.20241797
-0.40149477 0.68182194 0.20240057
-0.37921789 0.68411154 0.21169579
0.51257879 0.68273181 0.20609462
0.53536278 0.68180507 0.20233214
0.55878711 0.68180919 0.20234907
0.58220845 0.68180919 0.20234907
0.60562986 0.68180919 0.20234907
-0.19190523 -0.82199419 0.22198594
0.3505477 -0.82260275 0.22445631
-0.21569715 -0.79917741 0.22515297
0.3741993 -0.7991274 0.22494376
-0.23953697 -0.77630931 0.2283088
0.39785841 -0.77564484 0.22543144
0.42152745 -0.75215858 0.22593677
-0.28568718 -0.70298839 0.21648562
0.44389755 -0.70320082 0.21750784
-0.31043723 -0.681898 0.22867537
-0.33409509 -0.63470805 0.2289896
0.49294266 -0.63483715 0.22968829
-0.35775781 -0.58750844 0.22930384
0.51584178 -0.58684069 0.2253617
-0.38142538 -0.54029918 0.22961831
0.53867948 -0.53898227 0.22106504
0.56211978 -0.46819741 0.22038782
-0.42763996 -0.3976965 0.22205544
0.58610469 -0.39775461 0.2225945
0.61012423 -0.32721013 0.2248044
-0.47499225 -0.23275736 0.22339451
0.6577521 -0.067673959 0.22684336
-0.90137964 0.050491102 0.2298454
-0.87775153 0.050491869 0.22986281
-0.85411841 0.050491869 0.22986281
-0.83048534 0.050491869 0.22986281
-0.8068521 0.050491869 0.22986281
-0.78321898 0.050491869 0.22986281
-0.89721835 0.07346724 0.21562004
-0.87369484 0.07346724 0.21562004
-0.85017127 0.07346724 0.21562004
-0.82665247 0.073468 0.21563721
-0.80312884 0.073468 0.21563721
-0.7796008 0.07346724 0.21562004
-0.70909023 0.33225971 0.21587968
-0.61704648 0.38081485 0.22616351
0.53905803 0.54545498 0.22320318
-0.40444034 0.56939137 0.22490895
0.53761125 0.56733841 0.21503139
-0.4030979 0.59077543 0.21465099
0.5159539 0.64043397 0.22602403
-0.38047889 0.6630615 0.22193384
0.51425934 0.66164982 0.2160182
0.40035662 -0.80379951 0.24452138
0.42417106 -0.78016764 0.2450155
-0.26342744 -0.753398 0.2314887
-0.28736585 -0.73043537 0.23465753
0.44694486 -0.73122966 0.23834252
0.46997616 -0.68296558 0.23400939
0.51938844 -0.61414719 0.24630415
0.54282629 -0.56633389 0.24448609
-0.40548688 -0.49349219 0.2329061
-0.43083116 -0.4239288 0.24508595
-0.45298958 -0.32800591 0.23420215
-0.90558499 0.027300842 0.24422169
-0.88184136 0.027300842 0.24422169
-0.85809761 0.027300842 0.24422169
-0.83435398 0.027300842 0.24422169
-0.81061494 0.027301423 0.24423945
-0.78686661 0.027300842 0.24422169
-0.76239377 0.31186044 0.24126172
-0.69158095 0.3595193 0.24282908
-0.64350772 0.38282502 0.23990703
0.54197192 0.50133193 0.23966086
-0.40715244 0.5261898 0.24563313
0.54050958 0.52345085 0.23140121
-0.40579182 0.54786342 0.23523629
0.5193705 0.59757519 0.24619806
-0.38302645 0.62053478 0.24261761
0.51765662 0.61907494 0.23607802
-0.38174841 0.64186978 0.23224103
0.49551457 0.66870862 0.24559784
0.49387637 0.68996656 0.2354641
-0.24094673 -0.80430079 0.24662197
-0.26498139 -0.78128177 0.24984002
0.45003402 -0.75964308 0.25946307
-0.28906459 -0.75821078 0.25304699
0.47321865 -0.71100807 0.25507021
-0.31238708 -0.7095716 0.24815917
-0.33619538 -0.66208488 0.24847758
0.49633771 -0.66251069 0.25068974
-0.36000854 -0.61458844 0.24879599
-0.38382667 -0.56708211 0.24911439
-0.40852225 -0.52054125 0.25610065
0.56698942 -0.49540985 0.24674547
0.59118462 -0.42437983 0.24899054
-0.45638758 -0.35381854 0.25743413
0.61541146 -0.3532446 0.25122118
-0.90982991 0.0038923472 0.25873303
-0.88596946 0.0038918704 0.25871515
-0.8621192 0.0038923472 0.25873303
-0.83826381 0.0038923472 0.25873303
-0.81440836 0.0038923472 0.25873303
-0.81260926 0.26556081 0.25185907
-0.78746289 0.28875244 0.24656904
-0.74213767 0.33748132 0.25578082
0.54343909 0.47909045 0.24794722
-0.40852225 0.50436902 0.25610054
0.52109569 0.57593364 0.25638485
-0.38431323 0.59905523 0.25306463
0.49716073 0.64730597 0.2557807
-0.36136374 0.67227256 0.26053214
-0.36015159 0.69355577 0.25003469
-0.29078373 -0.78632021 0.27165747
-0.31436181 -0.73759896 0.26789224
0.47650594 -0.73943752 0.27642179
-0.33832246 -0.68981171 0.2682147
0.49977952 -0.69056535 0.27198064
-0.36228809 -0.6420145 0.26853716
0.52298695 -0.64183259 0.26755226
-0.38625866 -0.59420735 0.26885962
0.54756719 -0.59461439 0.27126265
0.57194042 -0.52309239 0.27354336
-0.43407321 -0.45056111 0.26848352
0.59635288 -0.45146787 0.27584565
0.62079424 -0.3797335 0.27811503
-0.48196721 -0.25913069 0.26869845
-0.50626743 -0.067673914 0.27097547
-0.91410977 -0.019737978 0.27336383
-0.89014179 -0.019737978 0.27336383
-0.86617374 -0.019737978 0.27336383
-0.84220576 -0.019737978 0.27336383
-0.81823766 -0.019737978 0.27336383
0.52458358 0.53222251 0.27698004
-0.38691083 0.55565292 0.27415454
0.52283543 0.55415231 0.26665735
-0.3856087 0.57742965 0.26358271
0.5004859 0.60407418 0.27634966
0.4988178 0.62576175 0.26603115
-0.36258414 0.6508441 0.271101
0.47640061 0.67590111 0.27573752
-0.33912548 0.69986957 0.27566564
0.4748126 0.69734657 0.26542318
-0.40983823 0.72143972 0.26615632
-0.38592127 0.72143066 0.26612043
-0.36200491 0.72142154 0.26608491
-0.33809292 0.72142154 0.26608491
0.47491175 0.72141707 0.26606715
0.49882358 0.72141707 0.26606715
0.52273542 0.72141707 0.26606715
0.54664731 0.72141707 0.26606715
0.57055581 0.72141254 0.26604915
0.4531658 -0.78844905 0.28087533
-0.31636199 -0.76598668 0.28787899
-0.34047693 -0.71789515 0.28820574
0.50326914 -0.7190094 0.29356682
-0.36459693 -0.66979355 0.28853238
0.52663225 -0.66989827 0.28907692
-0.38872191 -0.62168169 0.28885901
-0.41160148 -0.54799891 0.27962983
-0.43736479 -0.47760022 0.29223859
-0.45983464 -0.38002253 0.28100193
-0.91843545 -0.04359201 0.28815126
-0.89435369 -0.04359201 0.28815126
-0.87027174 -0.04359201 0.28815126
-0.84618998 -0.04359201 0.28815126
-0.82210803 -0.04359201 0.28815126
-0.79822445 0.0045897141 0.28893161
0.52634346 0.51014656 0.2873714
-0.38822407 0.53373063 0.28481686
0.502168 0.58224607 0.28675508
-0.36504796 0.60754192 0.29243851
-0.36381289 0.62926912 0.28174245
0.47799921 0.65431273 0.28612089
-0.34037334 0.67864698 0.28724444
-0.3164219 0.72711027 0.2884779
0.45371848 0.72613871 0.28465402
0.47983891 -0.76826185 0.29806983
-0.34265929 -0.74634218 0.30845559
-0.36693564 -0.69793206 0.30878639
-0.39121711 -0.64951164 0.3091172
0.55239111 -0.62339002 0.29850793
-0.41473022 -0.57588005 0.30353796
0.57698148 -0.55126268 0.30082893
0.60161179 -0.47903097 0.30317152
-0.46333721 -0.4066301 0.30494928
0.64886665 -0.23676066 0.29768646
-0.92280251 -0.067673959 0.30308008
-0.89860052 -0.067673862 0.30306184
-0.87440389 -0.067673862 0.30306184
-0.85020721 -0.067673862 0.30306184
-0.82601058 -0.067673862 0.30306184
-0.80258709 -0.067673959 0.30610502
-0.80132115 -0.043492209 0.30112159
-0.80005455 -0.019387163 0.29613578
-0.84963036 0.24666803 0.30092049
-0.39087775 0.48943281 0.30636191
0.5281058 0.48791307 0.29777765
-0.38954636 0.51165801 0.29555237
0.50556016 0.53814214 0.30773878
0.50385845 0.56026775 0.29721189
-0.36629367 0.58566952 0.30322659
0.48123142 0.61070538 0.3071146
-0.34289712 0.63572526 0.31066239
0.47960851 0.63258004 0.29657352
-0.34163055 0.65726632 0.29890978
0.45690963 0.68323547 0.30647194
-0.31759024 0.7059018 0.3001523
0.45537117 0.70486736 0.29595339
0.43237415 0.73110819 0.30421591
0.50680751 -0.74785078 0.3154546
0.53032845 -0.69835544 0.31090164
0.55730021 -0.65267408 0.32623458
-0.44070452 -0.50505322 0.3163408
-0.92720604 -0.091986559 0.31813347
-0.90289336 -0.091986559 0.31813347
-0.87857556 -0.091986418 0.318115
-0.85426807 -0.091986559 0.31813347
-0.8299554 -0.091986559 0.31813347
-0.80564272 -0.091986559 0.31813347
0.50727344 0.51586747 0.31833696
-0.36881095 0.54146916 0.32502699
-0.36754796 0.56364578 0.3140893
0.48286241 0.58867949 0.31770825
-0.34417325 0.61402231 0.32250333
-0.31995136 0.66300201 0.32374609
0.45846114 0.66146249 0.31707978
-0.31876728 0.68453425 0.31191421
-0.29571211 0.71202457 0.32500863
0.43396723 0.70973486 0.31571293
-0.29461655 0.73337746 0.31314898
0.41075844 0.7361356 0.32400596
0.53407657 -0.72721231 0.33303308
-0.36930487 -0.72643733 0.32930434
-0.3937448 -0.67770451 0.32963955
-0.4179073 -0.60419196 0.32781529
0.58211166 -0.57993096 0.32859683
-0.44409868 -0.53293473 0.34083581
0.60696369 -0.50708181 0.33098114
-0.466894 -0.43364924 0.32926702
-0.49284256 -0.28795671 0.33933592
-0.90722227 -0.11653322 0.33333182
-0.88279259 -0.11653322 0.33333182
-0.85836297 -0.11653322 0.33333182
-0.83393329 -0.11653322 0.33333182
-0.80950367 -0.11653322 0.33333182
-0.78604555 0.079086304 0.33727586
0.51073778 0.47086829 0.33976686
0.50900126 0.49344558 0.32902503
-0.37008277 0.51913834 0.33604121
0.48616052 0.54418314 0.33912969
0.48450446 0.56650466 0.32837343
-0.34545901 0.59215581 0.33443379
0.46159032 0.61746466 0.33847415
0.46002042 0.63953787 0.32774079
-0.32114619 0.64131153 0.33568585
0.43718857 0.66651571 0.33896112
-0.2968159 0.69051051 0.33695769
0.43557197 0.68820465 0.32729447
0.41228449 0.71465033 0.33566713
-0.27246615 0.73974895 0.33823085
-0.34525377 0.76272428 0.33252919
-0.32083216 0.76272899 0.3325479
-0.29641202 0.76273882 0.3325851
-0.27198967 0.76274371 0.33260393
-0.24834956 0.76540929 0.34278786
0.38744807 0.76271927 0.33251059
0.41187143 0.76271927 0.33251059
0.43629217 0.76271451 0.33249187
0.46071535 0.76271451 0.33249187
0.48513854 0.76271451 0.33249187
0.50956172 0.76271451 0.33249187
-0.39630333 -0.70626336 0.35041237
0.56229347 -0.68247682 0.35443664
-0.42113629 -0.63294768 0.35248935
0.58733338 -0.60911089 0.35686016
-0.47050342 -0.46108711 0.3539449
-0.91159827 -0.14131761 0.34869587
-0.88705039 -0.14131761 0.34869587
-0.86250246 -0.14131761 0.34869587
-0.83795458 -0.14131761 0.34869587
-0.81340659 -0.14131761 0.34869587
-0.78886336 -0.14131799 0.34871483
-0.79041737 -0.11686707 0.35502326
-0.37136346 0.49665153 0.34713197
0.48782495 0.52170616 0.34994054
-0.34805983 0.5479238 0.35856628
-0.34675452 0.57012361 0.34645426
0.46317086 0.59524167 0.34928036
-0.32235011 0.61945671 0.34771597
0.43881711 0.64466655 0.35071409
-0.29792809 0.66883349 0.34899747
0.41381937 0.69300157 0.3473959
-0.27348486 0.71824533 0.35026121
0.39032355 0.71962363 0.35585618
-0.24931186 0.74408233 0.35528839
0.38887128 0.74123126 0.34406555
0.36533606 0.7679584 0.35252714
-0.22491403 0.76943976 0.35818696
-0.39889798 -0.73520285 0.37147784
-0.44754323 -0.56124943 0.36569476
0.61240757 -0.53563064 0.35926819
0.63967592 -0.41390526 0.37245357
-0.91601157 -0.16634262 0.36419046
-0.89134437 -0.16634262 0.36419046
-0.86667717 -0.16634262 0.36419046
-0.84200996 -0.16634262 0.36419046
-0.81734276 -0.16634262 0.36419046
-0.79268026 -0.1663432 0.36420941
-0.76926869 -0.16650523 0.36947167
-0.79346877 -0.092365839 0.36741054
0.49118796 0.47629046 0.37178397
0.48950067 0.49907583 0.36082506
-0.34937516 0.52555466 0.37077057
0.46636719 0.55034244 0.37113392
-0.3247855 0.57524687 0.37205172
0.46476495 0.57287061 0.36017931
-0.32356316 0.59743595 0.35983777
0.4421106 0.60047972 0.37448287
0.44045773 0.62265503 0.36255455
-0.30017796 0.62498271 0.373353
-0.29904878 0.64699155 0.36112893
0.4169234 0.64922071 0.37111473
0.41536564 0.67119223 0.35921121
-0.27554888 0.67475444 0.37463593
-0.27451295 0.69658267 0.36240244
0.39178658 0.69785517 0.36773479
-0.25028321 0.72259194 0.36790633
-0.22578982 0.74802995 0.37082803
0.36670482 0.74639231 0.36438084
-0.2012506 0.77350938 0.3737359
0.34245312 0.77207351 0.36824977
0.56737995 -0.71281874 0.38316488
-0.42441344 -0.66215146 0.37753153
0.59264904 -0.6388157 0.38563204
-0.45104471 -0.59001344 0.39096487
0.61795312 -0.56469637 0.38808358
-0.47417235 -0.48895818 0.37902927
-0.89568561 -0.19161279 0.37985575
-0.87089789 -0.19161279 0.37985575
-0.84611005 -0.19161279 0.37985575
-0.82132226 -0.19161279 0.37985575
-0.79653919 -0.19161353 0.37987483
-0.77175122 -0.19161353 0.37987483
-0.77422231 -0.14227691 0.3902297
-0.79654396 -0.067673773 0.37989402
-0.35070053 0.50301415 0.38306868
0.46798044 0.52765948 0.38216376
-0.32601717 0.55288774 0.38435972
0.4437758 0.57813871 0.38650036
-0.30131584 0.6028052 0.38567078
0.41849279 0.62708503 0.38310707
-0.27659276 0.65275878 0.38696384
0.39326292 0.67592883 0.37972105
-0.25126228 0.70093113 0.38062465
0.36947304 0.70277584 0.38835418
-0.22667123 0.7264455 0.38355017
0.36808378 0.72466516 0.37632287
-0.20203669 0.7520113 0.38650036
0.34379923 0.75054801 0.38074005
-0.177357 0.77762389 0.38945615
0.3189719 0.77525693 0.38041317
-0.42774504 -0.69182068 0.40298915
-0.87515467 -0.21713035 0.39565516
-0.85024536 -0.21713035 0.39565516
-0.82534081 -0.21713126 0.39567471
-0.80043125 -0.21713126 0.39567471
-0.77552629 -0.21713226 0.39569402
-0.75061661 -0.21713226 0.39569402
-0.72720498 -0.21744207 0.40240443
-0.75030297 -0.1921702 0.39433599
-0.79964316 -0.042788997 0.39247525
-0.80276662 -0.017708793 0.40515494
-0.80230999 0.00723093 0.40330136
-0.80097193 0.03203205 0.39786947
-0.79963356 0.056749366 0.39243639
-0.35203609 0.48030031 0.3954612
0.47124329 0.48182654 0.40447199
0.46960482 0.50482035 0.39326966
-0.32725832 0.53035659 0.39676213
0.44545349 0.55562991 0.39860821
-0.30246246 0.58045703 0.39808333
0.42007393 0.60478359 0.39518964
-0.27764466 0.63059407 0.39938617
0.39624414 0.63157248 0.4039253
0.39474794 0.65383363 0.39177799
-0.25324231 0.65708596 0.40634632
-0.2522476 0.67909348 0.39342451
0.37087274 0.68072188 0.4004761
-0.22756101 0.70469415 0.39639294
0.34652308 0.70699012 0.40601408
-0.20282906 0.73034173 0.39936674
0.32150069 0.73189735 0.40568221
0.34515581 0.72885424 0.39332795
-0.17805055 0.75603151 0.40232658
0.29648343 0.75679964 0.40535033
0.32023135 0.75366193 0.39299822
-0.15318075 0.78150785 0.40429616
0.27147126 0.78169692 0.40501833
0.29531196 0.77846462 0.39266896
-0.25288185 0.80577457 0.4016639
-0.22792889 0.80578512 0.401703
-0.20297411 0.80579031 0.40172255
-0.17801905 0.80579561 0.40174186
-0.15306368 0.80580097 0.40176141
-0.12810875 0.80581129 0.40180039
-0.10332151 0.80729431 0.40730417
0.24646275 0.80658364 0.40466702
0.27120042 0.80581665 0.40181994
0.29615727 0.80581665 0.40181994
0.32110831 0.80580097 0.40176141
0.34606683 0.80580622 0.40178096
0.37102568 0.80581129 0.40180039
0.39598477 0.80581665 0.40181994
0.59806126 -0.66906041 0.41492677
-0.45459914 -0.61923105 0.4166168
-0.47881448 -0.5181374 0.41076803
-0.50422662 -0.31812453 0.41327763
-0.85442644 -0.2429007 0.41163027
-0.8293941 -0.2429007 0.41163027
-0.80436653 -0.24290164 0.41164982
-0.77933401 -0.24290164 0.41164982
-0.75430149 -0.24290164 0.41164982
-0.72926891 -0.24290164 0.41164982
-0.70423216 -0.2429007 0.41163027
-0.75578016 -0.1680012 0.41805279
-0.77923578 -0.1177327 0.41123831
-0.32976952 0.48477042 0.42185533
-0.32850906 0.50765151 0.40926027
0.448847 0.51010162 0.42309856
-0.30478236 0.53524059 0.42319727
0.44714385 0.53295135 0.41080725
-0.30361792 0.55793595 0.41059172
0.42327213 0.55967516 0.4196279
0.42166701 0.58231419 0.40736258
-0.27870473 0.60825783 0.41190469
0.3977516 0.6091432 0.41616452
-0.25424504 0.63490176 0.41937196
-0.22936063 0.66066265 0.42236817
0.37228298 0.65850186 0.41268909
-0.22845788 0.68276864 0.40933836
0.34790322 0.68495828 0.41882038
-0.20362654 0.70849413 0.41231656
0.32278001 0.70996159 0.41846597
-0.17875069 0.73427153 0.41531968
0.29766411 0.73496419 0.41813159
-0.15378979 0.75988173 0.41748226
0.27255332 0.75996149 0.41779697
-0.12851654 0.78362769 0.41239488
-0.10372829 0.78575271 0.42051458
0.24744622 0.78494871 0.4174428
-0.078509808 0.80948025 0.41541779
0.19735253 0.81029099 0.41842675
0.22206691 0.80885106 0.41308165
-0.83349258 -0.26892662 0.42776382
-0.80833602 -0.26892662 0.42776382
-0.78318417 -0.26892778 0.42778361
-0.75802737 -0.26892778 0.42778361
-0.73286623 -0.26892662 0.42776382
-0.70770961 -0.26892662 0.42776382
-0.68254894 -0.26892537 0.42774415
-0.6573925 -0.26892537 0.42774415
-0.68394256 -0.24413016 0.43444896
-0.70969087 -0.21903798 0.43695557
-0.73307842 -0.19349331 0.42871439
-0.76072067 -0.14341344 0.43944585
-0.78431487 -0.092867091 0.43252194
0.45056301 0.48707831 0.4354831
-0.30595404 0.51236492 0.43588102
0.42488936 0.53686422 0.43198609
-0.28084958 0.56306344 0.43723416
-0.27977297 0.58574826 0.42452037
0.39927047 0.58654404 0.42849636
-0.25525427 0.61253482 0.43248224
0.37513793 0.61355966 0.43741345
-0.230272 0.63838303 0.43552303
0.37370616 0.63611799 0.4250145
-0.20524327 0.66427946 0.43856883
0.34929216 0.66274774 0.43170822
-0.20443165 0.68647557 0.42539012
0.32406947 0.68785232 0.43135118
-0.17945647 0.71233624 0.42841721
0.29885411 0.71295589 0.4310137
-0.15440379 0.73807895 0.43077588
-0.12954085 0.7401067 0.43900752
0.27364397 0.73805451 0.43067658
-0.12902661 0.76195586 0.4256469
-0.10413838 0.76403534 0.433833
0.22389489 0.76546621 0.439466
0.248439 0.76314783 0.43033946
-0.078816414 0.78789359 0.42869449
-0.053778928 0.79004025 0.43689597
0.17327057 0.79007667 0.43703532
0.19816434 0.78865653 0.43160915
0.22297721 0.78724623 0.4262203
-0.053573497 0.81167215 0.42355251
-0.028511494 0.8138479 0.4316287
-0.0033251557 0.81419587 0.43291926
0.021881059 0.8145436 0.43421054
0.047107168 0.81489176 0.43550289
0.072353207 0.81524044 0.43679631
0.097618572 0.81558371 0.43807077
0.12272046 0.81464547 0.43458807
0.14768024 0.81319094 0.42919016
0.17255788 0.81174123 0.42380893
-0.45821327 -0.6489197 0.44269931
0.63004029 -0.59970093 0.45089078
-0.81234992 -0.29521209 0.4440583
-0.78707266 -0.29521355 0.44407821
-0.76178586 -0.29521209 0.4440583
-0.73650384 -0.29521209 0.4440583
-0.71121746 -0.29521072 0.44403839
-0.68593562 -0.29521072 0.44403839
-0.66064978 -0.29520923 0.44401824
-0.63536805 -0.29520923 0.44401824
-0.61009002 -0.29521072 0.44403839
-0.58481169 -0.29521209 0.4440583
-0.56085682 -0.29575503 0.45189488
-0.53588825 -0.29591513 0.45420694
-0.63640869 -0.2702606 0.44942558
-0.73905247 -0.16915354 0.45547485
-0.78883255 -0.067673773 0.45145285
0.45229217 0.46387953 0.44796205
-0.30713671 0.4893139 0.4486835
0.42652154 0.51388353 0.44445825
-0.28193459 0.54020125 0.45004773
0.40234306 0.54082847 0.45344257
0.40080094 0.56377321 0.44092214
-0.25627321 0.58999109 0.44571877
0.37658057 0.59082931 0.44990706
-0.23119076 0.61592299 0.44878376
-0.20606023 0.64189899 0.45183468
0.35069212 0.64036077 0.44469821
-0.18088414 0.66792762 0.45491123
0.32536915 0.66556734 0.44433832
-0.1801669 0.69021934 0.4416008
0.30005357 0.69077307 0.44399834
-0.15502283 0.71609747 0.44417822
-0.13005932 0.7180779 0.45247746
0.27474323 0.71597338 0.44365847
-0.10455186 0.74213982 0.4472605
0.22482003 0.74350893 0.45281935
0.24943815 0.74116868 0.44331849
-0.079125538 0.76613039 0.44208002
-0.053986046 0.76823097 0.45034873
0.17398906 0.76823592 0.45036876
0.19898276 0.76684636 0.44489825
-0.028614875 0.79217678 0.44505835
-0.0033251557 0.79251713 0.44635928
0.021984603 0.79285789 0.44766128
0.047314115 0.7931937 0.44894421
0.072663859 0.79353499 0.45024812
0.098033719 0.79387653 0.45155334
0.12323289 0.79292095 0.44790184
0.14829314 0.79149652 0.44245958
-0.46188289 -0.67908412 0.46918237
-0.79099536 -0.32176101 0.46051598
-0.76558661 -0.32176101 0.46051598
-0.7401734 -0.32175946 0.46049583
-0.71476042 -0.32175785 0.46047556
-0.6893521 -0.32175785 0.46047556
-0.66394371 -0.32175785 0.46047556
-0.63853133 -0.3217563 0.46045542
-0.61312687 -0.32175785 0.46047556
-0.587722 -0.32175946 0.46049583
-0.56231689 -0.32176101 0.46051598
-0.53690821 -0.32176101 0.46051598
-0.61347032 -0.27105552 0.46233451
-0.66341859 -0.24539131 0.45785224
-0.69029778 -0.2203344 0.46502566
-0.71548814 -0.19484587 0.46385169
-0.76572192 -0.11850035 0.46110165
-0.7919749 -0.042233646 0.46462071
0.42981824 0.46738571 0.46964943
0.42816359 0.49072343 0.45700574
-0.2830281 0.51715958 0.46296167
0.40389699 0.51770806 0.46605885
-0.25729886 0.56726038 0.45904243
0.37803423 0.56792521 0.46249628
-0.23211557 0.5932762 0.46213233
0.35352784 0.5950532 0.47101068
-0.20688505 0.61934096 0.46522832
0.32800177 0.62046671 0.47064471
0.35210326 0.61779529 0.45779192
-0.18160723 0.64545435 0.46833014
0.30248317 0.64587885 0.47029948
0.32668123 0.64310908 0.4574492
-0.15627626 0.67158985 0.47131538
0.27696818 0.67128128 0.46993387
0.30126259 0.6684131 0.45708644
-0.15564695 0.69393516 0.45769107
-0.13058208 0.6958676 0.46605885
0.2514604 0.69668281 0.46958864
0.27585128 0.69371653 0.45674372
-0.10496872 0.72006381 0.46079886
0.25044522 0.71901441 0.45640123
-0.079751439 0.72206444 0.46918237
0.22575274 0.72137225 0.46628201
-0.079437204 0.74418795 0.4555757
-0.054194879 0.74624169 0.46391237
0.14953399 0.74757487 0.46932459
0.17471342 0.74621683 0.46381116
0.19980909 0.74486303 0.45831621
-0.028719109 0.77032661 0.45859873
-0.0033251557 0.77065474 0.45989001
0.022088846 0.77098823 0.46120286
0.04752307 0.77132207 0.46251678
0.072977558 0.77165592 0.46383154
0.098452307 0.77199018 0.46514738
0.12374952 0.77101898 0.46132421
0.14891104 0.76962519 0.45583749
-0.74387985 -0.34857398 0.47709882
-0.7183435 -0.34857398 0.47709882
-0.69280291 -0.34857219 0.47707832
-0.66726667 -0.34857219 0.47707832
-0.64173049 -0.34857219 0.47707832
-0.61619425 -0.34857219 0.47707832
-0.59066164 -0.34857398 0.47709882
-0.56512523 -0.34857398 0.47709882
-0.53958893 -0.34857398 0.47709882
-0.51405567 -0.34857565 0.47711921
-0.59035122 -0.27185676 0.47534525
-0.64259923 -0.24667071 0.48159266
-0.74512058 -0.14441131 0.48265648
-0.77078962 -0.093255997 0.48304558
-0.79513758 -0.016589176 0.47787404
-0.28413025 0.49393624 0.4759773
0.40546536 0.49441308 0.47879279
-0.25937849 0.52124888 0.48605764
-0.25833446 0.54434848 0.47249484
0.37949908 0.54484499 0.47518253
-0.23304935 0.57044905 0.47561026
0.35496172 0.57212418 0.4843154
-0.20771538 0.59659451 0.47871101
0.32933292 0.59764236 0.48394668
-0.18233511 0.62279314 0.48183811
0.30371168 0.62315905 0.48359823
-0.15690696 0.64904118 0.48497105
0.27809405 0.64866596 0.48322988
-0.13110915 0.6734733 0.47975266
0.2524837 0.67417186 0.4828819
-0.10538904 0.69780529 0.47444892
-0.080068283 0.69975752 0.48290217
0.20147964 0.70034409 0.48544252
0.22669312 0.69905376 0.47985494
