ply
format ascii 1.0
comment PCL generated
element vertex 1323
property float x
property float y
property float z
element camera 0
property float view_px
property float view_py
property float view_pz
property float x_axisx
property float x_axisy
property float x_axisz
property float y_axisx
property float y_axisy
property float y_axisz
property float z_axisx
property float z_axisy
property float z_axisz
property float focal
property float scalex
property float scaley
property float centerx
property float centery
property int viewportx
property int viewporty
property float k1
property float k2
end_header
0.060034066 -0.031121267 -0.11503845
0.076704852 -0.031108301 -0.11335123
0.010177544 -0.014493242 -0.11443764
0.026780259 -0.014534689 -0.11713302
0.043389291 -0.014528364 -0.11672282
0.060034066 -0.014502436 -0.11503839
0.076704852 -0.014476504 -0.11335135
0.010177544 0.002130229 -0.11443764
0.026780259 0.0020679943 -0.1171329
0.043389291 0.0020775422 -0.11672282
0.060034066 0.002116397 -0.11503828
0.076704852 0.002155371 -0.11335135
0.010177544 0.018753733 -0.1144377
0.026780259 0.018670719 -0.11713308
0.043389291 0.01868337 -0.11672288
0.060034066 0.018735271 -0.11503845
0.076704852 0.018787209 -0.1133514
0.010177544 0.035377238 -0.1144377
0.026780259 0.035273481 -0.11713302
0.043389291 0.035289232 -0.11672288
0.060034066 0.035354059 -0.11503839
0.076704852 0.035419006 -0.11335123
0.010177544 0.052000631 -0.11443758
0.026780259 0.051876161 -0.1171329
0.043389291 0.051895138 -0.11672288
0.060034066 0.051972855 -0.11503839
0.076704852 0.052050803 -0.11335135
0.010177544 0.068624094 -0.11443764
0.026780259 0.068478882 -0.11713308
0.043389291 0.06850104 -0.11672288
0.060034066 0.068591759 -0.11503845
0.076704852 0.068682685 -0.11335135
0.010177544 0.085247561 -0.1144377
0.026780259 0.085081562 -0.11713302
0.043389291 0.085106835 -0.11672276
0.060034066 0.085210636 -0.11503839
0.076704852 0.085314557 -0.11335135
0.010177544 0.10187103 -0.1144377
0.026780259 0.10168433 -0.11713308
0.043389291 0.10171266 -0.11672276
0.060034066 0.10182942 -0.11503839
0.076704852 0.10194631 -0.11335123
0.010177544 0.11849454 -0.1144377
0.026780259 0.11828704 -0.11713302
0.043389291 0.11831854 -0.11672282
0.060034066 0.11844821 -0.11503828
0.076704852 0.11857811 -0.11335135
0.010177544 0.13511796 -0.11443764
0.026780259 0.13488974 -0.1171329
0.043389291 0.13492446 -0.11672282
0.060034066 0.13506712 -0.11503839
0.076704852 0.13520996 -0.11335135
0.010177544 0.15174142 -0.11443764
0.026780259 0.15149245 -0.11713308
0.043389291 0.15153034 -0.11672276
0.060034066 0.15168592 -0.11503839
0.076704852 0.15184182 -0.1133514
0.010177544 0.16836496 -0.11443764
0.026780259 0.16809519 -0.11713302
0.043389291 0.16813622 -0.11672282
0.060034066 0.16830482 -0.11503839
0.076704852 0.16847356 -0.11335135
0.010177544 0.18498841 -0.1144377
0.026780259 0.1846979 -0.1171329
0.043389291 0.18474205 -0.11672282
0.060034066 0.18492368 -0.11503839
0.076704852 0.18510546 -0.11335135
0.010177544 0.20161179 -0.11443758
0.026780259 0.2013007 -0.11713308
0.043389291 0.20134793 -0.11672288
0.060034066 0.20154248 -0.11503839
0.076704852 0.20173728 -0.11335135
0.010177544 0.21823525 -0.11443764
0.026780259 0.21790329 -0.11713308
0.043389291 0.21795383 -0.11672288
0.060034066 0.21816126 -0.11503839
0.076704852 0.21836919 -0.11335135
0.010177544 0.23485872 -0.1144377
0.026780259 0.23450598 -0.1171329
0.043389291 0.23455974 -0.11672282
0.060034066 0.23478016 -0.11503845
0.076704852 0.23500091 -0.11335135
0.010177544 0.25148219 -0.1144377
0.026780259 0.25110877 -0.11713308
0.043389291 0.25116563 -0.11672288
0.060034066 0.25139895 -0.11503839
0.076704852 0.25163269 -0.11335135
0.010177544 0.26810566 -0.11443782
0.026780259 0.26771146 -0.1171329
0.043389291 0.26777151 -0.11672282
0.060034066 0.26801777 -0.11503839
0.076704852 0.26826462 -0.11335135
0.010177544 0.28472918 -0.11443758
0.026780259 0.28431424 -0.11713308
0.043389291 0.2843774 -0.11672288
0.060034066 0.28463659 -0.11503839
0.076704852 0.28489643 -0.11335135
0.010177544 0.30135265 -0.11443758
0.026780259 0.30091685 -0.11713308
0.043389291 0.3009831 -0.11672282
0.060034066 0.30125543 -0.11503845
0.076704852 0.3015281 -0.11335135
0.010177544 0.31797612 -0.1144377
0.026780259 0.31751955 -0.1171329
0.043389291 0.31758896 -0.11672276
0.060034066 0.31787443 -0.11503839
0.076704852 0.31816006 -0.11335135
0.026780259 0.33412233 -0.11713308
0.043389291 0.3341949 -0.11672276
0.060034066 0.33449319 -0.11503828
0.010177544 0.33459958 -0.1144377
0.076704852 0.33479187 -0.11335135
0.010177544 0.35122296 -0.11443764
0.026780259 0.35072502 -0.11713302
0.043389291 0.35080078 -0.11672282
0.060034066 0.35111201 -0.11503839
0.076704852 0.35142383 -0.11335135
0.010177544 0.36784643 -0.1144377
0.026780259 0.36732778 -0.1171329
0.043389291 0.36740664 -0.11672276
0.060034066 0.36773089 -0.11503839
0.076704852 0.36805546 -0.11335135
0.010177544 0.3844699 -0.1144377
0.026780259 0.38393047 -0.11713308
0.043389291 0.38401258 -0.11672282
0.060034066 0.38434973 -0.11503839
0.076704852 0.38468733 -0.11335135
0.010177544 0.40109336 -0.1144377
0.026780259 0.40053311 -0.11713302
0.043389291 0.4006184 -0.11672282
0.060034066 0.40096855 -0.11503845
0.076704852 0.40131921 -0.11335135
0.010177544 0.41771671 -0.11443764
0.026780259 0.41713583 -0.1171329
0.043389291 0.41722432 -0.11672276
0.060034066 0.4175874 -0.11503839
0.076704852 0.41795102 -0.1133514
0.026804741 0.4344486 -0.1139527
0.04343925 0.43455458 -0.11347789
-0.040054049 -0.43284905 -0.098797083
-0.023262829 -0.43230441 -0.10187292
-0.0065189498 -0.43175954 -0.10495061
0.010177544 -0.43121803 -0.10800928
0.026826937 -0.43067613 -0.11106962
0.04348284 -0.430751 -0.11064655
0.060179748 -0.43109033 -0.10873014
0.076905943 -0.43142837 -0.10682082
0.093662068 -0.43176892 -0.1048975
0.11044795 -0.43211001 -0.10297078
0.1272637 -0.43245173 -0.10104078
0.14410935 -0.43279415 -0.099107146
-0.073473498 -0.41580471 -0.10057104
-0.056657918 -0.41533518 -0.10334355
-0.039884936 -0.41486496 -0.10611993
-0.023154974 -0.41439784 -0.10887849
-0.0064674532 -0.41393006 -0.11164045
0.093405783 -0.41394433 -0.11155599
0.11013107 -0.41423637 -0.10983169
0.12688304 -0.41452882 -0.10810465
0.1436618 -0.4148218 -0.10637474
0.16069691 -0.41567639 -0.10132885
-0.073461585 -0.39902446 -0.10088068
-0.056649722 -0.39858326 -0.10360986
-0.039880276 -0.3981449 -0.10632175
-0.023152526 -0.39770588 -0.10903746
-0.0064667193 -0.39726973 -0.11173552
0.093401708 -0.39728162 -0.11166167
0.11012471 -0.39755526 -0.1099692
0.12687391 -0.39782923 -0.1082744
0.14364937 -0.39810359 -0.10657662
0.16067548 -0.39890194 -0.10163838
-0.073461585 -0.38229662 -0.10088068
-0.056649722 -0.38187641 -0.10360998
-0.039880276 -0.38145891 -0.10632175
-0.023152526 -0.38104081 -0.10903734
-0.0064667193 -0.38062537 -0.11173564
0.093401708 -0.38063684 -0.11166167
0.11012471 -0.38089737 -0.1099692
0.12687391 -0.38115835 -0.10827422
0.14364937 -0.38141966 -0.10657662
0.16067548 -0.38218001 -0.1016382
-0.073461585 -0.36556882 -0.10088074
-0.056649722 -0.36516964 -0.10360986
-0.039880276 -0.36477298 -0.10632175
-0.023152526 -0.36437577 -0.10903746
0.11012471 -0.36423951 -0.10996926
0.12687391 -0.36448744 -0.10827428
0.14364937 -0.36473569 -0.10657656
0.16067548 -0.36545801 -0.1016382
-0.0064667193 -0.36398116 -0.11173564
0.093401708 -0.36399201 -0.11166149
-0.073461585 -0.34884095 -0.10088068
-0.056649722 -0.34846279 -0.10360998
-0.039880276 -0.34808707 -0.10632163
-0.023152526 -0.34771082 -0.10903728
-0.0064667193 -0.34733689 -0.11173546
0.093401708 -0.34734708 -0.11166161
0.11012471 -0.3475816 -0.10996938
0.12687391 -0.34781653 -0.10827422
0.14364937 -0.34805173 -0.10657656
0.16067548 -0.34873596 -0.10163832
-0.073461585 -0.33211324 -0.10088068
-0.056649722 -0.33175603 -0.10360986
-0.039880276 -0.33140114 -0.10632175
-0.023152526 -0.33104578 -0.10903728
-0.0064667193 -0.33069259 -0.11173564
0.093401708 -0.3307023 -0.11166161
0.11012471 -0.33092374 -0.10996926
0.12687391 -0.33114558 -0.10827422
0.14364937 -0.33136782 -0.10657656
0.16067548 -0.33201399 -0.1016382
-0.073461585 -0.3153854 -0.10088056
-0.056649722 -0.31504917 -0.10360998
-0.039880276 -0.31471518 -0.10632163
-0.023152526 -0.31438068 -0.10903734
-0.0064667193 -0.31404838 -0.11173564
0.093401708 -0.31405747 -0.11166161
0.11012471 -0.31426594 -0.1099692
0.12687391 -0.3144747 -0.10827416
0.14364937 -0.31468371 -0.10657662
0.16067548 -0.31529203 -0.10163838
-0.073461585 -0.29865757 -0.10088056
-0.056649722 -0.29834235 -0.10360998
0.16067548 -0.29857004 -0.10163832
-0.039880276 -0.29802918 -0.10632175
-0.023152526 -0.29771563 -0.10903728
-0.0064667193 -0.29740402 -0.11173564
0.093401708 -0.29741263 -0.11166167
0.11012471 -0.29760808 -0.1099692
0.12687391 -0.29780373 -0.10827428
0.14364937 -0.2979998 -0.10657662
-0.073461585 -0.28192973 -0.10088068
-0.056649722 -0.28163555 -0.1036098
-0.039880276 -0.28134328 -0.10632181
-0.023152526 -0.28105062 -0.10903734
-0.0064667193 -0.28075984 -0.11173564
0.093401708 -0.2807678 -0.11166161
0.11012471 -0.28095022 -0.10996926
0.12687391 -0.28113291 -0.10827428
0.14364937 -0.28131583 -0.10657656
0.16067548 -0.28184807 -0.10163832
-0.073461585 -0.26520187 -0.10088068
-0.056649722 -0.2649287 -0.10360986
-0.039880276 -0.26465732 -0.10632163
-0.023152526 -0.26438552 -0.10903734
-0.0064667193 -0.26411557 -0.11173552
0.093401708 -0.26412302 -0.11166161
0.11012471 -0.26429233 -0.10996926
0.12687391 -0.26446193 -0.10827428
0.14364937 -0.26463187 -0.10657656
0.16067548 -0.26512602 -0.10163832
-0.073461585 -0.24847408 -0.10088068
-0.056649722 -0.24822196 -0.1036098
-0.039880276 -0.24797145 -0.10632163
-0.023152526 -0.24772051 -0.10903746
-0.0064667193 -0.24747127 -0.11173564
0.093401708 -0.24747816 -0.11166161
0.11012471 -0.24763443 -0.1099692
0.12687391 -0.24779107 -0.10827422
0.14364937 -0.2479479 -0.10657656
0.16067548 -0.24840404 -0.10163832
-0.073461585 -0.23174624 -0.10088074
-0.056649722 -0.23151511 -0.10360986
-0.039880276 -0.23128547 -0.10632175
-0.023152526 -0.23105557 -0.10903728
-0.0064667193 -0.23082706 -0.11173564
0.093401708 -0.23083323 -0.11166167
0.11012471 -0.23097658 -0.10996926
0.12687391 -0.23112012 -0.10827428
0.14364937 -0.23126389 -0.10657662
0.16067548 -0.23168211 -0.1016382
-0.073461585 -0.21501838 -0.10088068
-0.056649722 -0.21480827 -0.10360998
-0.039880276 -0.21459949 -0.10632181
-0.023152526 -0.21439053 -0.10903728
-0.0064667193 -0.21418279 -0.11173552
0.093401708 -0.21418846 -0.11166161
0.11012471 -0.21431869 -0.10996938
0.12687391 -0.21444923 -0.10827422
0.14364937 -0.21457988 -0.10657656
0.16067548 -0.21496002 -0.10163832
-0.073461585 -0.1982906 -0.10088068
-0.056649722 -0.19810149 -0.10360986
-0.039880276 -0.19791365 -0.10632163
-0.023152526 -0.19772543 -0.10903728
-0.0064667193 -0.19753851 -0.11173564
0.093401708 -0.19754361 -0.11166161
0.11012471 -0.19766092 -0.1099692
0.12687391 -0.19777828 -0.10827428
0.14364937 -0.19789593 -0.10657656
0.16067548 -0.19823804 -0.1016382
-0.073461585 -0.18156272 -0.10088068
-0.056649722 -0.18139471 -0.10360998
-0.039880276 -0.18122764 -0.10632163
-0.023152526 -0.1810604 -0.10903728
-0.0064667193 -0.18089421 -0.11173564
0.093401708 -0.18089885 -0.11166161
0.11012471 -0.18100305 -0.1099692
0.12687391 -0.18110739 -0.10827422
0.14364937 -0.18121201 -0.10657656
0.16067548 -0.18151602 -0.10163832
-0.073461585 -0.16483496 -0.10088056
-0.056649722 -0.16468781 -0.10360998
-0.039880276 -0.16454172 -0.10632175
-0.023152526 -0.16439538 -0.10903734
-0.0064667193 -0.16425003 -0.11173552
0.093401708 -0.16425392 -0.11166167
0.11012471 -0.16434513 -0.1099692
0.12687391 -0.16443644 -0.10827428
0.14364937 -0.16452791 -0.10657662
0.16067548 -0.1647941 -0.10163832
-0.073461585 -0.14810708 -0.10088056
-0.056649722 -0.147981 -0.1036098
-0.039880276 -0.14785574 -0.10632181
-0.023152526 -0.14773035 -0.10903746
-0.0064667193 -0.14760569 -0.11173564
0.093401708 -0.14760908 -0.11166161
0.11012471 -0.14768733 -0.10996926
0.12687391 -0.14776564 -0.10827422
0.14364937 -0.14784399 -0.10657656
0.16067548 -0.14807215 -0.1016382
-0.073461585 -0.13137925 -0.10088056
-0.056649722 -0.13127419 -0.10360998
-0.039880276 -0.13116984 -0.10632163
-0.023152526 -0.13106534 -0.10903728
-0.0064667193 -0.13096148 -0.11173564
0.093401708 -0.13096432 -0.11166161
0.11012471 -0.1310294 -0.10996926
0.12687391 -0.13109468 -0.10827428
0.14364937 -0.13116004 -0.10657662
0.16067548 -0.1313501 -0.10163832
-0.073461175 -0.11465105 -0.10089123
-0.056649722 -0.11456741 -0.1036098
-0.039880276 -0.11448388 -0.10632163
-0.023152526 -0.11440031 -0.10903728
-0.0064667193 -0.11431727 -0.11173552
0.093401708 -0.11431949 -0.11166161
0.11012471 -0.11437152 -0.10996926
0.12687391 -0.11442381 -0.10827422
0.14364937 -0.11447603 -0.10657656
0.16067548 -0.11462811 -0.10163832
-0.073461175 -0.097923316 -0.10089135
-0.056649722 -0.097860612 -0.10360998
-0.039880276 -0.097797908 -0.10632163
-0.023152526 -0.097735286 -0.10903728
-0.0064667193 -0.097672895 -0.11173564
0.093401708 -0.097674623 -0.11166167
0.11012471 -0.097713754 -0.1099692
0.12687391 -0.097752839 -0.10827428
0.14364937 -0.097792089 -0.10657656
0.16067548 -0.097906068 -0.10163832
-0.073461585 -0.081195734 -0.10088068
-0.056649722 -0.081153736 -0.10360998
-0.039880276 -0.081112012 -0.10632175
-0.023152526 -0.08107017 -0.10903728
-0.0064667193 -0.081028685 -0.11173564
0.093401708 -0.08102978 -0.11166161
0.11012471 -0.081055865 -0.1099692
0.12687391 -0.081081957 -0.10827422
0.14364937 -0.081108078 -0.10657662
0.16067548 -0.081184104 -0.10163832
-0.073461175 -0.06446784 -0.10089135
-0.056649722 -0.064446941 -0.1036098
-0.039880276 -0.064426035 -0.10632175
-0.023152526 -0.064405136 -0.10903734
-0.0064667193 -0.064384311 -0.11173564
0.093401708 -0.064385019 -0.11166161
0.11012471 -0.064398021 -0.10996926
0.12687391 -0.064411029 -0.10827428
0.14364937 -0.064424068 -0.10657656
0.16067548 -0.064462103 -0.1016382
-0.039880276 -0.047740217 -0.10632163
-0.023152526 -0.047740139 -0.10903746
0.093401708 -0.047740176 -0.11166161
0.12687391 -0.047740139 -0.10827422
-0.073461175 -0.047740098 -0.10089141
-0.056649722 -0.047740098 -0.10360998
-0.0064667193 -0.047740098 -0.11173564
0.11012471 -0.047740098 -0.1099692
0.14364937 -0.047740098 -0.10657656
0.16067548 -0.047740098 -0.10163832
-0.073461175 -0.031012397 -0.10089135
-0.056649722 -0.031033339 -0.1036098
-0.039880276 -0.031054201 -0.10632163
-0.023152526 -0.031075181 -0.10903728
-0.0064667193 -0.031095887 -0.11173552
0.093401708 -0.03109522 -0.11166161
0.11012471 -0.031082213 -0.10996926
0.12687391 -0.031069169 -0.10827428
0.14364937 -0.031056205 -0.10657656
0.16067548 -0.031018095 -0.1016382
-0.073461175 -0.014284618 -0.10089135
-0.056649722 -0.014326502 -0.10360986
-0.039880276 -0.014368225 -0.10632163
-0.023152526 -0.014410067 -0.10903728
-0.0064667193 -0.014451593 -0.11173564
0.093401708 -0.014450457 -0.11166161
0.11012471 -0.014424369 -0.10996926
0.12687391 -0.014398359 -0.10827422
0.14364937 -0.014372192 -0.10657656
0.16067548 -0.01429617 -0.1016382
-0.073461175 0.0024430826 -0.10089123
-0.056649722 0.0023803785 -0.10360998
-0.039880276 0.0023177117 -0.10632175
-0.023152526 0.0022549666 -0.10903728
-0.0064667193 0.0021926574 -0.11173564
0.093401708 0.002194386 -0.11166161
0.11012471 0.0022334792 -0.10996938
0.12687391 0.0022726469 -0.10827428
0.14364937 0.0023118183 -0.10657662
0.16067548 0.0024258345 -0.10163832
-0.073461175 0.019170862 -0.10089123
-0.056649722 0.019087058 -0.10360986
-0.039880276 0.019003611 -0.10632163
-0.023152526 0.018920001 -0.10903734
-0.0064667193 0.018836912 -0.11173552
0.093401708 0.018839229 -0.11166167
0.11012471 0.018891286 -0.1099692
0.12687391 0.0189435 -0.10827422
0.14364937 0.018995833 -0.10657656
0.16067548 0.019147839 -0.1016382
-0.073461175 0.0358986 -0.10089135
-0.056649722 0.035793979 -0.10360986
-0.039880276 0.035689544 -0.10632163
-0.023152526 0.035585117 -0.10903734
-0.0064667193 0.035481196 -0.11173564
0.093401708 0.035484064 -0.11166167
0.11012471 0.03554913 -0.1099692
0.12687391 0.035614464 -0.10827428
0.14364937 0.035679761 -0.10657656
0.16067548 0.035869878 -0.10163832
-0.073461175 0.052626301 -0.10089123
-0.056649722 0.05250081 -0.10360998
-0.039880276 0.052375522 -0.10632175
-0.023152526 0.052250151 -0.10903734
-0.0064667193 0.052125487 -0.11173552
0.093401708 0.052128907 -0.11166161
0.11012471 0.052207056 -0.1099692
0.12687391 0.052285355 -0.10827422
0.14364937 0.052363697 -0.10657656
0.16067548 0.052591849 -0.10163832
-0.073461175 0.069354087 -0.10089135
-0.056649722 0.069207579 -0.10360986
-0.039880276 0.069061503 -0.10632175
-0.023152526 0.068915144 -0.10903746
-0.0064667193 0.068769708 -0.11173552
0.093401708 0.068773672 -0.11166161
0.11012471 0.068864897 -0.10996926
0.12687391 0.068956286 -0.10827428
0.14364937 0.069047704 -0.10657656
0.16067548 0.069313809 -0.10163814
-0.073461175 0.086081743 -0.10089123
-0.056649722 0.085914448 -0.10360998
-0.039880276 0.085747391 -0.10632175
-0.023152526 0.085580096 -0.10903728
-0.0064667193 0.085413978 -0.11173564
0.093401708 0.085418582 -0.11166161
0.11012471 0.085522786 -0.10996926
0.12687391 0.085627168 -0.10827422
0.14364937 0.08573173 -0.10657662
0.16067548 0.086035863 -0.10163832
-0.073461175 0.10280952 -0.10089135
-0.056649722 0.10262112 -0.10360986
-0.03988003 0.10243258 -0.10633224
-0.023152526 0.10224521 -0.10903728
-0.0064667193 0.10205828 -0.11173552
0.093401708 0.10206334 -0.11166161
0.11012471 0.10218069 -0.10996926
0.12687391 0.10229814 -0.10827428
0.14364937 0.10241565 -0.10657656
0.16067548 0.10275781 -0.1016382
-0.073461175 0.11953734 -0.10089135
-0.056649722 0.11932805 -0.10360986
-0.03988003 0.11911841 -0.10633236
-0.023152526 0.11891025 -0.10903728
-0.0064667193 0.11870246 -0.11173552
0.093401708 0.11870819 -0.11166161
0.11012471 0.11883843 -0.1099692
0.12687391 0.11896895 -0.10827422
0.14364937 0.11909966 -0.10657656
0.16067548 0.11947989 -0.10163832
-0.073461175 0.13626504 -0.10089123
-0.056649722 0.13603489 -0.10360998
-0.03988003 0.13580428 -0.10633224
-0.023152526 0.13557525 -0.10903734
-0.0064667193 0.13534684 -0.11173564
0.093401708 0.13535298 -0.11166161
0.11012471 0.13549633 -0.1099692
0.12687391 0.13563988 -0.10827428
0.14364937 0.13578361 -0.10657656
0.16067548 0.13620178 -0.10163832
-0.073461175 0.1529928 -0.10089135
-0.056649722 0.15274163 -0.10360986
-0.03988003 0.1524902 -0.10633236
-0.023152526 0.15224037 -0.10903734
-0.0064667193 0.15199104 -0.11173552
0.093401708 0.15199792 -0.11166167
0.11012471 0.15215418 -0.1099692
0.12687391 0.15231076 -0.10827422
0.14364937 0.15246761 -0.10657662
0.16067548 0.15292375 -0.1016382
-0.073461175 0.16972065 -0.10089135
-0.056649722 0.16944844 -0.10360998
-0.03988003 0.16917598 -0.10633236
-0.023152526 0.16890539 -0.10903734
-0.0064666392 0.16863428 -0.11174613
0.093401708 0.1686427 -0.11166161
0.11012471 0.16881201 -0.10996926
0.12687391 0.16898173 -0.10827428
0.14364937 0.16915163 -0.10657656
0.16067548 0.16964582 -0.10163832
-0.073461175 0.18644826 -0.10089135
-0.056649722 0.1861553 -0.1036098
-0.03988003 0.18586187 -0.10633236
-0.023152526 0.18557036 -0.10903728
-0.0064667193 0.18527953 -0.11173564
0.093401708 0.18528754 -0.11166161
0.11012471 0.18546999 -0.1099692
0.12687391 0.18565263 -0.10827422
0.14364937 0.18583563 -0.10657656
0.16067548 0.18636785 -0.1016382
-0.03988003 0.2025477 -0.10633224
-0.023152526 0.20223534 -0.10903728
-0.0064666392 0.20192255 -0.11174613
0.093401708 0.20193237 -0.11166161
0.11012471 0.20212781 -0.10996926
0.12687391 0.20232356 -0.10827428
0.14364937 0.20251954 -0.10657656
-0.073461175 0.20317608 -0.10089123
-0.056649722 0.20286211 -0.10360986
0.16067548 0.20308974 -0.1016382
-0.073461175 0.21990371 -0.10089117
-0.056649722 0.21956894 -0.10360998
-0.03988003 0.21923366 -0.10633236
-0.023152526 0.21890038 -0.10903728
-0.0064666392 0.21856672 -0.11174613
0.093401708 0.2185773 -0.11166161
0.11012471 0.21878564 -0.10996938
0.12687391 0.21899444 -0.10827422
0.14364937 0.2192035 -0.10657656
0.16067548 0.21981171 -0.10163832
-0.073461175 0.23663154 -0.10089123
-0.056649722 0.23627567 -0.10360986
-0.03988003 0.23591948 -0.10633218
-0.023152526 0.23556542 -0.10903734
-0.0064666392 0.23521104 -0.11174613
0.093401708 0.23522198 -0.11166167
0.11012471 0.2354435 -0.1099692
0.12687391 0.23566541 -0.10827428
0.14364937 0.23588759 -0.10657656
0.16067548 0.23653376 -0.1016382
-0.073461175 0.25335923 -0.10089135
-0.056649722 0.25298259 -0.10360998
-0.03988003 0.25260538 -0.10633236
-0.023152526 0.25223058 -0.10903728
-0.0064666392 0.25185519 -0.11174613
0.093401708 0.25186685 -0.11166161
0.11012471 0.25210136 -0.1099692
0.12687391 0.25233626 -0.10827422
0.14364937 0.25257146 -0.10657656
0.16067548 0.25325575 -0.10163832
-0.0064666392 0.26849931 -0.11174613
0.093401708 0.26851168 -0.11166149
-0.073461175 0.270087 -0.10089117
-0.056649722 0.26968932 -0.1036098
-0.03988003 0.26929107 -0.10633224
-0.023152526 0.2688956 -0.10903734
0.11012471 0.26875919 -0.10996926
0.12687391 0.26900724 -0.10827428
0.14364937 0.26925549 -0.10657656
0.16067548 0.26997778 -0.1016382
-0.073461175 0.28681478 -0.10089123
-0.056649722 0.28639615 -0.10360986
-0.03988003 0.28597698 -0.10633236
-0.023152526 0.28556064 -0.10903746
-0.0064666392 0.28514358 -0.11174613
0.093401708 0.28515661 -0.11166161
0.11012471 0.28541717 -0.1099692
0.12687391 0.28567815 -0.10827416
0.14364937 0.28593951 -0.1065765
0.16067548 0.28669968 -0.10163814
-0.073461175 0.30354252 -0.10089135
-0.056649722 0.30310312 -0.10360998
-0.03988003 0.30266285 -0.10633224
-0.023152526 0.30222559 -0.10903728
-0.0064666392 0.30178773 -0.11174613
0.093401708 0.30180144 -0.11166161
0.11012471 0.302075 -0.10996926
0.12687391 0.30234891 -0.10827428
0.14364937 0.30262336 -0.10657656
0.16067548 0.30342183 -0.1016382
-0.073461175 0.32027024 -0.10089123
-0.056649722 0.31980982 -0.1036098
-0.03988003 0.31934878 -0.10633236
-0.023152526 0.31889063 -0.10903728
-0.0064666392 0.31843185 -0.11174613
0.093401708 0.31844613 -0.11166161
0.11012471 0.3187328 -0.10996938
0.12687391 0.31901985 -0.10827428
0.14364937 0.31930745 -0.10657662
0.16067548 0.32014373 -0.1016382
-0.073461175 0.33699799 -0.10089135
-0.056649722 0.33651662 -0.10360998
-0.03988003 0.3360346 -0.10633218
-0.023152526 0.33555564 -0.10903734
-0.0064666392 0.33507603 -0.11174613
0.093401708 0.33509097 -0.11166161
0.11012471 0.33539069 -0.10996914
0.12687391 0.3356908 -0.10827428
0.14364937 0.33599141 -0.10657656
0.16067548 0.33686581 -0.10163832
-0.073461175 0.3537257 -0.10089117
-0.056649722 0.35322353 -0.10360998
-0.03988003 0.3527205 -0.10633236
-0.023152526 0.35222071 -0.10903734
-0.0064666392 0.35172027 -0.11174613
0.093401708 0.35173592 -0.11166161
0.11012471 0.35204855 -0.1099692
0.12687391 0.35236162 -0.10827428
0.14364937 0.35267532 -0.10657656
0.16067548 0.35358775 -0.10163832
-0.073461175 0.37045339 -0.10089135
-0.056649722 0.36993027 -0.1036098
-0.03988003 0.36940628 -0.10633236
-0.023152526 0.36888582 -0.10903728
-0.0064666392 0.36836445 -0.11174613
0.093401708 0.36838076 -0.11166161
0.11012471 0.36870638 -0.1099692
0.12687391 0.36903256 -0.10827428
0.14364937 0.36935937 -0.10657656
0.16067548 0.37030968 -0.1016382
-0.073461175 0.38718122 -0.10089135
-0.056649387 0.38663495 -0.10362047
-0.03988003 0.38609213 -0.10633236
-0.023152526 0.38555086 -0.10903734
-0.0064666392 0.38500863 -0.11174613
0.093401708 0.38502559 -0.11166149
0.11012471 0.38536435 -0.1099692
0.12687391 0.3857035 -0.10827428
0.14364937 0.38604343 -0.10657656
0.16067548 0.38703173 -0.10163832
-0.073461175 0.40390888 -0.10089123
-0.056649387 0.40334174 -0.10362059
-0.03988003 0.402778 -0.10633224
-0.023152526 0.40221581 -0.10903728
-0.0064666392 0.40165269 -0.11174613
0.093401708 0.40167037 -0.11166173
0.11012471 0.40202215 -0.1099692
0.12687391 0.40237445 -0.10827428
0.14364937 0.40272722 -0.10657656
0.16067548 0.40375361 -0.10163832
-0.073461175 0.42063668 -0.10089135
-0.056649387 0.42004848 -0.10362047
-0.03988003 0.4194639 -0.10633236
-0.023152526 0.41888085 -0.10903728
-0.0064666392 0.41829705 -0.11174607
0.093401708 0.4183152 -0.11166161
0.11012471 0.41868004 -0.10996938
0.12687391 0.4190453 -0.10827428
0.14364937 0.41941124 -0.10657656
0.16067548 0.42047569 -0.10163814
-0.040004451 0.4373526 -0.1009447
-0.023226745 0.43662211 -0.10421664
-0.0064994888 0.43589383 -0.1074788
0.010177544 0.43517008 -0.11072057
0.060116686 0.4350048 -0.1114608
0.076825619 0.43545839 -0.1094293
0.093565978 0.43591279 -0.10739392
0.11033735 0.43636563 -0.1053654
0.12714075 0.43682161 -0.10332239
0.14397517 0.43727621 -0.10128617
-0.09085796 -0.43504289 -0.086406112
-0.073782466 -0.43395615 -0.09254396
-0.056893222 -0.43339708 -0.095701873
0.1612981 -0.43393713 -0.092651486
-0.10760984 -0.41792905 -0.088027477
0.19530858 -0.41800225 -0.087595284
-0.090407811 -0.41655308 -0.096152186
0.17794369 -0.41682562 -0.094542921
-0.10756097 -0.40095568 -0.088934481
-0.090385035 -0.39970917 -0.096645296
0.1779007 -0.39995882 -0.095100999
0.19523086 -0.40102378 -0.088513374
-0.10756097 -0.38413587 -0.088934422
-0.090385035 -0.38294873 -0.096645296
0.1779007 -0.38318652 -0.095100999
0.19523086 -0.38420063 -0.088513553
-0.10756097 -0.3673161 -0.088934481
-0.090385035 -0.36618832 -0.096645296
0.1779007 -0.36641413 -0.095101058
0.19523086 -0.3673777 -0.088513553
-0.10756097 -0.35049632 -0.088934422
-0.090385035 -0.34942788 -0.096645355
0.1779007 -0.34964186 -0.095100939
0.19523086 -0.35055459 -0.088513553
-0.10756097 -0.33367652 -0.088934481
-0.090385035 -0.33266744 -0.096645296
0.1779007 -0.3328695 -0.095100999
0.19523086 -0.33373159 -0.088513494
-0.10756097 -0.31685674 -0.088934422
-0.090385035 -0.315907 -0.096645296
0.1779007 -0.3160972 -0.095101058
0.19523086 -0.31690863 -0.088513494
-0.10756097 -0.30003691 -0.088934422
-0.090385035 -0.29914656 -0.096645355
0.1779007 -0.29932484 -0.095101058
0.19523086 -0.30008551 -0.088513494
-0.10756097 -0.2832171 -0.088934541
-0.090385035 -0.28238615 -0.096645355
0.1779007 -0.28255254 -0.095100999
0.19523086 -0.28326252 -0.088513494
-0.10756097 -0.26639736 -0.088934422
-0.090385035 -0.26562572 -0.096645296
0.1779007 -0.26578027 -0.095100999
0.19523086 -0.26643953 -0.088513374
-0.10756097 -0.24957758 -0.088934541
-0.090385035 -0.24886528 -0.096645296
0.1779007 -0.2490079 -0.095101058
0.19523086 -0.24961646 -0.088513553
-0.10756097 -0.23275781 -0.088934422
0.19523086 -0.23279341 -0.088513374
-0.090385035 -0.23210485 -0.096645355
0.1779007 -0.23223563 -0.095100939
-0.10756097 -0.21593799 -0.088934541
-0.090385035 -0.2153444 -0.096645355
0.1779007 -0.21546333 -0.095100999
0.19523086 -0.21597038 -0.088513553
-0.10756097 -0.19911824 -0.088934422
-0.090385035 -0.19858398 -0.096645296
0.1779007 -0.19869095 -0.095100999
0.19523086 -0.1991474 -0.088513494
-0.10756097 -0.18229838 -0.088934481
-0.090385035 -0.18182352 -0.096645355
0.1779007 -0.18191861 -0.095100999
0.19523086 -0.18232433 -0.088513494
-0.10756097 -0.16547865 -0.088934422
-0.090385035 -0.16506322 -0.096645176
0.1779007 -0.16514643 -0.095100999
0.19523086 -0.16550131 -0.088513553
-0.10756097 -0.14865881 -0.088934481
-0.090385035 -0.14830276 -0.096645176
0.1779007 -0.14837405 -0.095100999
0.19523086 -0.14867829 -0.088513494
-0.10756097 -0.13183913 -0.088934422
-0.090385035 -0.13154234 -0.096645176
0.1779007 -0.13160171 -0.095100999
0.19523086 -0.13185535 -0.088513494
-0.10756097 -0.11501923 -0.088934481
-0.090385035 -0.11478189 -0.096645176
0.1779007 -0.11482939 -0.095101058
0.19523086 -0.11503224 -0.088513553
-0.10756097 -0.098199554 -0.088934422
-0.090385035 -0.098021463 -0.096645176
0.1779007 -0.098057136 -0.095100999
0.19523086 -0.098209217 -0.088513494
-0.10756097 -0.081379727 -0.088934481
-0.090385035 -0.081261031 -0.096645176
0.1779007 -0.081284761 -0.095100999
0.19523086 -0.081386209 -0.088513553
-0.10756097 -0.06455981 -0.088934481
-0.090385035 -0.064500563 -0.096645176
0.1779007 -0.064512469 -0.095100999
0.19523086 -0.064563155 -0.088513494
-0.10756097 -0.047740139 -0.088934481
-0.090385035 -0.047740139 -0.096645176
0.19523086 -0.047740139 -0.088513374
0.1779007 -0.047740098 -0.095101058
-0.10756097 -0.030920304 -0.088934481
-0.090385035 -0.030979747 -0.096645176
0.1779007 -0.030967806 -0.095100939
0.19523086 -0.030917084 -0.088513553
-0.10756097 -0.014100593 -0.088934481
-0.090385035 -0.014219321 -0.096645176
0.1779007 -0.014195513 -0.095100999
0.19523086 -0.014094107 -0.088513494
-0.10756097 0.0027192794 -0.088934481
-0.090385035 0.0025411472 -0.096645176
0.1779007 0.0025768206 -0.095101058
0.19523086 0.0027290247 -0.088513553
-0.10756097 0.019538958 -0.088934481
-0.090385035 0.019301575 -0.096645176
0.1779007 0.019349191 -0.095101058
0.19523086 0.019551959 -0.088513553
-0.10756097 0.03635883 -0.088934481
-0.090384543 0.036061648 -0.096656024
0.1779007 0.036121409 -0.095100999
0.19523086 0.036374975 -0.088513374
-0.10756097 0.05317862 -0.088934422
-0.090385035 0.052822467 -0.096645176
0.1779007 0.052893776 -0.095100999
0.19523086 0.05319811 -0.088513553
-0.10756097 0.069998369 -0.088934481
-0.090385035 0.069582894 -0.096645176
0.1779007 0.069666117 -0.095100999
0.19523086 0.070021048 -0.088513494
-0.10756097 0.086818159 -0.088934422
-0.090384543 0.086342648 -0.096655965
0.1779007 0.086438358 -0.095100999
0.19523086 0.086844087 -0.088513374
-0.10756097 0.10363796 -0.088934481
-0.090384543 0.103103 -0.096656024
0.1779007 0.10321069 -0.095100999
0.19523086 0.10366715 -0.088513494
-0.10756097 0.12045771 -0.088934422
-0.090384543 0.11986332 -0.096655965
0.1779007 0.11998306 -0.095100999
0.19523086 0.12049012 -0.088513494
-0.090384543 0.13662367 -0.096655965
0.1779007 0.13675544 -0.095100999
-0.10756097 0.1372775 -0.088934481
0.19523086 0.13731322 -0.088513553
-0.10756097 0.15409738 -0.088934541
-0.090384543 0.15338413 -0.096656024
0.1779007 0.15352765 -0.095100939
0.19523086 0.15413623 -0.088513494
-0.10756097 0.17091712 -0.088934422
-0.090384543 0.1701443 -0.096655965
0.1779007 0.17029995 -0.095100999
0.19523086 0.1709592 -0.088513374
-0.10756097 0.18773697 -0.088934481
-0.090384543 0.18690468 -0.096656024
0.1779007 0.18707228 -0.095100999
0.19523086 0.18778224 -0.088513553
-0.10756097 0.20455661 -0.088934422
-0.090384543 0.20366508 -0.096656024
0.1779007 0.20384464 -0.095100999
0.19523086 0.20460528 -0.088513374
-0.10756097 0.22137648 -0.088934541
-0.090384543 0.22042534 -0.096655846
0.1779007 0.22061694 -0.095100999
0.19523086 0.22142825 -0.088513374
-0.10756097 0.23819625 -0.088934422
-0.090384543 0.23718584 -0.096655846
0.1779007 0.23738933 -0.095100999
0.19523086 0.2382513 -0.088513553
-0.10756097 0.25501612 -0.088934481
-0.090384543 0.25394621 -0.096655846
0.1779007 0.25416166 -0.095100999
0.19523086 0.25507441 -0.088513374
-0.10756097 0.27183589 -0.088934422
-0.090384543 0.27070647 -0.096655846
0.1779007 0.2709339 -0.095101118
0.19523086 0.27189744 -0.088513553
-0.10756097 0.28865561 -0.088934541
-0.090384543 0.28746688 -0.096655846
0.1779007 0.28770617 -0.095100999
0.19523086 0.2887204 -0.088513553
-0.10756097 0.30547535 -0.088934422
-0.090384543 0.30422723 -0.096655965
0.1779007 0.30447853 -0.095100999
0.19523086 0.30554348 -0.088513374
-0.090384543 0.32098749 -0.096655846
0.1779007 0.32125089 -0.095100999
-0.10756097 0.32229519 -0.088934422
0.19523086 0.32236651 -0.088513553
-0.10756097 0.33911499 -0.088934422
-0.090384543 0.33774784 -0.096655846
0.1779007 0.3380231 -0.095100999
0.19523086 0.33918944 -0.088513553
-0.10756097 0.35593468 -0.088934481
-0.090384543 0.35450825 -0.096655965
0.1779007 0.35479558 -0.095100939
0.19523086 0.35601249 -0.088513374
-0.10756097 0.3727546 -0.088934541
-0.090384543 0.37126863 -0.096656024
0.1779007 0.37156785 -0.095100999
0.19523086 0.37283558 -0.088513553
-0.10756039 0.38957214 -0.08894527
-0.090384543 0.38802889 -0.096655846
0.1779007 0.38834015 -0.095100999
0.19523086 0.38965851 -0.088513494
-0.10756039 0.40639198 -0.08894527
-0.090384543 0.40478924 -0.096655965
0.1779007 0.40511236 -0.095100999
0.19523086 0.40648171 -0.088513494
-0.10756505 0.42323017 -0.088858962
-0.090384543 0.42154959 -0.096656024
0.1779007 0.42188475 -0.095100999
0.19523907 0.42332569 -0.088416278
-0.073711723 0.43881768 -0.09438175
-0.056832843 0.43808505 -0.097662747
0.1611574 0.43875054 -0.094682515
-0.090790547 0.44027233 -0.087865531
0.17861919 0.44074073 -0.085767746
-0.10820476 -0.43671063 -0.076987147
0.17870255 -0.43534768 -0.084684789
0.1962346 -0.4367685 -0.076659858
-0.12494137 -0.41931716 -0.079831183
0.21278456 -0.41918635 -0.08060348
0.23037158 -0.42037612 -0.073577821
-0.14228117 -0.4034771 -0.073337018
-0.12485965 -0.4022128 -0.081158042
0.21266611 -0.40209508 -0.081886053
0.23020741 -0.40317303 -0.075218201
-0.14228117 -0.38653728 -0.073336899
-0.12485965 -0.38533315 -0.081157923
0.21266611 -0.38522103 -0.081886053
0.23020741 -0.38624763 -0.075218201
-0.14228117 -0.36959741 -0.073336899
-0.12485965 -0.36845347 -0.081157923
0.21266611 -0.36834705 -0.081886053
0.23020741 -0.36932221 -0.075218201
-0.14228117 -0.35265762 -0.07333684
-0.12485965 -0.35157385 -0.081158042
0.21266611 -0.351473 -0.081886053
0.23020741 -0.35239694 -0.075218141
-0.14228117 -0.33571771 -0.073337018
-0.12485965 -0.33469415 -0.081158042
0.21266611 -0.33459896 -0.081886053
0.23020741 -0.33547151 -0.075218141
-0.14228117 -0.31877783 -0.073337018
-0.12485965 -0.31781453 -0.081158102
0.21266611 -0.31772491 -0.081886053
0.23020741 -0.31854615 -0.075218201
-0.14228117 -0.30183801 -0.073336899
-0.12485965 -0.30093491 -0.081158042
0.21266611 -0.30085087 -0.081885934
0.23020741 -0.30162075 -0.075218201
-0.14228117 -0.28489813 -0.07333684
-0.12485965 -0.2840552 -0.081158042
0.21266611 -0.28397682 -0.081885934
0.23020741 -0.28469533 -0.07521832
-0.14228117 -0.26795822 -0.073337018
-0.12485965 -0.26717561 -0.081158042
0.21266611 -0.26710278 -0.081885934
0.23020741 -0.26777002 -0.075218141
-0.14228117 -0.25101838 -0.073337018
-0.12485965 -0.25029594 -0.081158042
0.21266611 -0.25022873 -0.081885934
0.23020741 -0.25084466 -0.075218201
-0.14228117 -0.23407856 -0.073336899
-0.12485965 -0.23341624 -0.081158042
0.21266611 -0.23335467 -0.081886053
0.23020741 -0.23391922 -0.075218201
-0.14228117 -0.21713872 -0.073336899
-0.12485965 -0.21653669 -0.081157923
0.21266611 -0.21648064 -0.081885934
0.23020741 -0.21699385 -0.07521832
-0.14228117 -0.20019886 -0.07333684
-0.12485965 -0.19965701 -0.081157923
0.21266611 -0.19960658 -0.081885934
0.23020741 -0.20006853 -0.075218141
-0.14228117 -0.18325897 -0.073337018
-0.12485965 -0.1827773 -0.081158042
0.21266611 -0.18273248 -0.081886113
0.23020741 -0.18314311 -0.075218201
-0.14228117 -0.16631907 -0.073337018
-0.12485965 -0.16589768 -0.081158102
0.21266611 -0.16585843 -0.081886053
0.23020741 -0.16621774 -0.075218201
-0.14228117 -0.14937927 -0.073336899
-0.12485965 -0.14901797 -0.081158102
0.21266611 -0.14898439 -0.081886053
0.23020741 -0.14929235 -0.075218201
-0.14228117 -0.13243946 -0.073336899
-0.12485898 -0.13213792 -0.08116895
0.21266611 -0.13211036 -0.081886053
0.23020741 -0.13236706 -0.075218141
-0.14228117 -0.11549957 -0.07333684
-0.12485898 -0.11525838 -0.081168771
0.21266611 -0.1152363 -0.081886053
0.23020741 -0.11544162 -0.075218201
-0.14228117 -0.098559678 -0.073337018
-0.12485898 -0.098378792 -0.08116895
0.21266611 -0.098362252 -0.081886053
0.23020741 -0.098516226 -0.075218201
-0.14228117 -0.081619814 -0.073337018
-0.12485898 -0.081499279 -0.08116889
0.21266611 -0.0814882 -0.081886053
0.23020741 -0.081590861 -0.07521832
-0.14228117 -0.064679958 -0.073336899
-0.12485898 -0.064619645 -0.08116895
0.21266611 -0.064614147 -0.081886053
0.23020741 -0.064665541 -0.075218141
-0.14228117 -0.047740176 -0.073336899
0.23020741 -0.047740139 -0.075218141
-0.12485898 -0.047740098 -0.08116889
0.21266611 -0.047740098 -0.081886053
-0.14228117 -0.030800277 -0.07333684
-0.12485898 -0.030860508 -0.08116895
0.21266611 -0.030866047 -0.081886053
0.23020741 -0.030814778 -0.075218201
-0.14228117 -0.013860382 -0.073337018
-0.12485898 -0.013981037 -0.08116889
0.21266611 -0.013992038 -0.081886053
0.23020741 -0.013889335 -0.075218201
-0.14228117 0.0030794777 -0.073336899
-0.12485898 0.0028985925 -0.08116895
0.21266611 0.002882015 -0.081885934
0.23020741 0.0030359849 -0.07521832
-0.14228117 0.020019297 -0.073336899
-0.12485898 0.019778144 -0.08116889
0.21266611 0.019756068 -0.081885934
0.23020741 0.019961346 -0.075218201
-0.14228117 0.036959078 -0.073336899
-0.12485898 0.036657695 -0.08116895
0.21266611 0.036630113 -0.081885934
0.23020741 0.036886785 -0.075218141
-0.14228117 0.053898979 -0.07333684
-0.12485898 0.053537246 -0.08116889
0.21266611 0.053504165 -0.081885934
0.23020741 0.053812113 -0.075218201
-0.14228117 0.070838869 -0.073337018
-0.12485898 0.070416883 -0.08116895
0.21266611 0.070378214 -0.081885874
0.23020741 0.070737556 -0.07521832
-0.14228117 0.087778732 -0.073336899
-0.12485898 0.087296426 -0.081168771
0.21266611 0.087252274 -0.081885934
0.23020741 0.087662861 -0.075218141
-0.14228117 0.10471857 -0.073336899
-0.12485898 0.10417598 -0.08116895
0.21266611 0.10412624 -0.081885934
0.23020741 0.10458823 -0.075218201
-0.14228117 0.12165844 -0.07333684
-0.12485898 0.12105548 -0.081168771
0.21266611 0.12100029 -0.081885934
0.23020741 0.12151363 -0.075218201
-0.14228117 0.13859831 -0.073337018
-0.12485898 0.13793512 -0.08116889
0.21266611 0.13787434 -0.081885934
0.23020741 0.13843907 -0.075218201
-0.14228117 0.1555382 -0.073337018
-0.12485898 0.15481459 -0.08116889
0.21266611 0.1547485 -0.081886053
0.23020741 0.15536439 -0.075218141
-0.14228117 0.17247799 -0.073337018
-0.12485898 0.17169429 -0.08116889
0.21266611 0.17162247 -0.081886053
0.23020741 0.17228976 -0.075218141
-0.14228117 0.18941787 -0.073336899
-0.12485898 0.18857376 -0.081168771
0.21266611 0.1884966 -0.081886053
0.23020741 0.18921509 -0.07521832
-0.14228117 0.20635775 -0.07333684
-0.12485898 0.20545331 -0.08116895
0.21266611 0.20537058 -0.081886053
0.23020741 0.20614061 -0.075218141
-0.14228041 0.22329628 -0.073347867
-0.12485898 0.22233301 -0.08116895
0.21266611 0.22224471 -0.081886053
0.23020741 0.22306588 -0.075218141
-0.14228041 0.24023601 -0.073347867
-0.12485898 0.23921251 -0.08116889
0.21266611 0.23911867 -0.081886053
0.23020741 0.23999122 -0.075218201
-0.14228041 0.25717577 -0.073347867
-0.12485898 0.25609204 -0.08116895
0.21266611 0.25599277 -0.081886053
0.23020741 0.25691658 -0.075218201
-0.14228041 0.27411547 -0.073347867
-0.12485898 0.27297166 -0.08116889
0.21266611 0.27286673 -0.081886053
0.23020741 0.27384204 -0.075218201
-0.14228041 0.29105538 -0.073347867
-0.12485898 0.28985122 -0.08116895
0.21266611 0.28974086 -0.081885934
0.23020741 0.29076728 -0.075218141
-0.14228041 0.30799517 -0.073347867
-0.12485898 0.30673087 -0.081168771
0.21266611 0.30661485 -0.081885934
0.23020741 0.30769265 -0.075218141
-0.14228041 0.32493487 -0.073347867
-0.12485898 0.32361042 -0.08116895
0.21266611 0.32348892 -0.081885934
0.23020741 0.32461816 -0.075218141
-0.14228041 0.34187466 -0.073347926
-0.12485898 0.34048989 -0.08116889
0.21266611 0.34036291 -0.081885934
0.23020741 0.34154353 -0.075218201
-0.14228041 0.35881448 -0.073347867
-0.12485898 0.35736951 -0.08116889
0.21266611 0.35723695 -0.081886053
0.23020741 0.35846889 -0.07521832
0.21266611 0.374111 -0.081885934
-0.14228041 0.37575424 -0.073347867
-0.12485898 0.37424907 -0.08116889
0.23020741 0.37539428 -0.075218141
-0.14228041 0.39269403 -0.073347926
-0.12485898 0.3911286 -0.08116895
0.21266611 0.39098498 -0.081886053
0.23020741 0.39231962 -0.075218141
-0.14228041 0.4096337 -0.073347986
-0.12485898 0.40800825 -0.081168771
0.21266611 0.40785912 -0.081885934
0.23020741 0.40924495 -0.07521832
-0.14232138 0.42670089 -0.072756648
-0.12487974 0.42496043 -0.080831826
0.2126942 0.42479873 -0.081581771
0.23025882 0.42628112 -0.074704409
-0.10823122 0.44281054 -0.076496124
0.1962799 0.44289333 -0.076124907
-0.12570161 -0.4383927 -0.067486763
0.21389566 -0.43819988 -0.06857568
0.23174369 -0.43974176 -0.059866905
-0.15999646 -0.42212301 -0.063263595
-0.14240262 -0.42071387 -0.071584046
0.24807163 -0.4215737 -0.066506922
-0.15982148 -0.40473804 -0.065537035
0.24785104 -0.40425038 -0.068553686
0.26585639 -0.40569049 -0.059645236
-0.15982826 -0.38775182 -0.065448821
0.24785578 -0.38728046 -0.068509698
0.26587301 -0.38866743 -0.059501112
-0.15982826 -0.37075114 -0.06544888
0.24785578 -0.37030354 -0.068509698
0.26587301 -0.37162098 -0.059501231
-0.15982826 -0.35375056 -0.06544888
0.24785578 -0.35332644 -0.068509758
0.26587301 -0.35457474 -0.059501112
-0.15982826 -0.33675 -0.065448821
0.24785578 -0.33634946 -0.068509698
0.26587301 -0.33752832 -0.059501231
-0.15982826 -0.31974941 -0.06544888
0.24785578 -0.31937236 -0.068509698
0.26587301 -0.32048196 -0.059501112
-0.15982826 -0.30274886 -0.06544888
0.24785578 -0.30239546 -0.068509698
0.26587301 -0.30343562 -0.059501231
-0.15982741 -0.28574708 -0.065459907
0.24785578 -0.28541833 -0.068509758
0.26587301 -0.28638923 -0.059501112
-0.15982741 -0.26874655 -0.065459788
0.24785578 -0.26844138 -0.068509698
0.26587301 -0.26934284 -0.059501231
-0.15982741 -0.25174609 -0.065459907
0.24785578 -0.25146434 -0.068509698
0.26587301 -0.25229651 -0.059501112
-0.15982741 -0.23474558 -0.065459788
0.24785578 -0.2344873 -0.068509758
0.26587301 -0.2352501 -0.059501112
-0.15982741 -0.21774516 -0.065459907
0.24785578 -0.2175103 -0.068509698
0.26587301 -0.21820383 -0.059501112
-0.15982741 -0.20074464 -0.065459788
0.24785578 -0.20053327 -0.068509877
0.26587301 -0.20115739 -0.059501231
-0.15982741 -0.18374404 -0.065459967
0.24785578 -0.1835563 -0.068509698
0.26587301 -0.1841111 -0.059501112
-0.15982741 -0.16674356 -0.065459967
0.24785578 -0.1665792 -0.068509698
0.26587301 -0.16706464 -0.059501231
-0.15982741 -0.14974305 -0.065459967
0.24785578 -0.14960228 -0.068509758
0.26587301 -0.15001836 -0.059501112
-0.15982741 -0.13274258 -0.065459967
0.24785578 -0.13262519 -0.068509758
0.26587301 -0.13297187 -0.059501112
-0.15982741 -0.11574206 -0.065459907
0.24785578 -0.1156482 -0.068509698
0.26587301 -0.11592562 -0.059501112
-0.15982741 -0.098741621 -0.065459907
0.24785578 -0.098671094 -0.068509758
0.26587301 -0.098879173 -0.059501112
-0.15982741 -0.081741095 -0.065459967
0.24785578 -0.081694186 -0.068509698
0.26587301 -0.081832878 -0.059501112
-0.15982741 -0.064740621 -0.065459907
0.24785578 -0.064717084 -0.068509698
0.26587301 -0.064786464 -0.059501112
0.24785578 -0.047740139 -0.068509698
0.26587301 -0.047740139 -0.059501112
-0.15982741 -0.047740098 -0.065459907
-0.15982741 -0.030739656 -0.065459907
0.24785578 -0.03076311 -0.068509758
0.26587301 -0.030693768 -0.059501231
-0.15982741 -0.013739135 -0.065459907
0.24785578 -0.013786126 -0.068509698
0.26587301 -0.013647396 -0.059501052
-0.15982741 0.0032613464 -0.065459788
0.24785578 0.0031909384 -0.068509698
0.26587301 0.0033989735 -0.059501112
-0.15982741 0.020261828 -0.065459907
0.24785578 0.020167891 -0.068509698
0.26587301 0.020445343 -0.059501052
-0.15982741 0.037262309 -0.065459907
0.24785578 0.037144955 -0.068509758
0.26587301 0.037491713 -0.059501112
-0.15982741 0.054262791 -0.065459788
0.24785578 0.054121975 -0.068509698
0.26587301 0.054538008 -0.059501112
-0.15982741 0.071263313 -0.065459788
0.24785578 0.071098968 -0.068509698
0.26587301 0.071584448 -0.059501112
-0.15982741 0.088263869 -0.065459967
0.24785578 0.088075951 -0.068509698
0.26587301 0.088630736 -0.059501112
-0.15982741 0.10526438 -0.065459967
0.24785578 0.10505305 -0.068509698
0.26587301 0.10567719 -0.059501112
-0.15982741 0.12226483 -0.065459967
0.24785578 0.12203 -0.068509638
0.26587301 0.12272348 -0.059501052
-0.15982741 0.13926539 -0.065459907
0.24785578 0.13900706 -0.068509698
0.26587301 0.13976993 -0.059501112
-0.15982741 0.15626587 -0.065459907
0.24785578 0.15598409 -0.068509758
0.26587301 0.15681623 -0.059501052
-0.15982741 0.1732664 -0.065459907
0.24785578 0.17296112 -0.068509698
0.26587301 0.17386259 -0.059501112
-0.15982741 0.19026676 -0.065459967
0.24785578 0.18993819 -0.068509698
0.26587301 0.19090892 -0.059501112
-0.15982741 0.20726728 -0.065459967
0.24785578 0.20691502 -0.068509698
0.26587301 0.20795542 -0.059501112
-0.15982741 0.22426778 -0.065459907
0.24785578 0.22389212 -0.068509877
0.26587301 0.22500172 -0.059501052
-0.15982741 0.24126825 -0.065459907
0.24785578 0.24086913 -0.068509698
0.26587301 0.24204805 -0.059501112
-0.15982741 0.25826874 -0.065459907
0.24785578 0.25784621 -0.068509698
0.26587301 0.25909436 -0.059501052
-0.15982741 0.27526924 -0.065459907
0.24785578 0.27482322 -0.068509698
0.26587301 0.27614087 -0.059501052
-0.15982741 0.29226977 -0.065459907
0.24785578 0.29180029 -0.068509698
0.26587301 0.29318714 -0.059501052
-0.15982741 0.30927023 -0.065459788
0.24785578 0.30877724 -0.068509698
0.26587301 0.31023356 -0.059501112
-0.15982741 0.32627073 -0.065459788
0.24785578 0.32575423 -0.068509758
0.26587301 0.3272799 -0.059501112
-0.15982741 0.34327129 -0.065459788
0.24785578 0.34273118 -0.068509698
0.26587301 0.34432626 -0.059501112
-0.15982741 0.36027175 -0.065459788
0.24785578 0.35970828 -0.068509758
0.26587301 0.36137274 -0.059501112
-0.15982741 0.37727237 -0.065459907
0.24785578 0.37668526 -0.068509698
0.26587301 0.37841898 -0.059501112
-0.15982741 0.3942728 -0.065459907
0.24785578 0.39366242 -0.068509698
0.26587301 0.39546543 -0.059501112
-0.15982741 0.41127321 -0.065459967
0.24785578 0.41063935 -0.068509638
0.26587301 0.41251171 -0.059501112
-0.1598911 0.42845204 -0.064632714
0.247934 0.42777282 -0.067783773
-0.16127916 -0.44209051 -0.046601117
-0.14340736 -0.44023487 -0.057081997
0.24974407 -0.44131377 -0.050988555
-0.17774546 -0.42358616 -0.054624081
0.26625249 -0.42331672 -0.056215048
-0.19535217 -0.40741712 -0.048964798
-0.17748749 -0.40600967 -0.057670593
0.28454971 -0.4078536 -0.046264648
0.28458565 -0.39075023 -0.045972824
-0.19537903 -0.39033437 -0.048673809
-0.17750065 -0.38897318 -0.057515085
-0.19537903 -0.37320465 -0.048673749
-0.17750065 -0.37191153 -0.057515085
0.28458565 -0.37359974 -0.045972884
-0.19537903 -0.35607502 -0.048673749
-0.17750065 -0.35484982 -0.057515204
0.28458565 -0.35644922 -0.045972884
-0.19537903 -0.33894524 -0.048673809
-0.17750065 -0.33778828 -0.057515204
0.28458565 -0.33929867 -0.045972884
-0.19537903 -0.32181555 -0.048673749
-0.17750065 -0.3207266 -0.057515204
0.28458565 -0.32214832 -0.045972764
-0.19537903 -0.30468583 -0.048673928
-0.17750065 -0.30366498 -0.057515085
0.28458565 -0.30499774 -0.045972824
-0.19537903 -0.28755611 -0.048673809
-0.17750065 -0.28660333 -0.057515204
0.28458565 -0.28784722 -0.045972824
-0.19537903 -0.27042639 -0.048673749
-0.17750065 -0.26954162 -0.057515204
0.28458565 -0.2706967 -0.045972824
-0.19537903 -0.25329661 -0.048673809
-0.17750065 -0.25248 -0.057515025
0.28458565 -0.25354618 -0.045972824
-0.19537903 -0.236167 -0.048673809
-0.17750065 -0.23541835 -0.057515204
0.28458565 -0.23639567 -0.045972824
0.28458565 -0.21924523 -0.045972824
-0.19537903 -0.21903729 -0.048673809
-0.17750065 -0.21835664 -0.057515204
-0.19537903 -0.20190752 -0.048673809
-0.17750065 -0.20129506 -0.057515025
0.28458565 -0.20209467 -0.045972884
-0.19537903 -0.18477781 -0.048673749
-0.17750065 -0.18423335 -0.057515085
0.28458565 -0.18494414 -0.045972884
-0.19537903 -0.16764817 -0.048673809
-0.17750065 -0.16717166 -0.057515204
0.28458565 -0.16779363 -0.045972884
-0.19537903 -0.15051839 -0.048673928
-0.17750065 -0.15011008 -0.057515025
0.28458565 -0.1506432 -0.045972764
-0.19537903 -0.13338868 -0.048673809
-0.17750065 -0.13304837 -0.057515085
0.28458565 -0.13349268 -0.045972824
-0.19537903 -0.11625898 -0.048673689
-0.17750065 -0.1159867 -0.057515204
0.28458565 -0.1163422 -0.045972824
-0.19537903 -0.099129282 -0.048673928
-0.17750065 -0.098925099 -0.057515025
0.28458565 -0.099191666 -0.045972824
-0.19537903 -0.08199954 -0.048673809
-0.17750065 -0.081863403 -0.057515085
0.28458565 -0.082041144 -0.045972824
-0.19537903 -0.064869836 -0.048673749
-0.17750065 -0.06480179 -0.057515204
0.28458565 -0.064890623 -0.045972824
-0.17750065 -0.047740176 -0.057515085
-0.19537903 -0.047740057 -0.048673809
0.28458565 -0.047740098 -0.045972824
-0.19537903 -0.030610437 -0.048673809
-0.17750065 -0.030678524 -0.057515204
0.28458565 -0.030589614 -0.045972884
-0.19537903 -0.013480734 -0.048673749
-0.17750065 -0.013616793 -0.057515204
