ply
format ascii 1.0
comment PCL generated
element vertex 1373
property float x
property float y
property float z
element camera 0
property float view_px
property float view_py
property float view_pz
property float x_axisx
property float x_axisy
property float x_axisz
property float y_axisx
property float y_axisy
property float y_axisz
property float z_axisx
property float z_axisy
property float z_axisz
property float focal
property float scalex
property float scaley
property float centerx
property float centery
property int viewportx
property int viewporty
property float k1
property float k2
end_header
0.25285521 -0.30830985 0.033020735
0.0033507422 -0.30747768 0.021010637
0.20241189 -0.30755165 0.022077441
-0.07174743 -0.28335112 0.033188343
-0.046651728 -0.28310028 0.029113531
-0.02161938 -0.28285089 0.025065303
0.0033507422 -0.28260127 0.021010518
0.20241189 -0.28266695 0.02207756
0.22743329 -0.28282312 0.024614334
0.25285521 -0.28334081 0.033020496
-0.07174743 -0.25838092 0.033188343
-0.046651728 -0.25816146 0.029113412
-0.02161938 -0.25794318 0.025065184
0.0033507422 -0.25772467 0.021010518
0.20241189 -0.25778222 0.02207756
0.22743329 -0.25791901 0.024614334
0.25285521 -0.25837189 0.033020377
-0.07174743 -0.23341075 0.033188343
-0.046651728 -0.23322251 0.029113531
-0.02161938 -0.23303553 0.025065303
0.22743329 -0.23301464 0.024614096
0.25285521 -0.23340297 0.033020496
0.0033507422 -0.23284826 0.021010518
0.20241189 -0.23289743 0.022077441
-0.07174743 -0.20844054 0.033188462
-0.046651728 -0.20828371 0.029113531
-0.02161938 -0.20812777 0.025065303
0.0033507422 -0.20797175 0.021010637
0.20241189 -0.20801283 0.022077441
0.22743329 -0.20811051 0.024614334
0.25285521 -0.20843399 0.033020496
-0.07174743 -0.18347028 0.033188462
-0.046651728 -0.18334472 0.029113293
-0.021618992 -0.18321961 0.025048614
0.0033507422 -0.18309534 0.021010518
0.20241189 -0.18312812 0.022077441
0.22743329 -0.18320626 0.024614334
0.25285521 -0.18346505 0.033020616
-0.07174743 -0.15850008 0.033188462
-0.046651728 -0.15840596 0.029113293
-0.021618992 -0.15831207 0.025048614
0.22743329 -0.15830199 0.024614096
0.25285521 -0.15849611 0.033020496
0.0033507422 -0.1582188 0.021010637
0.20241189 -0.15824345 0.022077441
-0.07174743 -0.13352987 0.033188581
-0.046651728 -0.13346697 0.029113293
-0.02161938 -0.13340475 0.025065303
0.0033507422 -0.13334236 0.021010518
0.20241189 -0.13335872 0.02207756
0.22743329 -0.13339779 0.024614215
0.25285521 -0.13352719 0.033020496
-0.07174743 -0.10855949 0.033188462
-0.046651728 -0.10852815 0.029113412
-0.021618992 -0.10849687 0.025048494
0.0033507422 -0.10846577 0.021010518
0.20241189 -0.10847411 0.02207756
0.22743329 -0.10849354 0.024614334
0.25285521 -0.10855827 0.033020616
-0.021618992 -0.08358939 0.025048494
0.22743329 -0.08358939 0.024614334
-0.07174743 -0.083589286 0.033188343
-0.046651728 -0.083589338 0.029113293
0.0033507422 -0.083589338 0.021010637
0.20241189 -0.083589226 0.022077441
0.25285521 -0.083589338 0.033020735
-0.07174743 -0.058619075 0.033188462
-0.046651728 -0.05865052 0.029113412
-0.021618992 -0.058681853 0.025048494
0.0033507422 -0.058712855 0.021010518
0.20241189 -0.058704615 0.022077441
0.22743329 -0.058685027 0.024614096
0.25285521 -0.058620468 0.033020616
-0.07174743 -0.033648923 0.033188343
-0.046651728 -0.033711646 0.029113293
-0.021618992 -0.033774201 0.025048494
0.0033507422 -0.033836313 0.021010518
0.20241189 -0.033820007 0.022077322
0.22743329 -0.033780936 0.024614334
0.25285521 -0.033651426 0.033020377
0.0033507422 -0.0089598298 0.021010518
0.20241189 -0.008935228 0.02207756
-0.07174743 -0.0086786598 0.033188462
-0.046651728 -0.0087727681 0.029113531
-0.021618992 -0.0088666603 0.025048614
0.22743329 -0.0088766813 0.024614334
0.25285521 -0.0086824968 0.033020496
-0.07174743 0.016291551 0.033188581
-0.046651728 0.016166106 0.029113412
-0.021618992 0.016040988 0.025048494
0.0033507422 0.015916601 0.021010637
0.20241189 0.015949383 0.02207756
0.22743329 0.016027577 0.024614096
0.25285521 0.016286433 0.033020496
-0.07174743 0.041261867 0.033188343
-0.046651728 0.04110492 0.029113531
-0.021618992 0.040948533 0.025048494
0.0033507422 0.040793084 0.021010518
0.20241189 0.040834099 0.02207756
0.22743329 0.040931836 0.024614215
0.25285521 0.041255355 0.033020496
0.0033507422 0.065669574 0.021010518
0.20241189 0.065718926 0.022077441
-0.07174743 0.066232078 0.033188462
-0.046651728 0.066043742 0.029113531
-0.021618992 0.065856062 0.025048494
0.22743329 0.065835975 0.024614215
0.25285521 0.066224284 0.033020496
-0.07174743 0.091202341 0.033188462
-0.046651728 0.090982668 0.029113531
-0.021618992 0.090763606 0.025048494
0.0033507422 0.090546049 0.021010518
0.20241189 0.090603597 0.022077441
0.22743329 0.090740182 0.024614334
0.25285521 0.091193162 0.033020496
-0.07174743 0.11617256 0.033188462
-0.046651728 0.11592143 0.029113531
-0.021618992 0.11567122 0.025048614
0.0033507422 0.11542238 0.021010518
0.20241189 0.11548822 0.022077441
0.22743329 0.11564455 0.024614215
0.25285521 0.11616214 0.033020616
0.0033507422 0.14029902 0.021010637
0.20241189 0.14037299 0.02207756
-0.07174743 0.14114264 0.033188462
-0.046651728 0.14086041 0.029113293
-0.021618992 0.14057875 0.025048614
0.22743329 0.14054871 0.024614334
0.25285521 0.14113095 0.033020496
-0.07174743 0.1661129 0.033188581
-0.046651728 0.16579935 0.029113412
-0.021618992 0.1654864 0.025048494
0.0033507422 0.1651755 0.021010518
0.20241189 0.16525748 0.022077441
0.22743329 0.16545284 0.024614334
0.25285521 0.1661 0.033020735
-0.07174743 0.1910831 0.033188581
-0.046651728 0.19073811 0.029113293
-0.021618992 0.19039398 0.025048494
0.0033507422 0.19005191 0.021010518
0.20241189 0.19014224 0.02207756
0.22743329 0.19035703 0.024614096
0.25285521 0.1910688 0.033020496
0.0033507422 0.21492857 0.021010518
0.20241189 0.21502709 0.022077441
-0.07174743 0.21605349 0.033188343
-0.046651728 0.21567702 0.029113412
-0.021618992 0.21530151 0.025048614
0.22743329 0.21526146 0.024614334
0.25285521 0.21603796 0.033020496
-0.07174743 0.24102357 0.033188343
-0.046651728 0.24061573 0.029113293
-0.021618992 0.24020907 0.025048614
0.0033507422 0.23980489 0.021010637
0.20241189 0.23991171 0.022077322
0.22743329 0.24016553 0.024614334
0.25285521 0.24100676 0.033020496
-0.07174743 0.26599395 0.033188581
-0.046651728 0.26555467 0.029113293
-0.021618992 0.2651166 0.025048614
0.0033507422 0.26468137 0.021010518
0.20241189 0.26479641 0.022077441
0.22743329 0.26506969 0.024614334
0.25285521 0.26597577 0.033020496
0.0033507422 0.28955781 0.021010518
0.20241189 0.2896812 0.02207756
-0.07174743 0.29096407 0.033188462
-0.046651728 0.29049361 0.029113412
-0.021618992 0.29002425 0.025048494
0.22743329 0.28997412 0.024614334
0.25285521 0.29094478 0.033020616
-0.07174743 0.31593439 0.033188581
-0.046651728 0.31543237 0.029113293
-0.021618992 0.31493181 0.025048494
0.0033507422 0.3144345 0.021010518
0.20241189 0.31456569 0.02207756
0.22743329 0.31487831 0.024614334
0.25285521 0.31591362 0.033020496
-0.07174743 0.34090447 0.033188581
-0.046651728 0.34037122 0.029113412
-0.021618992 0.33983934 0.025048494
0.0033507422 0.33931082 0.021010756
0.20241189 0.33945048 0.02207756
0.22743329 0.33978245 0.024614334
0.25285521 0.34088266 0.033020616
0.0033507422 0.36418727 0.021010518
0.20241189 0.3643353 0.022077441
-0.07174743 0.36587492 0.033188343
-0.046651728 0.36530995 0.029113412
-0.021618992 0.36474681 0.025048614
0.22743329 0.3646867 0.024614096
0.25285521 0.3658514 0.033020616
-0.07174743 0.39084506 0.033188343
-0.046651728 0.39024898 0.029113531
-0.021618992 0.38965437 0.025048614
0.0033507422 0.38906375 0.021010518
0.20241189 0.38921985 0.022077322
0.22743329 0.38959098 0.024614334
0.25285521 0.39082044 0.033020735
-0.07174743 0.41581509 0.033188343
-0.046651728 0.41518787 0.029113531
-0.021618992 0.4145619 0.025048614
0.0033507422 0.4139404 0.021010518
0.20241189 0.41410458 0.02207756
0.22743329 0.41449511 0.024614334
0.25285521 0.41578928 0.033020616
0.0033507422 0.43881682 0.021010637
0.20241189 0.43898937 0.02207756
-0.07174743 0.4407855 0.033188462
-0.046651728 0.44012657 0.029113531
-0.021618992 0.43946955 0.025048494
0.22743329 0.43939933 0.024614334
0.25285521 0.44075832 0.033020735
-0.17144701 0.46531245 0.030571222
-0.07174743 0.46575555 0.033188462
-0.046651728 0.46506545 0.029113531
-0.021618992 0.46437708 0.025048494
0.0033507422 0.46369317 0.021010518
0.20241189 0.46387383 0.02207756
0.22743329 0.46430358 0.024614096
0.25285521 0.46572724 0.033020496
-0.07174743 0.49072596 0.033188581
-0.046651728 0.49000451 0.029113412
-0.021618992 0.4892846 0.025048494
0.0033507422 0.48856971 0.021010518
0.20241189 0.48875859 0.02207756
0.22743329 0.48920783 0.024614334
0.25285521 0.49069628 0.033020496
0.0033507422 0.51344633 0.021010518
0.20241189 0.51364338 0.022077322
-0.14625257 0.51447958 0.026602983
-0.07174743 0.51569599 0.033188581
-0.046651728 0.5149433 0.029113293
-0.021618992 0.51419222 0.025048614
0.22743329 0.51411206 0.024614334
0.25285521 0.51566511 0.033020496
-0.14601597 0.53865963 0.022761464
-0.07174743 0.54066646 0.033188343
-0.046651728 0.53988224 0.029113412
-0.021618992 0.53909975 0.025048614
0.0033507422 0.53832293 0.021010518
0.20241189 0.53852814 0.022077322
0.22743329 0.53901613 0.024614334
0.25285521 0.54063416 0.033020496
-0.14642778 0.56488806 0.029448628
-0.07174743 0.56563658 0.033188343
-0.046651728 0.56482095 0.029113293
-0.021618992 0.56400728 0.025048614
0.0033507422 0.56319916 0.021010637
0.20241189 0.5634129 0.02207756
0.22743329 0.56392068 0.024614334
0.25285521 0.5656029 0.033020496
0.0033507422 0.58807576 0.021010637
0.20241189 0.58829737 0.022077441
-0.071746789 0.59060341 0.033171654
-0.046651728 0.58975995 0.029113412
-0.021618992 0.58891493 0.025048494
0.22743329 0.58882469 0.024614334
0.25285521 0.590572 0.033020616
-0.071746789 0.61557359 0.033171654
-0.046651728 0.61469883 0.029113531
-0.021618992 0.61382246 0.025048494
0.0033507422 0.61295223 0.021010518
0.20241189 0.61318213 0.02207756
0.22743329 0.61372888 0.024614334
0.25285521 0.6155408 0.033020496
-0.071746789 0.64054358 0.033171654
-0.046651728 0.63963753 0.029113412
-0.021618992 0.63872999 0.025048494
0.0033507422 0.63782871 0.021010518
0.20241189 0.63806695 0.02207756
0.22743329 0.63863319 0.024614096
0.25285521 0.64050978 0.033020616
0.0033507422 0.66270512 0.021010518
0.20241189 0.66295141 0.02207756
-0.071746789 0.66551369 0.033171773
-0.046651728 0.66457647 0.029113531
-0.021618992 0.66363776 0.025048614
0.22743329 0.6635375 0.024614334
0.25285521 0.66547877 0.033020735
-0.046871401 0.69121754 0.036247373
-0.021763183 0.69003516 0.031292081
0.0032687597 0.68885237 0.026335478
0.028221577 0.68775654 0.021743894
0.15263376 0.68776858 0.021794081
0.17762418 0.6884377 0.024597406
0.20266882 0.68916374 0.027640224
0.2277633 0.68990308 0.030738831
-0.12280609 -0.66157871 0.0539397
-0.097144656 -0.65954137 0.042433023
0.27850083 -0.65960413 0.042787552
0.30430007 -0.66134095 0.052596807
-0.14781258 -0.63610905 0.051934123
-0.12280609 -0.63644862 0.0539397
-0.097144656 -0.63450003 0.042433023
0.27850083 -0.63456011 0.042787671
0.30430007 -0.63622123 0.052596807
-0.12280609 -0.61131871 0.0539397
-0.097144656 -0.60945851 0.042432904
0.27850083 -0.60951585 0.042787671
0.30430007 -0.61110163 0.052596807
-0.12280609 -0.58618879 0.053939819
-0.097144656 -0.5844171 0.042433023
0.27850083 -0.58447182 0.042787552
0.30430007 -0.58598208 0.052596807
-0.12280609 -0.56105876 0.0539397
-0.097144656 -0.55937582 0.042433023
0.27849966 -0.55942523 0.042770743
0.30430007 -0.56086236 0.052596807
-0.14707884 -0.5340001 0.040019989
-0.12280609 -0.53592879 0.053939819
-0.097144656 -0.53433442 0.042433023
0.27850083 -0.53438354 0.042787671
0.30430007 -0.53574276 0.052596807
-0.12280609 -0.51079881 0.0539397
-0.097144656 -0.50929308 0.042433143
0.27850083 -0.50933939 0.042787552
0.30430007 -0.51062316 0.052596688
-0.12280609 -0.4856689 0.0539397
-0.097144656 -0.48425159 0.042433023
0.27849966 -0.48429325 0.042770743
0.30430007 -0.48550355 0.052596688
-0.12280609 -0.46053898 0.053939819
-0.097144656 -0.45921016 0.042433023
0.27849966 -0.45924926 0.042770743
0.30430007 -0.46038386 0.052596688
-0.12280609 -0.43540901 0.0539397
-0.097143881 -0.43416709 0.042416096
0.27849966 -0.43420535 0.042770863
0.30429876 -0.43526247 0.052579761
-0.12280609 -0.41027904 0.0539397
-0.097143881 -0.40912578 0.042416096
0.27849966 -0.40916124 0.042770743
0.30429876 -0.41014293 0.052579641
-0.12280609 -0.38514891 0.053939581
-0.097143881 -0.38408449 0.042416096
0.27849966 -0.38411728 0.042770863
0.30429876 -0.38502336 0.052579641
-0.12280609 -0.360019 0.0539397
-0.097143881 -0.35904318 0.042416096
0.27849966 -0.35907337 0.042770863
0.30429876 -0.35990399 0.052579761
-0.12280609 -0.33488914 0.053939819
-0.097143881 -0.33400205 0.042416215
0.27849966 -0.33402929 0.042770743
0.30429876 -0.33478442 0.052579641
-0.12280609 -0.30975908 0.0539397
-0.097143881 -0.30896083 0.042416215
0.27849966 -0.30898532 0.042770863
0.30429876 -0.30966482 0.052579641
-0.12280609 -0.28462914 0.053939819
-0.097143881 -0.28391951 0.042416215
0.27849966 -0.2839413 0.042770743
0.30429876 -0.28454536 0.05257988
-0.12280609 -0.25949913 0.053939581
-0.097143881 -0.25887823 0.042416215
0.27849966 -0.25889727 0.042770743
0.30429876 -0.25942591 0.052579641
-0.12280609 -0.23436919 0.0539397
-0.097143881 -0.23383698 0.042416096
0.27849966 -0.23385334 0.042770863
0.30429876 -0.23430637 0.052579641
-0.12280609 -0.20923924 0.053939819
-0.097143881 -0.20879564 0.042416096
0.27849966 -0.20880932 0.042770743
0.30429876 -0.20918688 0.05257988
-0.12280609 -0.18410921 0.0539397
-0.097143881 -0.1837543 0.042416096
0.27849966 -0.18376537 0.042770863
0.30429876 -0.18406735 0.052579761
-0.12280609 -0.15897933 0.0539397
-0.097143881 -0.15871313 0.042416096
0.27849966 -0.1587213 0.042770863
0.30429876 -0.15894783 0.052579641
-0.12280609 -0.13384922 0.053939581
-0.097143881 -0.13367185 0.042416096
0.27849966 -0.13367735 0.042770743
0.30429876 -0.1338284 0.05257988
-0.12280609 -0.10871927 0.0539397
-0.097143881 -0.10863057 0.042416096
0.27849966 -0.10863335 0.042770863
0.30429876 -0.10870881 0.052579761
0.27849966 -0.08358939 0.042770863
-0.12280609 -0.083589338 0.053939819
-0.097143881 -0.083589226 0.042415977
0.30429876 -0.083589338 0.052579641
-0.12280609 -0.058459342 0.053939581
-0.097143881 -0.058548111 0.042416215
0.27849966 -0.058545388 0.042770743
0.30429876 -0.058469918 0.05257988
-0.12280609 -0.033329401 0.053939819
-0.097143881 -0.033506889 0.042416215
0.27849966 -0.033501379 0.042770863
0.30429876 -0.03335033 0.052579761
-0.12280609 -0.0081994608 0.053939939
-0.097143881 -0.0084656104 0.042416215
0.27849966 -0.0084573701 0.042770863
0.30429876 -0.0082307979 0.052579641
-0.12280609 0.016930535 0.0539397
-0.097143881 0.016575731 0.042416096
0.27849966 0.016586579 0.042770743
0.30429876 0.016888626 0.05257988
-0.12280609 0.042060472 0.053939819
-0.097143881 0.041616954 0.042416096
0.27849966 0.041630588 0.042770743
0.30429876 0.042008154 0.052579761
-0.12280609 0.06719052 0.0539397
-0.097143881 0.066658296 0.042416096
0.27849966 0.066674538 0.042770982
0.30429876 0.067127742 0.052579641
-0.12280609 0.092320465 0.0539397
-0.097143881 0.091699459 0.042416096
0.27849966 0.091718607 0.042770743
0.30429876 0.092247047 0.05257988
-0.12280609 0.11745041 0.053939819
-0.097143881 0.11674085 0.042416096
0.27849966 0.11676266 0.042770863
0.30429876 0.11736662 0.052579761
-0.12280609 0.14258051 0.0539397
-0.097143881 0.14178205 0.042415977
0.27849966 0.14180666 0.042770743
0.30429876 0.14248621 0.052579641
-0.12280609 0.16771027 0.0539397
-0.097143881 0.16682324 0.042416096
0.27849966 0.16685057 0.042770743
0.30429876 0.16760564 0.05257988
-0.12280609 0.19284034 0.0539397
-0.097143881 0.19186446 0.042416215
0.27849966 0.19189462 0.042770982
0.30429876 0.19272524 0.05257988
-0.12280609 0.21797025 0.0539397
-0.097143881 0.21690574 0.042416096
0.27849966 0.21693864 0.042770743
0.30429876 0.21784475 0.052579761
-0.12280609 0.24310026 0.053939819
-0.097143881 0.24194703 0.042416096
0.27849966 0.24198252 0.042770743
0.30429876 0.24296406 0.05257988
-0.12280609 0.26823032 0.0539397
-0.097143881 0.26698831 0.042416215
0.27849966 0.2670266 0.042770982
0.30429876 0.2680836 0.052579761
-0.12280609 0.29336026 0.053939819
-0.097143881 0.29202965 0.042416096
0.27849966 0.2920706 0.042770743
0.30429876 0.2932032 0.052579641
-0.12280517 0.31848806 0.053922534
-0.097143881 0.31707087 0.042416096
0.27849966 0.3171145 0.042770743
0.30429876 0.3183226 0.05257988
-0.12280517 0.34361801 0.053922653
-0.097143881 0.34211218 0.042416096
0.27849966 0.34215862 0.042770982
0.30429876 0.3434422 0.05257988
-0.12280517 0.36874783 0.053922653
-0.097143881 0.36715347 0.042416096
0.27849966 0.36720261 0.042770743
0.30429876 0.36856177 0.052579761
-0.12280517 0.39387777 0.053922772
-0.097143881 0.39219475 0.042416096
0.27849966 0.39224645 0.042770743
0.30429876 0.3936812 0.05257988
-0.12280517 0.41900751 0.053922772
-0.097143881 0.41723594 0.042416096
0.27849966 0.41729054 0.042770982
0.30429876 0.41880068 0.052579761
-0.19707775 0.44179168 0.039412975
-0.12280517 0.44413725 0.053922772
-0.097143881 0.44227716 0.042415977
0.27849966 0.4423345 0.042770743
0.30429876 0.44392022 0.052579641
-0.12280517 0.46926728 0.053922772
-0.097143881 0.46731845 0.042416096
0.27849966 0.46737847 0.042770743
0.30429876 0.46903983 0.052579641
-0.14711416 0.49203715 0.040593505
-0.12280517 0.49439701 0.053922772
-0.097143881 0.49235967 0.042416215
0.27849966 0.49242255 0.042770982
0.30429876 0.49415925 0.05257988
-0.12280609 0.51952994 0.0539397
-0.097143881 0.51740098 0.042416215
0.27849966 0.51746655 0.042770743
0.30429876 0.51927882 0.052579761
-0.12280609 0.54465991 0.0539397
-0.097143881 0.54244232 0.042416096
0.27849966 0.54251051 0.042770743
0.30429876 0.54439837 0.052579641
-0.12280609 0.56979001 0.053939581
-0.097143881 0.56748354 0.042416096
0.27849966 0.56755465 0.042770743
0.30429876 0.56951785 0.05257988
-0.14776447 0.59434068 0.051153183
-0.12280609 0.59491992 0.0539397
-0.097143881 0.59252489 0.042416215
0.27849966 0.59259856 0.042770743
0.30429876 0.59463722 0.052579641
-0.12280517 0.62004632 0.053922772
-0.097143881 0.61756623 0.042416096
0.27849966 0.6176424 0.042770743
0.30429876 0.61975676 0.052579641
-0.097143881 0.64260745 0.042416096
0.27849966 0.64268655 0.042770743
-0.12281435 0.64521408 0.054092765
0.30429876 0.64487618 0.052579761
-0.12282809 0.67040414 0.054347992
-0.097150885 0.6676836 0.042568088
0.27849966 0.66773057 0.042770863
0.30430269 0.67000753 0.052630663
-0.097664334 0.69537902 0.053684831
-0.072056465 0.69240391 0.041217566
0.25339743 0.69254893 0.041825056
0.279277 0.69545197 0.053990841
-0.17351586 -0.66272819 0.060432076
-0.1486508 -0.66363353 0.065545321
0.33025533 -0.66308814 0.062465191
0.35636806 -0.66484594 0.072393417
0.33025533 -0.63789248 0.062465072
0.35636806 -0.63957387 0.072393417
0.33025533 -0.61269695 0.062465072
0.35636806 -0.61430198 0.072393537
0.35636806 -0.58902997 0.072393537
0.33025533 -0.58750123 0.062465072
0.33025533 -0.56230575 0.062465191
0.35636806 -0.5637579 0.072393537
0.33025533 -0.53711021 0.062465191
0.35636806 -0.53848583 0.072393417
0.35636806 -0.51321381 0.072393417
-0.1486508 -0.5123176 0.065545082
0.33025533 -0.51191455 0.062465072
-0.1486508 -0.48709837 0.065545321
0.33025533 -0.48671892 0.062465191
0.35636806 -0.48794177 0.072393537
-0.1486508 -0.46187913 0.065545321
0.33025533 -0.46152341 0.062465191
0.35636806 -0.46266973 0.072393298
-0.1486508 -0.43665969 0.065545201
0.33025533 -0.43632776 0.062465072
0.35636806 -0.43739787 0.072393537
-0.1486508 -0.41144046 0.065545201
0.33025533 -0.41113225 0.062465191
0.35636806 -0.41212574 0.072393537
-0.1486508 -0.38622099 0.065545082
0.33025533 -0.3859365 0.062465072
0.35636806 -0.38685372 0.072393537
-0.1486508 -0.36100176 0.065545201
0.33025387 -0.36073953 0.062448144
0.35636806 -0.36158174 0.072393417
-0.1486508 -0.3357825 0.065545321
0.33025533 -0.33554545 0.062465191
0.35636806 -0.33630961 0.072393537
-0.1486508 -0.31056312 0.065545201
0.33025533 -0.3103497 0.062465072
0.35636806 -0.31103754 0.072393537
-0.1486508 -0.2853438 0.065545321
0.33025387 -0.28515315 0.062448025
0.35636806 -0.28576556 0.072393298
-0.1486508 -0.26012459 0.065545321
0.33025387 -0.25995767 0.062448144
0.35636806 -0.26049349 0.072393417
-0.1486508 -0.23490509 0.065545201
0.33025387 -0.23476213 0.062448144
0.35636806 -0.23522162 0.072393537
-0.1486508 -0.20968595 0.065545201
0.33025387 -0.20956674 0.062448144
0.35636646 -0.20994881 0.072376132
-0.1486508 -0.18446663 0.065545321
0.33025387 -0.18437129 0.062448144
0.35636646 -0.18467695 0.072376132
-0.14864972 -0.15924692 0.065528154
0.33025387 -0.15917584 0.062448144
0.35636646 -0.15940498 0.072376132
-0.1486508 -0.13402805 0.065545201
0.33025387 -0.13398033 0.062448263
0.35636646 -0.13413318 0.072376251
-0.1486508 -0.10880861 0.065545201
0.33025387 -0.1087849 0.062448144
0.35636646 -0.10886131 0.072376132
0.33025387 -0.08358945 0.062448263
-0.14864972 -0.083589338 0.065528154
0.35636646 -0.083589338 0.072376251
-0.14864972 -0.05837024 0.065528274
0.33025387 -0.058393948 0.062448144
0.35636646 -0.058317423 0.072376251
-0.14864972 -0.033150971 0.065527916
0.33025387 -0.033198334 0.062448025
0.35636646 -0.033045672 0.072376251
-0.14864972 -0.0079317018 0.065528035
0.33025387 -0.0080028847 0.062448144
0.35636646 -0.0077736452 0.072376251
-0.14864972 0.017287344 0.065528035
0.33025387 0.017192557 0.062448025
0.35636646 0.017498277 0.072376251
-0.14864972 0.042506613 0.065528035
0.33025387 0.042388119 0.062448144
0.35636646 0.04277008 0.072376251
-0.14864972 0.067725755 0.065528035
0.33025387 0.067583509 0.062448025
0.35636646 0.068042107 0.072376132
-0.14864972 0.092944868 0.065528035
0.33025387 0.092779063 0.062448144
0.35636646 0.09331397 0.07237637
-0.14864972 0.11816407 0.065528035
0.33025387 0.11797453 0.062448144
0.35636646 0.11858594 0.072376132
-0.14864972 0.14338329 0.065528035
0.33025387 0.14316997 0.062448144
0.35636646 0.14385769 0.07237637
-0.14864972 0.16860256 0.065528154
0.33025387 0.16836533 0.062448144
0.35636646 0.16912961 0.072376251
-0.14864972 0.19382158 0.065528035
0.33025387 0.19356078 0.062448144
0.35636646 0.19440147 0.07237637
-0.14864972 0.21904081 0.065528035
0.33025387 0.21875623 0.062448144
0.35636646 0.21967334 0.072376251
-0.14864972 0.24426001 0.065528274
0.33025387 0.24395168 0.062448144
0.35636646 0.24494547 0.072376251
-0.14864972 0.26947907 0.065528035
0.33025387 0.26914713 0.062448144
0.35636646 0.27021721 0.07237637
-0.14864972 0.29469827 0.065528154
0.33025387 0.29434273 0.062448263
0.35636646 0.29548919 0.072376251
-0.14864972 0.31991753 0.065528154
0.33025387 0.3195383 0.062448144
0.35636646 0.320761 0.072376251
-0.14864972 0.34513664 0.065528274
0.33025387 0.34473369 0.062448144
0.35636646 0.34603286 0.072376132
-0.14864972 0.37035584 0.065528035
0.33025387 0.36992919 0.062448144
0.35636646 0.37130466 0.072376251
-0.14864972 0.39557505 0.065528035
0.33025387 0.39512458 0.062448144
0.35636646 0.39657664 0.072376132
0.33025387 0.42031994 0.062448144
-0.14864972 0.42079428 0.065528035
0.35636646 0.42184857 0.07237637
-0.1744948 0.44747397 0.074561954
-0.14864972 0.4460136 0.065528035
0.33025387 0.44551548 0.062448144
0.35636646 0.44712058 0.072376251
-0.14863497 0.47119203 0.065288305
0.33025387 0.47071084 0.062448144
0.35636646 0.47239247 0.072376132
0.33025387 0.4959065 0.062448144
0.35636646 0.49766424 0.072376251
0.33025387 0.52110201 0.062448144
0.35636646 0.52293617 0.072376132
0.33025387 0.54629737 0.062448144
0.35636646 0.54820794 0.072376251
0.33025387 0.57149291 0.062448144
0.35636646 0.57348007 0.072376251
0.33025387 0.59668827 0.062448144
0.35636646 0.59875184 0.07237637
-0.17346972 0.62130564 0.059766412
-0.14866027 0.62258458 0.065699339
0.33025387 0.62188369 0.062448144
0.35636646 0.6240238 0.072376251
-0.14867613 0.64786255 0.065956235
0.33025387 0.64707917 0.062448144
0.35636646 0.64929563 0.07237637
-0.148693 0.67314833 0.066230655
0.33028719 0.67236549 0.062841415
0.35643324 0.67473435 0.073098779
-0.12368194 0.69931847 0.07019341
0.30546966 0.69874531 0.067790508
0.38279215 -0.66688424 0.083905458
0.38279215 -0.64152354 0.083905697
0.38279215 -0.6161629 0.083905697
0.38279215 -0.59080243 0.083905697
0.38279215 -0.56544173 0.083905816
0.38279215 -0.54008108 0.083905816
0.38279215 -0.51472032 0.083905578
-0.1746321 -0.48845303 0.076543808
0.38279215 -0.48935968 0.083905578
-0.20089403 -0.46458593 0.088988185
-0.17467868 -0.46322665 0.077216387
0.38279215 -0.46399909 0.083905578
-0.20089403 -0.4391863 0.088988304
0.38279042 -0.43863651 0.083888173
-0.17467868 -0.4379175 0.077216268
-0.20089403 -0.41378641 0.088988185
-0.17467868 -0.41260839 0.077216268
0.38279042 -0.41327605 0.083888412
-0.20089403 -0.38838676 0.088988304
-0.17467868 -0.38729918 0.077216148
0.38279042 -0.38791558 0.083888292
-0.20089403 -0.36298689 0.088988185
-0.17467868 -0.36199012 0.077216387
0.38279042 -0.36255503 0.083888292
-0.20089269 -0.33758578 0.0889709
-0.17467868 -0.33668092 0.077216268
0.38279042 -0.33719456 0.083888173
-0.20089269 -0.31218621 0.088971019
-0.17467868 -0.3113718 0.077216387
0.38279042 -0.31183398 0.083888173
-0.20089269 -0.28678638 0.0889709
-0.17467868 -0.2860626 0.077216268
0.38279042 -0.28647339 0.083888173
-0.20089269 -0.26138681 0.0889709
-0.17467868 -0.26075351 0.077216387
0.38279042 -0.26111299 0.083888412
-0.20089269 -0.23598722 0.0889709
-0.17467868 -0.23544431 0.077216268
0.38279042 -0.2357524 0.083888412
-0.20089269 -0.21058756 0.088971019
-0.17467868 -0.21013513 0.077216387
0.38279042 -0.21039194 0.083888292
-0.20089269 -0.18518788 0.08897078
-0.17467868 -0.18482594 0.077216268
0.38279042 -0.18503135 0.083888292
-0.20089269 -0.15978822 0.0889709
-0.17467868 -0.15951668 0.077216268
0.38279042 -0.15967089 0.083888173
-0.20089269 -0.13438869 0.0889709
-0.17467868 -0.13420764 0.077216387
0.38279042 -0.13431032 0.083888173
-0.20089269 -0.10898899 0.088971019
-0.17467868 -0.10889843 0.077216268
0.38279042 -0.10894985 0.083888412
-0.17467749 -0.08358939 0.077199101
-0.20089269 -0.083589338 0.088971019
0.38279042 -0.083589338 0.083888292
-0.20089269 -0.058189694 0.0889709
-0.17467868 -0.058280133 0.077216268
0.38279042 -0.058228761 0.083888292
-0.20089269 -0.03278999 0.088971019
-0.17467868 -0.032971036 0.077216387
0.38279042 -0.032868296 0.083888292
-0.20089269 -0.0073904544 0.0889709
-0.17467868 -0.0076618865 0.077216387
0.38279042 -0.0075077191 0.083888173
-0.20089269 0.018009193 0.088971138
-0.17467868 0.017647207 0.077216387
0.38279042 0.017852746 0.083888173
-0.20089269 0.043408893 0.08897078
-0.17467868 0.042956464 0.077216268
0.38279042 0.043213211 0.083888412
-0.20089403 0.068809263 0.088988304
-0.17467868 0.068265505 0.077216387
0.38279042 0.068573736 0.083888412
-0.20089403 0.094209127 0.088988185
-0.17467868 0.09357471 0.077216387
0.38279042 0.093934245 0.083888292
-0.20089403 0.11960889 0.088988423
-0.17467868 0.11888392 0.077216387
0.38279042 0.11929484 0.083888292
-0.20089403 0.14500856 0.088988185
-0.17467868 0.14419296 0.077216268
0.38279042 0.14465541 0.083888412
-0.20089403 0.17040846 0.088988185
-0.17467868 0.16950226 0.077216268
0.38279042 0.17001581 0.083888173
-0.20089403 0.19580817 0.088988185
-0.17467868 0.19481131 0.077216268
0.38279042 0.19537628 0.083888412
-0.20089403 0.22120804 0.088988185
-0.17467868 0.22012058 0.077216268
0.38279042 0.2207368 0.083888412
-0.20089403 0.24660778 0.088988304
-0.17467868 0.24542955 0.077216387
0.38279042 0.24609736 0.083888412
-0.17467868 0.27073887 0.077216268
-0.20089403 0.27200744 0.088988185
0.38279042 0.27145794 0.083888412
-0.20089403 0.29740718 0.088988304
-0.17467868 0.29604787 0.077216387
0.38279042 0.29681841 0.083888173
-0.20089403 0.3228071 0.088988185
-0.17467868 0.32135719 0.077216268
0.38279042 0.32217893 0.083888173
-0.20089403 0.34820682 0.088988304
-0.17467868 0.34666616 0.077216387
0.38279042 0.3475394 0.083888412
-0.20089403 0.37360668 0.088988185
-0.17467868 0.37197548 0.077216387
0.38279042 0.37289998 0.083888412
-0.20089403 0.39900634 0.088988185
-0.17467868 0.39728463 0.077216387
0.38279042 0.39826033 0.083888292
-0.20089403 0.42440614 0.088988185
-0.17467868 0.4225938 0.077216387
0.38279042 0.42362091 0.083888292
0.38279042 0.44898149 0.083888292
0.38279042 0.47434214 0.083888292
0.38279042 0.4997026 0.083888412
0.38279042 0.52506298 0.083888292
0.38279042 0.55042356 0.083888292
0.38279042 0.57578409 0.083888412
0.38279042 0.60114467 0.083888412
0.38279042 0.62650502 0.083888173
-0.20097029 0.65322542 0.089978933
-0.17472771 0.65053409 0.077923656
0.38279042 0.65186548 0.083888412
-0.20099574 0.67870909 0.090309024
-0.17474684 0.6759125 0.078199863
0.38292223 0.67753029 0.085205197
-0.15021333 0.7042641 0.090917945
0.33196676 0.70229751 0.082676411
0.41029361 -0.67040128 0.10376954
0.41029361 -0.64488769 0.10376966
0.41029361 -0.6193741 0.10376966
0.41029361 -0.59386063 0.10376978
0.41029361 -0.56834704 0.10376954
0.41029361 -0.54283345 0.10376966
0.41029361 -0.51731998 0.10376966
0.41029361 -0.49180639 0.10376966
-0.22744459 -0.4661552 0.10257804
0.41029361 -0.46629274 0.10376966
-0.2274431 -0.44064891 0.1025604
0.41029361 -0.44077924 0.10376954
-0.2274431 -0.41514468 0.10256064
0.41029361 -0.41526571 0.10376966
-0.2274431 -0.38964048 0.10256064
0.41029361 -0.38975206 0.10376954
-0.2274431 -0.36413613 0.10256052
0.41029361 -0.36423853 0.10376954
-0.2274431 -0.33863193 0.10256052
0.41029361 -0.33872497 0.10376966
-0.2274431 -0.3131277 0.10256052
0.41029361 -0.31321138 0.10376966
-0.2274431 -0.28762352 0.10256064
0.41029361 -0.28769776 0.10376954
-0.2274431 -0.26211911 0.1025604
0.41029361 -0.26218429 0.10376954
-0.2274431 -0.23661491 0.10256064
0.41029361 -0.23667073 0.10376966
-0.2274431 -0.21111068 0.10256064
0.41029361 -0.2111572 0.10376966
-0.2274431 -0.18560635 0.1025604
0.41029361 -0.18564352 0.10376954
-0.2274431 -0.16010213 0.10256052
0.41029361 -0.16012995 0.10376966
-0.22744459 -0.13459806 0.10257804
0.41029361 -0.13461649 0.10376966
-0.22744459 -0.10909379 0.10257804
0.41029361 -0.10910296 0.10376966
-0.22744459 -0.083589338 0.10257804
0.41029361 -0.083589286 0.10376954
-0.22744459 -0.058085058 0.10257816
0.41029361 -0.058075819 0.10376966
-0.22744459 -0.032580614 0.10257804
0.4102917 -0.032562524 0.10375226
-0.22744459 -0.0070761666 0.10257792
0.4102917 -0.007049121 0.10375226
-0.22744459 0.018428281 0.10257816
0.4102917 0.018464342 0.10375226
-0.22744459 0.043932669 0.10257804
0.4102917 0.043977745 0.10375226
-0.22744459 0.0694369 0.10257816
0.4102917 0.069491155 0.10375214
-0.22744459 0.094941445 0.10257804
0.4102917 0.095004626 0.10375214
-0.22744459 0.12044574 0.10257804
0.4102917 0.12051802 0.10375214
-0.22744459 0.14595017 0.10257816
0.4102917 0.14603144 0.10375214
-0.22744459 0.17145449 0.10257804
0.4102917 0.17154488 0.10375214
-0.22744459 0.1969589 0.10257816
0.4102917 0.19705829 0.10375214
-0.22744459 0.22246346 0.10257816
0.4102917 0.22257188 0.10375214
-0.22744459 0.24796766 0.10257816
0.4102917 0.24808526 0.10375214
-0.22744459 0.27347219 0.10257816
0.4102917 0.27359873 0.10375214
-0.22744459 0.29897651 0.10257804
0.4102917 0.29911214 0.10375214
-0.22744459 0.32448089 0.10257816
0.4102917 0.32462555 0.10375214
-0.22744459 0.34998524 0.10257804
0.4102917 0.35013908 0.10375214
-0.22744459 0.37548968 0.10257816
0.4102917 0.37565243 0.10375214
-0.22744459 0.400994 0.10257804
0.4102917 0.40116578 0.10375226
-0.22744459 0.42649844 0.10257804
0.4102917 0.42667916 0.10375226
0.4102917 0.45219263 0.10375226
0.4102917 0.47770599 0.10375214
0.4102917 0.50321937 0.10375214
0.4102917 0.5287329 0.10375214
0.4102917 0.55424625 0.10375214
0.4102917 0.57975972 0.10375214
0.4102917 0.60527331 0.10375226
0.4102917 0.63078678 0.10375226
-0.2275722 0.65637451 0.10408509
0.4102917 0.65630013 0.10375226
-0.22771928 0.68229151 0.10582185
0.41064155 0.68256319 0.10699821
0.43812868 -0.67396092 0.12387466
0.43812868 -0.64829254 0.12387455
0.43812868 -0.62262428 0.12387455
0.43812868 -0.59695601 0.12387466
0.43812868 -0.57128769 0.12387466
0.43812868 -0.54561925 0.12387455
0.43812868 -0.51995093 0.12387455
0.43812868 -0.49428272 0.12387466
-0.25502118 -0.46874544 0.12501049
0.43812868 -0.46861434 0.12387466
-0.25502118 -0.44306847 0.12501049
0.43812868 -0.44294599 0.12387455
-0.25502118 -0.41739133 0.12501049
0.43812868 -0.4172776 0.12387466
-0.25502118 -0.39171425 0.12501061
0.43812868 -0.39160937 0.12387478
-0.25502118 -0.36603722 0.12501073
0.43812868 -0.36594099 0.12387466
-0.25502118 -0.34036013 0.12501049
0.43812868 -0.34027264 0.12387466
-0.25502118 -0.31468308 0.12501061
0.43812868 -0.31460422 0.12387455
-0.25502118 -0.28900594 0.12501049
0.43812868 -0.28893611 0.12387466
-0.25502118 -0.26332885 0.12501073
0.43812868 -0.2632677 0.12387466
-0.25502118 -0.23765194 0.12501073
0.43812868 -0.23759934 0.12387455
-0.25502118 -0.21197474 0.12501049
0.43812868 -0.21193099 0.12387455
-0.25502118 -0.18629764 0.12501061
0.43812868 -0.1862627 0.12387478
-0.25502118 -0.1606205 0.12501049
0.43812868 -0.16059434 0.12387466
-0.25502118 -0.13494352 0.12501061
0.43812868 -0.13492599 0.12387466
-0.25502118 -0.10926648 0.12501061
0.43812868 -0.10925758 0.12387455
-0.25502118 -0.083589338 0.12501061
0.43812868 -0.083589338 0.12387466
-0.25502118 -0.057912245 0.12501073
0.43812868 -0.057920985 0.12387466
-0.25502118 -0.032235213 0.12501049
0.43812868 -0.032252636 0.12387455
-0.25502118 -0.0065581277 0.12501073
0.43812868 -0.0065842271 0.12387466
-0.25502118 0.019118913 0.12501073
0.43812868 0.01908385 0.12387466
-0.25502118 0.044796057 0.12501061
0.43812868 0.044752248 0.12387466
-0.25502118 0.070473082 0.12501073
0.43812868 0.07042072 0.12387466
-0.25502118 0.096150227 0.12501049
0.43812868 0.096089073 0.12387466
-0.25502118 0.12182721 0.12501049
0.43812868 0.12175731 0.12387478
-0.25502118 0.14750436 0.12501073
0.43812868 0.14742571 0.12387466
-0.25502118 0.17318138 0.12501061
0.43812868 0.17309406 0.12387466
-0.25502118 0.19885853 0.12501073
0.43812868 0.19876224 0.12387455
-0.25502118 0.22453561 0.12501049
0.43812868 0.22443047 0.12387466
-0.25502118 0.25021255 0.12501061
0.43812868 0.25009888 0.12387466
-0.25502118 0.27588969 0.12501073
0.43812868 0.27576724 0.12387466
-0.25502118 0.30156684 0.12501049
0.43812868 0.30143565 0.12387455
-0.25502118 0.32724369 0.12501061
0.43812868 0.32710382 0.12387466
-0.25502118 0.35292101 0.12501061
0.43812868 0.35277224 0.12387466
-0.25502118 0.378598 0.12501061
0.43812665 0.3784382 0.1238569
-0.25502118 0.40427509 0.12501073
0.43812665 0.40410629 0.1238569
-0.25502118 0.42995223 0.12501049
0.43812665 0.42977455 0.1238569
0.43812665 0.45544264 0.1238569
0.43812665 0.48111108 0.1238569
0.43812665 0.50677913 0.1238569
0.43812665 0.53244746 0.12385714
0.43812665 0.55811566 0.1238569
0.43812665 0.58378369 0.1238569
0.43812665 0.60945195 0.1238569
0.43812665 0.63512009 0.1238569
-0.25516561 0.66139483 0.1265738
0.43812665 0.66078842 0.1238569
-0.25563583 0.68825966 0.13166428
0.43883887 0.68788087 0.13002515
0.46630576 -0.6775673 0.14424312
0.46630576 -0.65174216 0.14424312
0.46630576 -0.62591696 0.14424312
0.46630353 -0.60008913 0.14422512
0.46630353 -0.57426417 0.144225
0.46630576 -0.54844165 0.14424312
0.46630353 -0.52261424 0.14422512
0.46630353 -0.49678916 0.144225
-0.2829738 -0.47137108 0.14774895
0.46630353 -0.47096413 0.144225
-0.2829738 -0.44551894 0.14774895
0.46630353 -0.44513923 0.14422512
-0.2829738 -0.41966689 0.14774907
0.46630353 -0.41931421 0.14422512
-0.2829738 -0.39381477 0.14774907
0.46630353 -0.39348921 0.144225
-0.2829738 -0.36796266 0.14774895
0.46630353 -0.36766419 0.144225
-0.2829738 -0.34211048 0.14774895
0.46630353 -0.34183928 0.14422512
-0.2829738 -0.31625849 0.14774907
0.46630353 -0.31601432 0.144225
-0.2829738 -0.29040629 0.14774907
0.46630353 -0.29018918 0.144225
-0.2829738 -0.26455417 0.14774895
0.46630353 -0.26436427 0.14422524
-0.2829738 -0.23870194 0.14774895
0.46630353 -0.23853931 0.14422512
-0.2829738 -0.21284992 0.14774895
0.46630353 -0.21271428 0.144225
-0.2829738 -0.18699789 0.14774895
0.46630353 -0.18688926 0.144225
-0.2829738 -0.16114566 0.14774907
0.46630353 -0.16106436 0.144225
-0.2829738 -0.13529359 0.14774895
0.46630353 -0.13523933 0.144225
-0.2829738 -0.10944135 0.14774895
0.46630353 -0.10941436 0.144225
-0.2829738 -0.08358939 0.14774907
0.46630353 -0.08358945 0.144225
-0.2829738 -0.057737209 0.14774907
0.46630353 -0.057764314 0.14422512
-0.2829738 -0.031885084 0.14774895
0.46630353 -0.03193935 0.144225
-0.2829738 -0.0060330108 0.14774895
0.46630353 -0.0061144382 0.14422512
-0.2829738 0.019819111 0.14774907
0.46630353 0.019710585 0.14422512
-0.2829738 0.045671232 0.14774895
0.46630353 0.045535602 0.144225
-0.2829738 0.071523316 0.14774895
0.46630353 0.071360745 0.144225
-0.2829738 0.097375609 0.14774907
0.46630353 0.097185485 0.14422512
-0.2829738 0.12322756 0.14774919
0.46630353 0.12301067 0.144225
-0.2829738 0.14907971 0.14774907
0.46630353 0.14883557 0.144225
-0.2829738 0.17493179 0.14774895
0.46630353 0.17466053 0.14422524
-0.2829738 0.20078388 0.14774895
0.46630353 0.20048547 0.144225
-0.2829738 0.22663617 0.14774895
0.46630353 0.22631058 0.144225
-0.2829738 0.25248814 0.14774919
0.46630353 0.2521354 0.14422512
-0.2829738 0.27834025 0.14774895
0.46630353 0.27796045 0.144225
-0.2829738 0.30419233 0.14774895
0.46630353 0.30378553 0.14422512
-0.2829738 0.33004439 0.14774895
0.46630353 0.32961047 0.144225
-0.2829738 0.35589665 0.14774919
0.46630353 0.35543546 0.14422524
-0.2829738 0.38174877 0.14774907
0.46630353 0.3812604 0.144225
-0.2829738 0.40760082 0.14774895
0.46630353 0.40708551 0.144225
-0.2829738 0.43345293 0.14774895
0.46630353 0.43291029 0.14422512
0.46630353 0.45873544 0.14422512
0.46630353 0.48456034 0.144225
0.46630353 0.51038551 0.144225
0.46630353 0.53621042 0.14422524
0.46630353 0.56203532 0.144225
0.46630353 0.58786047 0.144225
0.46630353 0.61368531 0.14422512
0.46630353 0.63951039 0.14422512
-0.28313777 0.66648793 0.14938772
0.46630353 0.6653353 0.144225
0.49482679 -0.68121463 0.16484356
0.49482679 -0.65523094 0.16484368
0.49482679 -0.62924713 0.16484356
0.49482679 -0.60326356 0.1648438
0.49482679 -0.57727981 0.16484356
0.49482679 -0.55129617 0.16484368
0.49482679 -0.52531242 0.16484368
0.49482679 -0.49932876 0.16484368
0.49482679 -0.47334504 0.16484368
0.49482679 -0.44736138 0.16484368
0.49482679 -0.42137766 0.16484368
0.49482679 -0.39539397 0.16484368
0.49482679 -0.36941013 0.16484368
0.49482679 -0.34342641 0.16484368
0.49482679 -0.31744272 0.16484368
0.49482679 -0.29145896 0.16484368
0.49482679 -0.26547533 0.16484368
0.49482679 -0.23949158 0.16484356
0.49482679 -0.21350792 0.1648438
0.49482444 -0.18752362 0.16482532
0.49482444 -0.16154009 0.16482544
0.49482679 -0.13555679 0.16484356
0.49482444 -0.10957287 0.16482556
0.49482444 -0.083589338 0.16482556
0.49482444 -0.057605699 0.16482544
0.49482444 -0.031622112 0.16482544
0.49482444 -0.0056385845 0.16482556
0.49482444 0.020344943 0.16482556
0.49482444 0.046328358 0.16482556
0.49482444 0.072312169 0.16482544
0.49482444 0.098295651 0.16482544
0.49482444 0.12427922 0.16482544
0.49482444 0.15026271 0.16482556
0.49482444 0.17624635 0.16482568
0.49482444 0.20222992 0.16482544
0.49482444 0.22821355 0.16482544
0.49482444 0.25419697 0.16482544
0.49482444 0.28018063 0.16482556
0.49482444 0.30616403 0.16482556
0.49482444 0.33214784 0.16482544
0.49482444 0.35813126 0.16482544
0.49482444 0.38411495 0.16482544
0.49482444 0.41009837 0.16482544
0.49482444 0.43608209 0.16482568
0.49482444 0.46206567 0.16482544
0.49482444 0.48804918 0.16482544
0.49482444 0.51403272 0.16482544
0.49482444 0.54001635 0.16482556
0.49482444 0.56599981 0.16482556
0.49482444 0.59198362 0.16482544
0.49482444 0.61796701 0.16482544
0.49482444 0.6439507 0.16482544
0.49482444 0.66993421 0.16482544
-0.2843174 0.69507486 0.16117513
0.46775535 0.69388235 0.1560123
-0.31131208 -0.44800523 0.17081785
-0.31131208 -0.42197537 0.17081773
-0.31131208 -0.39594579 0.17081773
-0.31131208 -0.36991602 0.17081785
-0.31131208 -0.34388641 0.17081773
-0.31131208 -0.31785664 0.17081785
-0.31131208 -0.29182702 0.17081785
-0.31131208 -0.26579729 0.17081797
-0.31131208 -0.23976746 0.17081773
-0.31131208 -0.21373785 0.17081773
-0.31131208 -0.18770806 0.17081773
-0.31131208 -0.16167846 0.17081773
-0.31131208 -0.13564873 0.17081785
-0.31131208 -0.10961912 0.17081785
-0.31131208 -0.083589338 0.17081797
-0.31131208 -0.057559617 0.17081773
-0.31131208 -0.031529836 0.17081773
-0.31131208 -0.0055002794 0.17081773
-0.31131208 0.020529442 0.17081773
-0.31131208 0.046559222 0.17081785
-0.31131208 0.072588779 0.17081773
-0.31131208 0.09861844 0.17081785
-0.31131208 0.12464818 0.17081785
-0.31131208 0.15067807 0.17081773
-0.31131208 0.17670777 0.17081773
-0.31131208 0.20273733 0.17081773
-0.31131208 0.22876701 0.17081773
-0.31131208 0.25479671 0.17081773
-0.31131208 0.28082645 0.17081797
-0.31131208 0.30685607 0.17081785
-0.31131208 0.33288589 0.17081773
-0.31131014 0.35891327 0.17079961
-0.31131014 0.38494277 0.17079949
-0.31131014 0.41097224 0.17079973
-0.31149307 0.67164683 0.17249739
0.52523822 -0.66064245 0.19679749
0.52523822 -0.634413 0.19679761
0.52523822 -0.60818321 0.19679749
0.52523822 -0.58195353 0.19679749
0.52523822 -0.55572385 0.19679737
0.52523822 -0.52949411 0.19679749
0.52523822 -0.50326437 0.19679749
0.52523822 -0.47703469 0.19679761
-0.34004027 -0.4505237 0.19418728
0.52523822 -0.45080507 0.19679773
-0.34004027 -0.42431414 0.19418716
0.52523822 -0.4245753 0.19679749
-0.34004027 -0.39810458 0.19418716
0.52523822 -0.39834574 0.19679749
-0.34004027 -0.37189487 0.19418716
0.52523822 -0.37211597 0.19679737
-0.34004027 -0.3456853 0.19418716
0.52523822 -0.34588629 0.19679749
-0.34004027 -0.31947571 0.19418716
0.52523822 -0.31965652 0.19679737
-0.34004027 -0.29326609 0.19418716
0.52523822 -0.2934269 0.19679749
-0.34004027 -0.26705649 0.19418716
0.52523822 -0.26719719 0.19679749
-0.34004027 -0.24084696 0.19418716
0.52523822 -0.24096751 0.19679749
-0.34004027 -0.21463725 0.19418716
0.52523822 -0.2147378 0.19679761
-0.34004027 -0.18842775 0.19418716
0.52523822 -0.18850806 0.19679749
-0.34004027 -0.16221815 0.19418716
0.52523822 -0.16227841 0.19679761
-0.34004027 -0.13600849 0.19418716
0.52523822 -0.13604873 0.19679737
-0.34004027 -0.10979889 0.19418716
0.52523822 -0.10981908 0.19679749
0.52523822 -0.08358939 0.19679761
-0.34004027 -0.083589338 0.19418716
-0.34004027 -0.057379682 0.19418716
0.52523822 -0.057359643 0.19679749
-0.34004027 -0.031170134 0.19418716
0.52523822 -0.031130005 0.19679749
-0.34004027 -0.0049605295 0.19418705
0.52523822 -0.0049002022 0.19679749
-0.34004027 0.021249019 0.19418705
0.52523822 0.02132944 0.19679761
-0.34004027 0.047458611 0.19418705
0.52523822 0.047559135 0.19679773
-0.34004027 0.073668338 0.19418705
0.52523822 0.073788874 0.19679749
-0.34004027 0.099877931 0.19418705
0.52523822 0.10001846 0.19679773
-0.34004027 0.12608749 0.19418705
0.52523822 0.12624827 0.19679749
-0.34004027 0.15229696 0.19418728
0.52523822 0.15247792 0.19679761
-0.34004027 0.17850652 0.19418728
0.52523822 0.17870772 0.19679749
-0.34004027 0.20471612 0.19418728
0.52523822 0.20493734 0.19679749
-0.34004027 0.23092583 0.1941874
0.52523822 0.23116681 0.19679749
-0.34004027 0.25713536 0.19418728
0.52523822 0.25739655 0.19679749
-0.34004027 0.28334492 0.19418728
0.52523822 0.2836262 0.19679761
-0.34004027 0.30955452 0.19418728
0.52523822 0.309856 0.19679749
-0.34004027 0.33576408 0.19418728
0.52523822 0.33608565 0.19679749
-0.34004027 0.36197367 0.19418728
0.52523822 0.36231539 0.19679749
-0.34004027 0.38818344 0.19418728
0.52523822 0.3885451 0.19679749
-0.34004027 0.41439304 0.19418728
0.52523822 0.41477472 0.19679761
0.52523822 0.44100454 0.19679749
0.52523822 0.46723416 0.19679761
0.52523822 0.4934639 0.19679749
0.52523822 0.51969367 0.19679761
0.52523822 0.54592341 0.19679749
0.52523559 0.57214928 0.19677901
0.52523559 0.59837896 0.19677913
0.52523559 0.62460852 0.19677889
0.52523559 0.65083814 0.19677901
-0.34024116 0.67687732 0.19592714
0.52548218 0.6774649 0.19855869
-0.31459981 0.70434678 0.20132434
0.49831128 0.70207119 0.19146991
0.55723262 -0.66731751 0.23621154
0.55723262 -0.64078444 0.23621178
0.55723262 -0.61425143 0.23621166
0.55723262 -0.58771831 0.23621166
0.55723262 -0.5611853 0.23621166
0.55723262 -0.53465211 0.23621166
0.55723262 -0.50811899 0.23621166
0.55723262 -0.48158589 0.23621154
0.55722982 -0.45505074 0.23619282
-0.37120885 -0.42834333 0.23444939
0.55722982 -0.42851782 0.2361927
-0.37120885 -0.40182376 0.23444939
0.55722982 -0.40198478 0.2361927
-0.37120885 -0.37530422 0.23444939
0.55722982 -0.37545192 0.23619282
-0.37120885 -0.34878466 0.23444939
0.55722982 -0.34891886 0.2361927
-0.37120885 -0.32226512 0.23444939
0.55722982 -0.32238606 0.23619282
-0.37120885 -0.29574567 0.23444927
0.55722982 -0.29585296 0.23619282
-0.37120885 -0.26922607 0.23444927
0.55722982 -0.26932013 0.23619282
-0.37120885 -0.24270663 0.23444939
0.55722982 -0.24278706 0.23619282
-0.37120885 -0.21618709 0.23444939
0.55722982 -0.21625409 0.2361927
-0.37120885 -0.18966752 0.23444939
0.55722982 -0.18972114 0.23619282
-0.37120885 -0.16314799 0.23444939
0.55722982 -0.16318822 0.2361927
-0.37120885 -0.13662843 0.23444939
0.55722982 -0.13665538 0.23619282
-0.37120885 -0.11010888 0.23444939
0.55722982 -0.1101223 0.23619282
0.55722982 -0.08358939 0.23619258
-0.37120885 -0.083589286 0.23444939
-0.37120885 -0.057069734 0.23444939
0.55722982 -0.057056434 0.23619282
-0.37120885 -0.030550186 0.23444939
0.55722982 -0.030523416 0.2361927
-0.37120885 -0.0040306374 0.23444927
0.55722982 -0.0039905682 0.23619282
-0.37120885 0.022488691 0.23444951
0.55722982 0.022542454 0.2361927
-0.37120885 0.049008347 0.23444939
0.55722982 0.049075522 0.23619258
-0.37120885 0.075527839 0.23444939
0.55722982 0.075608425 0.23619282
-0.37120885 0.1020475 0.23444951
0.55722982 0.10214128 0.23619258
-0.37120885 0.12856695 0.23444939
0.55722982 0.12867424 0.23619282
-0.37120885 0.15508643 0.23444939
0.55722982 0.15520725 0.23619282
-0.37120885 0.18160602 0.23444939
0.55722982 0.18174031 0.2361927
-0.37120885 0.20812547 0.23444939
0.55722982 0.20827305 0.23619282
-0.37120885 0.23464513 0.23444927
0.55722982 0.23480618 0.23619258
-0.37120885 0.26116455 0.23444927
0.55722982 0.26133916 0.23619282
-0.37120885 0.28768411 0.23444951
0.55722982 0.28787199 0.23619258
-0.37120885 0.31420365 0.23444939
0.55722982 0.31440496 0.23619258
-0.37120885 0.34072325 0.23444939
0.55722982 0.34093791 0.23619282
-0.37120885 0.36724269 0.23444939
0.55722982 0.36747098 0.2361927
-0.37120885 0.39376235 0.23444939
0.55722982 0.39400372 0.23619282
0.55722982 0.42053679 0.23619282
0.55722982 0.44706979 0.23619258
0.55722982 0.4736028 0.23619282
0.55722982 0.50013566 0.23619258
0.55722982 0.52666861 0.23619282
0.55722982 0.55320168 0.23619282
0.55722982 0.57973474 0.2361927
0.55722982 0.60626751 0.23619282
0.55722982 0.63280046 0.2361927
0.55722982 0.65933341 0.23619282
-0.37227291 0.68740588 0.24308825
0.55845851 0.68774158 0.24459291
0.58997297 -0.67414564 0.27652884
0.58997297 -0.64730203 0.27652884
0.58997297 -0.6204586 0.27652884
0.58997297 -0.59361506 0.27652884
0.58997297 -0.56677169 0.27652884
0.58997297 -0.53992832 0.27652895
0.58997297 -0.51308477 0.27652895
0.58997297 -0.48624134 0.27652884
0.58997297 -0.45939779 0.27652884
0.58997297 -0.43255436 0.27652884
-0.40357572 -0.40595129 0.27913105
0.58997297 -0.40571091 0.27652884
-0.40357572 -0.37908784 0.27913105
0.58997297 -0.37886739 0.27652884
-0.40357572 -0.35222435 0.27913117
0.58997297 -0.35202399 0.27652872
-0.40357572 -0.32536077 0.27913094
0.58997297 -0.3251805 0.27652895
-0.40357572 -0.29849723 0.27913094
0.58997297 -0.2983371 0.27652884
-0.40357572 -0.27163383 0.27913094
0.58997297 -0.27149364 0.27652884
-0.40357572 -0.24477029 0.27913117
0.58997297 -0.24465013 0.27652884
-0.40357572 -0.21790689 0.27913105
0.58997297 -0.21780667 0.27652884
-0.40357572 -0.19104335 0.27913117
0.58997297 -0.19096313 0.27652884
-0.40357572 -0.16417977 0.27913094
0.58996993 -0.16411923 0.2765094
-0.40357572 -0.13731635 0.27913094
0.58997297 -0.13727638 0.27652884
