ply
format ascii 1.0
comment PCL generated
element vertex 1323
property float x
property float y
property float z
element camera 0
property float view_px
property float view_py
property float view_pz
property float x_axisx
property float x_axisy
property float x_axisz
property float y_axisx
property float y_axisy
property float y_axisz
property float z_axisx
property float z_axisy
property float z_axisz
property float focal
property float scalex
property float scaley
property float centerx
property float centery
property int viewportx
property int viewporty
property float k1
property float k2
end_header
0.17529047 0.19331868 -0.32136023
0.15868318 0.21126606 -0.31112045
0.17537594 0.21046358 -0.31913966
0.15868318 0.22826748 -0.31112033
0.15868318 0.24526885 -0.31112033
0.14201999 -0.28357908 -0.29647475
0.14192045 -0.26596716 -0.30078471
0.14192045 -0.24888618 -0.30078471
0.14192045 -0.23180526 -0.30078465
0.17592198 -0.23138802 -0.3049534
0.14192045 -0.21472421 -0.30078465
0.14192045 -0.19764328 -0.30078471
0.19300969 -0.19736144 -0.30411261
0.14192045 -0.18056223 -0.30078471
0.14192045 -0.16348128 -0.30078471
0.14192045 -0.14640024 -0.30078471
0.14192045 -0.12931928 -0.30078483
0.14192069 -0.11223881 -0.30077422
0.14192069 -0.09515772 -0.30077416
0.14192069 -0.078076676 -0.30077422
0.14192092 -0.06099584 -0.30076391
0.14192092 -0.04391475 -0.30076379
0.14192092 -0.02683356 -0.30076391
0.14192116 -0.0097524291 -0.30075341
0.14192092 0.0073287226 -0.30076373
0.14192092 0.024409914 -0.30076391
0.14192092 0.041491002 -0.30076391
0.14192069 0.058571868 -0.30077422
0.14192069 0.075652868 -0.30077422
0.14192045 0.092733517 -0.30078471
0.14192045 0.10981444 -0.30078453
0.14192045 0.12689547 -0.30078453
0.14192045 0.14397644 -0.30078465
0.14192045 0.16105744 -0.30078465
0.14192045 0.17813843 -0.30078471
0.14192045 0.19521943 -0.30078471
0.14192045 0.21230039 -0.30078471
0.14192045 0.22938135 -0.30078453
0.17597872 0.22909099 -0.30347902
0.14192045 0.24646232 -0.30078465
0.14192045 0.26354334 -0.30078465
0.10791986 -0.32011509 -0.2798202
0.10791986 -0.30287278 -0.2798202
0.12500009 -0.30149442 -0.29035187
0.10791986 -0.28563029 -0.27982032
0.12500009 -0.28433317 -0.29035175
0.10791986 -0.26838791 -0.27982032
0.12500009 -0.26717189 -0.29035175
0.15924153 -0.26686749 -0.29298747
0.10791986 -0.25114554 -0.2798202
0.12500009 -0.25001064 -0.29035169
0.10791986 -0.2339032 -0.2798202
0.12500009 -0.23284929 -0.29035187
0.10791986 -0.21666083 -0.2798202
0.12500009 -0.21568796 -0.29035169
0.10791986 -0.19941847 -0.2798202
0.12500009 -0.19852668 -0.29035169
0.10791986 -0.18217607 -0.2798202
0.12500009 -0.18136545 -0.29035169
0.10791986 -0.16493373 -0.2798202
0.12500009 -0.16420409 -0.29035175
0.10791986 -0.14769144 -0.2798202
0.12500009 -0.14704281 -0.29035175
0.10791986 -0.130449 -0.2798202
0.12500009 -0.12988156 -0.29035169
0.10791995 -0.11320709 -0.27980965
0.12500025 -0.11272071 -0.29034126
0.10791995 -0.095964715 -0.27980965
0.12500025 -0.095559351 -0.2903412
0.10791995 -0.078722216 -0.27980965
0.12500025 -0.078397945 -0.29034126
0.10792002 -0.061480008 -0.27979892
0.12500042 -0.061236814 -0.29033071
0.10792002 -0.04423745 -0.27979898
0.12500042 -0.044075325 -0.29033071
0.10792002 -0.02699497 -0.27979892
0.12500042 -0.026913898 -0.29033071
0.10792002 -0.0097524291 -0.27979898
0.12500057 -0.0097524291 -0.2903201
0.10792002 0.0074901544 -0.27979904
0.12500042 0.007408997 -0.29033071
0.10792002 0.02473261 -0.27979898
0.12500042 0.024570467 -0.29033071
0.10791995 0.041974939 -0.27980965
0.12500025 0.041731641 -0.29034108
0.10791995 0.059217401 -0.27980965
0.12500025 0.058893114 -0.29034126
0.10791995 0.07645984 -0.27980953
0.12500025 0.076054513 -0.29034126
0.10791986 0.093701832 -0.2798202
0.12500009 0.093215376 -0.29035175
0.10791986 0.11094414 -0.2798202
0.12500009 0.1103767 -0.29035169
0.10791986 0.12818657 -0.2798202
0.12500009 0.12753797 -0.29035169
0.12500009 0.14469929 -0.29035175
0.10791986 0.14542888 -0.2798202
0.10791986 0.16267127 -0.2798202
0.12500009 0.16186057 -0.29035175
0.10791986 0.17991363 -0.27982014
0.12500009 0.17902185 -0.29035169
0.10791986 0.19715594 -0.27982014
0.12500009 0.19618309 -0.29035169
0.10791986 0.21439835 -0.27982014
0.12500009 0.21334453 -0.29035175
0.10791986 0.2316407 -0.27982014
0.12500009 0.23050575 -0.29035169
0.10791986 0.24888319 -0.27982032
0.12500009 0.24766704 -0.29035169
0.10791986 0.2661255 -0.2798202
0.12500009 0.26482838 -0.29035187
0.15933532 0.26487881 -0.28994155
0.10791986 0.28336787 -0.2798202
0.12500009 0.28198963 -0.29035175
0.14209011 0.28158566 -0.29343837
0.12500009 0.29915091 -0.29035169
0.10791986 0.30061033 -0.2798202
0.10791995 0.31785411 -0.27980965
0.090677492 -0.35623664 -0.2691887
0.090677492 -0.33891246 -0.2691887
0.10798869 -0.33866501 -0.27088022
0.090677492 -0.32158813 -0.26918876
0.12535498 -0.32184967 -0.26730156
0.090677492 -0.30426404 -0.26918876
0.090677492 -0.28693983 -0.26918876
0.090677492 -0.26961559 -0.26918888
0.090677492 -0.25229135 -0.26918888
0.090677492 -0.23496714 -0.2691887
0.090677492 -0.21764299 -0.2691887
0.090677492 -0.20031866 -0.26918876
0.090677492 -0.18299453 -0.26918876
0.090677492 -0.16567031 -0.2691887
0.090677492 -0.14834616 -0.2691887
0.090677492 -0.13102184 -0.26918876
0.090677492 -0.1136982 -0.26917803
0.090677492 -0.096373834 -0.26917809
0.090677492 -0.07904961 -0.26917803
0.090677492 -0.061725534 -0.26916736
0.090677492 -0.044401228 -0.26916724
0.090677492 -0.027076798 -0.26916718
0.090677492 -0.0097523872 -0.26916724
0.090677492 0.0075719822 -0.26916736
0.090677492 0.024896143 -0.26917791
0.090677492 0.042220511 -0.26917803
0.090677492 0.059544712 -0.26917791
0.090677492 0.076868623 -0.26918876
0.090677492 0.094192863 -0.2691887
0.090677492 0.11151698 -0.2691887
0.090677492 0.1288413 -0.26918876
0.090677492 0.14616546 -0.26918876
0.090677492 0.16348965 -0.2691887
0.090677492 0.18081397 -0.26918876
0.090677492 0.19813813 -0.26918876
0.090677492 0.21546233 -0.2691887
0.090677492 0.23278649 -0.2691887
0.090677492 0.25011081 -0.26918876
0.090677492 0.26743501 -0.2691887
0.090677492 0.28475916 -0.2691887
0.090677492 0.30208331 -0.2691887
0.090677492 0.31940916 -0.26917791
0.090677492 0.33673352 -0.26917803
0.10801259 0.33694959 -0.26777363
0.073270664 -0.35788906 -0.25845593
0.073270664 -0.34048221 -0.25845587
0.073270664 -0.32307544 -0.25845587
0.073270664 -0.30566859 -0.25845581
0.073270664 -0.2882618 -0.25845581
0.073270664 -0.27085489 -0.25845587
0.073270664 -0.2534481 -0.25845587
0.073270664 -0.23604123 -0.25845587
0.073270664 -0.21863444 -0.25845593
0.073270664 -0.20122756 -0.25845587
0.073270664 -0.18382071 -0.25845587
0.073270664 -0.16641387 -0.25845587
0.073270664 -0.14900699 -0.25845587
0.073270664 -0.13160022 -0.25845587
0.073270574 -0.11419394 -0.25844502
0.073270574 -0.096787006 -0.25844496
0.073270574 -0.079380117 -0.25844496
0.073270492 -0.061973393 -0.25843424
0.073270492 -0.04456646 -0.25843424
0.073270492 -0.027159424 -0.25843424
0.073270492 -0.009752471 -0.25843424
0.073270492 0.0076546073 -0.25843424
0.073270574 0.025061307 -0.25844496
0.073270574 0.042468391 -0.25844514
0.073270574 0.059875257 -0.25844502
0.073270664 0.077281751 -0.25845569
0.073270664 0.094688535 -0.25845581
0.073270664 0.11209541 -0.25845581
0.073270664 0.12950221 -0.25845581
0.073270664 0.14690909 -0.25845581
0.073270664 0.16431586 -0.25845587
0.073270664 0.18172275 -0.25845587
0.073270664 0.19912955 -0.25845587
0.073270664 0.2165364 -0.25845587
0.073270664 0.23394331 -0.25845587
0.073270664 0.25135013 -0.25845587
0.073270664 0.26875696 -0.25845587
0.073270664 0.28616378 -0.25845569
0.073270664 0.30357051 -0.25845581
0.073270574 0.32097894 -0.25844496
0.12540296 0.32013947 -0.26418483
0.073270574 0.33838591 -0.25844514
0.073270574 0.35579279 -0.25844514
0.090677492 0.35479882 -0.26459372
0.055697169 -0.37704587 -0.24763101
0.073176563 -0.37727186 -0.24623233
0.055697002 -0.35955742 -0.24762005
0.055697002 -0.34206709 -0.24762011
0.055697002 -0.32457691 -0.24762005
0.055697002 -0.30708653 -0.24762022
0.055697002 -0.28959635 -0.24762011
0.055697002 -0.27210608 -0.24762022
0.055697002 -0.25461578 -0.24762011
0.055697002 -0.23712561 -0.24762011
0.055697002 -0.21963532 -0.24762011
0.055697002 -0.20214513 -0.24762011
0.055697002 -0.18465483 -0.24762011
0.055697002 -0.16716465 -0.24762011
0.055697002 -0.1496744 -0.24762011
0.055697002 -0.13218416 -0.24762011
0.055696834 -0.11469444 -0.2476092
0.055696834 -0.097204082 -0.24760914
0.055696834 -0.079713725 -0.2476092
0.055696663 -0.062223665 -0.24759829
0.055696663 -0.044733264 -0.24759823
0.055696663 -0.027242804 -0.24759829
0.055696663 -0.0097524291 -0.24759829
0.055696663 0.0077379476 -0.24759829
0.055696834 0.025228323 -0.2476092
0.055696834 0.042718619 -0.2476092
0.055697002 0.060208574 -0.24762005
0.055697002 0.077698782 -0.24762005
0.055697002 0.095189035 -0.24762005
0.055697002 0.11267933 -0.24762022
0.055697002 0.1301696 -0.24762011
0.055697002 0.14765982 -0.24762011
0.055697002 0.16515008 -0.24762011
0.055697002 0.18264034 -0.24762011
0.055697002 0.20013054 -0.24762011
0.055697002 0.2176208 -0.24762011
0.055697002 0.23511104 -0.24762011
0.055697002 0.2526013 -0.24762011
0.055697002 0.2700915 -0.24762011
0.055697002 0.28758171 -0.24762011
0.055697002 0.30507207 -0.24762011
0.055696834 0.32256386 -0.2476092
0.055696834 0.34005421 -0.2476092
0.055696834 0.35754454 -0.24760902
0.055697002 0.37503305 -0.24762011
0.073124647 0.37641022 -0.23948801
0.020040199 -0.41591686 -0.22565639
0.020039849 -0.3982594 -0.22564524
0.03795436 -0.39638877 -0.23669106
0.020039849 -0.38059998 -0.22564512
0.03795436 -0.37881437 -0.236691
0.020039514 -0.36294234 -0.22563404
0.037954103 -0.3612417 -0.23667991
0.020039514 -0.34528285 -0.22563404
0.037954103 -0.34366715 -0.23667997
0.020039514 -0.32762337 -0.22563404
0.037954103 -0.32609278 -0.23668009
0.020039514 -0.30996379 -0.22563404
0.037954103 -0.30851832 -0.23667991
0.020039514 -0.29230431 -0.22563404
0.037954103 -0.29094383 -0.23667997
0.020039514 -0.27464488 -0.22563398
0.037954103 -0.27336937 -0.23668009
0.020039514 -0.25698537 -0.22563398
0.037954103 -0.25579494 -0.23667991
0.020039514 -0.23932588 -0.22563398
0.037954103 -0.23822045 -0.23667991
0.020039514 -0.22166637 -0.22563398
0.037954103 -0.22064592 -0.23667997
0.020039514 -0.20400688 -0.22563404
0.037954103 -0.20307159 -0.23667997
0.020039514 -0.1863474 -0.22563416
0.037954103 -0.18549705 -0.23667991
0.020039514 -0.16868782 -0.22563404
0.037954103 -0.16792254 -0.23667997
0.020039514 -0.15102832 -0.22563404
0.037954103 -0.15034811 -0.23668009
0.020039514 -0.13336889 -0.22563398
0.037954103 -0.1327737 -0.23667997
0.020039514 -0.11570939 -0.22563398
0.03795385 -0.11519972 -0.23666888
0.020039171 -0.098050386 -0.22562283
0.03795385 -0.097625189 -0.23666888
0.020039171 -0.080390729 -0.22562295
0.03795385 -0.080050632 -0.23666888
0.020038828 -0.062731326 -0.22561181
0.037953593 -0.062476262 -0.23665798
0.020038828 -0.045071788 -0.22561181
0.037953593 -0.044901669 -0.23665798
0.020038828 -0.02741213 -0.22561175
0.037953593 -0.02732707 -0.23665792
0.020038828 -0.0097524291 -0.22561181
0.037953593 -0.009752471 -0.23665792
0.020039171 0.0079071037 -0.22562289
0.03795385 0.0078221262 -0.236669
0.020039171 0.02556668 -0.22562283
0.03795385 0.025396639 -0.236669
0.020039171 0.043226339 -0.22562295
0.03795385 0.042971194 -0.236669
0.037954103 0.060545459 -0.23668009
0.020039514 0.060885578 -0.22563404
0.020039514 0.078545071 -0.22563404
0.037954103 0.078119889 -0.23667991
0.020039849 0.096204102 -0.22564512
0.037954103 0.095694326 -0.23667997
0.020039514 0.11386409 -0.22563404
0.037954103 0.11326884 -0.23668009
0.037954103 0.13084325 -0.23667991
0.020039514 0.13152358 -0.22563404
0.020039514 0.14918302 -0.22563398
0.037954103 0.14841776 -0.23667991
0.020039514 0.16684251 -0.22563398
0.037954103 0.1659922 -0.23667997
0.020039514 0.18450199 -0.22563398
0.037954103 0.18356661 -0.23667991
0.037954103 0.20114115 -0.23667991
0.020039514 0.20216152 -0.22563404
0.020039514 0.21982102 -0.22563404
0.037954103 0.21871567 -0.23667997
0.020039514 0.23748057 -0.22563404
0.037954103 0.23629016 -0.23667997
0.020039514 0.25513998 -0.22563404
0.037954103 0.25386444 -0.23667997
0.037954103 0.27143893 -0.23668009
0.020039514 0.27279946 -0.22563392
0.020039514 0.29045904 -0.22563392
0.037954103 0.28901348 -0.23668009
0.020039171 0.3081201 -0.22562289
0.037954103 0.30658787 -0.23667991
0.020039171 0.32577968 -0.22562289
0.03795385 0.32416406 -0.23666888
0.03795385 0.34173855 -0.236669
0.020039171 0.34343925 -0.22562283
0.020039514 0.36109701 -0.22563404
0.037954103 0.35931134 -0.23667991
0.020039514 0.37875646 -0.22563404
0.037954103 0.37688571 -0.23668009
0.020039849 0.39641398 -0.22564512
0.03795436 0.39445829 -0.236691
0.020040199 0.41407132 -0.22565621
0.0019515902 -0.41789162 -0.21450305
0.0019511506 -0.4001483 -0.21449196
0.055281546 -0.39910787 -0.22063559
0.0019511506 -0.38240299 -0.2144919
0.0019507185 -0.36465952 -0.21448064
0.0019507185 -0.34691414 -0.21448076
0.0019507185 -0.32916883 -0.21448064
0.0019507185 -0.31142345 -0.21448076
0.0019507185 -0.29367805 -0.21448076
0.0019507185 -0.27593273 -0.21448058
0.0019507185 -0.25818735 -0.21448064
0.0019507185 -0.24044196 -0.21448076
0.0019507185 -0.22269668 -0.21448064
0.0019507185 -0.20495129 -0.21448064
0.0019507185 -0.18720596 -0.21448058
0.0019507185 -0.16946058 -0.21448058
0.0019507185 -0.15171526 -0.21448076
0.0019507185 -0.13396995 -0.21448064
0.0019507185 -0.11622457 -0.21448064
0.0019502938 -0.098479658 -0.21446937
0.0019502938 -0.080734223 -0.21446931
0.0019498616 -0.062988944 -0.21445823
0.0019498616 -0.045243464 -0.21445823
0.0019498616 -0.027497904 -0.21445817
0.0019502938 -0.0097524291 -0.21446937
0.0019502938 0.0079930462 -0.21446937
0.0019502938 0.02573848 -0.21446937
0.0019507185 0.04348366 -0.21448064
0.0019507185 0.061229102 -0.21448076
0.0019507185 0.078974284 -0.21448064
0.0019511506 0.096719168 -0.21449184
0.0019507185 0.11446507 -0.21448076
0.0019507185 0.13221036 -0.21448064
0.0019507185 0.14995576 -0.21448064
0.0019507185 0.16770117 -0.21448076
0.0019507185 0.18544646 -0.21448064
0.0019507185 0.20319183 -0.21448064
0.0019507185 0.22093716 -0.21448058
0.0019507185 0.23868255 -0.21448058
0.0019507185 0.25642782 -0.21448076
0.0019507185 0.2741732 -0.21448058
0.0019507185 0.29191855 -0.21448064
0.0019502938 0.30966556 -0.21446949
0.0019502938 0.327411 -0.21446937
0.0019502938 0.34515646 -0.21446949
0.0019507185 0.36290005 -0.21448076
0.0019507185 0.38064539 -0.21448058
0.0019511506 0.3983888 -0.21449184
0.0019515902 0.41613197 -0.21450323
-0.016313769 -0.43771744 -0.20324093
-0.016313769 -0.41988552 -0.20324111
-0.016314298 -0.40205556 -0.20322973
-0.016314298 -0.38422373 -0.20322961
-0.016314819 -0.36639348 -0.20321822
-0.016314819 -0.34856144 -0.20321822
-0.016314819 -0.33072942 -0.20321822
-0.016314819 -0.31289729 -0.20321822
-0.016314819 -0.29506516 -0.20321834
-0.016314819 -0.27723315 -0.2032184
-0.016314819 -0.25940111 -0.2032184
-0.016314819 -0.24156903 -0.20321822
-0.016314819 -0.22373697 -0.20321834
-0.016314819 -0.20590498 -0.20321834
-0.016314819 -0.18807292 -0.20321834
-0.016314819 -0.17024091 -0.20321822
-0.016314819 -0.15240881 -0.20321822
-0.016314819 -0.13457675 -0.20321822
-0.016314819 -0.11674474 -0.20321834
-0.016315348 -0.098913111 -0.2032069
-0.016315348 -0.081080958 -0.20320702
-0.01631587 -0.063249081 -0.20319563
-0.01631587 -0.045416944 -0.20319557
-0.01631587 -0.027584646 -0.20319563
-0.016315348 -0.0097524291 -0.20320702
-0.016315348 0.0080796611 -0.2032069
-0.016315348 0.025911922 -0.20320702
-0.016314819 0.043743759 -0.20321834
-0.016314819 0.061575808 -0.20321834
-0.016314819 0.079407819 -0.20321834
-0.016314298 0.097239405 -0.20322967
-0.016314819 0.11507195 -0.20321822
-0.016314819 0.13290399 -0.20321822
-0.016314819 0.15073605 -0.20321822
-0.016314819 0.16856804 -0.20321822
-0.016314819 0.18640016 -0.20321822
-0.016314819 0.20423222 -0.20321822
-0.016314819 0.22206424 -0.20321822
-0.016314819 0.23989636 -0.20321822
-0.016314819 0.25772831 -0.20321822
-0.016314819 0.27556041 -0.20321822
-0.016314819 0.29339236 -0.20321822
-0.016315348 0.31122613 -0.20320684
-0.016315348 0.32905826 -0.20320684
-0.016315348 0.34689042 -0.20320702
-0.016314819 0.36472076 -0.20321822
-0.016314819 0.38255268 -0.2032184
-0.016314298 0.4003827 -0.20322967
-0.016313769 0.41821256 -0.20324111
-0.016313769 0.43604448 -0.20324093
-0.034758471 -0.43981862 -0.19186825
0.00086853653 -0.44083548 -0.18636447
-0.034758471 -0.42189911 -0.19186825
-0.034759097 -0.40398172 -0.19185686
-0.034759097 -0.3860622 -0.19185686
-0.034759708 -0.36814442 -0.19184536
-0.034759708 -0.35022482 -0.19184536
-0.034759708 -0.33230528 -0.19184524
-0.034759708 -0.31438559 -0.19184542
-0.034759708 -0.29646602 -0.19184542
-0.034759708 -0.27854639 -0.19184542
-0.034759708 -0.26062682 -0.19184542
-0.034759708 -0.24270727 -0.19184542
-0.034759708 -0.22478762 -0.19184536
-0.034759708 -0.20686801 -0.19184536
-0.034759708 -0.18894842 -0.19184524
-0.034759708 -0.17102879 -0.19184542
-0.034759708 -0.15310921 -0.19184542
-0.034759708 -0.13518962 -0.19184542
-0.034759708 -0.11727003 -0.19184542
-0.034760334 -0.099350825 -0.19183385
-0.034760334 -0.08143115 -0.19183385
-0.034760945 -0.063511692 -0.19182247
-0.034760945 -0.04559198 -0.19182241
-0.034760945 -0.027672142 -0.19182241
-0.034760334 -0.0097523872 -0.19183391
-0.034760334 0.0081672836 -0.19183385
-0.034759708 0.026086787 -0.19184536
-0.034759708 0.04400637 -0.19184536
-0.034759708 0.061925963 -0.19184524
-0.034759097 0.079845086 -0.19185686
-0.034759097 0.097764716 -0.19185686
-0.034759708 0.11568484 -0.19184536
-0.034759708 0.13360442 -0.19184536
-0.034759708 0.15152398 -0.19184536
-0.034759708 0.16944356 -0.19184536
-0.034759708 0.18736315 -0.19184536
-0.034759708 0.20528279 -0.19184524
-0.034759708 0.22320238 -0.19184524
-0.034759708 0.24112204 -0.19184542
-0.034759708 0.25904161 -0.19184536
-0.034759708 0.27696121 -0.19184536
-0.034759708 0.29488078 -0.19184536
-0.034760334 0.31280199 -0.19183385
-0.034760334 0.33072168 -0.19183373
-0.034760334 0.34864137 -0.19183391
-0.034759708 0.36655909 -0.19184524
-0.034759097 0.38447693 -0.19185686
-0.034759097 0.40239635 -0.19185674
-0.034758471 0.42031375 -0.19186836
-0.034758471 0.43823308 -0.19186825
-0.072197415 -0.46218279 -0.16877282
-0.053385906 -0.45995045 -0.18037182
-0.072197415 -0.44408551 -0.1687727
-0.053385176 -0.44194043 -0.18038344
-0.072196595 -0.42598629 -0.1687845
-0.053385176 -0.42393261 -0.18038332
-0.072197415 -0.40789106 -0.16877288
-0.053385906 -0.40592673 -0.18037164
-0.072197415 -0.38979384 -0.16877288
-0.053385906 -0.38791886 -0.18037176
-0.072198234 -0.3716985 -0.16876113
-0.053386606 -0.36991274 -0.18036008
-0.072198234 -0.35360122 -0.16876101
-0.053386606 -0.35190472 -0.18036014
-0.072198234 -0.33550388 -0.16876113
-0.053386606 -0.3338967 -0.18036008
-0.072198234 -0.31740662 -0.16876101
-0.053386606 -0.31588867 -0.18036014
-0.072198234 -0.29930922 -0.16876119
-0.053386606 -0.29788062 -0.18036014
-0.072198234 -0.281212 -0.16876101
-0.053386606 -0.2798726 -0.18036014
-0.072198234 -0.26311466 -0.16876119
-0.053386606 -0.26186463 -0.18036026
-0.072198234 -0.24501735 -0.16876113
-0.053386606 -0.24385661 -0.18036014
-0.072198234 -0.22692011 -0.16876101
-0.053386606 -0.22584854 -0.18036014
-0.072198234 -0.20882279 -0.16876113
-0.053386606 -0.2078405 -0.18036026
-0.072198234 -0.19072548 -0.16876101
-0.053386606 -0.18983249 -0.18036026
-0.072198234 -0.17262815 -0.16876119
-0.053386606 -0.17182462 -0.18036008
-0.072198234 -0.15453091 -0.16876101
-0.053386606 -0.15381654 -0.18036008
-0.072198234 -0.13643347 -0.16876113
-0.053386606 -0.13580853 -0.18036014
-0.072198234 -0.11833625 -0.16876113
-0.053386606 -0.11780049 -0.18036014
-0.072199054 -0.10023939 -0.16874945
-0.053387322 -0.099792898 -0.18034858
-0.072199054 -0.082142077 -0.16874927
-0.053387322 -0.081784874 -0.18034858
-0.072199859 -0.0640449 -0.16873771
-0.053388037 -0.063776955 -0.18033707
-0.072199859 -0.045947425 -0.16873771
-0.053388037 -0.045768864 -0.18033701
-0.072199054 -0.027849738 -0.16874945
-0.053388037 -0.027760604 -0.18033707
-0.072199054 -0.0097524291 -0.16874939
-0.053387322 -0.0097523872 -0.18034858
-0.072199054 0.0083449632 -0.16874945
-0.053387322 0.0082557034 -0.18034858
-0.072198234 0.026442187 -0.16876101
-0.053386606 0.026263541 -0.18036008
-0.072198234 0.044539496 -0.16876113
-0.053386606 0.044271588 -0.18036008
-0.072197415 0.062636472 -0.1687727
-0.053386606 0.062279642 -0.18036014
-0.072197415 0.080733612 -0.1687727
-0.053385906 0.080287144 -0.18037164
-0.072197415 0.098830879 -0.16877288
-0.053385906 0.098295107 -0.18037176
-0.072198234 0.11692873 -0.16876119
-0.053386606 0.1163037 -0.18036014
-0.072198234 0.13502602 -0.16876113
-0.053386606 0.13431171 -0.18036014
-0.072198234 0.15312326 -0.16876101
-0.053386606 0.15231974 -0.18036014
-0.072198234 0.1712206 -0.16876113
-0.053386606 0.17032771 -0.18036026
-0.072198234 0.18931791 -0.16876101
-0.053386606 0.18833576 -0.18036026
-0.072198234 0.20741522 -0.16876113
-0.053386606 0.20634373 -0.18036008
-0.072198234 0.22551249 -0.16876113
-0.053386606 0.22435173 -0.18036008
-0.072198234 0.24360979 -0.16876119
-0.053386606 0.24235976 -0.18036008
-0.072198234 0.26170719 -0.16876101
-0.053386606 0.26036781 -0.18036008
-0.072198234 0.27980441 -0.16876101
-0.053386606 0.27837583 -0.18036008
-0.072198234 0.29790175 -0.16876101
-0.053386606 0.29638371 -0.18036026
-0.072199054 0.31600064 -0.16874939
-0.053387322 0.31439346 -0.18034852
-0.072199054 0.33409798 -0.16874945
-0.053387322 0.33240145 -0.18034852
-0.072199054 0.35219535 -0.16874927
-0.053387322 0.3504096 -0.18034863
-0.072198234 0.37029096 -0.16876096
-0.053386606 0.36841586 -0.18036026
-0.072197415 0.38838625 -0.16877282
-0.053385906 0.38642195 -0.18037164
-0.072197415 0.40648347 -0.1687727
-0.053385906 0.40442988 -0.18037182
-0.072196595 0.42457855 -0.1687845
-0.053385176 0.42243564 -0.18038327
-0.053385906 0.44044566 -0.18037176
-0.072197415 0.44267783 -0.16877282
-0.072197415 0.46077514 -0.16877282
-0.053874485 0.46004146 -0.1724382
-0.09119644 -0.46443719 -0.1570583
-0.09119644 -0.44624984 -0.15705824
-0.091195516 -0.42806032 -0.15707016
-0.09119644 -0.40987501 -0.1570583
-0.09119644 -0.39168769 -0.15705812
-0.091197334 -0.37350214 -0.15704644
-0.091197334 -0.35531461 -0.15704644
-0.091197334 -0.33712709 -0.15704644
-0.091197334 -0.31893966 -0.15704638
-0.091197334 -0.30075216 -0.15704638
-0.091197334 -0.28256467 -0.15704638
-0.091197334 -0.26437715 -0.15704644
-0.091197334 -0.24618971 -0.15704638
-0.091197334 -0.22800221 -0.15704644
-0.091197334 -0.20981477 -0.15704644
-0.091197334 -0.19162722 -0.15704644
-0.091197334 -0.1734398 -0.15704644
-0.091197334 -0.15525228 -0.15704644
-0.091197334 -0.13706477 -0.15704644
-0.091197334 -0.11887727 -0.15704656
-0.091198243 -0.10069031 -0.1570347
-0.091198243 -0.082502685 -0.15703464
-0.091199137 -0.064315446 -0.15702271
0.23640385 -0.064399838 -0.15336823
-0.091199137 -0.046127707 -0.15702277
-0.091198243 -0.027940046 -0.15703464
-0.091198243 -0.009752471 -0.15703464
-0.091197334 0.008435104 -0.15704644
-0.091197334 0.02662251 -0.15704638
-0.091197334 0.044810042 -0.15704644
-0.09119644 0.062997162 -0.1570583
0.23642865 0.063123196 -0.15296537
-0.09119644 0.081184529 -0.15705824
-0.091197334 0.099372476 -0.15704638
-0.091197334 0.11755998 -0.15704644
-0.091197334 0.13574749 -0.15704644
-0.091197334 0.1539349 -0.15704644
-0.091197334 0.17212236 -0.15704638
-0.091197334 0.19030984 -0.15704644
-0.091197334 0.20849738 -0.15704644
-0.091197334 0.22668478 -0.15704638
-0.091197334 0.24487236 -0.15704638
-0.091197334 0.26305982 -0.15704644
-0.091197334 0.28124735 -0.15704644
-0.091198243 0.29943633 -0.15703452
-0.091198243 0.31762385 -0.15703452
-0.091198243 0.33581138 -0.15703452
-0.091197334 0.35399732 -0.15704644
-0.091197334 0.37218472 -0.15704632
-0.09119644 0.39037019 -0.1570583
-0.09119644 0.40855756 -0.15705824
-0.091195516 0.42674279 -0.15707016
-0.09119644 0.44493237 -0.15705824
-0.09119644 0.46311966 -0.15705824
-0.11038572 -0.46671423 -0.14522636
-0.11038572 -0.44843581 -0.14522642
-0.11038471 -0.43015516 -0.14523828
-0.11038572 -0.41187879 -0.14522642
-0.11038572 -0.3936004 -0.14522636
-0.11038674 -0.37532371 -0.1452145
-0.11038674 -0.35704508 -0.1452145
-0.11038674 -0.33876666 -0.14521444
-0.11038674 -0.32048804 -0.14521444
-0.11038674 -0.30220953 -0.14521444
-0.11038674 -0.28393093 -0.14521444
-0.11038674 -0.2656523 -0.1452145
-0.11038674 -0.24737379 -0.1452145
-0.11038674 -0.22909515 -0.1452145
-0.11038674 -0.21081658 -0.1452145
-0.11038674 -0.1925381 -0.14521444
-0.11038674 -0.17425953 -0.14521444
-0.11038674 -0.15598097 -0.14521444
-0.11038674 -0.13770238 -0.14521444
-0.11038674 -0.11942376 -0.14521444
-0.11038774 -0.10114571 -0.14520258
0.23698905 -0.10119715 -0.14386594
-0.11038774 -0.082867026 -0.14520246
0.23669624 -0.082761817 -0.14862061
-0.11038875 -0.064588688 -0.14519066
-0.11038875 -0.046309918 -0.14519054
-0.11038774 -0.028031154 -0.14520246
-0.11038774 -0.0097523872 -0.14520258
-0.11038674 0.0085261688 -0.1452145
-0.11038674 0.026804725 -0.1452145
-0.11038674 0.045083284 -0.1452145
-0.11038572 0.063361503 -0.14522642
-0.11038572 0.081639931 -0.14522636
0.23672116 0.081524938 -0.14821625
-0.11038674 0.099918954 -0.14521444
0.2370148 0.10000061 -0.14344794
-0.11038674 0.11819755 -0.14521444
-0.11038674 0.13647605 -0.1452145
-0.11038674 0.1547547 -0.14521444
-0.11038674 0.17303321 -0.1452145
-0.11038674 0.19131185 -0.1452145
-0.11038674 0.20959029 -0.14521444
-0.11038674 0.22786896 -0.14521432
-0.11038674 0.24614748 -0.14521444
-0.11038674 0.26442599 -0.1452145
-0.11038674 0.28270471 -0.14521432
-0.11038774 0.30098471 -0.1452024
-0.11038774 0.31926337 -0.1452024
-0.11038774 0.33754218 -0.14520258
-0.11038674 0.3558189 -0.14521432
-0.11038674 0.37409741 -0.14521444
-0.11038572 0.39237401 -0.14522624
-0.11038471 0.41065049 -0.14523834
-0.11038471 0.42892876 -0.14523834
-0.11038572 0.44720933 -0.14522642
-0.11038572 0.4654879 -0.14522642
-0.12976819 -0.46901426 -0.13327527
-0.12976819 -0.45064375 -0.13327545
-0.12976706 -0.43227118 -0.13328749
-0.12976819 -0.41390279 -0.13327539
-0.12976819 -0.39553231 -0.13327539
-0.12976819 -0.37716186 -0.13327539
-0.1297693 -0.3587932 -0.13326329
-0.1297693 -0.3404226 -0.13326329
-0.1297693 -0.32205206 -0.13326329
-0.1297693 -0.30368146 -0.13326329
-0.1297693 -0.28531086 -0.13326335
-0.1297693 -0.26694033 -0.13326347
-0.1297693 -0.24856974 -0.13326347
-0.1297693 -0.23019922 -0.13326323
-0.1297693 -0.21182869 -0.13326329
-0.1297693 -0.19345805 -0.13326329
-0.1297693 -0.17508751 -0.13326335
-0.1297693 -0.15671691 -0.13326335
-0.1297693 -0.13834631 -0.13326335
-0.1297693 -0.11997578 -0.13326335
0.23762867 -0.11996583 -0.13348007
-0.1297704 -0.10160565 -0.13325119
-0.1297704 -0.08323507 -0.13325119
-0.1297704 -0.064864397 -0.13325119
-0.1297704 -0.046493769 -0.13325131
0.25638232 -0.04657577 -0.12792647
-0.1297704 -0.028123016 -0.13325131
0.25604764 -0.02812692 -0.13275731
-0.1297693 -0.0097524291 -0.13326329
0.25571513 -0.0097524291 -0.13755655
-0.1297693 0.0086181164 -0.13326335
0.25574258 0.0085881799 -0.1371603
-0.1297693 0.026988743 -0.13326335
0.25607604 0.027002851 -0.13234735
-0.12976819 0.045358993 -0.13327545
0.25641084 0.045492046 -0.1275149
-0.12976819 0.063729458 -0.13327539
-0.12976819 0.082100004 -0.13327539
-0.12976819 0.10047038 -0.13327539
-0.1297693 0.11884155 -0.13326335
0.23771328 0.11890385 -0.13210618
-0.1297693 0.13721213 -0.13326335
-0.1297693 0.15558268 -0.13326335
-0.1297693 0.17395318 -0.13326347
-0.1297693 0.19232377 -0.13326329
-0.1297693 0.21069431 -0.13326329
-0.1297693 0.22906485 -0.13326329
-0.1297693 0.24743554 -0.13326329
-0.1297693 0.26580608 -0.13326335
-0.1297693 0.28417662 -0.13326335
-0.1297704 0.30254877 -0.13325137
-0.1297704 0.32091942 -0.13325137
-0.1297704 0.33929011 -0.13325131
-0.1297693 0.35765892 -0.13326329
-0.1297693 0.37602946 -0.13326329
-0.12976819 0.394398 -0.13327539
-0.12976706 0.41276622 -0.13328749
-0.12976706 0.43113673 -0.13328737
-0.1297693 0.44951177 -0.13326335
-0.1297693 0.46788219 -0.13326329
-0.14934674 -0.4898009 -0.12120348
-0.14934674 -0.47133753 -0.12120342
-0.14934674 -0.45287409 -0.12120348
-0.14934552 -0.43440852 -0.1212157
-0.14934674 -0.41594726 -0.12120348
-0.14934674 -0.39748394 -0.12120342
-0.14934674 -0.37902045 -0.12120342
-0.14934796 -0.36055884 -0.12119132
-0.14934796 -0.34209535 -0.12119132
-0.14934796 -0.32363182 -0.12119132
-0.14934796 -0.30516833 -0.12119132
-0.14934796 -0.2867049 -0.12119126
-0.14934796 -0.26824141 -0.12119126
-0.14934796 -0.24977784 -0.12119132
-0.14934796 -0.23131433 -0.12119144
-0.14934796 -0.21285082 -0.12119144
-0.14934796 -0.19438741 -0.12119126
-0.14934796 -0.17592388 -0.12119132
0.22010583 -0.17616028 -0.11777896
-0.14934796 -0.15746039 -0.12119132
-0.14934796 -0.13899687 -0.12119132
0.2385911 -0.13917679 -0.11785221
-0.14934796 -0.12053342 -0.12119132
-0.14934918 -0.10207038 -0.12117916
0.25739455 -0.10237301 -0.11331618
-0.14934918 -0.083606802 -0.1211791
0.25705579 -0.083698325 -0.11820602
-0.14934918 -0.06514322 -0.1211791
0.25671837 -0.065099388 -0.12307614
-0.14934918 -0.046679638 -0.1211791
-0.14934918 -0.028216055 -0.1211791
-0.14934796 -0.0097523872 -0.12119126
-0.14934796 0.0087111127 -0.12119126
-0.14934796 0.027174613 -0.12119132
-0.14934674 0.045637771 -0.12120342
-0.14934674 0.064101234 -0.12120342
0.25674698 0.06405627 -0.12266296
-0.14934674 0.082564563 -0.12120342
0.25708368 0.082695559 -0.11780339
-0.14934674 0.10102802 -0.12120348
0.25742257 0.10141101 -0.11291194
-0.14934796 0.11949211 -0.12119132
-0.14934796 0.13795552 -0.12119114
0.23867682 0.13824685 -0.11646014
-0.14934796 0.15641901 -0.12119126
-0.14934796 0.17488252 -0.12119132
0.22018152 0.17525332 -0.11637449
-0.14934796 0.19334605 -0.12119132
-0.14934796 0.21180955 -0.12119132
0.20181543 0.21252337 -0.1134631
-0.14934796 0.23027296 -0.12119126
-0.14934796 0.24873647 -0.12119132
-0.14934796 0.26719999 -0.12119132
-0.14934796 0.28566352 -0.12119132
-0.14934918 0.30412856 -0.12117916
-0.14934918 0.3225922 -0.1211791
-0.14934918 0.34105575 -0.1211791
-0.14934796 0.35951746 -0.12119132
-0.14934674 0.37797895 -0.12120342
-0.14934674 0.39644253 -0.12120342
-0.14934552 0.41490367 -0.1212157
-0.14934552 0.43336686 -0.12121558
-0.14934796 0.45183495 -0.12119132
-0.14934796 0.4702985 -0.12119132
-0.18910414 -0.49470735 -0.096689463
-0.16912436 -0.49224162 -0.10900867
-0.1891056 -0.47605762 -0.096677065
-0.16912571 -0.4736867 -0.10899651
-0.18910414 -0.45740312 -0.096689582
-0.16912436 -0.45512703 -0.10900891
-0.18910414 -0.43875098 -0.096689582
-0.16912305 -0.43656757 -0.10902119
-0.18910414 -0.4200989 -0.096689582
-0.16912436 -0.4180125 -0.10900891
-0.18910414 -0.4014467 -0.096689582
-0.16912436 -0.39945525 -0.10900879
-0.18910414 -0.38279462 -0.096689582
-0.16912436 -0.38089791 -0.10900891
-0.1891056 -0.3641443 -0.096677184
-0.16912571 -0.36234251 -0.10899651
-0.1891056 -0.34549209 -0.096677065
-0.16912571 -0.34378508 -0.10899651
-0.1891056 -0.32683989 -0.096677065
-0.16912571 -0.32522777 -0.10899639
-0.1891056 -0.30818778 -0.096677065
-0.16912571 -0.30667037 -0.10899651
-0.1891056 -0.28953549 -0.096677065
-0.16912571 -0.28811297 -0.10899663
-0.1891056 -0.27088332 -0.096677065
-0.16912571 -0.26955569 -0.10899651
-0.1891056 -0.25223109 -0.096677184
-0.16912571 -0.25099823 -0.10899651
-0.1891056 -0.23357894 -0.096677065
-0.16912571 -0.23244087 -0.10899651
-0.1891056 -0.21492667 -0.096677065
-0.16912571 -0.21388358 -0.10899639
-0.1891056 -0.19627443 -0.096677065
-0.16912571 -0.19532618 -0.10899663
0.22095913 -0.19586903 -0.10194397
-0.1891056 -0.17762232 -0.096677065
-0.16912571 -0.17676876 -0.10899663
-0.1891056 -0.15897004 -0.096677184
-0.16912571 -0.15821145 -0.10899651
0.23956621 -0.15864119 -0.10201812
-0.1891056 -0.14031786 -0.096677065
-0.16912571 -0.13965407 -0.10899651
-0.1891056 -0.12166558 -0.096677184
-0.16912571 -0.12109656 -0.10899651
0.25817215 -0.12141556 -0.10209239
-0.18910703 -0.10301395 -0.096664786
-0.16912702 -0.10253969 -0.10898423
-0.18910703 -0.084361605 -0.096664667
-0.16912702 -0.083982229 -0.10898423
-0.18910703 -0.065709256 -0.096664786
-0.16912702 -0.06542477 -0.10898435
-0.18910703 -0.04705704 -0.096664667
-0.16912702 -0.046867311 -0.10898423
0.27717659 -0.047052249 -0.096975207
-0.18910703 -0.028404776 -0.096664667
-0.16912702 -0.028309932 -0.10898423
0.27679601 -0.02836426 -0.10191917
-0.1891056 -0.0097524291 -0.096677184
-0.16912571 -0.0097523872 -0.10899663
0.276416 -0.0097523872 -0.10685551
-0.1891056 0.0088997073 -0.096677065
-0.16912571 0.0088049062 -0.10899639
0.2764473 0.0088245552 -0.10644901
-0.18910414 0.027551761 -0.096689582
-0.16912436 0.027362155 -0.10900891
0.27682647 0.027477363 -0.1015234
-0.18910414 0.046203941 -0.096689582
-0.16912436 0.045919366 -0.10900891
-0.18910414 0.064856037 -0.096689582
-0.16912436 0.064476617 -0.10900867
-0.18910414 0.083508171 -0.096689582
-0.16912436 0.083033949 -0.10900891
-0.1891056 0.10216081 -0.096677065
-0.16912571 0.10159183 -0.10899651
-0.1891056 0.12081303 -0.096677065
-0.16912571 0.12014913 -0.10899639
0.25826988 0.12059724 -0.10068202
-0.1891056 0.13946526 -0.096677065
-0.16912571 0.13870654 -0.10899651
-0.1891056 0.15811741 -0.096677065
-0.16912571 0.15726395 -0.10899651
0.23965308 0.15784511 -0.10060775
-0.1891056 0.1767696 -0.096677065
-0.16912571 0.17582133 -0.10899639
-0.1891056 0.19542186 -0.096677065
-0.16912571 0.19437863 -0.10899651
0.22103581 0.19509643 -0.10052109
-0.1891056 0.214074 -0.096677065
-0.16912571 0.21293609 -0.10899651
-0.1891056 0.23272631 -0.096677065
-0.16912571 0.23149334 -0.10899639
-0.1891056 0.25137857 -0.096677065
-0.16912571 0.25005081 -0.10899639
-0.1891056 0.27003059 -0.096677065
-0.16912571 0.26860812 -0.10899663
-0.1891056 0.28868288 -0.096677184
-0.16912571 0.28716552 -0.10899639
-0.18910703 0.30733666 -0.096664667
-0.16912702 0.30572453 -0.10898423
-0.18910703 0.32598901 -0.096664667
-0.16912702 0.32428199 -0.10898423
-0.1891056 0.34463942 -0.096677065
-0.16912571 0.34283754 -0.10899639
-0.1891056 0.36329171 -0.096677065
-0.16912571 0.36139497 -0.10899639
-0.18910414 0.38194188 -0.096689582
-0.16912436 0.37995046 -0.10900891
-0.16912436 0.39850762 -0.10900879
-0.18910414 0.40059394 -0.096689582
-0.18910271 0.4192439 -0.096702099
-0.16912305 0.4170627 -0.10902119
-0.18910414 0.43789828 -0.096689582
-0.16912436 0.43562225 -0.10900891
-0.16912571 0.45418176 -0.10899639
-0.1891056 0.45655268 -0.096677184
-0.1891056 0.47520491 -0.096677065
-0.16912571 0.47273925 -0.10899651
-0.20928919 -0.49719834 -0.084243655
-0.20929074 -0.47845283 -0.084231138
-0.20929074 -0.45970476 -0.084231138
-0.20928919 -0.44095454 -0.084243774
-0.20928919 -0.42220664 -0.084243774
-0.20928919 -0.40345871 -0.084243655
-0.20928919 -0.38471085 -0.084243655
-0.20929074 -0.36596471 -0.084231138
-0.20929074 -0.34721664 -0.084231257
-0.20929074 -0.32846871 -0.084231138
-0.20929074 -0.30972061 -0.084231138
-0.20929074 -0.29097262 -0.084231138
-0.20929074 -0.27222472 -0.084231138
-0.20929074 -0.25347659 -0.084231138
-0.20929074 -0.23472863 -0.084231138
0.20312677 -0.23465097 -0.085071564
-0.20929074 -0.21598063 -0.084231138
0.22199005 -0.21610069 -0.082812428
-0.20929074 -0.1972326 -0.084231138
-0.20929074 -0.17848456 -0.084231138
0.24055427 -0.17836384 -0.085974097
-0.20929074 -0.15973656 -0.084231138
-0.20929074 -0.14098851 -0.084231138
0.25928366 -0.14089052 -0.08604908
-0.20929074 -0.12224052 -0.084231138
-0.20929229 -0.10349295 -0.084218621
-0.20929229 -0.084744841 -0.084218621
0.27794442 -0.084659189 -0.087000966
-0.20929229 -0.065996766 -0.084218621
0.27755973 -0.065817118 -0.091998339
-0.20929229 -0.047248654 -0.084218621
-0.20929074 -0.028500417 -0.084231138
-0.20929074 -0.009752471 -0.084231138
-0.20929074 0.0089956429 -0.084231138
-0.20928919 0.027743461 -0.084243655
-0.20928919 0.046491325 -0.084243655
0.27720815 0.046206795 -0.096565247
-0.20928764 0.065238938 -0.084256291
0.27759138 0.065013185 -0.091586709
-0.20928919 0.083987258 -0.084243774
0.27797621 0.083896987 -0.086587906
-0.20929074 0.10273571 -0.084231138
-0.20929074 0.12148365 -0.084231138
-0.20929074 0.14023171 -0.084231138
0.25938267 0.14020778 -0.084619999
-0.20929074 0.15897971 -0.084231138
-0.20929074 0.17772773 -0.084231138
0.24064228 0.17770363 -0.084544659
-0.20929074 0.19647571 -0.084231138
-0.20929074 0.21522371 -0.084231138
-0.20929074 0.23397182 -0.084231019
-0.20929074 0.25271985 -0.084231138
-0.20929074 0.2714678 -0.084231138
-0.20929229 0.29021734 -0.084218621
-0.20929229 0.30896553 -0.084218621
-0.20929229 0.32771373 -0.084218621
-0.20929074 0.34645987 -0.084231138
-0.20929074 0.36520794 -0.084231138
-0.20928919 0.38395378 -0.084243655
-0.20928919 0.40270171 -0.084243655
-0.20928764 0.42144743 -0.084256172
-0.20928919 0.44019756 -0.084243774
-0.20929074 0.45894802 -0.084231138
-0.20929229 0.47769848 -0.084218621
-0.22968432 -0.48087275 -0.071656704
-0.22968432 -0.46202794 -0.071656704
-0.22968265 -0.44318089 -0.07166934
-0.22968265 -0.42433619 -0.07166934
-0.22968265 -0.40549147 -0.07166934
-0.22968265 -0.38664672 -0.07166934
-0.22968432 -0.36780381 -0.071656704
-0.22968432 -0.34895903 -0.071656585
-0.22968432 -0.33011425 -0.071656704
-0.22968432 -0.31126952 -0.071656585
-0.22968432 -0.29242465 -0.071656704
-0.22968432 -0.27357987 -0.071656704
-0.22968432 -0.25473502 -0.071656704
-0.22968432 -0.23589024 -0.071656585
-0.22968432 -0.21704537 -0.071656704
-0.22968432 -0.19820058 -0.071656704
0.24155557 -0.19834998 -0.0697155
-0.22968432 -0.17935574 -0.071656704
-0.22968432 -0.160511 -0.071656585
0.26041001 -0.16062582 -0.069791555
-0.22968432 -0.14166614 -0.071656704
-0.22968432 -0.12282134 -0.071656704
0.27926332 -0.12290392 -0.069867849
-0.22968599 -0.10397695 -0.071643949
0.27833071 -0.10357902 -0.081983089
-0.22968599 -0.085132025 -0.071643949
-0.22968599 -0.066287093 -0.071643949
-0.22968599 -0.04744225 -0.071643949
-0.22968432 -0.028597191 -0.071656704
0.29808643 -0.028607771 -0.070286751
-0.22968432 -0.009752471 -0.071656585
0.29765639 -0.0097523872 -0.075365543
-0.22968265 0.0090923328 -0.07166934
0.2976917 0.0090670586 -0.074948311
-0.22968265 0.027937053 -0.07166934
0.29812083 0.027964512 -0.069880486
-0.22968265 0.046781771 -0.071669221
-0.22968265 0.065626413 -0.071669221
-0.22968265 0.084471129 -0.071669221
0.27836263 0.10285864 -0.081568122
-0.22968432 0.10331644 -0.071656585
-0.22968432 0.12216132 -0.071656704
0.27937382 0.12233502 -0.06843245
-0.22968432 0.14100596 -0.071656704
-0.22968432 0.15985093 -0.071656704
-0.22968432 0.1786956 -0.071656585
-0.22968432 0.19754054 -0.071656704
0.22213981 0.21561156 -0.080033064
-0.22968432 0.21638526 -0.071656585
-0.22968432 0.23523019 -0.071656704
0.20325547 0.2341665 -0.082284808
-0.22968432 0.2540749 -0.071656585
-0.22968432 0.27291983 -0.071656704
-0.22968599 0.29176617 -0.071643949
-0.22968599 0.3106111 -0.071643949
-0.22968432 0.32945415 -0.071656585
-0.22968432 0.34829909 -0.071656704
-0.22968432 0.36714378 -0.071656585
-0.22968265 0.38598669 -0.07166934
-0.22968265 0.40483138 -0.07166934
-0.22968102 0.42367387 -0.071681976
-0.22968265 0.4425208 -0.07166934
-0.22968599 0.46137035 -0.071643949
-0.22968599 0.48021528 -0.071643949
-0.25028962 -0.48331776 -0.058951616
-0.25028962 -0.46437532 -0.058951616
-0.25028783 -0.44543034 -0.058964372
-0.25028783 -0.42648777 -0.058964372
-0.25028783 -0.40754524 -0.058964491
-0.25028783 -0.38860282 -0.058964491
-0.25028962 -0.36966214 -0.058951735
-0.25028962 -0.35071954 -0.058951616
-0.25028962 -0.33177689 -0.058951616
-0.25028962 -0.31283423 -0.058951616
-0.25028962 -0.29389173 -0.058951616
-0.25028962 -0.27494907 -0.058951616
0.18552586 -0.27532783 -0.05543685
-0.25028962 -0.25600639 -0.058951735
-0.25028962 -0.23706383 -0.058951616
-0.25028962 -0.21812123 -0.058951616
-0.25028962 -0.19917858 -0.058951735
-0.25028962 -0.18023601 -0.058951616
-0.25028962 -0.16129334 -0.058951616
-0.25028962 -0.14235067 -0.058951616
0.31810373 -0.14241776 -0.057708502
-0.25028962 -0.1234082 -0.058951616
0.31764272 -0.12323501 -0.06269908
-0.25029138 -0.10446599 -0.058938861
-0.25029138 -0.085523233 -0.058938861
0.29938307 -0.08564537 -0.054974318
-0.25029138 -0.066580608 -0.058938742
0.29894871 -0.066553652 -0.060103893
-0.25029138 -0.047637895 -0.058938742
0.2985172 -0.047541499 -0.065199494
-0.25028962 -0.028695015 -0.058951616
-0.25028962 -0.0097524291 -0.058951616
-0.25028783 0.0091901161 -0.058964491
-0.25028783 0.028132575 -0.058964372
-0.25028783 0.047075123 -0.058964372
0.29855067 0.046940304 -0.064804435
-0.25028783 0.06601771 -0.058964491
0.2989834 0.06599512 -0.05969429
-0.25028783 0.08496017 -0.058964372
0.29941788 0.085129581 -0.054563046
-0.25028962 0.10390326 -0.058951497
-0.25028962 0.1228459 -0.058951616
-0.25028962 0.1417886 -0.058951616
-0.25028962 0.16073102 -0.058951616
0.26051036 0.16008051 -0.068343401
0.29909077 0.1607675 -0.05842638
-0.25028962 0.17967369 -0.058951616
-0.25028962 0.19861636 -0.058951616
0.24164474 0.19782759 -0.068266988
-0.25028962 0.21755894 -0.058951616
-0.25028962 0.23650162 -0.058951616
-0.25028962 0.25544423 -0.058951616
-0.25028962 0.27438682 -0.058951497
-0.25029138 0.29333106 -0.058938742
-0.25029138 0.31227368 -0.058938742
-0.25028962 0.33121458 -0.058951616
-0.25028962 0.3501572 -0.058951616
-0.25028962 0.36909989 -0.058951616
-0.25028783 0.38804042 -0.058964491
-0.25028783 0.40698299 -0.058964372
-0.25028607 0.42592329 -0.058977127
-0.25028783 0.44486809 -0.058964372
-0.25029138 0.46381545 -0.058938861
-0.25029138 0.48275831 -0.058938742
-0.27110988 -0.48578843 -0.046114206
-0.27110988 -0.46674699 -0.046114087
-0.271108 -0.44770327 -0.046127081
-0.271108 -0.428662 -0.046126962
-0.271108 -0.40962058 -0.046126962
-0.271108 -0.39057922 -0.046127081
-0.27110988 -0.37153977 -0.046114087
-0.27110988 -0.35249832 -0.046114087
-0.27110988 -0.33345696 -0.046114087
-0.27110988 -0.31441554 -0.046114087
-0.27110988 -0.29537407 -0.046113968
-0.27110988 -0.27633265 -0.046113968
-0.27110988 -0.2572912 -0.046113968
0.20460302 -0.25659099 -0.053109527
0.28150427 -0.25782728 -0.040756941
-0.27110988 -0.23824975 -0.046113968
0.22371557 -0.2378177 -0.050790668
-0.27110988 -0.21920827 -0.046113968
0.24286327 -0.21900788 -0.048480392
-0.27110988 -0.20016676 -0.046114206
0.30024737 -0.20027052 -0.044767261
-0.27110988 -0.18112533 -0.046114206
0.26155242 -0.18062738 -0.053302526
-0.27110988 -0.16208389 -0.046114087
0.31894544 -0.16193104 -0.048596501
-0.27110988 -0.14304249 -0.046114087
0.2805326 -0.14265098 -0.053379774
0.33837047 -0.14312553 -0.04457283
-0.27110988 -0.12400106 -0.046114087
0.33809841 -0.1239467 -0.047291279
-0.27111176 -0.10496011 -0.046101093
0.29981923 -0.10481682 -0.049823284
0.33804664 -0.1048944 -0.047808528
-0.27111176 -0.085918605 -0.046101093
0.33799106 -0.085848868 -0.048364162
-0.27111176 -0.06687706 -0.046101093
0.33782953 -0.066787548 -0.049978018
-0.27111176 -0.047835477 -0.046101093
0.33768627 -0.047753729 -0.051409602
-0.27110988 -0.028793847 -0.046114087
0.31945971 -0.0097524291 -0.043029666
-0.27110988 -0.0097523872 -0.046113968
-0.271108 0.009288948 -0.046126962
0.31949806 0.0093160272 -0.042614341
-0.271108 0.028330283 -0.046126962
-0.27110609 0.047371238 -0.046139956
-0.271108 0.066412911 -0.046126962
-0.271108 0.085454248 -0.046126962
-0.27110988 0.10449621 -0.046114087
0.29985532 0.10434461 -0.04939723
-0.27110988 0.12353771 -0.046113968
-0.27110988 0.14257908 -0.046113968
0.28064358 0.14222045 -0.051937819
0.31968889 0.14292185 -0.040548801
-0.27110988 0.16162045 -0.046114087
-0.27110988 0.18066196 -0.046113968
0.26165321 0.1802205 -0.051847577
-0.27110988 0.19970334 -0.046113968
-0.27110988 0.21874484 -0.046113849
0.24303693 0.21878666 -0.045660973
-0.27110988 0.23778622 -0.046113968
0.22386721 0.23759997 -0.047976494
-0.27110988 0.25682771 -0.046113849
0.20473336 0.256378 -0.050287724
-0.27110988 0.27586913 -0.046113968
0.18563575 0.27512231 -0.052581787
-0.27111176 0.29491219 -0.046101093
-0.27111176 0.3139537 -0.046101093
-0.27110988 0.33299348 -0.046114087
-0.27110988 0.35203499 -0.046114087
-0.27110988 0.37107635 -0.046114087
-0.271108 0.3901158 -0.046126962
-0.271108 0.4091571 -0.046126842
-0.271108 0.42819843 -0.046126842
-0.27110988 0.44724217 -0.046114087
-0.27111176 0.46628606 -0.046101093
-0.27111176 0.4853276 -0.046100974
-0.2921485 -0.46914366 -0.033141851
-0.2921465 -0.45000005 -0.033154845
-0.2921465 -0.43085891 -0.033154845
-0.2921465 -0.41171759 -0.033154964
-0.2921465 -0.3925764 -0.033154845
-0.2921485 -0.37343714 -0.033141851
-0.2921485 -0.35429582 -0.033141851
-0.2921485 -0.33515456 -0.033141851
-0.2921485 -0.31601325 -0.033141851
-0.2921485 -0.2968719 -0.033141851
-0.2921485 -0.2777307 -0.033141851
-0.2921485 -0.2585893 -0.033141851
-0.2921485 -0.23944804 -0.033141851
0.30148461 -0.2397238 -0.030156136
-0.2921485 -0.22030674 -0.033141851
0.30091992 -0.21999486 -0.036824822
-0.2921485 -0.20116545 -0.033141851
0.26270941 -0.200899 -0.036602974
-0.2921485 -0.18202406 -0.033141851
0.32014257 -0.18185124 -0.035637498
-0.2921485 -0.16288288 -0.033141851
0.28181803 -0.16266486 -0.036681294
0.33926073 -0.16272677 -0.035676599
-0.2921485 -0.14374153 -0.033141851
0.35889837 -0.14386283 -0.030890107
-0.2921485 -0.12460019 -0.033141851
0.30092546 -0.12443313 -0.036759496
0.35872623 -0.12463041 -0.03248775
-0.29215053 -0.10545944 -0.033128738
0.35888427 -0.10554051 -0.031021118
-0.29215053 -0.086318046 -0.033128738
0.35895911 -0.086404331 -0.030326486
-0.29215053 -0.06717667 -0.033128738
0.32090837 -0.067310221 -0.027347207
0.3587403 -0.067194507 -0.032356739
-0.2921485 -0.048035033 -0.033141851
0.32042387 -0.048043467 -0.032592416
0.35870081 -0.048041455 -0.032723188
-0.2921485 -0.028893687 -0.033141851
0.31994137 -0.028857706 -0.037815571
0.35915706 -0.0289295 -0.028489947
-0.2921465 -0.0097523872 -0.033154845
-0.2921465 0.0093887448 -0.033154845
-0.2921465 0.028529963 -0.033154845
0.31997868 0.028464509 -0.037411451
-0.29214448 0.047670841 -0.033167958
0.32046014 0.04769326 -0.03219986
-0.29214448 0.066811979 -0.033167958
0.32094482 0.06700334 -0.026952863
-0.2921465 0.085953526 -0.033154845
0.33961001 0.085990854 -0.032186627
-0.2921485 0.10509537 -0.033141732
0.33990768 0.10527692 -0.02921176
-0.2921485 0.12423671 -0.033141851
0.3010481 0.12411983 -0.035311103
-0.2921485 0.14337805 -0.033141851
-0.2921485 0.16251923 -0.033141851
0.28193054 0.16237535 -0.035219789
-0.2921485 0.18166049 -0.033141851
0.30072024 0.1811955 -0.039183021
-0.2921485 0.20080195 -0.033141851
0.26281068 0.20063268 -0.035141349
-0.2921485 0.21994317 -0.033141851
0.28212473 0.21998435 -0.032696962
-0.2921485 0.23908447 -0.033141851
-0.2921485 0.25822589 -0.033141851
0.26307705 0.25842473 -0.031296134
-0.2921485 0.27736709 -0.033141851
-0.29215053 0.29651001 -0.033128858
-0.2921485 0.31564963 -0.033141971
-0.2921485 0.33479106 -0.033141732
-0.2921485 0.35393235 -0.033141851
-0.2921465 0.37307152 -0.033154845
-0.2921465 0.39221281 -0.033154845
-0.2921465 0.41135404 -0.033154845
-0.2921465 0.43049511 -0.033154845
-0.2921485 0.44963878 -0.033141851
-0.29215053 0.46878251 -0.033128738
-0.313409 -0.47156554 -0.020032883
-0.31340685 -0.45232099 -0.020046115
-0.31340685 -0.43307889 -0.020046115
-0.31340685 -0.41383684 -0.020045996
-0.31340685 -0.39459473 -0.020045996
-0.313409 -0.3753545 -0.020032883
-0.313409 -0.3561123 -0.020032763
-0.313409 -0.33687004 -0.020032763
-0.313409 -0.31762785 -0.020032763
-0.313409 -0.29838565 -0.020032883
0.18678641 -0.29807916 -0.02268672
-0.313409 -0.27914348 -0.020032763
0.20611796 -0.2791135 -0.020310283
0.28285068 -0.27879494 -0.023267031
-0.313409 -0.25990123 -0.020032763
0.22548634 -0.26011166 -0.017929435
0.30245832 -0.26003885 -0.018657446
-0.313409 -0.24065903 -0.020032763
0.24489164 -0.24107367 -0.015543938
-0.313409 -0.22141676 -0.020032763
0.26433399 -0.22199924 -0.013153911
0.32161582 -0.22144589 -0.019689083
-0.313409 -0.2021745 -0.020032763
0.32104078 -0.20172177 -0.025914073
-0.313409 -0.18293239 -0.020032763
