ply
format ascii 1.0
comment PCL generated
element vertex 1339
property float x
property float y
property float z
element camera 0
property float view_px
property float view_py
property float view_pz
property float x_axisx
property float x_axisy
property float x_axisz
property float y_axisx
property float y_axisy
property float y_axisz
property float z_axisx
property float z_axisy
property float z_axisz
property float focal
property float scalex
property float scaley
property float centerx
property float centery
property int viewportx
property int viewporty
property float k1
property float k2
end_header
0.13798231 0.37201288 -0.043665528
0.65171337 0.37356341 -0.034510255
-0.3150396 0.39273325 -0.037714243
-0.29446754 0.39132124 -0.045689702
0.13798231 0.3916795 -0.043665528
0.65171337 0.39330071 -0.034510136
-0.3150396 0.41244587 -0.037714362
-0.29446754 0.4109723 -0.045689702
0.13798231 0.41134629 -0.043665528
0.65171337 0.41303772 -0.034510016
-0.3150396 0.43215823 -0.037714243
-0.29446754 0.43062353 -0.045689821
0.13798231 0.43101311 -0.043665409
0.65171337 0.43277502 -0.034510016
-0.3150396 0.45187098 -0.037714243
-0.29446754 0.45027459 -0.045689821
0.13798231 0.45067984 -0.043665528
0.65171337 0.45251215 -0.034510136
-0.3150396 0.47158343 -0.037714243
-0.29446754 0.46992582 -0.045689702
0.13798231 0.47034657 -0.043665409
0.65171337 0.47224945 -0.034510136
-0.3150396 0.49129593 -0.037714243
-0.29446754 0.48957688 -0.045689702
0.13798231 0.49001324 -0.043665409
0.65171337 0.49198663 -0.034510255
-0.3150396 0.5110085 -0.037714362
-0.29446754 0.50922799 -0.045689702
0.13798231 0.50967997 -0.043665409
0.65171337 0.51172382 -0.034510016
-0.3150396 0.53072113 -0.037714243
-0.29446754 0.52887917 -0.045689821
0.13798231 0.52934664 -0.043665409
0.65171337 0.53146094 -0.034510016
-0.29446754 0.54853046 -0.045689821
0.13798231 0.54901344 -0.043665528
-0.3150396 0.5504337 -0.037714243
0.65171337 0.55119824 -0.034510016
-0.3150396 0.57014614 -0.037714243
-0.29446754 0.56818151 -0.045689821
0.13798231 0.56868011 -0.043665528
0.65171337 0.57093537 -0.034510255
-0.3150396 0.58985865 -0.037714243
-0.29446754 0.58783257 -0.045689702
0.13798231 0.58834678 -0.043665528
0.64953065 0.58855402 -0.042849898
-0.3150396 0.6095711 -0.037714243
-0.29446754 0.60748369 -0.045689702
0.13798231 0.60801351 -0.043665528
0.65005159 0.60874814 -0.040859342
-0.3150396 0.62928379 -0.037714243
-0.29446754 0.62713498 -0.045689821
0.13798231 0.62768024 -0.043665528
-0.3150396 0.64899629 -0.037714243
-0.29446754 0.64678603 -0.045689821
0.13798231 0.64734709 -0.043665409
-0.3150396 0.66870874 -0.037714243
-0.29446754 0.66643721 -0.045689821
0.13798231 0.66701382 -0.043665409
-0.29446754 0.68608844 -0.045689702
0.13798231 0.68668044 -0.043665409
-0.3150396 0.68842137 -0.037714362
-0.3150396 0.70813394 -0.037714243
-0.29446754 0.70573944 -0.045689702
0.13798231 0.70634723 -0.043665409
-0.315115 0.72804755 -0.037061214
-0.29449084 0.72545725 -0.045473456
0.13800271 0.726116 -0.043334126
-0.29537258 0.74769241 -0.037291765
-0.27490935 0.74533504 -0.044760823
0.11835746 0.74592608 -0.042888045
-0.33628413 -0.75394529 -0.025275946
0.15845509 -0.7521252 -0.032031178
0.17911719 -0.75529552 -0.020264149
-0.33628413 -0.73413694 -0.025275946
0.17911719 -0.73544872 -0.020264149
0.15845509 -0.73236889 -0.032031178
-0.33628413 -0.71432865 -0.025276065
0.15845509 -0.71261275 -0.032031059
0.17911719 -0.7156018 -0.020264149
-0.33628413 -0.69452029 -0.025275946
0.15845509 -0.69285643 -0.032031059
0.17911719 -0.69575495 -0.020264268
-0.33628413 -0.67471212 -0.025275946
0.15845509 -0.67310011 -0.032031059
0.17911719 -0.67590815 -0.020264149
0.17911719 -0.65606117 -0.020264149
-0.33628413 -0.65490377 -0.025275946
0.15845509 -0.6533438 -0.032031059
-0.33628413 -0.63509554 -0.025275946
0.15845509 -0.63358754 -0.032031059
0.17911719 -0.63621438 -0.020264149
-0.33628413 -0.61528724 -0.025275946
0.15845509 -0.61383122 -0.032031059
0.17911719 -0.61636746 -0.020264149
-0.33628413 -0.59547901 -0.025275946
0.17911719 -0.5965206 -0.020264149
0.15845509 -0.59407496 -0.032031059
-0.33628413 -0.5756706 -0.025275946
0.15845509 -0.57431865 -0.032031178
0.17911719 -0.57667381 -0.020264149
-0.33628413 -0.55586237 -0.025275946
0.15845509 -0.55456239 -0.032031178
0.17911719 -0.55682689 -0.020264149
-0.33628413 -0.53605402 -0.025275946
0.15845509 -0.53480613 -0.032031178
0.17911719 -0.53698003 -0.020264149
-0.33628413 -0.51624584 -0.025275946
0.15845509 -0.51504976 -0.032031059
0.17911719 -0.51713318 -0.020264149
0.6153394 -0.51683927 -0.021924019
0.63248193 -0.51496333 -0.032519579
0.71227628 -0.51545084 -0.029766202
-0.33628413 -0.49643746 -0.025275946
0.15845509 -0.49529347 -0.032031059
0.17911719 -0.49728623 -0.020264149
0.61531073 -0.49698547 -0.022040606
0.63271052 -0.49536318 -0.031619549
0.71227628 -0.49567705 -0.029766083
-0.33628413 -0.4766292 -0.025275946
0.15845509 -0.47553715 -0.032031059
0.17911719 -0.47743943 -0.020264149
0.63604712 -0.47772688 -0.018485308
0.71227628 -0.47590333 -0.029766202
0.17911719 -0.45759249 -0.020264149
0.63604712 -0.4578664 -0.018485308
-0.33628413 -0.45682085 -0.025276065
0.15845509 -0.45578089 -0.032031059
0.71227628 -0.45612958 -0.029766202
-0.33628413 -0.43701258 -0.025275946
0.15845509 -0.43602464 -0.032031178
0.17911719 -0.43774569 -0.020264149
0.63604712 -0.43800583 -0.018485188
0.71227628 -0.43635592 -0.029766083
-0.33628413 -0.41720435 -0.025275946
0.15845598 -0.41627017 -0.032018185
0.17911719 -0.41789877 -0.020264149
0.63604712 -0.41814533 -0.018485188
0.71227628 -0.41658208 -0.029766083
-0.33628413 -0.397396 -0.025275946
0.17911719 -0.39805189 -0.020264149
0.63604712 -0.3982847 -0.018485069
0.71227628 -0.39680839 -0.029766083
0.15845598 -0.39651364 -0.032018304
-0.33628413 -0.3775878 -0.025275946
0.15845598 -0.37675729 -0.032018304
0.17911719 -0.37820509 -0.020264149
0.63604712 -0.37842408 -0.018485308
0.71227628 -0.37703475 -0.029766083
-0.33628413 -0.35777947 -0.025275946
0.15845598 -0.35700089 -0.032018185
0.17911719 -0.35835811 -0.020264149
0.63604712 -0.35856354 -0.018485308
0.71227628 -0.357261 -0.029766083
-0.33628413 -0.33797127 -0.025275946
0.15845598 -0.33724454 -0.032018185
0.17911719 -0.33851132 -0.02026403
0.63604712 -0.33870304 -0.018485308
0.71227628 -0.33748728 -0.029766083
-0.33628413 -0.31816283 -0.025276065
0.15845598 -0.31748819 -0.032018185
0.17911719 -0.31866443 -0.020264149
0.63604712 -0.31884247 -0.018485188
0.71227628 -0.31771353 -0.029766083
-0.33628413 -0.29835463 -0.025275946
0.15845598 -0.29773173 -0.032018185
0.17911719 -0.29881757 -0.020264268
0.63604712 -0.2989819 -0.018485188
0.71227628 -0.29793984 -0.029766083
-0.33628413 -0.2785463 -0.025275946
0.15845598 -0.27797538 -0.032018185
0.17911719 -0.27897078 -0.020264149
0.63604712 -0.27912134 -0.018485188
0.71227628 -0.27816603 -0.029766083
0.17911719 -0.2591238 -0.020264149
0.63604712 -0.25926074 -0.018485308
-0.33628413 -0.25873801 -0.025275946
0.15845598 -0.25821903 -0.032018185
0.71227628 -0.25839236 -0.029766083
-0.33628413 -0.23892972 -0.025275946
0.15845598 -0.23846261 -0.032018065
0.17911719 -0.23927699 -0.02026403
0.63604712 -0.23940019 -0.018485308
0.71227628 -0.23861869 -0.029766083
-0.33628413 -0.21912147 -0.025275946
0.15845598 -0.21870619 -0.032018185
0.17911719 -0.2194301 -0.020264149
0.63604712 -0.21953958 -0.018485188
0.71227628 -0.21884488 -0.029766202
-0.33628413 -0.19931309 -0.025276065
0.15845598 -0.19894983 -0.032018185
0.17911719 -0.19958322 -0.020264149
0.63604712 -0.19967906 -0.018485188
0.71227628 -0.19907118 -0.029766083
-0.33628413 -0.17950483 -0.025275946
0.15845598 -0.17919344 -0.032018185
0.17911719 -0.17973641 -0.020264149
0.63604712 -0.17981853 -0.018485188
0.71227628 -0.17929745 -0.029766083
-0.33628413 -0.15969659 -0.025275946
0.15845598 -0.15943708 -0.032018185
0.17911719 -0.15988941 -0.020264149
0.63604712 -0.15995799 -0.018485188
0.71227628 -0.1595238 -0.029766083
-0.33628413 -0.13988824 -0.025275946
0.15845598 -0.13968076 -0.032018065
0.17911719 -0.14004266 -0.020264149
0.63604712 -0.14009735 -0.018485308
0.71227628 -0.13975006 -0.029766202
-0.33628413 -0.12008005 -0.025275946
0.15845598 -0.11992422 -0.032018185
0.17911719 -0.12019576 -0.020264149
0.63604712 -0.12023675 -0.018485188
0.71227628 -0.11997632 -0.029766083
-0.33628413 -0.10027169 -0.025275946
0.15845598 -0.10016792 -0.032018185
0.17911719 -0.10034886 -0.020264149
0.63604712 -0.1003762 -0.018485188
0.71227628 -0.10020263 -0.029766083
-0.33628413 -0.080463514 -0.025275946
0.15845598 -0.080411509 -0.032018065
0.17911719 -0.080502048 -0.020264149
0.63604712 -0.080515698 -0.018485188
0.71227628 -0.080428801 -0.029766083
0.15845598 -0.060655151 -0.032018065
0.63604712 -0.060655151 -0.018485188
0.71227628 -0.060655106 -0.029766083
-0.33628413 -0.060655061 -0.025275946
0.17911719 -0.060655061 -0.020264149
-0.33628413 -0.040846881 -0.025275946
0.15845598 -0.040898703 -0.032018304
0.17911719 -0.040808164 -0.020264149
0.63604712 -0.040794604 -0.018485188
0.71227628 -0.040881414 -0.029766083
-0.33628413 -0.021038521 -0.025275946
0.15845598 -0.0211423 -0.032018185
0.17911719 -0.0209614 -0.020264149
0.63604712 -0.020933919 -0.018485308
0.71227628 -0.021107633 -0.029766202
-0.33628413 -0.0012302473 -0.025275946
0.15845598 -0.0013859868 -0.032018185
0.17911719 -0.0011145473 -0.020264149
0.63604712 -0.0010733716 -0.018485308
0.71227628 -0.0013339855 -0.029766083
-0.33628413 0.018578019 -0.025275946
0.15845598 0.018370371 -0.032018065
0.17911719 0.018732261 -0.020264149
0.63604712 0.018787134 -0.018485308
0.71227628 0.018439796 -0.029766083
-0.33628413 0.038386296 -0.025275946
0.15845598 0.03812677 -0.032018065
0.17911719 0.038579252 -0.020264149
0.63604712 0.038647678 -0.018485188
0.71227628 0.03821354 -0.029766202
-0.33628413 0.058194656 -0.025276065
0.15845598 0.057883266 -0.032018185
0.17911719 0.058426153 -0.020264149
0.63604712 0.058508273 -0.018485188
0.71227628 0.057987276 -0.029766083
-0.33628413 0.078002974 -0.025275946
0.15845598 0.07763958 -0.032018185
0.17911719 0.078272969 -0.020264149
0.63604712 0.078368828 -0.018485188
0.71227628 0.07776092 -0.029766083
-0.33628413 0.097811162 -0.025275946
0.15845598 0.097396031 -0.032018185
0.17911719 0.098119825 -0.020264149
0.63604712 0.098229468 -0.018485308
0.71227628 0.097534567 -0.029766083
-0.33628413 0.1176195 -0.025275946
0.15845598 0.11715235 -0.032018065
0.17911719 0.11796673 -0.02026403
0.63604712 0.11808997 -0.018485308
0.71227628 0.11730845 -0.029766083
-0.33628413 0.1374277 -0.025275946
0.15845598 0.13690878 -0.032018185
0.71227628 0.1370821 -0.029766083
0.17911719 0.13781361 -0.020264149
0.63604712 0.13795051 -0.018485308
-0.33628413 0.15723597 -0.025275946
0.15845598 0.1566651 -0.032018185
0.17911719 0.15766051 -0.020264149
0.63604712 0.15781111 -0.018485188
0.71227628 0.15685579 -0.029766083
-0.33628413 0.17704429 -0.025275946
0.15845598 0.1764216 -0.032018065
0.17911719 0.17750733 -0.020264149
0.63604712 0.17767166 -0.018485188
0.71227628 0.17662966 -0.029766083
-0.33628413 0.19685268 -0.025275946
0.15845598 0.19617796 -0.032018065
0.17911719 0.19735423 -0.020264149
0.63604712 0.19753218 -0.018485188
0.71227628 0.19640329 -0.029766083
-0.33628413 0.21666098 -0.025275946
0.15845598 0.21593431 -0.032018065
0.17911719 0.21720099 -0.020264149
0.63604712 0.21739271 -0.018485188
0.71227628 0.21617699 -0.029766083
-0.33628413 0.23646933 -0.025275946
0.15845598 0.23569071 -0.032018185
0.17911719 0.23704788 -0.020264149
0.63604712 0.23725334 -0.018485308
0.71227628 0.23595077 -0.029766202
-0.33628413 0.25627747 -0.025275946
0.15845598 0.25544706 -0.032018185
0.17911719 0.25689477 -0.020264149
0.63604712 0.25711384 -0.018485308
0.71227628 0.25572443 -0.029766202
0.15845598 0.27520338 -0.032018185
-0.33628413 0.27608576 -0.025275946
0.17911719 0.27674171 -0.02026403
0.63604712 0.27697441 -0.018485308
0.71227628 0.27549821 -0.029766083
-0.33628413 0.29589409 -0.025275946
0.15845598 0.29495987 -0.032018065
0.17911719 0.2965886 -0.020264149
0.63604712 0.29683509 -0.018485188
0.71227628 0.2952719 -0.029766083
-0.33628413 0.31570247 -0.025275946
0.15845598 0.31471634 -0.032018185
0.17911719 0.3164354 -0.02026403
0.63604712 0.31669563 -0.018485188
0.71227628 0.31504565 -0.029766202
-0.33628413 0.33551064 -0.025275946
0.15845598 0.33447269 -0.032018185
0.71227628 0.33481935 -0.029766083
0.17911719 0.33628228 -0.020264149
0.63604712 0.33655614 -0.018485069
-0.33628413 0.3553189 -0.025275946
0.15845598 0.35422903 -0.032018185
0.17911719 0.35612923 -0.020264149
0.63604712 0.35641676 -0.018485308
0.71227628 0.35459295 -0.029766083
-0.33628413 0.37512726 -0.025275946
0.15845598 0.37398535 -0.032018185
0.17911719 0.37597594 -0.020264149
0.63604712 0.37627733 -0.018485188
0.71227628 0.37436691 -0.029766083
-0.33628413 0.39493564 -0.025275946
0.15845598 0.39374185 -0.032018065
0.17911719 0.39582285 -0.020264149
0.63604712 0.39613786 -0.018485188
0.71227628 0.39414054 -0.029766083
-0.33628413 0.41474375 -0.025275946
0.15845598 0.41349825 -0.032018185
0.17911719 0.41566965 -0.02026403
0.63604712 0.41599843 -0.018485188
0.71227628 0.4139142 -0.029766083
-0.33628413 0.43455198 -0.025275946
0.15845598 0.43325457 -0.032018185
0.17911719 0.43551654 -0.020264149
0.63604712 0.43585888 -0.018485188
0.71227628 0.43368798 -0.029766202
-0.33628413 0.45436043 -0.025275946
0.15845598 0.45301098 -0.032018185
0.17911719 0.45536345 -0.020264149
0.63604712 0.45571941 -0.018485188
0.71227628 0.45346177 -0.029766083
0.15845598 0.47276729 -0.032018185
0.71227628 0.47323543 -0.029766083
-0.33628413 0.47416878 -0.025275946
0.17911719 0.47521043 -0.02026403
0.63604712 0.47558028 -0.018485188
-0.33628413 0.49397701 -0.025275946
0.15845598 0.49252367 -0.032018185
0.17911719 0.49505734 -0.020264149
0.63604712 0.49544078 -0.018485188
0.71227628 0.49300909 -0.029766083
-0.33628413 0.51378518 -0.025275946
0.15845598 0.51228017 -0.032018185
0.17911719 0.51490414 -0.02026403
0.63604712 0.51530123 -0.018485188
0.71227628 0.51278281 -0.029766083
-0.33628413 0.53359354 -0.025275946
0.15845598 0.5320366 -0.032018185
0.71227628 0.53255653 -0.029766083
0.17911719 0.534751 -0.020264149
0.63604712 0.53516179 -0.018485188
-0.33628413 0.55340183 -0.025275946
0.15845598 0.55179292 -0.032018065
0.17911719 0.55459791 -0.020264149
0.63604712 0.55502236 -0.018485188
0.71227628 0.55233032 -0.029766083
-0.33628413 0.57321024 -0.025275946
0.15845598 0.57154918 -0.032018065
0.17911719 0.57444471 -0.020264149
0.63448954 0.57337266 -0.024616599
0.71227628 0.5721041 -0.029766083
-0.33628413 0.59301841 -0.025276065
0.15845598 0.59130561 -0.032018185
0.17911719 0.59429163 -0.020264149
0.61497253 0.59349167 -0.02341342
0.63228601 0.5909825 -0.033290505
0.71227628 0.59187776 -0.029766083
0.15845598 0.61106199 -0.032018185
-0.33628413 0.6128267 -0.025275946
0.17911719 0.61413831 -0.02026403
0.63327301 0.61174583 -0.029405475
0.71227628 0.61165142 -0.029766083
-0.33628413 0.632635 -0.025275946
0.15845598 0.63081849 -0.032018065
0.17911719 0.63398528 -0.020264149
-0.33628413 0.65244335 -0.025275946
0.15845598 0.6505748 -0.032018065
0.17911719 0.65383214 -0.020264149
0.15845598 0.67033124 -0.032018185
-0.33628413 0.67225152 -0.025275946
0.17911719 0.67367911 -0.02026403
-0.33628413 0.69205976 -0.025275946
0.15845598 0.69008762 -0.032018185
0.17911819 0.69352967 -0.020251036
-0.33628413 0.71186823 -0.025275946
0.15845598 0.70984393 -0.032018185
0.17911819 0.71337658 -0.020251155
-0.33644503 0.73207873 -0.023969889
0.15851924 0.72988153 -0.031104922
0.17923413 0.73368734 -0.018745065
-0.31661323 0.7518602 -0.024086356
0.1386331 0.74901593 -0.033097744
-0.35773608 -0.75732923 -0.012716174
0.19996852 -0.75849169 -0.0084019899
-0.35773608 -0.73742431 -0.012716293
0.19996852 -0.7385534 -0.0084019899
-0.35773608 -0.71751922 -0.012716174
0.19996852 -0.71861523 -0.0084019899
-0.35773608 -0.69761425 -0.012716174
0.19996852 -0.69867706 -0.0084018707
-0.35773608 -0.6777094 -0.012716174
0.19996852 -0.67873889 -0.0084019899
-0.35773608 -0.65780431 -0.012716293
0.19996852 -0.65880072 -0.0084019899
-0.35773608 -0.6378994 -0.012716174
0.19996852 -0.63886249 -0.0084021091
-0.35773608 -0.61799437 -0.012716293
0.19996852 -0.61892432 -0.0084019899
-0.35773608 -0.5980894 -0.012716174
0.19996852 -0.59898615 -0.0084018707
-0.35773608 -0.57818449 -0.012716174
0.19996852 -0.57904786 -0.0084019899
-0.35773608 -0.55827945 -0.012716174
0.19996852 -0.55910981 -0.0084018707
-0.35773608 -0.5383746 -0.012716174
0.19996852 -0.53917158 -0.0084021091
0.19996852 -0.51923347 -0.0084019899
0.59812343 -0.51878166 -0.010953069
-0.35773608 -0.51846951 -0.012716293
-0.35773608 -0.49856457 -0.012716174
0.19996852 -0.49929526 -0.0084018707
0.59780854 -0.49863973 -0.012272477
-0.35773608 -0.47865957 -0.012716293
0.19996852 -0.479357 -0.0084019899
0.61865431 -0.47934645 -0.0084674358
-0.35773608 -0.45875469 -0.012716174
0.19996852 -0.45941883 -0.0084018707
0.61868978 -0.4594309 -0.008323431
-0.35773608 -0.43884957 -0.012716174
0.19996852 -0.4394806 -0.0084019899
-0.35773608 -0.41894469 -0.012716174
0.19996852 -0.41954246 -0.0084019899
-0.35773608 -0.39903969 -0.012716293
0.19996852 -0.39960429 -0.0084018707
-0.35773608 -0.37913468 -0.012716174
0.19996852 -0.37966603 -0.0084019899
-0.35773608 -0.3592298 -0.012716174
0.19996852 -0.35972789 -0.0084018707
-0.35773608 -0.33932468 -0.012716174
0.19996852 -0.33978972 -0.0084018707
-0.35773608 -0.3194198 -0.012716174
0.19996852 -0.31985149 -0.0084018707
-0.35773608 -0.29951483 -0.012716174
0.19996852 -0.29991341 -0.0084019899
-0.35773608 -0.27960986 -0.012716174
0.19996852 -0.27997518 -0.0084021091
-0.35773608 -0.25970486 -0.012716293
0.19996852 -0.260037 -0.0084019899
-0.35773608 -0.23979992 -0.012716174
0.19996852 -0.24009883 -0.0084018707
-0.35773608 -0.21989486 -0.012716174
0.19996852 -0.22016059 -0.0084019899
-0.35773608 -0.19998996 -0.012716174
0.19996852 -0.20022242 -0.0084018707
-0.35773608 -0.18008493 -0.012716174
0.19996852 -0.1802842 -0.0084021091
-0.35773608 -0.16018002 -0.012716174
0.19996852 -0.16034605 -0.0084019899
-0.35773608 -0.14027506 -0.012716174
0.19996852 -0.14040792 -0.0084018707
-0.35773608 -0.12037002 -0.012716174
0.19996852 -0.12046966 -0.0084019899
-0.35773608 -0.1004651 -0.012716174
0.19996852 -0.10053149 -0.0084018707
-0.35773608 -0.080560103 -0.012716174
0.19996852 -0.080593228 -0.0084019899
-0.35773608 -0.060655151 -0.012716174
0.19996852 -0.060655151 -0.0084019899
-0.35773608 -0.040750109 -0.012716293
0.19996852 -0.040716983 -0.0084018707
-0.35773608 -0.020845242 -0.012716174
0.19996852 -0.020778723 -0.0084019899
-0.35773608 -0.00094015151 -0.012716293
0.19996852 -0.00084060058 -0.0084018707
-0.35773608 0.018964712 -0.012716174
0.19996852 0.01909766 -0.0084019899
-0.35773608 0.038869847 -0.012716174
0.19996852 0.039035823 -0.0084018707
-0.35773608 0.058774758 -0.012716174
0.19996852 0.058973905 -0.0084018707
-0.35773608 0.078679621 -0.012716174
0.19996852 0.078912213 -0.0084019899
-0.35773608 0.098584726 -0.012716174
0.19996852 0.098850384 -0.0084018707
-0.35773608 0.11848956 -0.012716174
0.19996852 0.11878851 -0.0084018707
-0.35773608 0.13839471 -0.012716174
0.19996852 0.13872676 -0.0084018707
-0.35773608 0.15829954 -0.012716174
0.19996852 0.15866493 -0.0084018707
-0.35773608 0.17820458 -0.012716174
0.19996852 0.17860319 -0.0084018707
-0.35773608 0.19810954 -0.012716174
0.19996852 0.19854134 -0.0084018707
-0.35773608 0.21801448 -0.012716293
0.19996963 0.21848086 -0.0083887577
-0.35773608 0.23791948 -0.012716174
0.19996963 0.23841912 -0.0083888769
-0.35773608 0.25782445 -0.012716055
0.19996963 0.25835755 -0.0083887577
-0.35773608 0.27772954 -0.012716174
0.19996963 0.27829573 -0.0083887577
-0.35773608 0.29763436 -0.012716174
0.19996963 0.29823411 -0.0083887577
-0.35773608 0.31753942 -0.012716174
0.19996963 0.31817237 -0.0083888769
-0.35773608 0.33744439 -0.012716174
0.19996963 0.33811048 -0.0083887577
-0.35773608 0.35734931 -0.012716174
0.19996963 0.35804889 -0.0083887577
-0.35773608 0.37725431 -0.012716174
0.19996963 0.37798721 -0.0083888769
-0.35773608 0.3971594 -0.012716174
0.19996963 0.39792532 -0.0083887577
-0.35773608 0.41706422 -0.012716174
0.19996963 0.4178637 -0.0083887577
-0.35773608 0.43696925 -0.012716174
0.19996963 0.43780202 -0.0083888769
-0.35773608 0.45687425 -0.012716174
0.19996963 0.45774049 -0.0083888769
-0.35773608 0.4767791 -0.012716174
0.19996963 0.4776786 -0.0083887577
-0.35773608 0.49668419 -0.012716174
0.19996963 0.49761689 -0.0083889961
-0.35773608 0.51658911 -0.012716174
0.19996963 0.5175553 -0.0083888769
-0.35773608 0.53649402 -0.012716174
0.19996963 0.53749341 -0.0083887577
-0.35773608 0.55639905 -0.012716174
0.19996963 0.55743182 -0.0083887577
-0.35773608 0.57630414 -0.012716174
0.19996963 0.57737017 -0.0083888769
0.59891039 0.57755077 -0.0076552629
0.61669904 0.57539546 -0.016404629
-0.35773608 0.59620893 -0.012716174
0.19996963 0.59730828 -0.0083887577
0.59754074 0.59603679 -0.013394713
-0.35773608 0.61611396 -0.012716174
0.19996963 0.61724669 -0.0083887577
0.59979969 0.61841393 -0.0039286613
0.61651635 0.61495459 -0.017146111
-0.35773608 0.63601899 -0.012716174
0.19996963 0.63718498 -0.0083888769
-0.35773608 0.65592408 -0.012716174
0.19996963 0.65712327 -0.0083887577
-0.35773608 0.67582893 -0.012716174
0.19996963 0.6770615 -0.0083887577
-0.35773608 0.69573396 -0.012716055
0.19996963 0.69699973 -0.0083889961
-0.35773608 0.71563894 -0.012716174
0.19996963 0.71693808 -0.0083887577
-0.35806775 0.73632431 -0.010181665
0.20024276 0.73786956 -0.005163312
0.15960085 0.75457239 -0.015493274
-0.37940028 -0.76075 -2.014637e-05
-0.37940028 -0.74074721 -2.0265579e-05
0.22101384 -0.74169022 0.0035830736
-0.37940028 -0.72074455 -2.0027161e-05
0.22101384 -0.72165984 0.0035830736
-0.37940028 -0.70074189 -2.014637e-05
0.22101384 -0.70162934 0.0035829544
-0.37940028 -0.68073916 -2.014637e-05
0.22101384 -0.68159896 0.0035830736
-0.37940028 -0.66073638 -2.014637e-05
0.22101384 -0.66156852 0.0035830736
0.22101384 -0.64153814 0.0035830736
-0.37940028 -0.64073366 -2.014637e-05
-0.37940028 -0.62073106 -2.0027161e-05
0.22101384 -0.62150764 0.0035830736
-0.37940028 -0.60072833 -2.0027161e-05
0.22101384 -0.60147715 0.0035830736
-0.37940028 -0.58072561 -2.014637e-05
0.22101384 -0.58144671 0.0035830736
-0.37940028 -0.56072283 -2.014637e-05
0.22101384 -0.56141633 0.0035830736
-0.37940028 -0.54072016 -2.014637e-05
0.22101384 -0.54138583 0.0035830736
-0.37940028 -0.5207175 -2.0027161e-05
0.22101384 -0.52135539 0.0035830736
0.56333983 -0.5227896 0.011683583
0.58079368 -0.52076644 0.0002566576
-0.37940028 -0.50071478 -2.0027161e-05
0.22101384 -0.50132495 0.0035830736
0.56242681 -0.50200427 0.0075939894
0.58017021 -0.50030446 -0.002442956
-0.37940028 -0.48071203 -2.014637e-05
0.22101384 -0.48129445 0.0035830736
0.58265042 -0.4820565 0.0082968473
0.60071355 -0.4806993 -9.9182129e-05
-0.37940028 -0.4607093 -2.0265579e-05
0.22101384 -0.4612641 0.0035831928
0.60119516 -0.46100777 0.0019187927
-0.37940028 -0.44070664 -2.0027161e-05
0.22101384 -0.44123369 0.0035830736
-0.37940028 -0.42070392 -2.014637e-05
0.22101384 -0.42120317 0.0035831928
-0.37940028 -0.40070122 -2.014637e-05
0.22101384 -0.40117273 0.0035830736
-0.37940028 -0.3806985 -2.014637e-05
0.22101384 -0.38114229 0.0035830736
-0.37940028 -0.36069575 -2.0265579e-05
0.22101384 -0.36111185 0.0035830736
-0.37940028 -0.34069312 -2.0027161e-05
0.22101384 -0.34108135 0.0035830736
-0.37940028 -0.32069039 -2.014637e-05
0.22101384 -0.32105088 0.0035830736
-0.37940028 -0.3006877 -2.014637e-05
0.22101384 -0.30102047 0.0035830736
-0.37940028 -0.28068495 -2.014637e-05
0.22101384 -0.28098994 0.0035830736
-0.37940028 -0.2606822 -2.0265579e-05
0.22101384 -0.26095957 0.0035830736
-0.37940028 -0.24067958 -2.0027161e-05
0.22101384 -0.2409291 0.0035830736
-0.37940028 -0.22067674 -2.0027161e-05
0.22101384 -0.2208987 0.0035830736
-0.37940028 -0.20067403 -2.014637e-05
0.22101384 -0.20086823 0.0035830736
-0.37940028 -0.1806713 -2.014637e-05
0.22101384 -0.18083782 0.0035830736
-0.37940028 -0.16066872 -2.0027161e-05
0.22101384 -0.1608073 0.0035830736
-0.37940028 -0.14066593 -2.0027161e-05
0.22101384 -0.1407769 0.0035830736
-0.37940028 -0.12066321 -2.0027161e-05
0.22101384 -0.12074646 0.0035830736
-0.37940028 -0.10066047 -2.014637e-05
0.22101384 -0.10071602 0.0035830736
-0.37940028 -0.080657795 -2.014637e-05
0.22101384 -0.080685496 0.0035830736
-0.37940028 -0.060655106 -2.0027161e-05
0.22101384 -0.060655106 0.0035830736
-0.37940028 -0.040652376 -2.0027161e-05
0.22101384 -0.040624671 0.0035830736
-0.37940028 -0.02064969 -2.0027161e-05
0.22101384 -0.020594183 0.0035830736
-0.37940028 -0.00064691529 -2.014637e-05
0.22101384 -0.00056378916 0.0035830736
-0.37940028 0.019355725 -1.9907951e-05
0.22101384 0.019466605 0.0035830736
-0.37940028 0.039358411 -2.0027161e-05
0.22101384 0.039497133 0.0035830736
-0.37940028 0.059361141 -2.0027161e-05
0.22101384 0.059527528 0.0035830736
-0.37940028 0.079363912 -2.0027161e-05
0.22101384 0.079558015 0.0035830736
-0.37940028 0.099366605 -2.014637e-05
0.22101384 0.099588484 0.0035830736
-0.37940028 0.11936924 -2.0027161e-05
0.22101384 0.11961894 0.0035830736
-0.37940028 0.13937198 -2.0027161e-05
0.22101384 0.13964933 0.0035830736
-0.37940028 0.15937465 -2.014637e-05
0.22101384 0.15967977 0.0035830736
-0.37940028 0.17937744 -2.014637e-05
0.22101384 0.17971021 0.0035830736
-0.37940028 0.19938007 -2.0265579e-05
0.22101384 0.19974083 0.0035830736
-0.37940028 0.21938276 -2.0027161e-05
0.22101384 0.21977112 0.0035831928
-0.37940028 0.23938543 -2.0027161e-05
0.22101384 0.23980156 0.0035831928
-0.37940028 0.25938827 -2.0027161e-05
0.22101384 0.25983196 0.0035831928
-0.37940028 0.2793909 -2.014637e-05
0.22101384 0.27986243 0.0035830736
-0.37940028 0.29939359 -2.0027161e-05
0.22101384 0.29989287 0.0035830736
-0.37940028 0.31939626 -2.0027161e-05
0.22101384 0.31992328 0.0035830736
-0.37940028 0.33939904 -2.0027161e-05
0.22101384 0.3399539 0.0035830736
-0.37940028 0.35940173 -2.014637e-05
0.22101384 0.35998428 0.0035830736
-0.37940028 0.37940454 -2.014637e-05
0.22101384 0.38001478 0.0035830736
-0.37940028 0.39940706 -2.0027161e-05
0.22101384 0.40004522 0.0035830736
-0.37940028 0.41940993 -2.0027161e-05
0.22101384 0.42007557 0.0035830736
-0.37940028 0.43941253 -2.014637e-05
0.22101384 0.44010597 0.0035831928
-0.37940028 0.45941532 -2.0027161e-05
0.22101384 0.46013653 0.0035831928
-0.37940028 0.47941804 -2.0265579e-05
0.22101384 0.48016697 0.0035831928
-0.37940028 0.4994207 -2.0027161e-05
0.22101384 0.50019741 0.0035830736
-0.37940028 0.51942331 -2.014637e-05
0.22101384 0.52022779 0.0035830736
-0.37940028 0.53942621 -2.0027161e-05
0.22101384 0.54025829 0.0035830736
-0.37940028 0.55942881 -2.0265579e-05
0.22101384 0.56028879 0.0035830736
-0.37940028 0.57943147 -2.0027161e-05
0.22101384 0.58031911 0.0035830736
0.58100688 0.57972717 0.0011798143
0.5630638 0.58201003 0.010447383
-0.37940028 0.59943438 -2.0027161e-05
0.22101384 0.60034972 0.0035830736
0.56245047 0.60139549 0.0077000856
0.58006388 0.59870183 -0.0029033422
-0.37940028 0.61943698 -2.0027161e-05
0.22101384 0.6203801 0.0035830736
0.58328831 0.6223368 0.011058807
-0.37940028 0.63943976 -2.0027161e-05
0.22101384 0.6404106 0.0035830736
-0.37940028 0.65944248 -2.014637e-05
0.22101384 0.66044098 0.0035831928
-0.37940028 0.67944515 -2.0027161e-05
0.22101384 0.6804713 0.0035830736
-0.37940028 0.69944775 -2.0027161e-05
0.22101384 0.7005018 0.0035830736
-0.37940028 0.71945059 -2.0027161e-05
0.22101384 0.72053236 0.0035831928
-0.38008094 0.74096596 0.00489223
0.2215118 0.74222261 0.0089734793
-0.33932832 0.75928551 -0.00056028366
-0.42336911 -0.74748504 0.02572298
-0.40127632 -0.74409962 0.012788177
0.24225351 -0.74485284 0.015666246
-0.42336911 -0.72728419 0.0257231
-0.40127632 -0.72399819 0.012787938
0.24225351 -0.72472936 0.015666127
-0.42336911 -0.70708323 0.02572298
-0.40127632 -0.70389688 0.012787938
0.24225351 -0.70460588 0.015666366
-0.42336911 -0.68688244 0.025722861
-0.40127632 -0.68379569 0.012788057
0.24225351 -0.68448251 0.015666246
-0.42336911 -0.66668159 0.0257231
-0.40127632 -0.66369432 0.012788057
0.24225351 -0.66435897 0.015666127
-0.42336911 -0.64648068 0.02572298
-0.40127632 -0.64359295 0.012787819
0.24225351 -0.64423561 0.015666246
-0.42336911 -0.62627971 0.025722861
-0.40127632 -0.6234917 0.012788057
0.24225351 -0.62411201 0.015666127
-0.42336911 -0.6060788 0.02572298
-0.40127632 -0.6033904 0.012787938
0.24225351 -0.60398865 0.015666366
-0.42336911 -0.58587801 0.02572298
-0.40127632 -0.58328909 0.012788057
0.24225351 -0.58386517 0.015666246
-0.42336911 -0.56567717 0.0257231
-0.40127632 -0.56318778 0.012788057
0.24225351 -0.56374168 0.015666127
-0.42336911 -0.54547626 0.02572298
-0.40127632 -0.54308647 0.012787938
0.24225351 -0.54361826 0.015666246
-0.42336911 -0.52527535 0.02572298
-0.40127632 -0.52298516 0.012787938
0.24225351 -0.52349478 0.015666127
0.54581857 -0.52490205 0.023614168
-0.42336911 -0.50507456 0.02572298
0.54457736 -0.50374216 0.017855763
-0.40127632 -0.50288385 0.012787938
0.24225351 -0.50337136 0.015666366
-0.42336911 -0.48487365 0.0257231
-0.40127632 -0.4827826 0.012788057
0.24225351 -0.48324782 0.015666246
0.5463658 -0.48494312 0.026153088
0.5645566 -0.48348513 0.017134428
-0.42336911 -0.46467274 0.025722861
-0.40127632 -0.46268129 0.012788057
0.24225351 -0.46312433 0.015666246
0.56579053 -0.46420145 0.022661686
0.5835647 -0.46259925 0.012255669
-0.42336911 -0.44447181 0.02572298
-0.40127632 -0.4425799 0.012787819
0.24225351 -0.44300094 0.015666246
-0.42336911 -0.42427093 0.02572298
-0.40127632 -0.42247862 0.012788057
0.24225351 -0.42287746 0.015666127
-0.42336911 -0.40407011 0.0257231
-0.40127632 -0.40237734 0.012787938
0.24225351 -0.40275398 0.015666127
-0.42336911 -0.38386914 0.02572298
-0.40127632 -0.38227603 0.012788057
0.24225351 -0.38263053 0.015666246
-0.42336911 -0.36366835 0.02572298
-0.40127632 -0.36217469 0.012788057
0.24225351 -0.36250702 0.015666246
-0.42336911 -0.34346741 0.0257231
-0.40127632 -0.34207341 0.012787938
0.24225351 -0.34238359 0.015666366
-0.42336911 -0.32326663 0.02572298
-0.40127632 -0.32197213 0.012787938
0.24225351 -0.32226011 0.015666246
-0.42336911 -0.30306563 0.02572298
-0.40127632 -0.30187079 0.012787938
0.24225351 -0.30213669 0.015666127
-0.42336911 -0.28286481 0.02572298
-0.40127632 -0.28176951 0.012788177
0.24225351 -0.28201327 0.015666246
-0.42336911 -0.26266396 0.02572298
-0.40127632 -0.26166824 0.012788057
0.24225351 -0.26188973 0.015666246
-0.42336911 -0.24246314 0.0257231
-0.40127632 -0.24156682 0.012787819
0.24225351 -0.2417663 0.015666366
-0.42336911 -0.22226211 0.02572298
-0.40127632 -0.2214656 0.012788057
0.24225351 -0.22164281 0.015666246
-0.42336911 -0.20206122 0.02572298
-0.40127632 -0.20136428 0.012787938
0.24225351 -0.2015193 0.015666246
-0.42336911 -0.18186045 0.0257231
-0.40127632 -0.18126301 0.012788057
0.24225351 -0.18139595 0.015666246
-0.42336911 -0.16165952 0.0257231
-0.40127632 -0.16116165 0.012788057
0.24225351 -0.16127247 0.015666246
-0.42336911 -0.14145865 0.02572298
-0.40127632 -0.14106026 0.012787938
0.24225351 -0.14114898 0.015666366
-0.42336911 -0.12125773 0.02572298
-0.40127632 -0.12095908 0.012788057
0.24225351 -0.1210255 0.015666246
-0.42336911 -0.1010569 0.02572298
-0.40127632 -0.10085771 0.012787938
0.24225351 -0.10090198 0.015666246
-0.42336911 -0.080856025 0.0257231
-0.40127632 -0.080756478 0.012788177
0.24225351 -0.080778591 0.015666246
-0.42336911 -0.060655151 0.02572298
-0.40127632 -0.060655151 0.012788057
0.24225351 -0.060655151 0.015666127
-0.42336911 -0.040454231 0.02572298
-0.40127632 -0.040553782 0.012787819
0.24225351 -0.040531624 0.015666127
-0.42336911 -0.020253401 0.02572298
-0.40127632 -0.020452548 0.012788057
0.24225351 -0.020408187 0.015666246
-0.42336911 -5.2526593e-05 0.0257231
-0.40127632 -0.00035113096 0.012788057
0.24225351 -0.00028470531 0.015666127
-0.42336911 0.020148482 0.02572298
-0.40127632 0.01975001 0.012788057
0.24225351 0.019838732 0.015666366
-0.42336911 0.040349264 0.02572298
-0.40127632 0.039851379 0.012788057
0.24225351 0.039962213 0.015666246
-0.42336911 0.060550142 0.02572298
-0.40127632 0.059952799 0.012788057
0.24225351 0.060085651 0.015666127
-0.42336911 0.080750972 0.0257231
-0.40127632 0.08005394 0.012788057
0.24225351 0.080209047 0.015666246
-0.42336911 0.10095198 0.02572298
-0.40127632 0.10015535 0.012787938
0.24225351 0.10033262 0.015666246
-0.42336911 0.12115277 0.02572298
-0.40127632 0.12025659 0.012787819
0.24225351 0.12045601 0.015666366
-0.42336911 0.1413537 0.02572298
-0.40127632 0.14035796 0.012788057
0.24225351 0.14057954 0.015666246
-0.42336911 0.16155456 0.0257231
-0.40127632 0.16045924 0.012787938
0.24225351 0.16070302 0.015666246
-0.42336911 0.18175544 0.025722861
-0.40127632 0.18056062 0.012788177
0.24225351 0.18082641 0.015666246
-0.42336911 0.2019563 0.02572298
-0.40127632 0.2006619 0.012788057
0.24225351 0.20095 0.015666246
-0.42336911 0.22215718 0.02572298
-0.40127632 0.22076318 0.012787819
0.24225351 0.22107339 0.015666366
-0.42336911 0.24235806 0.0257231
-0.40127632 0.24086455 0.012788057
0.24225351 0.2411969 0.015666246
-0.42336911 0.26255903 0.02572298
-0.40127632 0.26096576 0.012788057
0.24225351 0.26132026 0.015666127
-0.42336911 0.28275976 0.02572298
-0.40127632 0.28106701 0.012788057
0.24225351 0.28144366 0.015666246
-0.42336911 0.30296069 0.02572298
-0.40127632 0.30116841 0.012788057
0.24225351 0.30156717 0.015666246
-0.42336911 0.32316157 0.0257231
-0.40127632 0.32126975 0.012787938
0.24225351 0.32169065 0.015666127
-0.42336911 0.34336257 0.02572298
-0.40127632 0.34137097 0.012788057
0.24225351 0.34181404 0.015666246
-0.42336911 0.3635633 0.02572298
-0.40127632 0.36147234 0.012788057
0.24225351 0.36193761 0.015666246
-0.40127632 0.38157359 0.012788057
0.24225351 0.38206106 0.015666246
-0.42336911 0.38376418 0.02572298
-0.42336911 0.40396512 0.0257231
-0.40127632 0.4016749 0.012788057
0.24225351 0.40218449 0.015666246
-0.42336911 0.42416611 0.02572298
-0.40127632 0.42177629 0.012788057
0.24225351 0.42230806 0.015666246
-0.40127632 0.44187748 0.012788057
0.24225351 0.44243145 0.015666246
-0.42336911 0.44436693 0.02572298
-0.42336911 0.46456766 0.02572298
-0.40127632 0.46197891 0.012788057
0.24225351 0.46255505 0.015666246
-0.42336911 0.48476863 0.0257231
-0.40127632 0.4820801 0.012788057
0.24225351 0.48267835 0.015666366
-0.40127632 0.50218141 0.012788057
0.24225351 0.50280172 0.015666246
-0.42336911 0.50496954 0.02572298
-0.42336911 0.52517045 0.02572298
-0.40127632 0.5222829 0.012788057
0.24225351 0.52292532 0.015666127
-0.42336911 0.54537123 0.02572298
-0.40127632 0.54238403 0.012788057
0.24225351 0.54304868 0.015666246
-0.40127632 0.56248534 0.012788057
0.24225351 0.56317228 0.015666246
-0.42336911 0.56557208 0.0257231
-0.42336911 0.58577311 0.02572298
-0.40127632 0.58258671 0.012788177
0.24225351 0.58329558 0.015666366
0.54500395 0.58432257 0.019834995
-0.42336911 0.60597396 0.02572298
-0.40127632 0.60268795 0.012788057
0.24225351 0.60341913 0.015666246
0.54479343 0.60423011 0.018858433
-0.42336911 0.62617487 0.0257231
-0.40127632 0.62278926 0.012787938
0.24225351 0.62354267 0.015666246
-0.42336911 0.6463756 0.02572298
-0.40127632 0.64289063 0.012788057
0.24225351 0.64366603 0.015666366
-0.42336911 0.66657662 0.02572298
-0.40127632 0.66299188 0.012788057
0.24225351 0.66378957 0.015666246
-0.42336911 0.68677747 0.02572298
-0.40127632 0.68309307 0.012788057
0.24225351 0.68391305 0.015666246
-0.42336911 0.70697838 0.0257231
-0.40127632 0.70319456 0.012788057
0.24225482 0.70404029 0.015679598
-0.42344984 0.72733653 0.026247501
-0.40127632 0.72329593 0.012787938
0.24225482 0.72416395 0.015679598
-0.40243232 0.74583083 0.020691752
0.24312279 0.74695808 0.024352551
-0.44629949 -0.75190425 0.042607427
0.2636928 -0.74804842 0.027875662
-0.44629949 -0.73157328 0.042607427
0.2636928 -0.72783101 0.027875662
-0.44629949 -0.71124256 0.042607427
0.2636928 -0.70761359 0.027875662
-0.44629949 -0.69091165 0.042607427
0.2636928 -0.68739605 0.027875543
-0.44629949 -0.6705808 0.042607427
0.2636928 -0.66717863 0.027875662
-0.44629949 -0.6502499 0.042607427
0.2636928 -0.64696115 0.027875662
-0.44629949 -0.62991911 0.042607427
0.2636928 -0.62674379 0.027875543
-0.44629949 -0.60958821 0.042607427
0.2636928 -0.60652632 0.027875662
-0.44629949 -0.5892573 0.042607427
0.2636928 -0.58630884 0.027875662
-0.44629949 -0.56892657 0.042607427
0.2636928 -0.56609136 0.027875662
-0.44629949 -0.54859567 0.042607427
0.2636928 -0.545874 0.027875662
-0.44629949 -0.52826482 0.042607427
0.2636928 -0.5256564 0.027875543
0.5281505 -0.52704573 0.035721898
0.75195247 -0.52749699 0.038270831
-0.44629949 -0.50793391 0.042607427
0.2636928 -0.50543904 0.027875543
0.50849146 -0.50729156 0.038814068
0.52658957 -0.50549608 0.028212428
0.75195247 -0.50719953 0.03827095
-0.44629949 -0.4876031 0.042607427
0.2636928 -0.48522162 0.027875543
0.52805758 -0.48641777 0.035275221
0.75195247 -0.48690209 0.03827107
-0.44629949 -0.46727222 0.042607427
0.2636928 -0.46500415 0.027875662
0.54787415 -0.46581638 0.033150911
0.75195247 -0.46660459 0.038270831
-0.44629949 -0.44694132 0.042607427
0.2636928 -0.44478676 0.027875662
0.75195247 -0.44630712 0.03827095
-0.44629949 -0.42661062 0.042607427
0.2636928 -0.42456919 0.027875662
0.75195247 -0.42600965 0.03827107
-0.44629949 -0.40627971 0.042607427
0.2636928 -0.4043518 0.027875662
0.75195247 -0.40571225 0.03827107
-0.44629949 -0.38594878 0.042607427
0.2636928 -0.38413432 0.027875662
0.75195247 -0.38541466 0.03827095
-0.44629949 -0.36561793 0.042607427
0.2636928 -0.3639169 0.027875662
0.75195247 -0.36511725 0.03827095
-0.44629949 -0.34528708 0.042607427
0.2636928 -0.34369937 0.027875543
0.75195247 -0.34481975 0.03827107
-0.44629949 -0.32495627 0.042607427
0.2636928 -0.32348195 0.027875543
0.75195247 -0.32452226 0.038270831
-0.44629949 -0.30462539 0.042607427
0.2636928 -0.3032645 0.027875662
0.75195247 -0.30422479 0.03827095
-0.44629949 -0.28429455 0.042607546
0.2636928 -0.28304708 0.027875662
0.75195247 -0.28392735 0.03827107
-0.44629949 -0.26396373 0.042607427
0.2636928 -0.26282969 0.027875662
0.75195247 -0.26362988 0.03827107
-0.44629949 -0.24363278 0.042607427
0.2636928 -0.24261215 0.027875662
0.75195247 -0.24333243 0.03827095
-0.44629949 -0.22330193 0.042607427
0.2636928 -0.22239478 0.027875662
0.75195247 -0.22303493 0.03827107
-0.44629949 -0.2029711 0.042607427
0.2636928 -0.20217729 0.027875662
0.75195247 -0.20273742 0.03827107
-0.44629949 -0.18264033 0.042607427
0.2636928 -0.18195981 0.027875543
0.75195247 -0.18243995 0.03827095
-0.44629949 -0.16230942 0.042607427
0.2636928 -0.16174233 0.027875662
0.75195247 -0.16214244 0.03827107
-0.44629949 -0.14197856 0.042607546
0.2636928 -0.14152494 0.027875662
0.75195247 -0.14184502 0.03827107
-0.44629949 -0.12164775 0.042607427
0.2636928 -0.12130746 0.027875662
0.75195247 -0.12154755 0.03827107
-0.44629949 -0.10131679 0.042607427
0.2636928 -0.10109007 0.027875662
0.75195247 -0.10125004 0.03827095
-0.44629949 -0.080985971 0.042607427
0.2636928 -0.080872543 0.027875662
0.75195247 -0.08095257 0.03827107
-0.44629949 -0.060655199 0.042607427
0.2636928 -0.060655106 0.027875662
0.75195247 -0.060655151 0.03827107
-0.44629949 -0.040324241 0.042607427
0.2636928 -0.040437713 0.027875662
0.75195247 -0.040357593 0.03827095
-0.44629949 -0.019993424 0.042607427
0.2636928 -0.020220235 0.027875662
0.75195247 -0.020060219 0.03827107
-0.44629949 0.0003374368 0.042607546
0.2636928 -2.7529895e-06 0.027875543
0.75194848 0.00023697689 0.038257241
-0.44629949 0.020668257 0.042607427
0.2636928 0.020214725 0.027875662
0.75194848 0.0205344 0.03825736
-0.44629949 0.040999163 0.042607427
0.2636928 0.040432122 0.027875662
0.75194848 0.040831823 0.03825736
-0.44629949 0.061330114 0.042607427
0.2636928 0.0606496 0.027875662
0.75194848 0.061129104 0.03825736
-0.44629949 0.081660807 0.042607427
0.2636928 0.080866992 0.027875662
0.75194848 0.081426531 0.03825736
-0.44629949 0.10199167 0.042607427
0.2636928 0.10108452 0.027875662
0.75194848 0.10172386 0.03825736
-0.44629949 0.12232266 0.042607427
0.2636928 0.12130199 0.027875781
0.75194848 0.12202124 0.03825736
-0.44629949 0.14265339 0.042607546
0.2636928 0.1415194 0.027875662
0.75194848 0.14231867 0.03825736
-0.44629949 0.16298425 0.042607427
0.2636928 0.16173688 0.027875662
0.75194848 0.16261594 0.03825736
-0.44629949 0.1833152 0.042607427
0.2636928 0.18195426 0.027875662
0.75194848 0.18291332 0.03825736
-0.44629949 0.20364603 0.042607427
0.2636928 0.20217171 0.027875543
0.75194848 0.20321065 0.038257599
-0.44629949 0.22397679 0.042607427
0.2636928 0.22238922 0.027875662
0.75194848 0.22350803 0.038257599
-0.44629949 0.24430767 0.042607427
0.2636928 0.24260661 0.027875662
0.75194848 0.24380544 0.038257599
-0.44629949 0.26463866 0.042607427
0.2636928 0.26282406 0.027875662
0.75194848 0.2641027 0.03825748
-0.44629949 0.28496948 0.042607427
0.2636928 0.28304151 0.027875662
0.75194848 0.28440011 0.03825748
-0.44629949 0.30530021 0.042607427
0.2636928 0.30325902 0.027875662
0.75194848 0.30469754 0.038257599
-0.44629949 0.32563117 0.042607427
0.2636928 0.3234764 0.027875662
0.75194848 0.32499492 0.038257599
-0.44629949 0.34596208 0.042607427
0.2636928 0.34369394 0.027875662
0.75194848 0.34529215 0.03825736
-0.44629949 0.3662928 0.042607546
0.2636928 0.36391127 0.027875662
0.75194848 0.36558959 0.03825748
-0.44629949 0.3866238 0.042607546
0.2636928 0.38412872 0.027875662
0.75194848 0.38588694 0.038257599
-0.44629949 0.40695462 0.042607427
0.2636928 0.40434629 0.027875662
0.75194848 0.40618441 0.03825748
-0.44629949 0.42728537 0.042607427
0.2636928 0.42456368 0.027875662
0.75194848 0.42648178 0.038257599
-0.44629949 0.44761622 0.042607427
0.2636928 0.44478118 0.027875662
0.75194848 0.44677901 0.03825736
-0.44629949 0.46794719 0.042607427
0.2636928 0.46499848 0.027875662
0.75194848 0.46707648 0.03825748
-0.44629949 0.48827803 0.042607427
0.2636928 0.48521602 0.027875781
0.75194848 0.48737389 0.038257599
-0.44629949 0.50860876 0.042607546
0.2636928 0.50543356 0.027875662
0.75194848 0.5076713 0.03825748
-0.44629949 0.52893972 0.042607546
0.2636928 0.52565098 0.027875662
0.75194848 0.52796847 0.03825736
-0.44629949 0.54927063 0.042607427
0.2636928 0.54586834 0.027875662
0.75194848 0.54826593 0.03825748
-0.44629949 0.56960142 0.042607427
0.2636928 0.56608593 0.027875662
0.52953064 0.56954294 0.042362452
0.54896313 0.56855035 0.038203359
0.5692631 0.56855357 0.038216829
0.58956015 0.56855357 0.038216829
0.60986042 0.56855679 0.0382303
0.63015759 0.56855679 0.0382303
0.75194848 0.56856334 0.03825748
-0.44629949 0.58993214 0.042607427
0.2636928 0.58630335 0.027875662
0.50864094 0.58918184 0.039561033
0.52687526 0.58672488 0.029586673
0.75194848 0.58886081 0.03825748
-0.44629949 0.61026317 0.042607546
0.2636928 0.60652077 0.027875662
0.50917441 0.61016625 0.042226315
0.52700704 0.6071164 0.030220628
0.75194848 0.6091581 0.038257599
-0.44629949 0.63059396 0.042607427
0.2636928 0.62673813 0.027875662
-0.44629949 0.6509248 0.042607546
0.2636928 0.64695555 0.027875662
-0.44629949 0.67125577 0.042607546
0.2636928 0.66717309 0.027875781
0.2636928 0.68739063 0.027875662
-0.44629949 0.69158661 0.042607427
-0.44629949 0.7119174 0.042607427
0.2636928 0.70760798 0.027875662
0.26375812 0.72800756 0.028481603
-0.42542431 0.75149041 0.039072037
0.28637895 -0.75364423 0.049255252
0.28637895 -0.73326212 0.049255133
0.28637895 -0.71288013 0.049255252
0.28637895 -0.69249809 0.049255252
0.28637895 -0.6721161 0.049255252
0.28637895 -0.65173399 0.049255252
0.28637895 -0.63135195 0.049255133
0.28637895 -0.61096996 0.049255252
0.28637895 -0.59058791 0.049255133
0.28637895 -0.57020593 0.049255252
0.28637895 -0.54982388 0.049255252
0.28637895 -0.52944189 0.049255252
0.51046079 -0.52933532 0.048653126
0.28637895 -0.50905985 0.049255252
0.4902809 -0.50913167 0.049679518
0.28637737 -0.48867548 0.049241543
0.49119672 -0.48951566 0.054438233
0.50969535 -0.48796225 0.044828773
0.28637895 -0.46829575 0.049255252
0.51161039 -0.46908742 0.054397106
0.52981657 -0.46744639 0.043738127
0.28637895 -0.44791377 0.049255252
0.28637895 -0.42753169 0.049255252
0.28637895 -0.40714958 0.049255133
0.28637895 -0.3867676 0.049255252
0.28637895 -0.36638555 0.049255252
0.28637895 -0.34600356 0.049255252
0.28637895 -0.32562149 0.049255252
0.28637895 -0.3052395 0.049255252
0.28637895 -0.28485745 0.049255252
0.28637895 -0.26447546 0.049255371
0.28637895 -0.24409337 0.049255252
0.28637895 -0.22371131 0.049255252
0.28637895 -0.20332931 0.049255252
0.28637895 -0.18294726 0.049255252
0.28637895 -0.16256526 0.049255252
0.28637895 -0.14218321 0.049255252
0.28637895 -0.1218012 0.049255252
0.28637895 -0.10141916 0.049255252
0.28637895 -0.081037156 0.049255252
0.28637895 -0.060655106 0.049255252
0.28637895 -0.040273104 0.049255371
0.28637895 -0.019891053 0.049255252
0.28637895 0.00049108267 0.049255252
0.28637895 0.020873044 0.049255252
0.28637895 0.041255135 0.049255252
0.28637895 0.061637092 0.049255252
0.28637895 0.08201915 0.049255252
0.28637895 0.10240114 0.049255252
0.28637895 0.12278315 0.049255252
0.28637895 0.1431652 0.049255371
0.28637895 0.1635472 0.049255252
0.28637895 0.18392925 0.049255371
0.28637895 0.20431125 0.049255252
0.28637895 0.22469339 0.049255252
0.28637895 0.24507532 0.049255252
0.28637895 0.26545745 0.049255252
0.28637895 0.28583935 0.049255252
0.28637895 0.30622149 0.049255252
0.28637895 0.32660341 0.049255252
0.28637895 0.34698549 0.049255252
0.28637895 0.36736742 0.049255252
0.28637895 0.38774964 0.049255252
0.28637895 0.40813166 0.049255252
0.28637895 0.42851365 0.049255252
0.28637895 0.44889563 0.049255252
0.28637895 0.46927774 0.049255252
0.28637895 0.48965973 0.049255252
0.28637895 0.51004177 0.049255371
0.28637895 0.53042376 0.049255252
0.28637895 0.55080587 0.049255371
0.28637895 0.57118785 0.049255252
0.51081419 0.57146555 0.050418973
0.28637895 0.59156984 0.049255371
0.49030724 0.59170812 0.049816489
0.28637895 0.61195189 0.049255252
0.49125752 0.61334884 0.054754376
0.28637895 0.63233405 0.049255252
0.28637895 0.65271598 0.049255252
0.28637895 0.67309797 0.049255252
0.28637895 0.69347996 0.049255252
0.28637895 0.71386194 0.049255252
-0.44660565 0.73281687 0.044501543
0.28663197 0.73490196 0.051446557
0.26561251 0.75352782 0.045688272
-0.4708294 -0.75839365 0.067401648
0.30958661 -0.75964862 0.072196603
-0.4708294 -0.73787194 0.067401648
0.30958834 -0.73909354 0.07221055
-0.4708294 -0.71735024 0.067401648
0.30958834 -0.71853483 0.07221055
-0.4708294 -0.69682854 0.067401767
0.30958834 -0.69797611 0.07221055
-0.4708294 -0.67630678 0.067401648
0.30958834 -0.6774174 0.07221055
0.30958834 -0.65685868 0.07221055
-0.4708294 -0.65578514 0.067401648
-0.4708294 -0.63526338 0.067401648
0.30958834 -0.63629979 0.072210312
-0.4708294 -0.61474168 0.067401648
0.30958834 -0.61574107 0.072210312
0.30958834 -0.5951823 0.072210431
-0.4708294 -0.59421992 0.067401767
-0.4708294 -0.57369822 0.067401767
0.30958834 -0.57462358 0.072210431
-0.4708294 -0.55317646 0.067401648
0.30958834 -0.55406487 0.072210431
-0.4708294 -0.53265476 0.067401648
0.30958834 -0.5335061 0.072210431
0.49272689 -0.53176725 0.062389016
-0.4708294 -0.512133 0.067401648
0.30958834 -0.51294738 0.072210431
0.45343298 -0.51288378 0.071834683
0.47191456 -0.51098233 0.060607314
-0.4708294 -0.4916113 0.067401648
0.30958834 -0.49238858 0.072210431
0.4725785 -0.49109384 0.064200759
-0.4708294 -0.47108951 0.067401648
0.30958834 -0.47182986 0.072210431
0.49325672 -0.47074178 0.065142393
-0.4708294 -0.45056784 0.067401648
0.30959004 -0.45127314 0.072224379
0.49454466 -0.45121625 0.071834683
0.51510608 -0.45122027 0.071862578
0.53567076 -0.45122629 0.071904182
0.55623317 -0.45123047 0.071932077
0.57679909 -0.45123652 0.071973801
0.59736246 -0.45124066 0.072001576
0.61792624 -0.45124477 0.072029471
0.63849384 -0.45125085 0.072071195
-0.4708294 -0.43004611 0.067401767
0.30959004 -0.43071437 0.072224379
-0.4708294 -0.40952435 0.067401767
0.30959004 -0.4101555 0.072224379
-0.4708294 -0.38900274 0.067401648
0.30959004 -0.38959664 0.072224379
-0.4708294 -0.36848101 0.067401767
0.30959004 -0.36903787 0.072224379
-0.4708294 -0.34795928 0.067401648
0.30959004 -0.34847903 0.072224379
-0.4708294 -0.32743755 0.067401767
