ply
format ascii 1.0
comment PCL generated
element vertex 1315
property float x
property float y
property float z
element camera 0
property float view_px
property float view_py
property float view_pz
property float x_axisx
property float x_axisy
property float x_axisz
property float y_axisx
property float y_axisy
property float y_axisz
property float z_axisx
property float z_axisy
property float z_axisz
property float focal
property float scalex
property float scaley
property float centerx
property float centery
property int viewportx
property int viewporty
property float k1
property float k2
end_header
-0.10989626 -0.061704561 -0.071095288
-0.09481179 -0.061748557 -0.076812387
0.14149833 -0.061759762 -0.078268707
0.15663721 -0.061725747 -0.073855639
-0.10989022 -0.0468858 -0.071207345
-0.094806649 -0.046973892 -0.076923668
0.14148979 -0.046996273 -0.078380048
0.15662697 -0.046928488 -0.073976696
-0.10988417 -0.032068942 -0.071319342
-0.0948015 -0.03220088 -0.077035129
0.14148194 -0.032234263 -0.078481972
0.15661672 -0.032133061 -0.074097753
-0.09479636 -0.017429635 -0.077146471
0.14147337 -0.017474193 -0.078593135
-0.10987814 -0.017253634 -0.071431398
0.15660647 -0.017339535 -0.074218631
-0.1098721 -0.0024401546 -0.071543515
-0.094791219 -0.0026601553 -0.077257872
0.1414648 -0.0027157813 -0.078704357
0.156597 -0.0025474951 -0.074330389
-0.10986556 0.012371168 -0.07166487
-0.09478607 0.012107745 -0.077369273
0.14145696 0.012041368 -0.078806281
0.15658677 0.012242436 -0.074451387
-0.10985953 0.027181119 -0.071776748
-0.094780929 0.026873805 -0.077480674
0.14144841 0.026796326 -0.078917384
0.15657653 0.027030461 -0.074572384
-0.094775364 0.041637614 -0.077601135
0.14144057 0.041550301 -0.079019248
-0.1098535 0.041989416 -0.071888685
0.15656626 0.041816719 -0.074693322
-0.10984746 0.056795992 -0.072000802
-0.094770215 0.056400262 -0.077712476
0.141432 0.056301974 -0.07913053
0.15655603 0.056600995 -0.07481432
-0.10984143 0.071600802 -0.072112739
-0.094765075 0.071161143 -0.077823699
0.14142416 0.071052678 -0.079232216
0.15654658 0.071384169 -0.07492584
-0.10983539 0.086403809 -0.072224617
-0.094759941 0.085920371 -0.07793504
0.14141563 0.085801058 -0.079343438
0.15653634 0.086164914 -0.075046897
-0.0947548 0.10067781 -0.078046203
0.14140776 0.10054854 -0.079445243
-0.10982937 0.10120522 -0.072336495
0.1565261 0.10094375 -0.075167835
-0.10982282 0.11600395 -0.07245785
-0.094749235 0.1154326 -0.078166783
0.14139922 0.11529355 -0.079556346
0.15651588 0.11572068 -0.075288713
-0.1098168 0.13080177 -0.072569609
-0.094744094 0.13018656 -0.078278124
0.1413914 0.13003781 -0.079658151
0.15650564 0.13049576 -0.075409472
0.17193498 0.13124487 -0.06845814
-0.10981077 0.14559796 -0.072681606
-0.094738536 0.14493775 -0.078398585
0.14138283 0.1447795 -0.079769075
0.1564962 0.14527002 -0.075521171
0.17192373 0.14607158 -0.068579793
-0.094733395 0.15968823 -0.078509688
0.14137429 0.15951949 -0.079880178
-0.10980424 0.16039118 -0.072802722
0.15648594 0.16004151 -0.07564193
0.17191248 0.16089633 -0.068701506
-0.10979822 0.17518374 -0.0729146
-0.094728261 0.17443705 -0.078620911
0.14136645 0.17425886 -0.079982102
0.15647572 0.17481112 -0.075762689
0.17190124 0.17571929 -0.068823338
-0.10979219 0.1899747 -0.073026478
-0.09472312 0.18918404 -0.078732193
0.1413579 0.18899545 -0.080093145
0.15646549 0.1895788 -0.075883508
0.17188999 0.19054022 -0.068944991
-0.10978616 0.20476386 -0.073138356
-0.094717562 0.20392808 -0.078852534
0.15645526 0.20434463 -0.076004326
0.17187877 0.20535943 -0.069066525
-0.094712421 0.21867168 -0.078963637
0.15644504 0.21910873 -0.076125205
-0.10977963 0.21954983 -0.073259473
0.17186838 0.2201781 -0.069178939
-0.10977361 0.2343356 -0.073371232
-0.094707295 0.23341358 -0.07907486
0.15643559 0.23387238 -0.076236546
0.17185716 0.23499364 -0.069300473
-0.10976758 0.24911943 -0.07348305
-0.094702154 0.24815375 -0.079186082
0.15642537 0.24863279 -0.076357365
0.17184591 0.24980727 -0.069422126
-0.10976157 0.26390174 -0.073594809
-0.094697028 0.26289219 -0.079297006
0.15641515 0.26339126 -0.076478064
0.17183468 0.26461899 -0.069543719
-0.094691463 0.27762714 -0.079417586
0.15640493 0.27814794 -0.076598704
-0.10975503 0.27868053 -0.073715925
0.17182344 0.27942887 -0.069665432
-0.10974901 0.29345924 -0.073827744
-0.094686337 0.29236203 -0.07952857
0.15639471 0.29290271 -0.076719522
0.17181307 0.29423863 -0.069777608
-0.10974299 0.30823624 -0.073939383
-0.094681211 0.30709541 -0.079639673
0.15638527 0.30765757 -0.076830864
0.17180185 0.30904487 -0.069899142
-0.10973696 0.32301155 -0.074051082
-0.09467607 0.32182685 -0.079750657
0.15637505 0.32240874 -0.076951623
0.17179061 0.32384923 -0.070020616
-0.094670519 0.33655462 -0.079871058
0.15636483 0.33715791 -0.077072263
-0.12488022 0.3390187 -0.068439424
-0.10973044 0.33778304 -0.074172199
0.17177939 0.33865166 -0.07014215
-0.12487329 0.35383454 -0.068551779
-0.10972442 0.3525548 -0.074283898
-0.094665386 0.35128278 -0.079981983
0.15635462 0.35190544 -0.077192843
0.17176817 0.35345227 -0.070263624
-0.12486637 0.36864853 -0.068664134
-0.1097184 0.36732492 -0.074395537
-0.09466026 0.36600915 -0.080093145
0.1563444 0.36665106 -0.077313542
0.1717578 0.36825332 -0.07037586
-0.12485945 0.38346085 -0.068776369
-0.1097124 0.38209334 -0.074507236
0.15633498 0.38139701 -0.077424824
0.1717466 0.38305017 -0.070497274
0.15632477 0.39613891 -0.077545464
-0.12485196 0.39826915 -0.068898141
-0.10970587 0.39685762 -0.074628174
0.17173536 0.39784521 -0.070618987
-0.12484505 0.41307792 -0.069010437
-0.10969986 0.41162238 -0.074739814
0.15631457 0.41087908 -0.077666044
0.17172414 0.41263846 -0.070740402
-0.12483813 0.42788503 -0.069122672
-0.10969385 0.42638561 -0.074851453
0.15630434 0.42561725 -0.077786624
0.17171293 0.42742977 -0.070861816
-0.12483121 0.44269022 -0.069235027
-0.10968783 0.44114694 -0.074963093
0.15629414 0.44035378 -0.077907205
0.17170256 0.44222185 -0.070973873
0.1562847 0.45509085 -0.078018367
-0.12482372 0.45749125 -0.06935674
-0.10968132 0.4559041 -0.075083971
0.17169136 0.45700946 -0.071095288
-0.12481682 0.47229305 -0.069468915
-0.1096753 0.47066191 -0.075195611
0.1562745 0.46982363 -0.078139007
0.17168015 0.47179523 -0.071216702
-0.12480989 0.48709324 -0.069581032
-0.10966928 0.48541805 -0.07530725
0.15626429 0.48455456 -0.078259528
0.17166893 0.48657927 -0.071337938
-0.12480299 0.50189155 -0.069693387
-0.10966328 0.50017267 -0.07541877
0.1562541 0.49928364 -0.078379929
0.17165771 0.50136131 -0.071459353
0.15624391 0.51401091 -0.078500509
-0.1247955 0.51668531 -0.06981498
-0.10965677 0.51492262 -0.075539649
0.17164737 0.51614445 -0.07157141
-0.18400431 0.53113216 -0.071029842
-0.16882041 0.52977926 -0.075316548
-0.15370683 0.52844399 -0.079547048
0.20039734 0.52837384 -0.079769313
0.21573171 0.52996123 -0.074739814
0.2311606 0.53159237 -0.069571853
-0.19835436 0.54443192 -0.075734854
0.22995134 0.54325014 -0.079389691
0.2454821 0.54516298 -0.073473692
-0.12531258 -0.56805634 -0.061418533
-0.11010653 -0.56658942 -0.067193091
0.17245901 -0.56770915 -0.062785208
-0.12530561 -0.55313361 -0.061531663
-0.11010047 -0.55171126 -0.067305565
0.17244768 -0.55279464 -0.062907815
-0.12529807 -0.53821033 -0.06165427
0.17243639 -0.53788203 -0.063030243
-0.11009441 -0.53683484 -0.067418039
-0.12529109 -0.52329111 -0.061767399
-0.11008834 -0.52196014 -0.067530572
0.17242508 -0.52297121 -0.063152552
-0.12528414 -0.50837362 -0.061880589
-0.11008178 -0.50708508 -0.067652464
0.17241375 -0.50806236 -0.06327492
-0.12527716 -0.49345797 -0.061993718
-0.11007571 -0.49221402 -0.067764878
0.17240246 -0.49315536 -0.063397408
-0.1252702 -0.47854394 -0.062106788
-0.11006966 -0.4773446 -0.067877352
0.17239116 -0.47825027 -0.063519776
-0.12526266 -0.46362987 -0.062229276
-0.1100636 -0.46247694 -0.067989707
0.17238073 -0.46334895 -0.063632786
0.18796185 -0.46475556 -0.056605101
-0.14054556 -0.44983637 -0.056538761
-0.12525569 -0.44871941 -0.062342405
-0.11005754 -0.447611 -0.068102241
0.17236942 -0.44844753 -0.063755095
0.18794951 -0.44979987 -0.056728363
-0.14053768 -0.43488291 -0.056652427
-0.12524872 -0.43381074 -0.062455595
-0.11005098 -0.43274501 -0.068223953
0.17235811 -0.43354812 -0.063877344
0.18793719 -0.4348461 -0.056851506
-0.1405298 -0.41993111 -0.056766212
0.18792486 -0.41989431 -0.056974709
-0.12524176 -0.4189038 -0.062568724
-0.11004492 -0.41788262 -0.068336427
0.17234682 -0.41865042 -0.063999653
-0.14052126 -0.40497956 -0.056889415
-0.12523478 -0.40399864 -0.062681735
0.17233552 -0.40375471 -0.064121902
0.18791254 -0.4049443 -0.057097852
-0.14051339 -0.39003146 -0.05700314
-0.12522726 -0.38909367 -0.062804103
0.17232423 -0.38886082 -0.06424433
0.1879002 -0.3899962 -0.057221055
-0.14050551 -0.37508503 -0.057116926
-0.12522028 -0.37419203 -0.062917233
0.17231295 -0.37396887 -0.064366579
0.18788788 -0.37505007 -0.057344258
-0.14049762 -0.3601405 -0.057230532
-0.12521333 -0.35929215 -0.063030243
0.17230165 -0.35907882 -0.064488828
0.18787651 -0.36010718 -0.057457924
-0.14048976 -0.3451975 -0.057344258
-0.12520638 -0.34439397 -0.063143134
0.17229034 -0.34419063 -0.064610958
0.18786418 -0.34516469 -0.057581067
-0.14048123 -0.33025518 -0.057467341
-0.12519883 -0.32949638 -0.063265562
0.17227906 -0.32930425 -0.064733326
0.18785188 -0.33022422 -0.05770421
-0.14047335 -0.31531584 -0.057581067
-0.12519188 -0.31460181 -0.063378572
0.17226776 -0.3144199 -0.064855397
0.18783955 -0.31528556 -0.057827294
-0.14046547 -0.30037829 -0.057694674
-0.12518491 -0.29970893 -0.063491583
0.17225648 -0.2995373 -0.064977646
0.18782723 -0.30034879 -0.057950318
-0.1404576 -0.28544244 -0.057808399
-0.12517798 -0.28481784 -0.063604474
0.17224519 -0.2846567 -0.065099776
0.18781491 -0.28541389 -0.058073401
-0.14044908 -0.27050751 -0.057931423
-0.12517044 -0.26992753 -0.063726842
0.17223477 -0.26977888 -0.065212488
0.18780258 -0.27048096 -0.058196485
-0.14044121 -0.25557527 -0.05804497
-0.12516348 -0.25503993 -0.063839734
0.17222349 -0.25490186 -0.065334678
0.18779029 -0.25554988 -0.058319509
-0.18501861 -0.24048463 -0.060049713
-0.16948289 -0.23985434 -0.067493021
0.21673098 -0.23997349 -0.066085994
0.23275769 -0.24077633 -0.056605101
-0.21486408 -0.22560397 -0.059728444
0.26196641 -0.22548044 -0.061333537
-0.21421231 -0.21027705 -0.065776169
0.26123765 -0.21022049 -0.066592753
0.27739832 -0.21083891 -0.057666183
-0.21442202 -0.19553553 -0.063830256
0.26148102 -0.19547358 -0.064836562
-0.1995278 -0.18064959 -0.06400913
0.24697088 -0.18075259 -0.06209743
-0.14039269 -0.16601777 -0.058745265
-0.12512061 -0.16575028 -0.064535677
0.17215669 -0.16567996 -0.066057861
0.18771739 -0.16600376 -0.059047878
-0.14038482 -0.15109789 -0.058858693
-0.12511367 -0.15087506 -0.064648569
0.17214543 -0.15081611 -0.066179872
0.18770604 -0.15108627 -0.059161305
-0.14037696 -0.13617982 -0.058972299
-0.12510614 -0.13600127 -0.064770818
0.17213415 -0.13595413 -0.066301942
0.18769373 -0.13617027 -0.05928421
-0.14036845 -0.12126324 -0.059095144
-0.1250992 -0.12112953 -0.06488359
0.1721229 -0.12109397 -0.066423893
0.18768144 -0.12125608 -0.059407115
-0.14036058 -0.10634877 -0.059208572
-0.12509224 -0.10625962 -0.064996481
0.17211248 -0.10623594 -0.066536427
0.18766914 -0.10634384 -0.05952996
-0.14035207 -0.091435924 -0.059331536
-0.12508471 -0.091391332 -0.065118611
0.17210121 -0.091379523 -0.066658378
0.18765685 -0.091433384 -0.059652865
-0.14034422 -0.076524913 -0.059444964
-0.12507777 -0.076524913 -0.065231264
0.17208995 -0.076524913 -0.066780329
0.18764454 -0.076524913 -0.05977571
-0.14033636 -0.061615698 -0.059558392
-0.12507083 -0.06166029 -0.065343976
0.17207868 -0.061672237 -0.066902339
0.18763322 -0.061618235 -0.059889138
-0.1403285 -0.046708278 -0.0596717
-0.1250639 -0.046797287 -0.065456748
0.17206742 -0.046821468 -0.067024171
0.18762091 -0.046713494 -0.060011864
-0.14031999 -0.031802695 -0.059794664
-0.12505694 -0.031936083 -0.06556952
0.17205617 -0.031972494 -0.067146182
0.18760863 -0.031810589 -0.060134709
-0.14031214 -0.016898803 -0.059908032
-0.12505001 -0.017076675 -0.065682232
0.17204577 -0.017125145 -0.067258716
0.18759634 -0.016909588 -0.060257494
-0.14030428 -0.0019966736 -0.060021341
-0.12504248 -0.0022193119 -0.065804303
0.1720345 -0.0022798702 -0.067380607
0.18758406 -0.002010487 -0.06038022
-0.14029641 0.012903728 -0.060134709
-0.12503554 0.012636676 -0.065916955
0.17202325 0.012563385 -0.067502439
0.18757176 0.012886703 -0.060503066
-0.14028856 0.027802333 -0.060248077
-0.12502861 0.027490862 -0.066029668
0.17201199 0.027404957 -0.067624331
0.18756044 0.027782559 -0.060616255
-0.14028072 0.042699315 -0.060361326
-0.12502167 0.042343326 -0.066142321
0.17200074 0.042244516 -0.067746043
0.18754815 0.042676091 -0.06073904
-0.14027287 0.0575945 -0.060474634
-0.12501475 0.057194032 -0.066254973
0.17199035 0.057082914 -0.067858517
0.18753587 0.057567678 -0.060861707
-0.14026502 0.072487913 -0.060588002
-0.12500781 0.072043039 -0.066367567
0.1719791 0.071918868 -0.067980409
0.18752359 0.07245744 -0.060984433
-0.14025716 0.087379657 -0.060701251
-0.12500086 0.086890332 -0.06648016
0.17196785 0.086752944 -0.068102121
0.18751131 0.087345265 -0.061107099
-0.14024867 0.1022687 -0.060823977
-0.12499336 0.10173494 -0.066602111
0.1719566 0.10158516 -0.068224013
0.18749903 0.10223118 -0.061229706
-0.14024082 0.11715689 -0.060937285
-0.12498643 0.11657865 -0.066714704
0.17194535 0.11641548 -0.068345666
0.18748772 0.11711621 -0.061343014
-0.14023298 0.13204321 -0.061050534
-0.12497948 0.13142058 -0.066827238
0.18747543 0.13199854 -0.061465621
-0.14022514 0.14692783 -0.061163723
-0.12497257 0.14626092 -0.066939831
0.18746316 0.14687887 -0.061588109
-0.14021663 0.16180962 -0.061286271
-0.12496506 0.16109827 -0.067061782
0.1874509 0.16175738 -0.061710775
-0.14020878 0.17669067 -0.061399519
-0.12495813 0.17593506 -0.067174256
0.18743864 0.17663389 -0.061833382
-0.14020094 0.19157004 -0.061512828
-0.12495119 0.19077 -0.067286849
0.18742731 0.19150996 -0.06194663
-0.1401931 0.20644769 -0.061625957
-0.12494426 0.20560324 -0.067399323
0.18741505 0.20638293 -0.062069178
-0.14018461 0.22132203 -0.061748445
-0.12493677 0.22043341 -0.067521155
0.18740278 0.2212539 -0.062191606
-0.14017677 0.23619622 -0.061861694
-0.12492983 0.23526308 -0.067633688
0.18739051 0.23612297 -0.062314212
-0.14016894 0.25106856 -0.061974823
-0.12492291 0.25009102 -0.067746043
0.18737826 0.25099027 -0.062436581
-0.1401611 0.26593906 -0.062087953
-0.12491598 0.26491734 -0.067858517
0.18736599 0.26585567 -0.062559187
-0.1401526 0.28080609 -0.0622105
-0.12490848 0.27974018 -0.067980409
0.18735468 0.28072086 -0.062672257
-0.14014478 0.2956731 -0.06232357
-0.12490156 0.29456288 -0.068092883
0.18734244 0.2955825 -0.062794685
-0.15547073 0.31170002 -0.056633472
-0.14013694 0.31053841 -0.0624367
-0.12489463 0.30938384 -0.068205237
0.18733019 0.31044242 -0.062917233
-0.1401291 0.32540196 -0.06254977
-0.12488772 0.32420322 -0.068317711
0.18731791 0.32530028 -0.063039601
-0.15546197 0.32660803 -0.056747258
-0.15545249 0.34151229 -0.05687052
-0.14012061 0.34026185 -0.062672257
0.18730566 0.34015629 -0.063161969
-0.15544373 0.35641682 -0.056984186
-0.14011279 0.35512185 -0.062785208
0.18729436 0.35501248 -0.063275039
-0.15543497 0.37131965 -0.057097793
-0.14010496 0.36998004 -0.062898338
0.18728212 0.36986482 -0.063397288
0.18726987 0.38471535 -0.063519716
-0.15542622 0.38622066 -0.057211518
-0.14009713 0.38483652 -0.063011348
-0.15541674 0.40111765 -0.05733484
-0.14008863 0.39968911 -0.063133717
0.18725762 0.39956388 -0.063642085
0.20289278 0.40129504 -0.056614459
-0.15540798 0.41601497 -0.057448387
-0.14008082 0.41454208 -0.063246727
0.18724538 0.41441059 -0.063764453
0.20288052 0.41619793 -0.056728303
-0.15539923 0.43091068 -0.057562113
-0.14007297 0.42939332 -0.063359678
0.18723409 0.4292579 -0.063877285
0.20286724 0.43109676 -0.056851506
-0.1553905 0.44580463 -0.057675779
-0.14006516 0.44424281 -0.063472629
0.18722184 0.44410095 -0.063999593
0.20285395 0.44599351 -0.056974709
-0.15538101 0.46069434 -0.057798862
-0.14005668 0.459088 -0.063594997
0.18720961 0.45894197 -0.064121962
0.20284069 0.46088848 -0.057097971
-0.15537228 0.47558472 -0.057912529
-0.14004885 0.47393408 -0.063707948
0.18719737 0.47378132 -0.064244211
0.20282741 0.47578165 -0.057221055
-0.15536353 0.4904733 -0.058026016
-0.14004105 0.48877826 -0.063820899
0.18718512 0.48861864 -0.0643664
0.20281516 0.49067554 -0.05733484
-0.15535478 0.50536025 -0.058139622
-0.14003322 0.5036208 -0.06393373
0.18717384 0.50345707 -0.064479351
0.20280188 0.50556505 -0.057457924
-0.17021401 0.52005893 -0.058858633
-0.15505373 0.51907635 -0.062050283
-0.1399609 0.51817495 -0.064977527
0.18709388 0.5180822 -0.065278292
0.20233235 0.51914877 -0.061814547
0.21766713 0.52032989 -0.057978809
-0.21511899 0.53544569 -0.057363153
-0.19933687 0.53274578 -0.065916955
0.24668749 0.53326786 -0.064262986
0.26231718 0.53499156 -0.058801949
-0.21410611 0.54733306 -0.066761613
0.26113239 0.54714197 -0.067352414
0.27703589 0.54947263 -0.060144186
-0.23011404 0.55056465 -0.056766212
-0.15599874 -0.57101434 -0.049774408
-0.14060996 -0.56953216 -0.055609167
0.18804726 -0.56949592 -0.055751503
0.2037504 -0.57129824 -0.048656821
-0.15598992 -0.55600166 -0.049889028
-0.14060141 -0.55456215 -0.055732548
0.18803492 -0.55452704 -0.055874825
0.20373701 -0.55627453 -0.048781157
-0.15598109 -0.54099053 -0.050003588
-0.14059353 -0.53959626 -0.055846334
0.18802354 -0.53956234 -0.055988669
0.20372361 -0.54125273 -0.048905373
0.20371023 -0.52623284 -0.049029529
-0.15597229 -0.52598143 -0.050118029
-0.14058565 -0.52463222 -0.055960238
0.1880112 -0.52459717 -0.056111932
-0.15596274 -0.51097178 -0.050242186
-0.14057775 -0.50966984 -0.056074142
0.18799886 -0.5096339 -0.056235373
0.20369683 -0.51121485 -0.049153686
-0.15595391 -0.49596623 -0.050356686
-0.14056987 -0.49470931 -0.056187928
0.18798652 -0.49467251 -0.056358635
0.20368347 -0.49619877 -0.049277961
-0.15594511 -0.48096243 -0.050471127
-0.14056133 -0.47974852 -0.05631125
0.18797418 -0.47971308 -0.056481898
0.20367008 -0.48118463 -0.049402058
-0.17141202 -0.46713611 -0.044711053
-0.1559363 -0.46596026 -0.050585568
-0.14055344 -0.46479157 -0.056424975
0.2036567 -0.46617237 -0.049526155
-0.17140146 -0.45208859 -0.044835687
-0.15592748 -0.45096001 -0.050700068
0.20364435 -0.45116386 -0.049640834
-0.17139171 -0.43704474 -0.044950962
-0.15591793 -0.43595967 -0.050824106
0.20363097 -0.43615541 -0.049764872
-0.17138197 -0.42200273 -0.045065939
-0.15590912 -0.42096299 -0.050938427
0.2036176 -0.42114881 -0.049889028
-0.17137222 -0.40696245 -0.045181096
-0.15590031 -0.40596801 -0.051052928
0.20360424 -0.4061442 -0.050013065
-0.17136247 -0.39192399 -0.045296133
-0.15589151 -0.39097491 -0.051167309
0.20359086 -0.39114136 -0.050137222
-0.17135191 -0.37688583 -0.045420945
-0.1558827 -0.37598342 -0.051281691
0.20357747 -0.37614056 -0.05026114
-0.17134216 -0.36185089 -0.045535922
-0.15587316 -0.3609924 -0.051405609
0.20356412 -0.36114162 -0.050385296
-0.17133242 -0.34681782 -0.045651078
-0.15586437 -0.34600461 -0.05151999
0.20355074 -0.34614462 -0.050509393
-0.17132267 -0.33178645 -0.045766056
-0.15585555 -0.33101857 -0.051634312
0.20353739 -0.33114955 -0.050633311
-0.17131294 -0.3167569 -0.045881152
-0.15584676 -0.31603423 -0.051748633
0.20352402 -0.3161563 -0.050757349
-0.17130239 -0.30172798 -0.046005726
-0.15583797 -0.30105171 -0.051863015
0.20351066 -0.30116501 -0.050881267
-0.17129266 -0.28670216 -0.046120703
-0.15582843 -0.28606984 -0.051986873
0.20349731 -0.2861757 -0.051005244
-0.17128292 -0.27167791 -0.04623574
-0.15581964 -0.27109092 -0.052101076
0.20348497 -0.27118915 -0.051119685
-0.17127319 -0.25665554 -0.046350718
-0.15581082 -0.25611374 -0.052215457
0.20347163 -0.25620353 -0.051243603
-0.20121445 -0.24157655 -0.047155023
0.24894135 -0.24158627 -0.047040164
-0.231215 -0.22656593 -0.047231674
0.27843955 -0.22631067 -0.050547481
-0.23043737 -0.21109527 -0.053966045
-0.23059992 -0.19622973 -0.052558124
0.27765062 -0.19602133 -0.055941343
-0.2155835 -0.18123996 -0.053053021
0.2628043 -0.18111962 -0.055286407
-0.17121398 -0.16655794 -0.047049761
-0.15575732 -0.16628723 -0.052910328
0.20339254 -0.16633034 -0.051977277
0.21918142 -0.16665888 -0.044864476
-0.17120343 -0.15154761 -0.047174275
-0.15574782 -0.15132213 -0.053034008
0.2033792 -0.15135799 -0.052101076
0.21916702 -0.15163174 -0.044989169
-0.17119372 -0.13653958 -0.047289073
-0.15573901 -0.13635917 -0.05314815
0.20336586 -0.13638759 -0.052224874
0.21915263 -0.13660656 -0.045113981
-0.17118399 -0.12153322 -0.047403991
-0.1557295 -0.12139775 -0.05327189
0.20335251 -0.12141904 -0.052348673
0.21913934 -0.12158345 -0.045229077
-0.17117345 -0.10652858 -0.047528327
-0.15572073 -0.10643838 -0.053386092
0.20333917 -0.10645244 -0.052472532
0.21912494 -0.10656207 -0.045353651
-0.17116374 -0.091525882 -0.047643125
-0.15571192 -0.091480799 -0.053500116
0.20332687 -0.091487743 -0.052586734
0.21911053 -0.091542482 -0.045478463
-0.17115402 -0.076524943 -0.047757983
-0.15570241 -0.076524943 -0.053623796
0.20331353 -0.076524943 -0.052710414
0.21909614 -0.076524876 -0.045603096
-0.17114349 -0.061525844 -0.047882318
-0.15569364 -0.061570894 -0.053737819
0.20330018 -0.061564021 -0.052834213
0.21908176 -0.061509274 -0.04572767
-0.17113377 -0.046528503 -0.047997117
-0.15568484 -0.046618637 -0.053851962
0.20328686 -0.046604857 -0.052957952
0.21906735 -0.046495475 -0.045852423
-0.17112322 -0.031533137 -0.048121393
-0.15567534 -0.031668287 -0.053975642
0.20327353 -0.031647734 -0.053081512
0.21905409 -0.031483434 -0.04596734
-0.17111352 -0.016539495 -0.048236191
-0.15566655 -0.016719662 -0.054089665
0.2032602 -0.016692448 -0.053205252
0.21903971 -0.016473368 -0.046091974
-0.17110381 -0.0015474781 -0.04835093
-0.15565777 -0.0017727986 -0.054203629
0.20324789 -0.0017387494 -0.053319454
0.2190253 -0.0014653131 -0.046216607
-0.17109409 0.01344271 -0.048465669
-0.15564899 0.013172373 -0.054317713
0.20323457 0.01321277 -0.053443074
0.21901092 0.013540812 -0.046341062
-0.17108436 0.028431095 -0.048580348
-0.15564021 0.028115779 -0.054431677
0.20322125 0.028162487 -0.053566694
0.21899655 0.028545097 -0.046465635
-0.17107466 0.043417752 -0.048695147
-0.15563144 0.043057494 -0.054545701
0.20320791 0.043110162 -0.053690374
0.21898217 0.043547377 -0.04659009
-0.17106494 0.05840268 -0.048809767
-0.15562266 0.057997383 -0.054659665
0.2031946 0.05805596 -0.053813934
0.2189689 0.058548488 -0.046705127
-0.17105524 0.073385783 -0.048924387
-0.1556139 0.072935499 -0.054773748
0.20318128 0.072999932 -0.053937554
0.21895452 0.073547058 -0.046829522
-0.17104554 0.088367201 -0.049039125
-0.15560512 0.087871887 -0.054887593
0.20316899 0.087942682 -0.054051518
0.21894015 0.088543691 -0.046954036
-0.17103502 0.10334591 -0.049163222
-0.15559562 0.1028057 -0.055011213
0.20315568 0.10288287 -0.054175138
0.21892577 0.10353849 -0.04707849
-0.17102531 0.11832366 -0.049277902
-0.15558684 0.11773851 -0.055125058
0.20314234 0.11782119 -0.054298818
0.21891141 0.11853125 -0.047202885
-0.17101561 0.13329965 -0.049392462
-0.15557806 0.13266945 -0.055238962
0.20312904 0.13275757 -0.05442214
0.21889704 0.13352215 -0.04732734
-0.1555693 0.14759886 -0.055352926
0.20311573 0.14769202 -0.054545701
-0.1710059 0.14827389 -0.049507141
0.21888377 0.14851224 -0.047442257
-0.1709954 0.16324517 -0.049631238
-0.15555981 0.16252527 -0.055476308
0.20310242 0.16262463 -0.054669201
0.2188694 0.16349947 -0.047566712
-0.17098568 0.17821583 -0.049745739
-0.15555105 0.1774509 -0.055590153
0.20309015 0.17755657 -0.054783285
0.21885504 0.17848462 -0.047690988
-0.17097598 0.1931847 -0.049860358
-0.15554227 0.19237489 -0.055703998
0.20307684 0.19248548 -0.054906666
0.2188407 0.193468 -0.047815442
-0.15553351 0.20729727 -0.055817962
-0.17096628 0.20815176 -0.049974978
0.20306353 0.20741242 -0.055030167
0.21882634 0.20844948 -0.047939658
-0.17095578 0.22311568 -0.050099015
-0.155524 0.22221616 -0.055941224
0.20305023 0.22233748 -0.055153549
0.21881197 0.22342891 -0.048063993
-0.17094608 0.23807922 -0.050213397
-0.15551525 0.23713484 -0.056055129
0.20303693 0.23726064 -0.05527705
0.21879873 0.23840815 -0.048178792
-0.17093639 0.25304094 -0.050328076
-0.15550649 0.25205168 -0.056168914
0.20302466 0.2521835 -0.055390894
0.21878436 0.25338385 -0.048303068
-0.17092669 0.26800096 -0.050442576
-0.15549773 0.26696694 -0.056282759
0.20301136 0.26710296 -0.055514216
0.21877003 0.26835775 -0.048427343
-0.17091618 0.2829574 -0.050566494
-0.15548822 0.28187862 -0.056405902
0.20299806 0.28202051 -0.055637598
0.21875568 0.28332958 -0.048551559
-0.1709065 0.29791376 -0.050680995
-0.15547949 0.29679015 -0.056519866
0.20298477 0.29693612 -0.05576098
0.21874133 0.29829967 -0.048675954
-0.1708968 0.31286848 -0.050795436
0.20297147 0.31184995 -0.055884302
0.21872698 0.31326777 -0.04880023
-0.17088713 0.32782131 -0.050909817
0.20295818 0.32676172 -0.056007683
0.21871373 0.32823592 -0.04891479
-0.17087662 0.34277046 -0.051033795
0.20294592 0.34167376 -0.056121528
0.2186994 0.34320036 -0.049039006
-0.18642932 0.35914168 -0.044778168
-0.17086692 0.35771969 -0.051148236
0.20293263 0.35658193 -0.056244731
0.21868505 0.35816291 -0.049163222
-0.17085725 0.37266725 -0.051262617
0.20291933 0.37148812 -0.056367993
-0.18641692 0.37413374 -0.044912457
0.2186707 0.37312341 -0.049287319
-0.18640363 0.38912135 -0.045056403
-0.17084755 0.38761297 -0.051377058
0.20290606 0.3863925 -0.056491375
0.21865638 0.38808203 -0.049411595
-0.18639033 0.40410665 -0.045200288
-0.17083706 0.40255478 -0.051500916
0.21864314 0.40304112 -0.049526155
-0.18637793 0.41909233 -0.045334518
-0.17082739 0.41749692 -0.051615179
0.21862881 0.41799599 -0.049650311
-0.18636464 0.43407336 -0.045478463
-0.1708177 0.43243727 -0.05172956
0.21861447 0.43294904 -0.049774408
-0.18635224 0.44905493 -0.045612693
-0.17080802 0.44737604 -0.051843941
0.21860015 0.44790015 -0.049898565
-0.18633895 0.46403149 -0.045756519
-0.17079753 0.46231017 -0.05196774
0.21858582 0.46284929 -0.050022602
-0.18632655 0.47900882 -0.045890629
-0.17078786 0.47724542 -0.052081943
0.21857259 0.47779927 -0.050137162
-0.18631329 0.49398121 -0.046034455
-0.17077819 0.49217859 -0.052196324
0.21855827 0.49274477 -0.050261199
-0.18630087 0.50895429 -0.046168566
-0.1707685 0.50711036 -0.052310526
0.21854395 0.5076884 -0.050385237
-0.20094945 0.52284735 -0.049803138
-0.18543494 0.52108008 -0.055542707
0.23309092 0.52158612 -0.053899407
0.24861352 0.52292675 -0.049545348
0.26426303 0.52440065 -0.044758916
-0.2310736 0.53825694 -0.048456073
0.27839631 0.53750342 -0.05084312
-0.18723156 -0.57448977 -0.036093771
0.23550245 -0.5749402 -0.034320414
-0.17148112 -0.57250786 -0.043894947
0.21956764 -0.57311136 -0.041519701
-0.18721814 -0.55936408 -0.036238968
-0.17147136 -0.55744976 -0.044010162
0.21955319 -0.55803239 -0.041644931
0.23548692 -0.55980563 -0.034446537
-0.18720563 -0.5442431 -0.03637445
-0.17146161 -0.54239339 -0.044125438
0.21953873 -0.54295546 -0.041769981
0.2354714 -0.54467303 -0.034572601
-0.18719222 -0.52912188 -0.036519587
-0.17145103 -0.5273366 -0.04425019
0.21952541 -0.5278827 -0.041885555
0.23545587 -0.52954239 -0.034698546
0.23544034 -0.51441365 -0.03482461
-0.1871797 -0.51400501 -0.036655128
-0.17144129 -0.51228374 -0.044365525
0.21951096 -0.51280946 -0.042010665
-0.1871663 -0.49888822 -0.036800206
-0.17143153 -0.49723279 -0.044480681
0.21949653 -0.49773818 -0.042135775
0.23542483 -0.49928692 -0.034950614
-0.18715379 -0.48377571 -0.036935627
-0.17142178 -0.48218352 -0.044595897
0.21948208 -0.48266894 -0.042260766
0.2354093 -0.48416203 -0.035076618
-0.18714038 -0.46866331 -0.037080765
0.21946764 -0.46760151 -0.042385817
0.23539379 -0.46903917 -0.035202742
-0.18712789 -0.45355499 -0.037216127
0.2194532 -0.45253596 -0.042510867
0.23537828 -0.45391828 -0.035328567
-0.18711446 -0.438447 -0.037361145
0.21943875 -0.43747246 -0.042635977
0.23536275 -0.4387992 -0.035454571
-0.18710198 -0.42334294 -0.037496507
0.21942432 -0.42241088 -0.042760968
0.23534845 -0.42368382 -0.0355708
-0.18708858 -0.40823936 -0.037641466
0.23533294 -0.40856871 -0.035696626
0.2194099 -0.40735117 -0.042885959
-0.18707608 -0.39313954 -0.037776828
0.21939546 -0.39229339 -0.04301095
0.23531742 -0.39345551 -0.03582257
-0.18706268 -0.37804034 -0.037921786
0.21938103 -0.37723762 -0.043135881
0.23530193 -0.37834412 -0.035948396
-0.18705019 -0.36294478 -0.038057148
0.2193666 -0.36218363 -0.043260932
0.23528641 -0.36323476 -0.0360744
-0.1870368 -0.34784997 -0.038201988
0.21935329 -0.34713298 -0.043376207
0.2352709 -0.34812731 -0.036200225
-0.18702431 -0.33275864 -0.038337231
0.21933885 -0.33208293 -0.043501019
0.23525542 -0.33302185 -0.036326051
-0.18701091 -0.31766823 -0.038482249
0.21932444 -0.31703466 -0.04362601
0.23523992 -0.31791827 -0.036451995
-0.18699844 -0.30258116 -0.038617253
0.21931002 -0.30198833 -0.043750942
0.23522443 -0.30281666 -0.036577702
-0.18698506 -0.28749514 -0.038762152
0.21929561 -0.286944 -0.043875754
0.23520894 -0.28771695 -0.036703527
-0.18697257 -0.2724123 -0.038897395
0.21928118 -0.27190164 -0.044000566
0.23519345 -0.27261928 -0.036829233
-0.18695919 -0.25733063 -0.039042115
0.21926677 -0.25686109 -0.044125438
0.23517795 -0.25752345 -0.036954999
0.26573229 -0.24267733 -0.034155488
-0.24781293 -0.22756213 -0.034291208
0.29579705 -0.22750014 -0.03509599
-0.24686334 -0.21192428 -0.042000949
0.29450592 -0.21182162 -0.043481886
-0.24696651 -0.19693144 -0.041163504
0.29466134 -0.19685087 -0.042472363
-0.2318223 -0.18183699 -0.041972101
0.27935216 -0.18171126 -0.044307828
-0.18688254 -0.16688946 -0.039871812
0.23508742 -0.16699031 -0.037689865
-0.18686917 -0.15182316 -0.040016592
0.23507196 -0.15190785 -0.037815452
-0.18685582 -0.13675906 -0.040161252
0.23505647 -0.13682744 -0.037941098
-0.18684337 -0.12169738 -0.040296197
0.23504102 -0.12174892 -0.038066745
-0.18683 -0.10663764 -0.040440857
0.23502555 -0.10667229 -0.038192391
-0.18681663 -0.091580205 -0.040585279
0.23501007 -0.091597691 -0.038317859
-0.1868033 -0.076524913 -0.04072988
0.2349958 -0.07652498 -0.03843385
-0.18678993 -0.061471909 -0.040874362
0.23498034 -0.061454073 -0.038559377
-0.18677747 -0.046420954 -0.041009307
0.23496488 -0.046385102 -0.038684964
-0.18676414 -0.031372219 -0.041153789
0.23494941 -0.03131818 -0.038810432
-0.18675078 -0.016325776 -0.04129827
0.23493396 -0.016253054 -0.038936019
-0.18673745 -0.0012815818 -0.041442573
0.23491849 -0.0011900067 -0.039061427
-0.18672499 0.013760805 -0.041577458
0.23490423 0.0138717 -0.039177239
-0.18671343 0.028801754 -0.041702569
0.23488878 0.028931051 -0.039302766
-0.18670098 0.043840155 -0.041837454
0.23487334 0.043988489 -0.039428115
-0.18668854 0.058876418 -0.041972101
0.23485789 0.059043966 -0.039553583
-0.18667519 0.073909856 -0.042116404
0.23484243 0.074097522 -0.039678991
-0.18666275 0.088941954 -0.04225117
0.234827 0.08914911 -0.039804339
-0.18664855 0.10397016 -0.042405069
0.23481154 0.10419881 -0.039929807
-0.18663611 0.11899788 -0.042539716
0.2347973 0.11924749 -0.040045381
-0.18662278 0.13402256 -0.042684019
0.23478186 0.13429347 -0.040170848
0.25078252 0.13506943 -0.032971323
-0.18661034 0.14904618 -0.042818487
0.23476642 0.14933747 -0.040296257
0.25076598 0.15016866 -0.033097565
-0.18659702 0.16406658 -0.042962849
0.23475099 0.16437957 -0.040421486
0.25075072 0.1652672 -0.033214033
-0.18658459 0.17908588 -0.043097377
0.23473556 0.17941958 -0.040546834
0.25073421 0.18036273 -0.033340216
-0.18657126 0.19410178 -0.04324162
0.23472013 0.19445786 -0.040672004
0.2507177 0.19545627 -0.033466458
-0.18655884 0.20911691 -0.043376148
0.23470588 0.20949554 -0.040787697
0.25070119 0.21054792 -0.033592701
-0.18654554 0.22412843 -0.043520212
0.23469046 0.22452992 -0.040912867
0.25068468 0.22563761 -0.033718824
-0.1865322 0.23913792 -0.043664336
0.23467503 0.23956245 -0.041038156
0.25066817 0.24072525 -0.033845007
-0.18651977 0.2541467 -0.043798923
0.23465961 0.25459304 -0.041163325
0.25065294 0.25581276 -0.033961415
-0.18650647 0.26915166 -0.043942988
0.23464419 0.2696217 -0.041288614
0.25063643 0.27089664 -0.034087539
-0.18649407 0.28415635 -0.044077456
0.23462877 0.28464836 -0.041413844
0.25061992 0.28597862 -0.034213722
-0.18648076 0.2991569 -0.044221282
0.23461454 0.29967508 -0.041529357
0.25060344 0.30105865 -0.034339786
-0.18646833 0.31415731 -0.04435581
0.23459913 0.31469801 -0.041654527
0.25058693 0.31613681 -0.034465849
-0.20263873 0.33155996 -0.032922566
-0.18645504 0.32915366 -0.044499755
0.23458371 0.32971901 -0.041779697
0.25057042 0.33121297 -0.034591913
-0.20262416 0.3466427 -0.033068419
-0.18644261 0.34414986 -0.044634163
0.2345683 0.34473813 -0.041904747
0.25055519 0.3462894 -0.034708261
0.23455289 0.35975528 -0.042029858
-0.20261055 0.36172557 -0.033204317
0.25053871 0.36136159 -0.034834266
-0.20259598 0.37680396 -0.033349991
0.2345375 0.37477055 -0.042154908
0.2505222 0.37643209 -0.03496033
-0.20258433 0.39188701 -0.033466458
0.23452327 0.38978618 -0.042270362
0.25050572 0.39150059 -0.035086274
-0.20257169 0.40696624 -0.033592641
0.23450786 0.4047977 -0.042395413
0.25048923 0.40656719 -0.035212219
0.23449247 0.41980729 -0.042520523
-0.20255713 0.42203826 -0.033738196
0.25047275 0.42163175 -0.035338223
-0.20254353 0.43711063 -0.033874094
0.23447706 0.4348149 -0.042645633
0.25045756 0.43669704 -0.035454392
-0.20252897 0.45217839 -0.034019649
0.23446167 0.44982067 -0.042770565
0.25044107 0.45175794 -0.035580337
-0.20251538 0.46724656 -0.034155428
0.23444745 0.46482703 -0.0428859
0.25042459 0.46681669 -0.035706401
-0.20250082 0.48230979 -0.034300923
0.23443206 0.47982898 -0.04301095
0.25040811 0.48187378 -0.035832167
-0.20248723 0.49737379 -0.034436643
0.23441666 0.49482915 -0.043135822
0.25039163 0.49692866 -0.035958052
-0.20247267 0.51243275 -0.034582198
0.23440127 0.5098272 -0.043260932
0.25037515 0.51198179 -0.036084056
-0.21670721 0.52505726 -0.042626321
-0.23262973 0.52741182 -0.034979641
0.28055075 0.52706289 -0.036113024
-0.24721351 0.54119152 -0.039157927
0.29503205 0.54090524 -0.040064752
-0.20347922 -0.56224996 -0.024524152
0.25153717 -0.56158954 -0.027204633
-0.20346452 -0.54703587 -0.024671078
0.25152054 -0.54640108 -0.027331591
-0.2034508 -0.5318265 -0.024808109
0.25150391 -0.53121436 -0.027458668
-0.20343609 -0.51661694 -0.024955034
0.25148731 -0.51602978 -0.027585566
-0.20342238 -0.50141186 -0.025092065
0.251472 -0.50084913 -0.027702749
-0.20340768 -0.48620683 -0.025238931
0.25145537 -0.48566827 -0.027829766
-0.20339397 -0.47100601 -0.025376022
0.25143877 -0.4704895 -0.027956545
-0.20337927 -0.45580539 -0.025522768
0.25142217 -0.45531255 -0.028083503
-0.20336558 -0.44060883 -0.025659859
0.25140554 -0.44013759 -0.028210342
-0.20335087 -0.42541271 -0.025806546
0.25138894 -0.42496464 -0.02833724
-0.20333718 -0.4102205 -0.025943518
0.25137237 -0.40979362 -0.028464079
-0.2033225 -0.39502877 -0.026090324
0.25135577 -0.39462453 -0.028590918
-0.20330879 -0.37984079 -0.026227176
0.25133914 -0.37945735 -0.028717756
-0.2032941 -0.36465365 -0.026373863
0.25132257 -0.36429223 -0.028844535
-0.2032804 -0.34946999 -0.026510775
0.25130597 -0.34912899 -0.028971314
-0.20326574 -0.33428714 -0.026657403
0.25129065 -0.33396903 -0.029088378
-0.20325205 -0.31910783 -0.026794195
0.25127405 -0.31880963 -0.029215038
-0.20323737 -0.30392945 -0.026940823
0.25125748 -0.30365226 -0.029341877
-0.20322368 -0.28875437 -0.027077675
0.25124088 -0.28849673 -0.029468656
-0.20320901 -0.27358052 -0.027224123
0.25122431 -0.27334321 -0.029595315
-0.20319533 -0.25840971 -0.027360916
0.25120774 -0.25819162 -0.029722035
-0.21798459 -0.24296367 -0.030773818
-0.26463145 -0.22857076 -0.021187782
-0.26349166 -0.21276277 -0.029897332
0.31186575 -0.21281889 -0.029088259
-0.26355159 -0.19765347 -0.02943939
0.31194773 -0.19770628 -0.028581262
-0.24824737 -0.18244106 -0.030763984
0.29641452 -0.18242368 -0.031085253
-0.20311129 -0.16742852 -0.028200507
0.25110957 -0.16732371 -0.030471921
-0.20309664 -0.15227234 -0.028346956
0.25109303 -0.15218563 -0.03059864
-0.20308201 -0.13711828 -0.028493404
0.25107646 -0.13704962 -0.030725181
-0.20306736 -0.12196659 -0.028639734
0.25105989 -0.12191547 -0.030851722
-0.20305271 -0.10681714 -0.028785944
0.25104463 -0.10678351 -0.030968487
-0.20303905 -0.091669984 -0.028922617
0.25102806 -0.09165328 -0.031094909
-0.2030244 -0.076524913 -0.029068887
0.25101149 -0.076524943 -0.03122139
-0.20300977 -0.061382093 -0.029215097
0.25099495 -0.061398521 -0.03134799
-0.20299515 -0.046241634 -0.029361248
0.25097841 -0.046274137 -0.031474352
-0.2029805 -0.031103257 -0.029507637
0.25096184 -0.031151656 -0.031600833
-0.20296685 -0.015966997 -0.029643953
0.25094658 -0.0160308 -0.031717539
-0.20295224 -0.00083306432 -0.029790163
0.25093004 -0.00091212988 -0.03184402
-0.20293857 0.014299005 -0.029926598
0.25091347 0.014204606 -0.031970441
-0.20292589 0.029429488 -0.030053198
0.25089696 0.029319368 -0.032096803
-0.20291226 0.044557467 -0.030189574
0.25088042 0.044432148 -0.032223105
-0.20289762 0.05968263 -0.030335665
0.25086388 0.059543066 -0.032349467
-0.20288399 0.074806236 -0.030471981
0.25084862 0.074652784 -0.032466114
-0.20286937 0.089927025 -0.030618072
0.25083208 0.089759864 -0.032592416
-0.20285574 0.10504643 -0.030754447
0.25081557 0.10486493 -0.032718718
-0.20284112 0.12016279 -0.030900359
0.25079903 0.11996812 -0.03284502
-0.2028275 0.13527781 -0.031036556
-0.20281288 0.15038979 -0.031182647
-0.20279925 0.16550061 -0.031318784
-0.20278464 0.18060821 -0.031464696
0.26754141 0.18196473 -0.021099269
-0.20277005 0.19571346 -0.031610608
0.26751962 0.19714814 -0.021256566
-0.20275642 0.21081781 -0.031746805
0.26749784 0.21232918 -0.021413803
-0.20274182 0.22591871 -0.031892598
0.26747742 0.22750926 -0.021561146
-0.2027282 0.24101886 -0.032028675
0.26745564 0.24268562 -0.021718383
-0.20271362 0.25611532 -0.032174528
0.26743385 0.25785953 -0.021875501
-0.20269999 0.27121118 -0.032310665
0.2674121 0.27303103 -0.022032678
-0.2026854 0.28630322 -0.032456458
0.26739031 0.28820011 -0.022189856
-0.20267083 0.30139309 -0.032602012
0.26736856 0.30336669 -0.022346973
-0.20265721 0.31648251 -0.032738149
0.26734677 0.31853089 -0.022504091
-0.21902086 0.33400512 -0.021158159
0.26732501 0.33369273 -0.02266109
-0.21900603 0.34918022 -0.021295905
0.26730326 0.34885213 -0.022818089
-0.21899122 0.36435321 -0.021433413
0.2672815 0.36400917 -0.022975087
-0.21897639 0.37952423 -0.02157104
0.26725975 0.37916365 -0.023132026
-0.21896155 0.39469299 -0.021708608
0.26723799 0.39431587 -0.023288965
-0.21894567 0.40985739 -0.02185595
0.26721627 0.4094657 -0.023445904
-0.21893087 0.42502186 -0.021993458
0.26719451 0.42461303 -0.023602784
-0.21891499 0.44018164 -0.022140741
0.26717278 0.43975791 -0.023759723
-0.21890016 0.45534185 -0.02227813
0.26715106 0.45490047 -0.023916543
-0.2188843 0.47049722 -0.022425473
0.26712933 0.47004059 -0.024073362
-0.21886948 0.48565313 -0.022562981
0.26710761 0.48517826 -0.024230182
-0.21885362 0.50080407 -0.022710085
0.26708722 0.5003165 -0.024377108
-0.21883881 0.51595581 -0.022847474
0.2670655 0.5154494 -0.024533868
-0.24873151 0.52992016 -0.026833236
0.29707366 0.52992928 -0.02680397
-0.26355413 0.54426509 -0.02941972
0.31192565 0.54448664 -0.028717756
-0.21993583 -0.56517035 -0.012668431
0.26861489 -0.5650019 -0.013352275
-0.21991982 -0.54986465 -0.012817085
0.26859155 -0.54969686 -0.013520718
-0.21990485 -0.5345636 -0.012955904
0.26856959 -0.53439659 -0.013679206
-0.21988884 -0.51926249 -0.013104558
0.26854762 -0.51909882 -0.013837636
-0.2198728 -0.50396371 -0.013253152
0.26852569 -0.50380349 -0.013996065
-0.21985786 -0.48866916 -0.013391972
0.26850373 -0.4885107 -0.014154494
-0.21984185 -0.47337481 -0.013540506
0.26848179 -0.47322017 -0.014312863
-0.21982691 -0.45808461 -0.013679206
0.26845986 -0.45793223 -0.014471114
-0.21981089 -0.44279486 -0.013827741
0.26843789 -0.44264677 -0.014629483
-0.21979596 -0.42750904 -0.013966262
0.26841596 -0.42736363 -0.014787734
-0.21977995 -0.41222373 -0.014114797
0.26839402 -0.41208294 -0.014946103
-0.21976501 -0.39694232 -0.014253378
0.26837212 -0.39680469 -0.015104413
-0.219749 -0.3816615 -0.014401793
0.26835018 -0.38152894 -0.015262604
-0.21973409 -0.36638436 -0.014540493
0.26832825 -0.36625561 -0.015420735
-0.2197181 -0.35110807 -0.014688909
0.26830634 -0.35098469 -0.015579045
-0.21970317 -0.33583531 -0.01482743
0.26828307 -0.33571491 -0.015747011
-0.21968716 -0.32056344 -0.014975727
0.26826113 -0.32044899 -0.015905023
-0.21967225 -0.30529502 -0.015114307
0.26823923 -0.3051855 -0.016063213
-0.21965626 -0.29002774 -0.015262604
0.26821736 -0.28992438 -0.016221344
-0.21964134 -0.27476364 -0.015401065
0.26819542 -0.27466577 -0.016379356
-0.21962535 -0.25950086 -0.015549362
0.26817355 -0.25940955 -0.016537368
0.31343237 -0.22870868 -0.019397199
-0.28032723 -0.21361178 -0.017642856
0.329485 -0.21383154 -0.014471173
-0.28034911 -0.19838971 -0.017485023
0.32950678 -0.19858322 -0.014342427
-0.26486191 -0.18305194 -0.019426644
0.31370962 -0.1831459 -0.017682314
-0.21953377 -0.16797361 -0.016399086
0.26804224 -0.16792351 -0.017484963
-0.2195178 -0.15272647 -0.016547263
0.26802036 -0.15268429 -0.017642915
-0.21950291 -0.13748193 -0.016685545
0.26799849 -0.13744752 -0.017800689
-0.21948694 -0.12223925 -0.016833663
0.26797664 -0.12221327 -0.017958522
-0.21947099 -0.10699885 -0.016981721
0.26795477 -0.10698134 -0.018116295
-0.21945503 -0.091760755 -0.017129779
0.26793289 -0.091751911 -0.018274009
-0.21944015 -0.07652498 -0.017267883
0.26791242 -0.076524943 -0.018421829
-0.2194242 -0.061291289 -0.017415941
0.26789057 -0.061300311 -0.018579483
-0.21940824 -0.046059921 -0.017563999
0.26786873 -0.046078004 -0.018737257
-0.2193923 -0.030830845 -0.017711937
0.26784688 -0.030858163 -0.018894911
-0.21937634 -0.015604131 -0.017859817
0.26782504 -0.015640825 -0.019052505
-0.21936147 -0.00037924945 -0.017997921
0.26780319 -0.00042588264 -0.019210041
-0.2193466 0.014843591 -0.018135965
0.26778138 0.014786698 -0.019367635
-0.21933277 0.030064732 -0.018264055
0.26775953 0.029996805 -0.01952517
-0.2193179 0.045283303 -0.0184021
0.26773772 0.045204483 -0.019682705
-0.21930197 0.060499094 -0.018549919
0.2677159 0.060409717 -0.01984024
-0.21928711 0.075713404 -0.018687963
0.26769406 0.075612582 -0.019997716
-0.21927117 0.090924703 -0.018835723
0.26767224 0.090813003 -0.020155072
-0.21925524 0.10613369 -0.018983483
0.26765043 0.10601098 -0.020312667
-0.21924038 0.12134155 -0.019121408
0.26762864 0.12120654 -0.020470083
-0.21922447 0.13654608 -0.019269168
0.26760682 0.13639978 -0.020627379
-0.21920961 0.15174949 -0.019406974
0.26758501 0.15159041 -0.020784676
-0.2191937 0.16694966 -0.019554675
0.26756322 0.16677871 -0.020942032
-0.21917884 0.18214869 -0.01969254
-0.21916293 0.19734439 -0.01984024
-0.21914701 0.21253774 -0.019987881
-0.21913217 0.22773042 -0.020125628
-0.21911626 0.2429193 -0.020273268
-0.21910141 0.25810751 -0.020410955
-0.21908551 0.27329201 -0.020558417
-0.21906856 0.2884725 -0.020715833
-0.21905266 0.30365229 -0.020863175
-0.21903782 0.31883171 -0.021001101
-0.23560165 0.33648181 -0.0092419982
-0.23558557 0.35174835 -0.0093812346
-0.23556833 0.36701053 -0.0095304847
-0.23555227 0.38227275 -0.0096696615
-0.23553504 0.39753029 -0.0098188519
-0.23551781 0.41278577 -0.0099679828
0.28446496 0.41293761 -0.0093514323
-0.2355006 0.42803887 -0.010117054
0.28444168 0.42819288 -0.0095105767
-0.23548454 0.44329217 -0.01025635
0.2844184 0.44344571 -0.0096696615
-0.23546733 0.45854071 -0.010405362
0.28439513 0.4586961 -0.0098288059
-0.23545127 0.47378978 -0.010544419
0.28437185 0.4739441 -0.0099878907
-0.23543406 0.48903385 -0.010693491
0.28434861 0.48918959 -0.010146976
-0.23541799 0.50427872 -0.010832489
0.28432536 0.50443262 -0.010306001
-0.23510303 0.51874405 -0.013560295
0.28386241 0.51877081 -0.013471127
-0.28147337 0.53529721 -0.0093713403
-0.2650089 0.53254682 -0.018303454
0.31383723 0.53298116 -0.01689285
-0.28009778 0.54745948 -0.019298792
0.3290866 0.54824066 -0.016823769
-0.2365904 -0.56812376 -0.00067931414
0.28596103 -0.56850719 0.00087720156
-0.23657417 -0.55272776 -0.00081986189
0.28593749 -0.55309433 0.00071638823
-0.23655678 -0.53733164 -0.00097030401
0.285914 -0.53768402 0.0005556345
-0.23654057 -0.52194005 -0.0011108518
0.28589049 -0.5222761 0.00039494038
-0.23652321 -0.50654846 -0.0012612939
0.28586698 -0.50687081 0.00023424625
-0.236507 -0.49116138 -0.001401484
0.28584346 -0.49146786 7.3492527e-05
-0.23648964 -0.47577429 -0.0015519261
0.28581998 -0.47606745 -8.7141991e-05
-0.23647343 -0.46039158 -0.0016922355
0.28579649 -0.46066961 -0.00024777651
-0.23645607 -0.44500908 -0.0018426776
0.28577298 -0.44527411 -0.00040835142
-0.23643869 -0.429629 -0.0019929409
0.28574803 -0.4298794 -0.00057899952
-0.23642249 -0.41425282 -0.0021333098
0.28572455 -0.41448891 -0.00073957443
-0.23640513 -0.39887735 -0.0022836328
0.28570107 -0.39910099 -0.00090003014
-0.23638897 -0.38350561 -0.0024237633
0.28567761 -0.38371554 -0.0010604858
-0.23637161 -0.36813456 -0.0025740862
0.28565413 -0.36833248 -0.0012210011
-0.23635542 -0.35276732 -0.0027142167
0.28563064 -0.35295203 -0.0013814569
-0.23633808 -0.33740082 -0.0028644204
0.28560719 -0.33757392 -0.001541853
-0.23632188 -0.32203797 -0.0030046105
0.28558373 -0.32219839 -0.0017022491
-0.23630455 -0.30667603 -0.0031547546
0.28556028 -0.30682519 -0.0018627644
-0.23628837 -0.29131755 -0.0032948852
0.28553683 -0.29145458 -0.0020230412
-0.23627102 -0.27596018 -0.0034450889
0.28551337 -0.27608642 -0.002183497
-0.23625486 -0.26060599 -0.0035851002
0.28548846 -0.26071984 -0.0023536086
-0.23623753 -0.24525326 -0.0037352443
0.28546503 -0.24535668 -0.0025140047
-0.28167337 -0.22959158 -0.0079279542
0.33135575 -0.22993818 -0.0034250021
-0.29737249 -0.21447083 -0.0052445531
0.34736806 -0.21485946 0.00036484003
-0.29735351 -0.19913551 -0.0053744316
0.34732005 -0.19947225 9.3579292e-05
-0.28166923 -0.18366992 -0.0079579353
0.33124393 -0.1838786 -0.0040852427
-0.23615555 -0.16852576 -0.0044451356
0.28530103 -0.16856316 -0.0036351085
-0.23613822 -0.1531865 -0.0045951009
0.28532591 -0.15323007 -0.0034650564
-0.23612092 -0.1378496 -0.0047450066
0.28530249 -0.13788407 -0.0036250949
-0.23610477 -0.12251522 -0.0048848391
0.28527907 -0.12254053 -0.003785193
-0.23608747 -0.10718283 -0.0050347447
0.28525567 -0.10719961 -0.0039451718
-0.23607016 -0.091852725 -0.0051847696
0.28523374 -0.091861077 -0.0040952563
-0.23605286 -0.076524913 -0.0053344965
0.28521034 -0.076524943 -0.0042552352
-0.23603556 -0.061199427 -0.0054843426
0.28518695 -0.061191179 -0.0044152737
-0.23601942 -0.045876123 -0.0056241155
0.28516355 -0.045859981 -0.0045751333
-0.23600212 -0.030555118 -0.0057739615
0.28514016 -0.030531146 -0.0047350526
-0.23598483 -0.015236575 -0.0059235692
0.28511676 -0.015204813 -0.0048950315
-0.23596869 8.0168247e-05 -0.0060634017
0.28509337 0.00011897832 -0.0050548315
-0.23595256 0.015394762 -0.006203115
0.28507 0.015440375 -0.0052146912
-0.23593758 0.030707665 -0.0063328743
0.28504664 0.030759342 -0.0053744912
-0.23592031 0.046017431 -0.006482482
0.28502327 0.046075799 -0.0055342317
-0.23590419 0.061325498 -0.006622076
0.28499991 0.061389826 -0.0056940317
-0.2358869 0.076630719 -0.0067716837
0.28497654 0.076701395 -0.0058537722
-0.23587078 0.091934524 -0.0069113374
0.28495318 0.092010416 -0.006013453
-0.23585351 0.10723508 -0.0070608854
0.28492981 0.10731714 -0.0061731339
-0.23583624 0.12253351 -0.0072103143
0.28490648 0.12262135 -0.0063327551
-0.23582013 0.13783067 -0.0073500872
0.28488311 0.13792306 -0.0064924955
-0.23580287 0.15312448 -0.007499516
0.28485978 0.15322232 -0.0066521168
-0.23578675 0.16841719 -0.0076389909
0.28483644 0.16851917 -0.006811738
-0.2357695 0.18370664 -0.0077884197
0.28481311 0.18381348 -0.0069711804
-0.2357534 0.19899502 -0.0079278946
0.28478977 0.19910547 -0.0071305633
-0.23573384 0.21427688 -0.0080972314
0.28476644 0.21439487 -0.0072901249
-0.23571889 0.22956231 -0.0082267523
0.28474313 0.22968194 -0.0074496865
-0.23570049 0.24484095 -0.0083861351
0.28471979 0.24496657 -0.007609129
-0.23568439 0.26012048 -0.0085254312
0.28469646 0.2602486 -0.007768631
-0.2356683 0.27539778 -0.008664906
0.28467315 0.27552825 -0.0079278946
-0.23565106 0.29067117 -0.0088141561
0.28464985 0.29080549 -0.008087337
-0.23563384 0.30594236 -0.0089634657
