ply
format ascii 1.0
comment PCL generated
element vertex 1329
property float x
property float y
property float z
element camera 0
property float view_px
property float view_py
property float view_pz
property float x_axisx
property float x_axisy
property float x_axisz
property float y_axisx
property float y_axisy
property float y_axisz
property float z_axisx
property float z_axisy
property float z_axisz
property float focal
property float scalex
property float scaley
property float centerx
property float centery
property int viewportx
property int viewporty
property float k1
property float k2
end_header
0.2119026 -0.1842503 -0.30722684
0.19466107 -0.16699906 -0.30597514
0.21176755 -0.16681401 -0.30898112
0.19464356 -0.14964761 -0.30622768
0.21163352 -0.14940539 -0.31072235
0.2295385 -0.1497895 -0.30359387
0.19467346 -0.13233157 -0.30579621
0.21150856 -0.13202912 -0.31234568
0.22924513 -0.13227324 -0.30705869
0.19470409 -0.11500937 -0.30535388
0.21142562 -0.11469872 -0.31342304
0.22895353 -0.11481117 -0.31050217
0.19479023 -0.097704858 -0.30411077
0.21134277 -0.097384967 -0.31449944
0.22874339 -0.09743169 -0.31298381
0.21127847 -0.080093443 -0.31533468
0.22858942 -0.080105685 -0.31480247
0.19481798 -0.063006476 -0.30370992
0.21132989 -0.062837794 -0.31466657
0.2287177 -0.062859006 -0.31328714
0.19474569 -0.045643169 -0.30475354
0.21138056 -0.045571938 -0.31400847
0.22884707 -0.045589171 -0.31175947
0.19470409 -0.02829583 -0.30535388
0.21143205 -0.02829583 -0.31333941
0.2289837 -0.028295787 -0.31014574
0.19468586 -0.010955188 -0.30561703
0.21148278 -0.011009576 -0.31268048
0.22916237 -0.010973809 -0.30803603
0.19466689 0.0063812342 -0.3058908
0.21154079 0.006288344 -0.31192696
0.22934134 0.0063808504 -0.30592251
0.19464865 0.023713829 -0.30615401
0.21162386 0.023605356 -0.31084812
0.22952065 0.023768025 -0.30380493
0.19464792 0.041049935 -0.30616444
0.21170618 0.040938765 -0.30977869
0.19470628 0.058418788 -0.30532235
0.21196494 0.05837664 -0.30641699
0.19485453 0.075860582 -0.30318242
0.17827006 -0.27268371 -0.29059911
0.17806929 -0.2549012 -0.29385918
0.19555429 -0.2549789 -0.2930823
0.17796651 -0.23731582 -0.29552823
0.19515261 -0.23700619 -0.29887998
0.21321958 -0.23781547 -0.29011899
0.1779737 -0.21990739 -0.29541135
0.19487354 -0.21927254 -0.30290818
0.21242456 -0.21948104 -0.30044645
0.17814665 -0.20270434 -0.29260308
0.17834894 -0.18549107 -0.28931803
0.23037544 -0.18518673 -0.29371029
0.22993319 -0.16743284 -0.29893297
0.24792971 -0.098065719 -0.29239011
0.19489035 -0.080386005 -0.30266541
0.24747609 -0.080509938 -0.29730088
0.24783725 -0.063165396 -0.29339105
0.24820065 -0.045760911 -0.28945702
0.22973968 0.041202284 -0.30121821
0.1781591 0.058916181 -0.29240084
0.23048723 0.058916628 -0.29239011
0.17798744 0.076229833 -0.29518825
0.21239525 0.075969353 -0.30082721
0.17794688 0.093615249 -0.29584676
0.19507267 0.093389675 -0.30003387
0.21298817 0.09376201 -0.29312479
0.17799988 0.11108413 -0.29498631
0.19536422 0.11103243 -0.29582554
0.17813812 0.12866224 -0.29274166
0.19575591 0.12884022 -0.29017228
0.17833842 0.14635237 -0.28948891
0.16151807 -0.32676288 -0.2775293
0.14409545 -0.30956405 -0.27462226
0.16128473 -0.3086727 -0.28185958
0.1790145 -0.30908513 -0.27851105
0.16113833 -0.29083532 -0.28457659
0.17857361 -0.29070908 -0.28566998
0.16108344 -0.27322301 -0.28559494
0.19613394 -0.27331769 -0.28471589
0.16114295 -0.25583869 -0.28449064
0.16143613 -0.23883803 -0.27904993
0.23196152 -0.22163756 -0.27497929
0.2309275 -0.20312096 -0.28719062
0.17875135 -0.16842733 -0.28278375
0.24913913 -0.1335555 -0.27929783
0.24853267 -0.11575954 -0.28586286
0.24856435 -0.02829583 -0.2855199
0.24893031 -0.01076992 -0.28155851
0.24929652 0.0068169031 -0.27759391
0.17883013 0.041809328 -0.28150469
0.23177394 0.07706093 -0.27719462
0.16127199 0.11187799 -0.28209603
0.21392244 0.11194627 -0.28098834
0.16112562 0.1292115 -0.28481239
0.16109268 0.14666539 -0.28542346
0.19630428 0.14690909 -0.28225738
0.16115393 0.16425774 -0.28428686
0.17860729 0.16418684 -0.28512329
0.14409144 0.18264732 -0.27470893
0.16141813 0.18221544 -0.27938414
0.12704408 -0.36430782 -0.26090729
0.12691866 -0.3461715 -0.26416594
0.14432634 -0.34541526 -0.2696234
0.16214938 -0.34594318 -0.26581359
0.1269788 -0.32871619 -0.26260328
0.14411294 -0.3271929 -0.27424371
0.17971258 -0.32811782 -0.2671755
0.14421403 -0.29228121 -0.27205515
0.19711185 -0.29244912 -0.27060115
0.144692 -0.27579749 -0.26170641
0.21455337 -0.25700939 -0.27279234
0.2503626 -0.16945767 -0.26605326
0.17995174 -0.15196118 -0.26329195
0.24974909 -0.15145454 -0.27269477
0.17995174 -0.13429478 -0.26329195
0.17995241 -0.11662867 -0.26328105
0.17995241 -0.098962121 -0.26328105
0.17995241 -0.081295505 -0.26328105
0.26824808 -0.0812869 -0.26365256
0.17995241 -0.063628957 -0.26328111
0.17995241 -0.045962401 -0.26328105
0.17995174 -0.028295787 -0.26329195
0.17995174 -0.010629343 -0.2632919
0.17995174 0.007037146 -0.26329207
0.17995174 0.024703631 -0.26329195
0.24966404 0.024465198 -0.27361572
0.25003383 0.042175524 -0.26961261
0.16182533 0.094909646 -0.2718274
0.23307806 0.095450312 -0.26179391
0.21510403 0.13053983 -0.26563901
0.14461222 0.14835802 -0.26343399
0.14413245 0.16514388 -0.27382147
0.19719011 0.16551223 -0.26947135
0.12707528 0.18399715 -0.26009655
0.17927596 0.18268837 -0.27426529
0.12692033 0.20128533 -0.26412219
0.14422554 0.20051648 -0.27180576
0.16188264 0.20062067 -0.27076381
0.12694724 0.2190208 -0.26342303
0.14451541 0.21879373 -0.26552993
0.10964361 -0.38341451 -0.25167203
0.12735283 -0.38322771 -0.2528857
0.10958146 -0.36536342 -0.25369024
0.14477395 -0.36445045 -0.25993222
0.10969837 -0.34814909 -0.24989349
0.12751739 -0.31276795 -0.24861026
0.19846612 -0.31246695 -0.25105363
0.21605523 -0.27670538 -0.25328255
0.23361041 -0.24101286 -0.25550705
0.16285315 -0.22351949 -0.25275338
0.16285315 -0.20577201 -0.25275326
0.25160038 -0.20577957 -0.25265402
0.16285315 -0.18802433 -0.25275326
0.25097969 -0.18756565 -0.25937325
0.16285315 -0.17027676 -0.2527532
0.16285375 -0.1525297 -0.25274229
0.16285375 -0.13478203 -0.25274211
0.16285375 -0.11703438 -0.25274223
0.26948571 -0.11709034 -0.25128567
0.16285375 -0.099286616 -0.25274223
0.26881251 -0.099124312 -0.25801271
0.16285375 -0.08153899 -0.25274223
0.16285375 -0.063791215 -0.25274223
0.2686511 -0.063685268 -0.25962549
0.16285375 -0.046043605 -0.25274229
0.26905665 -0.04602173 -0.25557297
0.16285375 -0.02829583 -0.25274223
0.2694625 -0.028295873 -0.25151736
0.16285375 -0.010548096 -0.25274223
0.26987091 -0.010507343 -0.2474364
0.16285375 0.0071995538 -0.25274229
0.16285315 0.024946989 -0.25275338
0.16285315 0.042694598 -0.2527532
0.16285315 0.060442246 -0.25275326
0.25111246 0.060242809 -0.25793588
0.16285315 0.07818985 -0.25275338
0.23439988 0.11408961 -0.24618375
0.21630166 0.14938594 -0.25008142
0.18086 0.20284435 -0.24854374
0.10962968 0.22023846 -0.25212449
0.1627896 0.22004364 -0.25393265
0.10958655 0.2378293 -0.25352496
0.12713268 0.23724261 -0.25860542
0.14506023 0.2378051 -0.25373429
0.10967217 0.25591335 -0.2507444
0.12746418 0.256006 -0.24999291
0.074443765 -0.42235866 -0.23140532
0.092228636 -0.42142686 -0.23690772
0.11024518 -0.42223504 -0.23213524
0.092109099 -0.40272051 -0.24208391
0.10984164 -0.40221021 -0.24524075
0.12800355 -0.40370724 -0.2359795
0.092103444 -0.38485309 -0.2423287
0.14586581 -0.38578236 -0.23629266
0.092266098 -0.36805534 -0.23528546
0.16382881 -0.36814868 -0.23464715
0.18181798 -0.3504917 -0.23298806
0.12818047 -0.29697761 -0.23138279
0.21758297 -0.29674047 -0.23343676
0.12818047 -0.27906561 -0.23138267
0.12818091 -0.26115453 -0.23137158
0.1455968 -0.26007921 -0.24211729
0.23528767 -0.26072142 -0.23569971
0.12818091 -0.24324237 -0.23137158
0.1455968 -0.24224976 -0.24211729
0.12818091 -0.22533014 -0.23137158
0.1455968 -0.22442026 -0.24211729
0.25295791 -0.22477236 -0.23795825
0.12818091 -0.20741796 -0.23137158
0.14559731 -0.20659156 -0.24210608
0.12818091 -0.18950567 -0.23137158
0.14559731 -0.18876192 -0.24210626
0.12818091 -0.1715935 -0.23137158
0.14559731 -0.17093241 -0.24210614
0.12818091 -0.15368128 -0.23137158
0.14559731 -0.15310287 -0.24210614
0.27084401 -0.15333958 -0.23771256
0.12818091 -0.13576911 -0.23137158
0.14559731 -0.13527323 -0.24210614
0.27016288 -0.13516185 -0.24451888
0.12818091 -0.1178569 -0.23137146
0.14559731 -0.11744371 -0.24210614
0.12818134 -0.099945009 -0.23136026
0.14559731 -0.099614128 -0.24210614
0.12818134 -0.082032681 -0.23136038
0.14559731 -0.081784531 -0.24210626
0.12818134 -0.064120397 -0.23136026
0.14559731 -0.063954949 -0.24210614
0.12818091 -0.046208113 -0.23137146
0.14559731 -0.046125457 -0.24210614
0.12818091 -0.02829583 -0.23137146
0.14559731 -0.028295787 -0.24210626
0.12818091 -0.010383632 -0.23137146
0.14559731 -0.010466248 -0.24210626
0.12818091 0.0075285677 -0.23137146
0.14559731 0.0073632468 -0.24210614
0.27027965 0.0073441546 -0.24335212
0.12818091 0.025440725 -0.23137146
0.14559731 0.025192829 -0.24210614
0.27068982 0.025258837 -0.23925334
0.12818091 0.043352969 -0.23137146
0.14559731 0.043022454 -0.24210614
0.27110258 0.043237261 -0.23512882
0.12818091 0.061265126 -0.23137146
0.1455968 0.060851611 -0.24211729
0.12818047 0.079176933 -0.23138279
0.1455968 0.078681104 -0.24211729
0.25255933 0.078673914 -0.24227309
0.12818047 0.097088963 -0.23138267
0.1455968 0.096510559 -0.24211729
0.12818047 0.11500114 -0.23138267
0.14559628 0.11433932 -0.24212843
0.12818004 0.13291244 -0.23139399
0.14559628 0.1321688 -0.24212843
0.12818004 0.15082458 -0.23139399
0.12818004 0.16873653 -0.23139399
0.2175148 0.16848868 -0.23432231
0.19904362 0.18560252 -0.24271816
0.11001982 0.20375401 -0.23945409
0.092213407 0.23967186 -0.23756725
0.092097536 0.25691837 -0.24258476
0.074434951 0.27613235 -0.23197806
0.092142791 0.27500072 -0.2406249
0.10988337 0.27457398 -0.24388564
0.12810659 0.27595899 -0.23330218
0.056624562 -0.44240382 -0.21935713
0.07455793 -0.4415836 -0.22399002
0.092603296 -0.44216892 -0.22068429
0.056617137 -0.42423576 -0.22032148
0.074458644 -0.40460297 -0.23043871
0.11060232 -0.33422127 -0.22053695
0.19984375 -0.33282977 -0.23116928
0.11060232 -0.31622565 -0.22053695
0.11060232 -0.29823002 -0.22053695
0.11060232 -0.2802344 -0.22053695
0.11060232 -0.26223883 -0.22053695
0.11060232 -0.24424323 -0.22053695
0.25481576 -0.24449164 -0.21784663
0.11060232 -0.22624759 -0.22053689
0.11060232 -0.20825197 -0.22053689
0.2729117 -0.20852037 -0.21705067
0.11060232 -0.1902564 -0.22053689
0.27221841 -0.19001788 -0.22397888
0.11060232 -0.17226079 -0.22053707
0.27152917 -0.17162463 -0.23086601
0.11060268 -0.1542657 -0.22052568
0.11060268 -0.13627002 -0.22052556
0.11060268 -0.11827438 -0.22052556
0.11060268 -0.1002786 -0.22052568
0.2903387 -0.10021552 -0.22257602
0.11060268 -0.082282931 -0.22052556
0.28964773 -0.082087435 -0.22898757
0.11060268 -0.064287305 -0.22052556
0.29009497 -0.064220868 -0.22483754
0.11060268 -0.0462915 -0.22052568
0.29054502 -0.046290472 -0.2206617
0.11060268 -0.02829583 -0.2205255
0.11060232 -0.010300158 -0.22053695
0.11060232 0.0076954272 -0.22053695
0.11060232 0.025690971 -0.22053695
0.11060232 0.043686606 -0.22053695
0.11060232 0.061682232 -0.22053689
0.2723735 0.061609417 -0.22242904
0.11060232 0.07967782 -0.22053689
0.11060198 0.097672895 -0.22054833
0.25402498 0.097357154 -0.22640693
0.11060198 0.11566839 -0.22054833
0.11060162 0.13366304 -0.2205596
0.23573884 0.13298331 -0.23037124
0.11060162 0.15165861 -0.2205596
0.11060198 0.16965494 -0.22054827
0.11060198 0.18765053 -0.22054827
0.16450307 0.24145395 -0.22213459
0.14624588 0.25870684 -0.22806406
0.07453236 0.25900421 -0.22565079
0.056610942 0.29554349 -0.22112632
0.074481852 0.29446211 -0.22893125
0.092367128 0.29418775 -0.23091078
0.11068866 0.29601368 -0.21773297
0.056641877 0.31412235 -0.21710765
0.074653387 0.31402257 -0.21778971
0.038619865 -0.46279329 -0.20644939
0.056705039 -0.46234006 -0.2089026
0.038619865 -0.44408262 -0.20987558
0.038619865 -0.42719242 -0.20286345
0.056707509 -0.4081364 -0.20858186
0.074668795 -0.38878515 -0.21678925
0.092859261 -0.35373223 -0.20960093
0.092859261 -0.33565244 -0.20960099
0.092859261 -0.31757253 -0.20960099
0.21913725 -0.31712359 -0.21324629
0.092859261 -0.29949284 -0.20960093
0.092859261 -0.28141302 -0.20960099
0.23699401 -0.280772 -0.21554869
0.092859261 -0.26333329 -0.20960093
0.092859261 -0.24525338 -0.20960099
0.092859261 -0.2271736 -0.20960099
0.092859529 -0.20909463 -0.20958954
0.092859529 -0.19101486 -0.20958948
0.092859529 -0.17293495 -0.20958948
0.092859529 -0.15485509 -0.20958954
0.092859529 -0.13677518 -0.20958954
0.29183826 -0.13681799 -0.20866197
0.092859529 -0.1186953 -0.20958954
0.29108623 -0.11846247 -0.21563977
0.092859529 -0.10061532 -0.20958954
0.092859529 -0.082535453 -0.20958954
0.092859529 -0.064455621 -0.20958948
0.092859529 -0.046375789 -0.20958954
0.092859529 -0.028295873 -0.20958954
0.29099548 -0.02829583 -0.21648204
0.092859529 -0.010216001 -0.20958954
0.29144877 -0.010236589 -0.21227604
0.092859529 0.0078639183 -0.20958954
0.29190245 0.0078874175 -0.2080664
0.092859261 0.025943575 -0.20960099
0.29235902 0.026076833 -0.20382994
0.092859529 0.044023752 -0.20958954
0.092859261 0.062103108 -0.20960093
0.092859261 0.08018294 -0.20960099
0.27398986 0.080336489 -0.20627731
0.092859261 0.098262727 -0.20960093
0.092859 0.11634178 -0.20961231
0.25551194 0.1162989 -0.2103104
0.092859 0.13442157 -0.20961249
0.092859 0.1525013 -0.20961243
0.23709723 0.15213808 -0.21432966
0.092859 0.17058094 -0.20961231
0.092859 0.1886607 -0.20961249
0.21983731 0.18916506 -0.20415193
0.092859 0.20674042 -0.20961243
0.20129763 0.20668313 -0.2101844
0.092859261 0.22482133 -0.20960093
0.18285342 0.22411281 -0.21617472
0.056645993 0.27814835 -0.21657306
0.038619865 0.29757869 -0.20643783
0.038619865 0.31519693 -0.20976108
0.038619865 0.33402228 -0.20491064
0.056738779 0.33408242 -0.20451981
0.020409798 -0.48354751 -0.19267875
0.038619865 -0.48360565 -0.19237691
0.020455001 -0.46425256 -0.19855058
0.075016595 -0.46505663 -0.19419873
0.020428015 -0.44670844 -0.19504505
0.1295439 -0.42836156 -0.19595999
0.14780737 -0.41045216 -0.19425672
0.16609721 -0.39251679 -0.19255102
0.074949414 -0.37342662 -0.19856215
0.18441416 -0.37455735 -0.19083136
0.074949414 -0.3552618 -0.1985622
0.20275697 -0.35657001 -0.18912065
0.074949414 -0.33709705 -0.19856215
0.074949414 -0.31893218 -0.19856215
0.074949414 -0.30076751 -0.19856215
0.23873024 -0.30117363 -0.19504493
0.074949414 -0.2826027 -0.1985622
0.074949592 -0.26443911 -0.19855058
0.25670606 -0.2645559 -0.19738317
0.074949592 -0.24627425 -0.1985507
0.074949592 -0.22810933 -0.19855058
0.2746464 -0.22801062 -0.19971693
0.074949592 -0.20994447 -0.1985507
0.074949592 -0.19177955 -0.1985507
0.074949592 -0.1736148 -0.1985507
0.29335576 -0.17385925 -0.19458127
0.074949592 -0.15544987 -0.19855058
0.29259473 -0.15528333 -0.20164269
0.074949592 -0.13728502 -0.1985507
0.074949592 -0.11912008 -0.1985507
0.074949592 -0.10095534 -0.19855058
0.074949592 -0.082790449 -0.19855058
0.3117159 -0.08291506 -0.19315475
0.074949592 -0.064625561 -0.1985507
0.31219786 -0.064772904 -0.18898076
0.074949592 -0.046460718 -0.1985507
0.074949592 -0.028295787 -0.1985507
0.074949592 -0.010131028 -0.19855058
0.074949592 0.0080338586 -0.19855058
0.074949592 0.026198747 -0.1985507
0.074949592 0.044363678 -0.1985507
0.29281721 0.04433196 -0.1995784
0.074949592 0.062528394 -0.19855058
0.074949414 0.080692858 -0.19856215
0.074949414 0.098857537 -0.19856215
0.27562875 0.099324346 -0.18990058
0.074949235 0.11702165 -0.19857371
0.074949235 0.13518628 -0.19857371
0.25701952 0.13550395 -0.19399005
0.074949235 0.15335108 -0.19857377
0.074949235 0.17151575 -0.19857377
0.23847446 0.17155875 -0.19806522
0.074949235 0.18968044 -0.19857371
0.074949414 0.20784616 -0.19856215
0.074949414 0.22601101 -0.1985622
0.074949414 0.24417576 -0.19856215
0.16628771 0.26351637 -0.18901587
0.14793821 0.28143951 -0.19142407
0.02043684 0.31718165 -0.19619131
0.093142487 0.31701407 -0.19733703
0.020453043 0.33504048 -0.19829643
0.020399783 0.35432595 -0.19137758
0.038619865 0.35454965 -0.18999356
0.0019689351 -0.50475794 -0.17768824
-0.016399462 -0.48679024 -0.17582893
0.0021065399 -0.48471239 -0.1866259
0.002094321 -0.46660233 -0.18583208
0.038619865 -0.41337788 -0.17615855
0.038619865 -0.3950406 -0.17615855
0.056870509 -0.39330873 -0.18740755
0.038619865 -0.37670332 -0.17615873
0.056870509 -0.37505811 -0.18740755
0.038619865 -0.35836613 -0.17615867
0.056870509 -0.35680744 -0.18740755
0.038619865 -0.34002882 -0.17615867
0.056870509 -0.33855683 -0.18740743
0.22112721 -0.33855832 -0.18739587
0.038619865 -0.32169157 -0.17615873
0.056870509 -0.32030606 -0.18740761
0.24049711 -0.32193545 -0.1741792
0.038619865 -0.30335435 -0.17615867
0.056870509 -0.30205551 -0.18740761
0.038619865 -0.28501713 -0.17615867
0.056870509 -0.28380483 -0.18740755
0.25862974 -0.28497407 -0.17655879
0.038619865 -0.26667991 -0.17615873
0.056870509 -0.26555422 -0.18740755
0.038619865 -0.24834268 -0.17615867
0.056870509 -0.24730353 -0.18740743
0.27672625 -0.24808629 -0.1789338
0.038619865 -0.23000543 -0.17615867
0.056870509 -0.22905299 -0.18740743
0.038619865 -0.21166916 -0.17614675
0.056870509 -0.21080232 -0.18740743
0.29489157 -0.21134704 -0.18033075
0.038619865 -0.19333178 -0.17614692
0.056870509 -0.1925516 -0.18740755
0.29412135 -0.19254681 -0.18747747
0.038619865 -0.17499447 -0.17614681
0.056870509 -0.17430092 -0.18740755
0.038619865 -0.15665717 -0.17614675
0.056870509 -0.15605032 -0.18740755
0.038619865 -0.13831978 -0.17614692
0.056870598 -0.13780023 -0.18739581
0.038619865 -0.11998253 -0.17614681
0.056870598 -0.11954951 -0.18739587
0.31336477 -0.1198775 -0.17887509
0.038619865 -0.10164521 -0.17614681
0.056870598 -0.10129878 -0.18739581
0.31253853 -0.10134077 -0.18603069
0.038619865 -0.083307818 -0.17614692
0.056870598 -0.083047979 -0.18739587
0.038619865 -0.064970545 -0.17614692
0.056870598 -0.064797349 -0.18739581
0.038619865 -0.046633143 -0.17614675
0.056870509 -0.046546504 -0.18740755
0.31269503 -0.046567563 -0.18467534
0.038619865 -0.02829583 -0.17614675
0.056870509 -0.02829583 -0.18740755
0.31319264 -0.02829583 -0.18036598
0.038619865 -0.009958474 -0.17614681
0.056870509 -0.010045201 -0.18740755
0.3136934 -0.0099575315 -0.17602909
0.038619865 0.0083786678 -0.17615855
0.056870509 0.0082054716 -0.18740743
0.038619865 0.026715854 -0.17615855
0.056870509 0.026456015 -0.18740743
0.038619865 0.045053512 -0.17614692
0.056870509 0.044706695 -0.18740743
0.038619865 0.063390315 -0.17615855
0.056870509 0.062957406 -0.18740755
0.29430246 0.063019305 -0.18579698
0.038619865 0.081727542 -0.17615855
0.056870509 0.08120808 -0.18740755
0.038619865 0.10006426 -0.17617047
0.05687042 0.099458069 -0.18741918
0.038619865 0.11840132 -0.17617035
0.05687042 0.11770856 -0.18741918
0.038619865 0.13673842 -0.17617035
0.056870326 0.13595839 -0.1874308
0.038619865 0.15507475 -0.17618221
0.056870326 0.15420884 -0.1874308
0.25854826 0.15497783 -0.17744124
0.056870326 0.17245926 -0.18743074
0.038619865 0.17341283 -0.17617047
0.038619865 0.19174998 -0.17617029
0.05687042 0.19071081 -0.18741906
0.038619865 0.21008709 -0.17617035
0.05687042 0.20896129 -0.18741918
0.038619865 0.22842541 -0.17615855
0.05687042 0.22721183 -0.18741918
0.20361666 0.22836599 -0.1767118
0.038619865 0.24676272 -0.17615855
0.056870509 0.24546385 -0.18740743
0.1849042 0.2459873 -0.18287396
0.038619865 0.2651014 -0.17614675
0.056870509 0.2637144 -0.18740743
0.038619865 0.2834388 -0.17614692
0.0021079816 0.33682293 -0.1867193
0.075287819 0.3383837 -0.17658228
-0.016404357 0.35687372 -0.17561686
0.0020781346 0.35539225 -0.18478054
-0.035145435 -0.50777036 -0.16263741
-0.016504098 -0.50603688 -0.17129821
0.020248849 -0.50594229 -0.17177093
-0.03512894 -0.48922586 -0.1631729
-0.016609676 -0.4701322 -0.16672641
0.0017639622 -0.45213878 -0.16437441
0.11212613 -0.45095685 -0.17104983
0.020195207 -0.43363822 -0.16480249
0.020195207 -0.4152137 -0.16480249
0.020195115 -0.3967908 -0.16479069
0.020195207 -0.37836432 -0.16480249
0.020195207 -0.35993969 -0.16480243
0.020195207 -0.34151503 -0.16480255
0.020195207 -0.3230904 -0.16480243
0.020195207 -0.30466565 -0.16480255
0.020195207 -0.28624105 -0.16480243
0.020195115 -0.26781756 -0.16479057
0.020195115 -0.24939281 -0.16479069
0.020195115 -0.23096813 -0.16479051
0.29706177 -0.23135729 -0.1601938
0.020195115 -0.21254329 -0.16479057
0.020195115 -0.19411854 -0.16479069
0.020195115 -0.17569387 -0.16479057
0.020195115 -0.15726906 -0.16479057
0.3150323 -0.15728831 -0.16443396
0.020195115 -0.13884436 -0.16479057
0.31419599 -0.13852626 -0.1716764
0.020195115 -0.12041954 -0.16479069
0.020195115 -0.10199481 -0.16479051
0.020195115 -0.083570093 -0.16479057
0.020195115 -0.065145321 -0.16479057
0.020195115 -0.046720598 -0.16479051
0.020195115 -0.028295873 -0.16479057
0.020195115 -0.0098710619 -0.16479057
0.020195115 0.008553708 -0.16479057
0.31419465 0.0084473733 -0.17168814
0.020195115 0.02697839 -0.16479057
0.31469908 0.02692 -0.1673196
0.020195115 0.04540316 -0.16479057
0.3152054 0.045460306 -0.16293502
0.020195115 0.063827969 -0.16479057
0.020195207 0.082252137 -0.16480249
0.29609838 0.082052104 -0.16913283
0.020195207 0.10067677 -0.16480243
0.020195298 0.11910065 -0.16481429
0.27729061 0.11857845 -0.17329425
0.020195298 0.13752531 -0.16481441
0.020195298 0.15594985 -0.16481441
0.020195298 0.1743744 -0.16481441
0.020195298 0.19279891 -0.16481441
0.24133439 0.19284724 -0.16429132
0.020195207 0.21122475 -0.16480249
0.22242649 0.2106528 -0.1705178
0.020195207 0.22964934 -0.16480243
0.020195207 0.24807408 -0.16480249
0.020195115 0.26650012 -0.16479075
0.020195024 0.28492644 -0.16477871
0.020195024 0.30335134 -0.16477871
0.13052136 0.30254954 -0.17056489
0.0018896572 0.32064119 -0.17253882
-0.016485266 0.33907178 -0.17211348
-0.035100002 0.35873342 -0.16411287
-0.035202671 0.37772804 -0.16077828
-0.016611043 0.3767308 -0.1666671
0.0018007196 0.37671483 -0.16676199
-0.053978439 -0.50980705 -0.15246129
-0.054125194 -0.49202105 -0.14864844
0.057128809 -0.49101946 -0.15385342
-0.035677213 -0.47407833 -0.14536738
0.0015940368 -0.43557993 -0.1533376
0.14996961 -0.43657818 -0.14744318
0.0015938506 -0.41706896 -0.15332562
0.16844995 -0.41778618 -0.14888936
0.0015938506 -0.39855599 -0.15332556
0.18710624 -0.39951178 -0.14711761
0.0015938506 -0.38004297 -0.15332556
0.20578995 -0.38121054 -0.14534318
0.0015938506 -0.36152998 -0.15332556
0.0015938506 -0.34301698 -0.15332544
0.0015938506 -0.32450396 -0.15332556
0.0015938506 -0.30599093 -0.15332562
0.26058766 -0.30575565 -0.15536386
0.0015938506 -0.28747788 -0.15332556
0.0015938506 -0.26896501 -0.15332556
0.27884305 -0.26851907 -0.15778124
0.0015938506 -0.25045192 -0.15332556
0.0015938506 -0.23193885 -0.15332562
0.0015938506 -0.21342593 -0.15332544
0.0015938506 -0.1949129 -0.15332556
0.31672019 -0.19515604 -0.14981633
0.0015938506 -0.17639989 -0.15332556
0.31587368 -0.17616455 -0.15714735
0.0015938506 -0.15788691 -0.15332556
0.0015938506 -0.13937388 -0.15332556
0.001593668 -0.12086135 -0.15331358
0.001593668 -0.10234819 -0.15331358
0.33544263 -0.10250152 -0.14833522
0.001593668 -0.083835155 -0.15331364
0.33453858 -0.083780572 -0.15567523
0.0015938506 -0.065321818 -0.15332556
0.33499068 -0.065342233 -0.15200484
0.0015938506 -0.046808869 -0.15332562
0.33553764 -0.046853259 -0.14756376
0.0015938506 -0.028295873 -0.15332556
0.0015938506 -0.0097828358 -0.15332556
0.0015938506 0.0087302011 -0.15332562
0.0015938506 0.02724315 -0.15332544
0.0015938506 0.045756146 -0.15332556
0.0015938506 0.064269222 -0.15332556
0.3169288 0.0644738 -0.1480099
0.0015938506 0.082782172 -0.15332544
0.0015940368 0.10129461 -0.15333754
0.29791972 0.10135406 -0.152233
0.0015940368 0.11980747 -0.15333754
0.0015942194 0.13831952 -0.15334958
0.27897593 0.13810451 -0.15645355
0.0015942194 0.1568324 -0.15334958
0.0015942194 0.17534521 -0.15334952
0.26034227 0.17494968 -0.15802032
0.0015940368 0.1938591 -0.15333754
0.0015940368 0.21237209 -0.15333742
0.0015940368 0.230885 -0.15333754
0.0015938506 0.24939927 -0.15332556
0.0015938506 0.2679123 -0.15332544
0.18701343 0.26849136 -0.1486243
0.001593668 0.28642678 -0.15331358
0.001593668 0.30493987 -0.15331358
0.11279477 0.32403487 -0.14933491
-0.035447683 0.34204182 -0.15282142
-0.054075141 0.36102316 -0.14994895
0.057116445 0.36013228 -0.1554597
-0.053991843 0.37919563 -0.1521129
-0.073267698 -0.53178996 -0.13579875
-0.054379519 -0.5304926 -0.14204085
-0.035750192 -0.53029376 -0.14299744
-0.073030323 -0.51211345 -0.1409381
-0.073454723 -0.49527332 -0.13174969
-0.017186198 -0.4561424 -0.14176232
-0.017186482 -0.43754229 -0.14175016
-0.017186482 -0.41894028 -0.14175016
-0.017186482 -0.40033817 -0.14175016
-0.017186482 -0.38173604 -0.14175022
-0.017186482 -0.36313391 -0.14175022
0.22450215 -0.36288396 -0.14355391
-0.017186482 -0.34453183 -0.14175016
0.24324107 -0.34452865 -0.14177436
-0.017186482 -0.32592973 -0.14175004
0.26258075 -0.32691029 -0.13378811
-0.017186482 -0.3073276 -0.14175022
-0.017186482 -0.28872547 -0.14175022
0.28099787 -0.28931835 -0.13624913
-0.017186482 -0.27012336 -0.14175004
-0.017186482 -0.25152123 -0.14175022
0.29937762 -0.25180253 -0.13870519
-0.017186482 -0.2329191 -0.14175016
-0.017186761 -0.21431795 -0.141738
0.31771874 -0.21436176 -0.14116848
-0.017186761 -0.19571571 -0.14173806
-0.017186761 -0.17711355 -0.141738
-0.017186761 -0.15851125 -0.141738
-0.017186761 -0.13990912 -0.14173788
0.33726892 -0.14028926 -0.13350767
-0.017186761 -0.12130684 -0.14173806
0.33635372 -0.12133762 -0.14093816
-0.017186761 -0.10270468 -0.14173806
-0.017186761 -0.084102526 -0.141738
-0.017186761 -0.065500237 -0.14173806
-0.017186761 -0.046898119 -0.141738
-0.017186482 -0.02829583 -0.14175004
0.33608517 -0.02829583 -0.1431185
-0.017186482 -0.0096937548 -0.14175004
0.33663625 -0.0096698273 -0.13864452
-0.017186482 0.0089083631 -0.14175022
0.33718783 0.0090251397 -0.13416606
-0.017186482 0.027510477 -0.14175016
-0.017186761 0.04611294 -0.14173806
-0.017186482 0.06471476 -0.14175022
-0.017186482 0.083316833 -0.14175016
0.31891498 0.083822213 -0.13080871
-0.017186198 0.10191827 -0.1417622
-0.017186198 0.12052025 -0.1417622
0.29976568 0.1209303 -0.13510454
-0.017186198 0.13912229 -0.1417622
-0.017185919 0.15772346 -0.14177436
0.28068402 0.15790732 -0.13938522
-0.017186198 0.17632639 -0.1417622
-0.017186198 0.19492842 -0.1417622
-0.017186198 0.21353041 -0.1417622
-0.017186482 0.23213369 -0.14175016
0.22509164 0.23276457 -0.13589621
-0.017186482 0.25073579 -0.14175004
0.20600197 0.25067437 -0.14228308
-0.017186761 0.26933947 -0.14173806
-0.017186761 0.28794169 -0.14173806
0.16875832 0.28775471 -0.14316678
-0.017187037 0.3065455 -0.1417259
-0.017186761 0.32514611 -0.141738
-0.073442876 0.36392376 -0.13200635
-0.073025286 0.38106972 -0.14104718
-0.073256448 0.40056345 -0.13604218
-0.054437373 0.39976746 -0.14053792
-0.035948236 0.40047064 -0.13656569
-0.11174938 -0.53579211 -0.11654353
-0.092383131 -0.53359312 -0.12712318
-0.092334911 -0.51469928 -0.12801808
-0.055294778 -0.47908616 -0.11826181
0.094699785 -0.47693524 -0.12990373
-0.055294778 -0.46030313 -0.11826193
-0.036148097 -0.45821157 -0.13007498
-0.055294778 -0.44152027 -0.11826181
-0.03614847 -0.4395217 -0.13006276
-0.055295255 -0.42273933 -0.11824942
-0.03614847 -0.42082956 -0.13006282
-0.055295255 -0.40395629 -0.11824942
-0.03614885 -0.4021394 -0.1300506
-0.055295255 -0.38517332 -0.1182493
-0.03614847 -0.38344541 -0.13006282
-0.055295255 -0.36639029 -0.11824942
-0.03614847 -0.36475334 -0.13006276
-0.055295255 -0.3476072 -0.11824942
-0.03614847 -0.34606123 -0.13006276
-0.055295255 -0.32882416 -0.11824954
-0.03614847 -0.32736924 -0.13006276
-0.055295255 -0.31004128 -0.11824942
-0.03614847 -0.30867711 -0.13006282
-0.055295255 -0.29125819 -0.11824942
-0.03614847 -0.28998506 -0.13006276
0.3017354 -0.27261743 -0.11682808
-0.055295255 -0.27247518 -0.11824942
-0.03614885 -0.27129421 -0.13005048
-0.055295255 -0.25369206 -0.11824942
-0.03614885 -0.25260201 -0.13005048
-0.055295255 -0.23490916 -0.1182493
-0.03614885 -0.2339098 -0.1300506
0.32024118 -0.23481816 -0.11932361
-0.055295255 -0.21612605 -0.11824942
-0.03614885 -0.21521759 -0.1300506
-0.055295255 -0.19734304 -0.11824954
-0.03614885 -0.19652545 -0.1300506
-0.055295255 -0.17855996 -0.11824942
-0.03614885 -0.17783333 -0.13005042
0.33911631 -0.17854406 -0.1185087
-0.055295255 -0.15977705 -0.11824942
-0.03614885 -0.15914112 -0.13005042
0.33818975 -0.15935767 -0.12603128
-0.055295255 -0.14099403 -0.11824942
-0.03614885 -0.14044893 -0.1300506
-0.055295724 -0.12221143 -0.11823714
-0.03614885 -0.12175666 -0.1300506
-0.055295724 -0.10342838 -0.11823714
-0.03614885 -0.10306456 -0.1300506
-0.055295255 -0.084644929 -0.11824942
-0.03614885 -0.084372424 -0.13005042
0.35809624 -0.084674038 -0.11698878
-0.055295255 -0.065861911 -0.11824942
-0.03614885 -0.065680236 -0.13005042
-0.055295255 -0.047078807 -0.11824942
-0.03614885 -0.04698801 -0.13005048
-0.03614885 -0.02829583 -0.13005048
-0.055295255 -0.028295787 -0.11824954
-0.055295255 -0.00951281 -0.11824942
-0.03614885 -0.0096036028 -0.1300506
-0.055295255 0.009270208 -0.11824942
-0.03614847 0.0090883207 -0.13006276
-0.055295255 0.028053271 -0.11824942
-0.03614885 0.027780632 -0.13005048
0.33774295 0.027789665 -0.129659
-0.055295255 0.046836294 -0.11824954
-0.03614885 0.046472862 -0.13005048
0.33830017 0.046624228 -0.125135
-0.055295255 0.065619223 -0.11824942
-0.03614847 0.065164529 -0.13006276
-0.055294778 0.084401727 -0.11826181
-0.03614847 0.083856672 -0.13006276
-0.055294778 0.10318467 -0.11826169
-0.03614847 0.10254872 -0.13006264
-0.055294778 0.12196755 -0.11826193
-0.036148097 0.12124005 -0.13007492
-0.055294301 0.14074972 -0.11827409
-0.036148097 0.13993211 -0.13007504
0.30163947 0.14078815 -0.11771822
-0.055294301 0.15953256 -0.11827409
-0.036148097 0.15862407 -0.13007498
-0.055294301 0.17831537 -0.11827409
-0.036148097 0.17731595 -0.13007498
0.28296742 0.17845976 -0.11656833
-0.055294778 0.19709928 -0.11826169
-0.036148097 0.19600792 -0.13007492
0.26357314 0.19665739 -0.12304515
-0.055294778 0.21588218 -0.11826181
-0.036148097 0.21470003 -0.13007504
0.2442815 0.2147588 -0.12948757
-0.055294778 0.23466513 -0.11826169
-0.03614847 0.2333934 -0.13006264
-0.055295255 0.25344953 -0.11824942
-0.03614847 0.25208545 -0.13006282
-0.055295255 0.27223253 -0.11824954
-0.03614885 0.27077892 -0.1300506
-0.055295724 0.29101712 -0.11823714
-0.036149222 0.28947279 -0.13003826
-0.055295724 0.30980027 -0.11823714
-0.036149222 0.30816501 -0.13003826
0.15117042 0.30935588 -0.12144446
-0.055295255 0.32858163 -0.11824942
-0.03614885 0.32685548 -0.13005042
-0.055294301 0.34736082 -0.11827421
0.094750136 0.34590596 -0.12772393
-0.092317745 0.38322237 -0.12833679
-0.092439324 0.40232727 -0.12608039
-0.131387 -0.53831655 -0.10439801
-0.11193626 -0.51760322 -0.11350918
-0.093320191 -0.49951026 -0.10973358
-0.0746281 -0.48128772 -0.10634553
-0.0746281 -0.46241304 -0.10634553
0.13302726 -0.46256992 -0.10545957
-0.074628666 -0.44354045 -0.10633314
-0.074628666 -0.42466572 -0.10633302
-0.074628666 -0.40579087 -0.10633314
-0.074628666 -0.38691622 -0.10633314
-0.074628666 -0.36804152 -0.10633302
-0.074628666 -0.34916669 -0.10633314
-0.074628666 -0.33029196 -0.10633302
-0.074628666 -0.31141716 -0.10633314
0.28319168 -0.3104941 -0.11432731
-0.074628666 -0.29254243 -0.10633302
-0.074628666 -0.27366769 -0.10633302
-0.074628666 -0.25479287 -0.10633314
-0.074628666 -0.23591816 -0.10633302
-0.074629247 -0.21704431 -0.10632062
-0.074628666 -0.19816867 -0.10633314
0.34004858 -0.1978495 -0.1109395
-0.074628666 -0.17929398 -0.10633302
-0.074629247 -0.16041978 -0.10632062
-0.074629247 -0.141545 -0.1063205
-0.074629247 -0.12267011 -0.10632062
-0.074629247 -0.10379519 -0.1063205
0.35908803 -0.10370007 -0.10941017
-0.074629247 -0.084920391 -0.10632062
-0.074628666 -0.066045299 -0.10633314
0.35850778 -0.065929718 -0.11384404
-0.074628666 -0.047170587 -0.10633302
0.35910594 -0.047147937 -0.10927331
-0.074628666 -0.028295873 -0.10633314
0.35970634 -0.028295873 -0.10468531
-0.074628666 -0.0094211176 -0.10633314
-0.074628666 0.0094536375 -0.10633302
-0.074628666 0.028328476 -0.10633314
-0.074628666 0.047203146 -0.10633302
-0.074628666 0.066077985 -0.10633314
0.34028906 0.065975852 -0.10898697
-0.074628666 0.084952742 -0.10633302
-0.0746281 0.10382673 -0.10634553
0.32092977 0.10344873 -0.1133604
-0.0746281 0.12270135 -0.10634553
-0.074627519 0.14157523 -0.10635805
-0.074627519 0.16044992 -0.10635805
-0.0746281 0.1793254 -0.10634553
-0.0746281 0.19820015 -0.10634553
-0.0746281 0.21707474 -0.10634553
-0.074628666 0.23595065 -0.10633314
-0.074628666 0.25482544 -0.10633314
-0.074629247 0.27370179 -0.10632062
0.20845552 0.2736342 -0.10686934
-0.074629247 0.29257667 -0.1063205
-0.074629813 0.31145316 -0.10630798
-0.074628666 0.33032447 -0.10633302
-0.074627519 0.34919536 -0.10635805
-0.093158185 0.36703822 -0.11274016
-0.1315048 0.38756445 -0.10269785
-0.11180271 0.38536632 -0.11567736
0.019763336 0.3865478 -0.10870075
-0.13143635 0.40629214 -0.10368574
-0.11184847 0.40430066 -0.11493433
-0.15122095 -0.54086608 -0.092131257
-0.1514378 -0.52244586 -0.089314103
-0.13158977 -0.52001256 -0.10147119
-0.1134629 -0.50355446 -0.088719487
-0.094151855 -0.48351318 -0.094299674
-0.094151184 -0.46454358 -0.09431231
-0.094151855 -0.44557834 -0.094299674
-0.094151855 -0.42661104 -0.094299674
0.18989958 -0.42540511 -0.1017592
-0.094152525 -0.40764555 -0.094287157
0.20893715 -0.40677875 -0.099917412
-0.094151855 -0.3886762 -0.094299674
0.22800426 -0.38812619 -0.098060369
-0.094151855 -0.36970881 -0.094299674
0.24709913 -0.36944374 -0.096212745
-0.094151855 -0.35074145 -0.094299793
0.26622388 -0.35073489 -0.0943501
-0.094151855 -0.33177415 -0.094299674
0.28542429 -0.33205515 -0.092017651
-0.094151855 -0.3128067 -0.094299674
-0.094151855 -0.29383931 -0.094299674
0.30413619 -0.2938121 -0.094551563
-0.094152525 -0.2748732 -0.094287038
-0.094152525 -0.25590566 -0.094287157
0.32280818 -0.25564653 -0.097092748
-0.094152525 -0.2369381 -0.094287157
-0.094152525 -0.21797065 -0.094287157
0.34143862 -0.21755756 -0.099654078
-0.094152525 -0.1990032 -0.094287038
-0.094152525 -0.18003574 -0.094287157
-0.094152525 -0.16106819 -0.094287038
-0.094152525 -0.14210077 -0.094287157
0.36109185 -0.1421095 -0.09409833
-0.094152525 -0.12313329 -0.094287038
0.36008602 -0.12284473 -0.10178423
-0.094152525 -0.10416585 -0.094287038
-0.094152525 -0.085198209 -0.094287157
-0.094152525 -0.066230781 -0.094287157
-0.094152525 -0.047263302 -0.094287157
-0.094152525 -0.028295873 -0.094287157
-0.094151855 -0.0093285274 -0.094299674
0.36031061 -0.0093728751 -0.10006797
-0.094151855 0.0096388627 -0.094299674
0.36091554 0.0096213538 -0.095445395
-0.094152525 0.028606592 -0.094287038
0.3615244 0.028687241 -0.090793014
-0.094152525 0.047574028 -0.094287038
-0.094151855 0.066541113 -0.094299793
-0.094151855 0.085508458 -0.094299674
0.34247711 0.08565066 -0.091222405
-0.094151855 0.10447584 -0.094299674
-0.094151184 0.12344247 -0.09431231
0.3229737 0.12335955 -0.095659494
-0.094151184 0.14240982 -0.09431231
-0.094151184 0.16137707 -0.094312191
0.30353898 0.16093218 -0.10009301
-0.094151184 0.18034446 -0.09431231
-0.094151184 0.19931158 -0.09431231
-0.094151184 0.21827897 -0.09431231
-0.094151855 0.23724762 -0.094299674
0.24731447 0.23731545 -0.093669891
-0.094151855 0.25621501 -0.094299674
0.22783427 0.2555258 -0.10026848
-0.094152525 0.27518398 -0.094287157
-0.094153211 0.29415303 -0.094274521
0.19044435 0.29433113 -0.092913389
-0.094153211 0.31312066 -0.094274521
-0.094151855 0.33208454 -0.094299674
0.13326326 0.33134916 -0.099327922
-0.094150499 0.35104799 -0.094324946
-0.1129697 0.36962661 -0.096728444
-0.15141737 0.38978598 -0.089579701
-0.15122971 0.40835816 -0.092017651
-0.17125528 -0.54344392 -0.079728484
-0.17148326 -0.52490324 -0.077036262
-0.13330127 -0.50585461 -0.076767802
0.076662384 -0.50382727 -0.087301612
-0.11386761 -0.48575827 -0.082147717
-0.11386761 -0.46669731 -0.082147598
-0.11386761 -0.4476364 -0.082147598
0.17213352 -0.44791019 -0.080531001
-0.1138684 -0.42857757 -0.082134843
-0.1138684 -0.40951648 -0.082134962
-0.1138684 -0.39045548 -0.082134962
-0.1138684 -0.37139449 -0.082134962
-0.1138684 -0.3523334 -0.082134962
-0.1138684 -0.33327234 -0.082134843
-0.1138684 -0.31421137 -0.082134843
-0.1138684 -0.29515031 -0.082134962
-0.1138684 -0.27608928 -0.082134962
0.32542089 -0.27685666 -0.07446599
-0.1138684 -0.25702825 -0.082134843
-0.1138684 -0.23796721 -0.082135081
0.34422284 -0.23839793 -0.077048898
-0.1138684 -0.21890622 -0.082134962
-0.1138684 -0.19984517 -0.082134962
-0.1138684 -0.18078403 -0.082134962
0.36311921 -0.18100142 -0.078606248
-0.1138684 -0.16172314 -0.082134962
0.36210236 -0.16149451 -0.086376548
-0.1138684 -0.14266209 -0.082134843
-0.1138684 -0.12360099 -0.082134962
-0.1138684 -0.10454003 -0.082134962
-0.1138684 -0.085478894 -0.082135081
0.38242498 -0.085596696 -0.077036023
-0.1138684 -0.066417888 -0.082134962
0.38278112 -0.066535994 -0.074465871
-0.1138684 -0.047356836 -0.082134843
-0.1138684 -0.02829583 -0.082135081
-0.1138684 -0.0092348214 -0.082134962
-0.1138684 0.0098261852 -0.082134843
-0.1138684 0.028887318 -0.082135081
-0.1138684 0.047948286 -0.082134962
0.3621372 0.047825903 -0.086110115
-0.1138684 0.067009293 -0.082134843
-0.11386761 0.086069785 -0.082147598
-0.11386761 0.10513075 -0.082147598
-0.11386761 0.12419158 -0.082147598
-0.11386684 0.14325178 -0.082160473
0.32504743 0.14356065 -0.077700138
-0.11386684 0.16231252 -0.082160234
-0.11386684 0.18137333 -0.082160473
0.30638915 0.18209437 -0.073646545
-0.11386684 0.20043428 -0.082160354
0.28659165 0.2006011 -0.080352783
-0.11386761 0.21949637 -0.082147598
0.26689956 0.21900716 -0.087035537
-0.11386761 0.23855719 -0.082147598
-0.1138684 0.25761974 -0.082134962
-0.1138684 0.27668071 -0.082134962
-0.11386918 0.29574338 -0.082122087
-0.11386918 0.31480461 -0.082122207
-0.11386761 0.33386189 -0.082147598
-0.11386606 0.35291892 -0.082173109
0.11502808 0.35374531 -0.076806068
-0.13308203 0.37234193 -0.079932213
-0.17154384 0.39203152 -0.076320529
-0.17123693 0.41049567 -0.079944968
-0.19149096 -0.54604524 -0.067212939
-0.19172908 -0.52738523 -0.064635515
-0.15333261 -0.5081771 -0.064699769
-0.13377881 -0.48802564 -0.069875121
0.11548397 -0.48948047 -0.062000751
-0.13377881 -0.46887028 -0.06987524
-0.13377969 -0.44971699 -0.069862366
-0.13377969 -0.43056145 -0.069862247
-0.13377969 -0.41140592 -0.069862366
-0.13377969 -0.39225054 -0.069862366
-0.13377969 -0.37309501 -0.069862247
-0.13377969 -0.35393947 -0.069862366
-0.13377969 -0.33478394 -0.069862247
-0.13377969 -0.31562841 -0.069862366
0.30657977 -0.31539571 -0.071877837
-0.13377969 -0.29647297 -0.069862366
-0.13377969 -0.27731749 -0.069862247
-0.13377969 -0.2581619 -0.069862366
-0.1337806 -0.2390075 -0.069849372
-0.1337806 -0.21985188 -0.069849491
-0.13377969 -0.20069538 -0.069862247
0.36414251 -0.20063138 -0.070786953
-0.13377969 -0.18153992 -0.069862247
-0.1337806 -0.16238511 -0.069849491
-0.1337806 -0.14322941 -0.069849491
-0.1337806 -0.12407392 -0.069849372
0.38460153 -0.12440187 -0.061328292
-0.1337806 -0.10491827 -0.069849372
0.38350981 -0.10493805 -0.069206953
-0.13377969 -0.085762404 -0.069862247
-0.13377969 -0.066606879 -0.069862247
-0.13377969 -0.047451399 -0.069862247
0.38343504 -0.047452252 -0.069746614
-0.13377969 -0.02829583 -0.069862366
0.38409144 -0.028295787 -0.065009475
-0.13377969 -0.0091403481 -0.069862247
0.38475215 -0.0090662502 -0.060241103
-0.13377969 0.010015132 -0.069862247
-0.13377969 0.029170701 -0.069862366
-0.13377969 0.048326187 -0.069862247
-0.13377969 0.067481667 -0.069862366
0.36441824 0.067527212 -0.068679929
-0.13377969 0.086637236 -0.069862247
-0.13377881 0.10579194 -0.069875121
0.34469712 0.10561296 -0.073198199
-0.13377881 0.12494743 -0.069875002
-0.13377792 0.14410198 -0.069888115
-0.13377792 0.16325724 -0.069887877
0.3271502 0.16405764 -0.059489965
-0.13377792 0.18241259 -0.069887996
-0.13377881 0.20156914 -0.06987524
-0.13377881 0.22072449 -0.06987524
-0.13377969 0.23988125 -0.069862247
-0.13377969 0.25903675 -0.069862366
-0.1337806 0.2781938 -0.069849491
0.23065481 0.27896005 -0.063628674
-0.1337806 0.29734942 -0.069849491
-0.1337806 0.3165051 -0.069849491
0.17268626 0.31644621 -0.07027328
-0.13377969 0.33565876 -0.069862247
-0.13377792 0.3548103 -0.069887996
0.076943547 0.37410271 -0.069039822
-0.19181611 0.39417017 -0.063693285
-0.19145648 0.41268376 -0.067586303
-0.17273563 0.43284348 -0.062246323
-0.1530609 0.43173787 -0.068229556
-0.21193205 -0.54867291 -0.054570436
-0.21217306 -0.52988172 -0.05216217
-0.17355865 -0.51051974 -0.052526951
-0.17420037 -0.49263093 -0.044948459
-0.15388837 -0.49031565 -0.057480335
-0.17420037 -0.47328356 -0.044948578
-0.15388837 -0.47106487 -0.057480454
-0.17420149 -0.45393854 -0.044935346
-0.15388937 -0.45181614 -0.057467341
-0.17420149 -0.43459111 -0.044935465
-0.15389037 -0.43256736 -0.057454586
0.21220602 -0.43333024 -0.052735209
-0.17420149 -0.41524377 -0.044935346
-0.15389037 -0.41331631 -0.057454348
0.23164088 -0.41433796 -0.050819278
-0.17420149 -0.39589632 -0.044935465
-0.15388937 -0.39406341 -0.057467341
0.25110549 -0.39531648 -0.048900247
-0.17420149 -0.37654898 -0.044935346
-0.15388937 -0.37481242 -0.057467461
0.2705999 -0.37626588 -0.046978116
-0.17420149 -0.35720155 -0.044935346
-0.15388937 -0.35556155 -0.057467461
0.29012552 -0.35718778 -0.04504025
-0.17420149 -0.33785421 -0.044935346
-0.15388937 -0.33631054 -0.057467461
-0.17420149 -0.31850678 -0.044935346
-0.15388937 -0.3170597 -0.057467461
-0.17420149 -0.29915935 -0.044935465
-0.15388937 -0.29780883 -0.057467341
0.32808363 -0.29846203 -0.051406145
-0.17420149 -0.27981201 -0.044935346
-0.15389037 -0.27855915 -0.057454348
-0.17420149 -0.26046458 -0.044935465
-0.15389037 -0.25930813 -0.057454586
0.34705713 -0.2596238 -0.054037213
-0.17420149 -0.24111724 -0.044935346
-0.15389037 -0.24005702 -0.057454586
-0.17420149 -0.22176981 -0.044935465
-0.15389037 -0.22080612 -0.057454467
0.36598918 -0.22086602 -0.056675673
-0.17420149 -0.20242247 -0.044935226
-0.15389037 -0.201555 -0.057454348
-0.17420149 -0.18307504 -0.044935465
-0.15389037 -0.18230399 -0.057454586
-0.17420149 -0.16372757 -0.044935465
-0.15389037 -0.16305307 -0.057454467
0.3868058 -0.16370153 -0.04542017
-0.17420149 -0.14438023 -0.044935346
-0.15389037 -0.14380194 -0.057454348
0.38570017 -0.14398924 -0.053399444
-0.17420149 -0.1250328 -0.044935465
-0.15389037 -0.12455096 -0.057454586
-0.17420149 -0.10568546 -0.044935346
-0.15389037 -0.10529993 -0.057454348
-0.17420149 -0.086338028 -0.044935465
-0.15389037 -0.086048909 -0.057454467
-0.17420149 -0.066990688 -0.044935226
-0.15389037 -0.066797838 -0.057454586
-0.17420149 -0.047643259 -0.044935346
-0.15388937 -0.04754677 -0.057467341
-0.17420149 -0.02829583 -0.044935465
-0.15388937 -0.028295873 -0.057467341
-0.17420149 -0.0089484882 -0.044935346
-0.15388937 -0.0090449322 -0.057467461
-0.17420149 0.010398941 -0.044935465
-0.15388937 0.010205967 -0.057467341
0.38541362 0.010236831 -0.055467725
-0.17420149 0.029746281 -0.044935226
-0.15389037 0.029457206 -0.057454467
0.38608119 0.029614436 -0.050649762
-0.17420149 0.049093753 -0.044935465
-0.15389037 0.048708238 -0.057454586
0.38676226 0.049069144 -0.045734525
-0.17420149 0.0684411 -0.044935226
-0.15388937 0.067958705 -0.057467341
-0.17420037 0.087787926 -0.044948339
-0.15388937 0.087209776 -0.057467461
0.36681876 0.087539092 -0.050336599
-0.17420037 0.10713527 -0.044948459
-0.15388937 0.10646059 -0.057467341
-0.17420037 0.12648249 -0.044948578
-0.15388837 0.12571062 -0.057480454
0.34694821 0.12586834 -0.054921627
-0.17419928 0.14582889 -0.044961452
-0.15388837 0.14496158 -0.057480216
-0.17419928 0.16517605 -0.044961452
-0.15388837 0.16421247 -0.057480454
-0.17419928 0.18452327 -0.044961452
-0.15388837 0.1834632 -0.057480454
-0.17419928 0.20387045 -0.044961572
-0.15388837 0.20271401 -0.057480454
-0.17420037 0.22321904 -0.044948459
-0.15388837 0.2219649 -0.057480454
-0.17420037 0.24256623 -0.044948459
-0.15388937 0.24121717 -0.057467341
0.27032706 0.24202919 -0.049931884
-0.17420149 0.26191512 -0.044935226
-0.15388937 0.26046795 -0.057467461
0.25043827 0.26054734 -0.056779504
-0.17420149 0.28126258 -0.044935346
-0.15389037 0.27972054 -0.057454467
-0.17420259 0.30061147 -0.044922233
-0.15389037 0.29897144 -0.057454348
-0.17420259 0.3199591 -0.044922113
-0.15389037 0.31822249 -0.057454467
-0.17420037 0.33930278 -0.044948459
-0.15388937 0.33747163 -0.057467341
0.154599 0.33897144 -0.047213554
-0.17419817 0.35864609 -0.044974685
-0.15388736 0.35671866 -0.05749321
-0.17420259 0.37800157 -0.044922233
-0.15388338 0.37596089 -0.057545185
-0.212074 0.39595529 -0.053152084
-0.21202968 0.41516104 -0.053594708
-0.019369401 0.41628847 -0.047226787
-0.23296027 -0.5520575 -0.03828609
-0.2325661 -0.53192693 -0.04194355
-0.21391289 -0.5139358 -0.034776568
-0.19398434 -0.51288795 -0.040221453
-0.19471577 -0.49496704 -0.032303572
-0.19471577 -0.47552246 -0.032303572
0.15510879 -0.47483683 -0.036176324
-0.19471698 -0.45608011 -0.03229022
-0.19471698 -0.43663532 -0.03229022
-0.19471698 -0.41719061 -0.03229022
-0.19471698 -0.39774582 -0.03229022
-0.19471698 -0.37830114 -0.03229022
-0.19471698 -0.35885638 -0.03229022
-0.19471698 -0.33941168 -0.03229022
0.30968556 -0.3380852 -0.043059826
-0.19471698 -0.31996688 -0.032290339
-0.19471698 -0.30052212 -0.03229022
-0.19471698 -0.28107738 -0.03229022
0.34994453 -0.28124711 -0.030594707
-0.19471698 -0.26163271 -0.03229022
-0.1947182 -0.24218912 -0.032276988
0.36905226 -0.24210501 -0.033269525
-0.1947182 -0.2227442 -0.032277107
-0.19471698 -0.20329846 -0.03229022
-0.19471698 -0.1838537 -0.03229022
0.38792035 -0.18354048 -0.037376761
-0.19471698 -0.16440906 -0.03229022
-0.1947182 -0.14496493 -0.032276988
-0.1947182 -0.12551999 -0.032276988
-0.19471698 -0.10607478 -0.032290339
-0.19471698 -0.086630017 -0.03229022
0.4075633 -0.086550094 -0.035753965
-0.19471698 -0.067185327 -0.03229022
0.40784928 -0.067162082 -0.033798575
-0.19471698 -0.047740556 -0.03229022
-0.19471698 -0.028295916 -0.03229022
-0.19471698 -0.0088511445 -0.03229022
-0.19471698 0.010593625 -0.03229022
-0.19471698 0.030038396 -0.03229022
-0.19471698 0.049483083 -0.03229022
-0.19471698 0.068927899 -0.032290339
-0.19471698 0.088372581 -0.03229022
-0.19471577 0.10781667 -0.032303452
0.36925668 0.10784873 -0.031707525
-0.19471577 0.12726125 -0.032303452
-0.19471455 0.14670485 -0.032316685
0.34923428 0.14642476 -0.036360979
-0.19471455 0.16614948 -0.032316685
-0.19471455 0.18559408 -0.032316685
-0.19471577 0.2050398 -0.032303572
0.31043023 0.20468454 -0.036149859
-0.19471577 0.22448444 -0.032303452
0.2903237 0.2234081 -0.043059826
-0.19471698 0.24393055 -0.03229022
-0.19471698 0.26337513 -0.03229022
-0.1947182 0.28282166 -0.032277107
0.21305205 0.3011871 -0.040523887
-0.1947182 0.30226648 -0.032277107
-0.1947182 0.32171127 -0.032276869
-0.19471577 0.34115234 -0.032303452
-0.19471455 0.36059484 -0.032316685
-0.21378075 0.37942824 -0.036097169
-0.19397946 0.37875295 -0.040274024
-0.23256044 0.39784467 -0.041996121
-0.23297589 0.41789716 -0.038141131
-0.27450457 -0.53712308 -0.015981913
-0.25329903 -0.53428864 -0.030143857
-0.25415748 -0.51625818 -0.02270937
-0.23385493 -0.51485801 -0.029984832
-0.21543862 -0.49732688 -0.019530535
-0.21543862 -0.47778389 -0.019530773
-0.21543996 -0.45824331 -0.019517183
-0.2154413 -0.43870243 -0.019503832
-0.2154413 -0.4191592 -0.019503951
-0.2154413 -0.39961597 -0.019503951
-0.21543996 -0.38007092 -0.019517303
-0.21543996 -0.36052793 -0.019517303
-0.21543996 -0.34098488 -0.019517183
-0.21543996 -0.3214418 -0.019517422
0.33079627 -0.32047224 -0.027914047
-0.2154413 -0.30190021 -0.019503951
-0.2154413 -0.28235695 -0.01950407
-0.2154413 -0.26281387 -0.019503832
-0.2154413 -0.24327068 -0.019503832
-0.2154413 -0.22372749 -0.01950407
-0.2154413 -0.20418441 -0.019503832
0.3890402 -0.20350604 -0.029294848
-0.2154413 -0.18464121 -0.019503951
-0.2154413 -0.16509794 -0.019503951
-0.2154413 -0.14555486 -0.019503832
-0.2154413 -0.12601167 -0.019503832
0.4099381 -0.12601115 -0.019517303
-0.2154413 -0.10646848 -0.019503951
0.40874687 -0.10621737 -0.027661681
-0.2154413 -0.08692538 -0.019503832
