ply
format ascii 1.0
comment PCL generated
element vertex 1351
property float x
property float y
property float z
element camera 0
property float view_px
property float view_py
property float view_pz
property float x_axisx
property float x_axisy
property float x_axisz
property float y_axisx
property float y_axisy
property float y_axisz
property float z_axisx
property float z_axisy
property float z_axisz
property float focal
property float scalex
property float scaley
property float centerx
property float centery
property int viewportx
property int viewporty
property float k1
property float k2
end_header
-0.50172877 -0.085812978 -0.12346351
0.20524247 -0.085838668 -0.12010813
0.20398207 -0.063728862 -0.13499272
-0.52234685 -0.041711584 -0.13211894
0.22660658 -0.041681282 -0.1281805
-0.54469442 0.0023662001 -0.13025415
0.24914253 0.0025267527 -0.12330115
-0.56835192 0.0467683 -0.12145412
0.27033123 0.06839823 -0.13161993
-0.58862215 0.11248136 -0.13095915
0.29323286 0.11291019 -0.12399507
-0.61240292 0.15720862 -0.12219322
0.31428683 0.17844445 -0.13232446
0.3374525 0.26752222 -0.12353718
-0.65563947 0.35540706 -0.12660503
0.35839966 0.37667665 -0.13173735
-0.14914165 -0.37502256 -0.10381079
-0.23806299 -0.35275877 -0.1040951
-0.21560073 -0.35238642 -0.10781646
-0.1931963 -0.35201502 -0.1115284
-0.17084944 -0.3516444 -0.11523092
-0.14857991 -0.35132679 -0.11840498
-0.12656893 -0.35169059 -0.11477029
-0.10450219 -0.35205522 -0.1111263
-0.082379714 -0.35242227 -0.10745823
-0.060200848 -0.35279036 -0.10378087
-0.30493513 -0.33069864 -0.10222328
-0.28190222 -0.32984185 -0.11149859
-0.037965357 -0.32954243 -0.11474061
-0.01578607 -0.32988036 -0.11108184
-0.25944227 -0.32950112 -0.11518621
-0.060088381 -0.32920521 -0.11839044
-0.32685605 -0.30817491 -0.10548627
-0.30352655 -0.30715993 -0.11747134
0.0063188225 -0.30729192 -0.11591363
0.028727978 -0.30827111 -0.10434961
-0.34872916 -0.28570306 -0.10872686
0.050862908 -0.28579953 -0.10747325
-0.37055323 -0.2632817 -0.11196005
0.072950006 -0.26337644 -0.11059034
-0.41605097 -0.24165154 -0.10315192
-0.39233026 -0.2409113 -0.11517143
0.094988734 -0.24100101 -0.11371541
0.11777183 -0.2417143 -0.10213339
-0.41405681 -0.21859005 -0.11839032
0.11698051 -0.21867475 -0.1168189
-0.43686882 -0.19669673 -0.11341798
0.13948728 -0.19681838 -0.11078393
-0.46011588 -0.1748212 -0.10599434
0.16214991 -0.17490402 -0.10384071
-0.48098549 -0.13018191 -0.11475539
0.1837576 -0.13024586 -0.11198986
-0.50433791 -0.10814542 -0.10732388
0.20651606 -0.10818008 -0.10506749
0.22798815 -0.063728958 -0.11322463
-0.52506369 -0.063728809 -0.11607695
-0.54794663 -0.019382752 -0.11188567
0.25075337 -0.01931062 -0.10720456
-0.57176375 0.025237478 -0.10298729
0.27205589 0.04699301 -0.1156168
-0.59215248 0.091443531 -0.11261487
0.29509062 0.091697253 -0.1079061
-0.61613601 0.13640699 -0.10354125
0.31636295 0.15772632 -0.11546826
-0.63596535 0.24634516 -0.11512697
0.34007126 0.2475954 -0.10352647
0.36115456 0.35756433 -0.11185586
-0.65866458 0.46829909 -0.11257017
-0.63649982 0.46830165 -0.11255527
-0.61433488 0.46830446 -0.1125406
-0.59216964 0.46830732 -0.11252558
0.29455724 0.46830732 -0.11252558
0.31672356 0.46830446 -0.1125406
0.33888969 0.46830165 -0.11255527
0.36105555 0.46829909 -0.11257017
-0.1722243 -0.39937621 -0.085464358
-0.1497097 -0.39896193 -0.089052439
-0.12747505 -0.39939022 -0.085343122
-0.26173377 -0.37700468 -0.08541882
-0.23909681 -0.37660012 -0.089173317
-0.2165173 -0.37619475 -0.092933536
-0.19399622 -0.3757906 -0.096683502
-0.17153333 -0.37538755 -0.10042405
-0.12701945 -0.37541822 -0.1001389
-0.10484128 -0.37581661 -0.096442819
-0.082606137 -0.37621436 -0.092752337
-0.060314458 -0.3766163 -0.089022279
-0.037965357 -0.37701783 -0.085297465
-0.30635729 -0.35448688 -0.086827874
-0.28315929 -0.35350361 -0.096653461
-0.26058212 -0.35313067 -0.10037911
-0.037965357 -0.35315922 -0.1000942
-0.015673032 -0.35352913 -0.096397758
0.0067736246 -0.35453236 -0.086373448
-0.32839477 -0.33181754 -0.09011054
0.0065450631 -0.33079141 -0.10121906
0.029070079 -0.33187065 -0.089536309
-0.3503809 -0.30919823 -0.093400836
0.051318049 -0.30925819 -0.092692018
-0.37232071 -0.28663242 -0.0966537
0.073517703 -0.28669506 -0.095840931
-0.41806442 -0.26495785 -0.087766528
-0.39420947 -0.2641162 -0.099913955
0.095668495 -0.26417962 -0.098998308
0.1185713 -0.26499027 -0.087297201
-0.43911883 -0.21973306 -0.09717977
0.14042051 -0.21981654 -0.095630288
-0.46250543 -0.19779417 -0.089657068
0.16320483 -0.19784233 -0.088613868
-0.48348549 -0.15283298 -0.098517418
0.18492199 -0.15288383 -0.096864104
-0.50697649 -0.13073049 -0.091001868
0.20780307 -0.13075674 -0.089868665
-0.52780867 -0.085994519 -0.099868894
0.22938418 -0.086008087 -0.098111749
-0.55123812 -0.041412707 -0.093295097
0.25238243 -0.041394487 -0.09092617
0.27380002 0.02534689 -0.099433541
-0.5957284 0.070134304 -0.094033837
0.29696935 0.070245005 -0.091635823
0.31884345 0.13697603 -0.095329285
-0.64188176 0.22704557 -0.086661339
-0.66172594 0.33726001 -0.098367333
0.36394796 0.33818424 -0.091696262
-0.17292245 -0.42361456 -0.07034874
-0.15028301 -0.42314538 -0.074157596
-0.12793487 -0.4236069 -0.070410132
-0.2628974 -0.40112695 -0.070302963
-0.24014135 -0.40068886 -0.07409656
-0.21744338 -0.40025014 -0.077895761
-0.19480444 -0.39981276 -0.081684828
-0.10518352 -0.39981961 -0.08162415
-0.082835101 -0.40025198 -0.077880621
-0.060429122 -0.4006854 -0.074127197
-0.037965357 -0.40111983 -0.070364237
-0.30779609 -0.37853146 -0.071252227
-0.28442937 -0.37741044 -0.081654549
-0.015558837 -0.37742025 -0.081563354
0.0070045479 -0.37851816 -0.071374774
-0.32994843 -0.35571206 -0.074585319
0.029415704 -0.35571349 -0.074570179
-0.35205191 -0.332946 -0.077895641
0.051777884 -0.33295864 -0.077758431
-0.39803025 -0.31127346 -0.068893075
-0.37410527 -0.31023145 -0.081198573
0.074091241 -0.31025344 -0.080940008
0.097049773 -0.31125662 -0.069092393
-0.42015749 -0.28854781 -0.071772575
-0.39611059 -0.28756964 -0.084478617
0.09635593 -0.28759769 -0.084114552
0.11939549 -0.28853008 -0.072002053
-0.44139647 -0.24303165 -0.08074224
0.14136265 -0.24305695 -0.080331683
-0.46492216 -0.22102872 -0.073133826
0.16426992 -0.22102299 -0.073240876
-0.48601386 -0.17574099 -0.082095146
0.18609868 -0.1757609 -0.081578374
-0.50964266 -0.15357217 -0.074508905
0.2091037 -0.15357217 -0.074508905
-0.53058726 -0.10851276 -0.083461881
0.23083708 -0.1085293 -0.082383871
0.25402996 -0.063728914 -0.074463248
-0.55457515 -0.063728809 -0.074447989
-0.57522243 0.003428176 -0.084266186
0.27556384 0.0034558475 -0.083067179
-0.59935373 0.048548773 -0.075196147
0.29886943 0.048549317 -0.075180888
-0.62187952 0.115937 -0.074844956
0.32135892 0.11593328 -0.074905992
0.34272879 0.2273902 -0.083219051
-0.66793686 0.31875381 -0.069552183
0.36678076 0.31853136 -0.071252108
-0.1736279 -0.44810602 -0.055075407
-0.15086934 -0.44760242 -0.058924198
-0.12839991 -0.44807568 -0.055307627
-0.26407316 -0.42550138 -0.055029035
-0.2411968 -0.42502925 -0.058862329
-0.21837912 -0.4245564 -0.062701344
-0.19562109 -0.42408481 -0.066530108
-0.10552961 -0.42407155 -0.066637635
-0.083066426 -0.42453751 -0.062855124
-0.060545087 -0.42500451 -0.059063077
-0.037965357 -0.42547283 -0.055261135
-0.30924898 -0.40283334 -0.055524111
-0.28571266 -0.40156618 -0.066499233
-0.015443584 -0.40155554 -0.066591501
0.0072378628 -0.40275311 -0.056220293
-0.33152035 -0.37986505 -0.058877826
0.029765271 -0.37980512 -0.059433579
-0.3537409 -0.356949 -0.062223911
0.052242473 -0.35690433 -0.062670469
-0.3999725 -0.33523425 -0.05312407
-0.37591082 -0.3340852 -0.065562367
0.07467071 -0.33405548 -0.065884948
0.097750813 -0.33516121 -0.053914189
-0.42234662 -0.31244612 -0.055044532
0.12023425 -0.31232837 -0.056436658
-0.44370013 -0.26659623 -0.064117193
0.14231479 -0.2665441 -0.064870477
-0.46736658 -0.24452943 -0.05642128
0.16534634 -0.24445036 -0.05770421
-0.48857111 -0.19891068 -0.065485358
0.18728903 -0.1988816 -0.06611526
-0.51234186 -0.17667563 -0.057812333
0.21041949 -0.17663108 -0.058970451
-0.53378791 -0.13134107 -0.064563036
0.23236686 -0.13131191 -0.065823436
-0.55795306 -0.086337157 -0.055369377
0.25569627 -0.086318299 -0.057812333
-0.57872349 -0.018665742 -0.065316319
0.2773461 -0.018684454 -0.066529989
-0.60302347 0.026680462 -0.056127548
0.30079117 0.02660615 -0.058538198
0.32391012 0.094591536 -0.054192901
-0.64791971 0.20736197 -0.057611585
0.34542397 0.20689881 -0.062624216
0.39171198 0.32071918 -0.054533601
0.41445053 0.32082459 -0.053728223
0.43720406 0.32093212 -0.05290699
0.45996776 0.32103741 -0.052100658
0.39146072 0.34309578 -0.056251168
0.41426694 0.34328026 -0.054920554
0.43709385 0.34346473 -0.053588867
0.45994148 0.34364933 -0.05225575
0.39184558 0.36608213 -0.053619742
0.41467246 0.3662771 -0.052286863
-0.66978544 0.50039613 -0.060975671
-0.64722687 0.50040197 -0.060944915
-0.62466156 0.50040197 -0.060944915
-0.60209638 0.50040197 -0.060944915
0.30051327 0.50040197 -0.060944915
0.32307848 0.50040197 -0.060944915
0.34564373 0.50040197 -0.060944915
0.36820471 0.50039613 -0.060975671
-0.19728012 -0.47339541 -0.035741925
-0.17434077 -0.47285515 -0.03964138
-0.15146184 -0.47231621 -0.043530822
-0.1288693 -0.47279662 -0.04006362
-0.10623226 -0.47333038 -0.036212206
-0.2883198 -0.45064029 -0.035710454
-0.26526129 -0.45013204 -0.039594412
-0.24226333 -0.44962507 -0.043468356
-0.21932466 -0.44911736 -0.047347426
-0.19644627 -0.44861111 -0.051216602
-0.10587893 -0.44857258 -0.051511407
-0.08329992 -0.44907266 -0.047689795
-0.060662132 -0.44957411 -0.04385829
-0.037965357 -0.45007676 -0.040016651
-0.015209362 -0.45058081 -0.036165118
-0.31071907 -0.4274005 -0.039610267
-0.28700942 -0.42597485 -0.051185489
-0.015327018 -0.42594233 -0.05144918
0.0074738562 -0.42724258 -0.040892124
-0.33310929 -0.40427959 -0.043000221
0.030118123 -0.40414634 -0.044154644
-0.35544646 -0.38121009 -0.046398163
0.052712381 -0.38110107 -0.047409773
-0.40193388 -0.35945332 -0.037199378
-0.37773404 -0.3581951 -0.049772739
0.075256206 -0.35810491 -0.050673366
0.098459184 -0.35931548 -0.038577437
-0.42455894 -0.33661854 -0.038139224
0.12108116 -0.33638006 -0.040720105
-0.44603026 -0.29043162 -0.047300816
0.14327809 -0.29028326 -0.049228787
-0.46983913 -0.26830065 -0.03951633
0.16643535 -0.26812959 -0.041985512
-0.49115533 -0.22234532 -0.048700452
0.18849091 -0.22224829 -0.050502419
-0.51507205 -0.20004505 -0.040923476
0.21174802 -0.19993612 -0.043281198
-0.53704095 -0.15446994 -0.045354605
0.23391417 -0.15435538 -0.049073577
-0.56137824 -0.10924309 -0.036023974
0.25738171 -0.1091669 -0.040970325
-0.58227336 -0.041049376 -0.046102405
0.2791504 -0.041077793 -0.049788117
-0.60674155 0.0045241639 -0.036807775
0.30273494 0.0044110864 -0.041704416
-0.6277383 0.095056213 -0.045572877
0.34815553 0.18611392 -0.041751266
0.37100056 0.27707595 -0.040798306
0.39364091 0.27701291 -0.041345239
0.41640031 0.27704528 -0.041063905
0.4391641 0.27707776 -0.04078269
0.46193483 0.27711207 -0.04048574
0.48470742 0.27714464 -0.040204287
0.50748718 0.277179 -0.039907217
0.53027457 0.27721494 -0.039594531
0.5532704 0.27736858 -0.038264275
0.36978504 0.29871586 -0.049570799
0.39223114 0.29854184 -0.050983787
0.41497827 0.29862598 -0.050300717
0.43775597 0.29872558 -0.049493074
0.46054888 0.29882696 -0.048669457
0.48335177 0.29892641 -0.047860861
0.50617003 0.2990281 -0.04703629
0.52899814 0.29912788 -0.046226978
0.55226314 0.29948863 -0.043296695
0.57575321 0.29995617 -0.039500713
0.5993039 0.30042496 -0.035694838
0.48274392 0.32114306 -0.051294327
0.50553542 0.32125089 -0.050471425
0.5283367 0.32135651 -0.049663782
0.5514431 0.32165343 -0.047394156
0.57543159 0.32248408 -0.041048408
0.48280984 0.34383425 -0.050921798
0.50569606 0.34401721 -0.049601674
0.52860588 0.34420237 -0.048265219
0.55178583 0.34456027 -0.045681715
0.57578903 0.3454406 -0.039328575
0.43751749 0.36646983 -0.05096817
0.46038571 0.36666512 -0.049632907
0.48327196 0.36685845 -0.04831183
0.50626493 0.36712015 -0.046522617
0.52930993 0.36740035 -0.044606686
0.55252558 0.36778373 -0.04198575
0.39287227 0.38978437 -0.046600461
0.41584527 0.39008176 -0.044668913
0.4388485 0.39037952 -0.042734742
0.46188191 0.39067772 -0.040798187
0.48494554 0.39097616 -0.038859248
0.50804245 0.39127752 -0.036901832
0.39449719 0.41425598 -0.03549087
-0.19812283 -0.49844205 -0.020103455
-0.17506115 -0.49786571 -0.024044394
-0.15206058 -0.49729073 -0.027974844
-0.12934408 -0.49777773 -0.024644971
-0.10658891 -0.49834472 -0.020768881
-0.28964406 -0.4755668 -0.020071864
-0.26646203 -0.47502285 -0.023996949
-0.24334112 -0.47448048 -0.027911663
-0.22028017 -0.47393721 -0.03183198
-0.083536074 -0.47386536 -0.032350659
-0.060780518 -0.47440189 -0.028479099
-0.037965357 -0.47493976 -0.024597526
-0.015090354 -0.47547892 -0.0207057
-0.31220517 -0.45223528 -0.023522735
0.0077120848 -0.45198712 -0.025418878
-0.33471394 -0.42895797 -0.026965499
0.03047467 -0.42874238 -0.02871573
-0.35717225 -0.40573633 -0.03038466
0.053186722 -0.40554917 -0.032005072
0.076445647 -0.40696198 -0.019770503
-0.40391859 -0.38393793 -0.021085739
-0.37957883 -0.38256821 -0.033796072
0.075847812 -0.38240579 -0.035302639
0.099175006 -0.38372302 -0.023079991
-0.42679894 -0.36107221 -0.021022439
0.12193717 -0.36069071 -0.024834514
-0.44838512 -0.31454095 -0.030306101
0.14425075 -0.31427598 -0.033434868
-0.47233799 -0.29234603 -0.022431374
0.16753499 -0.29206261 -0.026113629
0.19093354 -0.26973793 -0.018771648
-0.49377176 -0.24605152 -0.031706095
0.18970565 -0.24586567 -0.034722209
-0.51783389 -0.22368509 -0.023838878
0.21309084 -0.22349194 -0.027422905
-0.54033965 -0.17790484 -0.02587676
0.2354793 -0.17766419 -0.032130718
0.25908664 -0.13227943 -0.023933649
-0.58586717 -0.063728914 -0.026650071
0.28097546 -0.063728914 -0.032853484
0.30470115 -0.018040024 -0.024676561
0.32649782 0.072944723 -0.033183575
0.35092837 0.16503203 -0.020563006
-0.65407628 0.18727916 -0.02799046
0.37259841 0.25559849 -0.029266953
0.39550427 0.25566977 -0.028605342
0.41826752 0.25563404 -0.028936148
0.4410257 0.25559849 -0.029266953
0.46377611 0.25556114 -0.029613376
0.48652399 0.25552556 -0.029944062
0.50928134 0.25549838 -0.030195713
0.53221357 0.25557119 -0.029518843
0.55528879 0.25571576 -0.028179765
0.57838154 0.25585833 -0.02685523
0.60149837 0.25600296 -0.02551353
0.62482673 0.25623965 -0.023317099
0.64857018 0.25665432 -0.0194695
0.57663882 0.27771795 -0.035239935
0.60022461 0.27815855 -0.031423092
0.62386787 0.27859867 -0.02761209
0.64757574 0.27904162 -0.023775697
0.67159849 0.27960852 -0.018866897
0.62333679 0.30112737 -0.029991388
0.64762318 0.30191833 -0.02357018
0.59952706 0.32332009 -0.034659386
0.62372357 0.3241576 -0.028258562
0.6480397 0.32500735 -0.021766543
0.60011959 0.34646842 -0.031910539
0.62504917 0.34779733 -0.022320509
0.57721645 0.36917672 -0.032460809
0.60207069 0.37058127 -0.022858381
0.53116691 0.39157695 -0.034957528
0.55432504 0.39187917 -0.032995105
0.57953137 0.39367592 -0.021323323
0.41768616 0.41470519 -0.032712102
0.44092131 0.41515779 -0.02991271
0.46419787 0.41560861 -0.027123213
0.48751539 0.41605794 -0.024344563
0.51088256 0.416513 -0.021529198
-0.19897448 -0.52375501 -0.0042988062
-0.17578921 -0.52314168 -0.0082815886
-0.15266567 -0.5225302 -0.012254
-0.12982334 -0.52301884 -0.0090800524
-0.10694966 -0.5236243 -0.0051473379
-0.29102308 -0.50082856 -0.0037863255
-0.26767546 -0.5001781 -0.0082339048
-0.24443035 -0.49959949 -0.012190223
-0.22124578 -0.49902001 -0.016152024
-0.083774462 -0.4989154 -0.016867042
-0.060900025 -0.49948764 -0.012954712
-0.037965357 -0.50006133 -0.0090322495
-0.014970217 -0.50063652 -0.005099535
-0.31370607 -0.47734004 -0.0072749853
0.0079528205 -0.47699258 -0.0097825527
-0.33633772 -0.45390818 -0.010739803
0.030834973 -0.45359743 -0.013114095
-0.35891521 -0.4305287 -0.014212251
0.053666055 -0.43025464 -0.016438127
0.077049784 -0.43177733 -0.0040745735
-0.40592307 -0.40868929 -0.0048112869
-0.38144195 -0.40720552 -0.017660856
0.099898353 -0.40838829 -0.0074188709
-0.42906508 -0.38581106 -0.0037059784
0.12280332 -0.38526624 -0.0087609291
-0.45076954 -0.33893177 -0.013098121
0.14523391 -0.3385278 -0.01747036
-0.47486833 -0.31667268 -0.0051316023
0.16864654 -0.3162545 -0.010069847
0.19217473 -0.29386902 -0.0026481152
-0.49641857 -0.27003285 -0.014514446
-0.52062786 -0.24760035 -0.0065555573
0.21444821 -0.24730232 -0.011393428
-0.54367954 -0.20165092 -0.0061556101
0.23706248 -0.20124286 -0.01499176
0.26081133 -0.15566012 -0.0066994429
-0.56484598 -0.13245246 -0.016438246
-0.58950877 -0.086709894 -0.0069391727
0.28282166 -0.086642265 -0.01572299
0.30669022 -0.040751837 -0.007450819
-0.61050886 -0.017925363 -0.017232418
0.32912078 0.050985411 -0.011887431
-0.63371587 0.073752023 -0.015707016
0.62930131 0.21238139 -0.0032733679
0.65256232 0.21248212 -0.0021831989
0.37499994 0.23452377 -0.011935234
0.39804739 0.23459569 -0.011217952
0.42093158 0.23455405 -0.011632562
0.44382232 0.23452064 -0.011967301
0.46670794 0.23448718 -0.012301683
0.48958838 0.23445365 -0.012636185
0.51246375 0.23442021 -0.012970805
0.53515017 0.23429117 -0.014260054
0.55777878 0.2341432 -0.015738845
0.58049387 0.23404774 -0.0166924
0.60368747 0.23418131 -0.015357256
0.62690544 0.23431662 -0.014005542
0.65014458 0.23445204 -0.01265204
0.67370552 0.23471367 -0.010037899
0.6983605 0.23540345 -0.0031452179
0.67237151 0.25706834 -0.015627623
0.69683558 0.2577464 -0.0093355179
0.69644648 0.28052664 -0.01091516
0.67201513 0.30271262 -0.017121077
0.69651324 0.30351034 -0.010644078
0.6732108 0.32627088 -0.012110472
0.69854617 0.32754284 -0.0023915768
0.65014094 0.3491348 -0.012668014
0.6753962 0.35048106 -0.0029528141
0.62724316 0.37209734 -0.012493014
0.60550547 0.39589301 -0.0069233179
0.53429413 0.416969 -0.018708229
0.55776608 0.41743875 -0.015802503
0.3973234 0.44028956 -0.016167998
0.4208065 0.44092011 -0.012445092
0.44444656 0.44165492 -0.0081061125
0.46815556 0.44239205 -0.0037542582
-0.58992261 0.51122659 -0.004699111
-0.68131554 0.53366774 -0.0074827671
-0.65834212 0.5336709 -0.0074669123
-0.63536519 0.5336709 -0.0074669123
-0.61238825 0.5336709 -0.0074669123
-0.58941132 0.5336709 -0.0074669123
0.30668837 0.5336709 -0.0074669123
0.3296653 0.5336709 -0.0074669123
0.35264221 0.5336709 -0.0074669123
0.37561691 0.53366774 -0.0074827671
-0.19983523 -0.54933846 0.011674762
-0.17652503 -0.54868776 0.0076493025
-0.15327722 -0.54803884 0.0036344528
-0.13030815 -0.54852861 0.0066648722
-0.10731387 -0.54916835 0.010622978
-0.29241732 -0.52636886 0.012678862
-0.26890188 -0.52560192 0.0076977015
-0.24553119 -0.52498627 0.003698945
-0.22222172 -0.52436978 -0.0003054142
-0.084015608 -0.52423131 -0.0012043715
-0.061020914 -0.52484006 0.0027490854
-0.037965357 -0.52545041 0.0067130327
-0.014848689 -0.52606219 0.010687709
-0.31522498 -0.50272328 0.0091676712
0.008196108 -0.50226277 0.0060194731
-0.33797777 -0.47913063 0.005648613
0.031199083 -0.47871563 0.0026526451
-0.360679 -0.4555954 0.0021538734
0.054150462 -0.45522118 -0.00070667267
0.07766097 -0.45685846 0.011804342
-0.40795162 -0.43371522 0.011658669
-0.38332739 -0.43211511 -0.0013327599
0.10062937 -0.43331489 0.0084084272
-0.43135777 -0.41083986 0.013813257
0.12367803 -0.41010761 0.0074715614
-0.4531818 -0.36360744 0.0043109655
0.14622872 -0.36304435 -0.0013166666
-0.47742829 -0.34128439 0.012371063
0.16977018 -0.34070966 0.0061485767
0.19343069 -0.31826463 0.013667345
-0.49909636 -0.29429439 0.0028779507
-0.52345204 -0.27179456 0.010914087
0.21582168 -0.27137288 0.0048266649
-0.54706687 -0.22571576 0.013845682
0.23866418 -0.22509608 0.0023468733
0.26255459 -0.17931351 0.010720015
-0.56836289 -0.15597191 0.0034251213
-0.59319913 -0.10999842 0.013035417
0.28468937 -0.10982242 0.0016069412
0.3087025 -0.063728914 0.0099760294
-0.61432642 -0.040674411 0.0026042461
0.3317838 0.028708316 0.0097334385
0.3537392 0.14364403 0.00091576576
-0.66035843 0.16678706 0.0022343397
0.63308322 0.19080681 0.013667464
0.65565425 0.19059822 0.011205435
0.67877877 0.19059959 0.011221647
0.70247412 0.19079709 0.013553858
0.47108406 0.21393448 0.013537765
0.49399889 0.21381769 0.012274027
0.5166136 0.21356055 0.0094908476
0.53869933 0.21307021 0.0041821003
0.56117332 0.21279666 0.0012210608
0.58390653 0.21265861 -0.00027310848
0.60661358 0.2125192 -0.0017821789
0.67613155 0.21269569 0.0001282692
0.69989181 0.21296749 0.0030710697
0.72471213 0.21360826 0.010008335
0.72312981 0.23609635 0.0037794113
0.72266781 0.25896388 0.0019608736
0.74890858 0.26027805 0.014153838
0.72247171 0.28192446 0.0011889935
0.7236374 0.30553299 0.0057777166
0.72541523 0.3295278 0.012776136
0.70183975 0.35241154 0.010978937
0.65352678 0.37421608 0.0019929409
0.63173252 0.39813176 0.007617116
0.58378971 0.41985843 -0.00083506107
0.49193096 0.44312853 0.00059425831
0.5157727 0.44386435 0.0049391985
0.5396837 0.44460231 0.0092970133
-0.59088874 0.48919439 0.0005300045
0.28549376 0.53698081 0.0090708733
-0.20070525 -0.57519716 0.02782023
-0.17726876 -0.57450801 0.023751259
-0.15389532 -0.57382083 0.019693375
-0.13079762 -0.57430637 0.022560358
-0.10768231 -0.57498664 0.026577115
-0.084505334 -0.57566869 0.030604601
-0.29382837 -0.5521946 0.029342771
-0.27014145 -0.55129862 0.023800254
-0.24664381 -0.55064535 0.019758463
-0.22320807 -0.54999095 0.015711188
-0.084259048 -0.54981267 0.014607906
-0.061142959 -0.55045861 0.018603325
-0.037965357 -0.55110621 0.022609353
-0.014725994 -0.55175543 0.02662611
-0.3167592 -0.52838528 0.025776148
0.0084419884 -0.52780229 0.021989942
-0.33963758 -0.50463438 0.022234321
0.031567082 -0.5041011 0.018587112
-0.36246058 -0.48093694 0.018684506
0.05464001 -0.48045307 0.015191793
0.07827805 -0.48220512 0.027836561
-0.41000068 -0.4590165 0.028294921
-0.38523176 -0.45729747 0.015159607
0.10136819 -0.45850727 0.024404168
0.12456231 -0.43522072 0.023881912
-0.4556224 -0.38857338 0.021924734
0.14723337 -0.38782671 0.014997244
-0.48001841 -0.36618626 0.03008008
0.17090723 -0.36543369 0.022560477
0.1946992 -0.34292632 0.030145407
-0.50180554 -0.31884104 0.020474792
-0.52631199 -0.29627493 0.028605819
0.21720883 -0.29570538 0.02120769
0.24028462 -0.24922886 0.019888639
0.2643199 -0.20324519 0.028360367
-0.57192415 -0.17980695 0.023539186
0.28657895 -0.13327411 0.019140124
0.31073838 -0.086975798 0.02760756
-0.61910367 -0.063728958 0.027427554
-0.63981581 0.052011542 0.014770031
0.35659307 0.12194558 0.022723556
0.65942705 0.16873521 0.027541995
0.68208057 0.16854391 0.025057554
0.70523542 0.16852143 0.024763465
0.72905827 0.16870242 0.027116656
0.75295258 0.16889414 0.029604793
0.54376858 0.19223392 0.030522466
0.56596041 0.19177812 0.025139093
0.58807677 0.19132519 0.019790888
0.61030716 0.19094953 0.015354037
0.72630525 0.19102788 0.01627934
0.7512967 0.19162068 0.023278117
0.77640915 0.19221744 0.03032589
0.37878126 0.21410224 0.015354156
0.40222365 0.21428522 0.017335415
0.42519641 0.21416813 0.016068339
0.44814989 0.21405116 0.014802575
0.74965197 0.21425357 0.016994238
0.77579141 0.21527338 0.028033018
0.74911654 0.23721424 0.014948487
0.77557981 0.23844498 0.027247548
0.75006467 0.28393143 0.018570781
0.75183076 0.30793983 0.025318742
0.68006712 0.37635565 0.016620517
0.65994883 0.4015471 0.029801488
0.61203629 0.42377234 0.023376107
0.56433028 0.4459058 0.016994238
0.40369257 0.47090971 0.02737844
0.28695458 0.49327672 0.022625566
0.28622165 0.51517642 0.015825033
-0.20158465 -0.60133505 0.044139981
-0.17802049 -0.60060692 0.040027022
-0.15452009 -0.5998807 0.03592515
-0.13129281 -0.60036176 0.038642049
-0.1080547 -0.6010806 0.042701721
-0.084754258 -0.60180116 0.046772242
-0.29525378 -0.57830578 0.046175838
-0.2713944 -0.57727283 0.040076613
-0.24776843 -0.57658088 0.035991073
-0.22420506 -0.57588804 0.031900167
-0.06126643 -0.57635254 0.034642458
-0.037965357 -0.57703817 0.038691401
-0.014601862 -0.57772577 0.042751312
-0.31831202 -0.55433559 0.042585969
0.0086907558 -0.55361801 0.038147807
-0.3413142 -0.53041941 0.038988233
0.031939 -0.52975804 0.03469193
0.055634886 -0.53173012 0.047501445
-0.36426368 -0.50656235 0.035415411
0.055134788 -0.50595456 0.031260371
0.078901753 -0.50782394 0.044040918
-0.4120746 -0.48460186 0.045132875
-0.38715911 -0.48276138 0.031850815
0.10211493 -0.48396975 0.040571451
0.1254572 -0.46061233 0.040489078
-0.43367749 -0.43616375 0.031539202
-0.45809191 -0.41383442 0.039746761
0.14824909 -0.41288105 0.031489968
0.17205565 -0.3904283 0.039136648
0.19598168 -0.36786005 0.046805382
-0.50454426 -0.34367627 0.038263083
-0.52920592 -0.32104534 0.04650712
0.21861118 -0.32030547 0.03776896
0.24192414 -0.27364603 0.037637115
-0.55049711 -0.25010407 0.034100294
0.2661061 -0.22745964 0.046208858
-0.57553357 -0.20396417 0.043925047
0.28849077 -0.15700217 0.036879778
-0.59693915 -0.13360056 0.033278823
0.31279835 -0.11049744 0.04544735
0.33448574 0.0061057135 0.031670332
-0.64604199 0.029821388 0.045877934
0.35948673 0.099927954 0.044834971
-0.66677678 0.14587498 0.033114672
0.66368067 0.14676487 0.045960426
0.68601125 0.14645776 0.04152894
0.70875162 0.14628524 0.039037824
0.73192751 0.14624196 0.038411379
0.7558791 0.14640644 0.040786147
0.78034067 0.14669257 0.044917583
0.59369159 0.17021814 0.046805501
0.61558264 0.16968098 0.039829254
0.63706201 0.16903919 0.031490088
0.77812177 0.1694389 0.036682129
0.80387676 0.1701161 0.045480371
0.52231616 0.19306669 0.040356994
0.80270392 0.19314229 0.041248322
0.80247974 0.21641943 0.040439606
0.80359697 0.24016872 0.044470787
0.77671397 0.26214281 0.031457186
0.77850777 0.28618816 0.038114786
0.75689983 0.33370355 0.044686079
0.73029423 0.35532171 0.031982183
0.70806193 0.37922493 0.036237836
0.42829919 0.47247529 0.036221385
0.45305303 0.4740532 0.045132875
-0.20247363 -0.62775725 0.060637236
-0.17878041 -0.62698907 0.056479454
-0.15515164 -0.62622297 0.052332997
-0.13179278 -0.62669349 0.054879546
-0.10843069 -0.62745154 0.058982849
-0.085005596 -0.6282118 0.063097119
-0.29669657 -0.60471237 0.063214421
-0.27266097 -0.60352874 0.056529522
-0.24890527 -0.60279757 0.052399516
-0.22521283 -0.60206538 0.048264265
-0.061391223 -0.60252374 0.05085361
-0.037965357 -0.60324842 0.054946065
-0.014476398 -0.603975 0.059049606
-0.31988069 -0.58057368 0.059567451
0.0089419484 -0.57970929 0.054463148
-0.34301123 -0.55649537 0.055946112
0.032315314 -0.55569363 0.050986767
0.056140386 -0.55778408 0.063918114
-0.36608514 -0.5324713 0.052316427
0.079532176 -0.53371906 0.060420036
-0.4141697 -0.51047158 0.062142849
-0.38910607 -0.50850713 0.048712015
0.10286972 -0.50970656 0.056913137
0.1263611 -0.48628262 0.057263494
-0.43602255 -0.46178609 0.049458861
-0.46058846 -0.43939388 0.057764053
0.149277 -0.43821356 0.048181295
0.17321679 -0.41569906 0.055895925
-0.48263684 -0.39138156 0.047982216
0.19727837 -0.3930701 0.063650012
-0.50731802 -0.36880812 0.056279421
0.22002903 -0.34517741 0.054513216
0.24358311 -0.29835263 0.055595994
-0.55397391 -0.27482337 0.054629922
0.26791352 -0.25196213 0.06427002
0.29042527 -0.18101121 0.054829597
-0.60072994 -0.15752293 0.053797126
0.31488088 -0.13429812 0.063482285
-0.62514114 -0.087215856 0.058799028
0.33722746 -0.016829774 0.053930283
0.69055128 0.12427547 0.06055367
0.71284699 0.12397418 0.055662751
0.73561198 0.12380502 0.052915096
0.75910157 0.12381626 0.053098083
0.78339732 0.12401117 0.056262851
0.64217198 0.1473482 0.05437994
0.80649996 0.14738747 0.054946184
0.57273084 0.17115426 0.058966041
0.83247936 0.17152652 0.063800812
0.45590025 0.19496265 0.062745571
0.47844124 0.19447449 0.056979895
0.501118 0.19409367 0.052482605
0.83086455 0.19457185 0.058131218
0.83083606 0.21804443 0.058030963
0.80545789 0.26426905 0.051185966
0.78372991 0.31190318 0.057497025
0.68999314 0.40592182 0.058214784
0.64404327 0.43013933 0.06276226
-0.66987044 0.56817621 0.047998905
-0.64646983 0.56817967 0.048015475
-0.62307215 0.56818634 0.048048735
-0.59967095 0.56818992 0.048065186
-0.57863468 0.57096994 0.061440229
0.28969625 0.56818992 0.048065186
0.31309876 0.56818634 0.048048735
0.33650097 0.56818289 0.048032165
0.35990077 0.56817621 0.047998905
-0.2033723 -0.65446806 0.077314734
-0.17954861 -0.65365916 0.073111415
-0.15579005 -0.65285236 0.068919659
-0.13229868 -0.65331215 0.071308732
-0.10881113 -0.65411043 0.075456381
-0.085259907 -0.6549108 0.079615235
-0.29815421 -0.6314137 0.080428243
-0.27394131 -0.63007116 0.07316196
-0.25005448 -0.62929994 0.068986893
-0.061517231 -0.62897396 0.067222714
-0.037965357 -0.62973815 0.071359158
-0.014349708 -0.63050449 0.075507045
-0.22623158 -0.62852752 0.064806461
-0.32146859 -0.6071102 0.076756954
0.0091958605 -0.60608292 0.070955157
-0.34472567 -0.58286178 0.073077679
0.032695308 -0.58190709 0.067440987
0.056651376 -0.58412087 0.080512762
-0.36792886 -0.55867422 0.069424033
0.080169447 -0.5598951 0.076976776
-0.41629046 -0.53663528 0.079361439
-0.3910768 -0.53454411 0.06577909
0.10363267 -0.53572237 0.07343173
0.12727506 -0.51223868 0.074224472
-0.43839779 -0.48771614 0.067608953
-0.46311724 -0.46526128 0.076013803
0.1503153 -0.46382537 0.065041184
0.17439082 -0.44125098 0.072841644
-0.48528895 -0.41687912 0.066114664
0.1985895 -0.41856131 0.080682397
-0.51012504 -0.39424065 0.07451117
0.22146267 -0.37032565 0.071443319
-0.53226173 -0.34618399 0.065410018
0.24526188 -0.32335392 0.073769093
-0.55750102 -0.29988152 0.075456381
-0.57919204 -0.22845009 0.064588308
0.29238281 -0.20530662 0.072993398
-0.60457253 -0.18177204 0.07459569
0.34000567 -0.040105671 0.076486588
-0.65240169 0.0071675926 0.077652693
0.36242533 0.077585362 0.067289829
0.76636553 0.078211926 0.080851793
0.71698749 0.10141713 0.072471023
0.73954952 0.1011985 0.068415403
0.76240301 0.10105286 0.065711975
0.78680295 0.10122485 0.068902731
0.81179583 0.10150247 0.074055791
0.66902161 0.12480096 0.069087863
0.80913955 0.12451669 0.064471126
0.83573186 0.12517861 0.075220108
0.62118322 0.14814016 0.065812707
0.83410025 0.14839509 0.069491267
0.55160493 0.17209926 0.071241498
0.38696662 0.19595188 0.074427009
0.43383867 0.19576329 0.072201252
0.83263689 0.24215844 0.064353824
0.81078726 0.28991801 0.070416689
-0.58154112 0.50348055 0.077855587
-0.5805698 0.5260585 0.072370052
-0.57959902 0.54855251 0.066886902
-0.20428087 -0.68147218 0.094175339
-0.18032522 -0.68062162 0.089925885
-0.15643546 -0.67977351 0.085687876
-0.13280952 -0.68021607 0.08789897
-0.10919531 -0.68105519 0.092091799
-0.085516721 -0.68189663 0.096295953
-0.27523571 -0.65690482 0.089976907
-0.25121623 -0.65609252 0.085755944
-0.22726142 -0.65527916 0.081529617
-0.061644733 -0.65571326 0.083785534
-0.037965357 -0.65651804 0.087967157
-0.014221514 -0.65732497 0.092159986
-0.32307291 -0.63394409 0.094124079
0.0094525367 -0.63274366 0.087626696
-0.34646121 -0.60952932 0.090420246
0.033079438 -0.60840565 0.08407414
0.05716794 -0.61074543 0.097288847
-0.3697916 -0.58517015 0.08670795
0.080813669 -0.58635664 0.093713999
-0.41843316 -0.56309295 0.096758127
-0.39306784 -0.56087232 0.08302176
0.10440475 -0.5620243 0.090147376
0.12820017 -0.53848749 0.091392279
-0.44080153 -0.51395756 0.085976958
-0.4656764 -0.49144003 0.094483018
0.15136518 -0.48972267 0.082089067
0.17557798 -0.46708855 0.089977026
-0.48797286 -0.44268265 0.084464669
-0.5129658 -0.41997921 0.092962503
0.22291377 -0.3957569 0.088580132
-0.53565252 -0.37182102 0.086385012
0.24696076 -0.3486551 0.092160225
-0.56107384 -0.32528314 0.09655261
0.26974258 -0.27675751 0.082546949
-0.58290076 -0.25327173 0.085535169
0.29436386 -0.22989357 0.091375232
-0.60846794 -0.20635462 0.095680118
0.31744888 -0.15850599 0.08572185
-0.63130534 -0.11119615 0.090829372
0.36540544 0.054909691 0.090062261
0.77049738 0.055162571 0.096638322
0.79369503 0.055079646 0.094483018
0.72165269 0.078699477 0.091409206
0.7435317 0.078361578 0.084091067
0.79023236 0.078247868 0.081631184
0.81479335 0.078397669 0.084872365
0.84108222 0.078819476 0.094004393
0.69582403 0.10196542 0.082648635
0.83831668 0.10205414 0.084295154
0.67547113 0.10273967 0.097014904
0.64819884 0.12555769 0.08137691
0.86497015 0.12636271 0.094449043
0.60126489 0.14934793 0.083242536
0.86370695 0.1498251 0.090130448
0.86382663 0.17358479 0.090539575
0.41167974 0.19659194 0.081987262
0.86394131 0.1973494 0.090931773
0.83807486 0.26774579 0.083446145
-0.58349723 0.45808411 0.088903546
-0.58251888 0.48082471 0.083378196
0.27033442 0.57658601 0.088460803
-0.20519944 -0.70877463 0.11122215
-0.18111041 -0.70788169 0.10692573
-0.15708798 -0.70699102 0.10264099
-0.13332647 -0.70741647 0.10468721
-0.10958408 -0.70829737 0.1089257
-0.085776605 -0.70918077 0.11317599
-0.27654442 -0.68403453 0.10697734
-0.25239086 -0.68318027 0.10270965
-0.22830264 -0.68232501 0.098436594
-0.06177349 -0.68274039 0.10051167
-0.037965357 -0.68358642 0.10473895
-0.014092052 -0.68443489 0.10897756
-0.32469708 -0.66108662 0.11170602
-0.29962978 -0.65842086 0.097854137
0.0097120218 -0.6596961 0.10448074
-0.34821647 -0.63650012 0.10795987
0.03346777 -0.63519388 0.10088921
-0.37167734 -0.61197001 0.10420549
0.081464961 -0.61310834 0.11063468
-0.3950834 -0.587502 0.10047722
0.10518448 -0.58861166 0.10702908
0.12913477 -0.56502932 0.10873604
-0.44323432 -0.54051596 0.10456681
-0.46826661 -0.51793575 0.11317599
0.15242682 -0.51591039 0.09932816
0.17677969 -0.49321905 0.10732198
-0.49068916 -0.4687975 0.10303628
-0.51583821 -0.44602719 0.11161971
0.19991668 -0.44434014 0.097922564
0.22437972 -0.42147219 0.10589206
-0.5390873 -0.39781025 0.10763228
0.24868017 -0.37426159 0.11077321
0.27159363 -0.30185118 0.10104358
-0.58666366 -0.27843693 0.1067878
0.29636881 -0.25477701 0.10997868
0.32011229 -0.18308814 0.10878778
0.34282744 -0.063728914 0.099396586
-0.65889585 -0.01596513 0.11009955
0.36843252 0.031894147 0.11319351
0.77467197 0.031875387 0.11258805
0.79768401 0.031773895 0.10928822
0.82206696 0.031830236 0.11111867
0.72637588 0.055699475 0.11058319
0.74762893 0.055300497 0.10021996
0.81836253 0.055205494 0.09775126
0.84386522 0.055437334 0.1037755
0.70037764 0.079176225 0.10173047
0.8683731 0.079377122 0.1060816
0.86666846 0.10291418 0.10025418
0.628326 0.12664008 0.098950744
0.53323972 0.17427313 0.099482536
0.8675074 0.22220981 0.103122
0.27241179 0.53315026 0.10921907
0.27136874 0.55493933 0.098796725
-0.5634383 0.58116966 0.11051404
-0.65799516 0.6039955 0.1055994
-0.63414782 0.6039955 0.1055994
-0.61030692 0.60400289 0.10563385
-0.58646238 0.60400659 0.10565114
-0.5626176 0.60401034 0.10566854
0.27205643 0.60401034 0.10566854
0.29590055 0.60400289 0.10563385
0.31974614 0.60399926 0.10561657
0.34359145 0.6039955 0.1055994
-0.20612824 -0.73638046 0.12845862
-0.18190432 -0.73544401 0.12411416
-0.15774773 -0.73451018 0.11978173
-0.13384855 -0.73491114 0.12164199
-0.1099767 -0.73583484 0.12592733
-0.086039081 -0.73676103 0.13022423
-0.013961038 -0.71184558 0.12599683
-0.27786765 -0.71146512 0.12416649
-0.25357845 -0.71056825 0.11985135
-0.22935537 -0.70967019 0.11553073
-0.06190379 -0.71006656 0.11743796
-0.037965357 -0.7109549 0.12171149
-0.32633984 -0.68854028 0.12948966
-0.30112076 -0.68573254 0.11546135
0.0099743567 -0.68694526 0.12152028
-0.3499901 -0.66377646 0.12568295
0.033860356 -0.66227651 0.11788917
-0.37358463 -0.63907623 0.12190306
0.057690181 -0.63766217 0.11424911
0.082123429 -0.64015514 0.12774241
-0.39711997 -0.61443275 0.11811471
0.1059728 -0.61549181 0.12409675
-0.42064297 -0.58991063 0.11469913
0.13007993 -0.59187126 0.12627614
-0.44569436 -0.5673942 0.12336504
0.15350151 -0.54239619 0.11677885
0.17799377 -0.51964265 0.1248461
-0.49343845 -0.49522975 0.12183332
-0.51874834 -0.47239441 0.13052154
0.2012575 -0.47040778 0.11534023
0.22586226 -0.44747818 0.12339985
-0.54257268 -0.42416266 0.12919247
0.25042045 -0.40017897 0.12961209
-0.56469899 -0.3510381 0.11795843
0.27346706 -0.32724866 0.11976445
-0.5904758 -0.30395085 0.12831879
0.29839808 -0.27996257 0.12880802
-0.61242044 -0.23127836 0.11707377
-0.63760036 -0.13568516 0.12353933
0.34569168 -0.087707512 0.12265134
0.77861547 0.0083223954 0.12765503
0.80165505 0.0082385316 0.12402701
0.82608861 0.008275561 0.12563074
0.7311582 0.032411598 0.1299969
0.75252771 0.032088511 0.11950386
0.84751457 0.03199856 0.11658812
0.87524605 0.032398671 0.12957704
0.70584816 0.056240931 0.12465429
0.87103587 0.055876508 0.11518431
0.68089747 0.080043636 0.12051177
0.89815593 0.080289833 0.12584007
0.65566874 0.10370005 0.11483777
0.89740252 0.10415763 0.12333047
0.89752799 0.12816718 0.1237483
0.58398283 0.15156087 0.11518419
0.89844406 0.15236551 0.1267997
0.27451733 0.48912513 0.13025928
0.27346012 0.51121056 0.11969495
-0.56658977 0.53698069 0.12912261
-0.56500781 0.55913943 0.11978173
0.2500897 0.60839957 0.12603188
-0.2070674 -0.76429456 0.14588737
-0.18270707 -0.76331383 0.14149427
-0.15841484 -0.76233572 0.13711345
-0.13437691 -0.76271266 0.1388011
-0.11037407 -0.7636798 0.1431334
-0.27920559 -0.73920161 0.1415472
-0.25477809 -0.73825741 0.13716626
-0.2304198 -0.73731947 0.132815
-0.062035389 -0.73768985 0.13453305
-0.037965357 -0.73862106 0.13885367
-0.013828712 -0.73955506 0.14318633
-0.30263028 -0.71336108 0.13328826
0.010239601 -0.7144959 0.13874829
-0.3517859 -0.69137001 0.14362752
0.034257293 -0.68965864 0.13507676
-0.37551191 -0.66649061 0.13978624
0.058218725 -0.66487938 0.13141418
0.08278919 -0.66750169 0.14503944
-0.39918196 -0.64167553 0.1359719
0.10676984 -0.64266974 0.14135337
-0.42297569 -0.6171813 0.13363874
0.13103679 -0.61902165 0.14403343
-0.44818678 -0.59460378 0.14241064
0.15458733 -0.56917971 0.13441026
0.1792217 -0.54636675 0.14256942
-0.47088593 -0.5447517 0.13207936
-0.49621877 -0.52198237 0.14084256
0.20261349 -0.49677089 0.13295531
0.22736162 -0.47377977 0.14110684
-0.56837183 -0.37715095 0.13964546
0.27536336 -0.35295546 0.13871312
-0.61642486 -0.25654882 0.13874817
0.32281592 -0.20804143 0.13220203
0.34859714 -0.1120492 0.14624071
-0.66553223 -0.039591689 0.14325702
0.78250062 -0.01546615 0.14249897
0.80564982 -0.015522242 0.13885391
0.83014816 -0.015500408 0.14027929
0.85575414 -0.015419811 0.1455164
0.75676024 0.0085189342 0.13616502
0.85161275 0.0083990321 0.13097632
0.87949556 0.0087022111 0.144104
0.68646002 0.057008691 0.14459813
0.9024592 0.056838386 0.14017355
0.61156839 0.1287255 0.132815
0.90289277 0.17751673 0.14161766
-0.56817824 0.51468498 0.13850212
0.25205451 0.56464744 0.14730132
0.25106794 0.58659601 0.13662171
-0.54499179 0.61230624 0.14415681
-0.20801713 -0.79252219 0.16351187
-0.18351883 -0.79149622 0.15906942
-0.15908942 -0.79047316 0.15463924
-0.13491057 -0.79081798 0.15613234
-0.11077543 -0.79182971 0.16051316
-0.28055859 -0.76724935 0.15912271
-0.25599232 -0.76626027 0.15469265
-0.23149616 -0.76527804 0.15029263
-0.086304724 -0.76464969 0.14747822
-0.062168576 -0.76562232 0.15183485
-0.037965357 -0.76659763 0.15620363
-0.013694784 -0.76757562 0.16058445
-0.30415574 -0.7413044 0.15130281
0.010508068 -0.74235696 0.15618575
-0.35360068 -0.71927917 0.16176188
-0.32799992 -0.71630663 0.14746034
0.034658641 -0.71734488 0.15245569
0.083462387 -0.69515318 0.16252959
-0.37746346 -0.69422537 0.1578939
0.058752596 -0.69239569 0.14875209
-0.40126571 -0.66922957 0.15401769
0.10757577 -0.67015022 0.15880215
0.13200366 -0.64647979 0.1619761
-0.42533705 -0.64478642 0.15281057
-0.45070988 -0.62214798 0.16169059
0.15568554 -0.59626883 0.15224266
-0.47353977 -0.57189918 0.151232
0.18046363 -0.57339656 0.16049528
-0.49903587 -0.54906625 0.16010296
0.20398496 -0.52343452 0.15077114
-0.52169418 -0.4990848 0.14965498
0.22887814 -0.50038195 0.15901589
-0.54610401 -0.45088217 0.15103698
0.25218031 -0.426411 0.14866364
-0.57209629 -0.40363041 0.16163707
0.27728286 -0.37897712 0.1578939
-0.59434128 -0.32982177 0.1501509
0.30045214 -0.30545565 0.14786732
0.32556072 -0.23337445 0.15597248
-0.64403039 -0.16069931 0.15695059
0.78642285 -0.039482176 0.15748453
0.80967808 -0.039510399 0.15380466
0.83424598 -0.039500695 0.15506577
0.85993421 -0.039461337 0.16019225
0.73937893 -0.015144996 0.16336894
0.76061475 -0.015330054 0.15133846
0.88377947 -0.015216041 0.15874875
0.73553419 0.0087866262 0.14776123
0.71155655 0.032983601 0.14857507
0.90680748 0.033170834 0.15465713
0.6630581 0.081310473 0.14793801
0.63967514 0.10568117 0.15160429
-0.57138699 0.46969265 0.15744889
-0.56977922 0.49225843 0.14795589
0.25304615 0.54254514 0.15803647
-0.54806292 0.56782055 0.16315472
-0.54652268 0.59013057 0.15362716
-0.15977156 -0.81892741 0.17236269
-0.13545072 -0.81924063 0.17367482
-0.28192681 -0.79561329 0.17689681
-0.037965357 -0.79488164 0.17372859
-0.013559498 -0.79590476 0.17815864
-0.25722027 -0.79457867 0.17241645
-0.2325846 -0.79355109 0.16796684
-0.086573042 -0.79284424 0.16490602
-0.062303111 -0.79386151 0.16931117
-0.30570039 -0.76957577 0.16954434
0.010779269 -0.77052599 0.17380059
-0.35543838 -0.74751687 0.18012524
0.035064474 -0.74534076 0.17002869
-0.32968086 -0.74439842 0.16565728
-0.37943569 -0.72227883 0.17619419
0.059292428 -0.72021896 0.16628361
0.084143117 -0.72311467 0.1802156
-0.40337569 -0.69710678 0.1722908
0.10839072 -0.6979385 0.17644632
-0.42772755 -0.67273229 0.17221892
0.13298164 -0.67425394 0.18012547
0.15679632 -0.62366879 0.17027998
-0.47622636 -0.59938127 0.1706208
0.18171987 -0.60073721 0.17862737
-0.5018878 -0.57648528 0.17960179
0.20537215 -0.55040401 0.16879129
-0.52467626 -0.52610427 0.16902423
0.23049605 -0.52743495 0.17812252
-0.54968804 -0.47798064 0.17320728
0.2539635 -0.45296744 0.16796684
0.27922603 -0.40531969 0.1773113
-0.59826118 -0.35605723 0.1722908
0.30253145 -0.33126208 0.16716087
-0.6223532 -0.28287435 0.17083633
0.32834756 -0.25909591 0.18010736
0.35154915 -0.13676293 0.1702081
0.79038745 -0.063728914 0.1726321
0.81374973 -0.063728958 0.1689167
0.83837765 -0.063728914 0.1699748
0.8641535 -0.063728958 0.17500591
0.74326211 -0.039315488 0.17913258
0.76450229 -0.039411731 0.16664159
0.88810891 -0.03935856 0.17354894
0.71593201 0.0092289224 0.16691017
0.91119087 0.0092830807 0.1692574
0.69367778 0.033823587 0.17585194
0.67005426 0.058343448 0.17927694
0.25505164 0.49788696 0.17974627
0.25404626 0.52029425 0.16886306
-0.54961538 0.54537827 0.17275786
0.23021996 0.61892468 0.17486191
-0.62137324 0.64122218 0.16553199
-0.5970614 0.64121836 0.16551423
-0.57275289 0.64121836 0.16551423
-0.54844439 0.64121836 0.16551423
-0.52509618 0.64261079 0.17175186
0.22942841 0.64121836 0.16551423
0.25373691 0.64121836 0.16551423
0.27804545 0.64121836 0.16551423
0.30235592 0.64122218 0.16553199
0.32666454 0.64122218 0.16553199
-0.30726308 -0.79817706 0.18799865
0.011053521 -0.79901218 0.19161379
-0.33137974 -0.77281362 0.18404806
0.035474867 -0.77365106 0.18779898
-0.38143298 -0.75066417 0.19472659
0.059838317 -0.74835467 0.18401194
-0.40550825 -0.72530603 0.19075918
0.10921484 -0.72603983 0.19428921
-0.43014774 -0.70102519 0.19186831
-0.45326421 -0.65003318 0.18120909
0.15791991 -0.65138477 0.18852496
-0.47894633 -0.62720472 0.19025028
0.18299191 -0.62839752 0.19698775
0.20677674 -0.57768726 0.18703735
-0.52769536 -0.55345887 0.1886338
-0.55331999 -0.50546145 0.1956743
0.25576872 -0.47985226 0.18750906
-0.57587332 -0.43048438 0.18393958
0.28119329 -0.43198889 0.19696939
-0.60223681 -0.38266486 0.19474483
0.30463645 -0.3573876 0.18669295
-0.65060681 -0.18625723 0.19112289
0.35454887 -0.16185752 0.19456255
0.77172482 -0.088264965 0.19507277
0.79421479 -0.088204764 0.18725502
0.81770468 -0.088176638 0.18359554
0.84273952 -0.088192932 0.18571424
0.86925697 -0.08824838 0.19292367
0.74718428 -0.063728914 0.19505465
0.76842791 -0.063728958 0.18209457
0.89247918 -0.063728914 0.18848884
0.7197023 -0.014847163 0.18270946
0.91562045 -0.014827114 0.18401194
0.69775903 0.0098434985 0.19352436
0.25606561 0.47532785 0.19072282
-0.55274588 0.50007844 0.19212294
-0.5511744 0.52279574 0.18240201
-0.52851558 0.59851384 0.19396138
0.23118955 0.59692407 0.18631232
-0.52679992 0.62063944 0.18281794
0.20720045 0.64725196 0.19254148
-0.38345176 -0.77937925 0.21345854
-0.35729575 -0.77608132 0.19868553
0.060390376 -0.77680796 0.2019403
-0.40766796 -0.75384051 0.209463
0.084832229 -0.75139558 0.19811952
0.11004831 -0.75445944 0.21233439
-0.43259588 -0.7296679 0.2117449
0.13397098 -0.70234948 0.19848478
0.15905772 -0.67942601 0.20700026
-0.4558503 -0.67826563 0.20097065
-0.48169768 -0.65537202 0.21010649
-0.50477523 -0.60424572 0.19934344
0.20819624 -0.60528433 0.205477
-0.53074932 -0.58115214 0.20846999
0.23216152 -0.5548687 0.19779074
0.2575964 -0.5070715 0.20729423
-0.57970423 -0.45772076 0.20655978
0.30676767 -0.38383809 0.20646811
-0.62871587 -0.30987489 0.20527518
0.33117536 -0.28521329 0.20459664
0.77467084 -0.11297964 0.20666993
0.79787153 -0.11289572 0.20122659
0.82169652 -0.11285245 0.1984117
0.84740871 -0.11291647 0.20256293
0.74976981 -0.088345706 0.20555043
0.89888358 -0.088382788 0.21038282
0.72697425 -0.063728862 0.21318197
0.7235105 -0.039165135 0.19866729
0.92008621 -0.039163452 0.19888651
0.70158851 -0.014425311 0.21010661
0.65007138 0.083707564 0.19983685
-0.55591196 0.45421785 0.21170807
-0.55432409 0.47721827 0.2018857
0.23306116 0.55224025 0.20841491
-0.53024334 0.57623249 0.20518363
0.23212287 0.57466143 0.19733441
-0.5064168 0.62662053 0.21056664
0.20812987 0.62533766 0.20461512
-0.50476986 0.64876217 0.19930685
-0.40985104 -0.78270793 0.22836888
0.085528463 -0.77999306 0.21620786
0.13497277 -0.73077595 0.21707606
-0.45846641 -0.70684814 0.22096133
0.16020766 -0.70779115 0.22567284
-0.48448616 -0.68389666 0.23023081
0.18427746 -0.65637642 0.21554315
-0.50769615 -0.63235039 0.2193135
0.20963226 -0.63320345 0.22413182
0.23384777 -0.582645 0.21770453
-0.55700392 -0.53333533 0.21846271
0.25944698 -0.53463173 0.22732711
-0.58359003 -0.48534793 0.22950447
0.28318512 -0.45899108 0.21687293
-0.60626924 -0.40965301 0.21751976
0.30892551 -0.41061977 0.22649062
0.33404928 -0.31173864 0.22948587
-0.65732396 -0.21237493 0.22602594
0.35759282 -0.18734084 0.21927655
0.80528247 -0.1629346 0.22954178
0.75553751 -0.13811988 0.22896469
0.77781701 -0.13789095 0.21905458
0.8015607 -0.13780476 0.21532166
0.82627249 -0.13780645 0.21539569
0.85222518 -0.1379115 0.21994293
0.75264543 -0.11314201 0.217224
0.8752529 -0.11309197 0.21397483
0.72919333 -0.088475958 0.22248077
0.92550832 -0.063728862 0.21694696
0.70545381 -0.038948294 0.22684383
0.6781916 0.035051316 0.21572781
-0.53368694 0.53113699 0.22755051
0.23400754 0.52966654 0.21959114
-0.53198332 0.55379361 0.21648502
0.21001002 0.581007 0.22903907
-0.5080753 0.60432214 0.2219063
0.20906636 0.60325688 0.21678054
-0.48408639 0.65502161 0.22734594
0.18476839 0.65396869 0.22262919
-0.58329064 0.67989635 0.22773635
-0.55850309 0.67989635 0.22773635
-0.53371561 0.67989635 0.22773635
-0.50892806 0.67989635 0.22773635
-0.48413798 0.67989206 0.22771788
0.18512096 0.67989206 0.22771788
0.20990975 0.67989635 0.22773635
0.23469728 0.67989635 0.22773635
0.25948477 0.67989635 0.22773635
0.28427228 0.67989635 0.22773635
0.11089127 -0.78320259 0.23058474
-0.43507707 -0.7586745 0.23188972
0.13598533 -0.75953168 0.23586702
-0.46111795 -0.73579472 0.2412225
0.1613711 -0.73648942 0.24456501
0.18557808 -0.68468302 0.23431611
-0.5106566 -0.6608125 0.23955405
0.21108517 -0.66145015 0.24300551
-0.53413403 -0.60951442 0.23045433
0.23555523 -0.61077011 0.23786855
-0.56074083 -0.56161028 0.24157906
0.285202 -0.48633239 0.23702645
-0.61035967 -0.43702963 0.24062264
0.31111059 -0.43773896 0.24676549
-0.63521862 -0.33747005 0.24047244
0.36068669 -0.2132234 0.24439573
0.80949014 -0.18835464 0.24561775
0.75845551 -0.16328155 0.24080992
0.78143775 -0.16305055 0.23330784
0.83089751 -0.16302752 0.23256123
0.85816401 -0.16329882 0.2413727
0.73367029 -0.1384034 0.24124146
0.88133395 -0.13826665 0.23532498
0.73142529 -0.11336693 0.23183393
0.90738416 -0.11348421 0.23944175
0.70912981 -0.088632107 0.24276149
0.70760238 -0.063728914 0.2361474
0.68216205 0.010767005 0.233513
0.23591867 0.48403907 0.2421608
-0.53522652 0.50812149 0.23755038
0.23495898 0.50693101 0.23082709
-0.51142794 0.55924797 0.2448281
0.21096091 0.55858684 0.24139154
-0.50974572 0.58186501 0.23332644
-0.48567426 0.63270706 0.23880482
0.18562078 0.63187253 0.23493254
-0.46140286 0.68351382 0.24339998
0.16114101 0.68291998 0.24082887
-0.48730996 -0.71278208 0.25060952
0.18689401 -0.71332258 0.25330961
-0.51365447 -0.68963557 0.26005125
0.21255523 -0.69003046 0.26210213
