ply
format ascii 1.0
comment PCL generated
element vertex 1359
property float x
property float y
property float z
element camera 0
property float view_px
property float view_py
property float view_pz
property float x_axisx
property float x_axisy
property float x_axisz
property float y_axisx
property float y_axisy
property float y_axisz
property float z_axisx
property float z_axisy
property float z_axisz
property float focal
property float scalex
property float scaley
property float centerx
property float centery
property int viewportx
property int viewporty
property float k1
property float k2
end_header
-0.23978609 0.46910882 -0.29877901
0.010005385 0.47063911 -0.29013574
-0.26158091 0.49109155 -0.29267311
-0.054055184 -0.49472314 -0.27329159
-0.28469703 -0.49371678 -0.27897537
-0.28533894 -0.47338194 -0.27500486
-0.26327479 -0.47225296 -0.28167105
0.13538714 -0.43189836 -0.27116096
0.17750196 -0.41045254 -0.2737478
0.19845918 -0.38859296 -0.27960861
0.28290799 -0.32668453 -0.27009451
0.30396715 -0.30557603 -0.27039933
0.32447323 -0.2625789 -0.27960861
0.34609824 -0.24233763 -0.27062082
0.36646098 -0.19955671 -0.27982867
0.38792157 -0.15784802 -0.27439725
0.38729048 -0.13646132 -0.28184962
0.8927471 -0.094698481 -0.27511525
0.40893978 0.094651371 -0.27465951
0.38725328 0.1363212 -0.28228927
0.38824838 0.15802644 -0.27053785
0.36689398 0.19988865 -0.27420378
0.34564924 0.24170874 -0.27710176
0.32442069 0.26239431 -0.28046143
0.19857092 0.38955516 -0.27235115
0.13537465 0.43212605 -0.26954019
-0.28473487 0.47265661 -0.27874148
-0.28575447 0.49483085 -0.27243412
-0.053628236 0.49364769 -0.27883768
-0.33157396 -0.47736061 -0.25151205
-0.3081418 -0.47514707 -0.2645824
0.050690643 -0.47591186 -0.26006722
0.093124546 -0.45386046 -0.26562536
0.22009191 -0.39237523 -0.25231254
0.24112107 -0.37038374 -0.2582655
0.26205957 -0.34848702 -0.2641927
0.32559848 -0.28540981 -0.26133692
0.34737253 -0.26510817 -0.25222826
0.36786729 -0.22196366 -0.26155996
0.38977978 -0.20145333 -0.25245285
0.38855493 -0.17935118 -0.26691759
0.41080588 -0.13772656 -0.25445855
0.41010866 -0.11624 -0.26200604
0.40966135 0.11605255 -0.26684809
0.41076058 0.13779442 -0.25494897
0.38925326 0.17992085 -0.25867069
0.36780506 0.22193477 -0.26236856
0.3473084 0.26512706 -0.2531544
0.32589269 0.2859661 -0.25655913
0.30452991 0.30675364 -0.25995553
0.28321981 0.32748997 -0.26334345
0.26196164 0.3481735 -0.2667371
0.24106431 0.37019324 -0.26010919
0.17762814 0.41292197 -0.25735664
0.093077965 0.45421052 -0.2636081
-0.3316063 0.47751004 -0.25132954
-0.30791572 0.47492707 -0.26591718
0.029700771 0.47533852 -0.26359415
-0.034310952 0.4981572 -0.25443041
-0.034828961 -0.49938631 -0.24695408
-0.3339529 -0.45831418 -0.23807573
0.11381388 -0.4582774 -0.23830259
0.1564545 -0.43608779 -0.24394906
0.19897148 -0.41446209 -0.24633372
0.28445503 -0.35188562 -0.23659992
0.30546403 -0.32985681 -0.24262083
0.326738 -0.30854702 -0.2428329
0.36929148 -0.24467154 -0.24305904
0.41221318 -0.18105654 -0.2392242
0.41150692 -0.15933135 -0.24686944
0.43273589 0.095711224 -0.247123
0.43353066 0.11733048 -0.23918152
0.41186935 0.15972579 -0.24294603
0.3902669 0.20200589 -0.24670017
0.3687771 0.24423645 -0.24974132
0.30583745 0.33089578 -0.23569095
0.2843371 0.35178322 -0.23915303
0.22025995 0.39355022 -0.24503601
0.1564545 0.43654853 -0.24218273
-0.33394793 0.45852971 -0.2381041
0.11378722 0.45878929 -0.23657143
0.049785204 0.48012793 -0.23654306
-0.015227884 -0.50413769 -0.22011828
-0.35587573 -0.48018694 -0.23482406
0.070998661 -0.48055786 -0.23263311
-0.37991756 -0.46110326 -0.2208221
-0.35653585 -0.45941734 -0.23125124
-0.31444168 -0.4600426 -0.22738338
0.24216142 -0.39623195 -0.22447908
0.26335436 -0.37401038 -0.23055279
0.3486641 -0.28818685 -0.23358667
0.37073612 -0.26768875 -0.22429287
0.39135802 -0.2240995 -0.23381436
0.4135713 -0.20338844 -0.22452199
0.43479574 -0.13901597 -0.22653997
0.43402505 -0.1173087 -0.23424101
0.43474567 0.13929825 -0.22704041
0.41298783 0.1818492 -0.23083794
0.39128938 0.22428408 -0.23462498
0.39237434 0.24681617 -0.22181249
0.37065786 0.26791364 -0.22530949
0.34899783 0.28896093 -0.22876906
0.32739073 0.30995464 -0.23223424
0.26327705 0.37401026 -0.23256195
0.19922608 0.4171651 -0.22979665
-0.37973517 0.46129614 -0.22176933
-0.35616219 0.4593479 -0.23327374
-0.31513011 0.46103382 -0.22331846
-0.35613328 0.48067921 -0.23343027
-0.014644146 0.50274503 -0.22959709
0.091716282 -0.4852978 -0.20464551
-0.40478748 -0.46386164 -0.20375931
-0.29506576 -0.46207106 -0.21483564
0.13491973 -0.46278095 -0.21044445
-0.40488642 -0.44235146 -0.20326471
0.17794505 -0.4403615 -0.21619058
0.22087558 -0.41855091 -0.21837866
0.30730554 -0.35535318 -0.20844662
0.32847732 -0.33309358 -0.21459019
0.34997219 -0.31157833 -0.21470582
0.37219939 -0.29101926 -0.2052846
0.39295655 -0.24705279 -0.21493649
0.41532689 -0.22627777 -0.20551693
0.43635005 -0.18279426 -0.21100843
0.43557072 -0.16084416 -0.21879566
0.45843005 -0.1183992 -0.20590889
0.95147711 -0.075012088 -0.21663702
0.45788512 0.11863372 -0.21096504
0.43597138 0.16145958 -0.21479213
0.41411617 0.20416726 -0.21862328
0.4152545 0.22668239 -0.20630074
0.35071647 0.31321913 -0.20396256
0.32891458 0.33436942 -0.20749009
0.30716747 0.35546654 -0.21100855
0.28594035 0.3779068 -0.20444214
0.24238604 0.3976239 -0.21718419
-0.40446764 0.44250166 -0.20535731
-0.38152516 0.44135207 -0.21246827
0.1779598 0.4410603 -0.21427298
-0.29486069 0.46225542 -0.21610403
-0.27415845 0.4631235 -0.21097958
-0.25338006 0.46399456 -0.20583618
0.13490848 0.46346164 -0.20898247
0.070269078 0.48501545 -0.20893908
0.0053798556 0.50741935 -0.20429707
0.0047563761 -0.50898755 -0.19272649
-0.27551422 -0.46411794 -0.20217371
-0.25578454 -0.46618348 -0.18939662
-0.12510061 -0.46537054 -0.19442499
-0.42897147 -0.44419974 -0.1912607
-0.384112 -0.44300401 -0.19902682
0.19987161 -0.44472188 -0.18786871
0.24322766 -0.42272329 -0.18985188
0.26468131 -0.40016747 -0.19607747
0.28604043 -0.37771088 -0.20227551
0.39457703 -0.27032077 -0.19579995
0.43784863 -0.20536214 -0.19603372
0.4601289 -0.16238801 -0.19014561
0.45927709 -0.14033185 -0.19804943
0.97995007 -0.010550831 -0.19275582
0.4592205 0.14083225 -0.19857466
0.43720794 0.18381689 -0.20243561
0.43845549 0.20637292 -0.1899693
0.41645429 0.24944909 -0.19331241
0.3944867 0.27076006 -0.19686651
0.37257338 0.29201549 -0.20042646
0.26496276 0.40178066 -0.18876517
0.22126225 0.42150074 -0.20163524
-0.4291575 0.44492531 -0.19036567
-0.3625837 0.44360757 -0.19851625
-0.23252514 0.46486884 -0.20067394
-0.2115894 0.46574128 -0.19552207
-0.19057485 0.46661448 -0.19036579
0.11285602 -0.49013418 -0.17608774
-0.23587438 -0.46826792 -0.17650282
-0.17025536 -0.46794468 -0.1785022
-0.1476143 -0.46665394 -0.18648601
0.1564545 -0.46737832 -0.18200529
-0.36574596 -0.44571787 -0.18139982
-0.45397866 -0.42477322 -0.17583597
-0.43042606 -0.42354077 -0.18426228
-0.41067028 -0.42498815 -0.17436719
0.30919397 -0.38148946 -0.17340207
0.33062598 -0.35889375 -0.17970037
0.35196298 -0.33639824 -0.18597102
0.37368503 -0.3146736 -0.18598557
0.39622235 -0.29391283 -0.17636943
0.41710663 -0.24948193 -0.18625057
0.43978831 -0.22849986 -0.17665112
0.46098551 -0.18456848 -0.18219721
0.48333707 -0.11951166 -0.17700672
0.98347062 0.011212749 -0.18072033
0.48274115 0.11996387 -0.18216765
0.46056929 0.16322905 -0.18605936
0.46192858 0.18582538 -0.17344666
0.43971419 0.22913048 -0.17739189
0.39663726 0.29513621 -0.17146993
0.37452346 0.31655264 -0.17509413
0.35246712 0.33791608 -0.17869461
0.33046678 0.35922527 -0.18228579
0.3090668 0.38188076 -0.17576182
-0.43012911 0.42395538 -0.18569112
-0.45395309 0.42545462 -0.17595446
-0.41088718 0.42586583 -0.17328322
0.24374974 0.42592531 -0.17289698
-0.34378111 0.44618607 -0.18256605
0.19990355 0.44566417 -0.18579412
-0.16948137 0.46748847 -0.18520522
-0.14831051 0.46836561 -0.18002582
0.1564545 0.46822548 -0.18085325
0.091165118 0.49000114 -0.18077934
0.025771916 0.51217949 -0.17853177
0.025137946 -0.51393104 -0.16480613
-0.21578124 -0.47037137 -0.16349053
-0.19302315 -0.46924019 -0.170488
-0.3462835 -0.44771427 -0.16843259
-0.32664171 -0.44972914 -0.15534568
0.22224799 -0.44917411 -0.15895128
-0.39248949 -0.42774826 -0.155496
0.2660422 -0.42698413 -0.16072071
-0.47945541 -0.40525347 -0.15937138
-0.4568944 -0.40484649 -0.16230834
0.28766623 -0.40418607 -0.16707563
0.37593603 -0.33977312 -0.156744
0.39789057 -0.31783307 -0.1566689
0.41891241 -0.27300876 -0.16670263
0.44175944 -0.25196272 -0.15695429
0.46262646 -0.20737568 -0.16697109
0.48519513 -0.16396314 -0.16091561
0.48426345 -0.14167434 -0.16898394
0.48420325 0.14239854 -0.16950536
0.48567683 0.16503449 -0.15674388
0.46330008 0.2086245 -0.16072071
0.44103351 0.25213754 -0.16420817
0.41880631 0.27366358 -0.16785121
-0.47921103 0.40591961 -0.16046584
-0.455764 0.40488321 -0.16755271
0.28800476 0.40602505 -0.15974641
-0.39219153 0.42836607 -0.15704441
-0.32476386 0.44879401 -0.16643393
0.22229826 0.45035553 -0.15677392
0.1344309 -0.49507016 -0.14694226
0.17843162 -0.47207016 -0.15298212
-0.30681795 -0.45176274 -0.14213753
-0.43770212 -0.40665525 -0.14925551
-0.50482029 -0.38527316 -0.14448893
-0.48229432 -0.3849898 -0.14665473
0.33282992 -0.38534868 -0.14391279
0.35443139 -0.36250973 -0.15034294
0.42074618 -0.29686683 -0.14685142
0.46476382 -0.23077174 -0.14713895
0.48613209 -0.18637881 -0.15280128
0.50916803 -0.12077378 -0.14421606
0.50838178 0.12142181 -0.15059936
0.48731259 0.18796396 -0.14257789
0.46468395 0.23162939 -0.14788008
0.42120126 0.29832041 -0.14192486
0.39882571 0.31995535 -0.14562523
0.37650901 0.34153652 -0.14930069
0.3542496 0.36306214 -0.15296686
-0.50477833 0.38618892 -0.14467072
-0.48091543 0.3850581 -0.15283144
0.33267128 0.38593698 -0.14648819
-0.43691188 0.40700334 -0.15305734
-0.37328041 0.43089509 -0.14061856
0.26670316 0.43044376 -0.14354885
-0.30552816 0.45143199 -0.15011632
0.17843799 0.47308606 -0.15215313
0.11248635 0.49508291 -0.15207779
0.046535864 0.51705855 -0.15212297
0.04592903 -0.51896805 -0.13635671
0.20086485 -0.47685945 -0.12335646
-0.2868098 -0.4538151 -0.12880671
0.24508755 -0.45371604 -0.1294502
-0.37406498 -0.43054545 -0.13637197
0.28933266 -0.43133163 -0.13099623
-0.41954076 -0.40931684 -0.13004732
0.31113023 -0.40828842 -0.13746905
-0.4648397 -0.38776517 -0.1254468
-0.53062713 -0.36517364 -0.12871468
-0.50676173 -0.3642661 -0.13608241
-0.53203428 -0.34369051 -0.12281799
0.40041089 -0.34321856 -0.12690532
0.42260572 -0.3210606 -0.12672126
0.44375974 -0.27575564 -0.13696635
0.46719599 -0.25470486 -0.12457108
0.48828283 -0.20964776 -0.1341753
0.5116539 -0.16595063 -0.12403297
0.51040661 -0.14328282 -0.13416016
0.51034832 0.14427772 -0.13463318
0.48916838 0.21125832 -0.12650621
0.46619055 0.25493729 -0.1339004
0.44363475 0.27662945 -0.1382153
-0.53199393 0.34477746 -0.12298727
-0.53064907 0.36624783 -0.12862277
-0.50633246 0.36502838 -0.13794112
0.3785311 0.36697942 -0.12303317
-0.46240932 0.3872903 -0.13672245
-0.41904479 0.41000634 -0.13252556
0.31152523 0.41035527 -0.13013923
-0.35415006 0.4334532 -0.12400234
-0.28607023 0.45410019 -0.13361025
0.24515836 0.45514435 -0.12715077
0.20087242 0.4780463 -0.12286413
0.13424495 0.50026888 -0.12278724
0.067617238 0.5224728 -0.12281811
0.0671404 -0.52410692 -0.10733235
0.1564545 -0.50010884 -0.11719048
-0.26661238 -0.45588446 -0.11536658
-0.35539174 -0.43338025 -0.11698973
-0.4011308 -0.41201222 -0.11059475
0.33508652 -0.41247278 -0.10727024
0.35696074 -0.38928491 -0.1138345
-0.48858243 -0.36643326 -0.1184876
0.37873501 -0.36619949 -0.12038469
-0.55700243 -0.34498382 -0.11161864
-0.51244003 -0.34499806 -0.11149466
-0.55746114 -0.32288897 -0.10975659
0.44596931 -0.3000657 -0.114887
0.4912262 -0.23373197 -0.1086849
0.51291192 -0.18877953 -0.11381888
0.53563482 0.12327743 -0.11042404
0.51233882 0.1673914 -0.11847198
0.4910433 0.23481418 -0.11026883
0.44661954 0.30193472 -0.10838962
-0.55695659 0.32386053 -0.11180472
-0.53524387 0.32414198 -0.10936832
0.42364034 0.32343161 -0.11552119
-0.5580008 0.34667689 -0.10756576
-0.51266569 0.34631324 -0.11051714
0.40105575 0.34523273 -0.11928999
-0.48819679 0.36734813 -0.12021494
-0.44462365 0.39016789 -0.11595404
0.35676998 0.39008015 -0.11658776
-0.40091878 0.41305292 -0.11169612
-0.33479676 0.43604124 -0.10719228
0.29013607 0.43505436 -0.11360216
-0.26638627 0.45679957 -0.11691248
0.2237689 -0.48175168 -0.093093991
-0.24622762 -0.45797551 -0.10178471
0.26840448 -0.45835072 -0.099347234
-0.33646196 -0.4362514 -0.097359657
0.31311369 -0.43576866 -0.1006602
-0.38247305 -0.4147464 -0.090861797
-0.44707584 -0.39055145 -0.1041559
-0.4711504 -0.36918211 -0.096169114
0.42583984 -0.34728247 -0.091710925
-0.53641337 -0.32345891 -0.10446775
-0.58321077 -0.30193418 -0.096215963
-0.55987513 -0.30155975 -0.09995687
-0.58388025 -0.2797634 -0.093580604
0.46996331 -0.27927262 -0.098893642
0.51552272 -0.21252662 -0.092622638
0.53780001 -0.14514342 -0.093878865
0.53644693 -0.12231335 -0.10421824
0.53778565 0.14646786 -0.093988776
0.51434994 0.19076531 -0.10214388
0.49323156 0.25887084 -0.091317892
-0.58368886 0.28102088 -0.094334006
0.46985376 0.2804628 -0.099910021
-0.58347362 0.30335802 -0.095181227
-0.55876011 0.30235559 -0.10448337
-0.47049904 0.37009954 -0.099190831
0.40345365 0.37117505 -0.090971828
-0.42657882 0.39308763 -0.094883204
-0.38253117 0.41614616 -0.090547085
0.33554077 0.41477901 -0.099894404
-0.31521648 0.43865973 -0.090185165
-0.24647224 0.45953041 -0.10001934
0.26849967 0.46003884 -0.096874118
0.22377145 0.48310661 -0.092983842
0.1564545 0.50556231 -0.092889547
0.089135394 0.5280022 -0.092889547
0.088784583 -0.52935356 -0.077699304
0.17894086 -0.50525069 -0.086829185
-0.20487842 -0.46221697 -0.074235082
-0.22565058 -0.46008617 -0.088074803
-0.317276 -0.43916416 -0.077445269
0.35955229 -0.41674638 -0.07642889
-0.42869008 -0.39314526 -0.08433497
0.38164032 -0.39336669 -0.082643151
0.40377373 -0.3702879 -0.087191939
-0.49515021 -0.3475877 -0.089067459
-0.51926738 -0.32588768 -0.081931233
0.4485516 -0.32511699 -0.089083195
-0.54300219 -0.30387133 -0.076857686
-0.56419075 -0.28079277 -0.082437515
-0.60994399 -0.25850332 -0.079713821
-0.58634537 -0.25815082 -0.08387661
0.49422228 -0.25824714 -0.082738161
-0.61060011 -0.23615508 -0.077207088
0.53916276 -0.16813658 -0.083465695
0.53996098 0.16992289 -0.077365994
0.51638591 0.21440622 -0.085614204
-0.61033422 0.23752791 -0.078223109
-0.60992742 0.25993699 -0.079777122
-0.58626103 0.25952756 -0.084208608
-0.56384408 0.28207058 -0.083845019
-0.54105574 0.30445385 -0.085014105
-0.51828563 0.32681924 -0.086182356
-0.49553365 0.34916675 -0.087349534
0.4266994 0.34977573 -0.082405806
-0.45253849 0.37288922 -0.077873707
0.38137639 0.39430857 -0.086071849
0.31406415 0.43976253 -0.083022833
-0.22621033 0.46215272 -0.083797574
-0.20439312 0.46306169 -0.078175426
0.24715814 -0.486745 -0.062205315
-0.18390843 -0.46436805 -0.060263276
0.29221427 -0.46308339 -0.068607807
0.33740163 -0.44030023 -0.069677591
-0.36355948 -0.41751826 -0.07085824
-0.41004843 -0.39577287 -0.064257264
-0.45344698 -0.37197387 -0.073502898
-0.47759056 -0.35021788 -0.066290259
-0.50185317 -0.32835442 -0.059042096
0.47277349 -0.30427563 -0.072818279
-0.5474686 -0.28303719 -0.058141589
-0.5687837 -0.2598514 -0.063792706
-0.59001732 -0.23675448 -0.069422126
0.51875412 -0.23698822 -0.066386223
-0.61229521 -0.21404347 -0.070730448
-0.63693023 -0.19189595 -0.063215613
-0.61470711 -0.19200055 -0.06151557
0.54053736 -0.1912957 -0.07296145
-0.63732344 -0.16930646 -0.061756253
-0.63831902 -0.14679776 -0.058061004
0.56449872 -0.1238965 -0.063087344
0.56366742 0.12518679 -0.06908679
-0.6372543 0.1708684 -0.06201303
-0.63697773 0.19347447 -0.063039422
-0.6136207 0.19329262 -0.06566608
0.5421592 0.19364575 -0.060568452
-0.61155295 0.2153337 -0.073566437
-0.58972138 0.23817453 -0.07058692
0.51844513 0.23831761 -0.06889534
-0.56958187 0.26171279 -0.060552359
-0.54696608 0.28443217 -0.060247183
-0.5240007 0.30699492 -0.061435342
0.47360641 0.30660117 -0.065089941
-0.50105387 0.32953978 -0.062622428
0.45008209 0.32825023 -0.073789358
-0.47812545 0.35206634 -0.06380856
-0.40826911 0.39605016 -0.073502898
-0.36387026 0.41928267 -0.069103003
0.36012733 0.41942507 -0.068128586
-0.29540771 0.44131124 -0.072961688
-0.18249181 0.463974 -0.072531581
-0.16050598 0.46488994 -0.06686604
-0.1384367 0.46581185 -0.061162472
0.29233757 0.46503985 -0.065938234
0.24714828 0.48826498 -0.062526107
0.17912918 0.51096672 -0.06236589
0.11110491 0.53364438 -0.062349916
0.11087583 -0.53470564 -0.047470808
0.20190483 -0.51050448 -0.055807352
-0.16273776 -0.4665398 -0.046157837
-0.29782563 -0.44211698 -0.057256699
-0.34438199 -0.42032605 -0.05059433
-0.39115196 -0.39843869 -0.043885827
-0.43546581 -0.3748095 -0.0504812
-0.45975471 -0.3528893 -0.043154716
0.4528895 -0.35259116 -0.045736194
0.47563452 -0.32973087 -0.046271324
-0.52607149 -0.30631208 -0.052468657
0.49726689 -0.28320068 -0.056371093
-0.57343948 -0.23864266 -0.04489243
-0.63856614 -0.21498474 -0.057143807
-0.59480017 -0.21543847 -0.05059433
0.54355973 -0.21548887 -0.049866676
-0.61726516 -0.16984604 -0.051741838
-0.61984456 -0.14754471 -0.041886806
0.56625217 -0.14715007 -0.050432801
-0.66502726 -0.12464561 -0.043625712
-0.63987368 -0.12431198 -0.052291036
-0.66429412 -0.10174516 -0.046271324
-0.64112872 -0.10170317 -0.047632694
-0.66428065 -0.078945413 -0.046319962
-0.66433001 -0.056149986 -0.046141505
-0.66447842 -0.033354517 -0.045606375
-0.66465825 -0.010550878 -0.044957399
-0.6648832 0.012264147 -0.044145703
-0.66457725 0.03506197 -0.045249343
-0.66432559 0.057847597 -0.046157837
-0.66427612 0.080641434 -0.046336174
-0.64179277 0.080677368 -0.0451684
-0.66451883 0.10347322 -0.045460224
-0.64077967 0.10333966 -0.048928142
-0.63971704 0.12593575 -0.052872181
-0.63845772 0.14843161 -0.057546258
0.56631494 0.14883927 -0.049979925
-0.61742163 0.17153776 -0.051143885
-0.59346366 0.21669705 -0.055855632
0.54449552 0.21770857 -0.042716026
-0.57323968 0.24028154 -0.04570353
0.52108598 0.2629227 -0.047454476
0.49727431 0.28482628 -0.05630672
-0.43431276 0.37572008 -0.056242228
0.42995203 0.37690395 -0.047195196
-0.38969165 0.39905882 -0.051790237
-0.34493291 0.4224655 -0.047341108
-0.27536133 0.44399214 -0.055549502
0.33865255 0.4449442 -0.049365163
-0.11627424 0.46672446 -0.055517197
-0.094028085 0.46764332 -0.049834251
0.27104717 -0.49183995 -0.030688286
-0.14136347 -0.4687323 -0.031916618
-0.11881635 -0.46933556 -0.027998567
-0.095123172 -0.46796483 -0.03690207
0.31674308 -0.4685182 -0.033307672
0.36298841 -0.44656688 -0.026832581
-0.27801958 -0.44502497 -0.037375093
-0.32494062 -0.42317528 -0.030032754
0.38556921 -0.42295724 -0.031605721
0.40807778 -0.39942312 -0.036363482
-0.41720021 -0.37768978 -0.027095556
0.43051752 -0.37596816 -0.041073442
-0.4841643 -0.33086026 -0.035791874
-0.50869542 -0.30872142 -0.028392553
0.50036687 -0.30860823 -0.029524446
-0.53047007 -0.28532076 -0.033422232
-0.55199629 -0.2619366 -0.039168358
0.52203834 -0.2618897 -0.039722204
-0.57815146 -0.21715879 -0.025764346
-0.59847343 -0.19356358 -0.036134958
-0.60100347 -0.17122376 -0.026175261
0.56818134 -0.17066678 -0.036510348
-0.62243688 -0.12509367 -0.031982303
-0.6429311 -0.079069555 -0.040943384
-0.64339173 -0.056256406 -0.039233446
-0.64385289 -0.033416733 -0.037521958
-0.64431024 -0.010550878 -0.035824656
-0.64477247 0.012341354 -0.034109116
-0.64519995 0.035257991 -0.032522321
-0.6434927 0.058016084 -0.038858771
-0.6240772 0.10423332 -0.025715113
-0.62241119 0.12689601 -0.032080412
-0.62075222 0.14946231 -0.038418651
-0.60106611 0.17309052 -0.025928617
0.5694313 0.17299429 -0.027489543
-0.59724367 0.19500318 -0.040975809
-0.5769304 0.21863212 -0.030721068
-0.55287611 0.26402885 -0.035481691
-0.52981347 0.28683197 -0.036265373
-0.50666827 0.30957741 -0.037472844
-0.48354191 0.3323043 -0.038679481
0.47744823 0.33337098 -0.02944243
-0.46043432 0.35501295 -0.039885044
0.45362669 0.35519958 -0.038369775
-0.41581899 0.37859505 -0.034272552
-0.37083423 0.40211004 -0.029770374
0.40795481 0.40099519 -0.037815452
-0.32532257 0.42534274 -0.027670145
-0.25507569 0.4467048 -0.037929654
0.316901 0.47078872 -0.030376792
0.27101815 0.49352914 -0.031441927
0.20228374 0.51648545 -0.031196237
0.1335395 0.5394091 -0.031147003
0.13342762 -0.54016936 -0.016612053
0.22536179 -0.51587105 -0.024119258
-0.25713986 -0.44712269 -0.023032784
-0.37199217 -0.40114188 -0.023230314
-0.44163609 -0.3556031 -0.019652486
-0.46619433 -0.33340573 -0.012172341
-0.53492188 -0.26405549 -0.014145255
-0.55657864 -0.24056153 -0.019966006
0.54817379 -0.2409739 -0.014609218
-0.58196175 -0.19515491 -0.010296345
0.5701288 -0.19440603 -0.022456169
-0.60354638 -0.14873278 -0.016165257
-0.6250509 -0.10249262 -0.021994829
-0.62690163 -0.079670489 -0.014923811
-0.62735701 -0.05665743 -0.013183951
-0.62781286 -0.033617459 -0.011442184
-0.62826931 -0.010550782 -0.009698391
-0.62742645 0.058615193 -0.012918711
-0.62575042 0.081473216 -0.019322395
0.59463179 0.127821 -0.012056231
-0.60448909 0.15086144 -0.012454391
-0.58066279 0.19676343 -0.015569568
-0.55647629 0.24242471 -0.02039516
0.54745543 0.24244983 -0.02009809
-0.53573018 0.26632315 -0.01064527
-0.51237941 0.2892713 -0.011890411
0.50141722 0.3114143 -0.020428181
-0.48905164 0.31220216 -0.013117552
-0.46574289 0.3351143 -0.014344096
-0.4422546 0.35788548 -0.016562343
-0.39704484 0.38151115 -0.011989713
-0.30514514 0.42796886 -0.0097149611
0.38657069 0.42666996 -0.018595576
-0.23454642 0.44945019 -0.020098209
-0.23605752 -0.44924068 -0.00855124
-0.21476755 -0.45137703 0.0060546398
-0.30522707 -0.42606419 -0.0091831684
-0.35256064 -0.40388066 -0.002301693
-0.39864349 -0.38061619 -0.0033369064
-0.42322791 -0.35836029 0.0042254925
0.48128828 -0.35858709 0.0061889887
0.50442863 -0.33532667 0.0056518316
-0.49087578 -0.31109703 -0.0046547651
-0.51318049 -0.28764111 -0.0083018541
0.5262816 -0.28792113 -0.0052713156
-0.53943181 -0.2425129 0.0053831339
-0.56122071 -0.21890822 -0.00051379204
-0.58445394 -0.17262457 -0.00017917156
-0.6061064 -0.12609038 -0.00608778
0.59562898 -0.12612306 -0.0052380562
-0.60868794 -0.10329539 0.0040744543
-0.62872195 0.012542563 -0.0079690218
-0.62911403 0.035659064 -0.0064710379
-0.60776883 0.10524067 0.00045621395
-0.6061275 0.12810043 -0.0060045719
-0.58442926 0.17467016 -0.0002797842
0.57259768 0.19752084 -0.0046379566
-0.56011719 0.22060126 -0.0051380396
-0.539424 0.24460454 0.0053496361
0.5265938 0.29018736 -0.0027359724
-0.42357028 0.36066502 0.0060043335
0.4572579 0.38280737 -0.0020846128
-0.35169381 0.40520698 -0.0074198246
-0.21376917 0.45222878 -0.002051115
0.36490452 0.45267153 0.00082445145
0.22593167 0.52210736 0.00055646896
0.1564545 0.54529428 0.00070714951
0.1564545 -0.54574502 0.014879942
0.2495167 -0.52239281 0.014390111
0.29628217 -0.49994761 0.019464612
-0.19326922 -0.45353425 0.020803571
-0.28523549 -0.428994 0.011960506
0.41255578 -0.42962563 0.016519308
-0.33285737 -0.40666038 0.018939376
0.43538389 -0.4057008 0.011606693
-0.37978852 -0.38358945 0.020803452
0.45813966 -0.38185555 0.0067265034
-0.44793642 -0.3359921 0.011825681
-0.47276992 -0.31351072 0.019464612
-0.49559647 -0.29000121 0.017246604
-0.51755714 -0.26621038 0.011303067
0.57508469 -0.21986583 0.013309836
-0.5651564 -0.19677296 0.015978336
-0.58696306 -0.14994162 0.010006189
0.59772813 -0.1499005 0.0091141462
-0.58949333 -0.12710518 0.020277977
-0.61059278 -0.080282383 0.011572838
-0.61103833 -0.057065561 0.013326764
-0.6114887 -0.033821844 0.015099645
-0.61193961 -0.010550782 0.016874433
-0.6123867 0.012747422 0.018634558
-0.61274821 0.036067437 0.020057559
-0.61108118 0.059225112 0.013495564
-0.60942143 0.082282521 0.0069617033
-0.58955181 0.1293254 0.020515323
-0.58793896 0.15228528 0.01396811
0.59800893 0.15212712 0.011033535
-0.56379145 0.19855292 0.010258913
-0.54300863 0.22260344 0.020871401
0.57581067 0.22242473 0.018550038
-0.51819354 0.26861393 0.014153957
0.55210364 0.26873082 0.015420556
-0.49465704 0.29175085 0.012888074
-0.47114366 0.31487048 0.01164031
-0.44764972 0.33797085 0.0103935
0.4819721 0.36146927 0.012533903
-0.37798715 0.3844713 0.010629296
-0.33226666 0.40835303 0.015285254
0.4354789 0.40798575 0.012635231
-0.28472319 0.43062693 0.0084581375
-0.1927394 0.45504099 0.016215086
0.34295398 0.4790104 0.020481467
0.34321326 -0.47744781 0.024691939
-0.17155945 -0.45571262 0.03569746
0.39031729 -0.45489001 0.030073881
-0.26495764 -0.43196291 0.033387303
-0.40452319 -0.36116189 0.028487921
-0.42938364 -0.33862013 0.036211371
0.53092939 -0.31481165 0.032464266
-0.49989474 -0.26840228 0.037188172
0.5530746 -0.2671873 0.022839785
-0.52199137 -0.24449769 0.031166196
-0.54400086 -0.22068743 0.025168061
-0.5676133 -0.17404999 0.026273966
0.59985006 -0.17390701 0.023621202
-0.57009107 -0.15117261 0.036656857
-0.59203672 -0.10411229 0.030602813
-0.59398842 -0.080904841 0.038525701
-0.59280688 0.083106764 0.033729434
-0.59117579 0.10626641 0.027108192
-0.56750363 0.17627716 0.025814295
0.60143602 0.1768098 0.034464836
-0.54662645 0.20037337 0.036536932
-0.52207911 0.24682389 0.031558871
-0.47663897 0.29427189 0.038079739
-0.45293719 0.31758308 0.036810994
-0.42925507 0.34087491 0.035543323
0.5073334 0.34032816 0.030807614
-0.40459871 0.36348462 0.028897047
-0.35863954 0.38747638 0.033592582
-0.31254062 0.41154486 0.038319945
-0.26405451 0.43331981 0.026869655
0.41391033 0.43414575 0.032515645
-0.17145246 0.45788759 0.034704566
0.29658484 0.50326055 0.0260185
0.17986536 0.55130988 0.033267617
-0.14963511 -0.45791262 0.050738692
-0.31287363 -0.40947974 0.040482879
-0.36062819 -0.38661087 0.045335054
-0.38551462 -0.36400902 0.053144574
-0.45437086 -0.31596345 0.043974161
-0.47771031 -0.29240185 0.043233871
0.580374 -0.24606167 0.051482439
-0.52648437 -0.22249734 0.051292062
-0.5480538 -0.19841978 0.042717814
0.60250223 -0.1983604 0.041754603
-0.55047381 -0.17550078 0.05319643
-0.57258177 -0.12813735 0.047093987
-0.59443247 -0.057481289 0.040328264
-0.59487277 -0.034029827 0.042115569
-0.59531778 -0.010550831 0.043922424
-0.59576339 0.012955932 0.045731425
-0.59609056 0.03648321 0.047059298
-0.59444511 0.059846081 0.040379882
-0.57428616 0.10731055 0.054235935
-0.57268465 0.13057287 0.047525167
0.62801492 0.1309173 0.054981589
-0.57109022 0.15373348 0.040843725
-0.55028582 0.17791328 0.052382588
-0.52560103 0.2246408 0.047335386
0.57907611 0.2477179 0.042115688
-0.5003643 0.27094287 0.039366722
0.5330056 0.3189314 0.049321294
-0.38533682 0.36634749 0.052140236
-0.2431297 0.43604344 0.045490146
-0.14990363 0.46076936 0.053421617
0.18012002 -0.55485773 0.066348314
-0.12749299 -0.46013433 0.065929174
-0.24439225 -0.43497676 0.055137634
-0.2926034 -0.41233951 0.062335253
-0.34104735 -0.38959992 0.069601655
-0.41052872 -0.34129107 0.06099391
-0.43567145 -0.31845641 0.068883896
-0.45951414 -0.29484409 0.069671512
0.55810642 -0.29406983 0.061290145
-0.48193043 -0.27063358 0.063538313
-0.50425005 -0.24651679 0.057394266
-0.53064609 -0.20009591 0.069934249
-0.55291444 -0.15242459 0.063764811
0.62923288 -0.12874544 0.062893033
-0.57508957 -0.10494364 0.057602763
-0.57708496 -0.081538491 0.065964103
-0.57752287 -0.05790427 0.06779933
-0.57796133 -0.034241699 0.069636703
-0.57750612 0.060477719 0.067729354
-0.57589471 0.083945759 0.060976624
-0.5539431 0.15520857 0.068218946
-0.52915984 0.20222613 0.063276529
0.60515583 0.20199201 0.059897661
-0.50442606 0.24908088 0.058210731
-0.48223501 0.2733112 0.065003753
-0.458318 0.29683536 0.063695073
0.55899942 0.29727757 0.068114161
-0.43442458 0.32034147 0.062404752
-0.41055125 0.34382772 0.06111598
-0.33899811 0.39052975 0.056925297
-0.29251167 0.41478556 0.061708093
-0.22194651 0.43880028 0.064340591
-0.12767383 0.46299642 0.06788671
0.39230949 0.46115905 0.055953264
0.25100374 0.53310734 0.062683821
0.27508211 -0.53251231 0.074142933
0.32282418 -0.50965977 0.079543471
-0.10512987 -0.46237838 0.081271291
-0.22353059 -0.438034 0.077201486
-0.27203798 -0.41523814 0.084485531
-0.3661949 -0.36690271 0.078204751
-0.39136434 -0.34400582 0.086183548
-0.48620343 -0.2485723 0.08409667
-0.50866735 -0.22434004 0.077887893
-0.53303128 -0.17697838 0.080618739
0.63261986 -0.15340047 0.084892154
-0.55536795 -0.12918794 0.074388981
-0.5578385 -0.10578984 0.085086584
-0.57839608 -0.010550734 0.071458578
-0.57883561 0.013168143 0.073300481
-0.57913309 0.036906481 0.074547052
-0.55709189 0.10837352 0.081853628
-0.55551404 0.13184287 0.075021386
-0.53275979 0.1795772 0.079402447
-0.50788665 0.22671385 0.074265957
-0.48646069 0.25137746 0.085334301
-0.39153045 0.34683067 0.087121964
-0.36577779 0.36925447 0.075741887
0.51347649 0.3702727 0.084008336
-0.31905025 0.39362812 0.080601215
0.48918056 0.39347357 0.07942009
-0.27217519 0.41807902 0.085475922
-0.20050016 0.44159174 0.083425283
-0.10452178 0.46395153 0.074090362
-0.081277505 0.46491313 0.080336809
0.37043899 0.48874629 0.080706954
-0.08254236 -0.46464485 0.096767426
-0.20236617 -0.44113559 0.099585295
0.44261512 -0.4397918 0.089886904
0.46641037 -0.41587776 0.089372396
-0.32078594 -0.39234322 0.091875076
0.49019963 -0.39197379 0.08887589
0.5139792 -0.36807555 0.088361859
0.5377509 -0.34418511 0.087847948
-0.41666102 -0.32098836 0.094185829
-0.44099993 -0.29732901 0.096571445
-0.46364892 -0.27290231 0.090330482
0.61044693 -0.22559988 0.096072793
-0.51292497 -0.20180209 0.097640872
-0.53542918 -0.15369914 0.091359973
-0.53784382 -0.13025744 0.10217595
-0.55987829 -0.082184061 0.093919039
-0.56030566 -0.05833479 0.095769882
-0.56073779 -0.034457318 0.097640872
-0.56116623 -0.010550878 0.099496126
-0.56159937 0.013384342 0.10137165
-0.56186771 0.037337385 0.1025337
-0.56026459 0.061121121 0.095591903
-0.55867267 0.084799401 0.088698745
-0.53802752 0.13313515 0.10299873
-0.53639382 0.15668838 0.095680833
0.63359654 0.15644883 0.091235638
-0.51138753 0.20411277 0.090507865
-0.48986083 0.22882526 0.10169327
0.6104756 0.22840761 0.096268773
-0.46379817 0.2757197 0.091075778
0.5872274 0.276631 0.10094273
-0.43968612 0.29944229 0.089744806
-0.41559809 0.3231464 0.088432789
-0.34591752 0.37220877 0.099728346
-0.17878568 0.44441795 0.10274827
0.3728283 -0.49138153 0.11519408
-0.25117606 -0.41818136 0.10697556
-0.30022654 -0.39512438 0.11445522
-0.34655619 -0.36984414 0.1036787
-0.37188274 -0.3467654 0.11179006
0.56474572 -0.32277346 0.11202383
-0.44504577 -0.27521098 0.11759424
0.58765364 -0.27406144 0.10401905
-0.46783602 -0.25066257 0.11125028
-0.49053401 -0.22621371 0.10493231
-0.51526964 -0.17848186 0.10851884
0.63604748 -0.17840846 0.10715497
-0.51762694 -0.15499683 0.11945546
-0.54027939 -0.10665204 0.11308587
-0.54114068 0.085669048 0.11694419
-0.53958064 0.10945529 0.10995591
-0.51492155 0.18127094 0.10690391
-0.4932934 0.20603189 0.11820817
-0.46817458 0.25371522 0.11294186
-0.44504577 0.27816927 0.11759424
-0.4207356 0.30209392 0.11624026
-0.39644974 0.32599944 0.11490583
-0.37218457 0.34988487 0.11357236
0.54033446 0.34933662 0.10882425
-0.2987918 0.39677483 0.10464549
-0.25151902 0.42142117 0.10959661
0.46792805 0.42072034 0.1045382
-0.18087485 -0.44426006 0.12213361
-0.23000842 -0.42116773 0.12979531
-0.32658777 -0.37283248 0.12955856
-0.39733851 -0.32356423 0.1199255
-0.42215919 -0.29985762 0.12394571
-0.47208005 -0.22812048 0.13245475
-0.49488568 -0.2035405 0.12586904
-0.52000475 -0.13134709 0.13048697
-0.54235172 -0.082841113 0.12236905
-0.54277253 -0.058773339 0.12425399
-0.54319793 -0.034676738 0.12615943
-0.54362381 -0.010550878 0.12806726
-0.5440461 0.013604481 0.12995899
-0.5442819 0.037775788 0.13101506
-0.54270774 0.061776206 0.12396383
-0.52022463 0.13445175 0.13150704
-0.51849324 0.15818609 0.12347436
0.63931191 0.18259215 0.12835813
-0.49676645 0.18299606 0.13491797
-0.47150773 0.23097315 0.12959516
-0.32574314 0.37520736 0.12407267
-0.278218 0.39997315 0.12908554
-0.23049101 0.4247629 0.13371313
-0.15679803 0.44727987 0.12231481
0.44633198 0.4484219 0.1301229
-0.15837389 -0.44646704 0.13806176
-0.27936798 -0.39794856 0.13738465
-0.35207599 -0.34957123 0.13782382
-0.37769264 -0.32618332 0.14609587
-0.42611217 -0.27756053 0.14534199
-0.44914317 -0.25278991 0.13888526
-0.49718416 -0.1800127 0.13692772
-0.49950278 -0.1563191 0.14808321
-0.52239543 -0.10752937 0.14157856
-0.52450067 -0.083510317 0.15134561
-0.52328593 0.086554982 0.14570963
-0.52175182 0.11055741 0.13859236
-0.50026911 0.15971074 0.15177011
-0.47487289 0.20798565 0.14640856
-0.44956273 0.25609666 0.141065
0.61758327 0.25641853 0.1448642
-0.4259696 0.28066123 0.14457035
-0.40145808 0.30479097 0.14319289
-0.37697107 0.32890183 0.14183521
-0.35250515 0.35299176 0.14047873
-0.30525014 0.37825298 0.14880145
-0.134532 0.45017773 0.14212871
0.32613143 0.52271938 0.14091837
0.42513856 -0.47464144 0.16511452
-0.13564104 -0.44869417 0.15413415
-0.20852837 -0.42419821 0.15295172
-0.25819832 -0.40081233 0.16063535
-0.30628708 -0.37587321 0.1558913
-0.33193305 -0.35242212 0.16427732
-0.40298653 -0.30243313 0.15182555
-0.43011618 -0.25495535 0.167014
0.619928 -0.25448424 0.16089523
-0.4532969 -0.23006131 0.16046834
-0.4763822 -0.20526984 0.15394938
0.64304721 -0.20518792 0.15261936
-0.4787659 -0.18157172 0.16585922
-0.50183409 -0.13245612 0.15929949
-0.52491462 -0.059220098 0.15326571
-0.52533293 -0.034900382 0.15520668
-0.52575183 -0.010550831 0.15714991
-0.52616715 0.013828557 0.15907705
-0.52637506 0.038222648 0.16004145
-0.52482301 0.062443152 0.15284097
-0.50359249 0.11168016 0.16775954
-0.50209242 0.13579285 0.16054249
-0.47827804 0.1847515 0.16342187
0.64530075 0.20943001 0.16725636
-0.45282227 0.23315984 0.1580019
0.57013321 0.33012575 0.15319192
-0.33248353 0.35615283 0.16785288
-0.25731608 0.40321976 0.15389383
-0.20861372 0.427531 0.1536907
-0.11198235 0.45311284 0.16219521
0.42437789 0.47658265 0.15613163
-0.11267629 -0.45094675 0.17039061
-0.1867269 -0.42727113 0.1764338
-0.28564277 -0.3789652 0.18266928
-0.35771525 -0.32884645 0.17270792
-0.38346624 -0.30505306 0.18018723
0.59668994 -0.30404115 0.16923308
-0.40683949 -0.27995229 0.17358708
-0.45751154 -0.20702001 0.1823684
-0.48104 -0.15766495 0.17722142
0.67133874 -0.13314235 0.17712748
-0.50418198 -0.1084229 0.17059588
-0.50632 -0.084192492 0.18088269
-0.50672662 -0.059675414 0.1828388
-0.50660926 0.063122973 0.18227422
-0.50509548 0.087456532 0.17499101
0.67058194 0.13634272 0.17244601
-0.48171264 0.16126338 0.18058193
-0.45612061 0.20997617 0.17514098
-0.43060887 0.25851983 0.16968107
-0.40656132 0.28319657 0.17201602
-0.38184506 0.30753529 0.17061472
-0.35715359 0.33185458 0.1692332
-0.28443354 0.38134968 0.17394257
-0.23608094 0.40651816 0.17909789
-0.18645439 0.43033212 0.17390525
-0.0891435 0.45608544 0.18251896
-0.089474216 -0.45322245 0.18681479
-0.23671332 -0.40371865 0.18423223
-0.31145117 -0.35532337 0.19119823
-0.3373979 -0.33155489 0.1997726
-0.41074932 -0.2571612 0.19566941
-0.43417907 -0.23203847 0.18900502
-0.46000928 -0.18316071 0.19534683
-0.48332667 -0.13358575 0.18864608
-0.4856298 -0.10933305 0.20015335
-0.50713366 -0.035128109 0.18479741
-0.50754517 -0.010550878 0.18677711
-0.50795722 0.014057055 0.18875957
-0.50813389 0.038677912 0.18960989
-0.48508954 0.11282298 0.19745386
-0.48362166 0.13715903 0.19012022
-0.45945126 0.18653892 0.1924473
-0.43379533 0.23538668 0.18692803
-0.41130739 0.26098752 0.19882214
-0.38681215 0.28577638 0.1999439
-0.36188763 0.31032759 0.1985178
-0.3369883 0.33485919 0.19711196
-0.31189433 0.35919827 0.19422829
-0.26328021 0.38449371 0.19946837
-0.16400987 0.43316919 0.19437993
-0.066031083 -0.455522 0.20340979
-0.16460097 -0.4303925 0.20028627
-0.21490815 -0.40667105 0.208202
-0.26464596 -0.38211006 0.20990467
-0.36347795 -0.3076551 0.20835507
-0.38721836 -0.28238726 0.20234263
-0.43829501 -0.2088007 0.21128356
-0.46223313 -0.15903583 0.20690238
-0.48779231 -0.084886923 0.21095788
-0.48819131 -0.060139086 0.21295106
-0.48859459 -0.035360403 0.21496618
-0.48805314 0.063815437 0.21226084
-0.48656785 0.088375568 0.2048403
-0.46281463 0.16284443 0.20992398
-0.43702 0.21200208 0.20438254
-0.21450454 0.40986943 0.20470679
-0.14127463 0.43604296 0.21511972
-0.066009939 0.45909643 0.20310485
-0.042341918 -0.45784289 0.22015882
-0.14214107 -0.43356127 0.22449899
-0.29061869 -0.35827434 0.21858013
-0.31673181 -0.33430988 0.22730219
-0.36723936 -0.28486675 0.2316227
-0.39102632 -0.25940576 0.22482717
-0.41471028 -0.23405008 0.2180413
-0.44089723 -0.18477833 0.22536838
0.67922169 -0.15991288 0.22589028
-0.46447307 -0.13473636 0.2185415
-0.46673304 -0.11026092 0.23028469
-0.48899448 -0.010550926 0.21696436
-0.48939878 0.014289781 0.21898425
-0.48954904 0.039141729 0.21973515
-0.466241 0.1139883 0.22772789
-0.46479917 0.1385501 0.22023594
-0.44027662 0.18835956 0.22200918
-0.4144209 0.23765594 0.21640682
-0.39164865 0.26350081 0.22850215
-0.36671299 0.28840202 0.22836673
-0.34157678 0.31316948 0.226915
0.60384524 0.31256479 0.22087181
-0.31646591 0.33791685 0.22548449
-0.29082945 0.36218572 0.22010124
-0.24178475 0.38768846 0.225407
-0.19258067 0.41327745 0.23075008
-0.19277093 -0.40966564 0.23251545
-0.24328768 -0.38530916 0.23760927
-0.26942649 -0.36127633 0.24643457
-0.34298047 -0.3102119 0.23603261
-0.39488465 -0.23609872 0.24760973
-0.41872704 -0.21061409 0.2407279
-0.44307244 -0.16043253 0.23714185
-0.46891183 -0.085594706 0.24160588
-0.46930277 -0.06061136 0.24363744
-0.46969795 -0.035596829 0.24569106
-0.47008985 -0.010550878 0.24772727
-0.46914482 0.064521059 0.24281669
-0.46768951 0.08931233 0.23525465
-0.44356918 0.16445599 0.23983061
-0.41756529 0.21406549 0.23416626
-0.39468229 0.23996596 0.24641514
-0.26941881 0.36521971 0.24637592
-0.11824298 0.43895417 0.23613
-0.11933956 -0.43677807 0.24908006
-0.17029646 -0.41270602 0.25719929
-0.29570791 -0.33711261 0.25530815
-0.32212719 -0.31281292 0.26419067
-0.34689558 -0.28739333 0.26146162
-0.37094104 -0.26169157 0.25452113
-0.42142361 -0.18642682 0.25595808
-0.44526714 -0.13590944 0.24902105
-0.4474743 -0.11120561 0.26096773
-0.4704861 0.014526831 0.2497859
-0.47061074 0.039614338 0.25043356
-0.44703305 0.11517589 0.25857937
-0.44562238 0.13996841 0.25094402
0.68491775 0.16560353 0.2611258
-0.42074448 0.1902141 0.2521224
-0.39774638 0.21616775 0.26450741
-0.37162578 0.26606262 0.25875688
-0.34625447 0.29107463 0.25729775
-0.32090288 0.31606221 0.25582027
-0.29557699 0.34102929 0.25436354
-0.21993878 0.39093536 0.25176883
-0.17029646 0.41673899 0.25719917
-0.094909072 0.44190353 0.25741613
-0.096187085 -0.4400416 0.27401757
-0.22152406 -0.38852936 0.26549745
-0.24786523 -0.36433065 0.27477443
-0.3746922 -0.23818518 0.27772546
-0.39879775 -0.21246076 0.27071548
-0.42354786 -0.16185579 0.26795578
-0.42569131 -0.1371042 0.28006196
-0.44966829 -0.08631628 0.27284324
-0.45005459 -0.061093338 0.2749337
-0.45043761 -0.035838105 0.27700686
-0.4508248 -0.010550878 0.2791028
-0.44987428 0.065240182 0.27395785
-0.44844663 0.090266101 0.26623058
-0.42395908 0.16609679 0.27027845
-0.37457287 0.2423193 0.27698708
-0.24765676 0.36830342 0.2730819
-0.19773582 0.39423811 0.27858377
-0.071266949 0.44489211 0.27898312
-0.14747882 -0.41579521 0.28228176
-0.19904035 -0.39143819 0.29068816
-0.27431682 -0.33996421 0.28380346
-0.30090871 -0.31545967 0.29284203
-0.32617053 -0.28996533 0.29183519
-0.35048336 -0.26401973 0.28476524
-0.40157795 -0.18810655 0.28713191
-0.42784715 -0.11216851 0.29223788
-0.45120883 0.014768444 0.28118134
-0.45130861 0.04009603 0.28172159
-0.42745167 0.11638531 0.29000461
-0.42607725 0.14141406 0.28224182
-0.40084809 0.19210459 0.28282213
-0.37755626 0.21831091 0.29544234
-0.35101771 0.26855892 0.28823614
-0.32542688 0.29379523 0.28675067
-0.29985622 0.31900698 0.28524625
-0.27431157 0.34419781 0.28376329
-0.14764526 0.42025721 0.28408384
-0.07267873 -0.44335794 0.29936051
-0.12430787 -0.41893238 0.30775285
-0.22592515 -0.36743861 0.30361223
-0.25254887 -0.34286612 0.31280077
-0.3541258 -0.24031195 0.30842376
-0.3785004 -0.21434312 0.30128241
-0.40365237 -0.16330725 0.29938042
-0.40573877 -0.13832211 0.31170034
-0.43002254 -0.087047756 0.30452466
-0.43042862 -0.061584108 0.30681813
-0.43080288 -0.036083661 0.30893207
-0.43118119 -0.010550782 0.31106877
-0.43023086 0.065973237 0.30570149
-0.42883623 0.091238894 0.29782426
-0.40397787 0.16776848 0.30130279
-0.35408199 0.2447174 0.30813885
-0.22553462 0.37143832 0.30022991
-0.17516246 0.39759302 0.30582321
-0.12461969 0.42383659 0.31143546
-0.047310427 0.4479202 0.30083716
-0.048337579 -0.44573408 0.31751633
-0.1762079 -0.39439219 0.31626987
-0.27931535 -0.31815314 0.32199919
-0.30505684 -0.29258555 0.32277846
-0.32964581 -0.26639301 0.31559575
-0.38134956 -0.18981883 0.3189069
-0.40784073 -0.1131499 0.32411206
-0.43156004 0.015015054 0.31320846
-0.43162864 0.040586848 0.31359589
-0.40749341 0.11761922 0.3220607
-0.40614963 0.14288676 0.31412637
-0.38057011 0.19402985 0.31408536
-0.35697764 0.22049358 0.32694697
-0.33003438 0.27110058 0.31825256
-0.30422008 0.29656559 0.3167398
-0.27842659 0.32200527 0.31520796
-0.25265935 0.34742391 0.31369781
-0.20304552 0.37462777 0.32785177
-0.023707688 -0.44808757 0.3355006
-0.10077378 -0.4221161 0.33360052
-0.15302044 -0.39739442 0.34227169
-0.20359614 -0.37060148 0.33296096
-0.23039398 -0.34581953 0.34231341
-0.33316845 -0.24247758 0.33968019
-0.35781783 -0.21625979 0.33240402
-0.38336813 -0.16478585 0.3313936
-0.38539851 -0.13956349 0.34395325
-0.40996212 -0.087789461 0.33663774
-0.41041768 -0.06208463 0.33932817
-0.41078275 -0.036334306 0.34148359
-0.41115177 -0.010550878 0.3436625
-0.4102003 0.066720225 0.3380444
-0.40884364 0.09223067 0.33003354
-0.38361484 0.16947217 0.3329196
-0.3332018 0.24716301 0.33990812
-0.23060971 0.35070914 0.34418178
-0.15221182 0.40100425 0.33351791
-0.10095188 0.42703998 0.33591413
-0.076871336 -0.42535239 0.35987568
-0.25733712 -0.32089448 0.35167623
-0.28354344 -0.2952553 0.35430753
-0.30841148 -0.26880968 0.34698832
-0.36073041 -0.19156551 0.35132182
-0.3874476 -0.11415124 0.35662901
-0.41152126 0.01526618 0.34584451
-0.41156703 0.041087467 0.34611464
-0.38714331 0.11887716 0.3547467
-0.38583529 0.14438905 0.34665549
-0.35990316 0.19599222 0.34594822
-0.33600271 0.22271837 0.35905814
-0.30866534 0.27368897 0.34882045
-0.28262374 0.29938674 0.34727967
-0.25660345 0.3250587 0.34571958
-0.1801756 0.37786853 0.35591757
-0.076778397 0.43000013 0.35853422
-0.12946561 -0.40044183 0.36866271
-0.18086782 -0.37382096 0.36283457
-0.20784175 -0.34882593 0.37235522
-0.31181228 -0.24468429 0.37153172
-0.33674255 -0.21821278 0.36411643
-0.36268735 -0.16629338 0.36403227
-0.36466235 -0.14083007 0.37686062
-0.38950884 -0.088545576 0.36937952
-0.39001042 -0.062595099 0.37248206
-0.39036918 -0.03659014 0.3747015
-0.39072508 -0.010550782 0.37690282
-0.38977826 0.067482449 0.3710463
-0.3884542 0.093241423 0.36285555
-0.36285889 0.17120874 0.36514664
-0.31191471 0.24965422 0.37227082
-0.2343758 0.32816869 0.37679696
-0.20815161 0.35405523 0.37523055
-0.12887606 0.40447551 0.36170077
-0.052590013 -0.42863977 0.386567
-0.15772936 -0.37709862 0.39324725
-0.2349636 -0.32368547 0.38188756
-0.26161882 -0.2979762 0.3864392
-0.28677213 -0.27127236 0.37897968
-0.33970243 -0.19334546 0.38435328
-0.36664915 -0.11517151 0.38976514
-0.39108479 0.0155224 0.3791281
-0.39110875 0.041598029 0.37927663
-0.36638647 0.1201594 0.3880589
-0.36511922 0.14592136 0.3798281
-0.33883584 0.19799244 0.37842834
-0.31461987 0.22498639 0.39179397
-0.28689983 0.27632558 0.37995553
-0.26062688 0.30226028 0.37838602
-0.1569176 0.38116431 0.38445961
-0.1051417 0.40800303 0.39034152
-0.052275658 0.43300074 0.38146257
-0.10553834 -0.40354013 0.39549434
-0.18488142 -0.35188669 0.40294075
-0.29004583 -0.24693328 0.40399492
-0.31526324 -0.22020319 0.39643681
-0.3415983 -0.16783065 0.39731538
-0.36865121 -0.089316584 0.40276897
-0.36919808 -0.063116133 0.40632081
-0.36954331 -0.036850683 0.40856349
-0.36894935 0.068259701 0.40470541
-0.36766315 0.094272636 0.3963511
-0.34170181 0.17298046 0.39802301
-0.29021204 0.25219417 0.40526533
-0.21173236 0.33133703 0.40845573
-0.18527359 0.35746408 0.40685964
-0.027436852 0.43604243 0.40470541
-0.027920723 -0.43198007 0.4136852
-0.081226289 -0.40668547 0.42273378
-0.13416958 -0.38043606 0.42421412
-0.21218404 -0.32652664 0.41264629
-0.23927107 -0.3007496 0.419191
-0.26471618 -0.27378249 0.411587
-0.31825677 -0.19516085 0.41804063
-0.34351185 -0.14212087 0.41039836
-0.34543699 -0.11621219 0.42356074
-0.36988908 -0.010550878 0.41080904
-0.3702386 0.015783856 0.41307902
-0.37024188 0.042118877 0.41310084
-0.34521741 0.12146804 0.42205966
-0.34398621 0.14748304 0.41364181
-0.31735653 0.20003191 0.41154373
-0.29282007 0.22730042 0.42519426
-0.26472682 0.27901131 0.41167331
-0.23821837 0.30518752 0.41007435
-0.13326332 0.38451886 0.41351199
-0.081000388 0.41159117 0.41947329
-0.1615018 -0.3550036 0.43408513
-0.26785985 -0.24922758 0.43711019
-0.29337105 -0.22223344 0.42940426
-0.32009181 -0.16939966 0.43128407
-0.34738022 -0.090103738 0.43684685
-0.34796166 -0.063647315 0.44082201
-0.34770131 0.069052719 0.43904185
-0.34645468 0.095324807 0.43051863
-0.32012516 0.17478572 0.43152452
-0.2680842 0.25478584 0.43893218
-0.18866134 0.33456498 0.44071186
-0.16176909 0.36071002 0.43697846
-0.056521893 -0.40988159 0.45041299
-0.1101768 -0.38383466 0.45574951
-0.18898728 -0.32942021 0.44396889
-0.21648785 -0.30357689 0.45258093
-0.24223137 -0.27634144 0.44482827
-0.29638091 -0.19701247 0.45240414
-0.32193804 -0.14343771 0.44460809
-0.3237986 -0.11727372 0.45803547
-0.34829634 -0.037116654 0.44311023
-0.34863466 -0.010550878 0.44542325
-0.34897023 0.016050547 0.44771767
-0.34895408 0.042650148 0.4476074
-0.3236202 0.12280318 0.45674789
-0.3224301 0.14907748 0.44815934
-0.29545587 0.20211294 0.44533527
-0.24213472 0.28174794 0.44399118
-0.21538651 0.30816996 0.44236159
-0.10919872 0.38792902 0.44304395
-0.056442946 0.4152441 0.44913113
-0.13769126 -0.3581776 0.46580327
-0.24523634 -0.25156531 0.47085202
-0.27104798 -0.22430208 0.46299469
-0.29814902 -0.17099924 0.46591473
-0.32567683 -0.090906225 0.4715904
-0.32602131 0.069861732 0.47407639
-0.32481623 0.096398301 0.46537924
-0.29811981 0.17662691 0.46569169
-0.27058488 0.22965877 0.45923519
-0.24551293 0.25742739 0.47324729
-0.16515049 0.33785468 0.47358322
-0.13778761 0.36393917 0.46694124
-0.084715083 0.39139861 0.47309053
-0.031416848 -0.41313225 0.47856462
-0.085739046 -0.38729644 0.48787022
-0.16536173 -0.332367 0.47587013
-0.19319311 -0.30640644 0.48599613
-0.21930516 -0.27895057 0.4787221
-0.27406454 -0.19890305 0.48748624
-0.29992801 -0.14478087 0.47950888
-0.32629165 -0.064189345 0.47602737
-0.32661831 -0.037388198 0.47838521
-0.32694232 -0.010550782 0.48072338
-0.32726988 0.016322765 0.4830873
-0.32723245 0.043192182 0.48281717
-0.30043468 0.15070425 0.48338044
-0.27311522 0.20423403 0.47977865
-0.21911147 0.28453666 0.47692525
-0.19211918 0.31120938 0.47526479
-0.031455621 0.41895813 0.47928393
-0.11343783 -0.3614108 0.49811113
-0.22216532 -0.2539494 0.50526118
-0.24828431 -0.22641155 0.49724829
-0.27575982 -0.17263116 0.50124991
-0.30172399 -0.1183576 0.49323273
-0.30273449 0.097493611 0.50095415
-0.3015787 0.1241647 0.49212253
-0.27567291 0.17850505 0.50054443
-0.24790439 0.23206443 0.49395776
-0.11338362 0.36722255 0.49740696
-0.059802771 0.39493155 0.50368774
-0.0058986396 -0.41643363 0.5071559
-0.060607359 -0.39040917 0.5167526
-0.14129549 -0.33536899 0.50836682
-0.16931659 -0.30917436 0.5186826
-0.19592431 -0.28161132 0.51328802
-0.27746844 -0.14615177 0.51512277
-0.30353111 -0.091724843 0.50704169
-0.30417764 -0.064742863 0.51198196
-0.30448958 -0.037665222 0.51436579
-0.30480194 -0.010550782 0.5167526
-0.30511773 0.016600557 0.51916552
-0.30506054 0.043745168 0.51872897
-0.30389309 0.070686936 0.50980759
-0.27798343 0.15236321 0.51930356
-0.25032446 0.206398 0.51491618
-0.22248772 0.26012218 0.50825262
-0.19564471 0.28737921 0.51049376
-0.16840377 0.31430745 0.50880134
-0.14118713 0.3412075 0.50708723
-0.006028533 0.42273712 0.50996757
-0.088728994 -0.36470479 0.53102612
-0.22506684 -0.22856297 0.532184
-0.25128838 -0.20083073 0.52326393
-0.25291044 -0.17429677 0.53731167
-0.27919358 -0.11946294 0.52912879
-0.28019285 0.098611116 0.53724182
-0.27908534 0.12555519 0.5282501
-0.25277096 0.18042113 0.53610384
