ply
format ascii 1.0
comment PCL generated
element vertex 1347
property float x
property float y
property float z
element camera 0
property float view_px
property float view_py
property float view_pz
property float x_axisx
property float x_axisy
property float x_axisz
property float y_axisx
property float y_axisy
property float y_axisz
property float z_axisx
property float z_axisy
property float z_axisz
property float focal
property float scalex
property float scaley
property float centerx
property float centery
property int viewportx
property int viewporty
property float k1
property float k2
end_header
-0.26210794 -0.54815835 -0.34854132
-0.26210794 -0.52853346 -0.34854132
-0.26210794 -0.50890839 -0.34854132
-0.26210606 -0.48928115 -0.34855366
-0.26210606 -0.46965632 -0.34855354
-0.18288872 -0.46862438 -0.35438168
-0.16363147 -0.46911931 -0.35158652
0.36583912 -0.27335274 -0.3491022
0.38556716 -0.2342023 -0.34802902
0.40531051 -0.19501798 -0.34696716
0.42507032 -0.15580113 -0.34590435
0.44507876 -0.05762022 -0.34295589
0.44431269 -0.037904374 -0.34917539
0.44355038 -0.018284284 -0.35536468
0.44388092 0.02090189 -0.3526811
0.44464636 0.040638469 -0.34646636
0.42395693 0.13828404 -0.35554665
0.34673065 0.29639098 -0.34305388
0.32671145 0.31545988 -0.34762621
0.30676377 0.3344605 -0.35218245
0.28688723 0.35339341 -0.35672259
0.13039136 0.47079799 -0.35655272
-0.26211357 0.49197218 -0.34850478
-0.26210982 0.51159227 -0.34852904
-0.26210794 0.53121477 -0.34854132
-0.28390503 -0.53122276 -0.33510458
-0.28390703 -0.51149672 -0.33509237
-0.28390503 -0.49176592 -0.33510464
0.11065365 -0.49198914 -0.33389634
-0.28390503 -0.47203743 -0.33510476
0.15011217 -0.47186306 -0.33609021
0.20915231 -0.43177938 -0.34006172
0.26835549 -0.39275837 -0.33760399
0.2883454 -0.37368092 -0.33304483
0.30840755 -0.35453698 -0.328457
0.38761511 -0.2557216 -0.32756466
0.40751919 -0.21623273 -0.3264733
0.42743874 -0.17670952 -0.32539338
0.44662213 -0.097342037 -0.3304252
0.44584855 -0.077432506 -0.3367058
0.44541556 0.060471743 -0.34022129
0.44618851 0.080402337 -0.33394557
0.44696376 0.10043034 -0.32765138
0.42608985 0.15913473 -0.337075
0.40625861 0.19846858 -0.33816981
0.3864468 0.23777121 -0.33923894
0.3668195 0.27725089 -0.33848941
0.22915351 0.41626924 -0.33198279
0.16995642 0.45649651 -0.32807297
-0.28391105 0.49466154 -0.33506757
-0.28390703 0.51438504 -0.33509237
-0.28390503 0.5341109 -0.33510464
-0.30593312 -0.53394049 -0.32152563
-0.30593523 -0.51411003 -0.32151312
-0.30593312 -0.49427459 -0.32152563
-0.30593312 -0.47444171 -0.32152563
0.24983415 -0.41642693 -0.31188673
0.3285425 -0.33532608 -0.32384026
0.34874994 -0.316046 -0.31920677
0.3690303 -0.29669636 -0.31455684
0.44818377 -0.13745648 -0.3177461
0.44740102 -0.11734988 -0.32410127
0.46842712 -0.018284284 -0.31483221
0.4679608 0.0015727058 -0.3183955
0.46879783 0.021528197 -0.31199956
0.44774437 0.1205576 -0.32131386
0.4485288 0.14078441 -0.3149448
0.4284834 0.18044372 -0.31634623
0.40849203 0.22008769 -0.31744629
0.38851896 0.25969929 -0.31853276
0.30970347 0.36026359 -0.30975157
0.28949094 0.37946457 -0.31444401
-0.30593947 0.47754622 -0.3214882
-0.28604984 0.4774791 -0.32183689
-0.26799098 0.47969356 -0.31032968
-0.30593738 0.49737683 -0.32150072
-0.30593523 0.51720732 -0.32151324
0.031017713 0.51833326 -0.31609613
-0.30593312 0.53703779 -0.32152551
-0.32819593 -0.53668725 -0.30780196
-0.35069945 -0.51942062 -0.29391849
-0.32819813 -0.51675111 -0.30778944
-0.35069945 -0.49937516 -0.29391849
-0.32819813 -0.49681246 -0.30778921
-0.35069945 -0.47932974 -0.29391849
-0.32819593 -0.47687152 -0.30780208
-0.35070184 -0.45928639 -0.29390562
-0.32819813 -0.45693514 -0.30778921
-0.30809322 -0.45676893 -0.3087709
-0.29039451 -0.45910758 -0.29496145
0.19020651 -0.45692876 -0.30782712
0.38969493 -0.27758789 -0.30678189
0.40976226 -0.23779 -0.30566001
0.42984405 -0.19795585 -0.30456269
0.44994283 -0.15808813 -0.30346417
0.47094938 -0.078382775 -0.29555881
0.47010499 -0.058250599 -0.30201089
0.46926484 -0.038218047 -0.30843103
0.469639 0.041582897 -0.30557179
0.47048271 0.06173718 -0.29912472
0.45109037 0.1621089 -0.29414749
0.43091747 0.20210153 -0.29526639
0.41076192 0.24205983 -0.29638457
0.37078407 0.30223933 -0.29557145
0.35034966 0.32165125 -0.3003155
0.32998955 0.34099251 -0.30504227
0.27022237 0.40120864 -0.30295897
0.21041793 0.44186851 -0.29895997
-0.35070419 0.46281129 -0.29389298
-0.35070419 0.48285696 -0.29389298
-0.32820261 0.48018733 -0.30776405
-0.24977008 0.48192802 -0.29871905
-0.12996924 0.48240921 -0.29621947
-0.10962045 0.48174033 -0.29969501
-0.089323804 0.48106837 -0.30318642
-0.35070184 0.5029 -0.29390585
-0.32820037 0.5001238 -0.30777669
-0.32820037 0.52006239 -0.30777681
-0.35069945 0.52294278 -0.29391849
-0.37344313 -0.52211881 -0.27989829
-0.37344313 -0.50196534 -0.27989841
-0.37344313 -0.48181203 -0.27989817
-0.37344557 -0.46166086 -0.27988541
-0.27250403 -0.46146923 -0.28101659
-0.37344807 -0.44150937 -0.27987266
-0.35271305 -0.44100064 -0.28301978
0.2311959 -0.4416633 -0.27892053
0.29142773 -0.40074569 -0.28299403
0.31137434 -0.38025036 -0.28563452
0.33184895 -0.36076215 -0.28088832
0.41204196 -0.25969902 -0.28450727
0.43229011 -0.21955015 -0.28337896
0.45255423 -0.17936566 -0.28226268
0.47265244 -0.11894941 -0.28254497
0.47179794 -0.098615259 -0.28907454
0.47132894 0.081991382 -0.29265821
0.47218111 0.10234735 -0.28614652
0.47303751 0.12280528 -0.27960229
0.39129072 0.28275338 -0.29083574
-0.37344807 0.46540168 -0.27987254
-0.33201191 0.4642235 -0.28624916
-0.37344557 0.48555264 -0.27988541
-0.23138487 0.48418275 -0.28700399
-0.21191508 0.48510751 -0.28219843
-0.19134513 0.48442897 -0.28572416
-0.17083207 0.48375472 -0.28922772
-0.15037394 0.48308221 -0.29272199
-0.37344557 0.50570595 -0.27988541
-0.396433 -0.50458372 -0.26572633
-0.396433 -0.48432118 -0.26572633
0.17077728 -0.48272243 -0.27475667
-0.39643562 -0.46406093 -0.26571333
-0.25442269 -0.4638584 -0.26690876
-0.39643824 -0.44380042 -0.26570034
-0.33507541 -0.44327575 -0.26894653
-0.3970452 -0.42400467 -0.26266754
0.35240024 -0.34120634 -0.27609885
0.37302697 -0.32157874 -0.27129185
0.39372939 -0.30187911 -0.26646709
0.41450804 -0.28210694 -0.26162469
0.43477499 -0.24149898 -0.26185942
0.47351289 -0.13938601 -0.27596986
0.49502587 -0.038541801 -0.26637614
0.49411169 -0.018284379 -0.27297366
0.49361077 0.0018945672 -0.27658892
0.49452421 0.022174852 -0.26999652
0.49544406 0.042557895 -0.263358
0.47409123 0.1434568 -0.27155066
0.45373175 0.18380353 -0.2727021
0.43339163 0.22411592 -0.27383959
0.41306913 0.26439354 -0.27497602
0.31274283 0.38694119 -0.26588237
0.25180727 0.42690751 -0.26916707
-0.39643824 0.44775721 -0.26570034
-0.37619555 0.44777563 -0.26559603
-0.39643824 0.46801984 -0.26570034
-0.31391057 0.46640864 -0.27442086
-0.29564458 0.46861392 -0.26248515
0.1911941 0.46813774 -0.26506317
-0.39643562 0.48828009 -0.26571333
0.089960068 0.50732255 -0.27180958
-0.41967583 -0.48686004 -0.251387
-0.41967583 -0.46648717 -0.251387
-0.23516735 -0.46507823 -0.25970626
-0.21525207 -0.46558762 -0.25669897
-0.19529137 -0.46609807 -0.25368476
-0.17528504 -0.46660969 -0.25066376
-0.15523434 -0.46712467 -0.24762273
-0.41967857 -0.44611651 -0.25137365
-0.31724915 -0.44557747 -0.25470793
-0.41968131 -0.42574558 -0.25136065
0.27310979 -0.42605132 -0.24937463
-0.42071307 -0.40609854 -0.24639642
0.45520863 -0.20099407 -0.26071131
0.47565833 -0.16045305 -0.25957572
0.497798 -0.099930204 -0.24636984
0.49686989 -0.079363979 -0.25306821
0.49594647 -0.058901563 -0.25973237
0.49636677 0.063043557 -0.25669909
0.49729416 0.083633207 -0.25000632
0.4769451 0.16518533 -0.2497431
0.45641539 0.20585726 -0.25091362
0.43590686 0.24649575 -0.25205696
0.3957485 0.30830914 -0.2462908
0.37488145 0.32807663 -0.25121593
0.35409179 0.3477709 -0.25612271
0.33337903 0.36739233 -0.2610116
-0.41968131 0.42992294 -0.25136054
-0.41967857 0.45029387 -0.25137377
-0.3591018 0.45081332 -0.24843979
-0.41967857 0.47066668 -0.25137377
-0.27721161 0.4708392 -0.25044024
-0.41967583 0.49103716 -0.25138688
-0.44317049 -0.48942438 -0.23690367
-0.44317335 -0.46894228 -0.23689055
-0.13513625 -0.46763864 -0.24458778
-0.11499202 -0.46815386 -0.24154592
-0.094802693 -0.46867234 -0.23848391
0.21207589 -0.46754918 -0.24511611
-0.44317335 -0.4484579 -0.23689044
-0.2992287 -0.44790438 -0.24031413
-0.44317621 -0.42797539 -0.2368772
-0.38029456 -0.42683303 -0.24429715
-0.44317621 -0.40749088 -0.23687708
-0.44467801 -0.38797173 -0.22990978
0.33527067 -0.38706711 -0.23643851
0.35617581 -0.36722392 -0.23151159
0.43729955 -0.26381084 -0.23999596
0.4579055 -0.22298065 -0.23881567
0.47852623 -0.18211246 -0.23766077
0.49967393 -0.14137849 -0.2328316
0.49873447 -0.12060183 -0.23961151
0.5206424 -0.018284284 -0.22973609
0.52010387 0.0022269357 -0.23341787
0.49822626 0.10432732 -0.24327934
0.49916309 0.1251269 -0.23651826
0.43846422 0.26925039 -0.22990966
0.41669053 0.28846487 -0.2413739
-0.44317335 0.4118892 -0.23689044
0.29415661 0.41159946 -0.23868287
-0.44317335 0.4323737 -0.23689032
-0.4006083 0.43102303 -0.24486518
-0.44317335 0.452858 -0.23689044
-0.34178141 0.45388845 -0.23107111
0.23290628 0.45328432 -0.23448336
-0.44317049 0.47334012 -0.23690367
-0.25860932 0.47308499 -0.23828471
-0.46692371 -0.4714199 -0.22226107
-0.46692669 -0.45082489 -0.22224772
-0.2810089 -0.4502545 -0.22577608
0.2543191 -0.45203134 -0.21478474
-0.46692669 -0.43022776 -0.2222476
-0.36290306 -0.42936289 -0.22786462
-0.46692967 -0.40963256 -0.22223413
-0.40402436 -0.40881884 -0.22779763
0.31598586 -0.41009486 -0.21907365
-0.46693265 -0.38903716 -0.22222078
0.37715974 -0.34730881 -0.22655284
0.39822319 -0.32732105 -0.22156239
0.4193655 -0.30725846 -0.21655309
0.46064752 -0.24533544 -0.21655309
0.48144397 -0.20413566 -0.21536541
0.50225699 -0.16289875 -0.21419013
0.5226416 -0.059573822 -0.21606755
0.52163947 -0.038876303 -0.22291911
0.52110207 0.022843139 -0.22659302
0.52210546 0.043565273 -0.21973312
0.50056803 0.14623873 -0.2263788
0.47984678 0.18727773 -0.2275703
0.45914561 0.22828129 -0.22874713
-0.46692669 0.39365911 -0.2222476
-0.46692669 0.41425624 -0.22224772
-0.4254086 0.41400462 -0.22380495
-0.46692669 0.43485343 -0.2222476
-0.38353938 0.43397477 -0.22743642
-0.46692371 0.45544836 -0.22226107
-0.23983359 0.47534892 -0.22603059
0.15095982 0.49592718 -0.22597694
-0.26259059 -0.45263273 -0.21106458
-0.4909429 -0.43250722 -0.20744276
-0.34494737 -0.43162239 -0.2131896
-0.32679555 -0.43390873 -0.19833899
-0.49094599 -0.41179794 -0.20742941
-0.3870998 -0.41157755 -0.20893621
-0.49094599 -0.39108673 -0.20742929
-0.42805105 -0.39057919 -0.21109176
-0.49094915 -0.3703773 -0.2074157
-0.46893972 -0.3696163 -0.21323025
-0.49151117 -0.34996566 -0.20498204
0.44058555 -0.28711924 -0.21153867
0.52466542 -0.10128941 -0.20223045
0.52365088 -0.080377847 -0.20916677
0.52311194 0.064393714 -0.21285141
0.52412367 0.085329413 -0.20593429
0.52514064 0.10637336 -0.1989814
0.50369698 0.16836847 -0.2037977
0.48279923 0.20974426 -0.20500934
0.46192193 0.25108427 -0.2062062
0.4003599 0.33475146 -0.20021117
0.37912095 0.35481015 -0.20532227
-0.4909429 0.37522733 -0.20744276
-0.47214818 0.37648296 -0.19885838
0.35796344 0.37479472 -0.2104007
-0.4909429 0.39593852 -0.20744288
-0.45023584 0.39644948 -0.20412457
0.33749861 0.39593023 -0.20749712
-0.4909429 0.41664967 -0.207443
-0.40836757 0.41686711 -0.2060976
-0.49093974 0.43735844 -0.20745647
-0.36624479 0.43696555 -0.209777
0.27559879 0.43808183 -0.20318472
-0.32423466 0.45700651 -0.21346021
-0.3056896 0.45932817 -0.20034754
-0.22088581 0.47763631 -0.21364939
-0.20176163 0.47994527 -0.2011528
-0.24396649 -0.45503503 -0.19620395
-0.30843955 -0.43621856 -0.18333673
0.29753864 -0.43615249 -0.18376529
-0.5152263 -0.41398543 -0.19247341
-0.36993444 -0.41437545 -0.18980634
-0.51522964 -0.39316094 -0.1924597
-0.41119069 -0.39322576 -0.19199252
0.36008435 -0.39414561 -0.18535388
-0.51523286 -0.37233627 -0.19244587
-0.45238328 -0.37211174 -0.19416165
-0.47551757 -0.35257888 -0.18376529
-0.51523286 -0.35150972 -0.19244587
-0.51523286 -0.33068311 -0.19244587
0.46343416 -0.26806644 -0.19392836
0.48440921 -0.22653009 -0.1927067
0.50539941 -0.18495454 -0.19151163
0.52671015 -0.14343764 -0.1882503
0.52568519 -0.12230893 -0.1952585
0.54806173 -0.018284237 -0.18505025
0.54748428 0.0025703348 -0.18880129
0.52616084 0.12752548 -0.19200635
0.48580199 0.23259374 -0.18206406
0.46474555 0.27427557 -0.18328154
0.44307274 0.29439712 -0.18999887
0.42167673 0.31461325 -0.1951077
-0.51622754 0.33631319 -0.18827784
-0.51522303 0.35658863 -0.19248724
-0.49414313 0.35643643 -0.19358528
-0.5152263 0.37741697 -0.19247341
-0.5152263 0.39824313 -0.19247341
-0.43359858 0.39948612 -0.18440092
-0.51522303 0.41906726 -0.192487
-0.39109933 0.41976792 -0.18815386
-0.34871987 0.439996 -0.19188249
-0.28686696 0.46156278 -0.1877265
-0.18245852 0.48227546 -0.18853962
-0.078639627 0.48339012 -0.1825068
-0.057473287 0.4826881 -0.18630612
0.23503055 -0.47869676 -0.17929316
-0.22513703 -0.45746651 -0.18116403
-0.28988051 -0.43855622 -0.16815293
-0.35252309 -0.41721359 -0.17040217
-0.53978491 -0.3952584 -0.17732239
-0.3940888 -0.39591008 -0.17261994
-0.53978491 -0.37431544 -0.17732239
-0.43558991 -0.37464294 -0.17482007
0.38143831 -0.37393415 -0.18023586
-0.53978831 -0.35337418 -0.17730856
0.40287301 -0.35364634 -0.17509854
-0.53979176 -0.33243269 -0.17729461
-0.49689978 -0.33192983 -0.18164873
0.42439196 -0.33328488 -0.16991353
-0.53979176 -0.3114894 -0.17729449
-0.51831537 -0.31124866 -0.17952883
-0.53978831 -0.29054475 -0.17730856
0.48742315 -0.24930483 -0.16967618
0.50859737 -0.2073873 -0.16843259
0.52978677 -0.16542995 -0.16721582
0.55023742 -0.060268946 -0.17091858
0.54914677 -0.039222065 -0.17800283
0.54857051 0.023533581 -0.18174565
0.54966247 0.04460635 -0.17465329
0.55076015 0.065789409 -0.1675235
0.52797365 0.14911878 -0.17961216
0.5068773 0.19087453 -0.18084562
-0.53977805 0.31680045 -0.17735028
-0.53977805 0.33774322 -0.17735004
-0.50016183 0.33902919 -0.16752362
-0.53977805 0.358686 -0.17735004
-0.47794348 0.35930285 -0.17289877
-0.53977805 0.37962881 -0.17735004
-0.45580941 0.37949476 -0.17826641
-0.53977805 0.40057161 -0.17735004
-0.41635698 0.40229139 -0.1661799
-0.37359935 0.42270756 -0.16996944
0.31930566 0.42251578 -0.17115581
-0.33095777 0.44306472 -0.17376232
-0.26786736 0.46381831 -0.17498708
0.25653818 0.46527854 -0.16674006
-0.16297698 0.48463288 -0.17577982
-0.14249325 0.48550275 -0.17107213
-0.12114817 0.48479494 -0.17490363
-0.0998642 0.48409149 -0.17871046
0.21412663 0.48412731 -0.17851639
-0.20609677 -0.45992497 -0.1659559
-0.1868405 -0.46240893 -0.15059066
-0.27111274 -0.44092017 -0.1527983
-0.33486044 -0.4200927 -0.15071809
0.34177354 -0.41991052 -0.15196371
-0.37674034 -0.39863309 -0.15296817
-0.56461656 -0.3763186 -0.16201484
-0.4185518 -0.37720862 -0.15521419
-0.56462014 -0.3552596 -0.16200066
-0.45926994 -0.35523361 -0.16221154
-0.56462371 -0.3342002 -0.16198683
-0.48080933 -0.33442256 -0.16006124
-0.56462371 -0.31313911 -0.16198671
-0.50238258 -0.31357881 -0.15790749
0.44599295 -0.31284583 -0.16470897
-0.56462371 -0.29207811 -0.16198683
-0.52399319 -0.29270363 -0.15573621
0.46767482 -0.29232708 -0.15949845
-0.56462014 -0.27101579 -0.16200078
-0.54563457 -0.27179405 -0.15357578
-0.56479144 -0.25001189 -0.16132653
0.55244029 -0.10269409 -0.15661085
0.55133384 -0.081425697 -0.1637975
0.55185926 0.087082662 -0.16038454
0.5529663 0.10848818 -0.15319407
0.5313915 0.17166311 -0.15624416
0.51011431 0.21376857 -0.15748477
-0.56650555 0.2562508 -0.1545788
0.48885635 0.25583601 -0.15872431
-0.56461298 0.276566 -0.16202891
-0.56461298 0.29762685 -0.16202891
-0.54281265 0.29728004 -0.16503119
-0.56461298 0.31868756 -0.16202879
-0.52247137 0.31867716 -0.16211319
-0.56461298 0.33974817 -0.16202891
-0.56461298 0.36080897 -0.16202891
-0.46149099 0.36221159 -0.15190709
0.40513301 0.36212727 -0.15251541
-0.43921942 0.38255292 -0.15735793
0.38351005 0.38248694 -0.1578089
-0.35586283 0.4256869 -0.15153921
-0.31295839 0.44617736 -0.15538347
-0.24868831 0.46609521 -0.16212714
-0.16703331 -0.46442127 -0.13814199
-0.14612091 -0.46495792 -0.13482237
0.27860326 -0.46292007 -0.14742875
-0.25213066 -0.44330874 -0.13728428
-0.40126926 -0.37981349 -0.13530946
-0.44276226 -0.35793084 -0.14031279
-0.58973294 -0.33598629 -0.14651978
-0.46446109 -0.33695522 -0.1381278
-0.58973664 -0.31480759 -0.14650559
-0.48619431 -0.3159464 -0.13593936
-0.58973664 -0.29362744 -0.14650559
-0.58973664 -0.27244711 -0.14650571
0.4904907 -0.27247202 -0.1462357
-0.58973294 -0.2512657 -0.1465199
-0.54939067 -0.25195944 -0.13832784
-0.58973294 -0.23008552 -0.1465199
-0.56843734 -0.23005059 -0.14697444
0.51184833 -0.23020485 -0.14497066
-0.58972919 -0.2089045 -0.14653409
-0.59113729 -0.1880558 -0.14115417
0.53322136 -0.187897 -0.14373291
0.55466855 -0.14556746 -0.14213777
0.55355036 -0.1240741 -0.14940035
0.57641518 -0.018284332 -0.13884199
0.57579952 0.0029255655 -0.1426506
0.57697934 0.024247924 -0.13535237
0.55407917 0.13000642 -0.14596581
-0.59038043 0.21490659 -0.14404595
-0.58972549 0.23587465 -0.14654839
-0.57072097 0.23666567 -0.13798475
-0.58972919 0.25705591 -0.14653409
-0.58972919 0.27823603 -0.14653409
-0.54686916 0.27801707 -0.14856398
-0.58973294 0.29941753 -0.1465199
-0.52714646 0.29987922 -0.14252245
0.47049725 0.30056497 -0.13658345
-0.58973294 0.32059762 -0.1465199
-0.50629771 0.32128322 -0.14095461
0.44862556 0.32116556 -0.14190972
-0.48384815 0.34178725 -0.14644885
0.42683813 0.34168682 -0.14721584
-0.4223724 0.38565835 -0.13612533
-0.39888495 0.40513688 -0.14769828
0.36406523 0.40657726 -0.13834202
-0.29471454 0.44933212 -0.13675499
-0.2293272 0.46839386 -0.14914513
-0.2097815 0.47071421 -0.13603961
-0.12515679 -0.46549353 -0.13150907
-0.10414112 -0.46602806 -0.12820232
-0.083076268 -0.46656638 -0.12487316
-0.061959714 -0.46710345 -0.12155044
-0.23293465 -0.44572666 -0.12157941
-0.31694096 -0.42301354 -0.1307478
-0.35913989 -0.4013958 -0.13303041
0.38706136 -0.40328932 -0.11936474
0.40769151 -0.38090751 -0.12694943
0.42959788 -0.36023465 -0.12160838
-0.61513931 -0.29519561 -0.1308341
-0.50796539 -0.29490554 -0.13373315
-0.61513543 -0.27389348 -0.13084841
-0.52976787 -0.2738297 -0.13153791
-0.61513543 -0.25259271 -0.13084829
0.51515365 -0.25341678 -0.12111652
-0.61513156 -0.23129092 -0.13086271
-0.55298597 -0.23183972 -0.12373292
-0.61513156 -0.20999019 -0.13086283
-0.57212168 -0.20987877 -0.13247097
0.53671777 -0.21075471 -0.11982822
-0.61512774 -0.18868864 -0.13087714
-0.61512774 -0.16738814 -0.13087714
-0.59494942 -0.16761912 -0.12658918
0.5582974 -0.16805151 -0.11856771
-0.61512774 -0.14608756 -0.13087714
-0.61512774 -0.12478712 -0.13087714
-0.61596864 -0.10358257 -0.12775612
-0.61772633 -0.082408696 -0.12123215
0.57877839 -0.060987838 -0.12422371
0.57759368 -0.039579663 -0.13155222
0.57816541 0.045683406 -0.12801504
0.5793556 0.067232676 -0.12065339
-0.61747307 0.10992103 -0.12217212
-0.61518574 0.13083114 -0.13066149
-0.61512774 0.15212002 -0.13087714
0.55635577 0.15210147 -0.13117886
-0.61512774 0.17342061 -0.13087714
-0.59564793 0.17390256 -0.12392056
-0.61512774 0.1947211 -0.13087714
-0.59342879 0.19460391 -0.13239908
0.53487068 0.1945996 -0.13245654
-0.61512774 0.21602169 -0.13087714
-0.57498777 0.21684206 -0.12118864
-0.61513156 0.23732349 -0.13086283
0.51340544 0.23705843 -0.13373315
-0.61513543 0.25862575 -0.13084829
-0.55097485 0.25852075 -0.13189685
-0.61513543 0.27992648 -0.13084829
-0.53114146 0.28047255 -0.12578189
0.49245173 0.27988306 -0.13125062
-0.5112201 0.30252141 -0.11963975
-0.48987186 0.32392991 -0.11946595
-0.46728379 0.34458995 -0.12503195
-0.44478303 0.36516532 -0.13058984
-0.38117498 0.40802088 -0.1289649
-0.33788267 0.42870435 -0.13287258
0.30061454 0.44982943 -0.13381934
-0.19004852 0.47305688 -0.12280822
-0.21351719 -0.44817001 -0.10570943
0.32320851 -0.44676694 -0.11482286
-0.29875684 -0.42597511 -0.11049962
-0.34128186 -0.40419877 -0.11280131
-0.38373405 -0.38245645 -0.11511362
-0.42598808 -0.3606717 -0.11806023
-0.4478488 -0.33952886 -0.11583996
0.4515906 -0.33948353 -0.11623204
-0.46974438 -0.31835225 -0.11361611
0.47366863 -0.31865194 -0.11083484
-0.4916783 -0.29714313 -0.11137426
0.49583441 -0.29774076 -0.10540211
-0.51364422 -0.27589855 -0.10914314
-0.5337289 -0.25393993 -0.11493933
-0.64082491 -0.23251107 -0.11501193
-0.64082491 -0.21108842 -0.11501181
-0.55661952 -0.21150614 -0.10898256
-0.64082092 -0.18966466 -0.11502647
-0.57584518 -0.18949309 -0.11781394
-0.64082092 -0.16824216 -0.11502647
-0.57961196 -0.16889104 -0.10298574
-0.64081687 -0.14681898 -0.11504102
-0.59749687 -0.14673512 -0.11685634
-0.64082092 -0.12539709 -0.11502647
-0.59921783 -0.12557979 -0.11028087
-0.64082092 -0.10397448 -0.11502647
-0.60094696 -0.10432404 -0.10367453
0.58117151 -0.1041472 -0.10942042
-0.64082092 -0.082551971 -0.11502635
0.57997173 -0.082510084 -0.11684155
-0.64082092 -0.061129406 -0.11502635
-0.61949235 -0.061134756 -0.11467755
-0.64082092 -0.039706849 -0.11502635
-0.62126672 -0.039760187 -0.10809195
-0.64082092 -0.018284284 -0.11502635
-0.62121159 -0.018284284 -0.10829639
-0.64082092 0.0031382777 -0.11502635
-0.62095201 0.0031827223 -0.10925996
-0.64082092 0.024560792 -0.11502624
-0.62068874 0.024634583 -0.11023712
-0.64082092 0.045983352 -0.11502635
-0.62042946 0.046071768 -0.11119938
-0.64082092 0.067406006 -0.11502647
-0.62017047 0.067494184 -0.11216068
-0.64082092 0.088828571 -0.11502647
-0.61977053 0.088881724 -0.1136452
0.58055198 0.088896871 -0.1132524
-0.64082092 0.11025114 -0.11502647
0.5817548 0.11067665 -0.10581183
-0.64082092 0.13167365 -0.11502635
-0.60012347 0.13211583 -0.10682082
-0.64082092 0.15309615 -0.11502647
-0.59787691 0.15307301 -0.11540425
-0.64082092 0.17451878 -0.11502635
0.56008345 0.17507716 -0.10696697
-0.64082092 0.19594124 -0.11502635
-0.57818872 0.19643691 -0.10858846
-0.64082491 0.21736513 -0.11501181
0.53840864 0.21793619 -0.10826731
-0.64082491 0.23878789 -0.11501193
-0.55513066 0.23878637 -0.11502635
-0.53518522 0.26082847 -0.10883665
0.51675612 0.26075694 -0.10955167
-0.45045644 0.34743482 -0.10329342
-0.42781371 0.36816552 -0.10893881
-0.40526503 0.38881454 -0.11454678
0.4100779 0.39048827 -0.10310292
-0.36322203 0.41094473 -0.1099745
-0.31965876 0.43176588 -0.11393607
-0.27622116 0.45253026 -0.11787176
-0.17012554 0.47542199 -0.10944951
-0.1938782 -0.45064372 -0.089642167
-0.28001055 -0.42868623 -0.091963649
-0.32316059 -0.40704316 -0.092273831
-0.3659406 -0.3851383 -0.094620228
-0.40864903 -0.36327013 -0.096962929
-0.4309659 -0.34214428 -0.093189359
-0.45302641 -0.32079723 -0.090929031
-0.47512561 -0.29941723 -0.088650346
0.51851678 -0.27703467 -0.09684515
-0.51779932 -0.25595415 -0.09115088
-0.53727126 -0.23365939 -0.10009515
0.54027319 -0.23401161 -0.095519543
-0.56029546 -0.190956 -0.094059944
0.56204563 -0.19094597 -0.094222307
-0.66681021 -0.16910622 -0.098992944
-0.66680604 -0.14755955 -0.099007726
-0.58225811 -0.14785698 -0.092569232
0.58383596 -0.1478399 -0.092938423
-0.66681021 -0.12601426 -0.098993063
0.58237761 -0.12590005 -0.10195935
-0.66681021 -0.10446826 -0.098993063
-0.66680604 -0.082921967 -0.099007964
-0.60268426 -0.082967453 -0.0970366
-0.66681021 -0.061376244 -0.098993182
-0.6044299 -0.061509058 -0.090367079
-0.66680604 -0.0398301 -0.099007726
-0.66680604 -0.018284284 -0.099007726
0.60575128 -0.018284284 -0.091032624
-0.66680604 0.0032615792 -0.099007845
0.60509372 0.0032931026 -0.094915271
-0.66680604 0.02480744 -0.099007726
0.60637295 0.024986783 -0.087361455
-0.66680604 0.046353348 -0.099007726
-0.66681021 0.067899637 -0.098992944
-0.60512352 0.068246871 -0.087717056
-0.66681021 0.089445643 -0.098993063
-0.60465062 0.089810103 -0.089523911
-0.66681021 0.11099165 -0.098993063
-0.6023801 0.11102823 -0.09819901
-0.66681021 0.13253766 -0.098993182
0.58296406 0.1325732 -0.098331451
-0.66680604 0.15408261 -0.099007726
-0.58258086 0.15455751 -0.09129858
-0.58037615 0.17556146 -0.099977612
-0.55933744 0.2188101 -0.097949028
-0.53927875 0.24094284 -0.091682911
-0.51515085 0.28296873 -0.10261941
-0.49502695 0.305208 -0.096373916
-0.47318798 0.32661813 -0.097640157
0.4543775 0.34890011 -0.092096567
-0.4105767 0.37121281 -0.086946368
0.43218419 0.36973497 -0.097610474
-0.38788551 0.39201814 -0.092643023
-0.34502113 0.41390887 -0.090722084
-0.30118343 0.43486923 -0.094738364
0.3457664 0.43400329 -0.10009515
-0.25747105 0.45576981 -0.0987432
-0.15000984 0.47781014 -0.095961571
0.2814036 0.47789896 -0.095460653
0.13039136 -0.53817582 -0.083903551
0.30413806 -0.47436938 -0.076604009
-0.17401186 -0.45314607 -0.073389053
-0.26065883 -0.43105948 -0.075737357
0.36888653 -0.4302305 -0.081405163
-0.30477026 -0.40992981 -0.071441531
-0.34788308 -0.38786003 -0.073822975
0.43499479 -0.3881599 -0.071531653
-0.39092332 -0.36582741 -0.076200604
-0.49725741 -0.27800101 -0.086382866
-0.52128994 -0.23551141 -0.076036334
-0.54085517 -0.21316239 -0.085076928
-0.56400728 -0.17018408 -0.078991532
-0.58395785 -0.12651901 -0.085878491
-0.58566564 -0.10507913 -0.079155564
-0.58737785 -0.083536111 -0.07241559
0.60831374 -0.061731853 -0.075901747
-0.60618383 -0.039948337 -0.083665848
0.60702908 -0.039949708 -0.083487511
-0.60615665 -0.018284284 -0.083769798
-0.69309634 0.0033863951 -0.082788706
-0.60589612 0.003371248 -0.084765196
-0.6056397 0.025011634 -0.085744977
-0.60538346 0.046637014 -0.086724043
0.60765922 0.046797663 -0.07976687
0.60895234 0.068726771 -0.072131038
-0.58702409 0.11215485 -0.073808074
-0.58479553 0.13342206 -0.082580447
0.58576536 0.15519144 -0.081002951
-0.5648421 0.1772501 -0.07560277
-0.56268024 0.19830059 -0.084378958
0.56387693 0.19845852 -0.082327604
-0.54342294 0.22081102 -0.074316859
0.54201126 0.24168614 -0.083636165
-0.51913005 0.26317498 -0.08538866
-0.49889082 0.28550702 -0.079066157
0.52147675 0.28589326 -0.075483322
-0.47856033 0.30793989 -0.072715282
0.49902353 0.30697942 -0.081032872
-0.45624298 0.32935083 -0.075453401
0.47665843 0.32798281 -0.086560845
-0.43336326 0.35032442 -0.081211567
-0.32656467 0.41691184 -0.071216583
-0.2824516 0.43801579 -0.07527411
-0.2381843 0.45869601 -0.081464648
-0.1296986 0.48022142 -0.082342505
-0.15391272 -0.45567524 -0.056961775
-0.24108198 -0.43346047 -0.059322357
-0.37293285 -0.36842287 -0.055128217
0.45739385 -0.36708692 -0.065974355
-0.41380596 -0.34480274 -0.070166826
0.47988117 -0.34593102 -0.060395479
-0.43603367 -0.32328239 -0.067869306
-0.45830071 -0.30172864 -0.065553069
-0.48060095 -0.28013813 -0.063248038
-0.50159854 -0.25800452 -0.066937327
0.54388916 -0.25767776 -0.070796847
-0.52481478 -0.21484615 -0.060773134
0.56585777 -0.21424422 -0.069461465
-0.54447418 -0.19244319 -0.069911718
0.58784235 -0.17076807 -0.068154812
-0.56674713 -0.14899775 -0.067869306
-0.56842452 -0.12747423 -0.061060071
0.6109091 -0.10565124 -0.060576677
0.60960793 -0.083632052 -0.068260074
-0.58910209 -0.061889946 -0.065628409
-0.59083456 -0.040139608 -0.058808208
-0.59083074 -0.018284237 -0.058823347
-0.59057724 0.003563229 -0.059821248
-0.59032393 0.025395358 -0.060818434
-0.59006691 0.047211863 -0.061830044
-0.58981401 0.069013327 -0.06282568
-0.58927035 0.090755284 -0.064965844
0.61025 0.090774506 -0.064468741
0.61155474 0.11294203 -0.05676496
-0.56920284 0.13475192 -0.057900429
-0.5670138 0.15606704 -0.066786766
0.58982575 0.17861617 -0.05588603
-0.54690379 0.20019799 -0.059730411
0.56774032 0.22225761 -0.057234287
-0.52315867 0.2431356 -0.067944407
-0.50280267 0.26556137 -0.061543107
0.54567802 0.26585931 -0.058566093
-0.4823544 0.28808865 -0.055112958
-0.41599774 0.35326019 -0.058777928
-0.39306849 0.37431058 -0.064589381
-0.37023032 0.39527282 -0.070391774
0.39203227 0.41778398 -0.06555295
-0.2634578 0.44120643 -0.055537343
-0.21819642 0.46102387 -0.067718983
0.32695216 0.4621976 -0.060788274
-0.10919023 0.48265895 -0.068575501
-0.13357985 -0.45823631 -0.040326953
0.35021648 -0.45793453 -0.042286873
-0.2212742 -0.43588713 -0.042730689
-0.2861025 -0.41285744 -0.050312757
0.41568249 -0.41330278 -0.047098756
-0.32955563 -0.39062232 -0.052714944
-0.39636189 -0.34750515 -0.046763182
-0.41875947 -0.32580879 -0.044427514
0.50245929 -0.32469308 -0.054779291
-0.44119686 -0.30407834 -0.042072654
0.52512896 -0.30337259 -0.049125671
-0.46366805 -0.28231078 -0.039729238
0.54788911 -0.28196698 -0.043449402
-0.48510909 -0.26008806 -0.042332768
-0.50502795 -0.23739442 -0.051575184
0.56973553 -0.23795636 -0.044274807
-0.52837801 -0.19395623 -0.045343757
0.59192276 -0.19410574 -0.042914152
-0.54813242 -0.1714993 -0.054582119
-0.55096066 -0.15015891 -0.042730689
0.61412585 -0.15021192 -0.041582823
0.61221999 -0.12779088 -0.052836299
-0.57010996 -0.10584696 -0.054217935
-0.57180357 -0.084115177 -0.047342777
-0.5735054 -0.062277839 -0.040434241
0.63612193 -0.018284284 -0.041536927
0.63542354 0.0036735609 -0.045481324
-0.5736149 0.091716751 -0.03998971
-0.57140189 0.11330196 -0.048973322
0.6128639 0.13522965 -0.049034119
-0.55117607 0.15760407 -0.041827559
-0.54903144 0.17896748 -0.050814867
-0.52723747 0.22284628 -0.05028224
-0.50676346 0.24536607 -0.04380095
-0.46181321 0.31071827 -0.048653245
-0.43902427 0.33212531 -0.052927494
-0.37527686 0.37745619 -0.041888952
0.46033943 0.37765342 -0.040464759
-0.35229281 0.39857933 -0.047784805
-0.30785227 0.41995931 -0.051423192
-0.1980142 0.46337727 -0.053823471
-0.17763284 0.46575376 -0.039790511
-0.088480279 0.48512045 -0.054673076
-0.066911012 0.4859328 -0.050084591
-0.04473117 0.48519292 -0.054263473
0.19642276 -0.52452493 -0.038655877
-0.11300611 -0.4608252 -0.023511648
-0.20123526 -0.43834472 -0.02592814
-0.26715565 -0.4158313 -0.028850555
-0.31095216 -0.39342624 -0.031288862
-0.35467166 -0.37105745 -0.033738375
-0.48848158 -0.23931035 -0.02668643
-0.50849479 -0.21655926 -0.036045551
-0.53198022 -0.17283772 -0.029745936
-0.55261463 -0.12844658 -0.035799623
-0.5542767 -0.10662861 -0.028834939
0.63889647 -0.062502146 -0.02586627
-0.57521552 -0.040334474 -0.033492088
0.63750541 -0.040332817 -0.033723116
-0.57523447 -0.018284332 -0.033415198
-0.57498425 0.0037587117 -0.034430981
-0.5747304 0.025785806 -0.035461307
0.63680595 0.025751727 -0.037673712
-0.57448053 0.047797509 -0.036475897
0.63819861 0.047951393 -0.029807806
-0.57423079 0.069793463 -0.037489533
-0.5554989 0.11446864 -0.023713112
-0.55333066 0.13610449 -0.032799006
0.61626387 0.1583966 -0.02895844
-0.53294408 0.18071626 -0.0255723
-0.53084493 0.20212774 -0.034661651
0.59395665 0.20246102 -0.030332446
-0.51077414 0.22491652 -0.025835276
0.57167315 0.24648482 -0.031689644
-0.4861961 0.26798844 -0.037289858
-0.46553457 0.29071426 -0.030748963
-0.44477838 0.31354439 -0.024178267
-0.42152846 0.33494431 -0.03003931
0.50583827 0.3350774 -0.028958559
-0.3983562 0.35624525 -0.035968781
0.48304316 0.35640827 -0.034723282
-0.33368835 0.40159729 -0.027150393
0.43945649 0.40116128 -0.030131936
-0.28887594 0.42304969 -0.031350493
-0.2441965 0.44444185 -0.035522819
0.37364191 0.4461031 -0.025246978
-0.15704939 0.46815389 -0.025618672
-0.18095738 -0.44082907 -0.0089426041
-0.29206634 -0.39627281 -0.0095374584
0.46363246 -0.39595756 -0.011946321
-0.33613354 -0.37373191 -0.012024403
0.48632658 -0.37421948 -0.0080652237
-0.37862676 -0.35025263 -0.022968888
-0.40119958 -0.32837903 -0.020578623
-0.42380702 -0.3064675 -0.018199682
-0.44645184 -0.28451967 -0.015817046
-0.46833378 -0.26220942 -0.017281294
0.57368302 -0.26209477 -0.018635392
-0.49188787 -0.21830261 -0.010883212
0.59607399 -0.21786252 -0.017234683
-0.51199973 -0.19549567 -0.020345569
0.61847889 -0.17358486 -0.015879154
-0.53489476 -0.15134151 -0.017125607
-0.53652066 -0.1294363 -0.010085464
0.64170998 -0.10720924 -0.009975791
-0.55594683 -0.084704131 -0.021836519
0.64029795 -0.084793828 -0.017950892
-0.55762511 -0.062672496 -0.014803529
-0.55931163 -0.040532798 -0.0077362061
-0.55935657 -0.018284332 -0.0075479746
-0.55910599 0.0039576031 -0.0085980892
-0.55885935 0.026183492 -0.0096313953
-0.55861288 0.048393525 -0.010664344
-0.5583629 0.070587181 -0.011711836
0.63959897 0.070273504 -0.021898508
-0.55768466 0.092695728 -0.014553785
0.64100713 0.092719205 -0.013945341
-0.53505307 0.15916747 -0.016440272
-0.51450342 0.20409323 -0.0091304779
-0.4900862 0.24763465 -0.019242048
-0.46930301 0.27045742 -0.012618184
0.55169594 0.29215071 -0.017421603
0.52872109 0.31365725 -0.023201704
-0.38042617 0.35927647 -0.0128057
-0.35719785 0.38065237 -0.018821836
-0.2696301 0.42618415 -0.010992646
-0.22466013 0.44772086 -0.015240192
-0.13626075 0.4705779 -0.011305332
0.26461238 -0.51042795 0.0080708265
-0.092190057 -0.46344715 -0.0064817667
-0.070298851 -0.46426255 -0.0011851788
-0.048226148 -0.46482804 0.0024880171
-0.026095703 -0.46539021 0.00613904
-0.16043982 -0.44334531 0.0082610846
0.39743108 -0.4410972 -0.007109046
-0.24792108 -0.41885039 -0.0070619583
-0.36059305 -0.35304639 0.0012257099
0.50933278 -0.35264438 -0.0022556782
-0.38334095 -0.33099094 0.0036565065
0.53243172 -0.33098236 0.00357759
-0.406124 -0.30889684 0.0060756207
-0.42894518 -0.28676581 0.0084987879
-0.45126152 -0.26436821 0.0082134008
-0.47164333 -0.24126016 -0.0013583899
-0.49533188 -0.19706233 0.0050948858
-0.51554334 -0.17419963 -0.0044723749
0.64312702 -0.12974866 -0.0019721985
-0.53815812 -0.10742432 -0.0029947758
-0.53980368 -0.085303836 0.0041306019
0.66683954 0.0040677469 0.0057116747
-0.53931499 0.11565707 0.0020145178
0.64241749 0.11528783 -0.0059796572
-0.53717542 0.13748126 -0.0072501898
0.64383847 0.13798217 0.002045989
-0.5165655 0.1824954 0.0001064539
0.62067431 0.18228595 -0.0029160976
-0.49402571 0.22702242 -0.00096487999
0.59816253 0.22673868 -0.0043151379
-0.47311938 0.24994269 0.0057433844
0.57567739 0.27115154 -0.0056813955
-0.44842398 0.29338533 -0.0059639215
-0.42717236 0.31625387 -0.00071287155
-0.40374899 0.33780929 -0.0067796707
-0.33882436 0.38390061 0.0046205521
-0.31473038 0.40458143 -0.0067483187
-0.20484671 0.45104915 0.0053479671
-0.11526388 0.47302613 0.0031511784
-0.22839212 -0.42191571 0.015059829
-0.27288955 -0.39916065 0.012530327
-0.31731224 -0.3764472 0.01002121
0.55562854 -0.30923614 0.0094660521
0.57891977 -0.28740129 0.015378356
0.60029817 -0.24204944 0.0088950396
-0.47498626 -0.22007692 0.014725566
0.62291372 -0.19738333 0.010306954
-0.49881417 -0.17558576 0.021250844
-0.51853454 -0.15254484 0.0089268684
0.64554566 -0.15267241 0.011688352
-0.52013838 -0.13044454 0.016111016
-0.52175021 -0.10823484 0.023330927
-0.54145736 -0.063074298 0.011291146
-0.54311919 -0.040734719 0.018487215
0.66907889 -0.040729605 0.017832756
-0.54318553 -0.018284379 0.018774509
0.66758293 -0.018284379 0.0097357035
-0.54294229 0.0041601863 0.017721295
-0.54269928 0.026588326 0.016668916
0.66833723 0.026544547 0.013818502
-0.54245275 0.048999995 0.015601397
0.66984332 0.049147107 0.02197051
-0.54220998 0.071395762 0.014550447
-0.54146469 0.09369161 0.011322975
-0.52073294 0.13888372 0.01877439
-0.51864427 0.16075987 0.0094183683
-0.49786437 0.20609275 0.016844273
0.62516558 0.20661302 0.023603201
-0.47698462 0.22916518 0.024340153
0.60244805 0.25146234 0.022194505
-0.45211601 0.27296945 0.012482762
-0.4310149 0.29610321 0.019253492
-0.40925574 0.31899512 0.023026943
-0.38568145 0.34072283 0.016876101
-0.36220354 0.36235726 0.010735631
0.48966774 0.38590154 0.019061923
-0.29550338 0.40761042 0.013961792
-0.25010896 0.42936304 0.0096564293
0.42151627 0.42960009 0.011195898
-0.094055638 0.47549918 0.017753243
0.35471934 0.47523734 0.016206741
0.37866992 -0.46969998 0.034131527
-0.13967645 -0.44589171 0.025670767
-0.20856199 -0.42502829 0.037522912
0.44583386 -0.42385316 0.029042721
-0.25341961 -0.40209529 0.034954429
-0.29820114 -0.3792043 0.03240633
-0.3422558 -0.35588938 0.025847197
-0.36517882 -0.33364719 0.028303385
-0.38814032 -0.31136748 0.030763745
-0.41114056 -0.28905031 0.033228397
-0.43388438 -0.26656571 0.034163713
0.60459948 -0.26667911 0.035503268
-0.45450526 -0.24324463 0.024420381
0.62742436 -0.22161599 0.036940932
-0.47836661 -0.19865705 0.03098917
0.65027159 -0.17650878 0.038380146
-0.50187576 -0.15377015 0.035454869
-0.52336997 -0.085914806 0.030586839
0.67210197 -0.085998155 0.034196019
-0.52499783 -0.063483633 0.037878752
0.67058331 -0.063300312 0.025975585
0.67135793 0.071876757 0.030168414
-0.5249545 0.094706319 0.037684679
0.67287809 0.09473373 0.03839612
-0.52283514 0.11686585 0.02819109
-0.50193489 0.16238025 0.035729289
0.64791059 0.16172229 0.025045395
-0.4998948 0.18430775 0.02626431
-0.45585543 0.25229129 0.031166196
-0.43462735 0.27552536 0.038024068
0.55966365 0.32061484 0.037054181
0.53623891 0.34246919 0.031053543
-0.3436811 0.36548859 0.034663916
0.5129056 0.36422992 0.025045514
-0.32014924 0.3872022 0.028447986
-0.27599898 0.41068321 0.034970522
-0.23030654 0.4325881 0.030602694
-0.18474653 0.45442253 0.026216149
-0.072632849 0.47799706 0.032503009
0.33501557 -0.49574086 0.055597067
-0.11866142 -0.44846642 0.043274045
-0.27879354 -0.38200426 0.055138946
0.51646727 -0.38164988 0.05226171
-0.32360196 -0.35877928 0.050874114
-0.34670556 -0.33634898 0.053372622
-0.36984825 -0.31388041 0.055875301
-0.43705946 -0.24526463 0.050662041
-0.45778215 -0.22188289 0.040792704
-0.48178494 -0.17699669 0.047435522
-0.50345272 -0.13147075 0.042770982
0.67515928 -0.13177761 0.05074358
-0.50503755 -0.10905994 0.050123811
0.67362636 -0.10882342 0.042446375
-0.52663016 -0.040940143 0.045190692
-0.52672094 -0.018284284 0.045597076
-0.52648145 0.0043664146 0.04452455
-0.52623856 0.027000548 0.043436527
-0.52599949 0.049618207 0.042365432
-0.52576053 0.072219439 0.041295052
-0.50605857 0.11809773 0.054860711
0.67440671 0.11771954 0.046670437
-0.50398827 0.14031056 0.04525578
0.67594403 0.14083524 0.054991722
-0.48291701 0.18615183 0.052882314
0.65269756 0.18609646 0.052082062
-0.48089975 0.20811985 0.043176889
-0.45964324 0.23134564 0.050091028
0.62974256 0.23139133 0.050629497
0.60681283 0.27664316 0.049194574
-0.41329956 0.29886866 0.044914365
0.5831846 0.29867092 0.043079376
-0.39104313 0.32178164 0.047158837
-0.36731315 0.34368253 0.040906072
-0.30116498 0.39055863 0.052670002
0.4706209 0.41267315 0.048575282
-0.21021482 0.43585724 0.051837206
-0.16435692 0.45784748 0.047402978
0.40304986 0.45886806 0.053715944
-0.050993189 0.4805232 0.04741919
-0.097393036 -0.45107466 0.061107278
0.42752406 -0.45255518 0.071229458
-0.18822902 -0.42793915 0.058529973
-0.23364729 -0.40507537 0.057726502
0.49546263 -0.40617248 0.066110253
0.54001665 -0.35963869 0.058316588
0.56366283 -0.33753702 0.064396739
0.58740914 -0.31534585 0.070518255
-0.39303035 -0.29137391 0.058382392
-0.41619408 -0.26880264 0.060581684
0.63202119 -0.24629791 0.064083934
-0.44026732 -0.22372143 0.067330599
-0.46109599 -0.20028041 0.057349443
0.65508205 -0.20078546 0.065549731
-0.48491353 -0.15501869 0.062487841
0.67815971 -0.15522638 0.066984057
-0.4864589 -0.13251591 0.069923162
-0.50663036 -0.086536609 0.057513356
-0.50823116 -0.063900203 0.064940214
0.70180994 -0.041141115 0.071279168
0.7001909 -0.018284332 0.062866092
-0.50971156 0.0045765229 0.071808577
0.6994037 0.004476225 0.058776021
-0.50947624 0.027420575 0.070716739
0.70102149 0.027365999 0.067182064
-0.5092411 0.050247774 0.069625735
-0.50900257 0.073057607 0.068518996
-0.5081389 0.095738925 0.064512014
-0.48492372 0.16403127 0.062537193
-0.46348029 0.21012793 0.069262266
-0.43828654 0.25468114 0.057038188
-0.41682899 0.2781266 0.064018011
-0.39526981 0.30168334 0.071030736
-0.37252986 0.32461643 0.071709156
-0.34863946 0.34669152 0.065335512
-0.32485136 0.36867198 0.058989406
-0.25621101 0.41380078 0.056284666
-0.1431641 0.46043774 0.063425541
-0.029133007 0.48307803 0.062504411
-0.075864032 -0.45371237 0.07914114
-0.1672737 -0.43043593 0.076549053
-0.21356553 -0.40810212 0.080854893
-0.25908032 -0.38484582 0.078209996
-0.30451432 -0.36163095 0.075569868
-0.32791296 -0.33909738 0.078875065
-0.3512398 -0.31643692 0.081421256
-0.37460661 -0.2937378 0.083971739
0.61125636 -0.2930643 0.076681733
-0.39801341 -0.27099961 0.086526752
-0.41929752 -0.24732128 0.077379346
-0.44351172 -0.20193328 0.0841887
-0.46444738 -0.17843318 0.074093938
-0.48801553 -0.10990018 0.077412486
-0.48958004 -0.087170109 0.084939837
0.70343822 -0.064128064 0.079739928
-0.50984001 -0.041149683 0.072404504
-0.50994706 -0.018284284 0.07290113
0.70264846 0.050386555 0.075636029
0.70428479 0.073538601 0.084138632
-0.48896992 0.11935151 0.082004189
-0.48694021 0.14176466 0.072238922
0.68076855 0.16517477 0.081104755
-0.46563065 0.18803093 0.080006123
0.65757388 0.21092558 0.07962358
-0.44199347 0.23356497 0.076300025
-0.42040449 0.25711358 0.083371282
0.63440508 0.2566323 0.078160405
-0.30570909 0.37191072 0.083738208
0.54404134 0.37238517 0.087362647
-0.28186381 0.39397079 0.077296257
0.5210017 0.39530307 0.086911082
-0.23613337 0.41696376 0.077911019
-0.18983141 0.43917692 0.073397994
-0.12165633 0.46289751 0.078642368
-0.0070469677 0.48565617 0.077728271
-0.054072022 -0.4563849 0.097413063
-0.14605978 -0.43296093 0.09477222
-0.23905867 -0.38773438 0.10166168
-0.28486833 -0.36433411 0.098979712
0.63670093 -0.27143914 0.091716766
-0.42243332 -0.22559357 0.094352245
0.6599794 -0.22551443 0.093210101
-0.44679636 -0.17989689 0.10125637
0.68328118 -0.17954384 0.094705105
-0.46763235 -0.15628976 0.090007067
-0.46915174 -0.13358112 0.097598314
0.7067228 -0.11049733 0.096807122
0.7050758 -0.087246507 0.088249207
-0.49115252 -0.06432464 0.092505336
-0.49273294 -0.041363008 0.1001091
-0.4928627 -0.018284284 0.10073328
-0.49263132 0.0047905128 0.099620104
-0.49240011 0.027848369 0.098507762
-0.49216557 0.050888754 0.097379327
-0.49193472 0.073912144 0.096268892
-0.49101651 0.096791178 0.091850877
0.70593047 0.096823551 0.092689991
0.70758235 0.12024147 0.1012733
-0.46957326 0.1432447 0.099704504
-0.46759546 0.16571157 0.089822769
-0.4457491 0.21217185 0.095814705
-0.42402714 0.23582426 0.10297906
-0.39871269 0.28077459 0.090476274
-0.37691718 0.30454844 0.097615242
-0.35370257 0.32749704 0.096655726
0.59193116 0.32787058 0.099889994
-0.32965267 0.349751 0.090174675
0.56793857 0.35017636 0.093629956
-0.2622377 0.39744064 0.10233724
-0.21575764 0.42017102 0.099839449
0.4526408 0.442072 0.092203379
-0.16914782 0.44254524 0.095276594
-0.099925086 0.46538019 0.093999624
0.40868816 -0.48211226 0.11475205
-0.032010868 -0.45909035 0.11591077
-0.12458578 -0.43551958 0.11323726
0.47763813 -0.43498042 0.10934627
-0.193167 -0.41117662 0.10434842
0.54789317 -0.38939711 0.11516094
-0.30879286 -0.34189361 0.10482204
-0.33230665 -0.31903797 0.10741282
-0.35586113 -0.29614291 0.11000812
-0.37945628 -0.27320811 0.11260784
-0.40121073 -0.24941556 0.10458505
-0.42560816 -0.20361754 0.11153698
-0.45003021 -0.15758543 0.11805975
0.70838255 -0.13388258 0.10543132
-0.47067881 -0.11075658 0.10522807
-0.47221029 -0.087815255 0.11287999
0.73401612 -0.018284379 0.11799145
0.73318374 0.004900042 0.11383283
-0.47357172 0.097862452 0.11968219
-0.47156757 0.12062917 0.10966861
0.70940059 0.14383815 0.11072135
-0.44994479 0.16742325 0.11761618
-0.44802028 0.18994379 0.10761619
0.68595797 0.19005316 0.10919344
0.6625421 0.23622259 0.10768414
-0.40220094 0.25958997 0.11017787
-0.38026983 0.28347006 0.11741138
0.64022171 0.28297895 0.11250579
0.61602712 0.30547297 0.10619295
-0.31034741 0.35286412 0.11545062
-0.28624126 0.37520209 0.10888815
-0.14815581 0.445961 0.11746264
-0.07796964 0.46789119 0.10953283
-0.0096747428 -0.46182695 0.13462114
-0.1028451 -0.43810987 0.13193142
-0.17244413 -0.41429994 0.12821531
-0.21871904 -0.39066875 0.12548566
-0.26491052 -0.36708012 0.12276089
0.57201159 -0.3669318 0.12147725
-0.28933644 -0.34473929 0.13122547
0.59623134 -0.34437233 0.12782013
-0.31304029 -0.32168487 0.1338619
0.62055302 -0.32171771 0.13418972
-0.38279009 -0.25154865 0.13229334
0.66496915 -0.25070941 0.12139177
-0.40427428 -0.2275013 0.12188792
0.68849307 -0.20431823 0.12291503
-0.42881662 -0.18138656 0.12890279
0.71203738 -0.15787937 0.12442255
-0.45151538 -0.13466565 0.12577724
-0.45301157 -0.11162882 0.1335516
-0.47375304 -0.064757019 0.12058806
0.73752069 -0.064986534 0.13550127
-0.47530371 -0.041580223 0.12833548
0.73576331 -0.041567866 0.12672114
-0.47545511 -0.018284332 0.12909186
-0.47522807 0.0050087161 0.12795758
-0.47499776 0.028284108 0.12680697
0.73492956 0.028218647 0.12255549
-0.47477108 0.051542178 0.12567425
0.73668545 0.051672772 0.1313287
-0.47454458 0.074782737 0.12454259
-0.45188546 0.14475319 0.12769997
-0.42769766 0.21425273 0.12284648
-0.40573549 0.23812419 0.13014114
-0.35823292 0.30746534 0.12467968
-0.33455634 0.33042637 0.12202501
-0.26644227 0.37854925 0.13446581
-0.24215156 0.40082645 0.12677264
-0.19508126 0.42342868 0.12211037
0.50354213 0.42483231 0.13170767
-0.055785 0.47042874 0.12522829
-0.080831602 -0.44073027 0.15084183
0.52906013 -0.41695312 0.14848912
-0.19805369 -0.39365005 0.14969122
-0.24463341 -0.36987004 0.14692247
-0.33678541 -0.29859036 0.1365031
0.64498317 -0.29897079 0.14062083
-0.36057195 -0.27545559 0.13914895
0.67005366 -0.27638364 0.15010941
-0.38577491 -0.22944327 0.14991772
-0.40737021 -0.20533179 0.1393739
-0.43206227 -0.15889764 0.14647031
-0.4545154 -0.088473178 0.141366
0.73928827 -0.088541664 0.14433277
-0.45602709 -0.065197825 0.14922059
0.73844826 0.075262971 0.14013577
-0.45580256 0.098954417 0.14805365
0.74022472 0.098991387 0.14901161
-0.45383573 0.12193019 0.13783407
-0.43196589 0.16916803 0.14594877
0.7149148 0.16876319 0.1393739
-0.43008357 0.19189379 0.13576055
-0.40931731 0.21637167 0.15037096
0.69124937 0.21540655 0.13783419
-0.38366699 0.26211119 0.13747096
0.6676079 0.26200268 0.13629568
-0.36149138 0.28621459 0.14483643
-0.31508288 0.33340585 0.14782739
-0.2907103 0.35602829 0.1411407
-0.22148588 0.40396836 0.1494472
-0.1740953 0.42673472 0.14471471
-0.12685174 0.44943038 0.13999736
-0.033367589 0.4729926 0.1410886
0.43412027 0.47235456 0.13714254
0.45929345 -0.46465141 0.15393198
-0.15138915 -0.41747344 0.15246475
-0.26953483 -0.3476353 0.15809715
-0.29343173 -0.32437873 0.16078067
-0.31737065 -0.30108148 0.16346908
-0.34135172 -0.27774295 0.16616201
-0.36402637 -0.25372136 0.16051733
0.6938073 -0.22956529 0.15167928
-0.4105022 -0.18290412 0.15706348
0.71758205 -0.18269776 0.15323305
-0.4335441 -0.13577087 0.15449142
0.74285799 -0.13606636 0.16216815
-0.43500787 -0.11251748 0.16241419
0.74106616 -0.11223425 0.15321565
-0.45754659 -0.041801833 0.15711617
-0.45771176 -0.018284332 0.15797436
-0.45748925 0.0052309427 0.15681839
-0.45726693 0.02872842 0.15566325
-0.45704484 0.05220791 0.15450895
-0.45681947 0.07566946 0.15333796
-0.43577194 0.1232566 0.16654968
0.74200809 0.12285805 0.15792191
-0.4338609 0.14628918 0.15620565
-0.41180456 0.19387929 0.16441905
-0.38710976 0.24046624 0.15779936
0.6966393 0.24124604 0.16700792
-0.36479369 0.26467854 0.16526377
-0.33920792 0.31043532 0.15223765
0.62561333 0.33544579 0.16549265
-0.27073556 0.35924679 0.16727233
0.60102499 0.35822266 0.15895617
-0.24630353 0.38195401 0.16048241
0.57653368 0.38089561 0.15239489
-0.10522683 0.45295206 0.16287124
-0.010713741 0.47558352 0.15711606
-0.058542684 -0.44338593 0.17000735
-0.12999403 -0.42069811 0.17710602
-0.17705476 -0.39667952 0.17428732
-0.2240293 -0.37270501 0.17147398
0.69922048 -0.2552965 0.18097878
-0.36692899 -0.23142162 0.17847276
-0.38879168 -0.20707817 0.16773081
0.72322649 -0.20799154 0.18256271
-0.77010381 -0.16046774 0.18046296
-0.41367096 -0.16021357 0.17496049
-0.76911139 -0.13663998 0.17707038
-0.76812124 -0.11286453 0.17368519
-0.76713312 -0.089141466 0.17030752
-0.43647927 -0.089143023 0.17037821
-0.4379583 -0.065646775 0.17838395
0.76912481 -0.018284284 0.17520857
0.768242 0.0053398088 0.17096126
0.7701245 0.029103296 0.18001854
-0.43875664 0.076573655 0.18270504
-0.4376927 0.1000665 0.17694628
0.74445528 0.14704058 0.17014873
-0.41364276 0.17094503 0.17480111
0.72053504 0.19416736 0.16857743
-0.39059883 0.21852946 0.17840171
-0.34236827 0.28900948 0.17276502
0.675107 0.28959855 0.17865026
-0.31983283 0.31345987 0.1803031
0.65030718 0.3125712 0.17205751
-0.29527628 0.3364388 0.17409253
-0.20050609 0.40715522 0.17244673
0.5558064 0.40713075 0.17226982
-0.15279287 0.43009073 0.16766024
0.48554841 0.45525849 0.1778512
0.012178965 0.47820771 0.1733489
-0.035970777 -0.44607258 0.18939757
0.51123679 -0.44673532 0.19418025
