ply
format ascii 1.0
comment PCL generated
element vertex 1343
property float x
property float y
property float z
element camera 0
property float view_px
property float view_py
property float view_pz
property float x_axisx
property float x_axisy
property float x_axisz
property float y_axisx
property float y_axisy
property float y_axisz
property float z_axisx
property float z_axisy
property float z_axisz
property float focal
property float scalex
property float scaley
property float centerx
property float centery
property int viewportx
property int viewporty
property float k1
property float k2
end_header
-0.28515273 -0.59300691 -0.024997711
0.30488452 -0.59327853 -0.023894966
-0.26456431 -0.59072977 -0.034241498
0.28416285 -0.59103882 -0.032986701
-0.28515273 -0.57334352 -0.024997711
-0.26456431 -0.57113761 -0.034241498
0.28416285 -0.571437 -0.032986581
0.30488452 -0.57360673 -0.023894966
-0.28515273 -0.55368012 -0.02499789
-0.26456431 -0.55154538 -0.034241676
0.28416285 -0.55183524 -0.032986581
0.30488452 -0.55393487 -0.023894966
-0.28515273 -0.53401673 -0.02499789
-0.26456431 -0.5319531 -0.034241557
0.28416285 -0.53223324 -0.032986701
0.30488452 -0.53426296 -0.023894966
-0.28515273 -0.51435328 -0.02499783
0.30488452 -0.5145911 -0.023894966
-0.26456431 -0.51236093 -0.034241557
0.28416285 -0.51263142 -0.032986701
-0.28515273 -0.49468994 -0.024997711
-0.26456431 -0.49276876 -0.034241498
0.28416285 -0.49302953 -0.032986701
0.30488452 -0.49491918 -0.023894906
-0.28515273 -0.47502667 -0.024997711
-0.26456431 -0.47317642 -0.034241557
0.28416285 -0.47342759 -0.032986701
0.30488452 -0.47524732 -0.023894906
-0.28515273 -0.45536327 -0.02499783
-0.26456431 -0.45358431 -0.034241557
0.28416285 -0.45382571 -0.03298676
0.30488452 -0.45557547 -0.023894906
-0.28515273 -0.43569976 -0.02499783
0.30488452 -0.43590361 -0.023894906
-0.26456431 -0.43399209 -0.034241498
0.28416285 -0.43422389 -0.032986701
-0.28515273 -0.41603649 -0.02499789
-0.26456431 -0.4143998 -0.034241676
0.28416285 -0.41462201 -0.032986581
0.30488452 -0.41623169 -0.023894906
-0.28515273 -0.39637309 -0.02499783
-0.26456431 -0.39480758 -0.034241557
0.28416285 -0.39502007 -0.032986701
0.30488452 -0.39655983 -0.023894906
-0.28515273 -0.3767097 -0.024997711
-0.26456431 -0.37521535 -0.034241557
0.28416285 -0.37541831 -0.032986701
0.30488452 -0.37688798 -0.023894906
-0.28515273 -0.35704631 -0.024997711
0.30488452 -0.35721612 -0.023894906
-0.26456431 -0.35562313 -0.034241498
0.28416285 -0.35581625 -0.032986701
-0.28515273 -0.33738291 -0.02499789
-0.26456431 -0.33603084 -0.034241557
0.28416285 -0.33621442 -0.032986581
0.30488452 -0.33754432 -0.023894906
-0.28515273 -0.31771952 -0.02499783
-0.26456431 -0.31643873 -0.034241557
0.28416285 -0.31661266 -0.032986581
0.30488452 -0.31787246 -0.023894906
-0.28515273 -0.29805613 -0.02499783
-0.26456431 -0.29684651 -0.034241498
0.28416285 -0.29701066 -0.032986701
0.30488452 -0.29820055 -0.023894906
-0.28515273 -0.27839273 -0.02499783
0.30488452 -0.27852869 -0.023894906
-0.26456431 -0.27725428 -0.034241498
0.28416285 -0.2774089 -0.032986701
-0.28515273 -0.25872946 -0.02499783
-0.26456431 -0.257662 -0.034241557
0.28416285 -0.2578069 -0.032986701
0.30488452 -0.25885671 -0.023895085
-0.28515273 -0.23906608 -0.024997711
-0.26456431 -0.23806979 -0.034241557
0.28416285 -0.23820503 -0.032986701
0.30488452 -0.23918484 -0.023894966
-0.28515273 -0.21940257 -0.02499783
-0.26456431 -0.21847756 -0.034241498
0.28416285 -0.21860324 -0.032986581
0.30488452 -0.21951295 -0.023894966
-0.28515273 -0.19973922 -0.02499783
0.30488452 -0.19984108 -0.023894966
-0.26456431 -0.19888535 -0.034241557
0.28416285 -0.1990013 -0.032986701
-0.28515273 -0.1800759 -0.02499783
-0.26456431 -0.17929313 -0.034241557
0.28416285 -0.17939942 -0.032986581
0.30488452 -0.18016921 -0.023894966
-0.28515273 -0.16041252 -0.02499783
-0.26456431 -0.1597009 -0.034241498
0.28416285 -0.15979752 -0.032986701
0.30488452 -0.16049732 -0.023894966
-0.28515273 -0.14074913 -0.024997711
-0.26456431 -0.14010869 -0.034241498
0.28416285 -0.14019568 -0.032986701
0.30488452 -0.14082552 -0.023894966
-0.28515273 -0.12108584 -0.024997711
0.30488452 -0.12115364 -0.023894966
-0.26456431 -0.12051643 -0.034241557
0.28416285 -0.1205937 -0.032986701
-0.28515273 -0.10142232 -0.02499789
-0.26456431 -0.10092422 -0.034241498
0.28416285 -0.10099189 -0.032986701
0.30488452 -0.10148177 -0.023894966
-0.28515273 -0.081758976 -0.02499783
-0.26456431 -0.081332102 -0.034241498
0.28416285 -0.081390046 -0.032986581
0.30488452 -0.081809878 -0.023894966
-0.28515273 -0.062095553 -0.02499783
-0.26456431 -0.061739795 -0.034241557
0.28416285 -0.061788075 -0.032986701
0.30488452 -0.062138058 -0.023894966
-0.28515273 -0.042432271 -0.024997711
0.30488452 -0.042466164 -0.023894966
-0.26456431 -0.042147577 -0.034241557
0.28416285 -0.042186245 -0.032986701
-0.28515273 -0.02276887 -0.024997711
-0.26456431 -0.02255534 -0.034241498
0.28416285 -0.0225843 -0.032986701
0.30488452 -0.022794276 -0.023894966
-0.28515273 -0.0031053796 -0.02499783
-0.26456431 -0.0029631518 -0.034241498
0.28416428 -0.0029826127 -0.032974422
0.30488604 -0.0031225979 -0.023882508
-0.28515273 0.016558018 -0.02499783
-0.26456431 0.01662918 -0.034241557
0.28416428 0.016619354 -0.032974303
0.30488604 0.016549364 -0.023882508
-0.28515273 0.036221277 -0.02499783
-0.26456431 0.036221322 -0.034241557
0.28416428 0.036221322 -0.032974303
0.30488604 0.036221322 -0.023882627
-0.28515273 0.055884674 -0.024997711
-0.26456431 0.055813469 -0.034241498
0.28416428 0.055823386 -0.032974303
0.30488604 0.055893283 -0.023882508
-0.28515273 0.075548075 -0.024997711
-0.26456431 0.075405702 -0.034241498
0.28416428 0.075425215 -0.032974303
0.30488604 0.075565249 -0.023882508
-0.28515273 0.095211379 -0.024997711
-0.26456431 0.094997987 -0.034241557
0.28416428 0.095027275 -0.032974303
0.30488604 0.095237203 -0.023882449
-0.26456431 0.11459023 -0.034241498
0.28416428 0.11462925 -0.032974303
-0.28515273 0.11487487 -0.02499789
0.30488604 0.11490916 -0.023882627
-0.28515273 0.13453822 -0.02499783
-0.26456431 0.13418242 -0.034241498
0.28416428 0.13423117 -0.032974243
0.30488604 0.13458112 -0.023882508
-0.28515273 0.15420163 -0.02499783
-0.26456431 0.15377465 -0.034241676
0.28416428 0.15383314 -0.032974303
0.30488604 0.1542531 -0.023882508
-0.28515273 0.17386493 -0.024997711
-0.26456431 0.17336689 -0.034241557
0.28416428 0.1734352 -0.032974303
0.30488604 0.17392513 -0.023882508
-0.26456431 0.19295909 -0.034241498
0.28416428 0.19303708 -0.032974303
-0.28515273 0.19352832 -0.024997711
0.30488604 0.19359709 -0.023882508
-0.28515273 0.21319167 -0.024997711
-0.26456431 0.2125513 -0.034241498
0.28416428 0.21263914 -0.032974303
0.30488604 0.21326898 -0.023882508
-0.28515273 0.23285522 -0.02499783
-0.26456431 0.23214358 -0.034241557
0.28416428 0.23224111 -0.032974303
0.30488604 0.23294102 -0.023882627
-0.28515273 0.25251848 -0.02499783
-0.26456431 0.25173581 -0.034241498
0.28416428 0.25184304 -0.032974243
0.30488604 0.25261298 -0.023882508
-0.26456431 0.27132797 -0.034241498
0.28416428 0.27144504 -0.032974303
-0.28515273 0.2721819 -0.02499783
0.30488604 0.27228492 -0.023882508
-0.28515273 0.29184526 -0.024997711
-0.26456431 0.29092014 -0.034241498
0.28416428 0.29104704 -0.032974303
0.30488604 0.29195678 -0.023882449
-0.28515273 0.31150866 -0.024997711
-0.26456431 0.31051248 -0.034241498
0.28416428 0.31064892 -0.032974303
0.30488604 0.31162882 -0.023882508
-0.28515273 0.33117211 -0.02499783
-0.26456431 0.33010465 -0.034241498
0.28416428 0.33025098 -0.032974303
0.30488604 0.3313008 -0.023882508
-0.26456431 0.34969682 -0.034241498
0.28416428 0.34985298 -0.032974303
-0.28515273 0.35083532 -0.02499789
0.30488604 0.35097277 -0.023882508
-0.28515273 0.37049872 -0.02499783
-0.26456431 0.36928916 -0.034241557
0.28416428 0.36945486 -0.032974303
0.30488604 0.37064481 -0.023882508
-0.28515273 0.39016217 -0.024997711
-0.26456431 0.38888127 -0.034241557
0.28416428 0.38905686 -0.032974303
0.30488604 0.39031678 -0.023882508
-0.28515273 0.4098255 -0.024997711
-0.26456431 0.40847355 -0.034241498
0.28416428 0.40865886 -0.032974303
0.30488604 0.4099887 -0.023882449
-0.26456431 0.42806572 -0.034241498
0.28416428 0.42826092 -0.032974303
-0.28515273 0.4294889 -0.024997711
0.30488604 0.42966056 -0.023882508
-0.28515273 0.44915241 -0.02499783
-0.26456431 0.447658 -0.034241676
0.28416428 0.44786274 -0.032974303
0.30488604 0.44933265 -0.023882508
-0.28515273 0.46881574 -0.024997711
-0.26456431 0.46725023 -0.034241498
0.28416428 0.46746475 -0.032974303
0.30488604 0.46900451 -0.023882508
-0.28515273 0.48847914 -0.024997711
-0.26456431 0.48684233 -0.034241498
0.28416428 0.48706681 -0.032974422
0.30488604 0.48867649 -0.023882508
-0.26456431 0.50643474 -0.034241557
0.28416428 0.50666881 -0.032974303
-0.28515273 0.50814235 -0.024997711
0.30488604 0.50834858 -0.023882508
-0.28515273 0.52780581 -0.024997711
-0.26456431 0.52602684 -0.034241557
0.28416428 0.52627087 -0.032974303
0.30488604 0.52802044 -0.023882508
-0.28515273 0.54746914 -0.024997711
-0.26456431 0.54561925 -0.034241498
0.28416428 0.54587275 -0.032974422
0.30488604 0.54769242 -0.023882508
-0.28515273 0.56713265 -0.02499783
-0.26456431 0.5652113 -0.034241498
0.28416428 0.56547469 -0.032974303
0.30488604 0.56736451 -0.023882508
-0.26456431 0.58480346 -0.034241676
0.28416428 0.58507675 -0.032974303
-0.28515273 0.58679605 -0.024997711
0.30488604 0.58703643 -0.023882508
-0.28515273 0.60645944 -0.024997711
-0.26456431 0.60439587 -0.034241498
0.28416428 0.60467875 -0.032974303
0.30488604 0.60670823 -0.023882508
-0.28515273 0.62612283 -0.024997711
-0.26456431 0.62398791 -0.034241498
0.28416428 0.62428051 -0.032974303
0.30488604 0.62638021 -0.023882508
-0.28515273 0.64578605 -0.024997711
-0.26456431 0.64358026 -0.034241498
0.28416428 0.64388257 -0.032974303
0.30488604 0.64605224 -0.023882508
-0.26456431 0.66317242 -0.034241557
0.28416428 0.66348463 -0.032974303
-0.28515273 0.6654495 -0.02499789
0.30488604 0.66572422 -0.023882508
-0.28515273 0.68511289 -0.02499783
-0.26456431 0.68276459 -0.034241557
0.28416428 0.68308663 -0.032974243
0.30488604 0.68539619 -0.023882508
-0.28515273 0.70477635 -0.024997711
-0.26456431 0.70235687 -0.034241498
0.28416428 0.70268846 -0.032974303
0.30488604 0.70506823 -0.023882508
-0.30589128 -0.7137109 -0.015686572
-0.32693642 -0.69700545 -0.0050499439
-0.30589128 -0.69397581 -0.01568675
0.32661149 -0.69611073 -0.0081912279
-0.32693642 -0.67718852 -0.0050499439
-0.30589128 -0.67424083 -0.015686572
0.32661149 -0.67631793 -0.0081913471
-0.32693642 -0.65737164 -0.0050499439
0.32661149 -0.65652519 -0.0081911087
-0.30589128 -0.65450573 -0.015686691
-0.32693642 -0.63755465 -0.0050499439
-0.30589128 -0.63477069 -0.015686572
0.32661149 -0.63673252 -0.0081912279
-0.32693642 -0.61773777 -0.0050499439
-0.30589128 -0.61503553 -0.015686691
0.32661149 -0.61693966 -0.0081912279
-0.32693642 -0.59792078 -0.0050499439
-0.30589128 -0.59530056 -0.015686572
0.32661149 -0.59714705 -0.0081912279
-0.32693642 -0.57810384 -0.0050499439
0.32661149 -0.57735419 -0.0081913471
-0.30589128 -0.57556552 -0.015686691
-0.32693642 -0.55828685 -0.0050499439
-0.30589128 -0.55583042 -0.015686572
0.32661149 -0.5575614 -0.0081913471
-0.32693642 -0.53846991 -0.0050499439
-0.30589128 -0.53609538 -0.015686691
0.32661149 -0.53776872 -0.0081912279
-0.32693642 -0.51865304 -0.0050499439
-0.30589128 -0.51636028 -0.01568675
0.32661149 -0.51797587 -0.0081912279
-0.32693642 -0.49883604 -0.0050499439
0.32661149 -0.49818319 -0.0081911087
-0.30589128 -0.49662519 -0.015686572
-0.32693642 -0.47901917 -0.0050499439
-0.30589128 -0.47689015 -0.01568675
0.32661149 -0.4783904 -0.0081912279
-0.32693642 -0.45920217 -0.0050499439
-0.30589128 -0.45715523 -0.015686691
0.32661149 -0.4585976 -0.0081912279
-0.32693642 -0.43938529 -0.0050499439
-0.30589128 -0.43742001 -0.015686691
0.32661149 -0.43880492 -0.0081911087
-0.32693642 -0.41956824 -0.0050499439
-0.30589128 -0.41768503 -0.015686572
0.32661149 -0.41901213 -0.0081912279
-0.32693642 -0.39975131 -0.0050499439
-0.30589128 -0.39794999 -0.015686691
0.32661149 -0.39921939 -0.0081913471
-0.32693642 -0.37993443 -0.0050499439
-0.30589128 -0.3782149 -0.015686572
0.32661149 -0.3794266 -0.0081911087
-0.32693642 -0.36011744 -0.0050499439
-0.30589128 -0.35847986 -0.015686691
0.32661149 -0.35963386 -0.0081912279
-0.32693642 -0.34030062 -0.0050499439
-0.30589128 -0.33874488 -0.015686572
0.32661149 -0.33984101 -0.0081913471
-0.32693642 -0.32048362 -0.0050499439
-0.30589128 -0.31900972 -0.015686691
0.32661149 -0.32004833 -0.0081912279
-0.32693642 -0.30066669 -0.0050499439
-0.30589128 -0.29927468 -0.015686572
0.32661149 -0.30025554 -0.0081913471
-0.32693642 -0.2808497 -0.0050499439
-0.30589128 -0.27953964 -0.015686691
0.32661149 -0.28046286 -0.0081911087
-0.32693642 -0.26103282 -0.0050498247
-0.30589128 -0.25980461 -0.015686572
0.32661149 -0.26067013 -0.0081912279
-0.32693642 -0.24121587 -0.0050499439
-0.30589128 -0.24006952 -0.015686691
0.32661149 -0.24087732 -0.0081913471
-0.32693642 -0.22139885 -0.0050499439
-0.30589128 -0.22033446 -0.01568675
0.32661149 -0.22108461 -0.0081911087
-0.32693642 -0.20158203 -0.0050499439
-0.30589128 -0.20059936 -0.015686572
0.32661149 -0.20129178 -0.0081913471
-0.32693642 -0.18176503 -0.0050499439
-0.30589128 -0.18086429 -0.015686691
0.32661149 -0.18149897 -0.0081913471
-0.32693642 -0.1619481 -0.0050499439
-0.30589128 -0.16112933 -0.015686572
0.32661149 -0.16170631 -0.0081912279
-0.32693642 -0.14213108 -0.0050499439
-0.30589128 -0.14139418 -0.015686691
0.32661149 -0.1419135 -0.0081912279
-0.32693642 -0.12231424 -0.0050498247
-0.30589128 -0.12165919 -0.015686572
0.32661149 -0.12212078 -0.0081911087
-0.32693642 -0.10249725 -0.0050499439
-0.30589128 -0.10192411 -0.015686691
0.32661149 -0.10232799 -0.0081912279
-0.32693642 -0.082680278 -0.0050499439
-0.30589128 -0.082189053 -0.015686572
0.32661149 -0.082535245 -0.0081913471
-0.32693642 -0.062863447 -0.0050499439
-0.30589128 -0.062453978 -0.015686691
0.32661149 -0.062742531 -0.0081912279
-0.32693642 -0.04304643 -0.0050499439
-0.30589128 -0.042718999 -0.015686572
0.32661149 -0.042949721 -0.0081913471
-0.32693642 -0.023229524 -0.0050499439
-0.30589128 -0.022983853 -0.015686572
0.32661149 -0.023156915 -0.0081913471
-0.32693642 -0.0034125298 -0.0050499439
-0.30589128 -0.0032488704 -0.015686572
0.32661149 -0.0033642463 -0.0081911087
-0.32693642 0.016404327 -0.0050499439
-0.30589128 0.01648625 -0.015686691
0.32661149 0.016428562 -0.0081912279
-0.32693642 0.036221322 -0.0050499439
0.32661149 0.036221277 -0.0081911087
-0.30589128 0.03622137 -0.01568675
-0.32693642 0.056038179 -0.0050498247
-0.30589128 0.055956349 -0.015686572
0.32661149 0.056014083 -0.0081912279
-0.32693642 0.075855128 -0.0050499439
-0.30589128 0.075691424 -0.01568675
0.32661149 0.075806893 -0.0081912279
-0.32693642 0.095672131 -0.0050499439
-0.30589128 0.095426455 -0.015686572
0.32661149 0.095599517 -0.0081911087
-0.32693642 0.11548907 -0.0050499439
-0.30589128 0.11516158 -0.015686691
0.32661149 0.11539232 -0.0081912279
-0.32693642 0.13530606 -0.0050499439
-0.30589128 0.13489665 -0.015686572
0.32661149 0.13518512 -0.0081913471
-0.32693642 0.15512294 -0.0050499439
-0.30589128 0.15463167 -0.015686691
0.32661313 0.1549785 -0.0081787109
-0.32693642 0.17493993 -0.0050499439
-0.30589128 0.17436665 -0.015686572
0.32661313 0.17477135 -0.0081787109
-0.32693642 0.19475682 -0.0050498247
-0.30589128 0.19410183 -0.015686572
0.32661313 0.19456416 -0.0081787109
-0.32693642 0.21457373 -0.0050499439
-0.30589128 0.2138368 -0.015686572
0.32661313 0.21435706 -0.0081787109
-0.32693642 0.23439063 -0.0050498247
-0.30589128 0.23357187 -0.015686691
0.32661313 0.23414983 -0.0081785917
-0.32693642 0.25420761 -0.0050499439
-0.30589128 0.25330696 -0.015686572
0.32661313 0.2539427 -0.0081785917
-0.32693642 0.27402467 -0.0050499439
-0.30589128 0.27304202 -0.015686572
0.32661313 0.27373549 -0.0081787109
-0.32693642 0.29384148 -0.0050499439
-0.30589128 0.29277706 -0.01568675
0.32661313 0.2935285 -0.0081785917
-0.32693642 0.31365848 -0.0050499439
-0.30589128 0.31251204 -0.015686572
0.32661313 0.31332129 -0.0081785917
-0.32693642 0.33347541 -0.0050498247
-0.30589128 0.33224726 -0.01568675
0.32661313 0.33311409 -0.0081787109
-0.32693642 0.35329241 -0.0050499439
-0.30589128 0.3519823 -0.015686572
0.32661313 0.35290706 -0.0081785917
-0.32693642 0.37310928 -0.0050497055
-0.30589128 0.37171727 -0.01568675
0.32661313 0.37269986 -0.0081787109
-0.32693642 0.39292616 -0.0050499439
-0.30589128 0.39145237 -0.015686572
0.32661313 0.39249265 -0.0081787109
-0.32693642 0.41274315 -0.0050499439
-0.30589128 0.41118747 -0.015686572
0.32661313 0.41228563 -0.0081787109
-0.32693642 0.43256009 -0.0050499439
-0.30589128 0.43092245 -0.015686572
0.32661313 0.43207836 -0.0081785917
-0.32693642 0.45237708 -0.0050499439
-0.30589128 0.45065755 -0.015686691
0.32661313 0.45187134 -0.0081785917
-0.32693642 0.47219396 -0.0050499439
-0.30589128 0.47039264 -0.015686572
0.32661313 0.47166407 -0.0081785917
-0.30589128 0.49012768 -0.015686691
0.32661313 0.49145687 -0.0081785917
-0.32693642 0.49201095 -0.0050499439
-0.32693642 0.51182789 -0.0050497055
-0.30589128 0.50986266 -0.015686572
0.32661313 0.5112499 -0.0081785917
-0.32693642 0.53164476 -0.0050499439
-0.30589128 0.52959782 -0.015686572
0.32661313 0.5310427 -0.0081787109
-0.32693642 0.55146164 -0.0050499439
-0.30589128 0.54933274 -0.015686572
0.32661313 0.55083561 -0.0081785917
-0.30589128 0.5690679 -0.015686572
-0.32693642 0.57127863 -0.0050499439
0.32661313 0.5706284 -0.0081787109
-0.32693642 0.59109563 -0.0050499439
-0.30589128 0.58880299 -0.015686691
0.32661313 0.5904212 -0.0081787109
-0.32693642 0.61091256 -0.0050499439
-0.30589128 0.60853791 -0.015686572
0.32661313 0.61021417 -0.0081787109
-0.32693642 0.63072962 -0.0050499439
-0.30589128 0.62827313 -0.015686691
0.32661313 0.63000691 -0.0081785917
-0.30589128 0.64800811 -0.015686572
-0.32693642 0.65054649 -0.0050497055
0.32661313 0.6497997 -0.0081785917
-0.32693642 0.67036331 -0.0050499439
-0.30589128 0.66774315 -0.01568675
0.32661313 0.66959274 -0.0081785917
-0.32693642 0.69018018 -0.0050499439
-0.30589128 0.68747824 -0.015686572
0.32661313 0.68938547 -0.0081787109
-0.32693642 0.70999718 -0.0050499439
-0.30589128 0.70721346 -0.015686572
0.32661313 0.70917839 -0.0081785917
0.34860712 -0.70063889 0.0077067614
0.34860712 -0.68072373 0.0077067614
0.34860712 -0.66080862 0.0077068806
0.34860712 -0.64089346 0.0077066422
0.34860712 -0.62097836 0.0077067614
0.34860712 -0.60106307 0.0077066422
0.34860712 -0.58114803 0.0077067614
0.34860712 -0.56123286 0.0077068806
0.34860712 -0.5413177 0.0077066422
0.34860712 -0.52140266 0.0077067614
0.34860712 -0.50148743 0.0077067614
0.34860712 -0.48157239 0.0077067614
0.34860712 -0.46165711 0.0077066422
0.34860712 -0.44174212 0.0077067614
0.34860712 -0.4218269 0.0077068806
0.34860712 -0.40191174 0.0077066422
0.34860712 -0.38199663 0.0077067614
0.34860712 -0.36208153 0.0077066422
0.34860712 -0.34216642 0.0077067614
0.34860712 -0.32225114 0.0077067614
0.34860712 -0.3023361 0.0077067614
0.34860712 -0.28242099 0.0077068806
0.34860712 -0.26250577 0.0077067614
0.34860712 -0.24259065 0.0077068806
0.34860712 -0.22267552 0.0077066422
0.34860712 -0.20276037 0.0077067614
0.34860712 -0.18284518 0.0077066422
0.34860712 -0.16293013 0.0077066422
0.34860712 -0.14301501 0.0077067614
0.34860712 -0.1230998 0.0077067614
0.34860712 -0.10318469 0.0077068806
0.34860712 -0.083269522 0.0077066422
0.34860712 -0.063354395 0.0077067614
0.34860712 -0.043439195 0.0077066422
0.34860712 -0.023524091 0.0077067614
0.34860712 -0.0036090314 0.0077067614
0.34860712 0.016306123 0.0077067614
0.34860712 0.036221322 0.0077067614
0.34860712 0.056136429 0.0077066422
0.34860712 0.076051578 0.0077067614
0.34860712 0.095966741 0.0077066422
0.34860712 0.11588189 0.0077067614
0.34860712 0.13579695 0.0077068806
0.34860712 0.15571219 0.0077067614
0.34860712 0.17562726 0.0077067614
0.34860712 0.1955425 0.0077067614
0.34860712 0.21545756 0.0077067614
0.34860712 0.23537271 0.0077066422
0.34860712 0.25528783 0.0077067614
0.34860712 0.2752029 0.0077067614
0.34860712 0.29511809 0.0077067614
0.34860712 0.31503332 0.0077068806
0.34860712 0.33494848 0.0077067614
0.34860712 0.35486352 0.0077067614
0.34860712 0.37477869 0.0077066422
0.34860712 0.39469379 0.0077067614
0.34860712 0.41460896 0.0077068806
0.34860712 0.43452418 0.0077067614
0.34860712 0.45443922 0.0077067614
0.34860891 0.47435659 0.0077195168
0.34860891 0.49427193 0.0077195168
0.34860891 0.51418704 0.0077195168
0.34860891 0.53410226 0.0077195168
0.34860891 0.5540176 0.0077195168
0.34860891 0.57393277 0.0077193975
0.34860891 0.59384799 0.0077195168
0.34860891 0.61376333 0.0077195168
0.34860891 0.6336785 0.0077193975
0.34860891 0.65359378 0.0077195168
0.34860891 0.673509 0.0077195168
0.34860891 0.69342417 0.0077193975
0.34860891 0.71333939 0.0077195168
-0.34911591 -0.70214748 0.013003111
0.37087834 -0.70522708 0.023815274
-0.34911591 -0.68219149 0.013003111
0.37087834 -0.68518794 0.023815393
-0.34911591 -0.66223562 0.013003111
0.37087834 -0.66514874 0.023815274
-0.34911591 -0.64227968 0.013003111
0.37087834 -0.64510959 0.023815274
0.37087834 -0.62507051 0.023815393
-0.34911591 -0.62232381 0.013003111
-0.34911591 -0.60236788 0.013003111
0.37087834 -0.60503131 0.023815393
-0.34911591 -0.582412 0.013003111
0.37087834 -0.58499217 0.023815274
-0.34911591 -0.56245607 0.013003111
0.37087646 -0.56494999 0.023802519
0.37087646 -0.54491097 0.023802519
-0.34911591 -0.5425002 0.013002992
-0.34911591 -0.52254421 0.013003111
0.37087646 -0.52487189 0.023802519
-0.34911591 -0.50258827 0.013003111
0.37087646 -0.50483292 0.023802519
-0.34911591 -0.4826324 0.013002992
0.37087646 -0.48479384 0.0238024
-0.34911591 -0.46267653 0.013002992
0.37087646 -0.46475488 0.023802519
-0.34911591 -0.44272053 0.013003111
0.37087646 -0.4447158 0.0238024
-0.34911591 -0.42276466 0.013002992
0.37087646 -0.42467678 0.023802519
0.37087646 -0.40463763 0.0238024
-0.34911591 -0.40280873 0.013002992
-0.34911591 -0.38285285 0.013002992
0.37087646 -0.38459861 0.023802519
-0.34911591 -0.36289692 0.013002992
0.37087646 -0.36455959 0.0238024
-0.34911591 -0.34294105 0.013002872
0.37087646 -0.34452057 0.023802519
-0.34911591 -0.32298511 0.013002992
0.37087646 -0.32448149 0.023802519
-0.34911591 -0.30302912 0.013002992
0.37087646 -0.30444247 0.023802519
-0.34911591 -0.28307325 0.013002992
0.37087646 -0.28440338 0.023802519
-0.34911591 -0.26311731 0.013002992
0.37087646 -0.26436436 0.023802519
-0.34911591 -0.24316142 0.013002992
0.37087646 -0.2443253 0.023802519
-0.34911591 -0.22320552 0.013002872
0.37087646 -0.22428636 0.023802519
-0.34911591 -0.20324962 0.013002992
0.37087646 -0.20424725 0.0238024
0.37087646 -0.18420826 0.023802519
-0.34911591 -0.18329372 0.013002872
-0.34911591 -0.16333778 0.013002872
0.37087646 -0.16416912 0.0238024
-0.34911591 -0.14338197 0.01300323
0.37087646 -0.1441301 0.023802519
-0.34911591 -0.12342606 0.013003111
0.37087646 -0.12409103 0.0238024
-0.34911591 -0.1034701 0.013003111
0.37087646 -0.10405199 0.023802519
-0.34911591 -0.083514191 0.01300323
0.37087646 -0.084012978 0.023802519
-0.34911591 -0.063558288 0.013003111
0.37087646 -0.063973978 0.023802519
-0.34911591 -0.04360234 0.013003111
0.37087646 -0.043934889 0.0238024
-0.34911591 -0.023646433 0.013003111
0.37087646 -0.023895897 0.023802519
-0.34911591 -0.0036905296 0.013003111
0.37087646 -0.0038567595 0.023802519
-0.34911591 0.016265374 0.013003111
0.37087646 0.016182233 0.023802519
-0.34911591 0.036221277 0.013003111
0.37087646 0.036221322 0.023802519
-0.34911591 0.05617718 0.013003111
0.37087646 0.056260273 0.023802519
-0.34911591 0.076133087 0.013003111
0.37087646 0.076299407 0.0238024
-0.34911591 0.096088991 0.013003111
0.37087646 0.096338406 0.023802519
-0.34911591 0.11604498 0.013003111
0.37087646 0.1163775 0.023802519
-0.34911591 0.13600089 0.013003111
0.37087646 0.13641649 0.023802519
-0.34911591 0.15595679 0.013003111
0.37087646 0.15645562 0.023802519
-0.34911591 0.17591269 0.013003111
0.37087646 0.17649461 0.023802519
-0.34911591 0.19586861 0.013002992
0.37087646 0.19653362 0.023802519
-0.34911591 0.2158245 0.013003111
0.37087646 0.21657266 0.023802519
-0.34911591 0.2357804 0.013003111
0.37087646 0.23661174 0.023802519
-0.34911591 0.25573629 0.013002992
0.37087646 0.25665084 0.0238024
-0.34911591 0.27569222 0.013002992
0.37087646 0.27668977 0.0238024
-0.34911591 0.29564816 0.013002992
0.37087646 0.29672897 0.0238024
-0.34911591 0.31560415 0.013003111
0.37087646 0.31676787 0.023802519
-0.34911591 0.33555996 0.013002992
0.37087646 0.33680707 0.023802519
-0.34911591 0.35551596 0.013003111
0.37087646 0.35684597 0.023802519
-0.34911591 0.37547177 0.013002872
0.37087646 0.37688518 0.023802519
-0.34911591 0.39542776 0.013002992
0.37087646 0.39692414 0.023802519
-0.34911591 0.41538358 0.013002872
0.37087646 0.4169631 0.0238024
-0.34911591 0.43533957 0.013002872
0.37087646 0.43700224 0.023802519
-0.34911591 0.4552955 0.01300323
0.37087646 0.45704126 0.0238024
-0.34911591 0.47525132 0.013003111
0.37087646 0.4770804 0.023802519
-0.34911591 0.49520731 0.01300323
0.37087646 0.49711937 0.0238024
-0.34911591 0.51516312 0.013003111
0.37087646 0.51715845 0.023802519
-0.34911591 0.53511912 0.013003111
0.37087646 0.53719741 0.0238024
-0.34911591 0.55507499 0.013003111
0.37087646 0.55723637 0.023802519
-0.34911591 0.57503092 0.013003111
0.37087646 0.57727563 0.023802519
-0.34911591 0.5949868 0.013003111
0.37087646 0.59731454 0.023802519
-0.34911591 0.61494273 0.013003111
0.37087646 0.61735374 0.023802519
-0.34911591 0.6348986 0.013003111
0.37087646 0.63739258 0.023802519
-0.34911591 0.65485454 0.013003111
0.37087646 0.65743184 0.023802519
-0.34911591 0.67481047 0.013003111
0.37087646 0.6774708 0.023802519
-0.34911591 0.69476634 0.013003111
0.37087646 0.69750977 0.0238024
-0.37160864 -0.70736194 0.031310916
0.39342663 -0.70986897 0.040112734
-0.37160864 -0.6872651 0.031310916
0.39342663 -0.68970442 0.040112734
-0.37160864 -0.66716832 0.031311035
0.39342663 -0.66953975 0.040112853
-0.37160864 -0.64707154 0.031311035
0.39342663 -0.64937526 0.040112734
-0.37160864 -0.62697458 0.031310916
0.39342663 -0.62921047 0.040112734
0.39342663 -0.60904592 0.040112734
-0.37160864 -0.60687774 0.031310916
-0.37160864 -0.58678091 0.031310916
0.39342663 -0.58888137 0.040112853
-0.37160864 -0.56668401 0.031310916
0.39342663 -0.56871682 0.040112734
-0.37160864 -0.54658723 0.031310916
0.39342663 -0.5485521 0.040112734
-0.37160864 -0.52649033 0.031310916
0.39342663 -0.52838755 0.040112734
-0.37160864 -0.50639355 0.031310916
0.39342663 -0.508223 0.040112734
-0.37160864 -0.48629671 0.031311035
0.39342663 -0.48805833 0.040112853
-0.37160864 -0.46619982 0.031311035
0.39342663 -0.46789366 0.040112734
-0.37160864 -0.4461031 0.031311035
0.39342663 -0.44772917 0.040112734
-0.37160864 -0.42600614 0.031310916
0.39342663 -0.42756456 0.040112734
-0.37160864 -0.4059093 0.031310916
0.39342663 -0.40739995 0.040112734
-0.37160864 -0.38581246 0.031310916
0.39342663 -0.38723534 0.040112853
-0.37160864 -0.36571556 0.031310916
0.39342663 -0.36707073 0.040112734
-0.37160864 -0.34561872 0.031310916
0.39342466 -0.34690428 0.040099859
-0.37160864 -0.32552189 0.031310916
0.39342466 -0.32673979 0.04009974
-0.37160864 -0.30542511 0.031311035
0.39342466 -0.30657524 0.04009974
-0.37160864 -0.28532821 0.031310916
0.39342466 -0.28641075 0.04009974
-0.37160864 -0.26523137 0.031310916
0.39342466 -0.26624626 0.04009974
-0.37160864 -0.24513452 0.031310916
0.39342466 -0.24608178 0.04009974
-0.37160864 -0.22503768 0.031310916
0.39342466 -0.22591724 0.04009974
-0.37160864 -0.20494086 0.031310916
0.39342466 -0.20575273 0.04009974
-0.37160864 -0.184844 0.031310916
0.39342466 -0.18558818 0.04009974
-0.37160864 -0.16474709 0.031310916
0.39342466 -0.16542374 0.04009974
-0.37160864 -0.14465038 0.031311035
0.39342466 -0.14525922 0.04009974
-0.37160864 -0.12455353 0.031311035
0.39342466 -0.12509465 0.04009974
-0.37160864 -0.10445662 0.031310916
0.39342466 -0.10493021 0.040099621
-0.37160864 -0.08435978 0.031310916
0.39342466 -0.084765717 0.04009974
-0.37160864 -0.064262927 0.031310916
0.39342466 -0.064601146 0.040099621
-0.37160864 -0.044166058 0.031310916
0.39342466 -0.044436716 0.04009974
-0.37160864 -0.024069238 0.031310916
0.39342466 -0.024272196 0.040099621
-0.37160864 -0.0039723702 0.031310916
0.39342466 -0.0041076727 0.04009974
-0.37160864 0.016124547 0.031310916
0.39342466 0.016056849 0.040099621
-0.37160864 0.036221277 0.031311035
0.39342466 0.036221277 0.040099859
-0.37160864 0.056318097 0.031310916
0.39342466 0.056385752 0.04009974
-0.37160864 0.076415017 0.031311035
0.39342466 0.076550275 0.04009974
-0.37160864 0.096511841 0.031311035
0.39342466 0.096714795 0.040099859
-0.37160864 0.11660866 0.031310916
0.39342466 0.11687927 0.04009974
-0.37160864 0.13670562 0.031310916
0.39342466 0.13704379 0.04009974
-0.37160864 0.1568024 0.031310916
0.39342466 0.15720832 0.04009974
-0.37160864 0.17689922 0.031310916
0.39342466 0.17737278 0.04009974
-0.37160864 0.19699609 0.031310916
0.39342466 0.19753735 0.04009974
-0.37160864 0.21709292 0.031311035
0.39342466 0.21770184 0.04009974
-0.37160864 0.23718974 0.031311035
0.39342466 0.23786636 0.04009974
-0.37160864 0.25728655 0.031310916
0.39342466 0.25803089 0.04009974
-0.37160864 0.27738339 0.031310916
0.39342466 0.27819538 0.04009974
-0.37160864 0.2974804 0.031310916
0.39342466 0.29835981 0.04009974
-0.37160864 0.31757724 0.031310916
0.39342466 0.31852442 0.04009974
-0.37160864 0.33767408 0.031310916
0.39342466 0.33868897 0.04009974
-0.37160864 0.35777086 0.031310916
0.39342466 0.35885334 0.040099621
-0.37160864 0.37786758 0.031311035
0.39342466 0.37901789 0.04009974
-0.37160864 0.39796448 0.031310916
0.39342466 0.39918244 0.04009974
-0.37160864 0.41806126 0.031310916
0.39342466 0.41934675 0.04009974
-0.37160864 0.43815827 0.031311035
0.39342466 0.4395113 0.040099859
-0.37160864 0.45825505 0.031311035
0.39342466 0.45967585 0.040099859
-0.37160864 0.47835195 0.031310916
0.39342466 0.47984028 0.04009974
-0.37160864 0.49844879 0.031310916
0.39342466 0.50000483 0.04009974
-0.37160864 0.51854563 0.031310916
0.39342466 0.52016932 0.040099859
-0.37160864 0.53864247 0.031310916
0.39342466 0.54033381 0.04009974
-0.37160864 0.55873936 0.031311154
0.39342466 0.56049842 0.04009974
-0.37160864 0.57883614 0.031311035
0.39342466 0.58066291 0.04009974
-0.37160864 0.59893298 0.031311035
0.39342466 0.60082734 0.04009974
-0.37160864 0.61902982 0.031310916
0.39342466 0.62099189 0.04009974
-0.37160864 0.63912672 0.031310916
0.39342466 0.64115644 0.04009974
-0.37160864 0.6592235 0.031310916
0.39342466 0.66132092 0.04009974
-0.37160864 0.67932034 0.031310916
0.39342466 0.68148541 0.04009974
-0.37160864 0.69941735 0.031310916
0.39342466 0.70164996 0.04009974
-0.39442134 -0.71265072 0.049879313
-0.39442134 -0.69241095 0.049879313
0.41625905 -0.6942777 0.056615591
-0.39442134 -0.67217112 0.049879313
0.41625905 -0.67398608 0.056615591
-0.39442134 -0.65193141 0.049879313
0.41625905 -0.65369445 0.056615591
-0.39442134 -0.63169158 0.049879193
0.41625905 -0.63340282 0.056615591
-0.39442134 -0.6114518 0.049879313
0.41625905 -0.6131112 0.056615591
0.41625905 -0.59281963 0.056615591
-0.39442134 -0.59121209 0.049879432
-0.39442134 -0.57097226 0.049879193
0.41625905 -0.57252795 0.056615591
-0.39442134 -0.55073243 0.049879432
0.41625905 -0.55223632 0.056615591
-0.39442134 -0.5304926 0.049879193
0.41625905 -0.53194457 0.056615472
-0.39442134 -0.51025295 0.049879313
0.41625905 -0.51165289 0.056615591
-0.39442134 -0.49001312 0.049879193
0.41625905 -0.49136132 0.056615591
-0.39442134 -0.46977335 0.049879313
0.41625905 -0.47106975 0.056615591
0.41625905 -0.45077813 0.056615591
-0.39442134 -0.44953358 0.049879432
-0.39442134 -0.42929375 0.049879313
0.41625905 -0.4304865 0.056615591
-0.39442134 -0.40905398 0.049879313
0.41625905 -0.41019475 0.056615591
-0.39442134 -0.38881415 0.049879313
0.41625905 -0.38990313 0.056615591
-0.39442134 -0.36857438 0.049879313
0.41625905 -0.36961156 0.056615591
-0.39442134 -0.34833455 0.049879313
0.41625905 -0.34931982 0.056615472
-0.39442134 -0.3280949 0.049879313
0.41625905 -0.32902825 0.056615472
-0.39442134 -0.30785501 0.049879193
0.41625905 -0.30873662 0.056615472
-0.39442134 -0.28761524 0.049879313
0.41625905 -0.28844494 0.056615591
-0.39442134 -0.26737547 0.049879432
0.41625905 -0.26815331 0.056615591
-0.39442134 -0.24713568 0.049879313
0.41625905 -0.2478617 0.056615591
-0.39442134 -0.22689594 0.049879313
0.41625905 -0.22757004 0.056615591
-0.39442134 -0.20665607 0.049879313
0.41625905 -0.20727845 0.056615591
-0.3944194 -0.1864152 0.049866199
0.41625905 -0.18698673 0.056615591
-0.3944194 -0.16617551 0.049866199
0.41625905 -0.16669504 0.056615591
-0.3944194 -0.14593585 0.049866199
0.41625905 -0.14640343 0.056615591
-0.3944194 -0.12569617 0.049866199
0.41625905 -0.12611181 0.056615591
-0.3944194 -0.10545646 0.04986608
0.41625905 -0.10582019 0.056615591
-0.3944194 -0.085216798 0.04986608
0.41625905 -0.085528582 0.056615591
-0.3944194 -0.064977117 0.049866199
0.41625905 -0.065236874 0.056615591
-0.3944194 -0.044737458 0.049866199
0.41625905 -0.044945233 0.056615591
-0.3944194 -0.024497751 0.049866199
0.4162569 -0.024653312 0.056602478
-0.3944194 -0.0042580441 0.049866319
0.4162569 -0.0043617673 0.056602359
-0.3944194 0.01598157 0.049866199
0.4162569 0.015929777 0.056602359
-0.3944194 0.036221322 0.04986608
0.4162569 0.036221277 0.05660224
-0.3944194 0.056461029 0.049866199
0.4162569 0.056512821 0.056602478
-0.3944194 0.076700687 0.049866199
0.4162569 0.076804414 0.056602478
-0.3944194 0.096940354 0.049866199
0.4162569 0.097095914 0.056602478
-0.3944194 0.11718006 0.049866199
0.4162569 0.11738746 0.056602359
-0.3944194 0.13741967 0.049866199
0.4162569 0.13767904 0.056602359
-0.3944194 0.15765932 0.049866319
0.4162569 0.15797059 0.056602359
-0.3944194 0.17789914 0.04986608
0.4162569 0.17826205 0.056602478
-0.3944194 0.19813883 0.049866199
0.4162569 0.19855355 0.056602478
-0.3944194 0.2183785 0.049866199
0.4162569 0.2188452 0.056602478
-0.3944194 0.23861815 0.049866199
0.4162569 0.23913673 0.056602359
-0.3944194 0.25885779 0.049866199
0.4162569 0.25942832 0.056602478
-0.3944194 0.27909753 0.049866319
0.4162569 0.27971992 0.056602359
-0.3944194 0.29933721 0.04986608
0.4162569 0.30001134 0.056602478
-0.3944194 0.31957698 0.049866199
0.4162569 0.32030284 0.056602478
-0.3944194 0.33981663 0.049866199
0.4162569 0.34059441 0.056602359
-0.3944194 0.36005616 0.049866199
0.4162569 0.36088592 0.05660224
-0.3944194 0.38029593 0.049866199
0.4162569 0.38117748 0.05660224
-0.3944194 0.40053552 0.049866199
0.4162569 0.40146893 0.056602478
-0.3944194 0.42077529 0.049866319
0.4162569 0.42176062 0.056602478
-0.3944194 0.44101506 0.04986608
0.4162569 0.44205213 0.056602478
-0.3944194 0.46125466 0.04986608
0.4162569 0.46234369 0.056602478
-0.3944194 0.48149443 0.049866199
0.4162569 0.48263526 0.056602359
-0.3944194 0.50173396 0.049866199
0.4162569 0.50292671 0.05660224
-0.3944194 0.52197373 0.049866319
0.4162569 0.52321815 0.056602478
-0.3944194 0.54221344 0.049866199
0.4162569 0.54350972 0.056602478
-0.3944194 0.56245327 0.049866199
0.4162569 0.56380129 0.056602359
-0.3944194 0.58269286 0.049866199
0.4162569 0.58409292 0.056602478
-0.3944194 0.60293245 0.04986608
0.4162569 0.60438448 0.056602359
-0.3944194 0.62317216 0.049866199
0.4162569 0.62467599 0.05660224
-0.3944194 0.64341182 0.049866199
0.4162569 0.6449675 0.056602478
-0.3944194 0.66365159 0.049866319
0.4162569 0.66525906 0.056602478
-0.3944194 0.68389118 0.049866199
0.4162569 0.68555057 0.056602478
-0.3944194 0.70413101 0.049866199
0.4162569 0.70584214 0.056602359
-0.41756088 -0.69763047 0.068713665
-0.41756088 -0.67724574 0.068713784
-0.41756088 -0.65686095 0.068713784
-0.41756088 -0.63647622 0.068713665
-0.41756088 -0.61609137 0.068713546
-0.41756088 -0.59570664 0.068713784
-0.41756088 -0.57532185 0.068713784
-0.41756088 -0.55493706 0.068713784
-0.41756088 -0.53455228 0.068713784
-0.41756088 -0.51416755 0.068713784
-0.41756088 -0.49378276 0.068713665
-0.41756088 -0.47339797 0.068713784
-0.41756088 -0.45301324 0.068713784
-0.41756088 -0.43262845 0.068713784
-0.41756088 -0.4122436 0.068713784
-0.41756088 -0.39185894 0.068713665
-0.41756088 -0.37147421 0.068713784
-0.41756088 -0.35108942 0.068713784
-0.41756088 -0.33070457 0.068713784
-0.41756088 -0.31031978 0.068713665
-0.41755882 -0.28993344 0.068700433
-0.41755882 -0.26954877 0.068700314
-0.41755882 -0.24916415 0.068700433
-0.41755882 -0.22877942 0.068700314
-0.41755882 -0.20839477 0.068700433
-0.41755882 -0.18801005 0.068700314
-0.41755882 -0.16762543 0.068700433
-0.41755882 -0.14724068 0.068700314
-0.41755882 -0.12685606 0.068700314
-0.41755882 -0.10647132 0.068700314
-0.41755882 -0.086086668 0.068700433
-0.41755882 -0.065702111 0.068700552
-0.41755882 -0.045317411 0.068700314
-0.41755882 -0.024932764 0.068700433
-0.41755882 -0.0045480207 0.068700314
-0.41755882 0.01583658 0.068700433
-0.41755882 0.036221322 0.068700314
-0.41755882 0.056605972 0.068700433
-0.41755882 0.076990716 0.068700314
-0.41755882 0.097375318 0.068700433
-0.41755882 0.11776002 0.068700314
-0.41755882 0.13814467 0.068700433
-0.41755882 0.15852931 0.068700433
-0.41755882 0.17891401 0.068700314
-0.41755882 0.19929866 0.068700433
-0.41755882 0.21968339 0.068700314
-0.41755882 0.240068 0.068700433
-0.41755882 0.26045266 0.068700314
-0.41755882 0.28083742 0.068700552
-0.41755882 0.30122203 0.068700314
-0.41755882 0.32160676 0.068700433
-0.41755882 0.34199131 0.068700552
-0.41755882 0.36237615 0.068700552
-0.41755882 0.3827607 0.068700552
-0.41755882 0.40314531 0.068700314
-0.41755882 0.42353004 0.068700552
-0.41755882 0.44391471 0.068700314
-0.41755882 0.46429944 0.068700552
-0.41755882 0.48468405 0.068700314
-0.41755882 0.50506872 0.068700552
-0.41755882 0.52545345 0.068700314
-0.41755882 0.54583812 0.068700433
-0.41755882 0.56622273 0.068700552
-0.41755882 0.58660734 0.068700314
-0.41755882 0.60699201 0.068700552
-0.41755882 0.62737674 0.068700314
-0.41755882 0.6477614 0.068700552
-0.41755882 0.66814601 0.068700314
-0.41755882 0.6885308 0.068700552
-0.41755882 0.70891541 0.068700314
-0.44103429 -0.70292532 0.087819815
0.4400312 -0.69997311 0.077166915
-0.44103429 -0.68239343 0.087819815
0.4400312 -0.67952335 0.077167034
-0.44103429 -0.66186154 0.087819815
0.4400312 -0.65907341 0.077166915
-0.44103429 -0.64132977 0.087819815
0.4400312 -0.63862365 0.077167034
-0.44103429 -0.62079793 0.087819815
0.4400312 -0.61817378 0.077166915
-0.44103429 -0.60026616 0.087819934
0.4400312 -0.59772396 0.077167034
-0.44103429 -0.57973433 0.087819934
0.4400312 -0.57727408 0.077166915
-0.44103429 -0.55920243 0.087819934
0.4400312 -0.55682427 0.077167034
-0.44103429 -0.5386706 0.087819815
0.4400312 -0.53637439 0.077167034
-0.44103429 -0.51813871 0.087819934
0.4400312 -0.51592451 0.077166915
-0.44103429 -0.49760681 0.087819934
0.4400312 -0.49547464 0.077167034
-0.44103429 -0.47707498 0.087819815
0.4400312 -0.47502482 0.077166915
-0.44103429 -0.45654309 0.087819815
0.4400312 -0.45457494 0.077167034
-0.44103429 -0.4360112 0.087819934
0.4400312 -0.43412513 0.077166915
-0.44103429 -0.41547942 0.087819815
0.4400312 -0.41367537 0.077167034
-0.44103429 -0.39494759 0.087819815
0.4400312 -0.39322543 0.077166915
-0.44103211 -0.37441367 0.087806344
0.4400312 -0.37277567 0.077167034
-0.44103211 -0.35388201 0.087806463
0.4400312 -0.35232574 0.077167034
-0.44103211 -0.33335018 0.087806344
0.4400312 -0.33187598 0.077167034
-0.44103211 -0.31281835 0.087806344
0.4400312 -0.3114261 0.077167034
-0.44103211 -0.29228669 0.087806344
0.4400312 -0.29097617 0.077166915
-0.44103211 -0.27175492 0.087806344
0.4400312 -0.27052641 0.077167034
-0.44103211 -0.25122315 0.087806344
0.4400312 -0.25007647 0.077166915
-0.44103211 -0.23069145 0.087806463
0.4400312 -0.2296267 0.077167034
-0.44103211 -0.21015967 0.087806344
0.4400312 -0.20917684 0.077167034
-0.44103211 -0.18962786 0.087806344
0.4400312 -0.18872701 0.077167034
-0.44103211 -0.16909622 0.087806344
0.4400312 -0.16827716 0.077166915
-0.44103211 -0.14856441 0.087806344
0.4400312 -0.14782728 0.077167034
-0.44103211 -0.12803273 0.087806344
0.4400312 -0.12737748 0.077167034
-0.44103211 -0.10750091 0.087806344
0.4400312 -0.10692771 0.077167034
-0.44103211 -0.086969092 0.087806344
0.4400312 -0.086477749 0.077167034
-0.44103211 -0.066437446 0.087806463
0.4400312 -0.066027924 0.077166915
-0.44103211 -0.04590565 0.087806344
0.4400312 -0.045578055 0.077167034
-0.44103211 -0.025373861 0.087806344
0.4400312 -0.025128189 0.077166915
-0.44103211 -0.0048421659 0.087806463
0.4400312 -0.0046784133 0.077167034
-0.44103211 0.01568958 0.087806344
0.4400312 0.015771501 0.077166915
-0.44103211 0.036221322 0.087806582
0.4400312 0.036221229 0.077167034
-0.44103211 0.056752972 0.087806344
0.4400312 0.056671195 0.077167034
-0.44103211 0.077284813 0.087806344
0.4400312 0.077120967 0.077167034
-0.44103211 0.097816512 0.087806344
0.4400312 0.097570837 0.077167034
-0.44103211 0.11834826 0.087806344
0.4400312 0.11802066 0.077167034
-0.44103211 0.13888009 0.087806344
0.4400312 0.13847053 0.077167034
-0.44103211 0.15941174 0.087806344
0.4400312 0.1589205 0.077166915
-0.44103211 0.17994353 0.087806344
0.4400312 0.17937016 0.077167034
-0.44103211 0.20047523 0.087806463
0.4400312 0.19982004 0.077166915
-0.44103211 0.22100702 0.087806344
0.4400312 0.22026992 0.077167034
-0.44103211 0.24153885 0.087806344
0.4400312 0.24071978 0.077166915
-0.44103211 0.26207054 0.087806582
0.4400312 0.26116961 0.077167034
-0.44103211 0.2826024 0.087806463
0.4400312 0.28161943 0.077166915
0.4400312 0.30206925 0.077167034
-0.44103211 0.30313414 0.087806344
-0.44103211 0.32366568 0.087806344
0.4400312 0.32251918 0.077167034
-0.44103211 0.34419745 0.087806344
0.4400312 0.34296912 0.077166915
-0.44103211 0.36472929 0.087806344
0.4400312 0.36341876 0.077166915
-0.44103211 0.38526094 0.087806344
0.4400312 0.38386869 0.077166915
-0.44103211 0.40579271 0.087806344
0.44002894 0.40431678 0.077153563
-0.44103211 0.42632443 0.087806344
0.44002894 0.42476642 0.077153563
-0.44103211 0.44685626 0.087806344
0.44002894 0.44521612 0.077153563
-0.44103211 0.46738797 0.087806344
0.44002894 0.46566588 0.077153563
-0.44103211 0.48791969 0.087806344
0.44002894 0.48611569 0.077153563
0.44002894 0.50656539 0.077153563
-0.44103211 0.50845152 0.087806344
-0.44103211 0.52898324 0.087806344
0.44002894 0.52701509 0.077153563
-0.44103211 0.54951495 0.087806344
0.44002894 0.54746485 0.077153563
0.44002894 0.56791449 0.077153563
-0.44103211 0.57004678 0.087806344
-0.44103211 0.59057844 0.087806463
0.44002894 0.58836442 0.077153563
-0.44103211 0.61111021 0.087806344
0.44002894 0.60881406 0.077153683
-0.44103211 0.63164204 0.087806344
0.44002894 0.62926382 0.077153563
-0.44103211 0.6521737 0.087806344
0.44002894 0.64971352 0.077153563
-0.44103211 0.67270547 0.087806344
0.44002894 0.67016333 0.077153563
-0.44103211 0.6932373 0.087806344
0.44002894 0.69061309 0.077153683
0.44002894 0.71106279 0.077153563
-0.44103211 0.71376896 0.087806344
-0.46664271 -0.71123248 0.11779559
0.46617794 -0.70888996 0.10934281
-0.46664271 -0.69046998 0.11779571
0.46617794 -0.68819249 0.10934293
-0.46664271 -0.66970718 0.11779547
0.46617794 -0.66749483 0.10934281
-0.46664271 -0.64894462 0.11779559
0.46617794 -0.64679742 0.10934281
-0.46664271 -0.62818205 0.11779547
0.46617794 -0.62609988 0.10934305
-0.46664271 -0.60741943 0.11779571
0.46617794 -0.60540235 0.10934293
-0.46664271 -0.58665681 0.11779571
0.46617794 -0.58470482 0.10934293
-0.46664271 -0.56589431 0.11779571
0.46617794 -0.56400716 0.10934281
-0.46664271 -0.54513168 0.11779571
0.46617794 -0.54330963 0.10934281
-0.46664271 -0.52436894 0.11779559
0.46617794 -0.52261215 0.10934293
-0.46664271 -0.50360638 0.11779559
0.46617794 -0.50191456 0.10934281
-0.46664271 -0.48284382 0.11779559
0.46617794 -0.48121715 0.10934281
-0.46664271 -0.46208113 0.11779571
0.46617794 -0.46051961 0.10934293
-0.46664271 -0.44131863 0.11779559
0.46617794 -0.43982202 0.10934281
-0.46664271 -0.42055607 0.11779571
0.46617794 -0.41912454 0.10934281
-0.46664271 -0.39979333 0.11779559
0.46617794 -0.39842695 0.10934305
-0.46664271 -0.37903082 0.11779559
0.46617794 -0.37772936 0.10934293
-0.46664271 -0.3582682 0.11779559
0.46617794 -0.35703188 0.10934293
-0.46664271 -0.33750564 0.11779571
0.46617794 -0.33633429 0.10934281
-0.46664271 -0.31674302 0.11779571
0.46617794 -0.31563681 0.10934281
-0.46664271 -0.29598039 0.11779571
0.46617794 -0.29493928 0.10934293
-0.46664271 -0.27521777 0.11779547
0.46617794 -0.27424175 0.10934281
-0.46664271 -0.25445515 0.11779559
0.46617794 -0.25354427 0.10934281
-0.46664271 -0.23369254 0.11779571
0.46617794 -0.23284669 0.10934305
-0.46664271 -0.21293001 0.11779559
0.46617794 -0.2121491 0.10934293
-0.46664271 -0.1921674 0.11779571
0.46617794 -0.19145159 0.10934293
-0.46664271 -0.17140476 0.11779571
0.46617794 -0.17075402 0.10934281
-0.46664271 -0.15064213 0.11779559
0.46617794 -0.15005651 0.10934281
-0.46664271 -0.12987955 0.11779559
0.46617794 -0.12935905 0.10934293
-0.46664271 -0.10911687 0.11779559
0.46617794 -0.10866146 0.10934281
-0.46664271 -0.088354379 0.11779559
0.46617794 -0.087963946 0.10934281
-0.46664271 -0.067591742 0.11779571
0.46617794 -0.067266352 0.10934305
-0.46664271 -0.046829112 0.11779571
0.46617794 -0.046568796 0.10934293
-0.46664271 -0.026066478 0.11779547
0.46617794 -0.025871288 0.10934293
-0.46664271 -0.0053038932 0.11779559
0.46617794 -0.0051738285 0.10934305
-0.46664271 0.015458738 0.11779571
0.46617794 0.015523771 0.10934293
-0.46664271 0.036221277 0.11779559
0.46617794 0.036221277 0.10934293
-0.46664271 0.056983862 0.11779571
0.46617794 0.056918874 0.10934281
-0.46664271 0.077746496 0.11779571
0.46617794 0.077616334 0.10934281
-0.46664271 0.098509125 0.11779559
0.46617794 0.098313935 0.10934305
-0.46664035 0.11927129 0.11778188
0.46617794 0.11901149 0.10934293
-0.46664035 0.14003378 0.11778176
0.46617553 0.13970849 0.10932922
-0.46664035 0.16079631 0.11778176
0.46617553 0.16040584 0.10932922
-0.46664035 0.18155882 0.11778176
0.46617553 0.1811033 0.10932922
-0.46664035 0.20232126 0.11778176
0.46617553 0.20180067 0.10932922
-0.46664035 0.22308394 0.11778176
0.46617553 0.22249813 0.10932922
-0.46664035 0.24384619 0.11778188
0.46617553 0.2431955 0.10932922
-0.46664035 0.26460874 0.11778188
0.46617553 0.26389295 0.10932922
-0.46664035 0.28537124 0.11778176
0.46617553 0.28459051 0.10932934
-0.46664035 0.30613381 0.11778188
0.46617553 0.30528802 0.10932922
-0.46664035 0.32689637 0.11778176
0.46617553 0.32598543 0.10932922
-0.46664035 0.34765887 0.11778188
0.46617553 0.34668285 0.10932922
-0.46664035 0.36842132 0.11778176
0.46617553 0.36738026 0.10932922
-0.46664035 0.38918376 0.11778176
0.46617553 0.38807762 0.10932922
-0.46664035 0.4099462 0.11778188
0.46617553 0.40877509 0.10932922
-0.46664035 0.43070871 0.11778188
0.46617553 0.42947251 0.10932922
-0.46664035 0.45147133 0.11778188
0.46617553 0.45016986 0.10932922
-0.46664035 0.47223383 0.11778188
0.46617553 0.47086728 0.10932922
-0.46664035 0.49299634 0.11778176
0.46617553 0.49156475 0.10932922
-0.46664035 0.51375872 0.11778176
0.46617553 0.51226217 0.10932922
-0.46664035 0.53452128 0.11778176
0.46617553 0.53295964 0.10932934
0.46617553 0.55365711 0.10932934
-0.46664035 0.55528378 0.11778188
-0.46664035 0.57604629 0.11778188
0.46617553 0.57435459 0.10932934
-0.46664035 0.59680879 0.11778188
0.46617553 0.595052 0.10932922
0.46617553 0.61574942 0.10932922
-0.46664035 0.61757141 0.11778188
-0.46664035 0.63833368 0.11778176
0.46617553 0.63644689 0.10932922
-0.46664035 0.65909636 0.11778176
0.46617553 0.65714431 0.10932922
-0.46664035 0.6798588 0.11778176
0.46617553 0.67784166 0.10932922
-0.46664035 0.70062125 0.11778188
0.46617553 0.69853908 0.10932922
0.49296325 -0.69707048 0.14229381
0.49296325 -0.67611933 0.14229381
0.49296325 -0.65516812 0.14229381
0.49296325 -0.6342169 0.14229381
0.49296325 -0.61326569 0.14229381
0.49296325 -0.59231442 0.14229381
0.49296325 -0.57136321 0.14229381
0.49296325 -0.55041206 0.14229381
0.49296325 -0.52946091 0.14229381
0.49296325 -0.50850964 0.14229381
0.49296325 -0.48755848 0.14229381
0.49296325 -0.46660727 0.14229381
0.49296325 -0.44565612 0.14229381
