ply
format ascii 1.0
comment PCL generated
element vertex 1334
property float x
property float y
property float z
element camera 0
property float view_px
property float view_py
property float view_pz
property float x_axisx
property float x_axisy
property float x_axisz
property float y_axisx
property float y_axisy
property float y_axisz
property float z_axisx
property float z_axisy
property float z_axisz
property float focal
property float scalex
property float scaley
property float centerx
property float centery
property int viewportx
property int viewporty
property float k1
property float k2
end_header
0.098224588 0.1614159 -0.32615578
0.11178459 0.1616815 -0.32350224
-0.12987927 0.17531905 -0.32145548
-0.11600745 0.17463616 -0.32779229
-0.10238827 0.17422459 -0.33161134
-0.089033678 0.17422459 -0.33161134
-0.075679086 0.17422459 -0.33161134
-0.062324498 0.17422459 -0.33161134
-0.048969906 0.17422459 -0.33161134
-0.035615314 0.17422459 -0.33161134
-0.02226072 0.17422459 -0.33161134
-0.0089061279 0.17422459 -0.33161134
0.0044484637 0.17422459 -0.33161134
0.017803056 0.17422459 -0.33161134
0.031157648 0.17422459 -0.33161134
0.044512238 0.17422459 -0.33161134
0.05786683 0.17422459 -0.33161134
0.071221426 0.17422459 -0.33161134
0.084576018 0.17422459 -0.33161134
0.09793061 0.17422459 -0.33161134
0.11128982 0.17423268 -0.33153629
0.12508316 0.17491427 -0.3252117
-0.049663655 0.12254055 -0.30908114
-0.036089282 0.1223861 -0.31108797
-0.022545874 0.12223198 -0.31309003
-0.0090333279 0.1220782 -0.31508756
0.0044484637 0.12198706 -0.31627172
0.017936496 0.12214057 -0.31427693
0.031455427 0.12229508 -0.31226975
0.045005191 0.1224494 -0.31026584
-0.10377672 0.13606989 -0.30906576
-0.090140432 0.13589993 -0.31107247
-0.076534905 0.1357297 -0.31308234
-0.062960789 0.13556065 -0.31507993
-0.04941757 0.13539185 -0.31707299
-0.035905141 0.13522342 -0.31906152
0.031332716 0.13512363 -0.32024032
0.0448207 0.1352918 -0.31825447
0.058339637 0.13546097 -0.31625646
0.071889222 0.13562992 -0.31426162
0.085470073 0.13579991 -0.31225443
0.099081665 0.13596961 -0.3102504
-0.11712807 0.14936228 -0.31161761
-0.10328407 0.14885907 -0.31706536
-0.089710347 0.14867537 -0.31905389
0.085101925 0.14856718 -0.32022518
0.098651171 0.14875066 -0.31823933
0.11228397 0.14901352 -0.31539333
0.12620926 0.14960803 -0.30895799
-0.13050377 0.16269816 -0.31334281
-0.11656489 0.16205738 -0.3197462
0.12564386 0.1623203 -0.31711876
0.13960443 0.16296303 -0.31069624
-0.14385319 0.17600778 -0.31506467
0.13897745 0.17560084 -0.31884074
0.15297313 0.17629167 -0.31243086
-0.022794342 0.09623152 -0.29695159
-0.009157218 0.096105747 -0.29899395
0.0044484637 0.096032433 -0.30018437
0.018060682 0.096157968 -0.29814482
-0.077280313 0.10985348 -0.29694384
-0.063580535 0.1097125 -0.29897839
-0.049912237 0.10957181 -0.30100816
-0.036275294 0.1094315 -0.30303341
-0.022669479 0.10929098 -0.30506164
-0.0090949889 0.10915135 -0.30707759
0.0044484637 0.10906902 -0.30826485
0.017998334 0.10920908 -0.30624396
0.031579271 0.10934885 -0.3042261
0.045191381 0.10948899 -0.3022036
0.058835011 0.10962994 -0.30016875
0.072510153 0.10977129 -0.2981292
-0.10427342 0.12316258 -0.30100042
-0.090574048 0.1230067 -0.30302554
-0.076906078 0.12285115 -0.30504614
-0.063269392 0.12269597 -0.30706215
0.058586191 0.12260459 -0.30824947
0.072198115 0.12275961 -0.30623627
0.085841604 0.12291546 -0.3042106
0.099516109 0.12307115 -0.30218816
0.11329632 0.12332007 -0.29895502
-0.13176978 0.13710034 -0.29689699
-0.11769596 0.13654788 -0.30342078
0.11278754 0.13622648 -0.30721647
0.1267805 0.13677715 -0.30071288
-0.14524306 0.1505601 -0.29865122
-0.13113351 0.14995866 -0.30516219
0.14023788 0.15020759 -0.30246747
-0.15868892 0.1639924 -0.30040979
-0.14454454 0.16334286 -0.30690008
0.15366855 0.16361132 -0.30421847
0.16783683 0.16426432 -0.29769266
-0.17210884 0.17739892 -0.30215716
-0.15792914 0.17670082 -0.30863458
0.16707259 0.17698842 -0.3059659
0.18127635 0.1776903 -0.29945314
-0.19982302 0.19153181 -0.29738075
-0.18550223 0.19077887 -0.30390108
-0.17179728 0.19062072 -0.30527043
-0.15823992 0.19062072 -0.30527043
-0.14468256 0.19062072 -0.30527043
-0.13112518 0.19062072 -0.30527043
-0.11756781 0.19062072 -0.30527043
-0.10401046 0.19062072 -0.30527043
-0.090453088 0.19062072 -0.30527043
-0.076895721 0.19062072 -0.30527043
-0.063338354 0.19062072 -0.30527043
-0.049780998 0.19062072 -0.30527043
-0.036223631 0.19062072 -0.30527043
-0.022666266 0.19062072 -0.30527043
-0.009108901 0.19062072 -0.30527043
0.0044484637 0.19062072 -0.30527043
0.018005829 0.19062072 -0.30527043
0.031563193 0.19062072 -0.30527043
0.045120556 0.19062072 -0.30527043
0.058677923 0.19062072 -0.30527043
0.072235286 0.19062072 -0.30527043
0.085792653 0.19062072 -0.30527043
0.09935002 0.19062072 -0.30527043
0.11290739 0.19062072 -0.30527043
0.12646474 0.19062072 -0.30527043
0.1400221 0.19062072 -0.30527043
0.15357947 0.19062072 -0.30527043
0.16713683 0.19062072 -0.30527043
0.18069419 0.19062072 -0.30527043
0.19468915 0.1910896 -0.30121017
0.0044484637 0.082875371 -0.29202926
-0.036652118 0.083161622 -0.28671622
-0.022920238 0.083050728 -0.28877443
-0.0092200805 0.082940064 -0.29082775
0.018123604 0.082986251 -0.28997082
0.031830389 0.083097018 -0.28791553
0.045569111 0.083208412 -0.28584749
-0.091453746 0.096862815 -0.28670061
-0.077658363 0.096736066 -0.2887587
-0.063894555 0.096609078 -0.29081988
-0.050162874 0.096482955 -0.29286855
-0.03646284 0.096357025 -0.2949124
0.031704251 0.096283421 -0.29610837
0.04537946 0.096409582 -0.29405934
0.059086129 0.096535653 -0.29201359
0.072824776 0.09666235 -0.28995502
0.086594969 0.096788928 -0.28789973
0.10039749 0.096916318 -0.28583169
-0.11884836 0.11055712 -0.28678733
-0.10477518 0.11013683 -0.29285282
-0.091011658 0.10999473 -0.29490465
0.086216554 0.10991237 -0.29609275
0.099954553 0.11005384 -0.29405153
0.11380989 0.11029185 -0.29061556
-0.13241142 0.12412012 -0.2885617
-0.11826973 0.12361379 -0.29513925
0.12735711 0.12382545 -0.29239017
0.14152214 0.12433395 -0.28578424
-0.14594746 0.1376562 -0.29033262
0.14087729 0.13733195 -0.29416114
0.15507843 0.13789016 -0.28756851
-0.17377581 0.15177496 -0.28549963
-0.15945657 0.15116525 -0.29209989
0.1543705 0.1508116 -0.29592878
0.16860756 0.15141931 -0.2893492
-0.18729387 0.16530673 -0.28727674
-0.17293879 0.16464749 -0.29386365
0.18211043 0.16492222 -0.29111844
-0.18639426 0.178103 -0.29562402
0.19558559 0.17839742 -0.2928921
-0.20078497 0.17881148 -0.28905004
0.21000062 0.17910896 -0.28628987
-0.21463706 0.1926529 -0.28767103
0.20903388 0.19184567 -0.29466212
-0.0093474425 0.056239784 -0.27428299
0.0044484637 0.0561933 -0.275491
0.018251214 0.056274064 -0.27339399
-0.064531676 0.070036434 -0.27426696
-0.050671395 0.069940068 -0.27635396
-0.036843345 0.069843888 -0.27843606
-0.023047302 0.069747552 -0.28052127
-0.0092834663 0.069651783 -0.28259367
0.0044484637 0.069596194 -0.28379846
0.018187113 0.069692142 -0.28172088
0.031957701 0.069787957 -0.2796464
0.04576052 0.069884405 -0.27755916
0.059595384 0.069980703 -0.27547503
0.073462829 0.070077501 -0.27337795
-0.10579174 0.08372049 -0.27634597
-0.091899514 0.08360824 -0.27842808
-0.078039572 0.083496295 -0.28050536
-0.064211793 0.083384641 -0.28257787
-0.050415836 0.083272763 -0.28465343
0.059339575 0.083319694 -0.2837826
0.07314232 0.083431639 -0.28170502
0.086976908 0.083543494 -0.27963048
0.10084413 0.083655939 -0.27754319
0.11485122 0.083862647 -0.27370632
-0.11943303 0.097377136 -0.27834845
-0.1052811 0.096989848 -0.28463763
0.11432784 0.097139671 -0.28220505
0.12852627 0.097551636 -0.2755149
-0.14737704 0.11148112 -0.27345002
-0.13305975 0.11101764 -0.28013963
0.12793864 0.11075047 -0.2839964
0.14217375 0.11121303 -0.27731979
-0.16101298 0.12514476 -0.27525109
-0.14665921 0.1246309 -0.28192729
0.15579376 0.12484688 -0.27912104
-0.17462157 0.13878104 -0.27704853
-0.16023073 0.13821617 -0.28371918
0.16938634 0.13845329 -0.2809186
0.18380165 0.13902062 -0.27421892
-0.18820284 0.15238997 -0.27884233
0.18295164 0.15203241 -0.28271264
0.19740324 0.1526501 -0.27602643
-0.20175694 0.16597159 -0.28063256
0.19648969 0.16558427 -0.2845031
0.21102072 0.16628955 -0.27745539
-0.21572644 0.1799133 -0.27882648
0.22529937 0.18050478 -0.2733379
-0.23002224 0.1941462 -0.27473915
0.22419842 0.19327585 -0.28227645
-0.22958538 0.20752741 -0.27807742
-0.21581867 0.20752741 -0.27807742
-0.20205289 0.20752843 -0.27806944
-0.18828614 0.20752843 -0.27806944
-0.1745194 0.20752843 -0.27806944
-0.16075189 0.20752741 -0.27807742
-0.14698453 0.20752648 -0.27808541
-0.13321789 0.20752648 -0.27808541
-0.1194507 0.20752546 -0.2780934
-0.10568461 0.20752648 -0.27808541
-0.091918409 0.20752741 -0.27807742
-0.078152083 0.20752843 -0.27806944
-0.06438563 0.20752938 -0.27806145
-0.050619062 0.20753038 -0.27805346
-0.036852363 0.20753132 -0.27804554
0.045749102 0.20753038 -0.27805346
0.059515737 0.20752938 -0.27806145
0.073282257 0.20752843 -0.27806944
0.087048642 0.20752741 -0.27807742
0.10081534 0.20752741 -0.27807742
0.11458154 0.20752648 -0.27808541
0.12834764 0.20752546 -0.2780934
0.1421148 0.20752648 -0.27808541
0.15588212 0.20752741 -0.27807742
0.16964881 0.20752741 -0.27807742
0.18341632 0.20752843 -0.27806944
0.19718306 0.20752843 -0.27806944
0.21094981 0.20752843 -0.27806944
0.22471559 0.20752741 -0.27807742
0.23848125 0.20752648 -0.27808541
-0.037230808 0.042832606 -0.26165837
-0.023305131 0.042767432 -0.26377493
-0.0094120782 0.042702451 -0.26588631
0.0044484637 0.042664878 -0.26710558
0.018315915 0.042730033 -0.2649889
0.032215908 0.042795118 -0.26287544
-0.092804037 0.056726344 -0.26164222
-0.078813069 0.056644924 -0.26375866
-0.064854562 0.056563251 -0.26587826
-0.050929096 0.056482218 -0.26798481
-0.037036169 0.05640129 -0.27008641
-0.023175677 0.0563206 -0.27218306
0.032086201 0.056354649 -0.27130014
0.045953721 0.05643566 -0.26919323
0.059853587 0.056516677 -0.26708943
0.073786348 0.056598172 -0.26497281
0.087751545 0.056679472 -0.26285911
-0.12061859 0.070638299 -0.26123619
-0.10630764 0.070327297 -0.26796871
-0.092349447 0.070229843 -0.27007836
-0.078424327 0.070133023 -0.27217507
0.087362416 0.070174195 -0.27128398
0.10129493 0.070271529 -0.26917702
0.1153796 0.070458613 -0.26512647
-0.13437441 0.08443629 -0.26306188
-0.12002271 0.084071159 -0.26983696
0.1291195 0.084226638 -0.26695234
-0.1481024 0.098206356 -0.26488388
-0.13371365 0.097789943 -0.27164543
0.14283155 0.097966738 -0.26877439
0.15724495 0.098384991 -0.26198322
-0.16180196 0.11194805 -0.2667101
0.1565159 0.11167908 -0.27059299
0.1709663 0.11214864 -0.26381534
-0.19004606 0.12618491 -0.26173973
-0.17547457 0.12566261 -0.26852477
0.17017256 0.12536369 -0.27240783
0.18465978 0.12588441 -0.26564389
-0.20372783 0.13992284 -0.26356423
-0.18911962 0.13934949 -0.27033573
0.19832551 0.13959223 -0.26746869
-0.20273723 0.15300879 -0.27214301
0.21205847 0.15334827 -0.26846838
-0.21682669 0.16704629 -0.26989335
0.2264114 0.16760515 -0.26430929
-0.23119664 0.18132088 -0.26576501
-0.24563278 0.19566131 -0.2616179
0.23964283 0.19478467 -0.26920933
-0.24438359 0.20844434 -0.27063322
0.25405362 0.20913148 -0.26505369
0.0044484637 0.015224456 -0.25009727
-0.051452052 0.029185686 -0.25100136
-0.037427466 0.029136136 -0.25314277
-0.02343593 0.029086836 -0.2552793
-0.0094772633 0.029037464 -0.25741881
0.0044484637 0.029009189 -0.25864148
0.018381225 0.029058509 -0.25650477
0.032346833 0.029107843 -0.25437123
0.046345599 0.029157411 -0.2522245
0.060377318 0.029206943 -0.25008088
-0.10737026 0.043169633 -0.25071377
-0.093262479 0.043095104 -0.25313467
-0.079205088 0.043029305 -0.25527108
-0.065180793 0.042963617 -0.25740248
-0.051189467 0.042898189 -0.25952888
0.04614874 0.042860597 -0.26074868
0.06011422 0.042925969 -0.25862515
0.074112907 0.042991802 -0.25648844
0.088144332 0.043057565 -0.25435495
0.10220934 0.04312361 -0.25220805
-0.12121964 0.05707588 -0.25256079
-0.10683492 0.05681242 -0.25940686
0.10174999 0.056761391 -0.26073247
0.11591308 0.056925669 -0.25646394
0.13032258 0.057190299 -0.2495873
-0.13504088 0.070953891 -0.25440401
0.12971842 0.070773579 -0.2583074
0.14416559 0.071090512 -0.25144482
-0.16340347 0.085173838 -0.24937332
-0.14883406 0.084803656 -0.25624347
0.14349569 0.084593311 -0.26014709
0.15798035 0.08496239 -0.25329852
-0.17720601 0.099047609 -0.25122303
-0.16259925 0.098625384 -0.25807923
0.17176689 0.098805882 -0.25514847
-0.19098048 0.11289316 -0.2530691
-0.17633656 0.11241907 -0.25991124
0.18552536 0.11262119 -0.25699461
0.20019592 0.11309792 -0.25011373
-0.20472698 0.12671053 -0.25491124
0.19925578 0.12640841 -0.25883698
0.21416552 0.12707163 -0.2502206
-0.21906054 0.1409227 -0.25175667
0.21310668 0.14027624 -0.25939047
-0.21793801 0.1540501 -0.26087052
0.22753468 0.15457493 -0.25518924
-0.23238285 0.1683666 -0.25670075
0.24202886 0.1689394 -0.25097674
-0.24689458 0.18274929 -0.25251156
0.24082981 0.18192728 -0.26013911
0.25531629 0.19631679 -0.25594127
-0.26013556 0.21006785 -0.25745142
0.26987022 0.2107733 -0.25172383
-0.27520594 0.22496651 -0.25001502
-0.26122323 0.22496651 -0.25001502
-0.24724166 0.22496758 -0.25000679
-0.23325995 0.2249687 -0.24999857
-0.21927708 0.2249687 -0.24999857
-0.20529519 0.22496976 -0.2499904
-0.19131316 0.22497088 -0.24998218
-0.17733102 0.22497192 -0.24997401
-0.16334723 0.22497088 -0.24998218
0.15826117 0.22497088 -0.24998218
0.17224415 0.22497088 -0.24998218
0.18622711 0.22497088 -0.24998218
0.20021008 0.22497088 -0.24998218
0.21419211 0.22496976 -0.2499904
0.228174 0.2249687 -0.24999857
0.24215578 0.22496758 -0.25000679
0.25613859 0.22496758 -0.25000679
0.27012017 0.22496651 -0.25001502
-0.023701003 0.0013350267 -0.23806214
-0.0096095502 0.0013182787 -0.24023426
0.0044484637 0.0013087103 -0.24147189
0.018513711 0.0013255123 -0.23929447
0.032612432 0.001342278 -0.23712021
-0.080000706 0.015409985 -0.23804539
-0.065842241 0.015376505 -0.24021757
-0.051717121 0.015343099 -0.2423929
-0.037625797 0.015309799 -0.24455476
-0.023567839 0.015276517 -0.24671137
-0.0095431264 0.015243466 -0.24886304
0.018447155 0.015257684 -0.24794042
0.032479007 0.015290824 -0.24578655
0.046544325 0.015324195 -0.24361944
0.060642913 0.015357495 -0.24145538
0.074775346 0.015390991 -0.23927784
0.088941149 0.015424487 -0.23710346
-0.1079113 0.029395126 -0.24192834
-0.093725704 0.029334869 -0.24453813
-0.079600826 0.029284909 -0.24670309
-0.065509796 0.02923518 -0.24885482
0.074442558 0.02925672 -0.24792397
0.088540852 0.02930643 -0.24577004
0.10267304 0.029356532 -0.24360281
0.11699504 0.029465236 -0.23889506
-0.12182707 0.04338276 -0.24379325
0.1164512 0.043261658 -0.24772602
0.13093315 0.043475695 -0.24077439
-0.15031931 0.057609253 -0.23870349
-0.13571444 0.05734171 -0.2456544
0.14484262 0.057457328 -0.24264991
-0.16421622 0.071592629 -0.24057502
-0.14957345 0.071272276 -0.24751168
0.15872355 0.071410358 -0.24452168
0.17339301 0.071732529 -0.23754537
-0.17808472 0.085547343 -0.24244261
0.17257603 0.085334621 -0.24638939
0.18728337 0.085709833 -0.23942757
-0.20675533 0.099902257 -0.23734528
-0.19192486 0.099473596 -0.24430645
0.18640012 0.099230468 -0.24825352
0.20114516 0.099658325 -0.24130583
-0.20573579 0.11337081 -0.24617481
0.21523519 0.11373226 -0.24095714
-0.22019447 0.12766212 -0.24255043
-0.23479149 0.14206259 -0.23829544
0.22866939 0.1414122 -0.24597657
-0.23358108 0.15528111 -0.24754459
0.24324012 0.15581907 -0.24172097
-0.2481692 0.16970634 -0.24331284
0.2578803 0.17029436 -0.23743701
-0.26282653 0.18419981 -0.23905313
0.25659177 0.18337174 -0.24673623
-0.26147363 0.19719881 -0.24830294
0.27122286 0.19787163 -0.24247575
-0.27612051 0.2117154 -0.2440747
0.28592134 0.21243854 -0.23820376
-0.29083565 0.22629979 -0.23982686
0.28449085 0.22529627 -0.24749523
0.0044484637 -0.012739735 -0.2327643
0.04694749 -0.01273977 -0.2261619
-0.038028352 -0.012739717 -0.22712362
-0.02383557 -0.012739717 -0.2293219
-0.0096766073 -0.012739717 -0.23152316
0.018580902 -0.012739682 -0.23056602
0.032747138 -0.012739717 -0.22837085
-0.094664551 0.0014193011 -0.22711527
-0.080404021 0.001402339 -0.22931343
-0.06617754 0.0013854653 -0.23150635
-0.051984977 0.0013686474 -0.23369408
-0.037826214 0.0013517924 -0.2358765
0.046744946 0.0013590613 -0.23493218
0.060911044 0.0013758987 -0.2327475
0.075111307 0.001392859 -0.23054916
0.089345276 0.0014096973 -0.22835392
0.10361377 0.0014267312 -0.22614497
-0.12305915 0.015595351 -0.22601008
-0.1084571 0.015486616 -0.2330659
-0.094192892 0.015443497 -0.23586816
0.10314117 0.015458197 -0.23491561
0.1175442 0.015534204 -0.22997785
-0.13708058 0.029718984 -0.22790754
-0.12243982 0.029556368 -0.23494893
0.13154967 0.029627353 -0.2318756
-0.15107313 0.043813575 -0.22980124
-0.13639387 0.043597169 -0.23682809
0.14552626 0.043691386 -0.23376942
0.16023178 0.043908738 -0.22671044
-0.16503613 0.057878859 -0.23169929
0.159474 0.057726398 -0.23565936
0.17421795 0.057997577 -0.22861505
-0.19384031 0.072241135 -0.22653323
-0.17897111 0.071915478 -0.23358524
0.18817522 0.07205721 -0.2305156
-0.20781398 0.086316094 -0.22817719
-0.19287749 0.08592321 -0.23546714
0.20210364 0.086087838 -0.23241222
0.21631581 0.10025619 -0.23159862
-0.221341 0.11426684 -0.2332418
0.23097278 0.1146802 -0.22727549
-0.23601536 0.12870954 -0.22894317
0.22981469 0.12811422 -0.236678
0.2444638 0.14256433 -0.23237032
-0.24945794 0.15653116 -0.23401207
0.25918207 0.15708268 -0.22804236
-0.26419204 0.17106692 -0.22971714
-0.27899536 0.18567093 -0.22540194
0.27258813 0.18483682 -0.2331413
-0.27755126 0.19876005 -0.2347818
0.28736654 0.19944876 -0.22881699
-0.29234499 0.21338859 -0.23049045
0.301227 0.22750954 -0.23058277
-0.0098127276 -0.041262168 -0.2138406
0.0044484637 -0.041242871 -0.21508878
-0.06685815 -0.027001059 -0.21382356
-0.052528162 -0.026983846 -0.21605355
-0.038232431 -0.026966689 -0.21828675
-0.023971297 -0.026949622 -0.22050619
-0.0097443741 -0.026932534 -0.22272015
0.0044484637 -0.026922967 -0.2239731
0.01864874 -0.026939999 -0.22175372
0.032883137 -0.026957087 -0.21953738
0.047151979 -0.026974244 -0.21730715
0.061455056 -0.026991384 -0.2150802
-0.10956525 -0.012739752 -0.21507168
-0.080811605 -0.012739735 -0.22048908
-0.052255135 -0.012739752 -0.22492027
0.06118175 -0.012739752 -0.22395629
0.075450502 -0.012739752 -0.22173679
-0.095141202 -0.012739717 -0.21826971
-0.066516049 -0.012739717 -0.22271156
0.089753665 -0.012739717 -0.21951187
0.10409092 -0.012739717 -0.21729016
-0.12368394 0.0014971793 -0.21699178
-0.10900873 0.0014423924 -0.22410852
0.11809875 0.0014665518 -0.22097307
0.13280036 0.0015215883 -0.21382356
-0.13777336 0.015704677 -0.21890807
0.13217226 0.015643351 -0.22288954
0.14691301 0.015753228 -0.21575487
-0.16670085 0.030047547 -0.21367812
-0.15183362 0.029882651 -0.22082025
0.14621657 0.029790699 -0.22480196
0.16099627 0.029955115 -0.21768212
-0.18077084 0.044250824 -0.21560115
-0.16586481 0.04403137 -0.22272861
0.17505023 0.044127565 -0.21960545
-0.19481166 0.058424577 -0.21752024
-0.179867 0.058150835 -0.22463292
0.18907496 0.058270425 -0.2215246
0.20404799 0.05854582 -0.21437091
-0.20890591 0.072602004 -0.21872085
0.20307061 0.07238403 -0.22343987
-0.2236674 0.087060966 -0.21435374
0.21740757 0.086641163 -0.22214377
-0.22249822 0.10073364 -0.22384626
0.23214282 0.10110747 -0.21777588
-0.23725073 0.11521862 -0.21950328
0.24694917 0.11564299 -0.21337861
-0.25207293 0.12977216 -0.21513999
0.24570009 0.12917303 -0.22292334
-0.25075871 0.14322025 -0.22462445
0.26049727 0.14373456 -0.21855068
-0.26557156 0.15779923 -0.22028524
0.27536356 0.15836461 -0.21416569
-0.28045434 0.17244709 -0.21592563
0.27396873 0.17166889 -0.22370243
0.28882664 0.18632497 -0.21933323
-0.29389587 0.20036332 -0.2208966
0.30294797 0.21468842 -0.21993691
-0.30896774 0.22944558 -0.21578902
-0.30807254 0.24295929 -0.22107488
-0.29386568 0.24295813 -0.22108346
-0.27965894 0.24295694 -0.22109193
-0.26545358 0.24295694 -0.22109193
-0.25124821 0.24295694 -0.22109193
-0.23704396 0.24295813 -0.22108346
-0.22283852 0.24295813 -0.22108346
-0.20863406 0.24295929 -0.22107488
0.21753098 0.24295929 -0.22107488
0.23173544 0.24295813 -0.22108346
0.24594088 0.24295813 -0.22108346
0.26014516 0.24295694 -0.22109193
0.27434927 0.24295577 -0.22110033
0.28855589 0.24295694 -0.22109193
0.302764 0.24295929 -0.22107488
0.3180325 0.24382895 -0.21479827
-0.024246832 -0.055782713 -0.20260954
-0.0098817423 -0.055730332 -0.20487529
0.0044484637 -0.055701483 -0.20612693
0.018786388 -0.055753473 -0.20387286
0.03315923 -0.055805929 -0.20160466
-0.081637815 -0.041435171 -0.2026009
-0.067203231 -0.041400481 -0.20485801
-0.052803561 -0.041365772 -0.20710969
-0.038438682 -0.041331172 -0.20935595
-0.024108334 -0.041296538 -0.21160531
0.018717231 -0.041277293 -0.21285635
0.033020582 -0.041311841 -0.21061003
0.04735845 -0.041346423 -0.20836687
0.061731011 -0.041381009 -0.20611829
0.07613875 -0.041415859 -0.20385557
0.090581574 -0.04145078 -0.20158732
-0.1101278 -0.027061798 -0.20593715
-0.095621996 -0.027035516 -0.20934737
-0.081222713 -0.027018234 -0.2115882
0.075792968 -0.027008595 -0.21283931
0.090165615 -0.027025912 -0.21059293
0.10457269 -0.027043179 -0.20834976
0.11922378 -0.027086686 -0.20270485
-0.12431548 -0.012739752 -0.20787627
0.11865823 -0.012739752 -0.21188813
0.13343528 -0.012739699 -0.20465934
-0.15337786 0.0016081613 -0.20258367
-0.13847363 0.0015524477 -0.20981133
0.147617 0.0015770709 -0.20660973
-0.16754594 0.015926 -0.2045297
-0.15260231 0.015814949 -0.21174246
0.16176905 0.015864015 -0.20855618
0.17674109 0.01597571 -0.20130128
-0.18168445 0.030213978 -0.2064718
0.17589149 0.030120973 -0.21049845
0.1909029 0.030288186 -0.20325869
-0.19579259 0.044471968 -0.20841849
0.18998444 0.044348247 -0.21243662
0.20503505 0.044570748 -0.20521218
-0.21000811 0.058745779 -0.20917541
0.21962419 0.058985509 -0.20294714
-0.22484867 0.073246673 -0.20476305
0.21851063 0.072885133 -0.21259093
0.23332503 0.087393753 -0.20817751
-0.23849885 0.10158841 -0.20996606
0.24821125 0.10197215 -0.20373452
-0.25340071 0.11618488 -0.20555741
0.26182494 0.13024719 -0.208969
-0.26696533 0.14439459 -0.210756
0.27677295 0.14492179 -0.20452988
-0.28192845 0.15908638 -0.2063511
0.29030192 0.17306498 -0.20975125
-0.29562265 0.1873077 -0.21021515
0.30469042 0.20171882 -0.20915818
-0.31078532 0.2165212 -0.20505667
0.31986669 0.23099248 -0.20396793
-0.038856812 -0.070480138 -0.19125026
-0.024386544 -0.070409745 -0.19353503
-0.0099514965 -0.070339546 -0.19581407
0.0044484637 -0.070300654 -0.19707793
0.018856216 -0.070370726 -0.19480175
0.03329923 -0.070441321 -0.1925115
0.047777433 -0.070511661 -0.19022435
-0.096598119 -0.056045391 -0.1912328
-0.082057372 -0.055992685 -0.19351745
-0.067551672 -0.055939842 -0.19580537
-0.053081639 -0.055887297 -0.19807893
-0.038646732 -0.055834986 -0.20034695
0.047566921 -0.05585815 -0.19933969
0.062009923 -0.055910833 -0.19706041
0.076487899 -0.05596336 -0.19478434
0.09100157 -0.056016278 -0.19249398
0.10555034 -0.056069102 -0.19020677
-0.12559682 -0.041638695 -0.18938166
-0.11069538 -0.041525681 -0.19672066
-0.09610793 -0.041470163 -0.20032966
0.10505914 -0.041485664 -0.19932228
0.11979496 -0.041576281 -0.19343007
-0.13989437 -0.02717399 -0.19135535
-0.12495268 -0.027117688 -0.19867903
0.13407649 -0.027142864 -0.19540405
-0.15416186 -0.012739789 -0.1933251
-0.13918014 -0.012739789 -0.20063335
0.16333695 -0.012739752 -0.19003999
0.14832798 -0.012739717 -0.19737399
-0.1683986 0.0016641784 -0.19529927
0.16254947 0.0016331058 -0.19933969
0.17759834 0.0016893717 -0.19202119
-0.19778462 0.016150657 -0.18993473
-0.18260625 0.016037945 -0.1972608
0.19182967 0.016088117 -0.19399816
-0.21224706 0.030599326 -0.18978548
-0.19678414 0.030381531 -0.19921803
0.20603098 0.030456502 -0.19597101
-0.21112177 0.04474562 -0.19953084
0.22075041 0.044940736 -0.19319385
-0.22604226 0.059288613 -0.19507241
-0.24103417 0.073901162 -0.19059265
0.23451957 0.07353691 -0.19847906
-0.23975992 0.087816663 -0.20032966
0.24948657 0.088158287 -0.19398952
-0.25474235 0.1024562 -0.19587511
0.26452446 0.10284959 -0.18948704
-0.26979649 0.1171658 -0.19139928
0.26316765 0.11661986 -0.19927883
-0.26837358 0.13085082 -0.20112789
0.27819702 0.13133848 -0.19479316
-0.28341785 0.14558677 -0.19667709
0.29329881 0.14612789 -0.19028562
0.29179254 0.15966666 -0.20006919
-0.29736811 0.17409913 -0.19941795
0.30645195 0.18859589 -0.19826156
-0.31262562 0.20344712 -0.19419044
0.32172391 0.218006 -0.19300145
-0.32603413 0.24589884 -0.19986087
-0.32756793 0.26153466 -0.19119775
-0.31313097 0.26153335 -0.19120646
-0.29869413 0.2615321 -0.19121528
-0.28425741 0.26153079 -0.19122398
-0.26982084 0.26152951 -0.1912328
-0.25538439 0.26152837 -0.1912415
0.24984503 0.26152706 -0.19125021
0.26428133 0.26152837 -0.1912415
0.27871779 0.26152951 -0.1912328
0.29315436 0.26153079 -0.19122398
0.30759108 0.2615321 -0.19121528
0.32202792 0.26153335 -0.19120646
0.33646488 0.26153466 -0.19119775
-0.010092923 -0.099988088 -0.17744207
0.0044484637 -0.099929363 -0.17871314
-0.068259157 -0.085447378 -0.17742431
-0.053646248 -0.085358135 -0.17974281
-0.039069157 -0.085269064 -0.18205559
-0.024527624 -0.085179999 -0.18437153
-0.010021865 -0.08509136 -0.18667299
0.0044484637 -0.085042626 -0.1879403
0.018926729 -0.085131034 -0.185642
0.033440601 -0.085220084 -0.18332911
0.047990009 -0.085308991 -0.18101943
0.062575422 -0.085398413 -0.17869532
-0.11184814 -0.070887975 -0.17800224
-0.09709312 -0.070763521 -0.18204659
-0.082480617 -0.070692524 -0.18435377
-0.067903854 -0.070621625 -0.1866554
-0.053362697 -0.070550859 -0.18895131
0.062291291 -0.070582554 -0.18792284
0.076840468 -0.070653327 -0.18562436
0.091425702 -0.070724539 -0.1833114
0.10604636 -0.070795648 -0.18100184
-0.12624681 -0.056304857 -0.18000001
-0.11126915 -0.056133833 -0.18740368
0.12037131 -0.05621082 -0.18407118
-0.14061503 -0.041752439 -0.1819936
0.13472353 -0.041689705 -0.18606514
0.14977065 -0.041804198 -0.17863315
-0.15495293 -0.02723081 -0.18398297
0.14904539 -0.027199415 -0.18805462
0.16413307 -0.027256519 -0.18063843
-0.16926059 -0.012739789 -0.1859681
-0.18447839 -0.012739717 -0.17855322
0.17846499 -0.012739717 -0.18263942
-0.19879603 0.0017777439 -0.1805498
-0.18353809 0.0017207656 -0.18794912
0.19276653 0.0017462084 -0.18463629
-0.21338415 0.016304649 -0.17993796
0.20703781 0.016201559 -0.18662888
0.22188848 0.030748274 -0.18333799
-0.2272483 0.045184471 -0.1852805
0.23694645 0.045384735 -0.17877525
-0.24232176 0.059839733 -0.18075365
0.23572664 0.059534706 -0.1886788
0.25077528 0.074199103 -0.18414187
-0.256098 0.088583916 -0.18609148
0.26589555 0.088934146 -0.17959201
-0.27123433 0.10333726 -0.18156862
0.27963611 0.11761233 -0.18495399
-0.28492284 0.13194591 -0.18690193
0.29482096 0.13244654 -0.18039906
-0.30092213 0.14721625 -0.17743313
-0.29913399 0.16073596 -0.18849415
0.3082357 0.17531896 -0.18722761
-0.314486 0.19021851 -0.18320537
0.32360166 0.20486476 -0.18191391
-0.3299247 0.21986769 -0.17788661
-0.32796726 0.23295881 -0.18894237
0.33708054 0.24758106 -0.18772042
-0.34339678 0.26263773 -0.18365604
-0.024814107 -0.11515876 -0.16576397
-0.010164753 -0.11503229 -0.16811115
0.0044484637 -0.11496305 -0.16939467
0.019069843 -0.11508942 -0.16705066
-0.083340086 -0.10052827 -0.16574603
-0.068618312 -0.10041985 -0.16809326
-0.053932589 -0.10031129 -0.17044353
-0.039283384 -0.10020342 -0.1727792
-0.02467023 -0.10009587 -0.17510903
0.018997934 -0.10003655 -0.17639208
0.033583365 -0.10014445 -0.17405647
0.048204683 -0.10025221 -0.17172384
0.062862359 -0.10036056 -0.16937679
0.077556059 -0.10046888 -0.16703272
-0.11243349 -0.08579091 -0.16849726
-0.097593479 -0.08562687 -0.17276126
-0.082908027 -0.0855368 -0.17510021
0.077196501 -0.08548779 -0.1763742
0.091853991 -0.085577749 -0.17403853
0.10654775 -0.085667826 -0.17169708
-0.12690394 -0.071118616 -0.17051512
0.120954 -0.070992485 -0.17460972
0.13603841 -0.07122416 -0.1670866
-0.14134364 -0.056477416 -0.1725288
0.13537765 -0.056382827 -0.17662352
0.15050323 -0.056556221 -0.16911656
-0.17100976 -0.041982759 -0.16703266
-0.1557527 -0.041867234 -0.17453825
0.16493718 -0.041919492 -0.17114216
-0.18542904 -0.027345695 -0.16905373
-0.17013039 -0.027288001 -0.1765523
0.17934035 -0.027314086 -0.17316335
0.19466868 -0.027372062 -0.16562891
-0.19981669 -0.012739752 -0.1710794
0.19371283 -0.012739789 -0.17518038
0.20908093 -0.012739789 -0.16767091
-0.21453325 0.0018590968 -0.16998649
0.20805472 0.001803508 -0.17719299
-0.22969981 0.016528822 -0.16537672
0.22303857 0.016405635 -0.17337787
-0.22846706 0.030931931 -0.17538548
0.23817919 0.031084802 -0.16876656
-0.24362294 0.045629971 -0.17081076
-0.25885355 0.060399719 -0.16620505
0.25207645 0.060092002 -0.17419928
-0.2574679 0.074565738 -0.17620498
0.2672812 0.074871145 -0.16959196
-0.27268863 0.089363448 -0.17162549
-0.2879819 0.10423245 -0.16703272
0.28109041 0.10374109 -0.17501104
-0.28644362 0.11816171 -0.17702395
0.29639098 0.11863439 -0.17020154
-0.30272993 0.13353568 -0.16624999
0.31003916 0.16188349 -0.17607141
-0.31636834 0.17683382 -0.17209077
0.32550174 0.1915669 -0.17069429
-0.33190379 0.20662044 -0.16670895
0.33905479 0.23457791 -0.17657
-0.34544924 0.24968353 -0.1725468
0.35459742 0.26446146 -0.17118692
-0.039718445 -0.13051812 -0.15394056
-0.024959553 -0.13037179 -0.156317
-0.010237226 -0.13022527 -0.15869659
0.0044484637 -0.13014592 -0.15998387
0.019142468 -0.13029176 -0.15761656
0.033873152 -0.13043854 -0.15523422
-0.098608144 -0.11579636 -0.15393144
-0.083776005 -0.11566831 -0.15630788
-0.068980679 -0.11554056 -0.15867853
-0.054222044 -0.11541314 -0.16104311
-0.039499942 -0.11528604 -0.1634019
0.033727542 -0.11521654 -0.16469193
0.04842148 -0.1153435 -0.16233623
0.063152142 -0.11547115 -0.15996569
0.077919193 -0.11559879 -0.15759838
0.09272337 -0.11572714 -0.15521604
-0.1130242 -0.10084423 -0.15890515
-0.0980983 -0.10063697 -0.1633929
0.092286527 -0.10057776 -0.16467386
0.10705363 -0.10068709 -0.16230905
0.12213712 -0.10100622 -0.15539801
-0.12756708 -0.086081751 -0.16094357
0.12154257 -0.085923553 -0.16505247
0.13670583 -0.086216077 -0.15745306
-0.15737577 -0.071584865 -0.15537083
-0.14207889 -0.071350701 -0.16297764
0.15124324 -0.071457587 -0.15950358
-0.17189722 -0.056826204 -0.15742576
-0.15655977 -0.056651097 -0.16500723
0.16574945 -0.056730919 -0.16154969
0.18111692 -0.056906912 -0.15393144
-0.18638837 -0.04209923 -0.15946728
0.18022457 -0.042035766 -0.1635915
0.19563334 -0.042152822 -0.15598959
-0.20084761 -0.027403742 -0.16151363
0.210142 -0.027432106 -0.15782535
-0.21569453 -0.012739717 -0.15992957
-0.23094456 0.0019723419 -0.15527064
0.22420092 0.0019103745 -0.16331166
0.23942509 0.016632304 -0.15865123
-0.24493909 0.031269852 -0.16075355
0.25472283 0.031426318 -0.15397704
-0.26025265 0.046082683 -0.15610778
0.25339261 0.045835312 -0.16414177
0.26868159 0.060658336 -0.15948558
-0.27415705 0.075240955 -0.16158581
0.28404561 0.075554088 -0.15480614
-0.28953514 0.090154469 -0.15694427
0.28256017 0.089722477 -0.16496223
0.29813993 0.10473686 -0.15884173
-0.30455932 0.11969215 -0.15493363
0.31371266 0.13452895 -0.15334785
0.31186566 0.14828835 -0.16477299
-0.31827456 0.16329105 -0.16083497
0.32742617 0.17811066 -0.15933132
-0.33390644 0.19321541 -0.15539801
0.34307593 0.20810424 -0.15385848
0.34105414 0.22142068 -0.16527766
-0.3475261 0.23657559 -0.16130543
0.35669401 0.2514444 -0.15983874
-0.36237982 0.28072289 -0.16032791
-0.34770501 0.28072146 -0.16033697
-0.33303192 0.28072146 -0.16033697
-0.31835735 0.28072008 -0.16034603
-0.30368435 0.28072008 -0.16034603
-0.28900999 0.28071865 -0.16035515
0.283234 0.28071865 -0.16035515
0.29790694 0.28071865 -0.16035515
0.3125813 0.28072008 -0.16034603
0.32725585 0.28072146 -0.16033697
0.34192887 0.28072146 -0.16033697
0.35660195 0.28072146 -0.16033697
-0.054809373 -0.14606984 -0.14196914
-0.039939132 -0.14590253 -0.1443845
-0.025106311 -0.14573628 -0.14678478
-0.010310421 -0.14556974 -0.14918828
0.0044484637 -0.14548029 -0.15047914
0.019215818 -0.14564586 -0.14808822
0.034020219 -0.14581262 -0.14568198
0.048861586 -0.14597911 -0.14327902
-0.099123575 -0.13110784 -0.14436615
-0.084216706 -0.13096 -0.14676642
-0.069346666 -0.13081194 -0.14916992
-0.054514106 -0.13066486 -0.15155816
0.048640437 -0.13058503 -0.15285504
0.063444823 -0.13073239 -0.15046084
0.07828594 -0.13087972 -0.1480698
0.093164578 -0.13102789 -0.14566362
0.10808058 -0.13117647 -0.14325136
-0.12891428 -0.11646634 -0.14149821
-0.1136215 -0.11605095 -0.14920652
0.10756455 -0.11585584 -0.15282768
0.12273718 -0.11624242 -0.14565438
-0.14357258 -0.10155237 -0.14357394
-0.12823759 -0.10119715 -0.15126568
0.13737942 -0.10136037 -0.14773029
-0.1581993 -0.08667057 -0.1456452
-0.1428223 -0.086375147 -0.15332043
0.15199009 -0.086510554 -0.14980191
0.16739812 -0.08680778 -0.14207989
-0.17279454 -0.071820714 -0.14771205
0.1665692 -0.07169275 -0.15186894
0.18201925 -0.071929969 -0.14416361
-0.20294203 -0.057180602 -0.14207989
-0.18735749 -0.057002664 -0.14978361
0.19660874 -0.057084389 -0.1462428
-0.20188999 -0.042216644 -0.15184146
0.21124481 -0.042282104 -0.14759266
-0.21686821 -0.027494181 -0.14976531
0.22656307 -0.027547346 -0.14285493
-0.23220262 -0.012739789 -0.14505649
0.22537567 -0.012739752 -0.15313792
0.2406832 0.0020249737 -0.14843667
-0.24626808 0.016756382 -0.15059811
0.25606737 0.016862463 -0.14370292
-0.26166674 0.031612791 -0.14590263
0.27009699 0.046293244 -0.14927071
-0.27564108 0.060967997 -0.15143937
0.28554702 0.061233573 -0.14454114
-0.29110491 0.075926319 -0.14674807
0.29991141 0.090672322 -0.14733577
-0.3064121 0.10568336 -0.14347261
0.31558195 0.12060313 -0.14178437
-0.32020202 0.14958555 -0.14945394
0.32937223 0.16449137 -0.14784056
-0.33593306 0.17964981 -0.14395165
0.34512383 0.19462787 -0.14229214
-0.34962943 0.22331209 -0.14992094
0.35881582 0.23827049 -0.14835411
-0.36464006 0.26776758 -0.14858323
-0.010459095 -0.17672293 -0.12987494
0.0044484637 -0.17661217 -0.13118261
-0.070090048 -0.16181681 -0.12985617
-0.055107322 -0.16162923 -0.13229287
-0.04016225 -0.16144213 -0.13472337
-0.025254538 -0.16125476 -0.13715696
-0.010384422 -0.16106863 -0.1395753
0.0044484637 -0.16096823 -0.14087921
0.019289901 -0.16115411 -0.13846421
0.034168761 -0.16134126 -0.13603383
0.049084958 -0.16152805 -0.13360667
0.064039007 -0.16171613 -0.13116395
-0.11483389 -0.14693239 -0.12951958
-0.099643692 -0.1465725 -0.13471413
-0.084661402 -0.14640452 -0.13713843
-0.069716677 -0.14623696 -0.13955683
0.063740425 -0.14614666 -0.14086074
0.078656733 -0.14631464 -0.13843644
0.093610212 -0.14648241 -0.13601524
0.1086018 -0.14665113 -0.13357866
-0.1295986 -0.13189273 -0.1316213
-0.11422431 -0.13141251 -0.13941795
0.12334395 -0.13163523 -0.13580155
-0.14433128 -0.11688559 -0.13371843
0.13806057 -0.1166603 -0.13789886
0.15350823 -0.11708158 -0.13008058
-0.15903205 -0.10191092 -0.13581091
0.15274526 -0.1017178 -0.1399917
0.16823556 -0.10207815 -0.13219029
-0.18932644 -0.087268621 -0.13010854
-0.17370017 -0.086968333 -0.13790828
0.18293083 -0.087107405 -0.13429546
-0.20400482 -0.072297797 -0.1322183
-0.1883374 -0.072058499 -0.13999164
0.19759415 -0.072169177 -0.13639593
0.21235949 -0.057292137 -0.13724983
-0.21805552 -0.042406965 -0.1394828
0.22776327 -0.042514972 -0.13246065
-0.23347418 -0.027609885 -0.13473272
-0.24896906 -0.012739752 -0.12995905
0.241956 -0.012739752 -0.13810283
-0.24761133 0.0020873332 -0.14033389
0.25742641 0.0021413183 -0.13331789
-0.26309597 0.016987398 -0.13558793
-0.27865714 0.03196115 -0.13081861
0.27152765 0.031773433 -0.13894588
-0.27714103 0.046542253 -0.14118409
0.28706324 0.046758164 -0.13417447
-0.29269159 0.061545305 -0.13644242
0.30170292 0.076436564 -0.13569945
-0.30828574 0.091504961 -0.13188255
0.3174755 0.1065087 -0.13007122
-0.32215264 0.13571531 -0.13793594
0.33134341 0.15070775 -0.13620096
-0.33798575 0.16592158 -0.13235819
0.34719494 0.18098651 -0.13059431
-0.35175636 0.20988829 -0.13840866
0.3609651 0.22493798 -0.13672096
-0.3678416 0.25530913 -0.13194776
0.37717342 0.28544018 -0.12968791
-0.025555652 -0.19276448 -0.11759925
-0.010534525 -0.19253561 -0.12007624
0.0044484637 -0.19241448 -0.1213879
0.019440325 -0.19264211 -0.1189236
-0.085564755 -0.177764 -0.11758029
-0.070467204 -0.17755419 -0.12005746
-0.055408288 -0.17734575 -0.12251878
-0.040387403 -0.17713799 -0.12497389
-0.025404265 -0.17692971 -0.12743211
0.019364735 -0.17681876 -0.12874323
0.034318801 -0.17702661 -0.12628829
0.049310595 -0.17723426 -0.12383646
0.064340614 -0.17744319 -0.12136906
0.079408869 -0.17765266 -0.11889535
-0.11544918 -0.16261181 -0.11952859
-0.10016956 -0.1621941 -0.12495506
-0.085110582 -0.16200483 -0.12741339
0.079030909 -0.16190457 -0.12871516
0.094060346 -0.16209286 -0.12626952
0.10913286 -0.16228881 -0.12372357
-0.13028927 -0.14747749 -0.12165177
0.12395699 -0.14718682 -0.12584722
0.13944402 -0.14773528 -0.11793059
-0.14509705 -0.13237615 -0.12377065
0.15427907 -0.13260417 -0.12006694
0.13874875 -0.13211773 -0.12796623
-0.17554039 -0.11773327 -0.11798733
-0.15987259 -0.11730771 -0.12588471
0.16908164 -0.11750635 -0.12219846
-0.19032568 -0.1026355 -0.12012357
-0.17461598 -0.10227191 -0.1279943
0.18385094 -0.10244098 -0.12433481
-0.2050796 -0.087571166 -0.12224555
0.19858877 -0.087409101 -0.12645704
-0.22046658 -0.072717018 -0.11860228
0.21348625 -0.072464779 -0.1267947
-0.21925457 -0.05748032 -0.12909883
0.22897653 -0.057645377 -0.12195343
-0.23475948 -0.04264069 -0.1242972
-0.25034145 -0.027727369 -0.11947191
0.24324258 -0.027664404 -0.12765706
0.25880021 -0.012739752 -0.12282008
-0.26454067 0.0022040699 -0.12516177
0.27443567 0.0022595879 -0.11795896
-0.28018966 0.017222188 -0.12034065
0.27297378 0.017096438 -0.12850928
0.28859732 0.032125853 -0.12368596
-0.29433149 0.047016259 -0.12579083
0.30351779 0.062027574 -0.12391168
-0.31018209 0.077154696 -0.12015182
0.31939068 0.092241019 -0.11822397
-0.32412845 0.12167808 -0.12626946
0.33333713 0.13675506 -0.12442875
-0.34006169 0.15202604 -0.1206333
0.34929311 0.16717918 -0.11874408
-0.35390899 0.19630204 -0.1267572
0.3635594 0.21170451 -0.12267882
-0.36851594 0.30055037 -0.12844372
-0.35359737 0.30055037 -0.12844372
-0.33867881 0.30055037 -0.12844372
-0.32376024 0.30055037 -0.12844372
-0.30884016 0.30054885 -0.12845296
0.30281857 0.30054885 -0.12845296
0.31773859 0.30055037 -0.12844372
0.33265719 0.30055037 -0.12844372
0.34757575 0.30055037 -0.12844372
0.36249432 0.30055037 -0.12844372
0.37741289 0.30055037 -0.12844372
-0.025708433 -0.20875956 -0.10767591
-0.010610797 -0.20851015 -0.11016852
0.0044484637 -0.2083775 -0.11149353
0.019516688 -0.20862669 -0.10900414
0.034623481 -0.20887735 -0.10649884
-0.086023107 -0.19368297 -0.10765666
-0.070848569 -0.19345261 -0.11014944
-0.055712599 -0.19322288 -0.11263597
-0.04061484 -0.19299297 -0.11512548
0.034470368 -0.19287123 -0.11644375
0.049538519 -0.19309999 -0.113967
0.06464529 -0.19333027 -0.11147439
0.079790689 -0.19356108 -0.10897547
0.094974406 -0.19379166 -0.1064797
-0.11607144 -0.17845464 -0.10942417
-0.10070026 -0.17797343 -0.11510658
0.094515055 -0.17786179 -0.11642486
0.109676 -0.17809731 -0.11364394
0.12520163 -0.17877536 -0.10563678
-0.13098779 -0.16322449 -0.1115697
0.12457637 -0.16289961 -0.11578965
0.14014588 -0.16351467 -0.10780013
-0.16158065 -0.1485817 -0.10571355
-0.14587148 -0.14802767 -0.11371046
0.15505721 -0.14828755 -0.10995871
-0.17647438 -0.13335495 -0.10787666
-0.1607226 -0.13286415 -0.11584651
0.1699357 -0.13309409 -0.11211246
-0.19133624 -0.11816223 -0.11002547
0.18478148 -0.117934 -0.11426145
0.20061098 -0.1183657 -0.10624987
-0.20616449 -0.10300247 -0.1121791
0.19959465 -0.10280725 -0.11640584
0.2157768 -0.10330904 -0.10554093
-0.22169183 -0.088119805 -0.10799134
0.21462528 -0.087802947 -0.11622572
0.23020196 -0.07294064 -0.11134106
-0.23605876 -0.057834879 -0.11374843
0.24585803 -0.058003999 -0.10642231
-0.25172883 -0.042878263 -0.10887033
0.24454319 -0.042751584 -0.11709738
0.26018903 -0.027783316 -0.11220771
-0.26600105 -0.012739717 -0.11462241
0.27591223 -0.012739717 -0.10730278
-0.28173885 0.0023228377 -0.10974878
0.29014814 0.017333902 -0.11308289
-0.29614896 0.032349918 -0.11398613
0.30535343 0.047441304 -0.11198878
-0.31210312 0.062629715 -0.1082685
0.32133102 0.077798143 -0.1062212
-0.32612669 0.10746942 -0.11447048
0.33535689 0.12263189 -0.11250257
-0.34216464 0.1379616 -0.10875577
0.35141543 0.15320098 -0.1067574
-0.3560895 0.18255161 -0.11495465
-0.37109914 0.24263266 -0.11502099
0.38051555 0.27307123 -0.11232179
-0.041076936 -0.22519161 -0.095116258
-0.025862928 -0.22491954 -0.097640991
-0.010687772 -0.22464705 -0.100169
0.0044484637 -0.22450384 -0.10149789
0.019593904 -0.22477593 -0.098973334
0.034778163 -0.2250476 -0.096451998
0.050001614 -0.22532108 -0.093914449
-0.1017785 -0.21001844 -0.095096886
-0.086486161 -0.20976482 -0.097631395
-0.071233451 -0.20951276 -0.10014969
-0.056019727 -0.20926131 -0.10266167
-0.04084482 -0.20901062 -0.10516709
0.049768772 -0.2091278 -0.10399675
0.064953081 -0.20937973 -0.10147864
0.080176406 -0.20963243 -0.098954022
0.095438458 -0.20988475 -0.096432626
-0.1166996 -0.19446181 -0.099224269
-0.10123637 -0.19391373 -0.10515749
0.11022431 -0.19406974 -0.10346866
0.125834 -0.19481809 -0.095367968
-0.13169293 -0.17913474 -0.10139203
0.14085574 -0.17945983 -0.097554088
-0.16244847 -0.16446416 -0.095464945
-0.14665323 -0.16384141 -0.10355508
0.15584421 -0.16413549 -0.0997352
-0.17741899 -0.14914033 -0.097650707
0.17079949 -0.14884509 -0.1019116
0.18667181 -0.14940728 -0.093798041
-0.19235636 -0.13385043 -0.099831641
0.18572171 -0.13358852 -0.10408318
0.20163701 -0.13408653 -0.095997274
-0.20726067 -0.1185943 -0.10200781
0.21694103 -0.11898602 -0.094738424
-0.22293051 -0.10369131 -0.09726429
0.23144193 -0.088404223 -0.10060263
-0.23737222 -0.073194869 -0.10308444
0.24718736 -0.073424459 -0.095629454
-0.25313139 -0.058195032 -0.098152936
0.2615931 -0.042992007 -0.1014787
-0.26747736 -0.027846672 -0.10396796
0.27740639 -0.027904078 -0.096519649
-0.28330642 -0.012739752 -0.09903121
0.29171598 0.0023796037 -0.10236359
-0.29798871 0.017504022 -0.10203671
0.30721325 0.032674972 -0.099908769
-0.3140462 0.047925927 -0.096248925
0.32329386 0.063175812 -0.094079375
-0.32814935 0.093086831 -0.10252696
0.33739996 0.10833354 -0.10043871
-0.34429169 0.12372386 -0.096742153
0.35356402 0.1390496 -0.094622076
-0.35829499 0.168632 -0.10301709
0.36679119 0.19862683 -0.10518634
-0.37441421 0.22973241 -0.097795546
0.38391814 0.26047847 -0.094641447
-0.38814512 0.30435506 -0.10490811
-0.39003325 0.32105249 -0.095474482
-0.37486088 0.32105249 -0.095474482
-0.3596867 0.32105085 -0.095484197
-0.3445127 0.32104924 -0.095493913
-0.32933882 0.32104757 -0.095503628
0.32306206 0.32104594 -0.095513225
0.33823577 0.32104757 -0.095503628
0.35340965 0.32104924 -0.095493913
0.36858544 0.32105249 -0.095474482
0.38375783 0.32105249 -0.095474482
-0.056643791 -0.24183573 -0.08239454
-0.041311439 -0.24153925 -0.084961832
-0.026018865 -0.24124469 -0.087512672
-0.010765539 -0.24094979 -0.090066731
0.0044484637 -0.2407959 -0.09139955
0.019671841 -0.24109037 -0.088849008
0.034934439 -0.2413846 -0.086301565
0.050236631 -0.24168061 -0.08373785
-0.10232569 -0.22628808 -0.084942281
-0.086954422 -0.22601318 -0.087493122
-0.071622677 -0.22573896 -0.090037465
-0.056330007 -0.22546439 -0.092584968
0.065264031 -0.22559424 -0.091380179
0.080566101 -0.22586915 -0.088829458
0.09590774 -0.22614472 -0.086272299
0.1113393 -0.22652139 -0.082777143
-0.11733494 -0.21063785 -0.088907421
0.11077888 -0.21021047 -0.093177199
0.12647307 -0.21102968 -0.084991276
-0.14824216 -0.19596848 -0.082914472
-0.13240612 -0.19521251 -0.09109813
0.14157307 -0.19557256 -0.087200284
-0.16332458 -0.18051277 -0.085118473
0.15663947 -0.18014984 -0.089404464
-0.14744392 -0.17982137 -0.093283892
-0.17837265 -0.16509059 -0.087327302
0.17167234 -0.16476147 -0.091603696
0.18763101 -0.16539182 -0.083414495
-0.19338815 -0.14970355 -0.089521348
0.20267481 -0.14997336 -0.085627019
-0.20840289 -0.13436906 -0.091409326
0.21811815 -0.13483672 -0.083816171
-0.22418281 -0.11943427 -0.086418867
0.23269561 -0.10403856 -0.089745402
-0.2387013 -0.088724039 -0.09229368
0.2485314 -0.089015663 -0.084717095
-0.25455064 -0.073680669 -0.087307692
-0.27048028 -0.058561243 -0.082296491
0.26301265 -0.058368746 -0.090631187
-0.26897123 -0.043119684 -0.093186855
0.27891707 -0.043236278 -0.085617244
-0.28488982 -0.027968112 -0.088205457
0.29330111 -0.012739752 -0.091525972
-0.29985258 0.0024753166 -0.089930356
0.30909473 0.017724846 -0.087688327
-0.31601328 0.033040471 -0.084080756
0.32528275 0.048371602 -0.081776321
-0.33019859 0.078527682 -0.090426862
0.33947009 0.093858026 -0.088215232
-0.34644502 0.10931017 -0.084580183
0.35574108 0.12472254 -0.082325876
-0.36058331 0.1545665 -0.090631187
0.37008169 0.18531156 -0.087375939
-0.39162874 0.29193512 -0.087502897
0.40123221 0.3230004 -0.083972991
0.0044484637 -0.27388754 -0.070888281
-0.056960527 -0.2583757 -0.072108328
-0.041548602 -0.25805739 -0.074692428
-0.026176412 -0.25773877 -0.077279568
-0.010844186 -0.25742209 -0.079850256
0.0044484637 -0.2572563 -0.081196785
0.019750584 -0.25757366 -0.078619897
0.035092331 -0.25789067 -0.07604599
0.050474085 -0.25820976 -0.073455632
0.065895632 -0.25852844 -0.070868373
-0.10287856 -0.24272625 -0.074682474
-0.08742708 -0.24242857 -0.077259958
-0.072015539 -0.24213181 -0.079830527
0.0655782 -0.24197626 -0.081177294
0.080959834 -0.24227379 -0.078600287
0.096381441 -0.24257217 -0.076016366
0.11190511 -0.24300398 -0.072276831
-0.13385443 -0.22787762 -0.070193231
-0.11797639 -0.22698325 -0.078491867
0.12711826 -0.22741193 -0.074514329
-0.14904959 -0.21228723 -0.072425544
-0.13312612 -0.21145853 -0.080705702
0.14229731 -0.21185474 -0.076746881
-0.16420996 -0.19673072 -0.074662626
0.15744238 -0.19633245 -0.078974366
0.17344497 -0.1970996 -0.070669949
-0.17933725 -0.18120992 -0.076885045
0.17255357 -0.18084489 -0.081196845
0.18860127 -0.18154645 -0.072911024
-0.19442984 -0.16572309 -0.079112172
0.20372356 -0.16602829 -0.075147152
-0.20957871 -0.15032858 -0.080499232
0.21930729 -0.15086329 -0.072782159
-0.22544898 -0.13535167 -0.07545346
-0.24140136 -0.12029906 -0.070372045
0.23396322 -0.1198466 -0.078767717
-0.24004388 -0.10442437 -0.081393301
0.24989042 -0.1047805 -0.073683441
-0.25598437 -0.08933764 -0.076352119
-0.27200603 -0.074174091 -0.071285248
0.26444671 -0.073915817 -0.079673171
0.28044456 -0.058739059 -0.074593544
-0.28649074 -0.043364916 -0.077259898
0.29490384 -0.028026838 -0.080568075
-0.30173805 -0.012739752 -0.077683866
0.31100121 0.0025878493 -0.075305223
-0.3180064 0.017970257 -0.071751356
-0.33227161 0.063787505 -0.078186452
0.34156448 0.079200916 -0.07584852
-0.34862512 0.09471748 -0.072267056
0.35794374 0.11021513 -0.069885314
-0.36384618 0.14071633 -0.07297039
-0.37778828 0.2166024 -0.080263257
0.38738477 0.24765694 -0.076628447
-0.39517474 0.27929261 -0.069786072
-0.011003867 -0.29088169 -0.059107065
0.0044484637 -0.29069251 -0.060472012
0.019910542 -0.29105714 -0.057840943
-0.072813958 -0.27543205 -0.059086978
-0.057280868 -0.27508944 -0.061704874
-0.041788004 -0.27474645 -0.064325869
-0.026335755 -0.27440563 -0.066930056
-0.010923574 -0.27406433 -0.06953752
0.019830147 -0.27422842 -0.068284452
0.035251871 -0.27456871 -0.065683722
0.05071402 -0.27491125 -0.063066244
0.066216379 -0.27525333 -0.060451925
0.081759632 -0.27559772 -0.057820797
-0.10343771 -0.25933671 -0.064305902
-0.087905109 -0.25901598 -0.066910148
-0.072412483 -0.2586948 -0.069517672
0.08135765 -0.25884911 -0.068264484
0.096860074 -0.25917068 -0.065653861
0.1124775 -0.25966322 -0.061654806
-0.13458982 -0.24447021 -0.059579015
-0.11862522 -0.24350291 -0.06795603
0.12777095 -0.2439694 -0.063916206
-0.14986485 -0.22877841 -0.06183511
0.14302993 -0.22831094 -0.066172481
0.15907544 -0.22921747 -0.057760477
-0.16510558 -0.21312174 -0.06408608
0.15825456 -0.21268776 -0.068423688
0.1743459 -0.21352762 -0.060030639
-0.19654749 -0.19827443 -0.05795157
-0.18031119 -0.19749936 -0.066342115
0.18958187 -0.1978731 -0.062295675
-0.2119697 -0.18278255 -0.058313549
-0.19548257 -0.1819122 -0.068592906
0.2047825 -0.18225318 -0.064565599
-0.21076757 -0.16646551 -0.069467902
0.22051083 -0.16707002 -0.061614752
-0.22673042 -0.15144707 -0.06435591
-0.24277398 -0.13635097 -0.059227586
0.23524497 -0.13583122 -0.067667186
