ply
format ascii 1.0
comment PCL generated
element vertex 1326
property float x
property float y
property float z
element camera 0
property float view_px
property float view_py
property float view_pz
property float x_axisx
property float x_axisy
property float x_axisz
property float y_axisx
property float y_axisy
property float y_axisz
property float z_axisx
property float z_axisy
property float z_axisz
property float focal
property float scalex
property float scaley
property float centerx
property float centery
property int viewportx
property int viewporty
property float k1
property float k2
end_header
-0.11237594 0.26379949 -0.087622583
-0.095647901 0.26283932 -0.093859017
0.18181612 0.26207221 -0.098840892
0.19855598 0.26286185 -0.093712628
0.21547922 0.26382536 -0.087454081
-0.11237594 0.28019136 -0.087622583
-0.095647901 0.27918321 -0.093859136
0.18181612 0.27837789 -0.098840952
0.19855598 0.27920693 -0.093712449
0.21547922 0.28021866 -0.087454081
0.18181612 0.29468352 -0.098840833
-0.11237594 0.29658347 -0.087622583
-0.095647901 0.29552722 -0.093859076
0.19855689 0.29555368 -0.093702078
0.21547922 0.29661196 -0.087453961
-0.11237594 0.31297535 -0.087622583
-0.095647901 0.31187123 -0.093859136
0.18181612 0.31098908 -0.098840892
0.19855689 0.31189901 -0.093702078
0.21547922 0.31300515 -0.087454081
-0.11237594 0.3293674 -0.087622583
-0.095647901 0.32821512 -0.093859076
0.18181612 0.32729477 -0.098840892
0.19855598 0.32824224 -0.093712449
0.21547922 0.32939851 -0.087454081
-0.11237594 0.34575927 -0.087622583
-0.095647901 0.34455913 -0.093859136
0.18181612 0.34360045 -0.098840714
0.19855598 0.34458727 -0.093712449
0.21547922 0.34579182 -0.087454081
-0.11237594 0.36215138 -0.087622583
-0.095647901 0.36090308 -0.093859076
0.18181612 0.35990602 -0.098840833
0.19855598 0.36093247 -0.093712509
0.21547922 0.362185 -0.08745414
-0.11237594 0.37854326 -0.087622583
-0.095647901 0.37724704 -0.093859136
0.18181612 0.37621158 -0.098840892
0.19855598 0.37727749 -0.093712449
0.21547922 0.37857825 -0.087453961
-0.11237594 0.39493531 -0.087622583
-0.095647901 0.39359105 -0.093859017
0.18181612 0.39251721 -0.098840952
0.19855598 0.39362258 -0.093712628
0.21547922 0.39497161 -0.087453961
-0.095647901 0.40993506 -0.093859076
0.18181612 0.40882289 -0.098840833
0.19855598 0.40996772 -0.093712509
-0.11237594 0.41132718 -0.087622583
0.21547922 0.41136491 -0.087453902
-0.11237594 0.42771935 -0.087622583
-0.095647901 0.42627895 -0.093859017
0.18181612 0.42512852 -0.098840892
0.19855598 0.42631274 -0.093712449
0.21547922 0.42775804 -0.087453961
-0.11237594 0.44411123 -0.087622583
-0.095647901 0.44262308 -0.093859076
0.18181612 0.44143409 -0.098840892
0.19855598 0.44265795 -0.093712509
0.21547922 0.44415146 -0.087453961
-0.11237594 0.46050322 -0.087622404
-0.095647901 0.45896691 -0.093859076
0.18181612 0.45773971 -0.098840714
0.19855598 0.45900309 -0.093712449
0.21547922 0.46054482 -0.087453961
0.18181612 0.4740454 -0.098840892
-0.11237594 0.47689515 -0.087622583
-0.095647901 0.47531098 -0.093859136
0.19855598 0.47534811 -0.093712449
0.21547922 0.47693789 -0.087453961
-0.11242007 0.49347466 -0.086906135
-0.095673293 0.49177819 -0.093387961
0.18183696 0.49042201 -0.09856987
0.1985959 0.49181658 -0.093241155
-0.046629209 0.50811452 -0.093429804
0.14942147 0.50760424 -0.095323622
-0.12920256 -0.49148721 -0.081349194
0.23265953 -0.49183947 -0.079589486
-0.12920256 -0.47504699 -0.081349075
0.23265953 -0.47538567 -0.079589486
-0.12920256 -0.45860666 -0.081349254
0.23265953 -0.45893186 -0.079589367
-0.12920256 -0.44216645 -0.081349194
0.23265953 -0.442478 -0.079589367
-0.12920256 -0.42572612 -0.081349254
0.23265953 -0.42602414 -0.079589367
-0.12920256 -0.40928584 -0.081349194
0.23265953 -0.4095704 -0.079589486
-0.12920256 -0.39284557 -0.081349254
0.23265953 -0.39311659 -0.079589486
-0.12920256 -0.37640536 -0.081349194
0.23265953 -0.37666273 -0.079589367
-0.12920256 -0.35996509 -0.081349075
0.23265953 -0.36020887 -0.079589367
-0.12920256 -0.34352481 -0.081349254
0.23265953 -0.34375513 -0.079589367
-0.12920256 -0.32708454 -0.081349194
0.23265953 -0.32730126 -0.079589367
-0.12920256 -0.31064427 -0.081349254
0.23265953 -0.31084746 -0.079589367
-0.12920256 -0.294204 -0.081349194
0.23265953 -0.29439366 -0.079589367
-0.12920256 -0.27776372 -0.081349254
0.23265953 -0.27793983 -0.079589367
-0.12920256 -0.26132345 -0.081349194
0.23265953 -0.26148599 -0.079589367
-0.12920256 -0.24488313 -0.081349254
0.23265953 -0.24503221 -0.079589486
-0.12920256 -0.22844291 -0.081349254
0.23265953 -0.22857837 -0.079589486
-0.12920256 -0.21200269 -0.081349194
0.23265953 -0.21212454 -0.079589367
-0.12920256 -0.19556238 -0.081349254
0.23265953 -0.19567069 -0.079589367
-0.12920256 -0.17912212 -0.081349194
0.23265953 -0.17921692 -0.079589367
-0.12920256 -0.16268173 -0.081349194
0.23265953 -0.16276309 -0.079589367
-0.12920256 -0.14624152 -0.081349075
0.23265953 -0.14630926 -0.079589367
-0.12920256 -0.12980121 -0.081349254
0.23265953 -0.12985545 -0.079589367
-0.12920256 -0.113361 -0.081349194
0.23265953 -0.11340161 -0.079589367
-0.12920256 -0.096920624 -0.081349254
0.23265953 -0.096947774 -0.079589367
-0.12920256 -0.080480397 -0.081349194
0.23265953 -0.080494016 -0.079589486
-0.12920256 -0.064040177 -0.081349075
0.23265953 -0.064040177 -0.079589367
-0.12920256 -0.047599882 -0.081349194
0.23265953 -0.04758634 -0.079589367
-0.12920256 -0.031159658 -0.081349194
0.23265953 -0.031132504 -0.079589367
-0.12920256 -0.01471936 -0.081349254
0.23265953 -0.014678705 -0.079589367
-0.12920256 0.0017209426 -0.081349075
0.23265953 0.0017751306 -0.079589367
-0.12920256 0.018161237 -0.081349254
0.23265953 0.01822897 -0.079589367
-0.12920256 0.034601457 -0.081349194
0.23265953 0.034682728 -0.079589367
-0.12920256 0.05104176 -0.081349254
0.23265953 0.051136523 -0.079589367
-0.12920256 0.06748198 -0.081349194
0.23265953 0.067590371 -0.079589367
-0.12920256 0.083922207 -0.081349075
0.23265953 0.084044203 -0.079589367
-0.12920256 0.10036257 -0.081349254
0.23265953 0.10049801 -0.079589367
-0.12920256 0.1168028 -0.081349075
0.23265953 0.11695184 -0.079589367
-0.12920256 0.13324317 -0.081349194
0.23265953 0.1334056 -0.079589367
-0.12920256 0.1496834 -0.081349075
0.23265953 0.1498595 -0.079589367
-0.12920256 0.16612372 -0.081349254
0.23265953 0.16631329 -0.079589367
-0.12920256 0.18256393 -0.081349075
0.23265953 0.18276709 -0.079589367
-0.12920256 0.19900425 -0.081349254
0.23265953 0.19922094 -0.079589367
-0.12920256 0.21544452 -0.081349075
0.23265953 0.21567474 -0.079589367
-0.12920256 0.23188473 -0.081349075
0.23265953 0.23212852 -0.079589367
-0.12920256 0.24832503 -0.081349194
0.23265953 0.24858241 -0.079589367
-0.12920256 0.26476526 -0.081349075
0.23265953 0.26503617 -0.079589367
-0.12920256 0.28120559 -0.081349194
0.23265953 0.28148997 -0.079589367
-0.12920256 0.29764581 -0.081349075
0.23265953 0.29794389 -0.079589367
-0.12920256 0.31408614 -0.081349254
0.23265953 0.31439763 -0.079589367
-0.12920256 0.33052635 -0.081349075
0.23265953 0.33085155 -0.079589367
-0.12920256 0.34696668 -0.081349254
0.23265953 0.3473053 -0.079589367
-0.12920183 0.36340487 -0.081359804
0.23265953 0.3637591 -0.079589367
-0.12920183 0.37984496 -0.081359804
0.23265849 0.38021088 -0.079600096
-0.12920183 0.39628518 -0.081359744
0.23265849 0.3966645 -0.079599917
-0.12920183 0.41272545 -0.081359625
0.23265849 0.41311824 -0.079599917
-0.12920183 0.42916554 -0.081359744
0.23265849 0.42957205 -0.079600036
-0.12920183 0.44560581 -0.081359804
0.23265849 0.44602567 -0.079599917
-0.12920183 0.46204597 -0.081359804
0.23265849 0.46247941 -0.079600036
-0.12920183 0.47848618 -0.081359804
0.23265849 0.47893316 -0.079600036
-0.12929876 0.49529254 -0.079960644
0.21554929 0.4935298 -0.086695373
0.23282744 0.49582875 -0.077911675
-0.16361357 -0.49510461 -0.063275456
-0.14631337 -0.49323064 -0.07263875
0.24996607 -0.49342304 -0.071677208
0.26755801 -0.49529022 -0.062348485
-0.16359714 -0.47848797 -0.063469172
-0.14631337 -0.47672331 -0.07263875
0.24996607 -0.47690845 -0.071677208
0.26753184 -0.47866011 -0.062574983
-0.16359714 -0.46191007 -0.063469291
0.26753184 -0.46207529 -0.062574863
-0.14631337 -0.46021599 -0.07263875
0.24996607 -0.46039361 -0.071677268
-0.16359714 -0.44533217 -0.063469172
-0.14631337 -0.44370866 -0.07263875
0.24996607 -0.44387895 -0.071677208
0.26753184 -0.44549054 -0.062574983
-0.16359714 -0.42875421 -0.063469291
-0.14631337 -0.42720127 -0.07263875
0.24996607 -0.42736417 -0.071677148
0.26753184 -0.42890579 -0.062574863
-0.16359714 -0.41217637 -0.063469172
-0.14631337 -0.410694 -0.07263869
0.24996607 -0.41084939 -0.071677208
0.26753184 -0.41232085 -0.062574983
-0.16359714 -0.39559847 -0.06346935
-0.14631337 -0.39418668 -0.07263869
0.24996607 -0.39433467 -0.071677208
0.26753184 -0.3957361 -0.062575042
-0.16359714 -0.37902051 -0.063469291
-0.14631337 -0.37767935 -0.07263869
0.24996607 -0.37782001 -0.071677148
0.26753184 -0.37915134 -0.062574983
-0.16359714 -0.36244255 -0.06346935
-0.14631337 -0.36117202 -0.07263875
0.24996607 -0.3613053 -0.071677148
0.26753184 -0.36256647 -0.062574863
-0.16359714 -0.34586465 -0.063469172
-0.14631337 -0.34466475 -0.07263869
0.24996607 -0.34479052 -0.071677208
0.26753184 -0.34598172 -0.062574983
-0.16359714 -0.32928675 -0.06346935
-0.14631337 -0.32815737 -0.07263875
0.24996607 -0.3282758 -0.071677208
0.26753184 -0.32939696 -0.062574863
-0.16359714 -0.31270885 -0.063469291
-0.14631337 -0.31165004 -0.07263875
0.24996607 -0.31176108 -0.071677148
0.26753184 -0.31281215 -0.062574983
-0.16359714 -0.2961309 -0.063469291
-0.14631337 -0.29514268 -0.07263875
0.24996607 -0.29524636 -0.071677208
0.26753184 -0.29622734 -0.062574863
-0.16359714 -0.27955306 -0.063469291
-0.14631337 -0.27863547 -0.07263869
0.24996607 -0.27873161 -0.071677208
0.26753184 -0.27964252 -0.062575042
-0.16359714 -0.26297504 -0.063469291
-0.14631337 -0.26212811 -0.07263869
0.24996607 -0.26221696 -0.071677148
0.26753184 -0.26305768 -0.062574983
-0.16359714 -0.24639723 -0.063469291
-0.14631419 -0.24562167 -0.072628081
0.24996607 -0.24570216 -0.071677208
0.26753184 -0.2464729 -0.062574983
-0.16359714 -0.22981933 -0.063469172
-0.14631419 -0.22911425 -0.072628081
0.24996607 -0.22918747 -0.071677208
0.26753184 -0.22988816 -0.062574983
-0.16359714 -0.21324135 -0.06346935
-0.14631419 -0.21260683 -0.072628081
0.24996607 -0.21267268 -0.071677148
0.26753184 -0.21330333 -0.062574983
-0.16359714 -0.19666347 -0.063469172
-0.14631419 -0.19609948 -0.072628081
0.24996607 -0.19615795 -0.071677208
0.26753184 -0.19671857 -0.062574863
-0.16359714 -0.18008554 -0.063469291
-0.14631419 -0.17959206 -0.072627962
0.24996607 -0.17964323 -0.071677148
0.26753184 -0.18013377 -0.062574863
-0.16359714 -0.1635077 -0.063469172
-0.14631337 -0.16308409 -0.07263875
0.24996607 -0.16312855 -0.071677148
0.26753184 -0.16354898 -0.062574863
-0.16359714 -0.14692973 -0.063469291
-0.14631337 -0.14657673 -0.07263875
0.24996607 -0.14661375 -0.071677208
0.26753184 -0.14696415 -0.062575042
-0.16359714 -0.13035183 -0.063469172
-0.14631337 -0.13006954 -0.07263869
0.24996607 -0.13009906 -0.071677208
0.26753184 -0.13037932 -0.062574983
-0.16359714 -0.11377392 -0.06346935
-0.14631337 -0.11356217 -0.07263869
0.24996607 -0.11358438 -0.071677208
0.26753184 -0.11379454 -0.062574983
-0.16359714 -0.09719602 -0.063469291
-0.14631337 -0.097054824 -0.07263869
0.24996607 -0.097069621 -0.071677208
0.26753184 -0.097209752 -0.062574983
-0.16359714 -0.080618039 -0.06346935
-0.14631337 -0.080547482 -0.07263869
0.24996607 -0.080554903 -0.071677208
0.26753184 -0.080624968 -0.062574983
-0.14631337 -0.064040177 -0.07263875
0.24996607 -0.064040214 -0.071677148
-0.16359714 -0.064040139 -0.063469291
0.26753184 -0.064040139 -0.062574863
-0.16359714 -0.047462162 -0.063469291
-0.14631337 -0.047532834 -0.07263869
0.24996607 -0.047525417 -0.071677208
0.26753184 -0.047455393 -0.062574863
-0.16359714 -0.030884374 -0.063469291
-0.14631337 -0.031025495 -0.07263875
0.24996607 -0.031010732 -0.071677208
0.26753184 -0.030870643 -0.062574863
-0.16359714 -0.014306396 -0.06346935
-0.14631337 -0.014518157 -0.07263875
0.24996607 -0.01449601 -0.071677208
0.26753184 -0.014285706 -0.062574983
-0.16359714 0.002271466 -0.063469291
-0.14631337 0.0019891486 -0.07263875
0.24996607 0.002018787 -0.071677208
0.26753184 0.0022990406 -0.062574983
-0.16359714 0.018849373 -0.063469172
-0.14631337 0.018496409 -0.07263869
0.24996607 0.018533505 -0.071677208
0.26753184 0.018883787 -0.062574983
-0.16359714 0.035427272 -0.06346935
-0.14631337 0.035003789 -0.07263869
0.24996607 0.035048194 -0.071677148
0.26753184 0.035468653 -0.062574983
-0.16359714 0.052005172 -0.063469172
-0.14631337 0.051511131 -0.07263869
0.24996607 0.051562987 -0.071677208
0.26753184 0.052053399 -0.062574863
-0.16359714 0.068583146 -0.063469291
-0.14631337 0.068018392 -0.07263875
0.24996607 0.068077669 -0.071677208
0.26753184 0.068638146 -0.062574863
-0.16359714 0.085161015 -0.063469172
-0.14631337 0.084525764 -0.07263869
0.24996607 0.084592357 -0.071677148
0.26753184 0.085223004 -0.062574863
-0.16359714 0.10173891 -0.06346935
-0.14631337 0.10103312 -0.07263875
0.24996607 0.10110715 -0.071677208
0.26753184 0.10180776 -0.062574863
-0.16359714 0.11831689 -0.063469172
-0.14631337 0.11754049 -0.07263875
0.24996607 0.11762184 -0.071677208
0.26753184 0.11839262 -0.062575042
-0.16359714 0.1348948 -0.063469291
-0.14631337 0.13404779 -0.07263869
0.24996607 0.13413656 -0.071677148
0.26753184 0.13497745 -0.062575042
-0.16359714 0.15147263 -0.063469291
-0.14631337 0.15055506 -0.07263869
0.24996607 0.15065125 -0.071677148
0.26753184 0.15156215 -0.062575042
-0.16359714 0.16805068 -0.063469291
-0.14631337 0.16706228 -0.07263869
0.24996607 0.16716604 -0.071677208
0.26753184 0.16814698 -0.062574983
-0.16359714 0.18462849 -0.063469172
-0.14631337 0.18356967 -0.07263869
0.24996607 0.18368073 -0.071677208
0.26753184 0.1847318 -0.062574863
-0.16359714 0.20120649 -0.063469291
-0.14631337 0.20007701 -0.07263869
0.24996607 0.20019539 -0.071677148
0.26753184 0.20131649 -0.062574983
-0.16359714 0.21778436 -0.063469172
-0.14631337 0.21658434 -0.07263869
0.24996607 0.21671017 -0.071677208
0.26753184 0.21790133 -0.062574863
-0.16359714 0.23436226 -0.06346935
-0.14631337 0.23309173 -0.07263869
0.24996607 0.23322488 -0.071677208
0.26753184 0.23448618 -0.062574863
-0.16359714 0.2509402 -0.063469172
-0.14631337 0.24959905 -0.07263875
0.24996607 0.24973957 -0.071677148
0.26753184 0.25107092 -0.062575042
-0.16359714 0.26751804 -0.063469172
-0.14631337 0.26610637 -0.07263869
0.24996607 0.26625437 -0.071677208
0.26753184 0.26765579 -0.062575042
-0.16359714 0.28409594 -0.06346935
-0.14631337 0.28261375 -0.07263869
0.24996607 0.28276908 -0.071677208
0.26753184 0.2842406 -0.062574983
-0.16359714 0.3006739 -0.063469172
-0.14631337 0.29912096 -0.072638631
0.24996607 0.29928374 -0.071677208
0.26753184 0.3008253 -0.062575042
-0.16359714 0.31725186 -0.06346935
-0.14631337 0.31562829 -0.07263869
0.24996607 0.31579852 -0.071677208
0.26753184 0.31741017 -0.062574983
-0.14631337 0.33213556 -0.07263869
0.24996607 0.33231336 -0.071677148
-0.16359714 0.33382976 -0.063469172
0.26753184 0.33399493 -0.062574863
-0.16359714 0.35040772 -0.063469291
-0.14631337 0.34864295 -0.07263869
0.24996607 0.34882808 -0.071677089
0.26753184 0.35057968 -0.062574863
-0.16359714 0.3669855 -0.063469172
-0.14631337 0.36515027 -0.07263869
0.24996607 0.36534286 -0.071677208
0.26753184 0.36716443 -0.062574863
-0.16359714 0.38356346 -0.063469291
-0.14631337 0.38165766 -0.07263869
0.24996607 0.38185757 -0.071677208
0.26753184 0.38374943 -0.062574983
-0.16359714 0.40014136 -0.063469172
-0.14631337 0.39816505 -0.07263869
0.24996607 0.39837229 -0.071677089
0.26753184 0.40033412 -0.062575042
-0.16359714 0.41671938 -0.063469172
-0.14631337 0.41467237 -0.07263869
0.24996607 0.41488695 -0.071677208
0.26753184 0.41691893 -0.062575042
-0.16359714 0.43329716 -0.063469172
-0.14631337 0.4311797 -0.07263875
0.24996607 0.43140167 -0.071677148
0.26753184 0.43350375 -0.062574863
-0.14631337 0.44768685 -0.07263869
0.24996607 0.44791639 -0.071677148
-0.16359714 0.44987506 -0.06346935
0.26753184 0.45008844 -0.062574983
-0.16359714 0.46645302 -0.063469172
-0.14631337 0.46419424 -0.07263869
0.24996607 0.46443117 -0.071677208
0.26753184 0.46667325 -0.062574863
-0.16359714 0.48303092 -0.06346935
-0.14631337 0.48070157 -0.07263869
0.24996607 0.48094583 -0.071677208
0.26753184 0.48325813 -0.062574863
-0.14652491 0.49792814 -0.069890738
0.25026944 0.49819732 -0.068862379
-0.1810876 -0.49704307 -0.053590894
0.28563753 -0.49771631 -0.050226986
-0.18102838 -0.48026574 -0.054232001
0.28550601 -0.48083091 -0.051294982
-0.18102838 -0.46361661 -0.054232001
0.28550601 -0.46415931 -0.051294863
-0.18102838 -0.44696772 -0.054231942
0.28550601 -0.44748765 -0.051294923
-0.18102838 -0.43031865 -0.054231942
0.28550601 -0.43081605 -0.051294923
-0.18102838 -0.41366965 -0.054231942
0.28550601 -0.41414434 -0.051294982
-0.18102838 -0.39702058 -0.054231942
0.28550601 -0.3974728 -0.051294863
-0.18102838 -0.38037151 -0.054231942
0.28550601 -0.38080114 -0.051294923
-0.18102838 -0.3637225 -0.054231942
0.28550601 -0.36412948 -0.051294982
-0.18102838 -0.34707355 -0.054231882
0.28550601 -0.34745789 -0.051294923
-0.18102838 -0.33042455 -0.054231882
0.28550601 -0.33078623 -0.051294982
-0.18102936 -0.31377676 -0.054220974
0.28550601 -0.31411463 -0.051294923
-0.18102936 -0.2971276 -0.054221094
0.28550601 -0.29744297 -0.051294982
-0.18102936 -0.28047848 -0.054221094
0.28550601 -0.28077137 -0.051294923
-0.18102936 -0.26382944 -0.054221094
0.28550601 -0.26409972 -0.051294982
-0.18102936 -0.24718031 -0.054220974
0.28550601 -0.24742815 -0.051294923
-0.18102936 -0.23053125 -0.054221094
0.28550601 -0.23075649 -0.051294923
-0.18102936 -0.21388213 -0.054220974
0.28550601 -0.21408489 -0.051294923
-0.18102936 -0.19723307 -0.054221094
0.28550601 -0.19741324 -0.051294982
-0.18102936 -0.18058395 -0.054220974
0.28550601 -0.18074158 -0.051295042
-0.18102936 -0.16393483 -0.054221153
0.28550601 -0.16406998 -0.051294923
-0.18102936 -0.14728563 -0.054221094
0.28550601 -0.14739834 -0.051294982
-0.18102936 -0.13063659 -0.054221094
0.28550601 -0.13072667 -0.051294863
-0.18102936 -0.11398748 -0.054221094
0.28550467 -0.11405487 -0.051305771
-0.18102936 -0.097338408 -0.054220974
0.28550601 -0.097383417 -0.051294923
-0.18102936 -0.080689289 -0.054221094
0.28550601 -0.080711737 -0.051294923
0.28550601 -0.064040177 -0.051294923
-0.18102936 -0.064040139 -0.054220915
-0.18102936 -0.047391102 -0.054220974
0.28550467 -0.047368616 -0.051305771
-0.18102936 -0.030741915 -0.054221094
0.28550467 -0.03069713 -0.051305771
-0.18102936 -0.01409284 -0.054221094
0.28550467 -0.014025528 -0.05130583
-0.18102936 0.0025562719 -0.054221094
0.28550467 0.0026459992 -0.05130583
-0.18102936 0.019205347 -0.054221094
0.28550467 0.019317523 -0.051305771
-0.18102936 0.035854459 -0.054220974
0.28550467 0.035989046 -0.051305771
-0.18102936 0.052503534 -0.054220974
0.28550467 0.052660644 -0.05130583
-0.18102936 0.069152638 -0.054220974
0.28550467 0.069332257 -0.051305771
-0.18102936 0.085801795 -0.054221094
0.28550467 0.086003765 -0.051305771
-0.18102936 0.10245091 -0.054221094
0.28550467 0.10267529 -0.051305771
-0.18102936 0.11909999 -0.054221094
0.28550467 0.11934681 -0.05130595
-0.18102936 0.13574903 -0.054221094
0.28550467 0.13601834 -0.05130583
-0.18102936 0.15239821 -0.054220974
0.28550467 0.15268998 -0.051305771
-0.18102936 0.1690473 -0.054221094
0.28550467 0.1693615 -0.051305771
-0.18102936 0.18569632 -0.054220974
0.28550467 0.18603311 -0.051305771
-0.18102936 0.20234542 -0.054220974
0.28550467 0.20270462 -0.051305771
-0.18102936 0.21899469 -0.054221094
0.28550467 0.21937616 -0.051305771
-0.18102936 0.23564376 -0.054221094
0.28550467 0.23604767 -0.051305771
-0.18102936 0.25229281 -0.054221094
0.28550467 0.25271928 -0.051305771
-0.18102936 0.26894188 -0.054221094
0.28550467 0.26939076 -0.051305771
-0.18102936 0.28559107 -0.054220974
0.28550467 0.2860623 -0.051305771
-0.18102936 0.30224013 -0.054220974
0.28550467 0.30273384 -0.051305771
-0.18102936 0.3188892 -0.054220974
0.28550467 0.31940544 -0.05130583
-0.18102936 0.33553821 -0.054221094
0.28550467 0.33607692 -0.051305771
-0.18102936 0.35218751 -0.054221094
0.28550467 0.35274851 -0.051305771
-0.18102936 0.36883658 -0.054221094
0.28550467 0.36941999 -0.051305771
-0.18102936 0.38548559 -0.054221094
0.28550467 0.38609153 -0.05130583
-0.18102936 0.40213484 -0.054220974
0.28550467 0.40276313 -0.051305771
-0.18102936 0.4187839 -0.054220974
0.28550467 0.41943461 -0.051305771
-0.18102936 0.43543297 -0.054220974
0.28550467 0.43610626 -0.05130595
-0.18102936 0.45208198 -0.054220974
0.28550467 0.45277774 -0.05130595
-0.18102936 0.46873134 -0.054221094
0.28550467 0.46944928 -0.051305771
-0.18102936 0.48538035 -0.054221094
0.28550467 0.48612076 -0.051305771
-0.16401489 0.50090015 -0.058535874
0.26819202 0.50133932 -0.056857586
0.30407903 -0.50041062 -0.036765516
-0.19918695 -0.4999339 -0.039147377
-0.19891614 -0.48264784 -0.041853726
0.30366933 -0.4830246 -0.039896309
-0.19891614 -0.46590358 -0.041853726
0.30366787 -0.46626323 -0.039907157
-0.19891614 -0.44915926 -0.041853726
0.30366787 -0.4495039 -0.039907217
-0.19891614 -0.43241495 -0.041853786
0.30366787 -0.43274462 -0.039907217
-0.19891614 -0.41567069 -0.041853786
0.30366787 -0.41598541 -0.039907098
-0.19891614 -0.39892638 -0.041853726
0.30366787 -0.39922607 -0.039907098
-0.19891614 -0.382182 -0.041853786
0.30366787 -0.38246673 -0.039907217
-0.19891614 -0.36543769 -0.041853786
0.30366787 -0.36570746 -0.039907217
-0.19891614 -0.34869343 -0.041853666
0.30366787 -0.34894812 -0.039907217
-0.19891614 -0.33194917 -0.041853666
0.30366787 -0.3321889 -0.039907098
-0.19891614 -0.3152048 -0.041853726
0.30366787 -0.31542957 -0.039907098
-0.19891614 -0.29846048 -0.041853726
0.30366787 -0.29867029 -0.039907157
-0.19891614 -0.28171623 -0.041853666
0.30366787 -0.28191096 -0.039907157
-0.19891614 -0.26497185 -0.041853726
0.30366787 -0.26515168 -0.039907217
-0.19891614 -0.2482276 -0.041853726
0.30366787 -0.24839243 -0.039907098
-0.19891614 -0.2314833 -0.041853726
0.30366787 -0.23163311 -0.039907157
-0.19891614 -0.21473892 -0.041853726
0.30366787 -0.21487379 -0.039907157
-0.19891614 -0.19799466 -0.041853726
0.30366787 -0.19811456 -0.039907217
-0.19891614 -0.18125032 -0.041853666
0.30366787 -0.18135524 -0.039907217
-0.19891614 -0.16450599 -0.041853786
0.30366787 -0.16459595 -0.039907217
-0.19891614 -0.14776173 -0.041853786
0.30366787 -0.14783669 -0.039907157
-0.19891614 -0.13101739 -0.041853666
0.30366787 -0.13107739 -0.039907157
-0.19891614 -0.11427301 -0.041853786
0.30366787 -0.11431806 -0.039907157
-0.19891614 -0.097528785 -0.041853726
0.30366787 -0.097558729 -0.039907157
-0.19891614 -0.08078444 -0.041853726
0.30366787 -0.080799431 -0.039907217
-0.19891614 -0.064040177 -0.041853666
0.30366787 -0.064040177 -0.039907098
-0.19891614 -0.047295876 -0.041853726
0.30366787 -0.047280882 -0.039907157
-0.19891614 -0.030551571 -0.041853726
0.30366787 -0.030521549 -0.039907157
-0.19891614 -0.01380723 -0.041853666
0.30366787 -0.013762254 -0.039907217
-0.19891614 0.0029371157 -0.041853726
0.30366787 0.0029970407 -0.039907217
-0.19891614 0.019681342 -0.041853726
0.30366787 0.019756302 -0.039907098
-0.19891614 0.03642568 -0.041853666
0.30366787 0.036515594 -0.039907098
-0.19891614 0.053170025 -0.041853726
0.30366787 0.05327493 -0.039907157
-0.19891614 0.069914281 -0.041853726
0.30366787 0.070034221 -0.039907157
-0.19891614 0.086658627 -0.041853666
0.30366787 0.086793512 -0.039907157
-0.19891614 0.10340297 -0.041853726
0.30366787 0.10355277 -0.039907098
-0.19891614 0.12014732 -0.041853726
0.30366787 0.12031206 -0.039907098
-0.19891614 0.13689147 -0.041853726
0.30366787 0.13707137 -0.039907098
-0.19891614 0.15363589 -0.041853726
0.30366787 0.15383069 -0.039907098
-0.19891614 0.17038022 -0.041853726
0.30366787 0.17059 -0.039907217
-0.19891614 0.18712442 -0.041853726
0.30366787 0.18734933 -0.039907217
-0.19891614 0.20386876 -0.041853666
0.30366787 0.20410855 -0.039907098
-0.19891614 0.22061305 -0.041853786
0.30366787 0.22086783 -0.039907098
-0.19891614 0.23735739 -0.041853726
0.30366787 0.23762716 -0.039907098
-0.19891614 0.25410169 -0.041853607
0.30366787 0.25438648 -0.039907157
-0.19891614 0.27084595 -0.041853726
0.30366787 0.27114576 -0.039907157
-0.19891614 0.28759032 -0.041853726
0.30366787 0.28790504 -0.039907098
-0.19891614 0.3043347 -0.041853666
0.30366787 0.30466419 -0.039907157
-0.19891614 0.3210789 -0.041853786
0.30366787 0.32142353 -0.039907217
-0.19891614 0.33782327 -0.041853726
0.30366787 0.33818281 -0.039907217
-0.19891614 0.35456759 -0.041853666
0.30366787 0.35494214 -0.039907217
-0.19891614 0.37131184 -0.041853726
0.30366787 0.37170136 -0.039907098
-0.19891614 0.38805622 -0.041853726
0.30366787 0.38846064 -0.039907157
-0.19891614 0.40480053 -0.041853666
0.30366787 0.40521997 -0.039907157
-0.19891614 0.42154479 -0.041853786
0.30366787 0.42197931 -0.039907217
-0.19891614 0.43828911 -0.041853726
0.30366787 0.43873864 -0.039907217
-0.19891614 0.45503348 -0.041853666
0.30366787 0.45549786 -0.039907098
-0.19891614 0.47177768 -0.041853666
0.30366787 0.4722572 -0.039907098
-0.19891614 0.48852205 -0.041853726
0.30367365 0.4890278 -0.039863169
-0.18189004 0.50446796 -0.044904113
0.28695604 0.50587666 -0.039521873
-0.21704815 -0.4851259 -0.028977334
0.32239065 -0.4857496 -0.025737107
-0.21704815 -0.46828252 -0.028977334
0.32239065 -0.46888119 -0.025737107
-0.21704815 -0.45143908 -0.028977334
0.32239065 -0.45201278 -0.025737226
-0.21704815 -0.43459558 -0.028977334
0.32239065 -0.43514442 -0.025737047
-0.21704815 -0.41775227 -0.028977275
0.32239065 -0.41827601 -0.025737107
-0.21704815 -0.40090883 -0.028977275
0.32239065 -0.4014076 -0.025737107
-0.21704815 -0.38406539 -0.028977275
0.32239065 -0.38453931 -0.025737107
-0.21704815 -0.36722195 -0.028977275
0.32239065 -0.36767089 -0.025737107
-0.21704815 -0.35037851 -0.028977275
0.32239065 -0.35080254 -0.025737226
-0.21704815 -0.33353508 -0.028977275
0.32239065 -0.33393419 -0.025737107
-0.21704815 -0.3166917 -0.028977275
0.32239065 -0.31706578 -0.025737107
-0.21704815 -0.29984823 -0.028977275
0.32239065 -0.30019739 -0.025737226
-0.21704815 -0.28300476 -0.028977275
0.32239065 -0.28332907 -0.025737047
-0.21704815 -0.26616135 -0.028977275
0.32239065 -0.26646072 -0.025737047
-0.21704815 -0.24931794 -0.028977275
0.32239065 -0.24959229 -0.025737226
-0.21704815 -0.23247448 -0.028977275
0.32239065 -0.23272388 -0.025737226
-0.21704815 -0.21563108 -0.028977275
0.32239065 -0.21585558 -0.025737107
-0.21704815 -0.1987876 -0.028977275
0.32239065 -0.19898716 -0.025737107
-0.21704815 -0.18194413 -0.028977334
0.32239065 -0.18211876 -0.025737226
-0.21704815 -0.16510078 -0.028977275
0.3223891 -0.16524985 -0.025748312
-0.21704815 -0.14825732 -0.028977275
0.3223891 -0.14838164 -0.025748253
-0.21704815 -0.13141388 -0.028977275
0.3223891 -0.13151327 -0.025748312
-0.21704815 -0.11457044 -0.028977334
0.3223891 -0.11464505 -0.025748312
-0.21704815 -0.097727001 -0.028977334
0.3223891 -0.097776726 -0.025748372
-0.21704815 -0.08088357 -0.028977334
0.3223891 -0.080908433 -0.025748372
-0.21704815 -0.064040177 -0.028977454
0.3223891 -0.064040214 -0.025748253
-0.21704815 -0.047196709 -0.028977275
0.3223891 -0.047171883 -0.025748372
-0.21704815 -0.030353233 -0.028977275
0.3223891 -0.030303631 -0.025748312
-0.21704815 -0.01350984 -0.028977334
0.3223891 -0.013435226 -0.025748312
-0.21704815 0.0033335909 -0.028977334
0.3223891 0.0034329891 -0.025748312
-0.21704815 0.020176984 -0.028977215
0.3223891 0.020301282 -0.025748253
-0.21704815 0.037020385 -0.028977275
0.3223891 0.037169613 -0.025748372
-0.21704815 0.053863853 -0.028977275
0.3223891 0.054037832 -0.025748253
-0.21704815 0.070707247 -0.028977275
0.3223891 0.070906118 -0.025748253
-0.21704815 0.087550685 -0.028977275
0.3223891 0.087774411 -0.025748372
-0.21704815 0.10439408 -0.028977275
0.3223891 0.10464275 -0.025748253
-0.21704815 0.12123752 -0.028977275
0.3223891 0.12151107 -0.025748312
-0.21704815 0.13808098 -0.028977275
0.3223891 0.13837932 -0.025748253
-0.21704815 0.15492441 -0.028977275
0.3223891 0.15524758 -0.025748253
-0.21704815 0.17176789 -0.028977275
0.3223891 0.17211591 -0.025748312
-0.21704815 0.18861134 -0.028977275
0.3223891 0.18898417 -0.025748253
-0.21704815 0.20545466 -0.028977334
0.3223891 0.20585246 -0.025748372
-0.21704815 0.22229816 -0.028977275
0.3223891 0.22272076 -0.025748312
-0.21704815 0.23914157 -0.028977275
0.3223891 0.23958896 -0.025748253
-0.21704815 0.25598502 -0.028977275
0.3223891 0.25645727 -0.025748372
-0.21704815 0.27282852 -0.028977275
0.3223891 0.27332556 -0.025748253
-0.21704815 0.28967202 -0.028977275
0.3223891 0.2901938 -0.025748253
-0.21704815 0.30651534 -0.028977334
0.3223891 0.30706215 -0.025748312
-0.21704815 0.32335877 -0.028977275
0.3223891 0.32393038 -0.025748253
-0.21704815 0.34020221 -0.028977275
0.3223891 0.34079874 -0.025748372
-0.21704815 0.35704571 -0.028977334
0.3223891 0.35766697 -0.025748372
-0.21704815 0.37388903 -0.028977275
0.3223891 0.37453532 -0.025748253
-0.21704815 0.39073253 -0.028977275
0.3223891 0.39140373 -0.025748253
-0.21704815 0.40757591 -0.028977454
0.3223891 0.40827197 -0.025748253
-0.21704815 0.42441928 -0.028977334
0.3223891 0.42514026 -0.025748312
-0.21704815 0.44126278 -0.028977334
0.3223891 0.44200855 -0.025748253
-0.21704815 0.45810628 -0.028977334
0.3223891 0.45887679 -0.025748253
-0.21704815 0.4749496 -0.028977215
0.3223891 0.47574508 -0.025748312
-0.21710926 0.49193722 -0.028410196
0.32249421 0.49280596 -0.024989665
-0.23553781 -0.48786968 -0.014720619
0.34158027 -0.48880386 -0.0098665357
-0.23553781 -0.47091651 -0.014720619
0.34158027 -0.47181326 -0.0098665953
-0.23553781 -0.45396328 -0.0147205
0.34158027 -0.45482272 -0.0098665357
-0.23553781 -0.43701017 -0.01472044
0.34158027 -0.43783218 -0.0098665357
-0.23553781 -0.42005694 -0.01472044
0.34158027 -0.42084163 -0.0098665953
-0.23553781 -0.40310383 -0.0147205
0.34158027 -0.40385109 -0.0098665357
-0.23553781 -0.38615054 -0.014720619
0.34158027 -0.38686049 -0.0098665953
-0.23553781 -0.36919737 -0.0147205
0.34158027 -0.36987001 -0.0098665357
-0.23553781 -0.35224426 -0.0147205
0.34158027 -0.35287946 -0.0098665357
-0.23553781 -0.33529109 -0.0147205
0.34158027 -0.33588898 -0.0098664761
-0.23553781 -0.31833786 -0.0147205
0.34158027 -0.31889832 -0.0098665357
-0.23553781 -0.30138469 -0.0147205
0.34158027 -0.30190784 -0.0098664761
-0.23553781 -0.28443152 -0.01472044
0.34158027 -0.28491729 -0.0098665953
-0.23553781 -0.26747838 -0.01472044
0.34158027 -0.26792675 -0.0098665357
-0.23553781 -0.25052512 -0.0147205
0.34158027 -0.25093615 -0.0098665357
-0.23553781 -0.23357198 -0.0147205
0.34158027 -0.23394558 -0.0098665357
-0.23553781 -0.21661876 -0.0147205
0.34158027 -0.21695513 -0.0098665357
-0.23553781 -0.19966561 -0.0147205
0.34158027 -0.19996452 -0.0098665953
-0.23553781 -0.18271247 -0.0147205
0.34158027 -0.18297398 -0.0098665357
-0.23553781 -0.16575931 -0.01472044
0.34158027 -0.16598338 -0.0098665953
-0.23553781 -0.14880611 -0.0147205
0.34158027 -0.1489929 -0.0098665357
-0.23553781 -0.13185284 -0.014720619
0.34158027 -0.13200238 -0.0098665357
-0.23553781 -0.11489968 -0.014720619
0.34158027 -0.11501186 -0.0098664761
-0.23553781 -0.097946525 -0.0147205
0.34158027 -0.098021224 -0.0098665357
-0.23553781 -0.080993369 -0.0147205
0.34158027 -0.081030697 -0.0098664761
0.34158027 -0.064040177 -0.0098665953
-0.23553781 -0.064040139 -0.01472044
-0.23553781 -0.047086984 -0.0147205
0.34158027 -0.047049694 -0.0098665357
-0.23553781 -0.030133825 -0.0147205
0.34158027 -0.030059095 -0.0098665357
-0.23553781 -0.013180707 -0.01472044
0.34158027 -0.01306846 -0.0098665357
-0.23553781 0.0037725642 -0.014720619
0.34158027 0.0039219856 -0.0098665357
-0.23553781 0.020725794 -0.0147205
0.34158027 0.02091258 -0.0098665357
-0.23553781 0.037678912 -0.0147205
0.34158027 0.0379031 -0.0098664761
-0.23553781 0.054632112 -0.0147205
0.34158027 0.054893665 -0.0098665357
-0.23553781 0.071585223 -0.0147205
0.34158027 0.07188423 -0.0098664761
-0.23553781 0.088538453 -0.01472044
0.34158027 0.088874727 -0.0098665357
-0.23553781 0.10549165 -0.01472044
0.34158027 0.10586527 -0.0098664761
-0.23553781 0.12244485 -0.0147205
0.34158027 0.12285586 -0.0098665357
-0.23553781 0.13939801 -0.0147205
0.34158027 0.13984634 -0.0098664761
-0.23553781 0.15635119 -0.0147205
0.34158027 0.15683699 -0.0098665357
-0.23553781 0.17330432 -0.0147205
0.34158027 0.17382757 -0.0098665357
-0.23553781 0.1902575 -0.0147205
0.34158027 0.19081794 -0.0098665357
-0.23553781 0.20721065 -0.0147205
0.34158027 0.20780857 -0.0098665953
-0.23553781 0.22416393 -0.01472044
0.34158027 0.22479911 -0.0098665357
-0.23553781 0.24111705 -0.01472038
0.34158027 0.24178965 -0.0098665357
-0.23553781 0.25807029 -0.0147205
0.34158027 0.25878012 -0.0098664761
-0.23553781 0.27502346 -0.0147205
0.34158027 0.27577078 -0.0098665357
-0.23553781 0.29197669 -0.0147205
0.34158027 0.29276133 -0.0098664761
-0.23553781 0.30892974 -0.0147205
0.34158027 0.30975187 -0.0098665357
-0.23553781 0.32588291 -0.0147205
0.34158027 0.32674241 -0.0098663568
-0.23553781 0.34283614 -0.0147205
0.34158027 0.34373289 -0.0098665357
-0.23553781 0.35978931 -0.0147205
0.34158027 0.3607235 -0.0098665953
-0.23553781 0.37674254 -0.01472038
0.34158027 0.37771404 -0.0098665357
-0.23553781 0.39369583 -0.0147205
0.34158027 0.39470458 -0.0098665357
-0.23553781 0.41064894 -0.0147205
0.34158027 0.41169512 -0.0098665357
-0.23553781 0.42760211 -0.0147205
0.34158027 0.42868572 -0.0098665357
-0.23553781 0.44455528 -0.0147205
0.34158027 0.44567627 -0.0098664761
-0.23553781 0.46150839 -0.0147205
0.34158027 0.46266687 -0.0098665357
-0.23553781 0.47846156 -0.01472044
0.34158027 0.47965723 -0.0098665357
-0.23579039 0.49597049 -0.012533188
-0.25467822 -0.49128717 0.0030376315
-0.25467822 -0.47419745 0.0030376911
-0.25467822 -0.45710748 0.0030376911
-0.25467822 -0.44001764 0.0030376911
-0.25467822 -0.42292774 0.0030376911
-0.25467822 -0.40583783 0.0030376911
-0.25467822 -0.38874793 0.0030376911
-0.25467822 -0.37165803 0.0030376911
-0.25467822 -0.35456818 0.0030376315
-0.25467822 -0.33747822 0.0030376315
-0.25467822 -0.32038838 0.0030376315
-0.25467822 -0.30329847 0.0030376315
-0.25467822 -0.28620863 0.0030376315
-0.25467822 -0.26911867 0.0030376315
-0.25467822 -0.25202882 0.0030376315
-0.25467822 -0.23493898 0.0030377507
-0.25467822 -0.21784914 0.0030376911
-0.25467822 -0.20075922 0.0030376911
-0.25467822 -0.18366939 0.0030376911
-0.25467822 -0.16657946 0.0030376911
-0.25467822 -0.14948961 0.0030376315
-0.25467822 -0.13239971 0.0030376911
-0.25467822 -0.11530982 0.0030376911
-0.25467822 -0.098219901 0.0030376911
-0.25467822 -0.081130058 0.0030376315
-0.25467822 -0.064040139 0.0030376315
-0.25467822 -0.046950296 0.0030376315
-0.25467822 -0.02986034 0.0030376315
-0.25467822 -0.0127705 0.0030376315
-0.25467822 0.0043193474 0.0030377507
-0.25467822 0.021409184 0.0030377507
-0.25467822 0.038499102 0.0030377507
-0.25467822 0.055588983 0.0030376911
-0.25467822 0.072678834 0.0030376315
-0.25467822 0.089768827 0.0030377507
-0.25467822 0.10685867 0.0030376911
-0.25467822 0.12394854 0.0030376315
-0.25467822 0.14103839 0.0030376315
-0.25467822 0.15812838 0.0030376911
-0.25467822 0.17521822 0.0030376315
-0.25467822 0.19230811 0.0030376315
-0.25467822 0.20939796 0.0030376315
-0.25467822 0.22648795 0.0030376315
-0.25467822 0.24357767 0.0030377507
-0.25467822 0.2606675 0.0030376911
-0.25467822 0.27775741 0.0030376911
-0.25467822 0.29484737 0.0030377507
-0.25467822 0.31193721 0.0030376911
-0.25467822 0.32902718 0.0030376911
-0.25467822 0.3461169 0.0030376315
-0.25467822 0.36320692 0.0030376911
-0.25467822 0.38029677 0.0030376315
-0.25467822 0.39738661 0.0030376315
-0.25467822 0.41447651 0.0030376315
-0.25467822 0.43156648 0.0030376315
-0.25467822 0.44865638 0.0030376315
-0.25467822 0.46574622 0.0030376315
-0.25467822 0.48283613 0.0030377507
0.34201938 0.49741048 -0.0068644285
0.36133116 -0.49225426 0.0080623031
0.36133116 -0.47512567 0.0080622435
0.36133116 -0.45799708 0.0080622435
0.36133116 -0.4408685 0.0080622435
0.36133116 -0.42373997 0.0080622435
0.36133116 -0.40661144 0.0080624223
0.36133116 -0.38948292 0.0080623031
0.36133116 -0.37235433 0.0080622435
0.36133116 -0.35522574 0.0080623031
0.36133116 -0.33809716 0.0080623031
0.36133116 -0.32096863 0.0080622435
0.36133116 -0.30384001 0.0080622435
0.36133116 -0.28671151 0.0080623031
0.36133116 -0.26958299 0.0080623031
0.36133116 -0.2524544 0.0080623031
0.36133116 -0.23532578 0.0080623031
0.36133116 -0.21819723 0.0080622435
0.36133116 -0.2010687 0.0080622435
0.36133116 -0.18394008 0.0080623031
0.36133116 -0.16681153 0.0080623031
0.36133116 -0.14968303 0.0080623031
0.36133116 -0.13255444 0.0080623031
0.36133116 -0.11542581 0.0080623031
0.36133116 -0.098297305 0.0080623031
0.36133116 -0.081168681 0.0080623031
0.36133116 -0.064040102 0.0080623031
0.36133116 -0.046911672 0.0080623031
0.36133116 -0.029783048 0.0080623031
0.36133116 -0.012654502 0.0080623031
0.36133116 0.0044740438 0.0080623031
0.36133116 0.021602668 0.0080623031
0.36133116 0.038731247 0.0080623031
0.36133116 0.055859797 0.0080622435
0.36133116 0.072988302 0.0080623031
0.36133116 0.090116799 0.0080623031
0.36133116 0.10724548 0.0080623031
0.36133116 0.12437402 0.0080623031
0.36133116 0.14150251 0.0080622435
0.36133116 0.15863122 0.0080623031
0.36133116 0.17575976 0.0080623031
0.36133116 0.19288819 0.0080623031
0.36133116 0.21001686 0.0080624223
0.36133116 0.22714536 0.0080623031
0.36133116 0.24427389 0.0080623031
0.36133116 0.26140261 0.0080623031
0.36133116 0.27853107 0.0080623031
0.36133116 0.2956596 0.0080622435
0.36133116 0.31278825 0.0080624223
0.36133116 0.32991672 0.0080623031
0.36133116 0.3470453 0.0080623031
0.36133116 0.36417395 0.0080623031
0.36133116 0.38130242 0.0080623031
0.36133116 0.398431 0.0080623031
0.36133116 0.41555965 0.0080623031
0.36133116 0.43268806 0.0080623031
0.36133116 0.44981664 0.0080623031
0.36133116 0.46694535 0.0080623031
0.36133116 0.48407382 0.0080623031
-0.25554514 0.50171393 0.010076284
-0.27422118 -0.49489468 0.021782696
-0.27417552 -0.47759598 0.021433592
-0.27417552 -0.46036458 0.021433651
-0.27417552 -0.44313306 0.021433592
-0.27417552 -0.42590147 0.021433473
-0.27417552 -0.40867007 0.021433473
-0.27417552 -0.39143854 0.021433592
-0.27417552 -0.37420708 0.021433592
-0.27417552 -0.35697562 0.021433473
-0.27417552 -0.33974403 0.021433473
-0.27417552 -0.32251263 0.021433592
-0.27417552 -0.30528104 0.021433592
-0.27417552 -0.28804964 0.021433651
-0.27417552 -0.27081811 0.021433592
-0.27417552 -0.25358659 0.021433473
-0.27417552 -0.23635516 0.021433473
-0.27417552 -0.2191236 0.021433473
-0.27417552 -0.20189217 0.021433592
-0.27417552 -0.18466067 0.021433473
-0.27417552 -0.16742906 0.021433473
-0.27417552 -0.15019764 0.021433592
-0.27417552 -0.1329661 0.021433592
-0.27417552 -0.11573468 0.021433651
-0.27417552 -0.098503098 0.021433651
-0.27417552 -0.081271604 0.021433473
-0.27417552 -0.064040177 0.021433651
-0.27417552 -0.046808638 0.021433473
-0.27417552 -0.029577218 0.021433592
-0.27417552 -0.012345642 0.021433592
-0.27417552 0.0048858598 0.021433473
-0.27417552 0.022117279 0.021433592
-0.27417552 0.039348818 0.021433592
-0.27417552 0.056580245 0.021433651
-0.27417552 0.07381174 0.021433473
-0.27417552 0.091043323 0.021433473
-0.27417552 0.10827479 0.021433651
-0.27417552 0.12550624 0.021433473
-0.27417552 0.1427377 0.021433651
-0.27417552 0.15996929 0.021433592
-0.27417552 0.1772009 0.021433473
-0.27417552 0.19443224 0.021433592
-0.27417552 0.21166377 0.021433473
-0.27417552 0.22889529 0.021433651
-0.27417552 0.2461267 0.021433473
-0.27417552 0.26335818 0.021433651
-0.27417552 0.28058976 0.021433651
-0.27417552 0.29782116 0.021433473
-0.27417552 0.31505269 0.021433651
-0.27417552 0.33228421 0.021433592
-0.27417552 0.34951568 0.021433651
-0.27417552 0.36674714 0.021433592
-0.27417552 0.38397872 0.021433473
-0.27417552 0.40121025 0.021433651
-0.27417552 0.41844159 0.021433473
-0.27417701 0.43567586 0.021445274
-0.27417701 0.45290738 0.021445215
-0.27417701 0.47013903 0.021445215
-0.27417701 0.48737049 0.021445274
0.36316776 0.50423276 0.019991636
0.38223115 -0.49674398 0.031391799
0.38207936 -0.47926241 0.030453086
0.38207936 -0.46196151 0.030453146
0.38207936 -0.44466054 0.030453026
0.38207936 -0.42735958 0.030453026
0.38207936 -0.41005874 0.030453026
0.38207936 -0.39275777 0.030453086
0.38207936 -0.37545681 0.030453026
0.38207936 -0.35815591 0.030453086
0.38207936 -0.34085494 0.030453026
0.38207936 -0.32355404 0.030453086
0.38207936 -0.30625314 0.030453086
0.38207936 -0.2889522 0.030453026
0.38207936 -0.27165127 0.030453026
0.38207936 -0.25435039 0.030453026
0.38207936 -0.23704945 0.030453086
0.38207936 -0.21974853 0.030453146
0.38207936 -0.20244756 0.030453026
0.38207936 -0.18514664 0.030453026
0.38207936 -0.16784577 0.030453086
0.38207936 -0.15054482 0.030453086
0.38207936 -0.1332439 0.030453086
0.38207936 -0.11594292 0.030452907
0.38207936 -0.098641962 0.030453086
0.38207936 -0.081341133 0.030453086
0.38207936 -0.064040177 0.030453146
0.38207936 -0.046739265 0.030453026
0.38207936 -0.029438313 0.030453026
0.38207936 -0.012137324 0.030453086
0.38207749 0.0051631331 0.030441284
0.38207749 0.022464007 0.030441344
0.38207936 0.03976538 0.030452907
0.38207749 0.057065681 0.030441284
0.38207749 0.074366495 0.030441284
0.38207749 0.091667429 0.030441284
0.38207749 0.10896823 0.030441284
0.38207749 0.12626895 0.030441344
0.38207749 0.14356986 0.030441463
0.38207749 0.1608707 0.030441344
0.38207749 0.17817153 0.030441284
0.38207749 0.19547229 0.030441284
0.38207749 0.21277325 0.030441284
0.38207749 0.23007406 0.030441284
0.38207749 0.24737485 0.030441284
0.38207749 0.26467574 0.030441284
0.38207749 0.28197664 0.030441284
0.38207749 0.29927742 0.030441284
0.38207749 0.31657809 0.030441284
0.38207749 0.33387905 0.030441463
0.38207749 0.35117996 0.030441344
0.38207749 0.36848068 0.030441284
0.38207749 0.38578165 0.030441344
0.38207749 0.40308243 0.030441284
0.38207749 0.42038327 0.030441284
0.38207749 0.43768406 0.030441284
0.38207749 0.45498502 0.030441284
0.38207749 0.47228581 0.030441284
0.3821021 0.4896242 0.030593812
-0.29563177 -0.50069535 0.051923275
-0.29486665 -0.48220885 0.046401322
-0.29486665 -0.46478522 0.046401322
-0.29486665 -0.44736153 0.046401381
-0.29486665 -0.42993778 0.046401381
-0.29486665 -0.41251409 0.046401381
-0.29486665 -0.39509046 0.046401381
-0.29486665 -0.37766665 0.046401322
-0.29486665 -0.36024302 0.046401322
-0.29486665 -0.34281933 0.046401322
-0.29486665 -0.32539564 0.046401322
-0.29486665 -0.30797195 0.046401322
-0.29486665 -0.29054824 0.046401381
-0.29486665 -0.27312458 0.046401381
-0.29486665 -0.25570077 0.046401322
-0.29486665 -0.23827709 0.046401262
-0.29486665 -0.2208534 0.046401322
-0.29486665 -0.20342971 0.046401322
-0.29486665 -0.18600604 0.046401381
-0.29486665 -0.16858232 0.046401381
-0.29486665 -0.15115865 0.046401381
-0.29486665 -0.13373497 0.046401381
-0.29486665 -0.11631125 0.046401262
-0.29486665 -0.09888757 0.046401322
-0.29486665 -0.081463896 0.046401322
-0.29486665 -0.064040177 0.046401322
-0.29486665 -0.046616502 0.046401322
-0.29486665 -0.02919282 0.046401381
-0.29486665 -0.011769105 0.046401381
-0.29486665 0.0056545734 0.046401381
-0.29486665 0.02307833 0.046401322
-0.29486665 0.040502042 0.046401322
-0.29486665 0.057925642 0.046401322
-0.29486665 0.075349391 0.046401381
-0.29486665 0.09277305 0.046401322
-0.29486665 0.1101968 0.046401501
-0.29486665 0.1276204 0.046401381
-0.29486665 0.14504427 0.046401322
-0.29486665 0.1624679 0.046401322
-0.29486665 0.17989166 0.046401322
-0.29486665 0.19731529 0.046401322
-0.29486665 0.21473904 0.046401381
-0.29486665 0.2321627 0.046401381
-0.29486665 0.24958645 0.046401501
-0.29486665 0.26701003 0.046401501
-0.29486665 0.28443372 0.046401322
-0.29486665 0.30185747 0.046401322
-0.29486829 0.31928313 0.046413183
-0.29486829 0.33670688 0.046413243
-0.29486829 0.35413069 0.046413243
-0.29486829 0.37155449 0.046413243
-0.29486829 0.38897824 0.046413243
-0.29486829 0.40640205 0.046413243
-0.29486829 0.4238258 0.046413243
-0.29486829 0.44124973 0.046413183
-0.29486829 0.45867342 0.046413243
-0.29486829 0.47609729 0.046413183
-0.29502827 0.49380547 0.047567904
0.40389919 -0.48419207 0.05713588
0.40389919 -0.46668577 0.05713588
0.40389919 -0.44917947 0.057135761
0.40389919 -0.43167317 0.05713588
0.40389919 -0.41416687 0.05713588
0.40389919 -0.39666051 0.05713594
0.40389919 -0.37915415 0.05713594
0.40389919 -0.36164784 0.05713594
0.40389919 -0.34414142 0.057135761
0.40389919 -0.32663512 0.05713588
0.40389919 -0.30912876 0.05713588
0.40389919 -0.29162246 0.05713588
0.40389919 -0.27411616 0.05713588
0.40389919 -0.2566098 0.05713594
0.40389919 -0.23910345 0.05713594
0.40389919 -0.22159714 0.05713594
0.40389919 -0.20409089 0.05713594
0.40389919 -0.18658449 0.05713588
0.40389919 -0.16907817 0.057135761
0.40389919 -0.15157184 0.05713588
0.40389919 -0.13406551 0.05713588
0.40389919 -0.11655915 0.05713588
0.40389919 -0.099052832 0.05713594
0.40389919 -0.081546538 0.05713594
0.40389919 -0.064040214 0.05713594
0.40389919 -0.046533778 0.05713588
0.40389919 -0.029027451 0.057135761
0.40389919 -0.011521127 0.05713588
0.40389919 0.005985193 0.05713588
0.40389919 0.023491517 0.05713594
0.40389919 0.040997848 0.05713594
0.40389919 0.058504172 0.05713594
0.40389919 0.076010525 0.05713594
0.40389919 0.093516812 0.05713594
0.40389919 0.11102322 0.05713594
0.40389919 0.12852955 0.05713594
0.40389919 0.14603591 0.05713594
0.40389919 0.16354208 0.057135761
0.40389919 0.18104839 0.05713588
0.40389919 0.19855474 0.05713594
0.40389919 0.21606104 0.05713594
0.40389919 0.23356737 0.05713594
0.40389919 0.25107372 0.05713594
0.40389919 0.26858014 0.057135761
0.40389919 0.28608644 0.057135761
0.40389919 0.3035928 0.05713588
0.40389919 0.3210991 0.05713594
0.40389919 0.33860546 0.05713594
0.40389919 0.35611182 0.05713594
0.40389919 0.37361807 0.05713594
0.40389919 0.39112437 0.05713594
0.40389919 0.40863079 0.057135761
0.40389919 0.42613715 0.05713588
0.40389919 0.44364345 0.05713588
0.40389919 0.46114981 0.05713594
0.40389919 0.47865617 0.05713594
0.40458792 0.49716431 0.061202705
-0.31645045 -0.48746371 0.074844062
-0.31645045 -0.4698211 0.074844182
-0.31645045 -0.45217842 0.074844062
-0.31645045 -0.4345358 0.074844182
-0.31645045 -0.41689312 0.074844062
-0.31645045 -0.39925045 0.074844062
-0.31645045 -0.38160783 0.074844062
-0.31645045 -0.36396521 0.074844062
-0.31645045 -0.3463226 0.074844062
-0.31645045 -0.32867998 0.074844062
-0.31645045 -0.31103724 0.074844062
-0.31645045 -0.29339465 0.074844062
-0.31645045 -0.27575195 0.074844062
-0.31645045 -0.25810936 0.074844062
-0.31645045 -0.24046664 0.074844062
-0.31645045 -0.22282398 0.074844062
-0.31645045 -0.20518139 0.074844062
-0.31645045 -0.18753871 0.074844062
-0.31645045 -0.1698961 0.074844062
-0.31645045 -0.15225342 0.074844062
-0.31645045 -0.13461073 0.074844062
-0.31645045 -0.11696814 0.074844062
-0.31645045 -0.099325433 0.074844062
-0.31645045 -0.081682846 0.074844182
-0.31645045 -0.064040139 0.074844062
-0.31645045 -0.046397474 0.074844062
-0.31645045 -0.028754845 0.074844182
-0.31645045 -0.011112217 0.074844062
-0.31645045 0.0065304115 0.074844062
-0.31645045 0.024173073 0.074844062
-0.31645045 0.041815743 0.074844182
-0.31645045 0.059458405 0.074844062
-0.31645045 0.077101111 0.074844062
-0.31645045 0.094743699 0.074844182
-0.31645045 0.11238641 0.074844062
-0.31645045 0.13002899 0.074844182
-0.31645045 0.14767155 0.074844062
-0.31645045 0.16531424 0.074844062
-0.31645045 0.18295684 0.074844062
-0.31645045 0.20059951 0.074844062
-0.31645045 0.21824212 0.074844062
-0.31645045 0.2358848 0.074844062
-0.31645045 0.25352752 0.074844062
-0.31645045 0.27117008 0.074844062
-0.31645045 0.28881282 0.074844062
-0.31645045 0.30645537 0.074844062
-0.31645045 0.32409811 0.074844062
-0.31645045 0.34174073 0.074844062
-0.31645045 0.3593834 0.074844062
-0.31645045 0.37702602 0.074844062
-0.31645045 0.3946687 0.074844062
-0.31645045 0.41231132 0.074844062
-0.31645045 0.42995399 0.074844182
-0.31645045 0.44759661 0.074844062
-0.31645045 0.46523935 0.074844062
-0.31645045 0.48288196 0.074844182
