ply
format ascii 1.0
comment PCL generated
element vertex 1347
property float x
property float y
property float z
element camera 0
property float view_px
property float view_py
property float view_pz
property float x_axisx
property float x_axisy
property float x_axisz
property float y_axisx
property float y_axisy
property float y_axisz
property float z_axisx
property float z_axisy
property float z_axisz
property float focal
property float scalex
property float scaley
property float centerx
property float centery
property int viewportx
property int viewporty
property float k1
property float k2
end_header
-0.21800122 -0.019481735 -0.051377535
-0.19775656 -0.019289622 -0.063859582
0.37008148 -0.019390183 -0.057322502
-0.21800259 -0.00048628077 -0.051364779
-0.19775784 -0.00039024465 -0.063846946
-0.21800259 0.018509261 -0.05136466
-0.19775784 0.018509261 -0.063846827
-0.21800259 0.037504889 -0.05136466
-0.19775784 0.037408769 -0.063846827
-0.21800259 0.056500517 -0.05136466
-0.19775784 0.05630827 -0.063846827
-0.19775909 0.075208157 -0.06383431
-0.21800396 0.075496398 -0.051351905
-0.21800396 0.094492026 -0.051351905
-0.19775909 0.094107747 -0.06383431
-0.21800259 0.11348727 -0.05136466
-0.19775784 0.11300687 -0.063846946
-0.19775909 0.13190702 -0.06383431
-0.21800396 0.13248344 -0.051351905
-0.21800259 0.15147851 -0.051364779
-0.19775784 0.15080592 -0.063846946
-0.21800122 0.17047338 -0.051377416
-0.19775656 0.16970457 -0.063859582
0.36944318 0.16980684 -0.06219995
-0.19775656 0.18860404 -0.063859582
-0.21800122 0.18946891 -0.051377535
0.37067884 0.18937327 -0.05275774
-0.21800122 0.20846434 -0.051377416
-0.19775656 0.20750347 -0.063859582
-0.21800259 0.22746094 -0.051364779
-0.19775784 0.22640394 -0.063846827
-0.19775784 0.24530341 -0.063846827
-0.21800396 0.24645779 -0.051351905
0.35189548 0.24647893 -0.051121712
-0.21800259 0.26545221 -0.05136466
-0.19775784 0.26420301 -0.063846827
-0.21800122 0.28444639 -0.051377416
-0.19775656 0.28310114 -0.063859582
0.33265749 0.28424948 -0.053204894
-0.19775784 0.30200204 -0.063846946
-0.21800259 0.30344334 -0.051364779
-0.21800396 0.32244059 -0.051351905
-0.19775909 0.32090315 -0.06383419
-0.21800122 0.34143284 -0.051377416
-0.19775656 0.33979937 -0.063859582
0.29426467 0.34063151 -0.05750072
-0.19775656 0.35869882 -0.063859582
-0.21800122 0.36042851 -0.051377416
-0.21800122 0.37942392 -0.051377416
-0.19775656 0.3775982 -0.063859582
-0.21800122 0.39841938 -0.051377416
-0.19775784 0.39649957 -0.063846827
-0.19775656 0.41539708 -0.063859582
-0.21800122 0.41741487 -0.051377535
-0.21800396 0.43641478 -0.051351786
-0.19775909 0.43430069 -0.06383419
-0.21800122 0.45540601 -0.051377416
-0.19775656 0.45319593 -0.063859582
0.18094718 0.45554638 -0.050584316
-0.19775909 0.47209996 -0.06383419
-0.21800259 0.47440383 -0.051364541
-0.21729195 0.49213037 -0.057958841
-0.29299203 0.51096076 -0.058531046
-0.29286873 0.52971619 -0.059420586
-0.29286873 0.54864979 -0.059420586
-0.066748619 -0.53579909 -0.035974026
-0.066723496 -0.51656783 -0.03651762
-0.31367967 -0.38117108 -0.046585202
-0.31367967 -0.36213872 -0.046585202
-0.31393334 -0.34335998 -0.044850945
0.10505235 -0.34322834 -0.045750499
-0.23813388 -0.32477447 -0.041529536
-0.23845574 -0.30606791 -0.038741946
-0.23845276 -0.28697187 -0.038767815
-0.23845425 -0.26788086 -0.038754821
-0.23845425 -0.24878818 -0.03875494
-0.23845276 -0.22969422 -0.038767695
-0.23845276 -0.21060163 -0.038767695
0.27606285 -0.2096177 -0.049419165
-0.23845276 -0.19150914 -0.038767695
0.29599208 -0.19138445 -0.040239692
-0.23845425 -0.17241754 -0.038754821
-0.23845425 -0.15332483 -0.03875494
-0.23845276 -0.13423136 -0.038767695
0.33405921 -0.13408983 -0.041065335
-0.23845276 -0.11513876 -0.038767815
-0.23845276 -0.096046172 -0.038767695
0.35289288 -0.095849574 -0.043023944
-0.23845425 -0.076954082 -0.03875494
-0.23845574 -0.057861783 -0.038741946
-0.23845425 -0.038768731 -0.03875494
0.37129521 -0.038554072 -0.048048019
-0.23845276 -0.019675842 -0.038767815
-0.23845425 -0.00058345869 -0.038754821
-0.23845425 0.018509304 -0.038754821
-0.23845425 0.037601896 -0.038754821
0.39165416 0.037604772 -0.038393021
-0.23845425 0.056694657 -0.03875494
0.39122313 0.056652285 -0.041503668
-0.23845574 0.075787589 -0.038741827
0.39079142 0.075651892 -0.044619441
-0.23845574 0.094880395 -0.038741946
0.39100894 0.0947477 -0.043049693
-0.23845425 0.11397266 -0.038754821
0.3914412 0.11392736 -0.039929986
-0.23845425 0.13306537 -0.03875494
0.39187637 0.13315612 -0.036789417
-0.23845276 0.15215728 -0.038767815
-0.23845276 0.17124988 -0.038767695
-0.23845276 0.19034238 -0.038767695
-0.23845276 0.20943506 -0.038767695
0.37199989 0.20913516 -0.042663336
-0.23845425 0.22852875 -0.03875494
-0.23845574 0.24762261 -0.038741827
-0.23845425 0.26671398 -0.03875494
-0.23845276 0.28580531 -0.038767695
-0.23845425 0.30489942 -0.03875494
-0.23845425 0.32399207 -0.038754821
0.31442818 0.3230719 -0.046225667
-0.23845276 0.34308299 -0.038767695
-0.23845127 0.36217386 -0.038780808
-0.23845276 0.38126823 -0.038767695
-0.23845276 0.40036079 -0.038767815
-0.23845425 0.41945541 -0.038754821
-0.23845574 0.43855032 -0.038742065
-0.23845276 0.45763847 -0.038767695
-0.23844081 0.47671193 -0.038871169
-0.31472483 0.49569443 -0.039439321
-0.29485908 0.49461338 -0.045056462
-0.27584016 0.49465051 -0.044863701
-0.25702429 0.4950096 -0.042998075
-0.23725981 0.49383545 -0.049098969
-0.31367782 0.51334906 -0.046597958
-0.31367782 0.5323813 -0.046598077
-0.31390139 0.55174315 -0.045069337
-0.086490117 -0.59600955 -0.024330497
-0.067165188 -0.59536308 -0.026954889
-0.1057655 -0.57708353 -0.023166776
-0.086221598 -0.57561672 -0.029313564
-0.066972733 -0.57518524 -0.031121612
-0.1055282 -0.55698103 -0.027020097
-0.08603806 -0.55566478 -0.032719612
-0.066836007 -0.55535012 -0.034082055
-0.10537414 -0.53723955 -0.029521704
-0.085919939 -0.53603619 -0.034911752
-0.12503803 -0.5196318 -0.022302985
-0.10533086 -0.51792431 -0.030224323
-0.085885726 -0.51677716 -0.035546541
-0.12508428 -0.50055116 -0.021635175
-0.10538135 -0.49893644 -0.029404521
-0.085932516 -0.49784014 -0.034678459
-0.066759378 -0.49761948 -0.035740972
-0.10549205 -0.48013151 -0.027606964
-0.086030371 -0.47907969 -0.032862306
-0.066836007 -0.47883558 -0.034081936
-0.10571156 -0.46163884 -0.024042964
-0.086205475 -0.46056697 -0.029612899
-0.066962533 -0.46023411 -0.031342626
-0.086454205 -0.44225684 -0.024996877
-0.067152545 -0.44184434 -0.027228832
-0.06738852 -0.42356753 -0.022119641
-0.33478087 -0.38334331 -0.033147931
-0.33470893 -0.36413565 -0.033615112
-0.33470893 -0.34500325 -0.033615112
-0.33578658 -0.32684094 -0.026615739
-0.31619257 -0.32645452 -0.02940464
-0.29778531 -0.32721189 -0.023938417
-0.27832213 -0.32694045 -0.02589798
-0.25834146 -0.3260527 -0.032304049
0.14367655 -0.32615715 -0.031550646
-0.25911763 -0.30773509 -0.026002407
-0.25911441 -0.28854099 -0.026028514
0.20097384 -0.28756663 -0.033939481
-0.25911602 -0.26935181 -0.02601552
-0.25911602 -0.25016114 -0.02601552
-0.25911441 -0.23096907 -0.026028514
-0.25911441 -0.2117784 -0.026028514
-0.25911441 -0.19258776 -0.026028514
-0.25911602 -0.17339818 -0.02601552
0.31606996 -0.17301507 -0.030991554
-0.25911602 -0.15420744 -0.02601552
-0.25911441 -0.13501593 -0.026028514
-0.25911441 -0.11582527 -0.026028514
0.35529193 -0.11595907 -0.02354598
-0.25911441 -0.096634649 -0.026028514
-0.25911602 -0.077444412 -0.02601552
-0.25911763 -0.058254138 -0.026002407
0.37302616 -0.057982564 -0.034821033
-0.25911602 -0.039062969 -0.026015401
-0.25911441 -0.019871974 -0.026028514
-0.25911602 -0.00068143941 -0.02601552
0.3932879 -0.00067700073 -0.026602626
-0.25911602 0.018509261 -0.02601552
0.39208269 0.018509261 -0.035300493
-0.25911602 0.037700005 -0.02601552
-0.25911602 0.056890793 -0.02601552
-0.25911763 0.076081745 -0.026002407
-0.25911763 0.095272623 -0.026002407
-0.25911602 0.11446294 -0.02601552
-0.25911602 0.13365377 -0.02601552
-0.25911441 0.15284379 -0.026028514
0.39268515 0.15257847 -0.030952692
-0.25911441 0.17203437 -0.026028514
-0.25911441 0.19122508 -0.026028514
-0.25911441 0.21041569 -0.026028514
-0.25911602 0.22960749 -0.02601552
0.37420756 0.22962622 -0.025793552
-0.25911763 0.24879928 -0.026002407
-0.25911602 0.26798889 -0.02601552
0.3539575 0.26715177 -0.034380198
-0.25911441 0.28717825 -0.026028514
-0.25911602 0.30637041 -0.02601552
0.33558768 0.30616111 -0.027828574
-0.25911602 0.32556117 -0.02601552
-0.25911441 0.34475026 -0.026028514
-0.25911281 0.36393911 -0.026041627
-0.25911441 0.38313153 -0.026028514
0.27793217 0.38267002 -0.029183269
-0.25911441 0.40232199 -0.026028514
0.2588982 0.40207714 -0.027619958
-0.25911602 0.42151481 -0.02601552
0.23984331 0.42151481 -0.02601552
-0.25911602 0.44070569 -0.02601552
-0.25911602 0.45989639 -0.02601552
-0.25894409 0.47882921 -0.027411342
-0.33492279 0.49708262 -0.032226086
0.12441015 0.49647346 -0.035390973
-0.33470497 0.51594239 -0.0336411
0.08635217 0.51792103 -0.023755193
-0.33470696 0.5350771 -0.033627987
-0.06791281 -0.63796657 -0.010768652
-0.048631147 -0.63814646 -0.010081172
-0.10663163 -0.61908162 -0.0091025829
-0.086919002 -0.61723518 -0.016371489
-0.067473859 -0.6162442 -0.020272136
-0.048411816 -0.61738551 -0.015779376
-0.1260094 -0.59996283 -0.0082820654
-0.10610382 -0.59764951 -0.017673135
-0.04832124 -0.59753627 -0.018132806
-0.12559217 -0.57919842 -0.014304638
-0.14535093 -0.56135106 -0.0080966949
-0.12529144 -0.55891508 -0.018644929
-0.1450873 -0.54125792 -0.011521459
-0.12508973 -0.53901762 -0.021556616
-0.14502633 -0.5217849 -0.012313485
-0.14505887 -0.50257653 -0.011891007
-0.145188 -0.48361287 -0.010213494
-0.12520054 -0.48166254 -0.019957423
-0.12546626 -0.46316341 -0.016121507
-0.12580603 -0.44480249 -0.011217713
-0.10600758 -0.44332111 -0.019235849
-0.048494458 -0.44435635 -0.013632417
-0.10636321 -0.42510065 -0.013460994
-0.086768903 -0.42409217 -0.019157052
-0.048366763 -0.42448291 -0.01695013
-0.048502579 -0.40582001 -0.013421535
-0.35595793 -0.36615157 -0.020521164
0.067180231 -0.36637768 -0.019052029
-0.35595793 -0.3469184 -0.020521164
-0.35618269 -0.32787809 -0.019130707
-0.27992383 -0.30935043 -0.013658881
0.18276808 -0.30894035 -0.016792178
-0.27998942 -0.29012629 -0.013157845
-0.27999112 -0.27083811 -0.013144612
-0.27999112 -0.25154826 -0.013144493
-0.27998942 -0.23225707 -0.013157845
0.27993512 -0.23282328 -0.0075005293
-0.27998942 -0.21296741 -0.013157845
-0.27998942 -0.19367762 -0.013157845
-0.27999112 -0.174389 -0.013144493
-0.27999112 -0.15509914 -0.013144612
0.33685747 -0.15484372 -0.016831875
-0.27998942 -0.1358085 -0.013157725
-0.27998942 -0.1165188 -0.013157725
-0.27998942 -0.097229056 -0.013157725
-0.27999112 -0.077939823 -0.013144612
0.3751671 -0.077735186 -0.018461227
-0.27999285 -0.058650374 -0.01313138
-0.27999112 -0.039360255 -0.013144493
0.39593107 -0.039489873 -0.007527113
-0.27998942 -0.020070178 -0.013157606
0.39460355 -0.020009326 -0.017107844
-0.27999112 -0.0007805638 -0.013144612
-0.27999112 0.018509261 -0.013144612
-0.27999112 0.037799127 -0.013144493
-0.27999112 0.057088874 -0.013144493
-0.27999285 0.076379038 -0.01313138
-0.27999285 0.095668986 -0.013131499
-0.27999112 0.11495839 -0.013144493
-0.27999112 0.13424826 -0.013144612
-0.27998942 0.15353727 -0.013157845
-0.27998942 0.17282706 -0.013157725
0.39402705 0.17232755 -0.021268368
-0.27998942 0.1921168 -0.013157725
0.39537761 0.19223018 -0.011521339
-0.27998942 0.21140645 -0.013157845
-0.27999285 0.23069839 -0.01313138
-0.27999285 0.24998835 -0.01313138
0.37644377 0.25039721 -0.0087054968
-0.27998942 0.26927572 -0.013157845
-0.27998942 0.28856528 -0.013157845
0.35706601 0.28899816 -0.0091422796
-0.27999112 0.30785668 -0.013144612
-0.27999112 0.32714641 -0.013144612
-0.27998942 0.3464345 -0.013157845
0.31823382 0.34672821 -0.010913849
-0.27998766 0.36572239 -0.013170958
0.29791027 0.36462763 -0.021071792
-0.27998942 0.385014 -0.013157845
-0.27998942 0.4043037 -0.013157845
-0.27999285 0.42359766 -0.01313138
-0.27999112 0.44288534 -0.013144612
0.22164029 0.44312003 -0.011759043
-0.27999458 0.4621799 -0.013118148
-0.35684577 0.48111695 -0.015028954
-0.33695716 0.48038098 -0.01901269
-0.31838182 0.48122647 -0.014436245
-0.29939976 0.48162335 -0.012287021
-0.27932632 0.48052639 -0.018224835
0.16350269 0.48077655 -0.016871095
-0.35595793 0.49933529 -0.020521164
-0.35595369 0.51856309 -0.02054739
-0.35627824 0.53821307 -0.018539906
-0.068471447 -0.66053343 0.001326561
-0.049028657 -0.66024244 0.0002464056
-0.1073413 -0.6414187 0.0024210215
-0.087481298 -0.63923132 -0.0059363842
-0.12664092 -0.62160563 0.00083303452
-0.14626446 -0.60293174 0.0037702322
-0.14573395 -0.58186722 -0.0031212568
-0.16575468 -0.56428319 0.0045992136
-0.16544029 -0.54402792 0.00088632107
-0.16533983 -0.52437437 -0.00029993057
-0.16534775 -0.50500506 -0.00020682812
-0.16550016 -0.48597589 0.0015932322
-0.16582605 -0.46731329 0.0054421425
-0.14548966 -0.46505463 -0.0062946081
-0.14586911 -0.44662276 -0.0013654232
-0.14637151 -0.42839777 0.005161047
-0.12622982 -0.42658085 -0.0051006079
0.0090904608 -0.38936764 0.0041178465
-0.37773734 -0.36846641 -0.0054854155
-0.39913708 -0.35081187 0.0060981512
-0.37743422 -0.34885579 -0.0072754622
-0.39913943 -0.33137575 0.0061115026
-0.37743649 -0.32952264 -0.0072621107
-0.39914417 -0.31194121 0.0061383247
-0.37811521 -0.31071198 -0.0032542944
-0.35834354 -0.31038359 -0.0057641268
-0.33996946 -0.31121022 0.00055301189
-0.32076934 -0.31138486 0.0018869638
-0.30059984 -0.31066331 -0.003626585
-0.30108106 -0.29172799 -0.00015354156
-0.30108291 -0.27233967 -0.00014007092
0.24180648 -0.27229661 -0.00051319599
-0.30108291 -0.25294983 -0.00014007092
0.26072869 -0.25231794 -0.0060027838
-0.30108106 -0.23355854 -0.00015342236
-0.30108106 -0.21416864 -0.00015354156
0.29941297 -0.2136234 -0.0060558319
-0.30108106 -0.19477883 -0.00015354156
0.31978035 -0.19508274 0.0034360886
-0.30108106 -0.17538905 -0.00015354156
-0.30108291 -0.15600012 -0.00014007092
-0.30108106 -0.13660936 -0.00015342236
0.35831928 -0.13668244 0.0010330677
-0.30108106 -0.11721952 -0.00015354156
-0.30108106 -0.097829677 -0.00015354156
0.37733468 -0.097749203 -0.0018976927
-0.30108291 -0.078440391 -0.00014007092
-0.30108476 -0.059050933 -0.00012671947
0.39788774 -0.05925785 0.0065938234
-0.30108291 -0.039660506 -0.00014007092
-0.30108106 -0.020270327 -0.00015342236
-0.30108291 -0.00088070147 -0.00013995171
0.41718259 0.018509261 0.005589366
-0.30108291 0.018509347 -0.00014007092
-0.30108106 0.037899099 -0.00015354156
0.41671526 0.03791872 0.0023943186
-0.30108291 0.057289064 -0.00014007092
0.41624522 0.057278745 -0.00081956387
-0.30108476 0.076679409 -0.00012683868
0.41577443 0.076589078 -0.0040383339
-0.30108476 0.096069373 -0.00012671947
0.41605443 0.096007928 -0.0021239519
-0.30108291 0.11545891 -0.00013995171
0.41652593 0.1155067 0.0010997057
-0.30108291 0.13484888 -0.00014007092
0.41700062 0.13505605 0.0043451786
-0.30108106 0.15423808 -0.00015342236
-0.30108106 0.17362791 -0.00015342236
-0.30108106 0.19301772 -0.00015354156
-0.30108291 0.2124086 -0.00014007092
0.39697865 0.21242197 3.3259392e-05
-0.30108476 0.23179966 -0.00012671947
-0.30108476 0.25118971 -0.00012683868
-0.30108106 0.27057701 -0.00015342236
-0.30108106 0.28996685 -0.00015342236
-0.30108291 0.3093583 -0.00014007092
-0.30108291 0.32874808 -0.00014007092
0.33872485 0.32868424 -0.000659585
-0.30108106 0.34813637 -0.00015342236
-0.30107921 0.3675243 -0.00016665459
-0.30108106 0.38691598 -0.00015354156
-0.30108106 0.40630597 -0.00015330315
-0.30108476 0.42569995 -0.00012671947
-0.30108106 0.4450855 -0.00015330315
-0.37892264 0.46477035 0.0015133619
-0.35990211 0.46518895 0.0038770437
-0.30098507 0.46435264 -0.00084614754
-0.39913708 0.48502019 0.0060982704
-0.37751275 0.48263511 -0.0068114996
-0.3991347 0.50445545 0.0060847998
-0.37742975 0.50187933 -0.0073018074
-0.37742975 0.52121407 -0.0073019266
-0.069261171 -0.68467301 0.018424392
-0.049592674 -0.68369627 0.014899969
-0.030180916 -0.68454188 0.01795125
-0.10826442 -0.66486698 0.017410636
-0.029979154 -0.66324729 0.011398673
-0.088210665 -0.66222346 0.0075989962
-0.12752494 -0.64434266 0.013592601
-0.14702371 -0.62485737 0.013633013
-0.16693342 -0.60656494 0.018519044
-0.16624963 -0.58510447 0.010444403
-0.18660569 -0.56784469 0.020021081
-0.18623358 -0.54740036 0.015992761
-0.18606415 -0.52749085 0.014158607
-0.18603179 -0.507918 0.01380825
-0.18621117 -0.48880932 0.015749812
-0.18656197 -0.47002795 0.019547343
-0.16624624 -0.44879714 0.01040411
-0.42107728 -0.33325052 0.019641995
-0.42107728 -0.31370839 0.019642115
-0.42115733 -0.29421958 0.020075202
0.22364062 -0.29385474 0.017113447
-0.40042585 -0.29339457 0.01337719
-0.38100487 -0.29344761 0.013808131
-0.32232386 -0.29328838 0.012515426
-0.32239473 -0.27385697 0.013000011
-0.32239473 -0.25436595 0.013000131
-0.32239279 -0.2348735 0.01298666
-0.32239279 -0.21538259 0.01298666
-0.32239279 -0.1958915 0.012986541
-0.32239279 -0.17640053 0.01298666
0.34030527 -0.17640366 0.013027072
-0.32239473 -0.15691052 0.013000131
-0.32239279 -0.13741858 0.012986541
-0.32239279 -0.11792763 0.01298666
0.38008976 -0.11825997 0.019154787
-0.32239279 -0.098436557 0.01298666
-0.32239473 -0.078946158 0.013000131
-0.32239673 -0.059455507 0.013013721
-0.32239473 -0.039964005 0.013000131
-0.32239279 -0.020472718 0.01298666
-0.32239473 -0.00098172948 0.013000131
0.41850492 -0.00099437498 0.014630437
-0.32239473 0.01850922 0.013000131
-0.32239279 0.038000252 0.012986779
-0.32239473 0.057491452 0.013000011
-0.32239673 0.076982871 0.013013601
-0.32239673 0.096474074 0.013013601
-0.32239473 0.11596473 0.013000131
-0.32239473 0.1354558 0.013000011
-0.32239279 0.15494615 0.012986541
0.41797721 0.15484031 0.011022449
-0.32239279 0.17443709 0.01298666
-0.32239279 0.19392817 0.01298666
-0.32239473 0.21342009 0.013000131
-0.32239673 0.23291235 0.013013601
0.39939967 0.2332927 0.017505288
-0.32239673 0.25240356 0.013013601
-0.32239279 0.27189198 0.01298666
0.37887427 0.27157983 0.0098668337
-0.32239279 0.291383 0.012986422
-0.32239473 0.31087556 0.013000131
0.36030653 0.31135672 0.017167568
-0.32239473 0.33036655 0.013000011
-0.32239279 0.34985602 0.01298666
-0.32239079 0.3693451 0.012973189
-0.32239279 0.3888379 0.01298666
-0.32239279 0.40832895 0.01298666
-0.32239869 0.42782637 0.013027072
-0.40133387 0.4482455 0.018505692
-0.32239279 0.44731092 0.01298666
-0.42107478 0.46797773 0.019628406
-0.39935532 0.46580043 0.0073308945
-0.34167242 0.46655872 0.011614084
-0.32162243 0.46586934 0.007719636
0.20360628 0.46606171 0.0088061094
-0.42107227 0.48751745 0.019615054
-0.089222349 -0.68687588 0.026373386
-0.12869841 -0.6684019 0.030530214
-0.14811242 -0.6480549 0.027775645
-0.16786382 -0.6288898 0.029506922
-0.18726042 -0.58908111 0.027108312
-0.20738438 -0.53141123 0.032347202
-0.20728591 -0.5115667 0.031363368
-0.2075021 -0.49236664 0.03352356
-0.18702546 -0.45141336 0.024564862
0.12653555 -0.35483915 0.033632994
0.16560827 -0.33450797 0.028715968
-0.44324887 -0.31549633 0.033304572
-0.44324625 -0.29584727 0.033290982
-0.36295673 -0.29455179 0.022772551
-0.34315237 -0.29436135 0.021226645
-0.44334891 -0.27626163 0.033824563
-0.42254475 -0.2755411 0.02758491
-0.40368539 -0.27602634 0.031786799
-0.3439301 -0.27539021 0.026278019
-0.3439301 -0.25579691 0.026278138
-0.34392804 -0.23620227 0.026264429
-0.34392804 -0.21660906 0.026264548
-0.34392592 -0.19701478 0.026250958
-0.34392804 -0.17742267 0.026264429
-0.3439301 -0.15783048 0.026278138
0.36140689 -0.15781814 0.026101112
-0.34392804 -0.13823627 0.026264429
-0.34392804 -0.11864307 0.026264429
-0.34392804 -0.099049821 0.026264429
-0.3439301 -0.079457209 0.026278138
0.40022919 -0.079349965 0.023491859
-0.34393221 -0.059864387 0.026291847
-0.3439301 -0.040270641 0.026278019
0.42139044 -0.040457211 0.034358501
-0.34392804 -0.020677099 0.026264548
0.41994211 -0.020649357 0.024456263
-0.34392804 -0.0010839403 0.026264429
-0.34392804 0.01850922 0.026264548
-0.34392804 0.038102422 0.026264429
-0.3439301 0.057695918 0.026278138
-0.34393221 0.077289455 0.026291609
-0.3439301 0.096882448 0.026278138
-0.3439301 0.11647578 0.026278138
-0.3439301 0.13606906 0.026278138
-0.34392804 0.15566163 0.026264429
-0.34392804 0.17525487 0.026264429
0.41944197 0.17493293 0.021036983
-0.34392804 0.19484803 0.026264429
0.42091838 0.19518515 0.031131148
-0.3439301 0.21444221 0.026278019
-0.34393221 0.23403667 0.026291728
-0.3439301 0.25362888 0.026278019
-0.34392804 0.27322084 0.026264548
-0.34392804 0.2928139 0.026264429
-0.3439301 0.3124088 0.026278138
-0.34392804 0.33200026 0.026264429
-0.34392804 0.35159352 0.026264429
-0.34392592 0.3711848 0.026250839
0.32231247 0.37127912 0.026931405
-0.34392804 0.39077997 0.026264429
0.30231833 0.39029902 0.022976041
-0.3439301 0.41037533 0.026278138
0.28290349 0.41012183 0.024632812
-0.34393221 0.42997089 0.026291728
-0.42339683 0.43092537 0.032196879
0.26363283 0.43029431 0.02829349
-0.44324625 0.45074946 0.033290982
-0.42143017 0.44876149 0.021552086
-0.3828887 0.44933382 0.024931908
-0.36398366 0.45004389 0.029124975
-0.34362242 0.44922337 0.024279594
-0.44324887 0.47039926 0.033304572
-0.070366368 -0.71102124 0.042352676
-0.050400168 -0.70917749 0.035879254
-0.030713968 -0.70900184 0.035262585
-0.011298407 -0.71204704 0.04595387
-0.10954884 -0.69017196 0.038266897
-0.14961818 -0.67292994 0.04733634
-0.16923779 -0.65275484 0.045732737
-0.18816566 -0.61109471 0.036907792
-0.2090326 -0.59426171 0.048817158
-0.20817626 -0.57251871 0.040259838
-0.20767066 -0.55168992 0.035207748
-0.20787373 -0.47343224 0.037237167
-0.20840633 -0.4547379 0.042559385
0.20575964 -0.31686625 0.043772459
-0.46566036 -0.29754999 0.047115088
-0.46565762 -0.27779463 0.04710114
-0.38556385 -0.27705878 0.040727854
-0.36528394 -0.27664778 0.037168622
-0.46569362 -0.25806043 0.047281027
-0.44478342 -0.25741363 0.041278362
-0.42604059 -0.25797704 0.046506643
-0.36569253 -0.25724304 0.039696097
0.28446531 -0.25744173 0.041540027
-0.36569032 -0.2375451 0.039682388
0.30402458 -0.23757952 0.040026069
-0.36569032 -0.21784858 0.039682388
0.32359779 -0.21777241 0.038857698
-0.36568809 -0.19815093 0.03966856
0.34442198 -0.19891381 0.048678756
-0.36569032 -0.17845565 0.039682388
-0.36569253 -0.15876007 0.039696217
-0.36569032 -0.1390626 0.039682269
0.38341793 -0.1393646 0.044586658
-0.36569032 -0.11936606 0.039682269
-0.36569032 -0.099669635 0.039682269
0.4026041 -0.099713445 0.040631413
-0.36569253 -0.07997372 0.039696097
-0.36569476 -0.060277499 0.039709806
-0.36569253 -0.040580444 0.039696097
-0.36569032 -0.020883763 0.039682388
-0.36569032 -0.00118725 0.039682388
-0.36569032 0.01850922 0.039682388
0.44312277 0.018509261 0.047848225
-0.36569032 0.038205817 0.039682269
0.44261426 0.038243242 0.044545293
-0.36569253 0.057902411 0.039696097
0.44210285 0.057925925 0.041223407
-0.36569476 0.077599347 0.039709926
0.44159055 0.077557437 0.037896156
-0.36569253 0.097295649 0.039696097
0.44193968 0.097309984 0.040163755
-0.36569253 0.11699221 0.039696097
0.44245285 0.11713848 0.043496728
-0.36569253 0.13668887 0.039696097
0.44296944 0.13701937 0.046852469
-0.36569032 0.15638463 0.039682388
-0.36569032 0.17608105 0.039682388
-0.36569032 0.19577764 0.039682388
-0.36569253 0.21547517 0.039695978
0.42283592 0.21582516 0.044241667
-0.36569476 0.23517296 0.039709926
-0.36569253 0.25486833 0.039696217
0.40184879 0.25445116 0.03518033
-0.36569032 0.27456358 0.03968215
-0.36569032 0.29426011 0.039682388
0.38236457 0.29392111 0.036537647
-0.36569253 0.3139582 0.039696097
-0.36569032 0.33365297 0.039682388
0.3641195 0.33469298 0.048125029
-0.36569032 0.35334954 0.039682388
0.34312934 0.35306177 0.037484288
-0.36568809 0.37304413 0.039668679
-0.36569032 0.39274243 0.039682388
-0.46583483 0.41371748 0.047986627
-0.44547856 0.41324088 0.044890404
-0.36569253 0.41244105 0.039696097
-0.46565762 0.43333471 0.047101259
-0.44361776 0.43141437 0.035221457
-0.40524405 0.43228224 0.040590167
-0.38630152 0.43300858 0.045083642
-0.36557919 0.43202439 0.038994908
-0.46566316 0.45309308 0.047128797
-0.44450799 0.49125534 0.039847255
-0.090691932 -0.71423769 0.053645492
-0.13034612 -0.6946187 0.054312825
-0.18942195 -0.63422471 0.050507784
-0.21040776 -0.61741346 0.062558532
-0.23002714 -0.53741676 0.060209274
-0.22979996 -0.51712406 0.058101177
-0.23008436 -0.49781397 0.060740232
-0.48831573 -0.27940834 0.061075807
0.26563609 -0.27835456 0.051950693
-0.48831573 -0.25954711 0.061075687
-0.40780422 -0.25889778 0.055050254
-0.38740575 -0.25852633 0.051603556
-0.48831865 -0.23968735 0.061089516
-0.46678111 -0.23884913 0.052714467
-0.44762668 -0.23918325 0.056052446
-0.3876833 -0.23890206 0.053242564
-0.3876833 -0.21910121 0.053242326
-0.38768092 -0.19929919 0.053228498
-0.3876833 -0.1794994 0.053242445
0.36541185 -0.17991312 0.058617353
-0.38768563 -0.1596995 0.053256273
-0.3876833 -0.13989769 0.053242445
-0.3876833 -0.12009684 0.053242326
0.40575105 -0.12064118 0.06334269
-0.3876833 -0.10029592 0.053242445
-0.38768563 -0.080495596 0.053256273
-0.38768798 -0.06069506 0.053270221
0.4235923 -0.060576312 0.049412847
-0.38768563 -0.040893629 0.053256273
-0.3876833 -0.02109254 0.053242445
-0.3876833 -0.0012915749 0.053242326
0.44457257 -0.0013225731 0.057264686
-0.3876833 0.018509177 0.053242564
-0.3876833 0.038310185 0.053242326
-0.38768563 0.058111191 0.053256392
-0.38768798 0.077912495 0.053270221
-0.38768563 0.097713158 0.053256273
-0.38768563 0.11751416 0.053256273
-0.38768563 0.13731517 0.053256273
-0.3876833 0.15711537 0.053242445
0.44413951 0.15718058 0.054451942
-0.3876833 0.17691629 0.053242326
-0.3876833 0.19671704 0.053242445
-0.38768563 0.21651901 0.053256273
-0.38768798 0.23632117 0.053270221
0.42548022 0.23708756 0.062320709
-0.38768563 0.25612104 0.053256273
-0.3876833 0.27592048 0.053242326
0.40476599 0.2762199 0.056233525
-0.3876833 0.29572147 0.053242445
-0.38768563 0.31552389 0.053256392
-0.3876833 0.33532318 0.053242326
-0.38768092 0.35512221 0.053228498
-0.3876833 0.37492496 0.053242445
-0.48835936 0.39590216 0.061285496
-0.46732935 0.3950493 0.055453897
-0.44883299 0.39605361 0.06232059
-0.3876833 0.39472583 0.053242326
-0.48831573 0.4157328 0.061075687
-0.42751363 0.41471723 0.054479718
-0.40848771 0.41539934 0.058910608
-0.38760093 0.41445187 0.05275619
-0.48831865 0.43559608 0.061089754
0.24564871 0.45347744 0.049399018
0.18705076 0.4954747 0.062684417
-0.051749177 -0.73909712 0.07092762
-0.031636 -0.7374236 0.065206528
-0.011766687 -0.73772323 0.066230893
-0.11149343 -0.71885139 0.069843411
-0.15183631 -0.7006706 0.076150656
-0.17127466 -0.67897874 0.069787145
-0.19147497 -0.65982139 0.07273221
-0.23094869 -0.55918014 0.068760037
-0.23071849 -0.47908774 0.066623926
0.24725938 -0.3004083 0.070322037
-0.51130426 -0.26111087 0.075584888
-0.511222 -0.24109975 0.0752033
-0.42993379 -0.24033678 0.067579031
-0.40966955 -0.24013725 0.065585494
-0.511222 -0.22112988 0.0752033
-0.48894122 -0.22010285 0.064085126
-0.4693909 -0.22025694 0.065753698
-0.40991059 -0.22036713 0.066946983
-0.51133478 -0.20120423 0.07572639
-0.49069157 -0.20093159 0.072506309
-0.40990815 -0.20045961 0.066933036
-0.40991059 -0.18055445 0.066947103
-0.40991059 -0.16064803 0.066946983
0.38681531 -0.16089745 0.070547342
-0.40991059 -0.14074172 0.066946983
-0.40991059 -0.12083528 0.066946983
-0.40991059 -0.1009289 0.066946983
-0.40991557 -0.081023648 0.066974998
0.42614865 -0.081020392 0.066890836
-0.40991557 -0.061117053 0.066975117
-0.40991309 -0.041210115 0.06696105
0.44771338 -0.041457415 0.077665091
-0.40991059 -0.021303473 0.066946983
0.4461346 -0.021310577 0.067410469
-0.40991059 -0.0013971273 0.066946983
-0.40991059 0.018509347 0.066946983
-0.40991059 0.038415607 0.066946983
-0.40991309 0.058322251 0.06696105
-0.40991557 0.078229062 0.066974998
-0.40991309 0.098135158 0.06696105
-0.40991309 0.11804163 0.06696105
-0.40991309 0.13794819 0.06696105
-0.40991059 0.15785393 0.066946983
-0.40991059 0.17776015 0.066946983
0.44573486 0.17762876 0.064813972
-0.40991059 0.1976665 0.066946983
0.44734091 0.19824149 0.075245738
-0.40991309 0.21757403 0.06696105
-0.40991557 0.23748164 0.066975236
-0.40991309 0.25738701 0.06696105
-0.40991059 0.2772921 0.066947103
-0.40991059 0.29719839 0.066946983
-0.40991309 0.3171064 0.06696105
0.38593477 0.31674352 0.063818932
-0.40991059 0.3370111 0.066947103
-0.51144147 0.3581312 0.076221347
-0.49124625 0.35799435 0.075175047
-0.40990815 0.35691571 0.066932917
-0.511222 0.37796792 0.0752033
-0.48925892 0.3766391 0.065613508
-0.47016999 0.37719786 0.069646358
-0.40991059 0.37682396 0.066947103
0.3476693 0.37818927 0.076801419
-0.511222 0.39793783 0.0752033
-0.43054202 0.39730433 0.070871353
-0.40981367 0.39665028 0.066399336
0.32774961 0.39825642 0.07738173
-0.511222 0.41790786 0.0752033
0.14759275 0.51679367 0.070195317
-0.072227396 -0.74252474 0.082645059
0.00795573 -0.74111366 0.077820897
-0.2128568 -0.64350295 0.087030888
0.30911735 -0.26276314 0.090916395
0.32904336 -0.24251905 0.089386344
-0.53437418 -0.22244664 0.08945787
-0.45185143 -0.22138867 0.078004956
-0.43185472 -0.22138606 0.077976584
0.34893614 -0.22229096 0.087772727
-0.53437418 -0.20236699 0.08945787
-0.47307059 -0.20191658 0.084138513
-0.45405552 -0.20236699 0.08945787
-0.43237343 -0.20163248 0.080784202
-0.53437734 -0.18228841 0.089472175
-0.51245856 -0.18163158 0.080940247
-0.49364814 -0.18207742 0.086731315
-0.43237606 -0.18162076 0.080798388
-0.53454328 -0.16226017 0.090215445
-0.5142206 -0.1621839 0.089114904
-0.43237606 -0.16160767 0.080798507
-0.43237606 -0.14159468 0.080798388
0.40940139 -0.14214215 0.089686513
-0.43237606 -0.12158167 0.080798388
-0.43237606 -0.10156868 0.080798388
0.42874211 -0.10174531 0.084622383
-0.4323813 -0.081556901 0.080826759
-0.4323813 -0.061543524 0.080826759
-0.43237868 -0.041530028 0.080812573
-0.43237606 -0.021516731 0.080798388
-0.43237606 -0.0015037339 0.080798268
0.46994388 0.018509261 0.091531515
-0.43237606 0.018509304 0.080798268
-0.43237606 0.038522303 0.080798268
0.46939164 0.038578585 0.088115215
-0.43237868 0.058535509 0.080812454
0.46883851 0.058595262 0.084693551
-0.4323813 0.078548886 0.080826759
0.46828225 0.078558743 0.081252694
-0.43237868 0.098561719 0.080812573
0.46871194 0.098657034 0.083910942
-0.43237868 0.11857472 0.080812573
0.46926707 0.11882624 0.087344766
-0.43237868 0.13858788 0.080812573
0.46982825 0.13905001 0.09081614
-0.43237606 0.15860024 0.080798507
-0.43237606 0.17861323 0.080798507
-0.43237606 0.19862626 0.080798388
-0.43237868 0.21864028 0.080812573
0.44961703 0.21934983 0.090029597
-0.4323813 0.23865455 0.080826759
-0.43237868 0.2586664 0.080812573
0.42815998 0.25865084 0.080642223
-0.43237606 0.27867818 0.080798507
-0.43237606 0.29869118 0.080798388
0.40860108 0.29902655 0.083910942
-0.53463584 0.31983948 0.090630054
-0.51463658 0.31988743 0.091045022
-0.43237606 0.31870416 0.080798388
-0.53437734 0.33978558 0.089472175
-0.51278925 0.33892366 0.082474709
-0.49448529 0.33994406 0.090758801
-0.43237606 0.33871725 0.080798388
-0.43237343 0.35872835 0.080784321
-0.53437418 0.35986343 0.08945787
-0.4737865 0.35963538 0.087715626
-0.45435825 0.36006922 0.091030836
0.36900285 0.35964283 0.087772727
-0.53437418 0.37994304 0.08945787
-0.4524956 0.37881988 0.081352234
-0.43212441 0.37855452 0.079436421
0.30793589 0.4185093 0.079110265
0.2890754 0.44050345 0.091445684
0.22818473 0.47914514 0.082701921
-0.093249775 -0.74792707 0.10111308
-0.13311332 -0.72580403 0.094253778
0.0077314153 -0.72527343 0.092390537
0.18862915 -0.3432734 0.091975212
0.36996546 -0.20288612 0.095588326
-0.55779213 -0.18340008 0.10391319
-0.47587135 -0.18295503 0.098132014
-0.45500615 -0.18266751 0.094397306
0.39143914 -0.18355151 0.10587978
-0.55779213 -0.16320913 0.10391331
-0.49700025 -0.16313609 0.1028589
-0.45508346 -0.16257769 0.094799042
-0.55778885 -0.14301729 0.10389888
-0.5355345 -0.1424481 0.094655514
-0.51684403 -0.14285639 0.10128617
-0.45508346 -0.14245693 0.094798923
-0.55782557 -0.12283502 0.10405767
-0.5370695 -0.12269893 0.10153127
-0.45508346 -0.1223361 0.094798803
-0.45508346 -0.10221535 0.094798923
-0.455089 -0.082095698 0.094827652
-0.455089 -0.061974697 0.094827652
0.45018128 -0.061939813 0.093694568
-0.45508626 -0.041853361 0.094813228
-0.45508346 -0.021732276 0.094798803
-0.45508346 -0.0016115271 0.094798923
0.47153017 -0.0016619358 0.10134387
-0.45508346 0.018509261 0.094799042
-0.45508346 0.038630053 0.094799042
-0.45508626 0.058751091 0.094813228
-0.455089 0.078872308 0.094827652
-0.45508626 0.098992802 0.094813228
-0.45508626 0.11911372 0.094813228
-0.45508346 0.13923396 0.094799042
-0.45508346 0.15935475 0.094799042
0.47121334 0.1596017 0.099384189
-0.45508346 0.17947553 0.094799042
-0.45508346 0.19959629 0.094798923
-0.455089 0.21971919 0.094827652
-0.455089 0.23984013 0.094827771
-0.45508626 0.25995988 0.094813347
-0.55788559 0.28103185 0.10431778
-0.53735936 0.28088292 0.10283005
-0.45508072 0.28007787 0.094784617
0.43162706 0.28103483 0.10434687
-0.55778885 0.30118069 0.10389888
-0.53584212 0.30033314 0.096033454
-0.51744139 0.30119798 0.10405791
-0.45508346 0.30020013 0.094798923
-0.55779213 0.32137322 0.10391331
-0.4974387 0.32149515 0.10496831
-0.45508346 0.32032081 0.094799042
-0.55779213 0.34156421 0.10391343
-0.4762834 0.34110573 0.10019088
-0.45508346 0.34044164 0.094799042
0.39051747 0.34093899 0.098837256
-0.033135571 -0.77193725 0.11390626
-0.01271845 -0.76999694 0.10744333
0.0074786805 -0.77040607 0.10880601
0.027628154 -0.77349216 0.11908519
0.027709514 -0.75009274 0.1085161
-0.17551598 -0.71278775 0.11987472
0.22992399 -0.32524604 0.10780573
0.29047963 -0.28467041 0.1066469
-0.4774684 -0.16336142 0.10611129
0.41312495 -0.1640853 0.11655891
-0.58147115 -0.14391838 0.1185298
-0.49918446 -0.14360045 0.11336792
-0.47803673 -0.14332841 0.10895109
-0.58146769 -0.12361408 0.11851513
-0.51989394 -0.12344825 0.11543596
-0.50059158 -0.12370162 0.12013793
-0.47803387 -0.12309801 0.10893667
0.43232381 -0.12310731 0.10911059
-0.58146417 -0.10331015 0.11850059
-0.55833989 -0.1027459 0.10628498
-0.53891701 -0.10290854 0.10980713
-0.47803673 -0.10286908 0.10895109
-0.58146769 -0.083007477 0.11851513
-0.55938131 -0.082710274 0.11079443
-0.47804257 -0.082640454 0.10898018
0.45296839 -0.082748882 0.11179709
-0.58147115 -0.062704593 0.1185298
-0.56040949 -0.062603399 0.11524653
-0.47804257 -0.062410563 0.10898018
-0.5816769 -0.042420954 0.11939204
-0.47803965 -0.04218021 0.10896552
-0.47803673 -0.021950142 0.10895121
0.47322941 -0.021994801 0.11185527
-0.47803673 -0.0017205048 0.10895121
-0.47803673 0.018509304 0.10895109
-0.47803673 0.038738988 0.10895121
-0.47803965 0.058968879 0.10896564
-0.47804257 0.079199113 0.10898018
-0.47803965 0.099428669 0.10896552
-0.47803965 0.11965835 0.10896564
-0.47803673 0.13988756 0.10895109
-0.47803673 0.16011724 0.10895121
-0.47803673 0.18034701 0.10895109
0.4729476 0.18041839 0.11011195
-0.58171183 0.20131022 0.11953831
-0.47803673 0.20057674 0.10895121
-0.58146769 0.22154257 0.11851513
-0.56059462 0.22135277 0.11604857
-0.47804257 0.2208087 0.10898018
-0.58146769 0.24184608 0.11851513
-0.55953228 0.24124762 0.11144817
-0.47804257 0.24103859 0.10898018
0.45250118 0.24102019 0.1087625
-0.58146417 0.26214805 0.11850059
-0.55849034 0.26107976 0.10693657
-0.53925091 0.26148307 0.11130285
-0.47803965 0.26126719 0.10896552
-0.58146417 0.28245127 0.11850059
-0.52020204 0.2822876 0.1168654
-0.47803387 0.28149411 0.10893667
-0.47803673 0.30172524 0.10895121
-0.58147115 0.30275762 0.11852968
-0.49945989 0.30234414 0.11469293
-0.47762772 0.32171902 0.10690761
0.41252351 0.32233223 0.11221874
-0.55856395 0.36219248 0.10725522
0.27087373 0.46438509 0.11380458
-0.05400718 -0.77664655 0.12959206
-0.11524472 -0.75659871 0.13075674
0.1496577 -0.36803368 0.12384415
0.27188918 -0.30724102 0.12579668
-0.52178532 -0.10357381 0.12421083
-0.50115162 -0.10351022 0.12283218
0.45579433 -0.10384826 0.13015223
-0.60540825 -0.083575748 0.13328063
-0.54137677 -0.083096281 0.12082553
-0.52321845 -0.083482631 0.13085985
-0.50124604 -0.083191052 0.1232866
-0.60541189 -0.063159235 0.1332953
-0.54332066 -0.063043363 0.12953317
-0.50124604 -0.062851034 0.12328672
-0.60541552 -0.042742468 0.1333102
-0.56166071 -0.042450383 0.12066472
-0.501243 -0.042510606 0.12327206
0.47494233 -0.042491704 0.12245131
-0.60541189 -0.022324903 0.1332953
-0.58210284 -0.022138411 0.12117684
-0.5629918 -0.022219224 0.12642825
-0.50123996 -0.022170382 0.12325728
-0.60540825 -0.0019077156 0.13328063
-0.58248734 -0.0018269867 0.12278819
-0.56407994 -0.0018912219 0.13113999
-0.50123996 -0.0018306226 0.12325752
-0.60540462 0.018509261 0.13326573
-0.58305806 0.018509304 0.12517953
-0.50123996 0.018509304 0.12325752
-0.60540462 0.038926195 0.13326585
-0.58337009 0.038873971 0.12648714
-0.50123996 0.038849104 0.1232574
0.49709746 0.03892573 0.13320673
-0.60540462 0.059343085 0.13326597
-0.58356303 0.059251115 0.12729585
-0.501243 0.059189118 0.12327206
0.49649784 0.059287645 0.12966585
-0.60540462 0.079759941 0.13326597
-0.58377367 0.079642504 0.1281786
-0.50124604 0.079529591 0.12328672
0.49589476 0.079594545 0.12610495
-0.60540098 0.10017641 0.13325119
-0.58358765 0.099996135 0.12739873
-0.501243 0.099869229 0.12327206
0.49641299 0.10005056 0.12916493
-0.60540098 0.12059309 0.13325107
-0.5833981 0.12033737 0.12660468
-0.501243 0.12020911 0.12327206
0.49701494 0.12057279 0.13271928
-0.60540462 0.14101061 0.13326573
-0.58313864 0.14065269 0.12551737
-0.50123996 0.14054827 0.12325752
-0.60540462 0.16142757 0.13326597
-0.58257133 0.16088191 0.12314022
-0.56421959 0.16134559 0.1317451
-0.50123996 0.16088821 0.1232574
-0.60540825 0.18184532 0.13328052
-0.58216226 0.18111524 0.12142575
-0.56311059 0.18145506 0.12694299
-0.50123996 0.18122809 0.1232574
-0.60541552 0.20226432 0.13331008
-0.56188047 0.20145421 0.12161624
-0.501243 0.20156895 0.12327206
0.47469607 0.20140651 0.12092793
-0.60541189 0.22268042 0.1332953
-0.54350823 0.22245553 0.13037324
-0.50124604 0.22191001 0.12328684
-0.60540825 0.24309625 0.13328063
-0.54174948 0.242183 0.12249517
-0.52336472 0.24294883 0.13153839
-0.50124604 0.24225014 0.12328672
-0.52200049 0.26276773 0.12520897
-0.50119424 0.26256713 0.12303758
0.45542479 0.26300257 0.12775183
-0.50071019 0.28267226 0.12070858
0.43582869 0.30432501 0.13307393
0.37450063 0.38589457 0.13240921
0.35429335 0.40656215 0.13416731
0.047935881 -0.78035718 0.14195168
0.33492658 -0.26848137 0.14397562
0.3550446 -0.24765161 0.14067352
0.3753137 -0.22702412 0.13901067
0.39645967 -0.2070061 0.14424384
0.43631327 -0.14501812 0.13638675
-0.52407163 -0.063206092 0.13481808
0.47770566 -0.063351646 0.13954484
-0.54480439 -0.042808697 0.13617945
-0.52454066 -0.042827427 0.136994
-0.54590714 -0.022445383 0.14111924
-0.52469718 -0.022393027 0.13772023
-0.54655147 -0.0019903034 0.14400566
-0.52469718 -0.0019419249 0.13772035
0.49942884 -0.0020131394 0.14697278
-0.54709065 0.018509261 0.1464206
-0.52469718 0.01850922 0.13772023
0.49769622 0.01850922 0.13674235
-0.6297285 0.018509304 0.14864564
-0.56522661 0.018509304 0.13610542
-0.62966394 0.039042573 0.1483916
-0.56588727 0.038970049 0.13896608
-0.5474239 0.039038934 0.14791358
-0.52469718 0.038960494 0.13772023
-0.62961459 0.059572928 0.14819729
-0.56626785 0.05945617 0.14061415
-0.54756063 0.059577912 0.14852619
-0.5247004 0.059411891 0.13773501
-0.62962222 0.080105521 0.14822733
-0.5666489 0.079967782 0.14226413
-0.52470356 0.079863459 0.13774991
-0.62961841 0.10063701 0.14821231
-0.56630903 0.10040861 0.14079225
-0.54757071 0.10064805 0.14857078
-0.5247004 0.10031452 0.13773513
-0.62965262 0.12117413 0.14834678
-0.56592834 0.12082005 0.13914394
-0.54744059 0.12116039 0.1479882
-0.5247004 0.1207658 0.13773501
-0.62972093 0.14171961 0.14861584
-0.56535655 0.14116772 0.13666809
-0.5471406 0.14162861 0.14664435
-0.52469718 0.14121638 0.13772035
0.49762601 0.14115193 0.13632762
-0.54660469 0.16201898 0.14424384
-0.52469718 0.16166753 0.13772023
0.49925193 0.16210987 0.14592826
-0.54598016 0.18234813 0.14144623
-0.52469718 0.18211876 0.13772035
-0.54495978 0.20251137 0.13687563
-0.52456939 0.20252876 0.1371274
-0.52413219 0.22281942 0.13509917
0.47736996 0.22300164 0.13746822
0.39591467 0.36648807 0.14007938
0.33406562 0.427266 0.13598704
-0.075834058 -0.78599536 0.16073167
0.047935881 -0.76568025 0.16180265
0.4184387 -0.18732566 0.1549077
0.4598532 -0.12566178 0.15651536
0.48073602 -0.084538355 0.15829062
0.50127167 -0.022703042 0.15785408
-0.5476808 0.080124758 0.14906418
0.5011341 0.18330862 0.15704167
0.48050982 0.24509564 0.15689123
0.4595086 0.28603142 0.15427721
0.41798151 0.34743872 0.15160823
0.3158116 0.4512316 0.1578089
0.068648607 -0.78928691 0.17169547
0.25532562 -0.33405328 0.17510569
0.31640172 -0.29125896 0.16370583
0.44059667 -0.16748793 0.1656723
0.5031296 -0.043562606 0.16882455
0.52512938 0.060004346 0.17621875
0.52447659 0.080666766 0.17253196
0.52509701 0.10149377 0.17603588
0.50302941 0.20468393 0.16823292
0.48369348 0.26751366 0.1765852
0.4402383 0.32822177 0.16322243
0.25484213 0.49439365 0.16882455
0.21362546 0.51557809 0.1714977
0.21432027 -0.35585567 0.18277991
0.46420869 -0.14799991 0.18480504
0.4838095 -0.10602602 0.17730248
0.50621331 -0.064813934 0.18703318
0.52642679 0.018509261 0.18354654
0.52577853 0.039285056 0.17988539
0.52574879 0.12238158 0.17971718
0.52640784 0.14332801 0.18343925
0.5061534 0.22679007 0.18667948
0.46410233 0.30982575 0.1841141
0.29822972 0.47738135 0.19054413
0.29835653 -0.31538489 0.19191706
0.36220708 -0.27481055 0.2027024
0.38208503 -0.25298694 0.19398701
0.402751 -0.23194847 0.19231844
0.42395869 -0.21128254 0.19474471
0.52831364 -0.0023766905 0.1942035
0.52830273 0.16470779 0.19414151
0.42393082 0.37361544 0.1945436
0.40266213 0.39410186 0.1916393
0.38202602 0.4152413 0.19350767
0.36230054 0.43766209 0.2035116
0.089907572 -0.79993874 0.2071749
0.068940483 -0.77966565 0.20961189
0.44646609 -0.19124353 0.20580196
0.46916494 -0.17104383 0.21699679
0.48839396 -0.12831004 0.20566165
0.50950289 -0.086392358 0.20645702
0.53232425 -0.044671871 0.21685541
0.530312 -0.023436492 0.20549023
0.53034508 0.18630381 0.20567727
0.53239942 0.20808196 0.21728003
0.50956631 0.24932447 0.20683157
0.48847461 0.2912237 0.20616066
0.46941683 0.33461997 0.21863282
0.44657329 0.35420397 0.2065351
0.026820555 -0.82610375 0.22399509
0.047935881 -0.82507342 0.22064912
0.34347722 -0.29814222 0.22331583
0.51296061 -0.10831564 0.22687411
0.55618823 0.018509261 0.23203027
0.55548441 0.039657019 0.22822082
0.55478549 0.060746759 0.22443771
0.55411172 0.081781231 0.2207911
0.55481178 0.10298853 0.22457993
0.55551666 0.12425529 0.22839522
0.55623519 0.14558403 0.23228467
0.51325047 0.27231717 0.22858548
0.34396997 0.4625605 0.22788787
0.11171839 -0.81066328 0.24289739
0.090425014 -0.78878444 0.24078429
0.2820631 -0.34332374 0.24594474
0.43130919 -0.23707294 0.24779248
0.45252073 -0.21572402 0.24719763
0.49313769 -0.1510914 0.23500574
0.53575796 -0.06632933 0.23624885
0.55824327 -0.0027535632 0.24315369
0.55842692 0.16740248 0.24414754
0.53602344 0.23072131 0.23774838
0.49348816 0.31554413 0.23717391
0.026619773 -0.7701866 0.25007713
0.41023171 -0.25854048 0.24948156
0.47558361 -0.19531466 0.2586875
0.51800561 -0.13105844 0.25666344
0.53932375 -0.088314183 0.25638843
0.56040168 -0.024196325 0.25483608
0.56063461 0.18940888 0.2560972
0.53972793 0.25371408 0.25867128
0.51858455 0.29661986 0.26008177
0.45317522 0.38109192 0.25167251
0.43211287 0.40268633 0.25359237
0.41102555 0.42431539 0.2555474
0.11226957 -0.79638422 0.26676452
0.047935881 -0.77687085 0.27354503
0.32640728 -0.3242248 0.26368749
0.39071798 -0.28142512 0.2640779
0.49884418 -0.17473716 0.27030575
0.5625934 -0.045822911 0.26669919
0.585522 0.061516114 0.27441323
0.5848605 0.082940273 0.27097595
0.58561981 0.10453874 0.27492142
0.56308466 0.21169013 0.26935852
0.47636592 0.36125329 0.26376867
0.39216468 0.4487952 0.27582324
0.13442817 -0.80316746 0.28995335
0.24213567 -0.3698903 0.28406632
0.37178141 -0.30533633 0.28561842
0.52316409 -0.15430103 0.28712261
0.54326773 -0.11070775 0.27866423
0.56639415 -0.067900464 0.28727138
0.58703381 0.018509304 0.28226876
0.58627683 0.0400429 0.27833557
0.5863781 0.12619768 0.27886152
0.58731312 0.14795983 0.2837199
0.54410744 0.27738145 0.2834065
0.49982899 0.34128997 0.27639771
0.32844505 0.49321696 0.28404987
0.28503436 0.51426065 0.2810334
0.13480176 -0.82843304 0.302086
0.069578871 -0.78228134 0.29254091
0.091390193 -0.78539544 0.30347395
0.48251247 -0.22050792 0.30369163
0.58926958 -0.0031440966 0.2938863
0.5896793 0.17019737 0.2960149
0.56703973 0.23480256 0.29076564
0.52405077 0.32149142 0.2923584
0.15708864 -0.81105173 0.31690586
0.11344627 -0.7894522 0.31771672
0.43955395 -0.26432604 0.30729389
0.46105304 -0.24240682 0.30553353
0.50585383 -0.19954695 0.31366658
0.54874408 -0.13391061 0.30959415
0.57025766 -0.09030778 0.30818343
0.59408033 -0.047028042 0.31888342
0.59160465 -0.024984283 0.30601954
0.59206957 0.19263196 0.30843508
0.57105595 0.25827262 0.31250417
0.54991305 0.30223539 0.31619656
0.4844715 0.38956442 0.31641603
0.46293885 0.41166997 0.31842673
0.3743327 0.47546488 0.30771351
0.13561004 -0.79247683 0.32833624
0.42054442 -0.28834477 0.32828498
0.52970302 -0.17857727 0.3257333
0.57474017 -0.11319185 0.33244562
0.61821359 0.040442988 0.33031261
0.61739916 0.06231413 0.32624328
0.61676013 0.084142819 0.3230505
0.61757618 0.10614624 0.32712758
0.61839795 0.12821347 0.33123362
0.59499329 0.21545002 0.32362735
0.50743937 0.36860716 0.32347453
0.44209722 0.43456843 0.32564831
0.15803821 -0.79624808 0.3415767
0.35598183 -0.33354327 0.33934402
0.55434579 -0.15763335 0.3412329
0.59818971 -0.069531269 0.34023666
0.62146044 -0.0035493858 0.34653473
0.61903042 0.018509261 0.33439374
0.61957169 0.1504252 0.337098
0.59927565 0.23904508 0.34587944
0.57622397 0.2826533 0.34047711
0.53154939 0.34824571 0.33663535
0.1808902 -0.80137587 0.35957956
0.31299043 -0.3569847 0.35033369
0.4023158 -0.31372195 0.35824025
0.62398082 -0.025801843 0.35912728
0.62213081 0.1731002 0.34988403
0.55588365 0.32769486 0.34991872
0.42369023 0.46057323 0.35232365
0.047935881 -0.78208208 0.36991942
0.070145831 -0.78104872 0.36619043
0.092357658 -0.78108275 0.36631286
0.11464454 -0.78199482 0.36960375
0.13700126 -0.78307909 0.3735168
0.47080889 -0.27082497 0.37223482
0.49206483 -0.24796814 0.36573613
0.51396912 -0.22560345 0.36386716
0.53734648 -0.20395009 0.37086582
0.58068085 -0.13687463 0.36460018
0.60236478 -0.092376605 0.36193085
0.62676591 -0.048278764 0.37304246
0.62470949 0.19597797 0.36276782
0.60362566 0.2630128 0.36848259
0.58252954 0.30808085 0.37460685
0.025631189 -0.78445965 0.37849832
0.15943356 -0.78427398 0.37782836
0.18213317 -0.78667444 0.38649011
0.56181628 -0.18257444 0.38342631
0.60744631 -0.11577321 0.38833523
0.65224034 0.018509261 0.38849497
0.65135604 0.040858217 0.38424003
0.65047789 0.063141964 0.38001549
0.64986956 0.085390747 0.37708831
0.6507532 0.10781557 0.38133991
0.65163577 0.13030556 0.38558614
0.62816513 0.21935774 0.38003325
0.53987253 0.37628135 0.38578105
0.51726836 0.39844501 0.38427556
0.49524376 0.42108637 0.38638389
0.20523465 -0.79045576 0.40013492
0.0030280687 -0.78983134 0.39788163
0.4517796 -0.29559147 0.39552498
0.586757 -0.16109781 0.39748859
0.6312086 -0.071224913 0.39523935
0.65487921 -0.0039701965 0.40119135
0.6530866 0.15298715 0.39256644
0.63280159 0.2434576 0.4031986
0.60967243 0.28814283 0.39990222
0.56466699 0.35550776 0.3995266
0.36250639 0.51283431 0.39988434
0.13835362 -0.77264583 0.41743565
0.16096152 -0.77267027 0.41752636
0.63572001 -0.09452612 0.41777992
0.65759385 -0.026650609 0.4142518
0.65584487 0.17611536 0.40583718
0.58970052 0.33453867 0.4134208
0.47556078 0.44613421 0.40472376
0.40864354 0.49193814 0.40961516
0.070645779 -0.77633715 0.43113601
0.093232468 -0.77418095 0.42313325
0.11578348 -0.7730462 0.41892135
0.18363863 -0.77309012 0.41908479
0.20655724 -0.77459759 0.42467952
0.38722205 -0.34339613 0.41933846
0.52442741 -0.25377166 0.42856073
0.54679322 -0.23091942 0.42664599
0.57013732 -0.2085349 0.43042326
0.61388087 -0.13995533 0.42177022
0.6607272 -0.049578704 0.42932725
0.65863222 0.1994563 0.41924775
0.63750553 0.26794252 0.42670071
0.047935881 -0.78018725 0.44542575
