ply
format ascii 1.0
comment PCL generated
element vertex 1353
property float x
property float y
property float z
element camera 0
property float view_px
property float view_py
property float view_pz
property float x_axisx
property float x_axisy
property float x_axisz
property float y_axisx
property float y_axisy
property float y_axisz
property float z_axisx
property float z_axisy
property float z_axisz
property float focal
property float scalex
property float scaley
property float centerx
property float centery
property int viewportx
property int viewporty
property float k1
property float k2
end_header
-0.069027565 0.27347475 -0.63129985
-0.050167251 0.27339298 -0.63306886
-0.031334214 0.27331147 -0.63483554
-0.069111854 0.29244167 -0.62856257
-0.050226741 0.29233766 -0.63049299
-0.0313714 0.29223388 -0.63242024
-0.031434994 0.31129903 -0.62828952
-0.069631055 -0.0291453 -0.61170101
-0.050597373 -0.028934211 -0.61444414
-0.031606179 -0.028724298 -0.61717057
-0.012657911 -0.028523818 -0.6197747
0.0062502692 -0.028523818 -0.6197747
0.025168223 -0.028621629 -0.61850512
0.044128105 -0.028831258 -0.61578161
0.063130058 -0.02904132 -0.61305213
0.0062502692 -0.010245755 -0.61067873
-0.20200512 0.19842255 -0.61664063
-0.1829537 0.19839878 -0.61818761
-0.16392629 0.19837499 -0.6197325
-0.14492211 0.19835109 -0.62128609
-0.12594251 0.19832739 -0.62282717
-0.10698674 0.19830373 -0.62436616
-0.088054739 0.19828004 -0.62590343
-0.069146141 0.19825613 -0.62744915
-0.012682851 0.19842429 -0.61653471
-0.20171285 0.2172752 -0.62009209
-0.18268836 0.21723953 -0.62163454
-0.16368704 0.21720374 -0.62318563
-0.14470971 0.21716796 -0.62473488
-0.1257569 0.21713242 -0.62627155
-0.20164037 0.23615454 -0.62094796
-0.18260387 0.23609963 -0.62273228
-0.16359502 0.23604476 -0.62451363
-0.14461377 0.23599002 -0.62629265
-0.20172986 0.25509435 -0.61989105
-0.18268511 0.25502563 -0.62167674
-0.16366804 0.25495708 -0.62345994
-0.14467858 0.2548885 -0.62524027
-0.12571667 0.25481999 -0.62701815
-0.20181942 0.27405047 -0.61883324
-0.18276642 0.27396798 -0.62062055
-0.16374111 0.27388555 -0.62240499
-0.14474344 0.27380329 -0.62418705
-0.12577334 0.27372116 -0.62596655
-0.20214613 0.29317388 -0.61497509
-0.18305075 0.29306862 -0.61692679
-0.16398638 0.29296416 -0.61886489
-0.14495137 0.29285938 -0.62081063
-0.12594649 0.29275471 -0.6227532
-0.10697214 0.29265076 -0.62468219
-0.088026799 0.2925458 -0.62662917
-0.20250092 0.31237695 -0.61078513
-0.1833728 0.31225637 -0.61274368
-0.16427499 0.31213599 -0.61469901
-0.14520818 0.31201652 -0.61664069
-0.12617084 0.31189647 -0.61858988
-0.10716365 0.31177652 -0.62053591
-0.08818654 0.31165683 -0.6224789
-0.069239445 0.31153738 -0.62441891
-0.050322287 0.31141806 -0.62635571
-0.050418153 0.33056331 -0.62220454
-0.031498805 0.33042875 -0.62414485
-0.14546587 0.33123854 -0.61245638
-0.12639596 0.33110309 -0.61441225
-0.10735629 0.33096778 -0.6163649
-0.088346824 0.33083272 -0.61831456
-0.069367468 0.33069789 -0.62026119
-0.10761894 0.35033995 -0.61067861
-0.088560842 0.35018021 -0.61275434
-0.069534816 0.35002059 -0.61482632
-0.050540768 0.34986147 -0.61689496
-0.031578626 0.34970248 -0.61896026
-0.031681709 0.3691839 -0.61226499
-0.18472588 -0.030418143 -0.59516656
-0.16543639 -0.030204967 -0.5979358
-0.14618993 -0.029992193 -0.60069907
-0.12698634 -0.02978 -0.60345608
-0.10782499 -0.02956742 -0.60621756
-0.088706791 -0.029356137 -0.60896224
0.082174554 -0.029252738 -0.61030591
0.10126116 -0.029463723 -0.60756409
0.12039074 -0.029676065 -0.60480553
0.13956255 -0.029888079 -0.6020515
0.15877782 -0.030101448 -0.59928048
0.17803541 -0.030314401 -0.59651417
-0.10831797 -0.011294454 -0.59554398
-0.089116707 -0.011102512 -0.59831262
-0.069958255 -0.010911241 -0.60107481
-0.050842471 -0.010720238 -0.60383111
-0.031769052 -0.010529026 -0.60659176
-0.012738269 -0.010338828 -0.6093356
0.025249571 -0.01043573 -0.60793775
0.044291329 -0.010626689 -0.60518008
0.063375436 -0.010817528 -0.60242683
0.082502455 -0.01100941 -0.59965676
0.10167195 -0.011200994 -0.59689134
0.1208843 -0.01139313 -0.59411955
-0.031933337 0.007823512 -0.5959214
-0.012820227 0.0079939812 -0.59868896
0.0062502692 0.0080767423 -0.60003293
0.025331704 0.0079064965 -0.5972684
0.044455796 0.007735908 -0.59449756
-0.20293842 0.17957519 -0.60561872
-0.18392126 0.17957519 -0.60561872
-0.16490412 0.17957519 -0.60561872
-0.14588696 0.17957519 -0.60561872
-0.1268698 0.17957519 -0.60561872
-0.10785264 0.17957519 -0.60561872
-0.088835903 0.17957522 -0.60560799
-0.06981834 0.17957519 -0.60561872
-0.050800938 0.17957504 -0.60562932
-0.031783707 0.17957491 -0.60564011
-0.012766719 0.17957491 -0.60564011
-0.01277026 0.2176196 -0.60518003
-0.012858313 0.2369923 -0.59374177
-0.20285693 0.33164564 -0.60658109
-0.1836959 0.33150944 -0.60854614
-0.16456608 0.33137435 -0.61049747
-0.20339321 0.35114288 -0.60024774
-0.18417358 0.35098183 -0.602341
-0.1649864 0.3508209 -0.60443074
-0.14583164 0.35066035 -0.6065169
-0.12670918 0.35050008 -0.60859966
-0.18469597 0.37059885 -0.59555483
-0.16545579 0.37042093 -0.59765607
-0.14624815 0.37024331 -0.5997535
-0.12707302 0.37006605 -0.60184765
-0.10793027 0.36988896 -0.6039381
-0.088819847 0.36971214 -0.60602504
-0.069741666 0.3695358 -0.60810864
-0.050695654 0.36935964 -0.61018854
-0.12743884 0.38973927 -0.59505862
-0.10824331 0.38954514 -0.59716064
-0.089080274 0.38935125 -0.59925902
-0.069949657 0.38915783 -0.60135394
-0.050851382 0.38896459 -0.60344535
-0.031785354 0.38877177 -0.60553306
-0.070176415 0.4089447 -0.59399003
-0.051018912 0.40872437 -0.59619087
-0.031895362 0.40850455 -0.59838778
-0.24339738 -0.050682366 -0.58138996
-0.22394912 -0.050458193 -0.58403778
-0.20476583 -0.050458193 -0.58403778
-0.18558255 -0.050458193 -0.58403778
-0.16639927 -0.050458193 -0.58403778
-0.14721666 -0.050459072 -0.58402687
-0.12803388 -0.050459951 -0.58401603
0.12135097 -0.050459951 -0.58401603
0.14053382 -0.050459072 -0.58402687
0.15971719 -0.050459072 -0.58402687
0.17889979 -0.050458193 -0.58403778
0.19808224 -0.050457284 -0.58404869
0.21726544 -0.050457284 -0.58404869
0.23644863 -0.050457284 -0.58404869
0.25636595 -0.051078454 -0.57671273
-0.22438128 -0.031634942 -0.57935965
-0.20439872 -0.030941188 -0.58837324
0.19741343 -0.030605212 -0.5927369
0.21729124 -0.031297535 -0.58374387
-0.20533422 -0.012556583 -0.5773257
-0.18555574 -0.012067497 -0.58438611
-0.16618088 -0.011873156 -0.58719033
-0.1468502 -0.011680096 -0.58997744
-0.12756279 -0.011487365 -0.59275842
0.14014024 -0.011586234 -0.59133101
0.15943883 -0.0117791 -0.58854687
0.17878149 -0.011973187 -0.58574551
0.19826256 -0.012253135 -0.58170629
-0.14751621 0.0067915022 -0.57916284
-0.12814423 0.0069642663 -0.58196795
-0.10881575 0.0071366578 -0.58476698
-0.08953017 0.0073092431 -0.58757037
-0.070288286 0.0074808747 -0.59035677
0.082832865 0.0073927194 -0.58892626
0.10208631 0.0072202832 -0.58612591
0.12138265 0.00704813 -0.58333009
0.14072236 0.0068756342 -0.58052808
0.16010629 0.0067019612 -0.57770866
-0.051089447 0.0076520592 -0.59313667
0.063622937 0.0075641721 -0.59170967
-0.089947239 0.025881484 -0.57673478
-0.070621192 0.026032895 -0.57954526
-0.051338565 0.026183993 -0.58234954
-0.03209921 0.026334822 -0.58514756
-0.012902895 0.026485875 -0.58795017
0.0062502692 0.026558936 -0.58930582
0.025414551 0.026407987 -0.58650625
0.044621862 0.026257366 -0.58371121
0.063872345 0.026106521 -0.58091009
0.083166495 0.025954574 -0.57809156
-0.012986284 0.045138679 -0.57711786
0.0062502692 0.045201287 -0.57847428
-0.012947183 0.25654525 -0.58219707
-0.20396882 0.37077704 -0.59345007
-0.20454763 0.39051932 -0.58661491
-0.18522125 0.39032388 -0.58873117
-0.16592772 0.39012855 -0.59084386
-0.14666696 0.38993388 -0.59295309
-0.20523787 0.41049853 -0.57846326
-0.18584011 0.41027555 -0.5806917
-0.16647698 0.41005278 -0.58291614
-0.14714833 0.40983063 -0.58513671
-0.12785405 0.4096089 -0.58735323
-0.10859409 0.40938747 -0.58956593
-0.089367941 0.40916529 -0.59178531
-0.12835018 0.42975885 -0.5781461
-0.10901859 0.42951864 -0.58037525
-0.089721471 0.42927885 -0.58260024
-0.070458733 0.42903948 -0.58482134
-0.051230282 0.42880058 -0.58703846
-0.032036021 0.42856199 -0.58925152
-0.051442962 0.44902408 -0.57782894
-0.03217756 0.44876671 -0.58005863
-0.28390697 -0.0522241 -0.56318378
-0.26357794 -0.05144994 -0.57232547
0.27658859 -0.051850721 -0.56759202
-0.2647852 -0.03303878 -0.56112355
-0.24450919 -0.032333985 -0.57028019
0.23731457 -0.031995609 -0.57467461
0.25748417 -0.032698855 -0.56553912
-0.22540924 -0.013186663 -0.56823158
0.2182321 -0.012881696 -0.57263315
0.23834847 -0.013515651 -0.56348276
-0.20627803 0.0059919655 -0.56617963
-0.18639201 0.006444186 -0.57352257
-0.16693258 0.0066176504 -0.57634044
0.17953408 0.0065279007 -0.57488286
0.19911927 0.006262809 -0.57057738
0.21918136 0.0056990087 -0.56142294
-0.18723564 0.025117844 -0.56256396
-0.16769008 0.025271028 -0.5654065
-0.14818805 0.025424466 -0.56825364
-0.12873077 0.02557686 -0.57108337
-0.10931735 0.02572903 -0.57390672
0.10250387 0.02580297 -0.57527763
0.12188534 0.025650337 -0.57244635
0.14131017 0.025498047 -0.56961972
0.1607796 0.025344804 -0.5667758
0.18029247 0.025191814 -0.56393623
-0.12932244 0.044352777 -0.56010324
-0.10982285 0.044484831 -0.56296241
-0.090368375 0.044615537 -0.56579304
-0.070957005 0.044747062 -0.56863946
-0.051589858 0.044877745 -0.57146829
-0.03226636 0.045008071 -0.57429063
0.025498034 0.045071408 -0.57566118
0.044789374 0.044940725 -0.57283092
0.064124189 0.044810146 -0.57000512
0.083502702 0.044679262 -0.56717288
0.10292549 0.044547737 -0.56432337
0.12239245 0.044415787 -0.56146729
-0.051843353 0.063735336 -0.56049156
-0.032434978 0.063844793 -0.56333876
-0.013070485 0.063954145 -0.56617951
0.0062502692 0.064007245 -0.56755894
0.025582334 0.06389764 -0.5647102
0.044958189 0.063788168 -0.56186616
-0.18630418 0.16055797 -0.57466358
-0.16704874 0.16055797 -0.57466358
-0.14779329 0.16055797 -0.57466358
-0.12853785 0.16055797 -0.57466358
-0.10928239 0.16055797 -0.57466358
-0.070772186 0.16055793 -0.5746417
-0.05151657 0.16055793 -0.5746417
-0.032260958 0.16055793 -0.5746417
-0.013005344 0.16055793 -0.5746417
-0.090027377 0.160558 -0.57465261
-0.013036886 0.276281 -0.57054436
-0.2060231 0.43072402 -0.5691902
-0.1865527 0.43048221 -0.57143527
-0.16711791 0.43024176 -0.57366526
-0.14771634 0.42999947 -0.57591313
-0.090077206 0.44954038 -0.57335794
-0.070742816 0.44928199 -0.57559544
-0.20681325 0.45109916 -0.55985922
-0.18727057 0.45083916 -0.56210977
-0.16776207 0.45057851 -0.56436747
-0.14828925 0.45031965 -0.56661016
-0.12885 0.45005852 -0.56887078
-0.10944624 0.4497993 -0.57111645
-0.10988168 0.47024316 -0.56168878
-0.090436019 0.46995407 -0.56403577
-0.07102935 0.46967643 -0.56629008
-0.051657476 0.46939927 -0.5685401
-0.032320313 0.46912271 -0.57078648
-0.34420747 -0.07308048 -0.54680842
-0.32467452 -0.073035941 -0.5472905
-0.3052111 -0.073038042 -0.54726803
-0.28574735 -0.073040053 -0.54724568
0.27878138 -0.073040053 -0.54724568
0.29824659 -0.073039129 -0.54725677
0.31771025 -0.073037028 -0.54727936
0.33717504 -0.073035941 -0.5472905
-0.32501075 -0.05378738 -0.54472131
-0.30438364 -0.053002805 -0.55398637
0.29695809 -0.052627802 -0.55841577
0.31747851 -0.053411469 -0.54916078
-0.30578229 -0.034462452 -0.54263049
-0.28520867 -0.033747956 -0.551911
0.27780163 -0.033407256 -0.55633652
0.2982673 -0.034120083 -0.54707748
-0.26600212 -0.014461383 -0.54983222
-0.24563095 -0.013821334 -0.55907112
0.25861242 -0.01415433 -0.55426502
0.27902558 -0.014797524 -0.54497951
-0.24676275 0.0048576444 -0.54776108
-0.22644641 0.0054268986 -0.55700415
0.2393916 0.0051303357 -0.55219007
0.25975084 0.0045576245 -0.54288936
-0.22749288 0.024207801 -0.5456754
0.22013916 0.024446905 -0.55011183
-0.20723033 0.024706647 -0.55493355
0.19998367 0.024944603 -0.55934858
-0.2081912 0.043589935 -0.54358643
-0.18808663 0.043955788 -0.55150884
-0.16845429 0.044088349 -0.55437654
-0.14886646 0.044220448 -0.55723757
0.14190313 0.04428409 -0.55861568
0.16145881 0.044151537 -0.55574667
0.18105833 0.044019304 -0.55288208
0.20085584 0.043794647 -0.54801881
-0.1692252 0.063071661 -0.54324919
-0.14955017 0.063182756 -0.54613554
-0.12991932 0.063293912 -0.54902649
-0.11033329 0.063405007 -0.551911
-0.090792365 0.06351535 -0.55477762
-0.071295768 0.063625433 -0.55763781
0.064378232 0.063678026 -0.55900443
0.083842203 0.063568018 -0.55614734
0.10335083 0.063457355 -0.5532726
0.12290351 0.063346915 -0.55040246
0.14250132 0.06323576 -0.54751456
0.16214402 0.063124411 -0.54462028
-0.09122052 0.082581282 -0.54365379
-0.071637511 0.082670189 -0.54653937
-0.052099083 0.082758836 -0.54941821
-0.032605074 0.08284729 -0.55229056
-0.013155341 0.082935505 -0.55515629
0.0062502692 0.08297807 -0.55653679
0.025667291 0.082889847 -0.5536741
0.045128662 0.082801253 -0.55079383
0.064634271 0.082712673 -0.54791802
0.084184699 0.082623594 -0.54502439
-0.013240946 0.1020844 -0.54403603
0.0062502692 0.10211621 -0.54541737
-0.18874757 0.14105827 -0.54292303
-0.16924779 0.14105827 -0.54292303
-0.149748 0.14105827 -0.54292303
-0.13024823 0.14105827 -0.54292303
-0.11074844 0.14105827 -0.54292303
-0.091249086 0.14105806 -0.54291177
-0.071749561 0.14105803 -0.54290056
-0.052249603 0.14105803 -0.54290056
-0.032749817 0.14105791 -0.54288918
-0.013249863 0.14105783 -0.54287803
-0.013127087 0.29619944 -0.55882668
-0.01321736 0.31629902 -0.54709995
-0.20765756 0.47169667 -0.54988801
-0.18802905 0.47140485 -0.55225712
-0.1684373 0.47111356 -0.55462164
-0.14888221 0.47082293 -0.55698174
-0.12936372 0.47053277 -0.5593375
-0.16925949 0.4920764 -0.54275435
-0.14961168 0.49176466 -0.54513669
-0.1300002 0.49145186 -0.54752582
-0.11042622 0.49114138 -0.54989928
-0.090888523 0.49082989 -0.55227947
-0.071387954 0.49052048 -0.55464399
-0.051923897 0.49021161 -0.55700415
-0.032496236 0.48990321 -0.55935967
-0.071753025 0.51157284 -0.54278803
-0.052196924 0.51124114 -0.54518157
-0.032677915 0.51091164 -0.54755944
-0.36504185 -0.073942363 -0.5374791
0.357382 -0.07352984 -0.54194409
0.37855455 -0.074581593 -0.53055888
-0.36672467 -0.05537492 -0.5259738
-0.34578997 -0.054577723 -0.53538787
0.33815038 -0.054200992 -0.5398376
0.35897374 -0.054995254 -0.53045678
-0.32650781 -0.035182029 -0.53328162
0.31888533 -0.034838915 -0.53773886
0.33965471 -0.035562232 -0.52834255
-0.30719361 -0.015754253 -0.5311721
-0.28652209 -0.015105337 -0.54053646
0.29958835 -0.015444964 -0.5356366
0.32030493 -0.016097829 -0.52621317
-0.2878474 0.003705889 -0.52905899
-0.26722997 0.0042835623 -0.53843886
0.28026065 0.0039805919 -0.53351957
-0.26846898 0.023198307 -0.52694237
-0.24790481 0.023705319 -0.53634912
0.24044418 0.02394481 -0.54079556
0.26089954 0.023439109 -0.53141034
-0.22854881 0.043158509 -0.5342446
0.22110561 0.043364137 -0.53869838
0.24150632 0.042929955 -0.52929771
-0.20916073 0.06264396 -0.53213662
-0.18894605 0.062959775 -0.54034489
0.18183096 0.063013189 -0.54173034
0.20173588 0.062815212 -0.53658658
0.22208084 0.062453158 -0.52718139
-0.18981221 0.082132958 -0.52909303
-0.17000374 0.082222879 -0.53201187
-0.15023993 0.082312897 -0.53493512
-0.1305221 0.082402311 -0.53784043
-0.11084825 0.082492352 -0.54076177
0.10377993 0.082534283 -0.54212427
0.12341961 0.082445025 -0.53922868
0.14310482 0.082355335 -0.5363152
0.16283461 0.082265772 -0.53340638
0.18261044 0.082175605 -0.53047937
-0.13112962 0.10168086 -0.52656639
-0.11136883 0.10174836 -0.52949089
-0.091652468 0.10181627 -0.53243142
-0.071982287 0.10188353 -0.53534251
-0.052356809 0.10195085 -0.53825814
-0.032776676 0.10201758 -0.54114485
0.025753085 0.10204948 -0.54252934
0.04530064 0.10198238 -0.53962332
0.064892821 0.10191537 -0.536722
0.084530234 0.10184801 -0.53380287
0.10421241 0.10178069 -0.5308882
0.12394029 0.10171305 -0.52795559
-0.052617352 0.12131293 -0.52697653
-0.032949626 0.12135804 -0.52991134
-0.013327224 0.12140298 -0.53282821
0.0062502692 0.12142424 -0.53421068
0.025839638 0.12137919 -0.53128558
0.04547397 0.1213343 -0.52836514
-0.013308739 0.33658901 -0.53522938
-0.20866628 0.49270171 -0.53797597
-0.1889443 0.49238878 -0.54036742
-0.20968451 0.51390576 -0.52595103
-0.18986826 0.51357126 -0.52836514
-0.17008866 0.51323587 -0.53078604
-0.15034665 0.51290095 -0.53320229
-0.13064268 0.51256847 -0.53560281
-0.11097536 0.51223487 -0.53800988
-0.091345713 0.51190358 -0.54040122
-0.11153022 0.53352952 -0.52599657
-0.091806792 0.53317481 -0.528422
-0.072121188 0.53282243 -0.5308314
-0.052472785 0.5324707 -0.53323632
-0.032861304 0.5321179 -0.53564805
-0.40866497 -0.096294209 -0.50939703
-0.3889142 -0.096298918 -0.50935078
-0.36915934 -0.096301213 -0.50932771
0.3816582 -0.09630008 -0.50933915
0.40141118 -0.096296594 -0.5093739
-0.38700524 -0.075395361 -0.52174956
0.40102401 -0.076306298 -0.51188844
-0.38889286 -0.056770757 -0.50948936
0.38034046 -0.056020513 -0.51834887
-0.36842275 -0.036638305 -0.51436388
-0.34738839 -0.035907969 -0.52385217
0.36058 -0.036291912 -0.51886451
-0.3489998 -0.017067119 -0.51222259
-0.32801843 -0.016407743 -0.52173835
0.34117424 -0.016754791 -0.51673102
-0.32954288 0.0025376976 -0.51008952
-0.30861777 0.0031238496 -0.51960939
0.30092144 0.003399983 -0.52409172
0.32173747 0.0028143674 -0.5145824
-0.28918472 0.022688299 -0.5174771
0.28150693 0.022929579 -0.52195549
0.30226672 0.022416919 -0.51244158
-0.26971927 0.042285278 -0.51534104
-0.2490572 0.042723745 -0.52483356
0.26205876 0.042492479 -0.51982695
0.28276339 0.042052366 -0.51029736
-0.25022012 0.061915547 -0.51321316
-0.22961435 0.062281147 -0.52270991
0.24257812 0.062087961 -0.51769501
-0.23068959 0.081577949 -0.51107013
-0.21013908 0.081870988 -0.52058268
0.20262393 0.082008533 -0.52505034
0.22306497 0.081716284 -0.51555943
-0.21112639 0.10127346 -0.50892341
-0.19068611 0.10147712 -0.51774102
-0.17078844 0.10154504 -0.52068579
-0.15093653 0.10161294 -0.52362376
0.14371368 0.10164511 -0.52501613
0.16353205 0.10157724 -0.5220812
0.18339685 0.10150911 -0.5191282
0.2035201 0.10137701 -0.51340884
-0.19125199 0.1210576 -0.51038957
-0.17150179 0.1210576 -0.51038957
-0.15163866 0.12108572 -0.51222259
-0.13174316 0.12113135 -0.51518023
-0.111893 0.12117693 -0.51814252
-0.092088267 0.12122256 -0.52110916
-0.072330125 0.12126786 -0.52404624
0.065153681 0.12128901 -0.52542657
0.084878847 0.12124369 -0.52248138
0.10464918 0.12119845 -0.51954067
0.12446562 0.12115289 -0.51658183
0.14432798 0.12110716 -0.51361591
0.16423574 0.1210616 -0.51065499
0.0062502692 0.14089811 -0.52212697
0.025933666 0.14087455 -0.51907092
0.045664228 0.14085096 -0.51600742
0.065442391 0.14082727 -0.51292521
0.085267879 0.14080353 -0.5098471
0.0062502692 0.16055804 -0.50902742
-0.17092574 0.5345962 -0.5187043
-0.15108928 0.53423941 -0.52114332
-0.13129064 0.53388327 -0.52357793
-0.21072708 0.53533703 -0.51363909
-0.19080627 0.53496534 -0.51617992
-0.13208157 0.55579174 -0.50890023
-0.11220261 0.55540097 -0.51143903
-0.092362508 0.55500895 -0.51398414
-0.072561733 0.55461806 -0.51652443
-0.05280045 0.55422944 -0.51904792
-0.033077925 0.55383986 -0.52157807
-0.43060628 -0.097584561 -0.49650431
0.42181233 -0.096694663 -0.50539565
0.4238255 -0.07805647 -0.49294221
-0.40969601 -0.077125639 -0.50301903
0.40293163 -0.057616889 -0.49949819
-0.3907969 -0.037965626 -0.49712229
0.38214353 -0.037280649 -0.5060209
-0.37013638 -0.01773043 -0.5026477
0.36220092 -0.017417327 -0.5071665
0.38396409 -0.018359125 -0.49357361
-0.35062599 0.0019463301 -0.50048691
0.34270766 0.0022251457 -0.50501347
0.36383516 0.0016314238 -0.49537259
-0.33108276 0.021656126 -0.49832243
-0.31005493 0.022174507 -0.50794119
0.32318172 0.02190052 -0.50285667
0.34425524 0.021379441 -0.49318779
-0.31150523 0.04139968 -0.49616611
-0.29053435 0.04184413 -0.50578946
0.3036243 0.041608348 -0.50068456
-0.29189628 0.061175734 -0.4939943
-0.27098098 0.06154681 -0.50363386
0.26322854 0.061720207 -0.50813782
0.28403258 0.061349951 -0.49852043
-0.27225429 0.080985188 -0.49181896
-0.25139481 0.081282578 -0.50147474
0.24365975 0.08142145 -0.50598615
0.26440793 0.081124812 -0.49635255
-0.23177469 0.10105175 -0.49932361
0.22405812 0.10115585 -0.50383109
0.24475132 0.10093269 -0.49416971
-0.21216911 0.12084538 -0.49660927
0.18419757 0.1210141 -0.50757128
0.2044522 0.12091754 -0.50130039
0.10514149 0.14077966 -0.50674999
0.12506258 0.14075598 -0.5036571
0.14503171 0.14073205 -0.50055665
0.16504975 0.14070806 -0.49743694
0.18511553 0.14068404 -0.49432153
0.02603475 0.16055797 -0.50593996
0.045867059 0.16055797 -0.50283325
0.1056518 0.1605579 -0.49349183
0.065747097 0.16055803 -0.49973089
0.085675143 0.160558 -0.49662095
0.0062502692 0.18042053 -0.49579263
0.026136966 0.18044472 -0.4926616
-0.21199743 0.55737197 -0.4986369
-0.19195797 0.55697435 -0.50121915
-0.17195939 0.55657941 -0.50378466
-0.15200062 0.55618519 -0.50634515
-0.13289298 0.57798779 -0.4938426
-0.11289673 0.57757241 -0.49641097
-0.092939779 0.57715625 -0.49898612
-0.073022634 0.57674074 -0.5015561
-0.053145178 0.57632625 -0.50412095
-0.033307463 0.57591408 -0.50666904
-0.45384586 -0.099496379 -0.47740018
0.44482797 -0.098601535 -0.48634118
-0.43272397 -0.078882441 -0.48399991
-0.41170725 -0.058372155 -0.49057758
0.4258602 -0.059237704 -0.48035586
-0.41373801 -0.039436489 -0.47801542
0.4048596 -0.03874664 -0.48697579
-0.39272118 -0.018979117 -0.48462379
-0.37186578 0.0013513118 -0.49082375
0.38580409 0.00074584782 -0.48099333
-0.37364745 0.02059567 -0.47864223
-0.35226709 0.021134511 -0.48864299
0.36548609 0.020855129 -0.48345804
-0.35392341 0.040500119 -0.47668988
-0.33263534 0.040951207 -0.48645866
0.32464069 0.041161597 -0.4910112
0.34581554 0.040711351 -0.48126471
-0.31296894 0.060801953 -0.48428237
0.30499306 0.060977079 -0.48883069
0.32611316 0.06060081 -0.47905612
-0.2932708 0.08068566 -0.48209071
0.28531352 0.080825672 -0.48663497
0.30637583 0.080524422 -0.47685564
-0.27353933 0.10060301 -0.47989517
-0.25257918 0.10082816 -0.48964012
0.26559937 0.10070822 -0.48444718
-0.25391188 0.12053306 -0.47632259
-0.23295876 0.12068976 -0.48650569
0.22512583 0.12076244 -0.4912219
0.24596193 0.12060601 -0.48106426
-0.21333563 0.14059561 -0.48283356
0.2055106 0.14063196 -0.48755121
0.22629824 0.14055364 -0.47737646
0.12567644 0.16055797 -0.4903667
0.1457496 0.16055793 -0.48723412
0.16587219 0.16055796 -0.48408234
0.18604301 0.16055797 -0.48093438
0.046071805 0.18046881 -0.48953462
0.066054963 0.18049289 -0.48639995
0.086086988 0.18051711 -0.48324591
0.10616741 0.18054135 -0.48009604
0.12629667 0.18056573 -0.47693855
0.0062502692 0.20048924 -0.482409
0.026240155 0.20053782 -0.47925723
0.046278685 0.20058645 -0.47609758
-0.21328175 0.57966453 -0.48346978
-0.19312407 0.57924408 -0.48607087
-0.1730068 0.57882446 -0.48866653
-0.1529298 0.57840562 -0.49125707
-0.15389258 0.60095072 -0.47562349
-0.13372798 0.60048956 -0.47834682
-0.11360557 0.60002935 -0.48106426
-0.093525216 0.59957016 -0.48377603
-0.073488966 0.59912384 -0.48641163
-0.053494226 0.59868425 -0.48900664
-0.033539701 0.59824765 -0.49158496
-0.47515032 -0.120259 -0.47036225
-0.45509827 -0.12026282 -0.47032666
-0.43503356 -0.120259 -0.47036225
0.44753814 -0.12026154 -0.47033852
0.46759665 -0.12026154 -0.47033852
0.4895114 -0.12134431 -0.4602915
-0.47743222 -0.10143675 -0.45801097
0.46818528 -0.10053574 -0.46701401
-0.4560928 -0.08066459 -0.46470922
0.44696853 -0.07983382 -0.47370213
0.44913 -0.060881868 -0.46093899
-0.43486032 -0.059997365 -0.47138536
-0.43701959 -0.040928274 -0.45863557
0.42791289 -0.040233731 -0.46765822
-0.41578668 -0.020314977 -0.46534264
0.40680456 -0.019691467 -0.47434294
-0.39466417 0.00019216537 -0.47200346
0.40876856 -0.00044927001 -0.46158612
-0.39662439 0.019551918 -0.45927179
0.38766038 0.020038396 -0.46830201
-0.37550187 0.0400047 -0.46596378
0.36715233 0.040257275 -0.47143304
-0.35559505 0.060045391 -0.46462572
-0.33420223 0.060424924 -0.47448522
0.34739187 0.060222134 -0.46921933
0.36883411 0.059840299 -0.45929569
-0.33578372 0.080079369 -0.4624005
-0.31444761 0.080383405 -0.47227681
0.32759932 0.080220722 -0.46699029
-0.3160243 0.10013147 -0.4594757
-0.29469106 0.10036968 -0.46979094
0.2866165 0.10047948 -0.47454447
0.30783084 0.10024182 -0.46425492
-0.27502921 0.1203752 -0.46607119
0.26696247 0.12044847 -0.47082645
0.28812805 0.12028968 -0.46051937
-0.25531113 0.14043789 -0.46234071
-0.23424023 0.14051713 -0.47263336
0.24725103 0.14047454 -0.46710944
-0.23553661 0.16055797 -0.45859951
-0.21451366 0.16055793 -0.4689216
0.2065804 0.16055803 -0.47365457
0.22748427 0.160558 -0.46336997
0.1464756 0.18059012 -0.47376138
0.16670319 0.18061455 -0.47058845
0.18698017 0.1806391 -0.4674077
0.20766172 0.18069902 -0.45960778
0.066366307 0.20063536 -0.47291833
0.086502753 0.20068428 -0.46974331
0.10668838 0.20073318 -0.46656048
0.12692392 0.20078254 -0.4633581
0.14720854 0.20083176 -0.4601596
0.0062502692 0.22076683 -0.4688977
0.026344417 0.22084039 -0.46571302
0.046487905 0.22091441 -0.46250826
0.066680633 0.22098833 -0.45930779
-0.21464086 0.60234022 -0.46741951
-0.19434889 0.60187602 -0.47015983
-0.1740995 0.60141289 -0.47289473
-0.13474745 0.62383622 -0.45942777
-0.11447702 0.62334597 -0.46219689
-0.094249897 0.62285876 -0.46494818
-0.07406532 0.62237263 -0.46769381
-0.053923428 0.62188953 -0.47042179
-0.033823434 0.62140548 -0.47315598
-0.49888372 -0.122317 -0.45126623
0.49189386 -0.10249896 -0.44739616
-0.47981209 -0.082473204 -0.44512963
0.47045669 -0.081636727 -0.45418501
-0.45835972 -0.06164676 -0.45190597
0.47275057 -0.062550828 -0.44122934
0.45131281 -0.041743159 -0.44805002
-0.43920007 -0.021671712 -0.44576019
0.42998576 -0.021042973 -0.45483547
-0.41785741 -0.001006797 -0.45253342
0.43207911 -0.0016625375 -0.44188619
0.41075197 0.01898241 -0.44870359
-0.39860567 0.039101116 -0.44640267
0.38953492 0.039520659 -0.4554857
-0.37737271 0.059604622 -0.45317268
0.39142796 0.059195392 -0.44254291
-0.35728231 0.079772957 -0.4524489
0.34898293 0.079915039 -0.45706147
0.37052995 0.07960698 -0.44705707
-0.33752713 0.099891327 -0.44907856
0.3292121 0.10000263 -0.45389587
0.35076526 0.099761173 -0.44344211
-0.3177689 0.12005559 -0.44531143
-0.2963151 0.12021594 -0.45572644
0.30946317 0.12012966 -0.45011836
-0.29795536 0.14027758 -0.44152135
-0.276548 0.14035805 -0.45197833
0.26837003 0.14039484 -0.45676088
0.28965726 0.14031465 -0.44632995
-0.25672552 0.1605579 -0.44820744
0.24855515 0.16055797 -0.45299172
0.26979411 0.16055797 -0.44253075
-0.23684593 0.18081599 -0.44442564
0.22868317 0.18077913 -0.44921154
0.1675429 0.20088117 -0.45695323
0.18792799 0.20093082 -0.45372707
0.20875478 0.2010588 -0.44540852
0.086922877 0.22106242 -0.45609933
0.10721529 0.22113693 -0.45287108
0.1275572 0.22121148 -0.44964695
0.14794919 0.22128606 -0.44641483
0.16839218 0.2213612 -0.44316274
0.0062502692 0.24125686 -0.4552449
0.026449867 0.2413564 -0.45201451
0.046699136 0.24145564 -0.44878823
0.066998258 0.24155529 -0.44555402
0.087347426 0.24165514 -0.44231182
0.0062502692 0.26196268 -0.44144839
-0.19581541 0.62530905 -0.45110911
-0.17541662 0.62481773 -0.45388395
-0.15506014 0.62432539 -0.45666474
-0.11536177 0.64700615 -0.44304109
-0.094985649 0.64649045 -0.44583291
-0.074652679 0.64597577 -0.44861889
-0.05436274 0.64546198 -0.45139897
-0.034115694 0.64494956 -0.45417297
-0.52331614 -0.14496104 -0.43014663
-0.50294113 -0.14495687 -0.43018335
0.49507168 -0.14495532 -0.43019581
0.51544398 -0.1449583 -0.43017119
0.53632551 -0.14525466 -0.42760414
-0.52304852 -0.12444906 -0.43148339
0.51344228 -0.12346949 -0.44057226
-0.50137562 -0.10340749 -0.43831795
0.51596165 -0.10449196 -0.42748129
-0.5038898 -0.08430928 -0.42525393
0.49429989 -0.083466887 -0.43437314
-0.48221552 -0.063322142 -0.43212074
-0.46065113 -0.04244259 -0.43896425
0.4750672 -0.04327552 -0.42814499
-0.46296522 -0.023048118 -0.42589402
0.45351726 -0.022414878 -0.4350335
-0.44140011 -0.0022239685 -0.43276995
-0.41994855 0.0184917 -0.43959785
0.43419325 0.017910287 -0.42880827
-0.42205843 0.038184047 -0.42654651
0.41275501 0.038606554 -0.43569362
-0.40060657 0.058843851 -0.43340671
-0.37928158 0.079393342 -0.44012165
0.3934404 0.079044342 -0.42878389
-0.38155705 0.099325195 -0.424564
-0.35919979 0.099649623 -0.43861073
0.37249097 0.099517822 -0.43290466
-0.36119565 0.11973065 -0.42420673
-0.33939552 0.11989368 -0.43480122
0.33096865 0.1199682 -0.4396345
0.35264656 0.11980541 -0.4290663
-0.319534 0.1401964 -0.43098074
0.31111473 0.14023362 -0.43581563
0.33274442 0.14015211 -0.42521709
-0.29961351 0.16055797 -0.42716146
0.29120317 0.16055797 -0.43198586
-0.27808461 0.160558 -0.43772042
-0.25815648 0.18089695 -0.43390822
0.24987349 0.18085995 -0.43872041
0.27123377 0.18094136 -0.42814511
-0.23817065 0.20129481 -0.43008524
0.22989516 0.20122075 -0.43489909
0.25120625 0.20138401 -0.42429292
0.18888496 0.22143626 -0.43991464
0.20985976 0.2216408 -0.43105417
0.10774728 0.24175559 -0.43904942
0.12819718 0.24185589 -0.43579125
0.14869766 0.24195653 -0.43252492
0.1692497 0.24205773 -0.42923832
0.18985206 0.24215885 -0.42595577
0.026556335 0.26208824 -0.43818384
0.046912599 0.26221374 -0.43492341
0.067319244 0.26233959 -0.43165499
0.08777684 0.26246619 -0.42836624
0.10828491 0.26259255 -0.42508137
0.0062502692 0.28288814 -0.42749357
0.026663933 0.28303999 -0.42420655
-0.19730356 0.64908719 -0.43177748
-0.17675222 0.64856476 -0.4346056
-0.15624484 0.64804322 -0.43742746
-0.13578123 0.64752305 -0.44024336
-0.075335361 0.67046821 -0.42644799
-0.054870546 0.66989821 -0.4294101
-0.03445125 0.66932702 -0.43237793
-0.54793239 -0.1473213 -0.40970671
0.53932714 -0.12648346 -0.41260701
-0.52567935 -0.10540687 -0.41833889
0.51850855 -0.085326076 -0.41424716
-0.5064314 -0.065021917 -0.41204727
0.49672985 -0.064245239 -0.42122042
-0.48464054 -0.043979838 -0.4189949
0.49918652 -0.044832155 -0.40792364
0.47740918 -0.023808599 -0.41491765
-0.46530014 -0.0034595579 -0.41270643
0.45574364 -0.002894178 -0.42188728
-0.44362402 0.017416164 -0.41963828
0.45799437 0.016821191 -0.40859711
0.4363305 0.037677884 -0.41558772
-0.42419127 0.058071941 -0.41335267
0.41477796 0.058425963 -0.42255396
-0.40280634 0.078746669 -0.41911876
0.41709387 0.078389198 -0.40751183
0.39574465 0.099058859 -0.41302949
-0.38385594 0.11949421 -0.40884674
0.37449896 0.11964139 -0.41841322
-0.36321175 0.14003235 -0.40965688
-0.34128439 0.1401148 -0.42036784
0.35454851 0.1400698 -0.41453272
-0.3213169 0.16055796 -0.4165054
0.33453971 0.16055796 -0.4106409
0.31278434 0.16055804 -0.42135632
-0.30129123 0.18106075 -0.41263169
-0.27963671 0.18097858 -0.42331886
0.292766 0.1810234 -0.41748446
0.31447092 0.18110597 -0.40675008
-0.28120714 0.20162337 -0.40874696
-0.25960186 0.20145828 -0.41946507
0.27268919 0.20154858 -0.41360128
-0.2395099 0.22199801 -0.41558772
0.23112038 0.22188625 -0.42042965
0.25255367 0.22213386 -0.40970671
0.21097592 0.24244821 -0.41655499
0.12884393 0.26271939 -0.42178869
0.14945476 0.26284683 -0.41847503
0.17011634 0.26297432 -0.41516572
0.19082944 0.26310199 -0.41184825
0.047129087 0.28319442 -0.42086208
0.0676485 0.28335446 -0.41739774
0.088221535 0.2835148 -0.41392416
0.10884792 0.28367516 -0.41045421
0.12952872 0.28383639 -0.40696251
0.0062502692 0.30413496 -0.41156214
0.026788032 0.3043223 -0.4080857
-0.19909853 0.67392999 -0.40845996
-0.17835477 0.67334974 -0.41147476
-0.1576571 0.67276835 -0.41449547
-0.13700694 0.67219073 -0.41749686
-0.11640389 0.67161691 -0.42047894
-0.095846519 0.67104185 -0.42346704
-0.034832552 0.69463474 -0.40761155
-0.55106831 -0.12842204 -0.39461899
0.54236048 -0.1074972 -0.39745146
-0.52850169 -0.086250618 -0.40423775
0.52107859 -0.065966487 -0.40089267
-0.50899845 -0.045541495 -0.39870834
-0.48709202 -0.024445519 -0.40572572
0.50166553 -0.025222763 -0.39450556
-0.48956817 -0.004714787 -0.39232343
0.47977242 -0.004145354 -0.4015699
-0.4676607 0.016324133 -0.39937407
-0.44586802 0.037253 -0.40638787
0.46026573 0.036735661 -0.39518589
-0.44826493 0.057259083 -0.39223498
0.43853176 0.05763378 -0.40197092
-0.426707 0.078089878 -0.39779097
-0.40524003 0.09883441 -0.40331137
0.41955671 0.098562017 -0.3915152
0.39807466 0.11931336 -0.39709926
-0.38618407 0.13990349 -0.39292908
0.37668002 0.13997854 -0.40267271
-0.36525008 0.16055796 -0.39494652
0.35646984 0.16055796 -0.3998512
-0.34319562 0.160558 -0.40576321
-0.34512636 0.18122724 -0.39100981
-0.3231194 0.18114363 -0.40187079
0.33635333 0.18118943 -0.3959164
-0.30298603 0.2017895 -0.39795434
0.29434609 0.20171455 -0.40282303
0.31617761 0.20188162 -0.39196986
-0.28279361 0.22249599 -0.39402652
-0.26106438 0.22224595 -0.40485048
0.27416074 0.22238342 -0.39889693
-0.26254436 0.243264 -0.39006162
-0.24086502 0.24292967 -0.40091771
0.23235914 0.2427794 -0.4058007
0.253916 0.24311322 -0.39495921
0.21210535 0.26348555 -0.40188336
0.2336116 0.26390404 -0.39100981
0.15026376 0.2839981 -0.40346169
0.17105252 0.28415963 -0.39996427
0.19189663 0.2843222 -0.39644498
0.047379646 0.30451077 -0.40458781
0.06802503 0.30469918 -0.40109348
0.088724896 0.30488855 -0.39757711
0.10947925 0.30507851 -0.39405167
0.1302883 0.305269 -0.39051688
0.0062502692 0.32565451 -0.39518589
0.026914522 0.32587203 -0.39165413
-0.014367227 0.59352535 -0.39772815
-0.13835528 0.69766432 -0.39247483
-0.117557 0.69705606 -0.39551342
-0.096805274 0.69644678 -0.39855754
-0.076101027 0.69584137 -0.40158254
-0.055443503 0.69523728 -0.40460038
-0.57380348 -0.17090131 -0.38490522
-0.5522995 -0.17043449 -0.3886953
0.54410791 -0.17043139 -0.38872081
0.56480527 -0.17043762 -0.38867009
0.56500268 -0.14986001 -0.38772035
-0.55424261 -0.10930897 -0.37934667
0.54543114 -0.08829467 -0.38210982
-0.53153646 -0.066967219 -0.38907504
-0.53460336 -0.047462672 -0.37375224
0.52367461 -0.046411753 -0.38740367
0.52629936 -0.026659682 -0.37376499
-0.51158893 -0.025864109 -0.38524795
0.50416964 -0.0054152161 -0.3809517
-0.49206692 0.015215501 -0.37879854
0.48215953 0.015715986 -0.38808751
-0.47004497 0.036307052 -0.38590759
0.48457307 0.035778113 -0.37445593
0.46279067 0.056798801 -0.38027692
-0.45099661 0.077422246 -0.37610531
0.44112852 0.077723972 -0.38590759
-0.42930365 0.098335996 -0.38172805
-0.4077009 0.11916292 -0.38732767
0.42205122 0.11897789 -0.37531292
0.40043271 0.13981155 -0.38097709
-0.38854015 0.16055796 -0.3768205
0.37890464 0.160558 -0.38661784
-0.367311 0.18131134 -0.38007301
0.35841411 0.18127345 -0.38499409
-0.34707853 0.20212606 -0.37609243
-0.32494345 0.20195726 -0.38706154
0.33818865 0.20205025 -0.3810153
-0.30470109 0.22274821 -0.38310158
0.29594237 0.22263488 -0.38801175
0.31790328 0.22288857 -0.37702477
-0.2844004 0.24360105 -0.37911725
0.27564859 0.24344972 -0.38402909
0.29755777 0.24378866 -0.37302256
-0.26412019 0.26454663 -0.37431514
-0.2422563 0.26410237 -0.38585705
0.25534409 0.26434714 -0.37949961
0.21338789 0.28484058 -0.38522261
0.2350816 0.28537506 -0.37364984
0.1511516 0.30545932 -0.38698542
0.17207064 0.30565077 -0.38343197
0.19307679 0.30586743 -0.37941033
0.0476331 0.32608929 -0.38812566
0.068406507 0.32630795 -0.38457513
0.089234866 0.32652718 -0.3810153
0.1101179 0.3267462 -0.37745887
0.13105673 0.32696664 -0.37388027
0.0062502692 0.34744108 -0.3785944
0.027042484 0.34768784 -0.37503159
-0.014450703 0.61597937 -0.38688397
-0.014534367 0.6386047 -0.37601578
-0.20103498 0.69949961 -0.38330489
-0.18009451 0.69888729 -0.38636428
-0.15920077 0.69827372 -0.38942933
-0.035303667 0.72153604 -0.37701201
-0.056157392 0.7222271 -0.37368822
0.59116256 -0.17367767 -0.36236429
-0.57711655 -0.15195994 -0.36953461
0.56821465 -0.13083102 -0.37226665
0.57146114 -0.11158057 -0.35664713
-0.55745059 -0.08997564 -0.36391234
0.54853451 -0.068869978 -0.36660421
-0.53770792 -0.027735248 -0.3582406
-0.51420802 -0.0059887618 -0.37163854
0.52894837 -0.0067054182 -0.36000025
-0.51685125 0.014089584 -0.35790396
0.50670153 0.014592931 -0.36724734
-0.49465287 0.035332218 -0.36480165
-0.47277799 0.056421444 -0.37047172
0.48744637 0.05595012 -0.35822773
0.46555772 0.077047579 -0.36393821
-0.4537591 0.097829349 -0.35979319
0.44375876 0.098056741 -0.36963737
-0.4319317 0.11882635 -0.36547148
-0.41018939 0.139736 -0.3711642
0.42457405 0.13964179 -0.35892653
0.40281928 0.160558 -0.36465991
-0.39092466 0.18146189 -0.36051738
0.38115793 0.18138619 -0.37035608
-0.36939672 0.20229657 -0.36502051
0.36038011 0.20222035 -0.36997128
-0.34905422 0.22325873 -0.36099541
-0.32678622 0.22300233 -0.37210011
0.3400445 0.22314441 -0.36594784
-0.32866237 0.24428616 -0.35686755
-0.30643529 0.24394077 -0.36808312
0.31964833 0.24413079 -0.36191249
-0.28617254 0.26499462 -0.362674
0.27726498 0.26479444 -0.36787748
0.29937565 0.26524556 -0.35615456
-0.2658779 0.28615558 -0.35675097
-0.24386373 0.28561497 -0.36845577
0.25696275 0.28591424 -0.36197698
0.21473104 0.30649453 -0.36777449
0.23657185 0.30712622 -0.35605073
0.15205115 0.3271876 -0.37029207
0.17310062 0.32740831 -0.36670709
0.19429089 0.32770514 -0.36188662
0.047889896 0.34793624 -0.37144637
0.068792716 0.3481853 -0.36785173
0.089750789 0.34843412 -0.36426032
0.11076502 0.34868455 -0.36064649
0.13183533 0.34893554 -0.35702312
-0.014656164 0.36962223 -0.36019409
0.0062502692 0.36949891 -0.36179614
0.027172137 0.36977673 -0.35818887
-0.014618015 0.66139698 -0.3651495
-0.16119727 0.72569335 -0.35701013
-0.1400864 0.72499943 -0.3603493
-0.11902671 0.72430432 -0.363693
-0.098018825 0.72361106 -0.36702871
-0.077062547 0.72291952 -0.37035608
-0.60323352 -0.19672556 -0.3458724
-0.58221394 -0.19672386 -0.3458854
0.59471446 -0.19672386 -0.3458854
-0.60365379 -0.17594083 -0.34398973
0.59455687 -0.15460621 -0.34661698
-0.58046764 -0.13280104 -0.35398734
0.57474798 -0.092107698 -0.34083331
-0.56069821 -0.070420936 -0.34828722
0.55167651 -0.049221396 -0.35090613
-0.54084581 -0.0077793598 -0.34256291
0.53180814 0.013401762 -0.34514058
-0.51979858 0.034306213 -0.34258914
0.50942975 0.034763098 -0.35248017
-0.49769187 0.055569977 -0.34835243
-0.4756805 0.076743923 -0.35407853
0.49038687 0.076360285 -0.34161985
0.46835628 0.09754353 -0.34741306
-0.45655742 0.1184845 -0.34327006
0.44642097 0.11863697 -0.35316908
-0.43458951 0.13956559 -0.34903049
-0.41271001 0.16055796 -0.35479248
0.42712766 0.16055796 -0.34234035
0.40523496 0.18155715 -0.34814382
-0.39333817 0.20261995 -0.34401608
0.38343686 0.20246759 -0.35390949
-0.37150589 0.22351727 -0.34979916
0.3623682 0.22340223 -0.35477936
-0.35113761 0.24464917 -0.34507513
0.34197092 0.24448815 -0.35030723
-0.33085385 0.265903 -0.33907497
-0.30841571 0.26544672 -0.35093212
0.32167858 0.26570067 -0.34432983
-0.28808185 0.28670034 -0.34495759
0.27903372 0.28645808 -0.35020304
-0.26765734 0.30804667 -0.33896995
-0.24549332 0.30740839 -0.35081506
0.25860259 0.30776349 -0.34422529
0.21609071 0.32843024 -0.35011184
0.15296124 0.34918636 -0.35340285
0.17414428 0.34943879 -0.34976017
0.19552083 0.34982857 -0.34413373
0.048149895 0.37005609 -0.35455883
0.069183461 0.37033516 -0.35093212
0.090273567 0.3706162 -0.34728265
0.11142024 0.37089783 -0.34362328
0.13262308 0.37117934 -0.33996749
-0.014787149 0.3919695 -0.34317839
0.0062502692 0.3918322 -0.34480059
0.02730342 0.39214253 -0.34113467
-0.014701642 0.68435568 -0.35428619
-0.014785334 0.70748371 -0.34341395
-0.20357917 0.72709745 -0.35025513
-0.18236195 0.72639453 -0.35363674
0.6178236 -0.1979505 -0.33651233
-0.60719353 -0.15674056 -0.3281337
0.59799075 -0.13531218 -0.33068573
-0.58385748 -0.11342062 -0.33826065
-0.58728665 -0.093815014 -0.3223511
0.57807058 -0.072405815 -0.32484758
-0.5639807 -0.050638735 -0.33249414
0.55485505 -0.02934368 -0.33502495
-0.54414201 0.012375414 -0.32609391
0.53553742 0.033529148 -0.32576263
-0.52301902 0.054704189 -0.32585537
0.51251113 0.055086941 -0.33580172
-0.50077039 0.076054528 -0.33168924
-0.47861835 0.097314164 -0.33748531
0.49336118 0.097021714 -0.32482088
0.47119144 0.11829057 -0.3306725
-0.45938998 0.13939254 -0.32654452
0.44911367 0.1394691 -0.33651221
-0.43727976 0.1605579 -0.33238864
-0.41526133 0.18163352 -0.33822131
0.42971265 0.18173116 -0.32555044
0.40768027 0.20281377 -0.33142519
-0.39578122 0.22403665 -0.32731283
0.38574362 0.2238068 -0.3372618
-0.37404272 0.24506748 -0.33149123
0.36450759 0.24485379 -0.33843148
-0.35348636 0.26636291 -0.32712734
0.34417629 0.26615983 -0.33240187
-0.31047922 0.28724974 -0.33306146
0.30129704 0.2870065 -0.33832622
0.3237552 0.28755993 -0.32634568
-0.29001486 0.30869055 -0.32702136
0.2808257 0.30840632 -0.33229649
-0.24714306 0.32948679 -0.33295584
0.23808162 0.3291626 -0.33822131
0.26026401 0.32990038 -0.32623971
0.21746926 0.35065502 -0.33220398
0.15388346 0.37146252 -0.33628857
0.17520109 0.37174648 -0.33259976
0.196767 0.37224323 -0.32614684
0.04841296 0.39245272 -0.33747208
0.069579422 0.3927649 -0.33378649
0.09080293 0.39307779 -0.330091
0.11208321 0.39339039 -0.32639873
0.13342139 0.39370501 -0.32268333
-0.014919788 0.4145987 -0.32594812
0.0062502692 0.41444808 -0.32757771
0.027436359 0.41479105 -0.32386541
-0.014869699 0.73079705 -0.3324548
-0.099670984 0.75371701 -0.32410443
-0.078363068 0.75285119 -0.32812035
-0.057117254 0.75198823 -0.33212495
-0.035932872 0.75112188 -0.33614385
-0.63069975 -0.20038034 -0.31794488
0.62140357 -0.17883696 -0.32047582
-0.6107716 -0.13731469 -0.31210577
0.60146207 -0.11579035 -0.31458056
-0.59075886 -0.073981389 -0.30624199
0.58143502 -0.052473485 -0.30866027
-0.56730419 -0.030626938 -0.316504
0.55806822 -0.0092322528 -0.31897104
-0.54822308 0.032602534 -0.305704
0.5394935 0.053909272 -0.30520618
-0.52627915 0.07535328 -0.30891538
0.51562804 0.075661615 -0.3189311
-0.50388682 0.09679082 -0.31482112
-0.48159227 0.11813678 -0.32068872
0.49637461 0.1179385 -0.30780101
0.47405934 0.13929394 -0.31373847
-0.46225521 0.16055796 -0.30962658
0.45183954 0.16055796 -0.31965053
-0.44000089 0.18180804 -0.31555605
-0.41784388 0.20296741 -0.32144701
0.4323296 0.20316584 -0.30855286
0.41026324 0.22434956 -0.31376517
0.38842764 0.24548633 -0.3178916
-0.39871958 0.24581468 -0.30722332
-0.37683275 0.26696986 -0.31135571
0.3668713 0.26662302 -0.32036924
-0.35586447 0.28836322 -0.30895567
-0.33307254 0.28780401 -0.32106125
0.34641078 0.28811809 -0.31425977
-0.31256998 0.30934072 -0.31495488
0.30324379 0.30905479 -0.32026279
0.32585934 0.30970895 -0.30812323
-0.26946151 0.33022672 -0.32094157
-0.29197487 0.33097237 -0.30883479
0.28264141 0.33064485 -0.31415296
-0.24881458 0.35185659 -0.31486142
0.2396102 0.35148886 -0.32016969
0.26194745 0.35233086 -0.30801582
0.21886602 0.37317377 -0.31405938
0.15481663 0.39401942 -0.31897116
0.17627046 0.39433575 -0.3152355
0.19802874 0.39495385 -0.30793524
0.048679553 0.41513366 -0.32015634
0.06998039 0.41547847 -0.31642389
0.091338597 0.41582298 -0.31269479
0.11275511 0.41616958 -0.3089422
0.13422926 0.41651601 -0.30519271
-0.015062587 0.43762517 -0.30739784
0.0062502692 0.43745041 -0.30914354
0.027580412 0.43784988 -0.30515242
-0.015033254 0.58622843 -0.31120837
-0.1424735 0.75545299 -0.31605017
-0.12104128 0.75458509 -0.32007635
-0.014954744 0.75429827 -0.32140696
-0.18552543 0.75719333 -0.30797541
-0.16396844 0.75632334 -0.31201196
-0.63445687 -0.22386627 -0.30167603
0.62560052 -0.22386627 -0.30167603
0.6469574 -0.22386627 -0.30167603
-0.6344288 -0.18113749 -0.30179751
0.62502879 -0.15949984 -0.30423701
0.62869692 -0.13993354 -0.28780568
-0.61439168 -0.11766075 -0.29588997
0.60497725 -0.09603937 -0.29827213
-0.59426904 -0.053913251 -0.28995705
0.58483928 -0.032305047 -0.29228163
-0.57066667 -0.010380402 -0.30032623
0.56183237 0.010978207 -0.30016434
-0.52990931 0.096218839 -0.29005218
0.51878601 0.096491046 -0.30183792
-0.50704181 0.11778359 -0.29774451
-0.4846029 0.13921656 -0.30368495
0.49942556 0.13911551 -0.29056907
0.47696507 0.16055804 -0.29658067
-0.46515584 0.18198559 -0.29249883
0.45459914 0.18190791 -0.30257964
-0.44275782 0.2033207 -0.29850209
-0.42067188 0.22459626 -0.30307853
0.43532881 0.22491977 -0.28907228
0.41326055 0.24624428 -0.29327273
0.39125678 0.26750425 -0.29747403
-0.37966591 0.28919667 -0.29090893
0.36932114 0.28870073 -0.30164909
-0.35827595 0.31065696 -0.2905283
-0.33532232 0.30999595 -0.30279529
0.34867507 0.31036884 -0.29587626
-0.31468698 0.33172449 -0.29662108
0.3052164 0.33139578 -0.3019594
0.32799158 0.33215338 -0.28965771
-0.29395956 0.3535499 -0.29041934
-0.2712869 0.35269901 -0.30270112
0.28448126 0.35317945 -0.2957679
-0.25050828 0.37452346 -0.29652631
0.24116021 0.37411255 -0.30186498
0.26365212 0.37505943 -0.28956234
0.22028141 0.39599225 -0.29567301
0.1557624 0.41686445 -0.30141973
0.17735426 0.41721386 -0.29763627
0.19934314 0.41801518 -0.28896356
0.04897197 0.43824905 -0.30116343
0.070425212 0.43864936 -0.29716265
0.091940403 0.43905085 -0.29315042
0.11351834 0.43945491 -0.28911316
0.0062502692 0.46096581 -0.28858209
-0.20714444 0.75806302 -0.30394077
0.6507591 -0.20466368 -0.28521419
-0.63820177 -0.16166805 -0.28546011
0.63240576 -0.12013234 -0.27119219
-0.61805451 -0.097775027 -0.27948248
0.6085313 -0.076052487 -0.28178358
-0.59782368 -0.033608675 -0.27346551
0.58862138 -0.011996403 -0.27408493
-0.5749107 0.009886682 -0.27990746
0.56602389 0.031379431 -0.27922201
-0.55236775 0.053131506 -0.28499579
0.54350913 0.074596561 -0.28434038
0.52198094 0.11758035 -0.28454518
-0.51023597 0.13903768 -0.28045535
-0.48764846 0.16055796 -0.28648341
0.50251234 0.160558 -0.27313507
0.47990489 0.18208769 -0.27922201
-0.468279 0.203697 -0.27405739
0.4574638 0.20353068 -0.28485918
-0.44602537 0.22516872 -0.27828944
-0.42383885 0.24657583 -0.28250873
-0.40171912 0.26791841 -0.28671527
0.41630057 0.26846591 -0.27248764
0.39412811 0.28985059 -0.27675211
0.3720248 0.311171 -0.28098965
-0.3607198 0.33324972 -0.2718538
-0.33760047 0.33248335 -0.28429937
0.3509697 0.33291766 -0.27724636
-0.31683385 0.35440844 -0.27802861
0.30721536 0.35403556 -0.28341115
0.33015245 0.35489929 -0.270944
-0.29597077 0.37643009 -0.27175736
-0.27313802 0.37547207 -0.28420377
0.28634578 0.37601602 -0.27713645
-0.25222462 0.39749327 -0.27794635
0.24273095 0.39703861 -0.2833153
0.26538092 0.39809448 -0.27084744
0.22181727 0.41923833 -0.27572155
0.13515833 0.43985879 -0.28507781
0.1568611 0.44026375 -0.28103065
0.17862689 0.44067001 -0.2769717
-0.015220858 0.46115369 -0.28683782
0.027739046 0.46140087 -0.28454518
0.049290158 0.46183711 -0.28049648
0.070903875 0.46227479 -0.27643597
0.092580475 0.4627136 -0.2723639
-0.015253764 0.56913459 -0.28256333
-0.66670114 -0.25189608 -0.25605321
-0.64499623 -0.25189817 -0.25603926
0.65749675 -0.25189817 -0.25603926
-0.66713381 -0.2304392 -0.25424004
0.65677649 -0.18638937 -0.25915813
-0.64201951 -0.14196785 -0.268929
0.63616216 -0.10009526 -0.25436544
-0.62176079 -0.077653095 -0.26288044
0.61213076 -0.055827931 -0.26508403
-0.60210001 -0.013256356 -0.25362563
-0.57929277 0.030437291 -0.25882411
0.57027918 0.052090928 -0.25796139
-0.55657488 0.073969498 -0.26397562
0.54758573 0.095597647 -0.26315773
-0.53393996 0.1173428 -0.26910841
0.52521843 0.13893425 -0.26702154
-0.51347023 0.1605579 -0.26294971
-0.4907321 0.18216588 -0.26906705
0.50566268 0.18227154 -0.25534213
0.4832204 0.20391899 -0.25964475
0.46084651 0.22550026 -0.26393402
-0.44940832 0.24735005 -0.25736272
0.43853855 0.24701567 -0.26822436
-0.42705098 0.26888335 -0.26164532
-0.4047614 0.29035106 -0.2659148
-0.38253942 0.31175399 -0.27017152
0.39704454 0.3125335 -0.25570452
0.374769 0.33397853 -0.26002002
-0.33991086 0.3552736 -0.2655412
0.35329527 0.35577071 -0.25836492
-0.31900805 0.37739682 -0.25919974
0.30924127 0.37698013 -0.26461303
-0.27501953 0.39855546 -0.26540256
0.28828838 0.39920557 -0.25772476
-0.25419813 0.42100638 -0.2565825
0.24450716 0.42047471 -0.26233923
0.20086908 0.44167393 -0.26693869
0.11432075 0.46315527 -0.26826584
0.13612403 0.4635967 -0.26416981
0.15799102 0.46403956 -0.26006162
0.17992201 0.4644835 -0.25594151
-0.015381606 0.48503619 -0.2659564
0.0062502692 0.48483163 -0.2677269
0.027900059 0.48530471 -0.2636292
0.049613118 0.4857794 -0.25951946
0.071389735 0.48625535 -0.2553978
-0.64588267 -0.12203296 -0.25220084
0.63996077 -0.079814985 -0.23734987
-0.62551135 -0.057290852 -0.24607992
0.61591858 -0.035406843 -0.24751103
0.59305662 0.0084229857 -0.25274587
-0.58374429 0.051299676 -0.23740649
-0.56084585 0.09512376 -0.24263656
0.55172461 0.11692004 -0.2416513
-0.53803164 0.1387867 -0.24784756
0.52893454 0.16055796 -0.24690783
-0.51689315 0.18235564 -0.24442244
-0.49433029 0.20408666 -0.24874437
