ply
format ascii 1.0
comment PCL generated
element vertex 1345
property float x
property float y
property float z
element camera 0
property float view_px
property float view_py
property float view_pz
property float x_axisx
property float x_axisy
property float x_axisz
property float y_axisx
property float y_axisy
property float y_axisz
property float z_axisx
property float z_axisy
property float z_axisz
property float focal
property float scalex
property float scaley
property float centerx
property float centery
property int viewportx
property int viewporty
property float k1
property float k2
end_header
-0.27324 -0.27627498 -0.67607033
-0.29341501 -0.25521809 -0.68105137
-0.27303404 -0.25543094 -0.67874616
-0.27308062 -0.23490606 -0.67814082
-0.27357024 -0.21481477 -0.67178065
-0.35600623 -0.13225974 -0.67255348
-0.37713265 -0.0085164458 -0.6682018
-0.37562853 0.012040624 -0.68122762
-0.37588161 0.073779471 -0.67903602
-0.29340649 0.23817584 -0.68115222
-0.27342689 0.30071598 -0.67364234
-0.27306604 0.32075411 -0.67832989
-0.29351845 0.34113741 -0.67983001
-0.27304763 0.3413021 -0.67856944
-0.27330908 0.36235034 -0.6751731
-0.23362762 -0.34122789 -0.65039444
-0.25381115 -0.31941515 -0.65921235
-0.23338926 -0.31998646 -0.65426493
-0.25334874 -0.29796928 -0.6658867
-0.23360461 -0.29959881 -0.65076768
-0.25334784 -0.27729279 -0.66589952
-0.31575948 -0.23629676 -0.66171741
-0.3786515 -0.029275177 -0.65504801
-0.37742051 0.09486641 -0.66570854
-0.3789615 0.11615934 -0.6523633
-0.35695267 0.21908984 -0.66377187
-0.31665093 0.32398891 -0.65206742
-0.25403655 0.34426117 -0.65595877
-0.29529464 0.36461163 -0.65885413
-0.25332317 0.36358595 -0.66625583
-0.27416122 0.38457328 -0.66410333
-0.25341138 0.38444453 -0.66498256
-0.23351744 0.3863166 -0.65218318
-0.2539593 0.40634435 -0.65707409
-0.2334114 0.40683222 -0.65390527
-0.23432043 -0.36349458 -0.63914442
-0.21338481 -0.36336213 -0.64015687
-0.21331424 -0.34232748 -0.64146662
-0.33834943 -0.19618551 -0.64290476
-0.38003725 -0.050218459 -0.64304709
-0.38031259 0.13756911 -0.64066267
-0.21362925 0.40964723 -0.63562083
-0.2337411 0.42846507 -0.6485517
-0.21329188 0.42954332 -0.64188135
-0.23459196 0.45161366 -0.63473511
-0.21344846 0.45089573 -0.63897562
-0.19334105 -0.40773535 -0.62219763
-0.17256333 -0.40862387 -0.61612308
-0.21381539 -0.38534254 -0.6321665
-0.19303027 -0.38579148 -0.62892592
-0.19312099 -0.36508894 -0.62696183
-0.2556777 -0.34346008 -0.63227093
-0.21391883 -0.32275999 -0.63024652
-0.36094517 -0.15535307 -0.62672603
-0.38262096 -0.092609577 -0.62067151
-0.38132378 -0.071326815 -0.63190544
-0.38161799 0.15913479 -0.62935746
-0.38294348 0.18088654 -0.61787844
-0.36202812 0.24413167 -0.61667752
-0.33946848 0.2846182 -0.63172257
-0.1930472 0.45265961 -0.62855935
-0.21398225 0.47353178 -0.62906957
-0.19305083 0.47363615 -0.62848091
-0.19353688 0.49654335 -0.61795759
-0.17295465 -0.43124741 -0.6059562
-0.15192722 -0.43179303 -0.60241246
-0.15194859 -0.41073066 -0.60171866
-0.17270279 -0.38806766 -0.61249983
-0.32029378 -0.26153833 -0.61263216
-0.3426756 -0.22036545 -0.5996753
-0.38392887 -0.11406879 -0.6093446
-0.40541083 0.033750843 -0.60632861
-0.4057864 0.054954976 -0.60327935
-0.38467386 0.20308486 -0.60289276
-0.32132784 0.35139608 -0.60143852
-0.17260656 0.4760229 -0.61499989
-0.17261113 0.4971118 -0.61488116
-0.15189889 0.49924535 -0.60333276
-0.17320257 0.52113688 -0.59951472
-0.15199052 0.52097499 -0.60035682
-0.15235239 -0.45518905 -0.58860421
-0.13109846 -0.45530242 -0.5879035
-0.13104433 -0.43366593 -0.59024715
-0.28038362 -0.32818407 -0.58327198
-0.36527741 -0.17880526 -0.58652794
-0.40807581 -0.0085165463 -0.58469141
-0.40681899 0.012705296 -0.59489548
-0.407206 0.076467104 -0.5917536
-0.34385905 0.31062263 -0.58784962
-0.25897598 0.43879288 -0.58466458
-0.13102725 0.52277809 -0.59098697
-0.13117388 0.5453006 -0.58463764
-0.1100575 -0.47915798 -0.57266831
-0.10997938 -0.45694494 -0.5777427
-0.38796416 -0.13679339 -0.57439816
-0.40930507 -0.029893549 -0.5747112
-0.40844566 0.098100223 -0.58168864
-0.40968934 0.11989017 -0.57159126
-0.3666507 0.26947814 -0.57378542
-0.13126889 0.50345945 -0.58052361
-0.11006338 0.5263769 -0.57228673
-0.10998252 0.54672146 -0.57753909
-0.11012918 0.57005668 -0.56801283
-0.088787854 -0.50338316 -0.55667162
-0.067271911 -0.50476617 -0.54886031
-0.067271911 -0.48319012 -0.54886031
-0.088726684 -0.4805215 -0.56461763
-0.088785201 -0.4602955 -0.55701613
-0.1101937 -0.43773443 -0.56382215
-0.3042945 -0.31018162 -0.55257082
-0.34677374 -0.24501793 -0.55872416
-0.36932051 -0.20269059 -0.5490129
-0.4117921 -0.073113993 -0.55451906
-0.41054323 -0.051425409 -0.56465852
-0.41094214 0.14183928 -0.56141973
-0.41221437 0.16395475 -0.5510906
-0.38924399 0.22759631 -0.56331456
-0.088746965 0.54983503 -0.56198299
-0.088734075 0.57096195 -0.56365752
-0.067271911 0.57357115 -0.55110443
-0.045610338 -0.50673276 -0.53775311
-0.3919585 -0.16003683 -0.53980589
-0.41304663 -0.094960146 -0.54433346
-0.43604061 0.034868009 -0.53376508
-0.41348919 0.18623066 -0.54074037
-0.37067407 0.29488569 -0.53645289
-0.34803307 0.33703572 -0.54614043
-0.28334045 0.42362064 -0.54486191
-0.067271911 0.55579144 -0.53222275
-0.045591064 0.57686639 -0.53524971
-0.088881649 0.59655643 -0.54448628
-0.067271911 0.59670609 -0.54379082
-0.045593757 0.59847182 -0.53559947
-0.045492992 -0.53121054 -0.52250946
-0.02365287 -0.53194493 -0.51853454
-0.02373407 -0.50920177 -0.52380836
-0.04554484 -0.48651189 -0.5292455
-0.3282229 -0.29121345 -0.52679706
-0.41475615 -0.11710525 -0.53045392
-0.43840301 -0.0085165463 -0.51571286
-0.43721804 0.013245057 -0.52476776
-0.43647209 0.056636512 -0.53046811
-0.4376708 0.078636266 -0.5213083
-0.41629925 0.20962562 -0.51792526
-0.39346552 0.25243837 -0.52675486
-0.023610301 0.58091521 -0.5157696
-0.023740366 0.60092509 -0.52421772
-0.0016333163 -0.5336253 -0.50943959
-0.0015670732 -0.51225358 -0.50657117
-0.26462227 -0.3812893 -0.50316727
-0.35199291 -0.2713359 -0.50657117
-0.37310061 -0.22696552 -0.51393747
-0.39593804 -0.18380512 -0.50534213
-0.41862217 -0.14027284 -0.499066
-0.43959561 -0.03041786 -0.50659978
-0.43887541 0.10077865 -0.51210308
-0.44008794 0.12306572 -0.5028379
-0.37467086 0.32083952 -0.49936748
-0.30753341 0.40648061 -0.51432121
-0.0016504303 0.60395062 -0.51018071
-0.023485832 0.62638175 -0.50768507
-0.001515232 0.6271314 -0.50432658
0.020992666 -0.56016999 -0.48519814
0.020626716 -0.53590816 -0.49708295
0.043204665 -0.53880399 -0.4814086
0.021060131 -0.51642579 -0.48300695
-0.023093142 -0.49448299 -0.48217893
-0.28814226 -0.36190903 -0.4824841
-0.44200394 -0.074645653 -0.48819673
-0.4407959 -0.052460492 -0.49742794
-0.44130272 0.14549628 -0.49355519
-0.44252354 0.16807243 -0.48422635
-0.42021951 0.23413511 -0.48609698
-0.39740399 0.27759808 -0.49264657
-0.33150956 0.38783985 -0.49121773
0.020744659 0.6075995 -0.4932524
0.020681649 0.62914693 -0.4952985
0.043142036 0.63188422 -0.48303604
0.043289796 -0.56132495 -0.47919691
0.066035338 -0.56396341 -0.46548772
0.066008858 -0.54163951 -0.46606088
-0.067271911 -0.47482103 -0.46716261
-0.37666747 -0.25161296 -0.4808414
-0.39950609 -0.20785701 -0.47444189
-0.42243952 -0.1639024 -0.46807265
-0.44321984 -0.096974798 -0.47890568
-0.46637037 0.035827752 -0.47142923
-0.46687818 0.058084533 -0.4677645
-0.44375426 0.19079775 -0.47482193
-0.35548624 0.36837918 -0.47166359
-0.045053583 0.5691601 -0.46542895
-0.0008938387 0.58888614 -0.47741938
0.04360342 0.61238539 -0.47104847
0.06587664 0.63503486 -0.46892369
0.088998236 -0.5666241 -0.45166194
0.089011826 -0.54434651 -0.45140946
-0.24544778 -0.40941226 -0.4584583
-0.31200886 -0.34224868 -0.46146882
-0.44539371 -0.11972876 -0.4622941
-0.46868005 -0.0085165463 -0.45476043
-0.46752188 0.013719697 -0.46311891
-0.46804285 0.080543675 -0.45935905
-0.46921435 0.10313412 -0.45090461
-0.44708446 0.2149027 -0.44937444
-0.42423427 0.25920534 -0.45350099
-0.40115225 0.30310524 -0.46018577
-0.37933627 0.34812838 -0.45607793
-0.089602731 0.54975402 -0.45081556
0.066523962 0.61586416 -0.45490861
0.088838436 0.63822639 -0.45462728
0.1121831 -0.56931341 -0.43768799
0.11224958 -0.54708099 -0.43660855
0.044805631 -0.52407324 -0.43981421
-0.33563468 -0.32160646 -0.44656205
-0.35944977 -0.30069435 -0.4320575
-0.40315071 -0.2324356 -0.44287872
-0.42607126 -0.18791616 -0.43858671
-0.44902217 -0.14325182 -0.43456769
-0.47101665 -0.053377002 -0.43789768
-0.46984497 -0.030881677 -0.44635355
-0.47039476 0.12585783 -0.44238579
-0.47158423 0.14871602 -0.43380141
-0.29130265 0.46194816 -0.4414295
0.089632623 0.61910152 -0.43988907
0.1120282 0.64144653 -0.44020331
0.089973606 0.66539294 -0.43356109
0.13559145 -0.57202578 -0.42359376
0.13573518 -0.5498687 -0.4215194
0.068056352 -0.52727473 -0.42173159
-0.38330421 -0.27940136 -0.41926003
-0.4733806 -0.098762833 -0.4208374
-0.47219515 -0.076003738 -0.42939246
-0.49672407 0.036688905 -0.4154917
-0.4727807 0.17170958 -0.42516649
-0.47402647 0.19486073 -0.4161762
-0.45087653 0.23969819 -0.42039764
-0.42779309 0.28440684 -0.42460728
-0.40477583 0.32898736 -0.42880464
-0.31505725 0.4420023 -0.4254688
0.023123607 0.60165328 -0.41599369
0.11299147 0.62240535 -0.42456174
0.13545004 0.64469868 -0.4256351
0.11321989 0.66832793 -0.42085266
0.15922853 -0.57476753 -0.40934753
0.15948167 -0.55272508 -0.40605891
0.091596805 -0.53051364 -0.40343809
-0.40702078 -0.25766566 -0.40936279
-0.42954469 -0.21229486 -0.41038597
-0.45272094 -0.16723084 -0.40630388
-0.47584039 -0.12200774 -0.40308523
-0.49899241 -0.008516496 -0.39998269
-0.49785528 0.014145767 -0.40775752
-0.49730343 0.059383228 -0.41153038
-0.49845114 0.082258075 -0.40368354
-0.36294764 0.40088063 -0.3971045
-0.33907527 0.4218387 -0.40931678
0.046363614 0.60511529 -0.39933681
0.13662189 0.62581974 -0.40872085
0.15910861 0.64798707 -0.41090488
0.13667378 0.6713025 -0.40797162
0.18312284 -0.57759547 -0.39465308
0.18339753 -0.55543166 -0.39140904
0.20725846 -0.55757725 -0.37979579
0.11543309 -0.53379339 -0.38491488
0.0010874867 -0.50981867 -0.39162564
-0.31817469 -0.37346596 -0.38865376
-0.43305537 -0.23713121 -0.38188279
-0.45619404 -0.19153866 -0.3797648
-0.50128484 -0.05420202 -0.38430905
-0.50013566 -0.031298842 -0.39216661
-0.499605 0.10525531 -0.39579463
-0.50076503 0.12837607 -0.38786328
-0.50192446 0.15161864 -0.3799361
-0.47774354 0.21952321 -0.38935065
-0.45464993 0.26492691 -0.39156353
-0.43142357 0.31011629 -0.39513147
-0.38685676 0.3795507 -0.38629663
-0.021627925 0.58485544 -0.38701034
0.069868855 0.60861695 -0.38248968
0.1605047 0.62925798 -0.39276922
0.18421736 0.63163799 -0.38172734
0.18300009 0.65129161 -0.39610291
0.20715338 0.65467799 -0.38093293
0.16033474 0.67430359 -0.39497721
0.20781684 -0.58161801 -0.3737514
0.23149455 -0.5600853 -0.36622036
0.13957077 -0.53711432 -0.36615741
0.024570577 -0.51365024 -0.36900187
-0.22751129 -0.44345188 -0.37800217
-0.34192044 -0.35182714 -0.37851715
-0.36581817 -0.33002782 -0.36842072
-0.47937009 -0.14588258 -0.37761199
-0.50360185 -0.10037542 -0.36846793
-0.50244027 -0.077227347 -0.37640953
-0.52720827 0.037477184 -0.36430013
-0.50309247 0.17498681 -0.37195051
-0.48141551 0.24457113 -0.36285043
-0.4581148 0.29036331 -0.36508727
-0.434847 0.33608514 -0.36733675
-0.41093957 0.35806245 -0.37542498
-0.27335671 0.49524647 -0.37709677
0.093643881 0.61215872 -0.36544943
0.20781827 0.63336056 -0.37373579
0.23179391 0.63562548 -0.3632288
0.25617903 -0.56300378 -0.35042346
0.16346994 -0.53922278 -0.3542496
0.18648773 -0.53910482 -0.3549155
0.20943826 -0.53887773 -0.35619867
0.23291323 -0.53961319 -0.35204422
0.048282392 -0.51695544 -0.3494854
-0.044234529 -0.49230158 -0.3590306
-0.29834503 -0.40134078 -0.34994662
-0.38988727 -0.30808794 -0.35817671
-0.41373292 -0.28568524 -0.35123396
-0.45958081 -0.2162094 -0.35388494
-0.48296347 -0.17017435 -0.35167885
-0.50632012 -0.1240555 -0.34988284
-0.52944016 -0.008516496 -0.34980345
-0.5283215 0.014536006 -0.35706937
-0.52784687 0.060569696 -0.36015213
-0.5289681 0.08382275 -0.35286939
-0.50475341 0.19871153 -0.36059451
-0.067271911 0.5677073 -0.35752833
0.0021161884 0.59284699 -0.3470813
0.11769337 0.61574143 -0.34821212
0.25617045 0.63836819 -0.35050297
0.23187438 0.6588099 -0.36242461
0.14209804 -0.68315297 -0.32967949
0.11870674 -0.65944189 -0.33175707
0.14175355 -0.65881795 -0.33465147
0.11874939 -0.63633835 -0.33106482
0.14182371 -0.63580328 -0.33363914
0.11879303 -0.61322755 -0.33035624
0.141895 -0.61277646 -0.33260989
0.2814641 -0.56649423 -0.33153176
0.25692254 -0.5411216 -0.34352458
0.28134519 -0.54306269 -0.33256185
0.072306551 -0.5203042 -0.32971179
-0.43766975 -0.26316494 -0.34441864
-0.53169382 -0.054958742 -0.33516538
-0.53056425 -0.031681128 -0.34250212
-0.53009236 0.10718859 -0.34556723
-0.53122455 0.13066933 -0.33821332
-0.53237224 0.15426864 -0.33075881
-0.50838822 0.2236501 -0.33574343
-0.48508707 0.27002704 -0.33635318
-0.46163797 0.31625551 -0.3381654
-0.36943087 0.4331004 -0.33232033
-0.34535217 0.45495057 -0.34136701
0.025793806 0.59641063 -0.32927644
0.14197639 0.61922842 -0.3314352
0.1651791 0.61910117 -0.33204675
0.18837243 0.61897427 -0.33265817
0.21155491 0.61884391 -0.33328545
0.23472935 0.6187169 -0.33389616
0.25804511 0.61888063 -0.33310843
0.28100932 0.64160848 -0.33547044
0.1197333 -0.75653732 -0.31508827
0.11943514 -0.73200625 -0.3199296
0.14291185 -0.73248267 -0.3179332
0.096440114 -0.71013951 -0.31355774
0.1191658 -0.70765793 -0.32430303
0.14250413 -0.70776999 -0.32381773
0.096312054 -0.68622148 -0.31593406
0.1661706 -0.68549979 -0.31916714
0.11893202 -0.68350577 -0.32809913
0.096241973 -0.66257197 -0.31723475
0.16563338 -0.66065127 -0.32614601
0.096237592 -0.63919598 -0.31731594
0.16572919 -0.63761944 -0.32490134
0.096249871 -0.61588311 -0.31708837
0.16582629 -0.61457187 -0.32363975
0.30619413 -0.54537386 -0.31950796
-0.46302706 -0.24131359 -0.32755077
-0.48639849 -0.194795 -0.32688868
-0.50977308 -0.14825371 -0.32627499
-0.53396964 -0.1018561 -0.32038367
-0.53282893 -0.078350097 -0.32779264
-0.55773216 0.038193997 -0.31773829
-0.55848432 0.061656713 -0.31308544
-0.53352565 0.17798495 -0.3232677
-0.41760817 0.38853139 -0.31767321
-0.39346123 0.41086984 -0.32501459
-0.25442457 0.52954733 -0.31269407
0.28208604 0.62032789 -0.32614577
0.30662027 0.62242663 -0.31604791
0.30648613 0.6455602 -0.31713712
0.097171031 -0.78374743 -0.29999375
0.12032039 -0.78233463 -0.30555499
0.14430514 -0.78429896 -0.29782271
0.096737333 -0.75827307 -0.30804205
0.14333579 -0.75734389 -0.31181371
0.16759092 -0.73659122 -0.30071664
0.096585952 -0.73417264 -0.31085134
0.16687861 -0.71096802 -0.3099699
0.33166412 -0.54825342 -0.30324435
0.096648403 -0.52369457 -0.30969226
0.16788721 -0.52586651 -0.29686785
0.19130969 -0.52567965 -0.29797077
0.2147533 -0.5255627 -0.29866183
0.23818627 -0.52544576 -0.29935253
0.26160687 -0.52532601 -0.30005944
0.28501666 -0.52520627 -0.30076599
0.30825791 -0.52486998 -0.30275226
0.33215404 -0.52542067 -0.29950058
-0.020295046 -0.50177366 -0.30043721
-0.27857223 -0.43111706 -0.30181682
-0.34932145 -0.38458252 -0.29839873
-0.37156957 -0.35962927 -0.31094909
-0.39573324 -0.33697778 -0.30393302
-0.41995734 -0.31417716 -0.29732883
-0.4897202 -0.21974066 -0.30291617
-0.51328075 -0.1728356 -0.30229282
-0.53685093 -0.12591122 -0.301669
-0.56114334 -0.032034174 -0.2966373
-0.56003278 -0.0085165463 -0.30350673
-0.55892992 0.014895847 -0.31032908
-0.55963022 0.085266143 -0.30599713
-0.56074959 0.10897808 -0.2990731
-0.53546989 0.20217255 -0.31063914
-0.51196688 0.24893855 -0.31127548
-0.48847604 0.29568648 -0.31189525
-0.46581557 0.34313977 -0.30624247
-0.44181624 0.36602771 -0.31075335
-0.32554594 0.48455215 -0.30160332
-0.11430221 0.55584711 -0.29696655
0.049753085 0.60001361 -0.3112756
0.33152249 0.62486291 -0.30432642
0.098304398 -0.83639801 -0.27896094
0.074666806 -0.81283587 -0.27861083
0.097664021 -0.80963385 -0.2908448
0.12120899 -0.80956024 -0.29112601
0.074421681 -0.78783131 -0.28391814
0.074286781 -0.76349622 -0.28683853
0.16851896 -0.76304722 -0.28866088
0.074350379 -0.74023163 -0.28546202
0.074489988 -0.71732587 -0.28243935
0.12108488 -0.52649766 -0.29314125
0.14450029 -0.52618188 -0.2950058
0.35717687 -0.5272873 -0.28847873
0.0036839768 -0.50520772 -0.27919412
-0.44399971 -0.2910623 -0.29302585
-0.46811423 -0.26788509 -0.28867745
-0.49309269 -0.24508362 -0.27857745
-0.51675183 -0.1977711 -0.27856088
-0.54029322 -0.15042287 -0.27931058
-0.56337672 -0.079388604 -0.28282166
-0.56225616 -0.055657789 -0.28975332
-0.56187397 0.13279848 -0.29211748
-0.56300086 0.15672648 -0.28514683
-0.53911382 0.22740452 -0.28697109
-0.51560414 0.27464074 -0.28640747
-0.49192047 0.3217656 -0.28703737
-0.043627381 0.58259666 -0.28015995
0.074000247 0.60366279 -0.2930423
0.21655935 0.60645127 -0.27911067
0.2401486 0.60632461 -0.27974379
0.26372814 0.60619795 -0.28037643
0.28729412 0.60606462 -0.28104222
0.309753 0.60414898 -0.29061329
0.33291495 0.60353404 -0.29368603
0.35741106 0.60491461 -0.28678882
0.35832494 0.62987882 -0.28019321
0.099126421 -0.86427927 -0.26370609
0.074976154 -0.83829695 -0.27191317
0.12223049 -0.8375895 -0.27453887
0.14591828 -0.81390166 -0.27453887
0.074878044 -0.69557458 -0.27403736
0.3842847 -0.53137147 -0.26436222
0.31299251 -0.50761354 -0.26431179
0.33544034 -0.50598454 -0.27438855
0.35866898 -0.50544757 -0.27771056
0.38336644 -0.50659043 -0.27064049
-0.56449968 -0.10322651 -0.27587521
-0.58958626 0.015225088 -0.26755488
-0.58840346 0.038859073 -0.27453887
-0.58920842 0.062656768 -0.26978588
-0.59040344 0.086598307 -0.26272964
-0.5641275 0.18076172 -0.2781775
-0.56624663 0.20532973 -0.26506853
-0.54260767 0.25291812 -0.26427817
-0.51895899 0.30053258 -0.26347053
-0.42376983 0.41928095 -0.26431179
-0.39950189 0.44236708 -0.26896417
0.33714688 0.58621711 -0.26134837
0.35975778 0.58458036 -0.26985276
0.38388652 0.58511311 -0.26708484
0.098539077 0.60735303 -0.27460587
0.12236435 0.60780144 -0.27236509
0.1459403 0.60742986 -0.2742213
0.16948777 0.60705882 -0.27607548
0.19301403 0.60670483 -0.27784419
0.38323906 0.60797215 -0.27151132
0.075586446 -0.86566669 -0.25869989
0.12381189 -0.86839366 -0.24885988
0.052059412 -0.84383577 -0.25135553
0.051999375 -0.81956124 -0.25291526
0.052211091 -0.7971043 -0.24741495
0.027998716 -0.50868726 -0.25766981
0.29037571 -0.5092231 -0.25435519
0.40943521 -0.50905895 -0.25537038
0.38598129 -0.48562515 -0.25276279
0.41021276 -0.48600119 -0.25032032
-0.2578142 -0.4610545 -0.25765288
-0.3292776 -0.41343439 -0.25753462
-0.40121874 -0.36631668 -0.25303376
-0.42558545 -0.34294248 -0.24858809
-0.52001256 -0.22297259 -0.25626695
-0.5437187 -0.17527281 -0.25706136
-0.56740719 -0.12759629 -0.25788951
-0.59302872 -0.05631255 -0.24722791
-0.59193361 -0.032364674 -0.25369465
-0.59077442 -0.0085164458 -0.26053917
-0.59159815 0.11064855 -0.2556752
-0.5927006 0.13478228 -0.24916565
-0.49665326 0.3493014 -0.25288141
-0.47248629 0.37286168 -0.25526893
-0.44810906 0.39612293 -0.25966191
-0.37681526 0.467704 -0.25853121
-0.3056789 0.51597887 -0.2546767
0.41100854 0.56542015 -0.24515152
-0.01967999 0.58638257 -0.26048851
0.31452775 0.58804554 -0.25184727
0.40931806 0.58722097 -0.25613165
0.052940771 -0.89809042 -0.22845721
0.076621644 -0.89586014 -0.23628724
0.052382834 -0.87003052 -0.24295306
0.052655883 -0.51221317 -0.23585904
0.14897147 -0.51308441 -0.23046982
0.17278695 -0.51264006 -0.23321831
0.19662869 -0.51232672 -0.23515642
0.22043929 -0.51201105 -0.23710918
0.24422175 -0.51169854 -0.2390424
0.2676107 -0.51084042 -0.24435103
-0.091197871 -0.48703569 -0.24360096
0.34079221 -0.48859191 -0.23349273
0.36339769 -0.48703837 -0.2435838
0.43582168 -0.48765332 -0.23958945
0.43733487 -0.46506548 -0.23022914
-0.45002428 -0.31950277 -0.24411237
-0.47426102 -0.29580295 -0.24170744
-0.49852347 -0.27205908 -0.23938441
-0.52332103 -0.24854231 -0.23364735
-0.54719681 -0.20048653 -0.23447049
-0.5709492 -0.15242429 -0.23597884
-0.59523284 -0.10450936 -0.23421323
-0.59412849 -0.080360577 -0.24073434
-0.61926448 0.03948288 -0.23402476
-0.62009788 0.063591197 -0.22931767
-0.59380764 0.15901758 -0.24262905
-0.59491646 0.18335433 -0.2360816
-0.56996518 0.23086135 -0.24206579
-0.54615885 0.27881569 -0.24121225
-0.5223369 0.32679451 -0.24037564
0.36503389 0.5678913 -0.23177588
0.38761824 0.5660817 -0.24157095
0.43607053 0.56673199 -0.23805046
0.0045761168 0.59021717 -0.24056351
0.2689178 0.59182221 -0.23222244
0.29177108 0.58988851 -0.24227059
0.43727377 0.59213316 -0.23060727
0.02943071 -0.90301573 -0.21116459
0.10111216 -0.89854658 -0.22685516
0.029207729 -0.87683338 -0.21840596
0.029224277 -0.85285813 -0.2178688
0.077367581 -0.51475471 -0.2201376
0.10128785 -0.51419574 -0.22359502
0.12515536 -0.51363808 -0.22704482
0.29520622 -0.49182069 -0.21252143
0.31803942 -0.49015564 -0.2233361
0.39189249 -0.46768087 -0.21234775
0.41448429 -0.46618485 -0.2225759
0.46257213 -0.4661091 -0.22309422
-0.30844834 -0.44263411 -0.21870041
0.46394768 -0.44315076 -0.21497178
-0.37993866 -0.39333707 -0.22732055
-0.55047703 -0.22595881 -0.21316481
-0.57430869 -0.17752883 -0.21519732
-0.59811246 -0.12916207 -0.21720994
-0.62275779 -0.032667994 -0.21429443
-0.62158847 -0.008516496 -0.22089875
-0.62042403 0.015533594 -0.22747552
-0.62127012 0.087830976 -0.22269678
-0.62244427 0.11217327 -0.21606529
-0.5971452 0.20824993 -0.22292149
-0.57338983 0.25659299 -0.2208817
-0.54960346 0.30499899 -0.21883905
-0.45404813 0.42660689 -0.21144295
-0.4295935 0.45042402 -0.21387744
-0.35675088 0.49807173 -0.21797276
0.46463087 0.52338624 -0.21093822
0.41587967 0.54710782 -0.21351242
0.43810883 0.5449959 -0.22544146
0.46271262 0.54555833 -0.22226477
0.31939501 0.57148391 -0.21233022
0.34228644 0.56968361 -0.22207463
0.46406832 0.57112741 -0.21425962
0.029146954 0.59410143 -0.22037983
0.15027764 0.59578788 -0.21161687
0.17419559 0.59515238 -0.21491957
0.19811606 0.59463799 -0.2175914
0.22206941 0.5942781 -0.21946239
0.24599764 0.59392494 -0.22129655
0.053757966 -0.92834353 -0.20722592
0.078245766 -0.9301284 -0.20112419
0.029858686 -0.83412653 -0.19726574
-0.067271911 -0.49355382 -0.2012645
0.27230141 -0.49362123 -0.20082641
0.36915249 -0.46918678 -0.20205224
0.44097736 -0.44415879 -0.20769691
0.48958912 -0.44432086 -0.20652771
0.46747026 -0.42172641 -0.19417214
0.49082199 -0.42102069 -0.19956434
-0.43096903 -0.37221366 -0.20196486
-0.45551115 -0.34822571 -0.19956446
-0.48008841 -0.32419974 -0.19717801
-0.50459814 -0.30006737 -0.19554389
-0.52897632 -0.27581912 -0.19498122
-0.57771331 -0.20297043 -0.19413686
-0.6016776 -0.15426345 -0.19615912
-0.62618661 -0.10571908 -0.19492829
-0.62510204 -0.081276938 -0.20105422
-0.62393212 -0.056921713 -0.20766199
-0.65032488 0.040071309 -0.19580758
-0.62362653 0.13661943 -0.20938814
-0.62481374 0.16117023 -0.2026825
-0.62592208 0.18579666 -0.19642258
-0.60077739 0.23398598 -0.20147443
-0.57686138 0.28267765 -0.1994065
-0.55291134 0.33143103 -0.1973536
-0.52745867 0.3547889 -0.20535743
-0.5030762 0.378865 -0.20652771
-0.47854301 0.40275455 -0.20898736
0.49140629 0.50158095 -0.19626451
0.44218436 0.52519965 -0.2002306
0.48970041 0.52423966 -0.20589924
-0.28503749 0.54799539 -0.20849907
0.39345974 0.54921144 -0.20163202
0.29649597 0.5735122 -0.20135176
0.054041378 0.59805 -0.19986248
0.078241728 0.59779036 -0.20121193
0.10228189 0.59703273 -0.20514798
0.12630606 0.59641469 -0.2083596
0.029994056 -0.93254316 -0.19286942
0.0059047788 -0.91102886 -0.18303096
0.0059088692 -0.88668585 -0.18285358
0.24922353 -0.49543256 -0.18906152
0.32339916 -0.4724384 -0.1798203
0.34626287 -0.47070241 -0.19168937
0.41915277 -0.44629878 -0.19225299
-0.35929447 -0.42221504 -0.19043767
0.44571933 -0.42379522 -0.17836392
0.51700789 -0.42238128 -0.18916738
0.49419203 -0.39910007 -0.18053043
0.51795834 -0.39867002 -0.18402267
-0.55372369 -0.25174236 -0.19207704
-0.62900621 -0.13063268 -0.17900336
-0.65374798 -0.032953002 -0.17727935
-0.65260357 -0.0085165463 -0.18347371
-0.65146035 0.015824689 -0.18966138
-0.65118343 0.064472385 -0.19116056
-0.65233529 0.088994138 -0.18492532
-0.65348858 0.11361203 -0.17868352
-0.62819278 0.21097429 -0.18359768
-0.6043334 0.26001418 -0.18047726
-0.58037519 0.30911881 -0.17767048
-0.40781289 0.47797072 -0.19184792
0.51851833 0.47964203 -0.18099177
0.46871278 0.50310528 -0.18683565
0.51697528 0.50269985 -0.18934369
0.42023188 0.52773768 -0.18524408
0.34762567 0.5528155 -0.18127537
0.37058112 0.55096239 -0.19174206
-0.091662094 0.57684797 -0.18329644
0.25024965 0.57767725 -0.17880797
0.27345526 0.57558715 -0.1901201
0.0062018335 -0.93918395 -0.17016792
0.0064202994 -0.86825889 -0.16070819
0.17828304 -0.49962646 -0.16182184
0.20253477 -0.4990741 -0.16540909
-0.042821437 -0.49752599 -0.17546427
0.2260631 -0.49740821 -0.17622972
0.30036306 -0.47418755 -0.16786182
0.3749187 -0.45070702 -0.16043866
0.3971023 -0.44845003 -0.17672789
0.42370257 -0.42584479 -0.16270149
-0.41006854 -0.40028399 -0.17091811
0.47251442 -0.40108836 -0.1643877
0.54472756 -0.40019602 -0.17163205
0.52125162 -0.37634361 -0.1661973
0.54522938 -0.37601721 -0.16902435
-0.58114666 -0.22874846 -0.17289865
-0.60510093 -0.17964394 -0.17594504
-0.65605688 -0.082114689 -0.16478193
-0.65490013 -0.05748548 -0.17104292
-0.65464628 0.13832709 -0.17241704
-0.65580863 0.16314015 -0.16612566
-0.63173687 0.23690301 -0.16358078
-0.60773009 0.2862789 -0.16042054
-0.55827957 0.3597393 -0.16248596
-0.53363729 0.3842122 -0.16311431
-0.50900728 0.40867794 -0.1637243
-0.48438424 0.43313187 -0.16435194
-0.45977098 0.45757604 -0.1649791
0.54551846 0.45720422 -0.16752195
0.4954612 0.48081666 -0.17336237
0.54457647 0.48096234 -0.17241704
0.44679317 0.50554866 -0.17172122
-0.33615178 0.52924329 -0.17635441
0.3980644 0.530294 -0.17015004
0.32462543 0.55483603 -0.16986418
-0.067271911 0.58089507 -0.1613909
0.22701794 0.58006316 -0.16589272
-0.017967746 -0.92064345 -0.14927483
-0.017966907 -0.50156653 -0.14922047
0.10541759 -0.5019151 -0.14695644
0.12975323 -0.50107938 -0.15238464
0.15400782 -0.50024927 -0.15777636
0.27718368 -0.47599196 -0.15552449
-0.33786067 -0.45129812 -0.15617335
0.3521857 -0.4526481 -0.14643073
0.40153894 -0.42797881 -0.14639437
0.4505389 -0.4030391 -0.14855051
-0.46099988 -0.37763649 -0.15500152
0.49954984 -0.37818289 -0.15026975
-0.48555124 -0.35298181 -0.15543437
0.52533263 -0.35420239 -0.1441083
0.54708928 -0.35255879 -0.15935981
0.57250357 -0.35301095 -0.155164
0.55017823 -0.32959062 -0.14330912
-0.51023835 -0.32843673 -0.15483928
0.57341433 -0.32885963 -0.15061343
-0.53492677 -0.30387741 -0.15429831
-0.55952352 -0.27925491 -0.15440631
-0.58434618 -0.25474229 -0.15310705
-0.6084494 -0.20530832 -0.15617323
-0.63249373 -0.15596563 -0.15930581
-0.65721482 -0.10684032 -0.15851438
-0.68383181 -0.0085163955 -0.14793491
-0.68270791 0.016100986 -0.15377474
-0.68158811 0.040628735 -0.15959382
-0.68247879 0.065308221 -0.15496564
-0.68360883 0.09009742 -0.14909363
-0.68473953 0.11497695 -0.14321852
-0.65697229 0.18805023 -0.15982747
-0.65941387 0.21353661 -0.14661193
-0.63533568 0.26316625 -0.14325476
-0.5836786 0.33575463 -0.15723622
0.57379097 0.41063994 -0.14873159
0.54759502 0.43418783 -0.15673196
0.57260102 0.43447238 -0.15467703
0.50060219 0.46059686 -0.14432609
0.52239525 0.45830339 -0.16000712
0.57442212 0.46041375 -0.14557838
0.4735823 0.48316914 -0.15808237
-0.38718849 0.50827181 -0.15487552
0.42466044 0.50801247 -0.15647984
0.37580702 0.53302461 -0.15402746
0.27820674 0.55905569 -0.14603174
0.30145699 0.55686778 -0.15838838
0.20360708 0.58249223 -0.15274584
0.17941764 0.58353835 -0.14708316
0.0069835559 -0.97383755 -0.13631845
0.031693824 -0.97343248 -0.13766789
-0.017857432 -0.94739151 -0.14210987
-0.01782354 -0.89858717 -0.13990879
-0.21554223 -0.50275081 -0.14152801
0.032020472 -0.50497842 -0.12705958
0.056546919 -0.50379181 -0.13476682
0.080998398 -0.50275081 -0.14152801
-0.28990945 -0.47852916 -0.13817811
0.23053744 -0.48004794 -0.12779343
0.25396222 -0.47801256 -0.14170969
0.32901585 -0.45434016 -0.13421869
-0.38900182 -0.42924017 -0.13675618
0.37927189 -0.43025237 -0.12902188
0.42839736 -0.40505183 -0.13220787
0.47761139 -0.38002777 -0.13429177
0.57559699 -0.30522525 -0.13970828
0.6008302 -0.30545074 -0.13726676
0.60204518 -0.28120112 -0.13142109
-0.61183673 -0.23129301 -0.13617218
-0.63602805 -0.18161622 -0.1393441
-0.66008449 -0.13201906 -0.14298213
-0.6872319 -0.082911775 -0.13026762
-0.68609554 -0.058022421 -0.13617218
-0.68495989 -0.033223964 -0.14207339
-0.71282667 0.04114157 -0.12628877
-0.68587792 0.13994893 -0.13730335
-0.687024 0.16501413 -0.13134789
-0.66289401 0.23965949 -0.12777507
-0.61118233 0.31288528 -0.14003599
0.60240293 0.36352503 -0.12969995
0.5761258 0.38742054 -0.13706601
0.60092497 0.38745201 -0.13681078
0.55096239 0.41188288 -0.1392349
0.60158145 0.41261339 -0.13365221
0.52604127 0.4364683 -0.1402725
0.47854111 0.46286744 -0.12880194
-0.43836185 0.48627007 -0.13794112
0.4292663 0.48802167 -0.12656391
0.45148608 0.48553878 -0.14269137
0.40242103 0.51061785 -0.14036345
0.35332292 0.53578281 -0.13774061
0.25485638 0.56140292 -0.13277471
-0.04254254 0.58498847 -0.13923478
0.08170227 0.58738017 -0.12628865
0.10622024 0.58631372 -0.13206136
0.13069326 0.585379 -0.13712084
0.15509325 0.58445722 -0.14210987
-0.042332008 -0.93129301 -0.11188591
0.0073017776 -0.50567436 -0.12253892
0.20699957 -0.48225814 -0.11268234
0.30582401 -0.45623153 -0.12056899
0.35676944 -0.43255782 -0.11140442
-0.4400129 -0.40610695 -0.12364268
0.40617204 -0.40720612 -0.11471772
-0.4911969 -0.382568 -0.11229336
0.45549163 -0.38191897 -0.11791348
-0.51575673 -0.35733807 -0.11501336
0.50400394 -0.35624963 -0.12511325
-0.54054016 -0.33233166 -0.11591911
0.52904236 -0.33152002 -0.1240288
-0.5653125 -0.30734086 -0.11680591
0.55410111 -0.30677545 -0.1229254
-0.59007126 -0.28236383 -0.11769199
0.57916236 -0.28200787 -0.12189484
0.63022381 -0.28253269 -0.1156975
-0.6152041 -0.25757664 -0.11628854
0.60450381 -0.25732231 -0.11959195
0.629448 -0.25734502 -0.11929691
0.63015217 -0.23268853 -0.11602998
-0.63938493 -0.20751242 -0.12038457
0.63134491 -0.20812131 -0.11049616
-0.6635046 -0.15757474 -0.12447
-0.69115824 -0.13329379 -0.10986567
-0.68837243 -0.10789262 -0.12434137
-0.71521288 -0.0085163955 -0.11436617
-0.71401578 0.016358258 -0.12034786
-0.71381295 0.066084266 -0.12136078
-0.71501309 0.091135919 -0.11536467
-0.68817079 0.19017118 -0.12538874
-0.69057345 0.21587205 -0.11290443
-0.63881135 0.28967792 -0.12362432
0.63156879 0.29098678 -0.10945749
0.63029552 0.31535423 -0.11536467
-0.61466652 0.33982551 -0.11946297
0.60508668 0.34011388 -0.11678731
0.62950361 0.33987129 -0.11903882
-0.58900225 0.36414814 -0.12430465
0.57986313 0.36483067 -0.11839318
0.62975812 0.36489242 -0.11785805
-0.56429952 0.38910568 -0.12338531
0.55476391 0.38958645 -0.11948121
-0.53958267 0.4140774 -0.12246525
0.52968156 0.41432548 -0.12056875
-0.51485175 0.43906343 -0.12154484
0.50462264 0.43905312 -0.12161875
-0.49007058 0.46402305 -0.12090027
0.45634028 0.4652279 -0.11266375
0.40693051 0.49064386 -0.10953176
0.38004273 0.51335067 -0.12345886
-0.36607409 0.53928751 -0.11704588
0.30675602 0.54005796 -0.11249709
0.33004007 0.53778744 -0.12590301
0.23131549 0.56377596 -0.1193707
-0.017455056 0.58928567 -0.11597443
0.032483131 0.59001386 -0.1120342
0.057148024 0.5886991 -0.11914945
-0.017329004 -0.98240316 -0.10778737
-0.042300172 -0.95744258 -0.10774994
-0.042219281 -0.91041106 -0.097242236
0.18330476 -0.48461223 -0.096587777
-0.36727285 -0.45851791 -0.10406888
0.28247261 -0.45818806 -0.10644948
0.38371429 -0.40939307 -0.096961737
0.43331495 -0.38395673 -0.10026741
0.48243055 -0.35832727 -0.10583615
0.50760144 -0.33344477 -0.10479462
0.53279877 -0.30855179 -0.10369647
0.5580132 -0.28364187 -0.10259771
0.58324844 -0.25871664 -0.10147953
-0.64270574 -0.23368628 -0.10162866
0.60714656 -0.23332261 -0.10687685
0.60961956 -0.20907685 -0.094978929
0.65890408 -0.20884092 -0.098811507
-0.66696101 -0.18342583 -0.10576177
0.63296711 -0.18357633 -0.10297024
0.65820855 -0.18363243 -0.10192692
0.63512152 -0.15902935 -0.092974901
0.65876234 -0.15873046 -0.099446177
0.65986413 -0.13388474 -0.094510913
-0.71862531 -0.083672725 -0.097316861
-0.71750873 -0.058534704 -0.10289586
-0.71639222 -0.033482697 -0.10847402
-0.74424499 0.041629743 -0.094585776
-0.71621764 0.11628079 -0.10934639
-0.71733725 0.14149857 -0.10375249
-0.7184608 0.16680348 -0.098139048
-0.71958816 0.19219619 -0.092506289
0.66005641 0.21720599 -0.093649387
-0.6942358 0.24226902 -0.093874097
0.65889573 0.24188618 -0.098848701
-0.66641527 0.26609087 -0.10871518
0.63327235 0.26669723 -0.10155404
0.65826267 0.26668632 -0.10168457
0.60997373 0.29248154 -0.093274832
0.65860403 0.29184598 -0.10015535
-0.64218807 0.31643617 -0.10455275
0.60755235 0.31639892 -0.1049248
0.58386087 0.34209341 -0.098419309
0.55860531 0.36700988 -0.099520683
0.53336686 0.39190942 -0.10062182
0.50815207 0.4167968 -0.10168457
0.48298213 0.44169128 -0.102579
0.43405131 0.46774054 -0.095484138
-0.4173252 0.51656348 -0.10358489
0.35746163 0.51615447 -0.10611486
0.28327769 0.54234725 -0.098979354
-0.31761992 0.56728399 -0.099558115
0.207699 0.56642258 -0.10442245
0.0077089891 0.59133071 -0.10490608
-0.017042022 -0.88753957 -0.08914721
0.15939817 -0.48704213 -0.079973578
0.23535848 -0.46246207 -0.075604081
0.25895375 -0.46021354 -0.091831446
-0.41861209 -0.43514389 -0.09164381
0.3342135 -0.43509477 -0.092018843
-0.46992943 -0.41117406 -0.082502961
0.36120674 -0.41179055 -0.077497005
0.41090038 -0.38602096 -0.082389832
-0.54616261 -0.36138326 -0.07747817
0.4607043 -0.36050069 -0.085668564
-0.57102388 -0.33595526 -0.079709172
0.48603103 -0.33546823 -0.084576368
-0.5958544 -0.31056356 -0.08191812
0.51127452 -0.31036687 -0.084048748
-0.62065774 -0.28520942 -0.084086299
0.53659588 -0.28528917 -0.083144069
-0.64606529 -0.26016581 -0.082653761
0.56197119 -0.26021373 -0.082031369
0.58642048 -0.23479463 -0.085630774
-0.67046124 -0.20957951 -0.08681643
0.61206764 -0.1846416 -0.083200574
-0.69472283 -0.15910469 -0.091343641
-0.72235 -0.13449299 -0.078707337
0.63775295 -0.13441378 -0.080766678
-0.71974581 -0.10889705 -0.091718674
0.66139293 -0.10902201 -0.087662458
0.68751496 -0.10915478 -0.083351374
0.66196841 -0.083955161 -0.085084796
0.68735826 -0.083979517 -0.084029913
0.66267115 -0.058857404 -0.081937075
0.68745399 -0.058831535 -0.083615303
-0.74775755 -0.033719786 -0.077686191
0.66339636 -0.033711836 -0.078688502
0.68757588 -0.033678219 -0.083087564
-0.746584 -0.008516496 -0.083332539
0.68782854 -0.0085164458 -0.081993461
-0.74541056 0.01659978 -0.088978291
0.68813801 0.016663797 -0.080653548
0.68845648 0.041865326 -0.079274297
-0.74524659 0.066814013 -0.089767218
0.68818164 0.067028813 -0.080464721
-0.74642336 0.09209843 -0.084105372
0.68787211 0.092169344 -0.081804991
-0.74760419 0.11747092 -0.078423738
0.66348922 0.11747676 -0.078272581
0.68759769 0.11729509 -0.08299315
0.66276807 0.14252625 -0.081503034
0.68747139 0.14243209 -0.083539844
0.66204828 0.16752638 -0.08472693
0.68735391 0.16756281 -0.084048748
0.66147268 0.19251649 -0.087305427
0.68749756 0.19275539 -0.083426714
-0.72188115 0.21807902 -0.081049919
0.63809496 0.21820851 -0.079179883
0.68906802 0.2183855 -0.076626539
0.6355136 0.24247827 -0.091156006
-0.69767171 0.26885933 -0.076020718
0.6123969 0.26838553 -0.081616163
-0.66996461 0.29282987 -0.089504123
0.58674091 0.31848991 -0.084029913
-0.64559823 0.34350812 -0.085291862
0.56249446 0.34415269 -0.079312205
-0.61982292 0.36822289 -0.089015722
0.53709793 0.36921459 -0.080426812
-0.59507167 0.39361662 -0.086759806
0.51178211 0.39430374 -0.081182003
-0.57028615 0.41904569 -0.084500909
0.4865227 0.41941577 -0.081672668
-0.54540282 0.44444948 -0.082672596
0.46126178 0.44451243 -0.082219839
-0.52036875 0.46975243 -0.081729293
0.41152748 0.47028297 -0.07810235
-0.46875042 0.49333173 -0.09207499
0.38437581 0.49331445 -0.092187524
0.33479637 0.51919818 -0.087286592
0.25968355 0.54479277 -0.084538579
0.18388042 0.56913394 -0.089109659
-0.24343455 0.59546977 -0.082502961
-0.067271911 -0.96897298 -0.068333507
-0.067271911 -0.94177258 -0.075092554
-0.067271911 -0.92017114 -0.062024117
-0.31988308 -0.48847765 -0.070158958
0.13507366 -0.48908716 -0.065991879
-0.39676744 -0.46474105 -0.059157014
0.21153361 -0.46474373 -0.05913794
0.31138608 -0.43766212 -0.072399855
-0.52124637 -0.3868286 -0.075395823
0.38843894 -0.38827556 -0.062864542
0.43833402 -0.36244053 -0.067667723
0.46427658 -0.33757025 -0.063570499
0.48967895 -0.31230789 -0.063036084
0.51508957 -0.28703713 -0.062501669
0.54050839 -0.26175821 -0.061967015
-0.67379159 -0.23596133 -0.068790197
0.56538445 -0.2362728 -0.064295292
0.58879149 -0.21038218 -0.07378459
-0.698102 -0.18514891 -0.073784709
0.59118354 -0.18579294 -0.061833143
-0.72589552 -0.16050656 -0.060992599
0.61453736 -0.16002961 -0.071317911
0.61701727 -0.13523668 -0.059386611
-0.75130671 -0.10985498 -0.060610294
0.64031392 -0.10960017 -0.068885326
-0.75012082 -0.084388576 -0.066315889
0.6412909 -0.084433921 -0.064352512
0.64213049 -0.059188105 -0.060457468
-0.74893516 -0.059010096 -0.072020292
0.66417372 -0.008516496 -0.07520628
0.66508418 0.016737275 -0.071127892
0.66598845 0.042053048 -0.067077398
0.66519022 0.067255385 -0.070653081
0.66428792 0.09238822 -0.074694514
-0.74878532 0.14293084 -0.072741508
0.64222938 0.14351946 -0.059998631
-0.74997437 0.16848044 -0.067020416
0.64139366 0.16864999 -0.063875794
-0.75116366 0.19411808 -0.061298251
0.64055997 0.1937211 -0.067743778
-0.72547889 0.24464013 -0.063074231
0.61483747 0.24411659 -0.069873929
0.59145123 0.27017403 -0.060495734
0.58908761 0.29441869 -0.072305083
-0.67338425 0.3197943 -0.070995092
0.56564885 0.32060218 -0.062921643
0.54096389 0.34628785 -0.05950129
0.51553273 0.37157345 -0.059998631
0.49010596 0.39684922 -0.060514808
0.4646841 0.42211449 -0.061049938
0.43892953 0.44706476 -0.0637995
0.38897914 0.47308177 -0.058965564
0.36177203 0.49624109 -0.073177695
-0.44738176 0.52363735 -0.059826374
0.31186438 0.52227437 -0.068257689
-0.39583388 0.5475114 -0.068485737
0.23597035 0.54742759 -0.068980217
0.15989 0.57200849 -0.072874427
-0.041914463 -0.99745691 -0.057645082
-0.041906498 -0.89630592 -0.056610584
-0.24518985 -0.51685333 -0.049929023
0.085263841 -0.49154639 -0.0491786
0.11020858 -0.49024916 -0.058047175
-0.4482671 -0.44031107 -0.05215919
0.28809598 -0.44003457 -0.05427134
-0.4999432 -0.41573656 -0.045459628
0.33844021 -0.41422868 -0.057702303
-0.55135977 -0.3906911 -0.041944861
0.36573541 -0.39058185 -0.04289186
-0.57648706 -0.36496711 -0.044224381
0.41591567 -0.3645494 -0.048100352
-0.6015892 -0.3392843 -0.046443224
-0.6265859 -0.3135969 -0.049082279
-0.65142709 -0.28789508 -0.052370429
-0.67708075 -0.26260352 -0.050986886
-0.70152158 -0.21147646 -0.056016445
0.56771272 -0.21171159 -0.052197576
-0.72966534 -0.18685319 -0.042157531
0.59358537 -0.16102201 -0.049832821
0.61951923 -0.11026329 -0.047348976
0.62062639 -0.084949575 -0.042022109
0.64297205 -0.033882394 -0.056553125
0.64381558 -0.0085163955 -0.052639484
-0.77935022 0.01691493 -0.048042536
0.64466119 0.016909648 -0.048716545
-0.77727222 0.042197738 -0.057683229
0.64550877 0.042396482 -0.044784427
-0.77913028 0.067753978 -0.049062967
0.64474833 0.067771494 -0.048312068
0.64390665 0.093080424 -0.052216768
0.64306706 0.11832976 -0.056112289
0.61977166 0.19505207 -0.04613471
-0.75485289 0.22067721 -0.043548584
0.61729568 0.21967278 -0.058047056
0.59383196 0.24575414 -0.048601031
-0.72912031 0.27149636 -0.044880748
-0.70114177 0.29574096 -0.057989717
0.5679605 0.29639506 -0.050909877
-0.67672932 0.34700024 -0.052889109
-0.6507917 0.37203991 -0.055958867
-0.62599647 0.39782864 -0.052562714
-0.60098833 0.42353952 -0.050159812
-0.57592893 0.44927478 -0.047849894
0.41642609 0.44972372 -0.0446105
-0.55083442 0.4750461 -0.045536637
-0.4990564 0.49946511 -0.05223608
0.33889827 0.49919611 -0.05398345
0.28869876 0.52543962 -0.048678041
0.21202371 0.55007476 -0.053350091
0.11073833 0.57637429 -0.048215866
0.13570806 0.57505083 -0.055690646
-0.092779271 -0.95228899 -0.038170815
-0.092842825 -0.92906934 -0.029915571
-0.067271911 -0.90397078 -0.028162003
0.03509815 -0.49477422 -0.027109027
0.060262658 -0.49314779 -0.038228989
0.18761092 -0.4673056 -0.040649176
0.2643742 -0.44220769 -0.037667036
0.31555116 -0.41686112 -0.03632915
0.39327988 -0.36672342 -0.027928114
0.44235674 -0.3397752 -0.041538835
0.46781942 -0.31428295 -0.041655064
0.49338189 -0.28884333 -0.041171432
0.51896203 -0.26340079 -0.040629864
-0.70497829 -0.23809078 -0.038054705
0.54425752 -0.23784 -0.041674256
0.54658109 -0.21313426 -0.029097319
0.57011771 -0.1869856 -0.039700747
0.57253724 -0.16207063 -0.027128577
-0.75550783 -0.13596758 -0.040397644
0.59600872 -0.13607036 -0.03772521
0.59852803 -0.11094734 -0.025137782
0.62144697 -0.059532695 -0.038073897
0.62226957 -0.03405517 -0.034116387
-0.78144038 -0.008516496 -0.038345098
0.62309414 -0.0085165463 -0.030149221
0.62392068 0.017083073 -0.026172519
0.62398964 0.068290368 -0.025840759
-0.78124005 0.093479067 -0.039274931
0.62316698 0.09377066 -0.029798746
0.62234223 0.11918975 -0.033766747
0.62152356 0.14454916 -0.037705779
0.62070674 0.16984838 -0.041635752
0.59623379 0.22115864 -0.036600709
0.5727362 0.24748676 -0.026094317
0.57034129 0.27203339 -0.038538933
0.54677558 0.29850721 -0.028045058
-0.70465404 0.32292229 -0.039739609
0.54447907 0.32284862 -0.04047513
0.51933223 0.3485468 -0.038538933
-0.68177348 0.37554699 -0.025586843
0.49373916 0.37399101 -0.039061904
0.46816978 0.3994391 -0.039487958
0.44268748 0.42494899 -0.039391041
0.39367732 0.45243269 -0.0250597
0.36616823 0.47591656 -0.039584637
0.3159211 0.50240755 -0.033125281
0.2648637 0.52801025 -0.032775521
-0.42558816 0.55455184 -0.026913881
0.18801069 0.55310524 -0.035455942
-0.34811071 0.57869196 -0.035125971
0.060612626 0.57975239 -0.029136419
0.085729323 0.57798827 -0.039100647
-0.09297239 -0.9851346 -0.013084173
-0.093006507 -0.90922725 -0.0086524487
-0.34923461 -0.49554282 -0.021853805
-0.1443021 -0.49637437 -0.016169429
0.0098040998 -0.49666458 -0.014185309
-0.42620102 -0.46999675 -0.021227598
0.16344652 -0.46995342 -0.021540523
-0.47807297 -0.4449926 -0.016385436
0.24051544 -0.44454867 -0.019778371
-0.52979606 -0.41964906 -0.01369369
0.29240555 -0.41957647 -0.014283538
-0.58184236 -0.39444435 -0.0094410181
0.34291106 -0.39306301 -0.02140367
-0.60702646 -0.36835289 -0.012808681
-0.63215989 -0.342314 -0.016169667
0.42026162 -0.3420921 -0.018386722
-0.6572358 -0.3163237 -0.019562721
0.44590315 -0.31642157 -0.018504262
-0.68226081 -0.2903865 -0.0229491
0.47153977 -0.2907511 -0.018641591
-0.70999217 -0.26560456 -0.012001872
0.49717751 -0.26508445 -0.018759251
0.52288991 -0.23944937 -0.018445611
-0.73605967 -0.21429731 -0.01020968
0.54892242 -0.18823987 -0.016424656
0.57498282 -0.13696739 -0.014421105
0.59979296 -0.085485511 -0.018818021
0.60061789 -0.059892636 -0.01469624
0.60144883 -0.03423645 -0.010544658
0.62474918 0.042744346 -0.022186399
0.60150796 0.12009509 -0.010249138
0.60068083 0.14562643 -0.014381766
0.59985572 0.17109489 -0.018504381
0.5987314 0.1964075 -0.024122
0.57515305 0.22275653 -0.013536453
0.54909295 0.27398407 -0.015501738
-0.73560643 0.29994553 -0.012474179
0.52306354 0.32515138 -0.017464876
-0.70954925 0.35115892 -0.014303088
0.49746981 0.35086459 -0.0170331
0.47181562 0.37654603 -0.016934991
-0.65678173 0.40157735 -0.022127748
0.44616291 0.40223134 -0.016817212
-0.63173795 0.42766172 -0.018661261
0.42051125 0.427921 -0.016680002
-0.60664195 0.45380068 -0.015187621
-0.58149356 0.47999412 -0.011706471
0.34324884 0.47897685 -0.018661022
-0.52915937 0.50469172 -0.018288612
0.29268113 0.5057022 -0.011726141
-0.47748381 0.52988666 -0.021168709
0.24090868 0.53079963 -0.015521407
0.16374794 0.5561986 -0.017190099
-0.16980681 0.58105916 -0.021755934
0.035345599 0.58153427 -0.019072771
-0.11899376 -0.96537077 0.0077584982
-0.11890988 -0.93799984 0.0023099184
-0.27390447 -0.52509791 0.0036207438
-0.01565747 -0.49885368 0.00078201294
0.13910159 -0.47285676 -0.00058603287
0.21650848 -0.44708616 -0.00038778782
0.31984785 -0.39563626 0.00088131428
0.37051579 -0.36904752 -0.006362915
0.39796546 -0.34452128 0.0058873892
0.42368108 -0.31859207 0.0049922466
0.44949618 -0.29273897 0.0048332214
0.47531214 -0.26688993 0.0046941042
0.50112927 -0.24104419 0.0045746565
0.52516556 -0.21458176 -0.0055923462
0.52752233 -0.18954088 0.0077186823
0.55128533 -0.16315579 -0.0036351681
0.5774433 -0.11167099 -0.0016359091
0.57881075 -0.086046465 0.0054695606
0.60228187 -0.0085165463 -0.0063825846
0.60311693 0.017267674 -0.0022101402
0.60395813 0.043116618 0.0019923449
0.60316849 0.068842053 -0.0019527674
0.60233724 0.094500355 -0.0061061382
0.57885289 0.17239843 0.0056883097
0.57758439 0.19783746 -0.00090301037
0.55142426 0.24927358 -0.0028833151
0.52764225 0.27600777 0.0083957911
0.52531254 0.30065799 -0.0047624111
0.50134146 0.32748228 0.0058276653
0.47551146 0.35333908 0.0059270859
0.44968304 0.37919968 0.0060464144
0.42387015 0.40507692 0.0062851906
0.39813918 0.43103844 0.0071412325
0.37081584 0.45534116 -0.004070282
0.32008389 0.4821341 0.0029255152
0.2167806 0.53376567 0.002826333
0.13932642 0.5596289 0.0030646324
-0.37761959 0.58631647 0.0079376698
-0.015558336 0.58618963 0.0072208643
0.0099838376 0.58377755 -0.0064022541
-0.2732009 0.60927051 -0.0078039169
-0.11912256 -0.91590279 0.016124368
-0.067271911 -0.89173084 0.022823095
-0.37825939 -0.50091338 0.014863849
-0.041346274 -0.50110358 0.016164422
-0.45581234 -0.474765 0.013184547
0.11450682 -0.4759475 0.021718264
-0.50797886 -0.44922352 0.015944123
0.19227445 -0.44974542 0.019931793
-0.55974185 -0.42322803 0.015363932
0.26909959 -0.42251223 0.009552002
-0.61246848 -0.39794272 0.02085495
0.29661912 -0.39839977 0.024813771
-0.63859004 -0.37208253 0.021798491
0.34754071 -0.37147754 0.016184449
0.50367916 -0.21613505 0.019630909
0.52989435 -0.16429909 0.021115899
0.55366272 -0.13787791 0.0092328787
0.55613643 -0.1124178 0.022622108
0.57961941 -0.060267676 0.0096715689
0.58043015 -0.034424573 0.013884187
0.58124673 -0.008516496 0.018127203
0.58206147 0.017456705 0.022361159
0.58209246 0.069407284 0.022521734
0.58127761 0.095251389 0.018287539
0.5804686 0.12103169 0.014084101
0.57965779 0.14674667 0.0098708868
0.55622554 0.19931605 0.023104668
0.55377692 0.22437678 0.0098509789
0.52999038 0.25116265 0.021658063
0.50377423 0.30296326 0.020192742
-0.63815159 0.4585669 0.019209862
0.34772816 0.45835871 0.017706513
-0.61225116 0.48455995 0.019510388
-0.55937052 0.50948209 0.012825012
0.26928726 0.50926679 0.011427164
-0.50759941 0.5354175 0.013044715
0.19246298 0.53692675 0.022381067
-0.45545506 0.56081873 0.010090351
0.11463677 0.56319642 0.024129868
-0.14498323 0.5872702 0.01332438
-0.041302748 0.58877414 0.021818638
-0.11948565 -0.89615011 0.039707661
-0.093290642 -0.89315331 0.028257966
-0.067271911 -0.50410789 0.03670609
0.16788414 -0.45270008 0.042510867
0.24552003 -0.42557245 0.034397721
0.3243897 -0.37406743 0.040214896
-0.66585976 -0.34684873 0.029145122
0.37546641 -0.34708107 0.031466365
0.40138671 -0.32095557 0.030577779
0.42729047 -0.294842 0.029669762
0.45318028 -0.26874256 0.028761983
0.47913769 -0.24269205 0.028358817
0.50596762 -0.19091088 0.033143759
0.5322926 -0.13885657 0.034660816
0.55764353 -0.086631015 0.030779719
0.55845779 -0.060660683 0.035187244
0.55927801 -0.034622662 0.039626241
0.58287835 0.043495633 0.026605368
0.55929297 0.12201776 0.039707661
0.55847651 0.14792064 0.035288453
0.55766594 0.17375706 0.030901194
0.53236067 0.22612242 0.035045505
0.5060361 0.27813739 0.033548355
0.47925827 0.32981187 0.02910471
0.4533014 0.35588491 0.029548526
0.42739967 0.38201368 0.030416369
0.40148464 0.40815598 0.03128469
-0.66547787 0.43363577 0.026988029
0.37555891 0.43431431 0.032173395
0.32448587 0.46159279 0.041047573
0.29676664 0.4855358 0.026182652
-0.58973134 0.5139429 0.041799664
0.24561164 0.5129562 0.035389543
-0.40690109 0.59236586 0.042104244
-0.067271911 0.59197026 0.039869905
-0.30232376 0.61828846 0.041007042
-0.14568731 -0.94950145 0.043812513
-0.1456629 -0.92307794 0.042754889
-0.14596555 -0.90037751 0.055859685
-0.3025139 -0.53127658 0.043751478
-0.40713108 -0.50523376 0.044402719
-0.11953539 -0.50501949 0.042937875
-0.093516849 -0.50717032 0.057643294
-0.48561028 -0.47914726 0.044810057
