ply
format ascii 1.0
comment PCL generated
element vertex 1328
property float x
property float y
property float z
element camera 0
property float view_px
property float view_py
property float view_pz
property float x_axisx
property float x_axisy
property float x_axisz
property float y_axisx
property float y_axisy
property float y_axisz
property float z_axisx
property float z_axisy
property float z_axisz
property float focal
property float scalex
property float scaley
property float centerx
property float centery
property int viewportx
property int viewporty
property float k1
property float k2
end_header
0.013342357 0.10440299 -0.49368802
0.027300552 0.10440299 -0.49368802
0.041258749 0.10440299 -0.49368802
0.055216946 0.10440299 -0.49368802
0.069175139 0.10440299 -0.49368802
-0.071236514 -0.063372001 -0.47572446
-0.057140037 -0.063372001 -0.47572446
-0.043043558 -0.063372001 -0.47572446
-0.028947078 -0.063372001 -0.47572446
-0.014850601 -0.063372001 -0.47572446
-0.00075412169 -0.063372001 -0.47572446
0.013342357 -0.063372001 -0.47572446
0.027438836 -0.063372001 -0.47572446
0.041535314 -0.063372001 -0.47572446
0.055631794 -0.063372001 -0.47572446
0.06972827 -0.063372001 -0.47572446
-0.07080362 -0.04920334 -0.48509687
-0.056779295 -0.04920334 -0.48509687
-0.042754963 -0.04920334 -0.48509687
-0.028730631 -0.04920334 -0.48509687
-0.014706303 -0.04920334 -0.48509687
-0.00068197306 -0.04920334 -0.48509687
0.013342357 -0.04920334 -0.48509687
0.027366687 -0.04920334 -0.48509687
0.041391019 -0.04920334 -0.48509687
0.055415347 -0.04920334 -0.48509687
0.069439679 -0.04920334 -0.48509687
-0.070746414 0.11898382 -0.48633552
-0.056731619 0.11898382 -0.48633552
-0.042716827 0.11898382 -0.48633552
-0.028702028 0.11898382 -0.48633552
-0.014687235 0.11898382 -0.48633552
-0.00067243911 0.11898382 -0.48633552
0.013342357 0.11898382 -0.48633552
0.027357154 0.11898382 -0.48633552
0.041371949 0.11898382 -0.48633552
0.055386744 0.11898382 -0.48633552
0.06940154 0.11898382 -0.48633552
-0.071169548 0.13384488 -0.47717446
-0.057084225 0.13384488 -0.47717446
-0.042998914 0.13384488 -0.47717446
-0.028913595 0.13384488 -0.47717446
-0.014828279 0.13384488 -0.47717446
-0.00074296072 0.13384488 -0.47717446
0.013342357 0.13384488 -0.47717446
0.027427675 0.13384488 -0.47717446
0.041512992 0.13384488 -0.47717446
0.055598311 0.13384488 -0.47717446
0.069683626 0.13384488 -0.47717446
-0.071863703 -0.07778202 -0.46214545
-0.057662696 -0.07778202 -0.46214545
-0.043461684 -0.07778202 -0.46214545
-0.029260673 -0.07778202 -0.46214545
-0.015059664 -0.07778202 -0.46214545
-0.00085865334 -0.07778202 -0.46214545
0.013342357 -0.07778202 -0.46214545
0.027543368 -0.07778202 -0.46214545
0.041744377 -0.07778202 -0.46214545
0.055945389 -0.07778202 -0.46214545
0.070146397 -0.07778202 -0.46214545
-0.0715973 0.14885691 -0.46791324
-0.057440691 0.14885691 -0.46791324
-0.043284081 0.14885691 -0.46791324
-0.029127471 0.14885691 -0.46791324
-0.014970862 0.14885691 -0.46791324
-0.00081425253 0.14885691 -0.46791324
0.013342357 0.14885691 -0.46791324
0.027498968 0.14885691 -0.46791324
0.041655578 0.14885691 -0.46791324
0.055812187 0.14885691 -0.46791324
0.069968797 0.14885691 -0.46791324
-0.072029062 0.16402102 -0.45856541
-0.057800487 0.16402102 -0.45856541
-0.043571919 0.16402102 -0.45856541
-0.029343352 0.16402102 -0.45856541
-0.015114781 0.16402102 -0.45856541
-0.0008862121 0.16402102 -0.45856541
0.013342357 0.16402102 -0.45856541
0.027570926 0.16402102 -0.45856541
0.041799497 0.16402102 -0.45856541
0.056028068 0.16402102 -0.45856541
0.070256636 0.16402102 -0.45856541
-0.072465234 0.17933995 -0.44912195
-0.058163971 0.17933995 -0.44912195
-0.043862704 0.17933995 -0.44912195
-0.029561438 0.17933995 -0.44912195
-0.015260174 0.17933995 -0.44912195
-0.00095890835 0.17933995 -0.44912195
0.013342357 0.17933995 -0.44912195
0.027643623 0.17933995 -0.44912195
0.041944887 0.17933995 -0.44912195
0.056246154 0.17933995 -0.44912195
0.070547417 0.17933995 -0.44912195
-0.072988033 -0.092732608 -0.43780297
-0.058599636 -0.092732608 -0.43780297
-0.044211239 -0.092732608 -0.43780297
-0.029822838 -0.092732608 -0.43780297
-0.015434441 -0.092732608 -0.43780297
-0.001046042 -0.092732608 -0.43780297
0.013342357 -0.092732608 -0.43780297
0.027730756 -0.092732608 -0.43780297
0.042119157 -0.092732608 -0.43780297
0.056507554 -0.092732608 -0.43780297
0.070895955 -0.092732608 -0.43780297
-0.072906233 0.19481727 -0.43957394
-0.058531478 0.19481727 -0.43957394
-0.044156708 0.19481727 -0.43957394
-0.029781938 0.19481727 -0.43957394
-0.015407176 0.19481727 -0.43957394
-0.0010324093 0.19481727 -0.43957394
0.013342357 0.19481727 -0.43957394
0.027717125 0.19481727 -0.43957394
0.042091891 0.19481727 -0.43957394
0.056466654 0.19481727 -0.43957394
0.070841424 0.19481727 -0.43957394
-0.073351435 0.21045342 -0.42993498
-0.05890248 0.21045342 -0.42993498
-0.044453509 0.21045342 -0.42993498
-0.030004539 0.21045342 -0.42993498
-0.015555576 0.21045342 -0.42993498
-0.0011066096 0.21045342 -0.42993498
0.013342357 0.21045342 -0.42993498
0.027791325 0.21045342 -0.42993498
0.042240292 0.21045342 -0.42993498
0.056689255 0.21045342 -0.42993498
0.071138225 0.21045342 -0.42993498
-0.059561335 -0.10808273 -0.41281736
-0.044980597 -0.10808273 -0.41281736
-0.030399859 -0.10808273 -0.41281736
-0.015819121 -0.10808273 -0.41281736
-0.0012383815 -0.10808273 -0.41281736
0.013342357 -0.10808273 -0.41281736
0.027923096 -0.10808273 -0.41281736
0.042503834 -0.10808273 -0.41281736
0.057084575 -0.10808273 -0.41281736
0.071665309 -0.10808273 -0.41281736
-0.073801264 0.22625187 -0.42019612
-0.059277326 0.22625187 -0.42019612
-0.044753391 0.22625187 -0.42019612
-0.030229453 0.22625187 -0.42019612
-0.015705518 0.22625187 -0.42019612
-0.0011815801 0.22625187 -0.42019612
0.013342357 0.22625187 -0.42019612
0.027866295 0.22625187 -0.42019612
0.042390231 0.22625187 -0.42019612
0.056914169 0.22625187 -0.42019612
0.071438104 0.22625187 -0.42019612
-0.059656091 0.24221504 -0.41035539
-0.045056403 0.24221504 -0.41035539
-0.030456714 0.24221504 -0.41035539
-0.015857022 0.24221504 -0.41035539
-0.001257333 0.24221504 -0.41035539
0.013342357 0.24221504 -0.41035539
0.027942047 0.24221504 -0.41035539
0.042541739 0.24221504 -0.41035539
0.057141431 0.24221504 -0.41035539
0.071741119 0.24221504 -0.41035539
-0.060039133 0.258347 -0.40040374
-0.045362838 0.258347 -0.40040374
-0.030686539 0.258347 -0.40040374
-0.01601024 0.258347 -0.40040374
-0.0013339417 0.258347 -0.40040374
0.013342357 0.258347 -0.40040374
0.028018657 0.258347 -0.40040374
0.042694956 0.258347 -0.40040374
0.057371255 0.258347 -0.40040374
0.072047554 0.258347 -0.40040374
-0.060549401 -0.12384911 -0.38714653
-0.045771051 -0.12384911 -0.38714653
-0.030992698 -0.12384911 -0.38714653
-0.016214348 -0.12384911 -0.38714653
-0.0014359951 -0.12384911 -0.38714653
0.013342357 -0.12384911 -0.38714653
0.02812071 -0.12384911 -0.38714653
0.042899061 -0.12384911 -0.38714653
0.057677414 -0.12384911 -0.38714653
0.072455764 -0.12384911 -0.38714653
-0.060425907 0.27464768 -0.39035505
-0.045672253 0.27464768 -0.39035505
-0.030918602 0.27464768 -0.39035505
-0.016164947 0.27464768 -0.39035505
-0.0014112955 0.27464768 -0.39035505
0.013342357 0.27464768 -0.39035505
0.028096009 0.27464768 -0.39035505
0.042849664 0.27464768 -0.39035505
0.057603318 0.27464768 -0.39035505
0.072356969 0.27464768 -0.39035505
-0.06081678 0.29112121 -0.38019991
-0.045984954 0.29112121 -0.38019991
-0.031153128 0.29112121 -0.38019991
-0.016321298 0.29112121 -0.38019991
-0.0014894707 0.29112121 -0.38019991
0.013342357 0.29112121 -0.38019991
0.028174184 0.29112121 -0.38019991
0.043006014 0.29112121 -0.38019991
0.057837844 0.29112121 -0.38019991
0.07266967 0.29112121 -0.38019991
-0.061212137 0.30777168 -0.36992836
-0.046301238 0.30777168 -0.36992836
-0.031390335 0.30777168 -0.36992836
-0.01647944 0.30777168 -0.36992836
-0.0015685419 0.30777168 -0.36992836
0.013342357 0.30777168 -0.36992836
0.028253257 0.30777168 -0.36992836
0.043164156 0.30777168 -0.36992836
0.058075052 0.30777168 -0.36992836
0.072985955 0.30777168 -0.36992836
-0.061564624 -0.14004876 -0.3607704
-0.046583228 -0.14004876 -0.3607704
-0.031601835 -0.14004876 -0.3607704
-0.016620435 -0.14004876 -0.3607704
-0.0016390402 -0.14004876 -0.3607704
0.013342357 -0.14004876 -0.3607704
0.028323755 -0.14004876 -0.3607704
0.043305151 -0.14004876 -0.3607704
0.058286551 -0.14004876 -0.3607704
0.073267944 -0.14004876 -0.3607704
-0.061611407 0.32459903 -0.35955495
-0.046620656 0.32459903 -0.35955495
-0.031629901 0.32459903 -0.35955495
-0.016639151 0.32459903 -0.35955495
-0.0016483963 0.32459903 -0.35955495
0.013342357 0.32459903 -0.35955495
0.028333111 0.32459903 -0.35955495
0.043323863 0.32459903 -0.35955495
0.058314618 0.32459903 -0.35955495
0.073305368 0.32459903 -0.35955495
-0.062014975 0.34160763 -0.34906983
-0.046943508 0.34160763 -0.34906983
-0.031872042 0.34160763 -0.34906983
-0.016800575 0.34160763 -0.34906983
-0.0017291093 0.34160763 -0.34906983
0.013342357 0.34160763 -0.34906983
0.028413825 0.34160763 -0.34906983
0.043485291 0.34160763 -0.34906983
0.058556758 0.34160763 -0.34906983
0.073628224 0.34160763 -0.34906983
-0.062607802 -0.15669931 -0.33366787
-0.047417771 -0.15669931 -0.33366787
-0.03222774 -0.15669931 -0.33366787
-0.017037708 -0.15669931 -0.33366787
-0.0018476751 -0.15669931 -0.33366787
0.013342357 -0.15669931 -0.33366787
0.02853239 -0.15669931 -0.33366787
0.043722421 -0.15669931 -0.33366787
0.058912456 -0.15669931 -0.33366787
0.074102484 -0.15669931 -0.33366787
-0.062423244 0.35880214 -0.33846283
-0.047270123 0.35880214 -0.33846283
-0.032117005 0.35880214 -0.33846283
-0.016963884 0.35880214 -0.33846283
-0.001810763 0.35880214 -0.33846283
0.013342357 0.35880214 -0.33846283
0.028495478 0.35880214 -0.33846283
0.043648597 0.35880214 -0.33846283
0.058801722 0.35880214 -0.33846283
0.073954836 0.35880214 -0.33846283
-0.062835626 0.37618211 -0.32774884
-0.047600027 0.37618211 -0.32774884
-0.032364432 0.37618211 -0.32774884
-0.017128836 0.37618211 -0.32774884
-0.0018932391 0.37618211 -0.32774884
0.013342357 0.37618211 -0.32774884
0.028577954 0.37618211 -0.32774884
0.043813549 0.37618211 -0.32774884
0.059049148 0.37618211 -0.32774884
0.07428474 0.37618211 -0.32774884
-0.063252524 0.39375231 -0.31691736
-0.047933549 0.39375231 -0.31691736
-0.03261457 0.39375231 -0.31691736
-0.017295595 0.39375231 -0.31691736
-0.0019766204 0.39375231 -0.31691736
0.013342357 0.39375231 -0.31691736
0.028661335 0.39375231 -0.31691736
0.043980312 0.39375231 -0.31691736
0.059299286 0.39375231 -0.31691736
0.074618265 0.39375231 -0.31691736
-0.063680783 -0.17382067 -0.30579096
-0.048276152 -0.17382067 -0.30579096
-0.032871526 -0.17382067 -0.30579096
-0.017466899 -0.17382067 -0.30579096
-0.0020622704 -0.17382067 -0.30579096
0.013342357 -0.17382067 -0.30579096
0.028746985 -0.17382067 -0.30579096
0.044151612 -0.17382067 -0.30579096
0.059556242 -0.17382067 -0.30579096
0.074960865 -0.17382067 -0.30579096
-0.06367401 0.41151592 -0.30596697
-0.048270736 0.41151592 -0.30596697
-0.032867461 0.41151592 -0.30596697
-0.017464191 0.41151592 -0.30596697
-0.0020609163 0.41151592 -0.30596697
0.013342357 0.41151592 -0.30596697
0.028745631 0.41151592 -0.30596697
0.044148903 0.41151592 -0.30596697
0.059552178 0.41151592 -0.30596697
0.074955449 0.41151592 -0.30596697
-0.064100504 0.42947811 -0.29488629
-0.048611932 0.42947811 -0.29488629
-0.033123359 0.42947811 -0.29488629
-0.017634787 0.42947811 -0.29488629
-0.0021462152 0.42947811 -0.29488629
0.013342357 0.42947811 -0.29488629
0.028830931 0.42947811 -0.29488629
0.044319503 0.42947811 -0.29488629
0.059808075 0.42947811 -0.29488629
0.075296648 0.42947811 -0.29488629
-0.064784169 -0.19143204 -0.27712417
-0.049158856 -0.19143204 -0.27712417
-0.033533555 -0.19143204 -0.27712417
-0.017908249 -0.19143204 -0.27712417
-0.0022829464 -0.19143204 -0.27712417
0.013342357 -0.19143204 -0.27712417
0.02896766 -0.19143204 -0.27712417
0.044592965 -0.19143204 -0.27712417
0.060218271 -0.19143204 -0.27712417
0.075843573 -0.19143204 -0.27712417
-0.064531401 0.44763824 -0.28369123
-0.048956644 0.44763824 -0.28369123
-0.033381894 0.44763824 -0.28369123
-0.017807145 0.44763824 -0.28369123
-0.0022323932 0.44763824 -0.28369123
0.013342357 0.44763824 -0.28369123
0.028917108 0.44763824 -0.28369123
0.044491857 0.44763824 -0.28369123
0.060066611 0.44763824 -0.28369123
0.075641356 0.44763824 -0.28369123
-0.064967118 0.46600163 -0.27237087
-0.049305223 0.46600163 -0.27237087
-0.033643324 0.46600163 -0.27237087
-0.017981432 0.46600163 -0.27237087
-0.002319538 0.46600163 -0.27237087
0.013342357 0.46600163 -0.27237087
0.029004253 0.46600163 -0.27237087
0.044666149 0.46600163 -0.27237087
0.06032804 0.46600163 -0.27237087
0.075989939 0.46600163 -0.27237087
-0.065408088 0.4845739 -0.26091409
-0.049658 0.4845739 -0.26091409
-0.033907913 0.4845739 -0.26091409
-0.018157821 0.4845739 -0.26091409
-0.0024077324 0.4845739 -0.26091409
0.013342357 0.4845739 -0.26091409
0.029092446 0.4845739 -0.26091409
0.044842537 0.4845739 -0.26091409
0.060592629 0.4845739 -0.26091409
-0.065919973 -0.20955619 -0.24761498
-0.050067514 -0.20955619 -0.24761498
-0.034215044 -0.20955619 -0.24761498
-0.018362578 -0.20955619 -0.24761498
-0.0025101108 -0.20955619 -0.24761498
0.013342357 -0.20955619 -0.24761498
0.029194824 -0.20955619 -0.24761498
0.045047294 -0.20955619 -0.24761498
0.060899761 -0.20955619 -0.24761498
-0.065853707 0.50335419 -0.24933672
-0.050014496 0.50335419 -0.24933672
-0.03417528 0.50335419 -0.24933672
-0.018336069 0.50335419 -0.24933672
-0.0024968563 0.50335419 -0.24933672
0.013342357 0.50335419 -0.24933672
0.02918157 0.50335419 -0.24933672
0.045020785 0.50335419 -0.24933672
0.060859997 0.50335419 -0.24933672
-0.066304386 0.52234823 -0.23762763
-0.050375037 0.52234823 -0.23762763
-0.034445692 0.52234823 -0.23762763
-0.018516339 0.52234823 -0.23762763
-0.0025869915 0.52234823 -0.23762763
0.013342357 0.52234823 -0.23762763
0.029271707 0.52234823 -0.23762763
0.045201056 0.52234823 -0.23762763
0.061130408 0.52234823 -0.23762763
-0.35655671 -0.32466528 -0.21772403
-0.33946547 -0.3238399 -0.22368002
-0.32288873 -0.3233771 -0.22702062
-0.30669346 -0.32321125 -0.22821724
-0.29064587 -0.32316783 -0.22853035
-0.27464649 -0.32316783 -0.22853035
-0.25864711 -0.32316783 -0.22853035
-0.24264774 -0.32316783 -0.22853035
-0.22664838 -0.32316783 -0.22853035
-0.21064897 -0.32316783 -0.22853035
-0.19464959 -0.32316783 -0.22853035
-0.17865022 -0.32316783 -0.22853035
-0.16265084 -0.32316783 -0.22853035
-0.14665145 -0.32316783 -0.22853035
-0.13065207 -0.32316783 -0.22853035
-0.11465269 -0.32316783 -0.22853035
-0.098653302 -0.32316783 -0.22853035
-0.082653925 -0.32316783 -0.22853035
-0.066654541 -0.32316783 -0.22853035
-0.050655164 -0.32316783 -0.22853035
-0.034655783 -0.32316783 -0.22853035
-0.018656403 -0.32316783 -0.22853035
-0.0026570233 -0.32316783 -0.22853035
0.013342357 -0.32316783 -0.22853035
0.029341739 -0.32316783 -0.22853035
0.045341119 -0.32316783 -0.22853035
0.0613405 -0.32316783 -0.22853035
0.07733988 -0.32316783 -0.22853035
0.093339257 -0.32316783 -0.22853035
0.10933864 -0.32316783 -0.22853035
0.12533802 -0.32316783 -0.22853035
0.14133739 -0.32316783 -0.22853035
0.15733677 -0.32316783 -0.22853035
0.17333615 -0.32316783 -0.22853035
0.18933554 -0.32316783 -0.22853035
0.20533492 -0.32316783 -0.22853035
0.22133429 -0.32316783 -0.22853035
0.23733367 -0.32316783 -0.22853035
0.25333309 -0.32316783 -0.22853035
0.26933244 -0.32316783 -0.22853035
0.28533182 -0.32316783 -0.22853035
0.30133119 -0.32316783 -0.22853035
0.31744722 -0.32327834 -0.22773302
0.33385819 -0.3236433 -0.22509933
0.35065678 -0.32430565 -0.22031891
-0.32441482 -0.30860153 -0.2175802
-0.30810985 -0.30841345 -0.21901751
-0.29198122 -0.30836329 -0.21940053
-0.27591157 -0.30836329 -0.21940053
-0.25984192 -0.30836329 -0.21940053
-0.24377224 -0.30836329 -0.21940053
-0.22770257 -0.30836329 -0.21940053
-0.21163292 -0.30836329 -0.21940053
-0.19556326 -0.30836329 -0.21940053
-0.17949361 -0.30836329 -0.21940053
-0.16342393 -0.30836329 -0.21940053
-0.14735429 -0.30836329 -0.21940053
-0.13128461 -0.30836329 -0.21940053
-0.11521494 -0.30836329 -0.21940053
-0.099145278 -0.30836329 -0.21940053
-0.08307562 -0.30836329 -0.21940053
-0.067005955 -0.30836329 -0.21940053
-0.050936289 -0.30836329 -0.21940053
-0.034866631 -0.30836329 -0.21940053
-0.018796965 -0.30836329 -0.21940053
-0.0027273064 -0.30836329 -0.21940053
0.013342357 -0.30836329 -0.21940053
0.02941202 -0.30836329 -0.21940053
0.045481682 -0.30836329 -0.21940053
0.061551347 -0.30836329 -0.21940053
0.077621005 -0.30836329 -0.21940053
0.093690671 -0.30836329 -0.21940053
0.10976034 -0.30836329 -0.21940053
0.12582999 -0.30836329 -0.21940053
0.14189965 -0.30836329 -0.21940053
0.15796931 -0.30836329 -0.21940053
0.17403899 -0.30836329 -0.21940053
0.19010863 -0.30836329 -0.21940053
0.20617831 -0.30836329 -0.21940053
0.22224796 -0.30836329 -0.21940053
0.23831762 -0.30836329 -0.21940053
0.25438729 -0.30836329 -0.21940053
0.27045694 -0.30836329 -0.21940053
0.28652662 -0.30836329 -0.21940053
0.30259892 -0.30836582 -0.21938133
0.31879339 -0.30847731 -0.21852899
-0.066760227 0.54155958 -0.22578454
-0.050739713 0.54155958 -0.22578454
-0.034719195 0.54155958 -0.22578454
-0.018698677 0.54155958 -0.22578454
-0.0026781606 0.54155958 -0.22578454
0.013342357 0.54155958 -0.22578454
0.029362876 0.54155958 -0.22578454
0.045383394 0.54155958 -0.22578454
0.061403912 0.54155958 -0.22578454
-0.37428111 -0.32589662 -0.20883721
0.36798233 -0.32533905 -0.21286154
-0.35828772 -0.30986211 -0.20794737
-0.34109712 -0.309064 -0.2140457
0.33531138 -0.30885273 -0.21566063
0.35223022 -0.30951679 -0.21058595
-0.34275869 -0.29416156 -0.20423442
-0.32595485 -0.29369116 -0.20805383
-0.30953884 -0.29348391 -0.20973617
-0.29332837 -0.29342803 -0.21019012
-0.27718645 -0.29342678 -0.21019977
-0.26104599 -0.29342678 -0.21019977
-0.2449055 -0.29342678 -0.21019977
-0.228765 -0.29342678 -0.21019977
-0.21262451 -0.29342678 -0.21019977
-0.19648401 -0.29342678 -0.21019977
-0.18034354 -0.29342678 -0.21019977
-0.16420303 -0.29342678 -0.21019977
-0.14806254 -0.29342678 -0.21019977
-0.13192205 -0.29342678 -0.21019977
-0.11578157 -0.29342678 -0.21019977
-0.09964107 -0.29342678 -0.21019977
-0.083500586 -0.29342678 -0.21019977
-0.067360088 -0.29342678 -0.21019977
-0.051219605 -0.29342678 -0.21019977
-0.035079114 -0.29342678 -0.21019977
-0.018938623 -0.29342678 -0.21019977
-0.0027981335 -0.29342678 -0.21019977
0.013342357 -0.29342678 -0.21019977
0.029482849 -0.29342678 -0.21019977
0.04562334 -0.29342678 -0.21019977
0.06176383 -0.29342678 -0.21019977
0.077904321 -0.29342678 -0.21019977
0.094044805 -0.29342678 -0.21019977
0.1101853 -0.29342678 -0.21019977
0.12632579 -0.29342678 -0.21019977
0.14246628 -0.29342678 -0.21019977
0.15860675 -0.29342678 -0.21019977
0.17474724 -0.29342678 -0.21019977
0.19088773 -0.29342678 -0.21019977
0.20702824 -0.29342678 -0.21019977
0.22316872 -0.29342678 -0.21019977
0.23930921 -0.29342678 -0.21019977
0.25545081 -0.29342803 -0.21019012
0.2715914 -0.29342803 -0.21019012
0.28773195 -0.29342803 -0.21019012
0.30388454 -0.29343879 -0.21010315
0.32015157 -0.29354474 -0.2092433
0.33677927 -0.2939285 -0.20612651
-0.067089304 -0.22821499 -0.21723497
-0.051002972 -0.22821499 -0.21723497
-0.034916636 -0.22821499 -0.21723497
-0.018830307 -0.22821499 -0.21723497
-0.0027439753 -0.22821499 -0.21723497
0.013342357 -0.22821499 -0.21723497
0.029428691 -0.22821499 -0.21723497
0.045515023 -0.22821499 -0.21723497
0.061601352 -0.22821499 -0.21723497
-0.067221694 0.56099498 -0.21379548
-0.051108882 0.56099498 -0.21379548
-0.03499607 0.56099498 -0.21379548
-0.018883262 0.56099498 -0.21379548
-0.0027704528 0.56099498 -0.21379548
0.013342357 0.56099498 -0.21379548
0.029455166 0.56099498 -0.21379548
0.045567978 0.56099498 -0.21379548
0.061680786 0.56099498 -0.21379548
-0.39138523 -0.34277198 -0.20388466
-0.37519613 -0.34277198 -0.20388466
-0.359007 -0.34277198 -0.20388466
-0.34281793 -0.34277198 -0.20388466
-0.3266288 -0.34277198 -0.20388466
-0.31043971 -0.34277198 -0.20388466
-0.29425061 -0.34277198 -0.20388466
-0.27806151 -0.34277198 -0.20388466
-0.26187241 -0.34277198 -0.20388466
-0.24568328 -0.34277198 -0.20388466
-0.22949418 -0.34277198 -0.20388466
-0.2133051 -0.34277198 -0.20388466
-0.19711597 -0.34277198 -0.20388466
-0.18092689 -0.34277198 -0.20388466
-0.16473779 -0.34277198 -0.20388466
-0.14854868 -0.34277198 -0.20388466
-0.13235958 -0.34277198 -0.20388466
-0.11617046 -0.34277198 -0.20388466
-0.099981368 -0.34277198 -0.20388466
-0.083792262 -0.34277198 -0.20388466
-0.067603156 -0.34277198 -0.20388466
-0.05141405 -0.34277198 -0.20388466
-0.035224952 -0.34277198 -0.20388466
-0.019035846 -0.34277198 -0.20388466
-0.0028467448 -0.34277198 -0.20388466
0.013342357 -0.34277198 -0.20388466
0.02953146 -0.34277198 -0.20388466
0.045720562 -0.34277198 -0.20388466
0.061909668 -0.34277198 -0.20388466
0.078098767 -0.34277198 -0.20388466
0.094287872 -0.34277198 -0.20388466
0.11047698 -0.34277198 -0.20388466
0.12666608 -0.34277198 -0.20388466
0.14285517 -0.34277198 -0.20388466
0.15904428 -0.34277198 -0.20388466
0.17523338 -0.34277198 -0.20388466
0.19142249 -0.34277198 -0.20388466
0.20761159 -0.34277198 -0.20388466
0.22380067 -0.34277198 -0.20388466
0.2399898 -0.34277198 -0.20388466
0.25617889 -0.34277198 -0.20388466
0.27236798 -0.34277198 -0.20388466
0.28855711 -0.34277198 -0.20388466
0.30474621 -0.34277198 -0.20388466
0.32093531 -0.34277198 -0.20388466
0.33712441 -0.34277198 -0.20388466
0.35331351 -0.34277198 -0.20388466
0.36950263 -0.34277198 -0.20388466
0.3856917 -0.34277198 -0.20388466
0.40318283 -0.34380269 -0.19683743
-0.39290151 -0.32767466 -0.19600576
0.38605675 -0.3268685 -0.20182317
-0.37616417 -0.31107941 -0.19864517
0.36969689 -0.31054378 -0.20273775
0.38793778 -0.31205392 -0.19119889
-0.3600713 -0.294945 -0.19787359
0.35381994 -0.29459047 -0.20075196
0.37142637 -0.29560381 -0.19252539
0.35542309 -0.27952242 -0.19083494
-0.34443596 -0.27911878 -0.19433069
-0.32750741 -0.27864316 -0.19844979
-0.31098205 -0.27842233 -0.20036203
-0.29468602 -0.27835929 -0.20090771
-0.278474 -0.27835929 -0.20090771
-0.26226196 -0.27835929 -0.20090771
-0.24604997 -0.27835929 -0.20090771
-0.22983794 -0.27835929 -0.20090771
-0.21362592 -0.27835929 -0.20090771
-0.19741391 -0.27835929 -0.20090771
-0.18120188 -0.27835929 -0.20090771
-0.16498986 -0.27835929 -0.20090771
-0.14877784 -0.27835929 -0.20090771
-0.13256583 -0.27835929 -0.20090771
-0.1163538 -0.27835929 -0.20090771
-0.10014178 -0.27835929 -0.20090771
-0.083929755 -0.27835929 -0.20090771
-0.067717738 -0.27835929 -0.20090771
-0.051505722 -0.27835929 -0.20090771
-0.035293698 -0.27835929 -0.20090771
-0.019081682 -0.27835929 -0.20090771
-0.0028696628 -0.27835929 -0.20090771
0.013342357 -0.27835929 -0.20090771
0.029554378 -0.27835929 -0.20090771
0.045766398 -0.27835929 -0.20090771
0.061978415 -0.27835929 -0.20090771
0.078190438 -0.27835929 -0.20090771
0.094402455 -0.27835929 -0.20090771
0.11061447 -0.27835929 -0.20090771
0.12682649 -0.27835929 -0.20090771
0.14303851 -0.27835929 -0.20090771
0.15925053 -0.27835929 -0.20090771
0.17546254 -0.27835929 -0.20090771
0.19167456 -0.27835929 -0.20090771
0.20788658 -0.27835929 -0.20090771
0.22409861 -0.27835929 -0.20090771
0.24031062 -0.27835929 -0.20090771
0.25652266 -0.27835929 -0.20090771
0.27273467 -0.27835929 -0.20090771
0.28894666 -0.27835929 -0.20090771
0.30518165 -0.27837846 -0.20074219
0.32152185 -0.27847856 -0.1998747
0.33826062 -0.27886766 -0.19650489
-0.31243673 -0.26322439 -0.19091368
-0.29605716 -0.26315764 -0.19153315
-0.279773 -0.26315764 -0.19153315
-0.2634888 -0.26315764 -0.19153315
-0.2472046 -0.26315764 -0.19153315
-0.23092043 -0.26315764 -0.19153315
-0.21463624 -0.26315764 -0.19153315
-0.19835205 -0.26315764 -0.19153315
-0.18206789 -0.26315764 -0.19153315
-0.16578369 -0.26315764 -0.19153315
-0.14949951 -0.26315764 -0.19153315
-0.13321532 -0.26315764 -0.19153315
-0.11693112 -0.26315764 -0.19153315
-0.10064694 -0.26315764 -0.19153315
-0.08436276 -0.26315764 -0.19153315
-0.06807857 -0.26315764 -0.19153315
-0.05179438 -0.26315764 -0.19153315
-0.035510201 -0.26315764 -0.19153315
-0.019226011 -0.26315764 -0.19153315
-0.0029418273 -0.26315764 -0.19153315
0.013342357 -0.26315764 -0.19153315
0.029626541 -0.26315764 -0.19153315
0.045910727 -0.26315764 -0.19153315
0.062194917 -0.26315764 -0.19153315
0.078479096 -0.26315764 -0.19153315
0.094763286 -0.26315764 -0.19153315
0.11104748 -0.26315764 -0.19153315
0.12733164 -0.26315764 -0.19153315
0.14361583 -0.26315764 -0.19153315
0.15990002 -0.26315764 -0.19153315
0.17618421 -0.26315764 -0.19153315
0.19246839 -0.26315764 -0.19153315
0.20875259 -0.26315764 -0.19153315
0.22503676 -0.26315764 -0.19153315
0.24132094 -0.26315764 -0.19153315
0.25760514 -0.26315764 -0.19153315
0.2738893 -0.26315764 -0.19153315
0.2901735 -0.26315764 -0.19153315
0.30649039 -0.263183 -0.19129723
-0.067688122 0.58065265 -0.2016772
-0.051482029 0.58065265 -0.2016772
-0.035275932 0.58065265 -0.2016772
-0.019069836 0.58065265 -0.2016772
-0.0028637396 0.58065265 -0.2016772
0.013342357 0.58065265 -0.2016772
0.029548455 0.58065265 -0.2016772
0.045754552 0.58065265 -0.2016772
0.061960649 0.58065265 -0.2016772
-0.41079733 -0.34512728 -0.18778145
0.40525544 -0.32911384 -0.18561912
-0.39505267 -0.31288767 -0.18482804
-0.37811473 -0.29615042 -0.18808722
0.38983971 -0.29709017 -0.18045694
-0.38011071 -0.28108716 -0.1772837
-0.36189482 -0.27989891 -0.18757427
0.37317443 -0.2805191 -0.18220353
-0.36373448 -0.26470411 -0.17718399
-0.34612906 -0.26393357 -0.18433338
-0.32907581 -0.26345783 -0.18874776
0.32292888 -0.26329538 -0.19025463
0.33975407 -0.26366723 -0.18680447
0.35704142 -0.26431173 -0.18082422
-0.33065712 -0.24813107 -0.17896605
-0.31390452 -0.24788949 -0.18138009
-0.29744059 -0.24781996 -0.18207461
-0.28108358 -0.24781996 -0.18207461
-0.26472661 -0.24781996 -0.18207461
-0.2483696 -0.24781996 -0.18207461
-0.23201145 -0.24781899 -0.1820845
-0.21565454 -0.24781899 -0.1820845
-0.19929762 -0.24781899 -0.1820845
-0.18294071 -0.24781899 -0.1820845
-0.16658378 -0.24781899 -0.1820845
-0.15022686 -0.24781899 -0.1820845
-0.13386993 -0.24781899 -0.1820845
-0.11751301 -0.24781899 -0.1820845
-0.10115609 -0.24781899 -0.1820845
-0.08479917 -0.24781899 -0.1820845
-0.068293266 -0.24743167 -0.18595505
-0.051966146 -0.24743167 -0.18595505
-0.035639018 -0.24743167 -0.18595505
-0.019311894 -0.24743167 -0.18595505
-0.0029847687 -0.24743167 -0.18595505
0.013342357 -0.24743167 -0.18595505
0.029669482 -0.24743167 -0.18595505
0.04599661 -0.24743167 -0.18595505
0.062323734 -0.24743167 -0.18595505
0.078770041 -0.24781899 -0.1820845
0.095126964 -0.24781899 -0.1820845
0.11148389 -0.24781899 -0.1820845
0.1278408 -0.24781899 -0.1820845
0.14419833 -0.24781996 -0.18207461
0.16055532 -0.24781996 -0.18207461
0.17691232 -0.24781996 -0.18207461
0.19326931 -0.24781996 -0.18207461
0.20962632 -0.24781996 -0.18207461
0.22598331 -0.24781996 -0.18207461
0.24234031 -0.24781996 -0.18207461
0.25869733 -0.24781996 -0.18207461
0.27505431 -0.24781996 -0.18207461
0.29141131 -0.24781996 -0.18207461
0.3078109 -0.24785075 -0.18176717
0.32435611 -0.24797785 -0.18049663
0.34126285 -0.2483273 -0.17700469
-0.06815999 0.60053927 -0.18941766
-0.05185952 0.60053927 -0.18941766
-0.035559051 0.60053927 -0.18941766
-0.019258581 0.60053927 -0.18941766
-0.0029581124 0.60053927 -0.18941766
0.013342357 0.60053927 -0.18941766
0.029642828 0.60053927 -0.18941766
0.045943297 0.60053927 -0.18941766
0.062243767 0.60053927 -0.18941766
-0.068637766 0.62066203 -0.17700464
-0.052241743 0.62066203 -0.17700464
-0.035845719 0.62066203 -0.17700464
-0.019449692 0.62066203 -0.17700464
-0.003053668 0.62066203 -0.17700464
0.013342357 0.62066203 -0.17700464
0.029738382 0.62066203 -0.17700464
0.046134409 0.62066203 -0.17700464
0.062530436 0.62066203 -0.17700464
-0.43118048 -0.36445519 -0.16819948
-0.41461614 -0.36437792 -0.16870171
-0.3981562 -0.36437792 -0.16870171
-0.38169625 -0.36437792 -0.16870171
-0.36523628 -0.36437792 -0.16870171
-0.34877634 -0.36437792 -0.16870171
-0.33231643 -0.36437792 -0.16870171
-0.31585649 -0.36437792 -0.16870171
-0.29939654 -0.36437792 -0.16870171
-0.2829366 -0.36437792 -0.16870171
-0.26647666 -0.36437792 -0.16870171
-0.25001672 -0.36437792 -0.16870171
-0.23355678 -0.36437792 -0.16870171
-0.21709684 -0.36437792 -0.16870171
-0.20063689 -0.36437792 -0.16870171
-0.18417695 -0.36437792 -0.16870171
-0.16771699 -0.36437792 -0.16870171
-0.15125707 -0.36437792 -0.16870171
-0.13479713 -0.36437792 -0.16870171
-0.11833718 -0.36437792 -0.16870171
-0.10187723 -0.36437792 -0.16870171
-0.085417293 -0.36437792 -0.16870171
-0.068957351 -0.36437792 -0.16870171
-0.052497409 -0.36437792 -0.16870171
-0.036037467 -0.36437792 -0.16870171
-0.019577526 -0.36437792 -0.16870171
-0.0031175846 -0.36437792 -0.16870171
0.013342357 -0.36437792 -0.16870171
0.0298023 -0.36437792 -0.16870171
0.046262242 -0.36437792 -0.16870171
0.062722184 -0.36437792 -0.16870171
0.079182126 -0.36437792 -0.16870171
0.095642067 -0.36437792 -0.16870171
0.11210201 -0.36437792 -0.16870171
0.12856194 -0.36437792 -0.16870171
0.14502189 -0.36437792 -0.16870171
0.16148183 -0.36437792 -0.16870171
0.17794177 -0.36437792 -0.16870171
0.1944017 -0.36437792 -0.16870171
0.21086165 -0.36437792 -0.16870171
0.22732159 -0.36437792 -0.16870171
0.24378154 -0.36437792 -0.16870171
0.26024148 -0.36437792 -0.16870171
0.27670142 -0.36437792 -0.16870171
0.29316136 -0.36437792 -0.16870171
0.3096213 -0.36437792 -0.16870171
0.32608125 -0.36437792 -0.16870171
0.34254119 -0.36437792 -0.16870171
0.35900113 -0.36437792 -0.16870171
0.37546104 -0.36437792 -0.16870171
0.39192098 -0.36437792 -0.16870171
0.40838096 -0.36437792 -0.16870171
0.4248409 -0.36437792 -0.16870171
0.42420408 -0.34743392 -0.17201072
-0.4132477 -0.33051053 -0.1755389
0.40735018 -0.31426793 -0.17428082
-0.39724791 -0.29795682 -0.17342138
0.39175925 -0.28197265 -0.16961533
-0.38212901 -0.26587066 -0.16635931
0.37493968 -0.26528642 -0.17178035
-0.36559224 -0.24935946 -0.16669124
-0.34783828 -0.24860391 -0.17424095
0.35867673 -0.24895747 -0.17070836
-0.34956381 -0.23312779 -0.16405201
-0.33225474 -0.23266309 -0.16908318
-0.31538713 -0.23241673 -0.17175025
-0.29883644 -0.23234457 -0.17253101
-0.28240597 -0.23234457 -0.17253101
-0.26597551 -0.23234457 -0.17253101
-0.24954382 -0.23234366 -0.17254114
-0.23311344 -0.23234366 -0.17254114
-0.21668305 -0.23234366 -0.17254114
-0.20025267 -0.23234366 -0.17254114
-0.18382227 -0.23234366 -0.17254114
-0.16739188 -0.23234366 -0.17254114
-0.1509615 -0.23234366 -0.17254114
-0.13453114 -0.23234366 -0.17254114
-0.11810073 -0.23234366 -0.17254114
-0.10167034 -0.23234366 -0.17254114
-0.085239954 -0.23234366 -0.17254114
0.0790639 -0.23234366 -0.17254114
0.095494285 -0.23234366 -0.17254114
0.11192467 -0.23234366 -0.17254114
0.12835506 -0.23234366 -0.17254114
0.14478543 -0.23234366 -0.17254114
0.16121584 -0.23234366 -0.17254114
0.1776462 -0.23234366 -0.17254114
0.19407658 -0.23234366 -0.17254114
0.2105079 -0.23234457 -0.17253101
0.22693838 -0.23234457 -0.17253101
0.24336882 -0.23234457 -0.17253101
0.2597993 -0.23234457 -0.17253101
0.27622977 -0.23234457 -0.17253101
0.29266021 -0.23234457 -0.17253101
0.30914339 -0.23237972 -0.17215079
0.325798 -0.23251945 -0.1706382
0.34282437 -0.23286822 -0.16686237
-0.069120795 0.64101881 -0.16445535
-0.05262816 0.64101881 -0.16445535
-0.036135536 0.64101881 -0.16445535
-0.019642901 0.64101881 -0.16445535
-0.0031502722 0.64101881 -0.16445535
0.013342357 0.64101881 -0.16445535
0.029834986 0.64101881 -0.16445535
0.046327617 0.64101881 -0.16445535
0.062820248 0.64101881 -0.16445535
-0.43446437 -0.35030225 -0.15239984
0.42684907 -0.33290383 -0.15826702
-0.41572651 -0.31572402 -0.16315407
-0.41823226 -0.30076337 -0.15063441
0.40947309 -0.29926619 -0.16279036
-0.39946687 -0.28286454 -0.16189134
0.41177177 -0.28419739 -0.15034842
-0.40170795 -0.26760718 -0.1502462
0.39369848 -0.26670012 -0.1586625
-0.38416627 -0.25049621 -0.15533221
0.37672234 -0.24990351 -0.16125453
-0.3674702 -0.23386386 -0.15608448
0.36033261 -0.23345917 -0.1604653
0.3785468 -0.23438148 -0.15048116
-0.35130593 -0.21750312 -0.15376532
-0.33386561 -0.21704993 -0.15911853
-0.31688166 -0.21680221 -0.16204292
-0.3002449 -0.21672946 -0.16290146
-0.28374031 -0.21672946 -0.16290146
-0.26723439 -0.21672866 -0.16291165
-0.25072986 -0.21672866 -0.16291165
-0.23422536 -0.21672866 -0.16291165
-0.21772084 -0.21672866 -0.16291165
-0.20121634 -0.21672866 -0.16291165
-0.18471181 -0.21672866 -0.16291165
-0.1682073 -0.21672866 -0.16291165
-0.15170279 -0.21672866 -0.16291165
-0.13519828 -0.21672866 -0.16291165
-0.11869375 -0.21672866 -0.16291165
-0.10218924 -0.21672866 -0.16291165
-0.085684724 -0.21672866 -0.16291165
0.079360411 -0.21672866 -0.16291165
0.095864929 -0.21672866 -0.16291165
0.11236944 -0.21672866 -0.16291165
0.12887394 -0.21672866 -0.16291165
0.14537846 -0.21672866 -0.16291165
0.16188298 -0.21672866 -0.16291165
0.17838749 -0.21672866 -0.16291165
0.194892 -0.21672866 -0.16291165
0.21139652 -0.21672866 -0.16291165
0.22790104 -0.21672866 -0.16291165
0.24440664 -0.21672946 -0.16290146
0.26091123 -0.21672946 -0.16290146
0.27741581 -0.21672946 -0.16290146
0.29392043 -0.21672946 -0.16290146
0.31048799 -0.21676798 -0.16244715
0.32725334 -0.21691693 -0.16068804
0.34440082 -0.2172612 -0.15662301
0.36205068 -0.21783569 -0.14983749
-0.31838986 -0.20104511 -0.15224689
-0.30167055 -0.20097528 -0.15315402
-0.28508669 -0.2009729 -0.15318465
-0.26850599 -0.20097212 -0.15319484
-0.25192666 -0.20097212 -0.15319484
-0.23534736 -0.20097212 -0.15319484
-0.21876803 -0.20097212 -0.15319484
-0.20218873 -0.20097212 -0.15319484
-0.18560942 -0.20097212 -0.15319484
-0.16902924 -0.20097134 -0.15320504
-0.15245 -0.20097134 -0.15320504
-0.13587077 -0.20097134 -0.15320504
-0.11929152 -0.20097134 -0.15320504
-0.10271229 -0.20097134 -0.15320504
-0.086133048 -0.20097134 -0.15320504
0.096238926 -0.20097212 -0.15319484
0.11281824 -0.20097212 -0.15319484
0.12939754 -0.20097212 -0.15319484
0.14597686 -0.20097212 -0.15319484
0.16255617 -0.20097212 -0.15319484
0.17913549 -0.20097212 -0.15319484
0.19571482 -0.20097212 -0.15319484
0.21229412 -0.20097212 -0.15319484
0.22887343 -0.20097212 -0.15319484
0.24545273 -0.20097212 -0.15319484
0.26203206 -0.20097212 -0.15319484
0.27861261 -0.2009729 -0.15318465
0.295192 -0.2009729 -0.15318465
0.31184483 -0.2010137 -0.15265477
0.32872081 -0.20116769 -0.15065479
-0.069609538 0.66161704 -0.15175736
-0.053019166 0.66161704 -0.15175736
-0.036428779 0.66161704 -0.15175736
-0.019838404 0.66161704 -0.15175736
-0.0032480238 0.66161704 -0.15175736
0.013342357 0.66161704 -0.15175736
0.029932737 0.66161704 -0.15175736
0.04652312 0.66161704 -0.15175736
0.063113496 0.66161704 -0.15175736
0.42952633 -0.31818408 -0.14435565
-0.42076954 -0.28562811 -0.13795751
0.41409728 -0.2689527 -0.13776118
-0.40397552 -0.25218427 -0.1384638
0.39572302 -0.25130719 -0.14722818
-0.38622463 -0.23496251 -0.14419127
-0.3693651 -0.21821302 -0.14538246
0.38043693 -0.21872628 -0.13932055
-0.35306486 -0.20172776 -0.14337921
-0.33549327 -0.20129114 -0.14905035
0.34599245 -0.20150405 -0.14628518
0.36378753 -0.20205766 -0.13909358
-0.33713618 -0.18538409 -0.13888705
-0.3199119 -0.18514341 -0.14236093
-0.30311528 -0.18508002 -0.14327645
-0.28644395 -0.18507218 -0.14338958
-0.26978916 -0.18507218 -0.14338958
-0.25313437 -0.18507218 -0.14338958
-0.23647957 -0.18507218 -0.14338958
-0.21982478 -0.18507218 -0.14338958
-0.20316999 -0.18507218 -0.14338958
-0.18651424 -0.18507144 -0.14339983
-0.16985951 -0.18507144 -0.14339983
-0.1532048 -0.18507144 -0.14339983
-0.1365501 -0.18507144 -0.14339983
-0.11989536 -0.18507144 -0.14339983
-0.10324065 -0.18507144 -0.14339983
-0.086585939 -0.18507144 -0.14339983
0.096616335 -0.18507218 -0.14338958
0.11327113 -0.18507218 -0.14338958
0.12992592 -0.18507218 -0.14338958
0.14658071 -0.18507218 -0.14338958
0.1632355 -0.18507218 -0.14338958
0.1798903 -0.18507218 -0.14338958
0.19654509 -0.18507218 -0.14338958
0.2131999 -0.18507218 -0.14338958
0.22985469 -0.18507218 -0.14338958
0.24650948 -0.18507218 -0.14338958
0.26316428 -0.18507218 -0.14338958
0.27981907 -0.18507218 -0.14338958
0.29647386 -0.18507218 -0.14338958
0.31321418 -0.18511496 -0.1427725
0.33020356 -0.18527116 -0.14051729
-0.070104517 0.68246412 -0.13889742
-0.053415142 0.68246412 -0.13889742
-0.036725767 0.68246412 -0.13889742
-0.020036392 0.68246412 -0.13889742
-0.0033470178 0.68246412 -0.13889742
0.013342357 0.68246412 -0.13889742
0.030031733 0.68246412 -0.13889742
0.046721108 0.68246412 -0.13889742
0.063410483 0.68246412 -0.13889742
-0.10435089 -0.38825879 -0.12279654
-0.0034704795 -0.3882485 -0.12285936
-0.43863109 -0.38671389 -0.13235265
-0.42189547 -0.3867172 -0.13233197
-0.40515956 -0.38672066 -0.13231105
-0.38842142 -0.3867223 -0.13230067
-0.37168309 -0.38672405 -0.1322903
-0.13731906 -0.3867223 -0.13230067
-0.12057761 -0.38671887 -0.1323216
-0.087098584 -0.3867223 -0.13230067
-0.070508219 -0.38735145 -0.12840885
-0.053717889 -0.38724524 -0.12906551
-0.037046835 -0.3879033 -0.12499475
0.013342357 -0.38724193 -0.1290862
0.030097559 -0.38703829 -0.13034606
0.08039555 -0.38720825 -0.12929451
0.097289354 -0.38775641 -0.12590402
0.11396594 -0.3873615 -0.12834644
0.13082874 -0.38763818 -0.12663531
0.3816258 -0.3867223 -0.13230067
0.3983641 -0.38672066 -0.13231105
0.41510227 -0.38671887 -0.1323216
0.43183827 -0.38671556 -0.13234234
0.44857395 -0.38671228 -0.13236308
-0.43804678 -0.33610514 -0.1351639
0.43224043 -0.3032738 -0.13025248
-0.42355454 -0.27043119 -0.12404263
0.41645011 -0.25352907 -0.12502611
-0.40626794 -0.23659199 -0.12655169
0.39780402 -0.23576774 -0.13547468
-0.38830435 -0.2192671 -0.13293409
0.39990777 -0.22005813 -0.12359244
-0.37128073 -0.20240641 -0.13456279
0.38234493 -0.20290753 -0.12805432
-0.37321383 -0.18644013 -0.12364489
-0.3548426 -0.18580012 -0.1328823
0.34760103 -0.18559542 -0.13583708
0.36554176 -0.18612164 -0.12824208
-0.33879304 -0.1693258 -0.12863827
-0.32146236 -0.16910093 -0.13229042
-0.30457485 -0.16903894 -0.13329744
-0.28781503 -0.16902675 -0.13349468
-0.27108407 -0.16902675 -0.13349468
-0.25435311 -0.16902675 -0.13349468
-0.23762214 -0.16902675 -0.13349468
-0.22089116 -0.16902675 -0.13349468
-0.20415919 -0.16902611 -0.13350499
-0.18742828 -0.16902611 -0.13350499
-0.17069741 -0.16902611 -0.13350499
-0.15396652 -0.16902611 -0.13350499
-0.13723563 -0.16902611 -0.13350499
-0.12050473 -0.16902611 -0.13350499
-0.10377385 -0.16902611 -0.13350499
-0.087042958 -0.16902611 -0.13350499
0.096997194 -0.16902675 -0.13349468
0.11372816 -0.16902675 -0.13349468
0.13045911 -0.16902675 -0.13349468
0.14719008 -0.16902675 -0.13349468
0.16392104 -0.16902675 -0.13349468
0.18065202 -0.16902675 -0.13349468
0.19738297 -0.16902675 -0.13349468
0.21411395 -0.16902675 -0.13349468
0.23084491 -0.16902675 -0.13349468
0.24757586 -0.16902675 -0.13349468
0.26430684 -0.16902675 -0.13349468
0.28103781 -0.16902675 -0.13349468
0.29776877 -0.16902675 -0.13349468
0.31459609 -0.16906957 -0.13279921
0.33170035 -0.16922447 -0.13028365
0.34922364 -0.16953149 -0.1252979
-0.3060464 -0.15284856 -0.12323648
-0.28919873 -0.15283383 -0.12350881
-0.27239087 -0.15283383 -0.12350881
-0.25558305 -0.15283383 -0.12350881
-0.23877522 -0.15283383 -0.12350881
-0.22196624 -0.15283331 -0.12351936
-0.2051585 -0.15283331 -0.12351936
-0.18835074 -0.15283331 -0.12351936
-0.17154297 -0.15283331 -0.12351936
-0.15473522 -0.15283331 -0.12351936
-0.13792746 -0.15283331 -0.12351936
-0.12111906 -0.15283272 -0.12352979
-0.10431137 -0.15283272 -0.12352979
-0.087503701 -0.15283272 -0.12352979
0.097381145 -0.15283331 -0.12351936
0.1141889 -0.15283331 -0.12351936
0.13099664 -0.15283331 -0.12351936
0.14780439 -0.15283331 -0.12351936
0.16461289 -0.15283383 -0.12350881
0.18142073 -0.15283383 -0.12350881
0.19822857 -0.15283383 -0.12350881
0.21503641 -0.15283383 -0.12350881
0.23184423 -0.15283383 -0.12350881
0.24865207 -0.15283383 -0.12350881
0.26545992 -0.15283383 -0.12350881
0.28226775 -0.15283383 -0.12350881
0.29907557 -0.15283383 -0.12350881
0.31599084 -0.15287565 -0.12273353
-0.070605032 0.70355809 -0.12589365
-0.053815559 0.70355809 -0.12589365
-0.037026078 0.70355809 -0.12589365
-0.0202366 0.70355809 -0.12589365
-0.0034471219 0.70355809 -0.12589365
0.013342357 0.70355809 -0.12589365
0.030131835 0.70355809 -0.12589365
0.046921317 0.70355809 -0.12589365
0.063710794 0.70355809 -0.12589365
-0.44204834 -0.32190648 -0.11591154
0.43537816 -0.28840044 -0.1139484
-0.42646044 -0.25508043 -0.10952401
0.41883269 -0.23792419 -0.11212999
-0.40859184 -0.22083002 -0.11447656
-0.39040786 -0.20340826 -0.12154883
0.4020347 -0.20417565 -0.1115796
-0.39253151 -0.1873817 -0.11005419
0.3842729 -0.18692331 -0.11667049
-0.37516639 -0.17031248 -0.11261666
-0.35663593 -0.16971657 -0.12229335
0.36731362 -0.17002517 -0.11728144
-0.35844675 -0.15347552 -0.11160082
-0.34046727 -0.15311556 -0.11828136
-0.32305154 -0.15291689 -0.12196827
0.33320978 -0.15302494 -0.11996353
0.35086206 -0.15331094 -0.11465597
-0.32465428 -0.13657798 -0.1115585
-0.30753163 -0.1365076 -0.11308193
-0.29059517 -0.13649148 -0.11343068
-0.27370974 -0.13649148 -0.11343068
-0.25682303 -0.13649103 -0.11344129
-0.23993772 -0.13649103 -0.11344129
-0.22305237 -0.13649103 -0.11344129
-0.20616703 -0.13649103 -0.11344129
-0.1892817 -0.13649103 -0.11344129
-0.17239636 -0.13649103 -0.11344129
-0.15551102 -0.13649103 -0.11344129
-0.13862494 -0.13649058 -0.11345184
-0.12173968 -0.13649058 -0.11345184
-0.10485443 -0.13649058 -0.11345184
-0.087969184 -0.13649058 -0.11345184
0.097769044 -0.13649103 -0.11344129
0.11465438 -0.13649103 -0.11344129
0.13153972 -0.13649103 -0.11344129
0.14842504 -0.13649103 -0.11344129
0.16531038 -0.13649103 -0.11344129
0.18219572 -0.13649103 -0.11344129
0.19908106 -0.13649103 -0.11344129
0.2159664 -0.13649103 -0.11344129
0.23285279 -0.13649148 -0.11343068
0.2497382 -0.13649148 -0.11343068
0.26662362 -0.13649148 -0.11343068
0.28350905 -0.13649148 -0.11343068
0.30039445 -0.13649148 -0.11343068
0.31740001 -0.13653161 -0.11256379
0.33473516 -0.13667144 -0.10953468
-0.07111159 0.7249065 -0.11273289
-0.054220803 0.7249065 -0.11273289
-0.037330009 0.7249065 -0.11273289
-0.020439222 0.7249065 -0.11273289
-0.0035484331 0.7249065 -0.11273289
0.013342357 0.7249065 -0.11273289
0.030233148 0.7249065 -0.11273289
0.047123939 0.7249065 -0.11273289
0.064014725 0.7249065 -0.11273289
0.047237474 -0.39107779 -0.1053586
0.43877801 -0.27342299 -0.096282363
0.42123964 -0.22213188 -0.09910202
-0.41111019 -0.20495996 -0.10139102
0.40418518 -0.18811755 -0.09943372
-0.39473304 -0.17120413 -0.098137975
0.3862229 -0.17077188 -0.1051563
-0.37713882 -0.15402111 -0.10147643
0.36910346 -0.15376604 -0.10620981
-0.3603062 -0.13708314 -0.1006214
-0.34220219 -0.13676319 -0.10754949
0.35251823 -0.13693176 -0.10389894
-0.34395418 -0.12024967 -0.096711755
-0.32627395 -0.12008315 -0.10103828
-0.30903074 -0.12001406 -0.10283244
-0.29200459 -0.11999764 -0.10325915
-0.27503946 -0.11999726 -0.10326976
-0.25807583 -0.11999726 -0.10326976
-0.2411122 -0.11999726 -0.10326976
-0.22414857 -0.11999726 -0.10326976
-0.20718493 -0.11999726 -0.10326976
-0.19022129 -0.11999726 -0.10326976
-0.17325765 -0.11999726 -0.10326976
-0.15629318 -0.11999679 -0.1032806
-0.13932964 -0.11999679 -0.1032806
-0.12236608 -0.11999679 -0.1032806
-0.10540253 -0.11999679 -0.1032806
-0.088438965 -0.11999679 -0.1032806
0.098160543 -0.11999726 -0.10326976
0.11512418 -0.11999726 -0.10326976
0.13208781 -0.11999726 -0.10326976
0.14905144 -0.11999726 -0.10326976
0.16601507 -0.11999726 -0.10326976
0.18297872 -0.11999726 -0.10326976
0.19994235 -0.11999726 -0.10326976
0.216906 -0.11999726 -0.10326976
0.23386963 -0.11999726 -0.10326976
0.25083327 -0.11999726 -0.10326976
0.26779813 -0.11999764 -0.10325915
0.28476185 -0.11999764 -0.10325915
0.30172557 -0.11999764 -0.10325915
0.31882089 -0.12003417 -0.10230935
0.33627516 -0.12016127 -0.099005699
-0.071624301 0.7465142 -0.099412382
-0.054630965 0.7465142 -0.099412382
-0.037637636 0.7465142 -0.099412382
-0.020644303 0.7465142 -0.099412382
-0.0036509736 0.7465142 -0.099412382
0.013342357 0.7465142 -0.099412382
0.030335687 0.7465142 -0.099412382
0.04732902 0.7465142 -0.099412382
0.064322352 0.7465142 -0.099412382
-0.44645858 -0.40983152 -0.094692647
-0.42942676 -0.4098298 -0.094703317
-0.41239512 -0.40982798 -0.094714224
-0.39536363 -0.40982619 -0.094724894
-0.37833229 -0.40982431 -0.094735682
0.38798952 -0.40982619 -0.094724894
0.4050189 -0.40982619 -0.094724894
0.4220503 -0.40982798 -0.094714224
0.43908188 -0.4098298 -0.094703317
-0.36156166 -0.39304197 -0.093208134
-0.34452057 -0.39304197 -0.093208134
-0.32747948 -0.39304197 -0.093208134
-0.31043836 -0.39304197 -0.093208134
-0.29339728 -0.39304197 -0.093208134
-0.27635619 -0.39304197 -0.093208134
-0.2593151 -0.39304197 -0.093208134
-0.24227402 -0.39304197 -0.093208134
-0.22523293 -0.39304197 -0.093208134
-0.20819183 -0.39304197 -0.093208134
-0.19115074 -0.39304197 -0.093208134
-0.17410965 -0.39304197 -0.093208134
-0.15706857 -0.39304197 -0.093208134
-0.020739824 -0.39304197 -0.093208134
0.064465627 -0.39304197 -0.093208134
0.14967108 -0.39304197 -0.093208134
0.16671216 -0.39304197 -0.093208134
0.18375327 -0.39304197 -0.093208134
0.20079435 -0.39304197 -0.093208134
0.21783544 -0.39304197 -0.093208134
0.23487653 -0.39304197 -0.093208134
0.25191763 -0.39304197 -0.093208134
0.26895872 -0.39304197 -0.093208134
0.2859998 -0.39304197 -0.093208134
0.30304089 -0.39304197 -0.093208134
0.32008198 -0.39304197 -0.093208134
0.33712307 -0.39304197 -0.093208134
0.35416418 -0.39304197 -0.093208134
0.37120527 -0.39304197 -0.093208134
-0.4294031 -0.23952311 -0.094821632
0.42384958 -0.20622373 -0.084975243
-0.41366079 -0.18890017 -0.088137329
0.40635955 -0.17188063 -0.087152958
-0.39701468 -0.15486646 -0.085788429
0.38819167 -0.15444927 -0.093531013
-0.37921166 -0.1375844 -0.089769006
0.37091145 -0.13734166 -0.095025837
-0.36221543 -0.12053303 -0.089347839
0.35418904 -0.12039074 -0.093046606
0.37273613 -0.12074901 -0.083738267
-0.3457253 -0.10357288 -0.085755825
-0.32790923 -0.10342938 -0.09041667
-0.31054547 -0.10336591 -0.09247601
-0.29342562 -0.10334972 -0.093003631
-0.27638295 -0.10334972 -0.093003631
-0.25934029 -0.10334972 -0.093003631
-0.24229765 -0.10334972 -0.093003631
-0.22525498 -0.10334972 -0.093003631
-0.20821232 -0.10334972 -0.093003631
-0.19116965 -0.10334972 -0.093003631
-0.17412606 -0.10334931 -0.093014479
-0.15708348 -0.10334931 -0.093014479
-0.1400409 -0.10334931 -0.093014479
-0.1229983 -0.10334931 -0.093014479
-0.10595572 -0.10334931 -0.093014479
0.098555684 -0.10334972 -0.093003631
0.11559836 -0.10334972 -0.093003631
0.13264102 -0.10334972 -0.093003631
0.14968367 -0.10334972 -0.093003631
0.16672634 -0.10334972 -0.093003631
0.183769 -0.10334972 -0.093003631
0.20081168 -0.10334972 -0.093003631
0.21785435 -0.10334972 -0.093003631
0.23489702 -0.10334972 -0.093003631
0.25193968 -0.10334972 -0.093003631
0.26898235 -0.10334972 -0.093003631
0.28602499 -0.10334972 -0.093003631
0.30307895 -0.10335231 -0.092917383
0.3202551 -0.10338189 -0.091958761
0.33782837 -0.10349184 -0.088386059
0.35587642 -0.10368581 -0.08208704
-0.31207293 -0.086560391 -0.082032621
-0.29486147 -0.086546361 -0.082641244
-0.27773905 -0.086546361 -0.082641244
-0.2606166 -0.086546361 -0.082641244
-0.24349418 -0.086546361 -0.082641244
-0.22637174 -0.086546361 -0.082641244
-0.20924932 -0.086546361 -0.082641244
-0.19212586 -0.086546078 -0.082652092
-0.17500351 -0.086546078 -0.082652092
-0.15788117 -0.086546078 -0.082652092
-0.14075881 -0.086546078 -0.082652092
-0.12363646 -0.086546078 -0.082652092
-0.1065141 -0.086546078 -0.082652092
0.098954119 -0.086546078 -0.082652092
0.11607697 -0.086546361 -0.082641244
0.13319939 -0.086546361 -0.082641244
0.15032183 -0.086546361 -0.082641244
0.16744426 -0.086546361 -0.082641244
0.18456671 -0.086546361 -0.082641244
0.20168914 -0.086546361 -0.082641244
0.21881157 -0.086546361 -0.082641244
0.23593402 -0.086546361 -0.082641244
0.25305644 -0.086546361 -0.082641244
0.27017888 -0.086546361 -0.082641244
0.2873013 -0.086546361 -0.082641244
0.30444509 -0.086550042 -0.082478285
-0.072235115 0.7692492 -0.083543003
-0.055119619 0.7692492 -0.083543003
