ply
format ascii 1.0
comment PCL generated
element vertex 1333
property float x
property float y
property float z
element camera 0
property float view_px
property float view_py
property float view_pz
property float x_axisx
property float x_axisy
property float x_axisz
property float y_axisx
property float y_axisy
property float y_axisz
property float z_axisx
property float z_axisy
property float z_axisz
property float focal
property float scalex
property float scaley
property float centerx
property float centery
property int viewportx
property int viewporty
property float k1
property float k2
end_header
-0.13333584 0.093241416 -0.19018823
-0.11428546 0.093052842 -0.19325137
-0.095282987 0.092865296 -0.19629484
-0.076327607 0.09267842 -0.19933075
-0.057453122 0.092582501 -0.20088786
-0.038673077 0.092768513 -0.19786769
-0.01984659 0.092954956 -0.19484007
-0.00097349327 0.093141131 -0.1918171
-0.51414508 -0.41915053 -0.17752951
0.37901843 -0.41902211 -0.17840755
0.39675876 -0.39894319 -0.18619704
-0.51346391 -0.36172783 -0.18080688
0.37779486 -0.34210613 -0.18635452
-0.49301872 -0.3229773 -0.1881218
0.35992971 -0.28596869 -0.17901689
-0.47562578 -0.26687682 -0.18016183
0.33999527 -0.24745691 -0.18579727
-0.45528752 -0.22839761 -0.18748057
0.32201326 -0.19102439 -0.17845625
-0.43776789 -0.17197618 -0.17951626
-0.4174239 -0.15267769 -0.18750471
0.30294049 -0.15300298 -0.17905337
0.28326511 -0.13382682 -0.18494868
-0.39966172 -0.1149852 -0.18028355
-0.37972879 -0.095905289 -0.18643939
0.26506421 -0.09603519 -0.17800528
0.24547105 -0.076987147 -0.18390536
-0.36184818 -0.058029823 -0.17921191
-0.34200105 -0.039083816 -0.18537313
0.2271546 -0.039019108 -0.17696816
0.2076439 -0.020099413 -0.18287337
-0.32411665 -0.0010045953 -0.17726105
-0.3038823 -0.001234401 -0.1872142
0.18868241 -0.0011330321 -0.18282485
-0.30544072 0.018086985 -0.17456144
-0.28525972 0.01777982 -0.18453628
0.16989796 0.017913058 -0.18021041
-0.26659521 0.036835052 -0.18186474
0.13154325 0.036624998 -0.18732315
0.15107435 0.037000112 -0.17757821
-0.24789017 0.05593174 -0.17918748
-0.22797745 0.055472173 -0.18913728
0.11273316 0.05567681 -0.18470609
0.13220984 0.05612728 -0.17495263
-0.22914444 0.075069956 -0.17650431
-0.20928687 0.074533217 -0.18646359
0.093882985 0.074769236 -0.18208361
-0.19077164 0.093808629 -0.18097705
-0.171578 0.093618624 -0.1840632
-0.15243313 0.093429796 -0.1871295
0.017946295 0.093328513 -0.18877465
0.036912858 0.093515582 -0.18573672
0.055926364 0.093703128 -0.18269122
0.074992619 0.093902491 -0.17945546
-0.1531913 0.11321517 -0.17481828
-0.13399695 0.11300037 -0.17791981
-0.11485127 0.11278681 -0.18100142
-0.095753312 0.11257382 -0.1840753
-0.07670293 0.11236145 -0.1871416
-0.057732303 0.1122466 -0.18879884
-0.038859658 0.11245794 -0.18574882
-0.019940112 0.11266977 -0.18269122
-0.00097349327 0.1128813 -0.17963815
0.018040285 0.1130941 -0.17656529
-0.077082016 0.13224152 -0.17483044
-0.058014259 0.13210601 -0.17658967
-0.49755061 -0.42091313 -0.16547883
0.39941421 -0.42028534 -0.16977078
-0.44071612 -0.383057 -0.16286463
0.39883158 -0.38168156 -0.17337471
-0.5166651 -0.3445251 -0.16540509
0.37997425 -0.32469323 -0.17219907
-0.49608299 -0.30558461 -0.17281151
0.36201251 -0.2681796 -0.16477656
-0.47859141 -0.24907702 -0.16475189
0.3419576 -0.22949538 -0.17163533
-0.4581199 -0.21041191 -0.17215008
0.32387605 -0.17268255 -0.16422188
-0.44049984 -0.15357901 -0.1640861
-0.41969672 -0.13416132 -0.17408442
0.30453506 -0.13440697 -0.166107
-0.42199236 -0.11544148 -0.1605292
0.28475291 -0.11517514 -0.17206413
-0.40184402 -0.096208014 -0.16678399
-0.38179681 -0.077071026 -0.17300731
0.26646066 -0.077132277 -0.16504765
0.24676155 -0.058029778 -0.17101002
-0.36382434 -0.038932428 -0.16570067
-0.34386384 -0.019930854 -0.17192948
0.22835259 -0.019808762 -0.1639998
0.20873678 -0.00083612278 -0.16996711
-0.32578593 0.018396676 -0.16450542
0.18963818 0.018214844 -0.17040896
-0.30701375 0.037607729 -0.16179007
-0.28672251 0.037219837 -0.17186821
0.17075999 0.037377618 -0.16776806
-0.26796347 0.056394503 -0.16916907
0.15184224 0.056582011 -0.16510928
-0.24916348 0.075610973 -0.16646409
0.11330575 0.075295947 -0.17230928
0.13288318 0.075826891 -0.16245705
-0.23032236 0.094869472 -0.16375315
-0.21035792 0.094249777 -0.17381525
0.094361171 0.094505675 -0.16966027
0.11388412 0.095113702 -0.15978688
-0.21144105 0.11417084 -0.1610238
-0.19172412 0.11364577 -0.16860402
-0.17243309 0.1134297 -0.17172116
0.037101299 0.11330678 -0.17349714
0.056209728 0.1135199 -0.17042112
0.075375982 0.11375654 -0.16700554
-0.15395711 0.13319966 -0.16238302
-0.13466534 0.13295859 -0.16551596
-0.11542274 0.13271889 -0.16862851
-0.096228361 0.13247994 -0.17173338
-0.039048098 0.1323432 -0.17350936
-0.020034568 0.13258085 -0.17042112
-0.00097349327 0.13281825 -0.16733772
0.01813521 0.13305721 -0.16423404
0.037291624 0.13329574 -0.16113508
-0.077464543 0.15232053 -0.16240776
-0.058299031 0.15216377 -0.16425866
-0.039238419 0.15242723 -0.16114742
-0.53957033 -0.4235062 -0.14774966
-0.42215374 -0.38348734 -0.15957642
-0.40300918 -0.38348734 -0.15957642
-0.38386461 -0.38348734 -0.15957642
-0.36472008 -0.38348734 -0.15957642
-0.34557551 -0.38348734 -0.15957642
-0.32643095 -0.38348734 -0.15957642
-0.30728641 -0.38348734 -0.15957642
-0.28814185 -0.38348734 -0.15957642
-0.26899728 -0.38348734 -0.15957642
-0.24985273 -0.38348734 -0.15957642
-0.23070817 -0.38348734 -0.15957642
-0.21156362 -0.38348734 -0.15957642
-0.19241905 -0.38348734 -0.15957642
-0.1732745 -0.38348734 -0.15957642
-0.15412995 -0.38348734 -0.15957642
-0.13498539 -0.38348734 -0.15957642
-0.11584083 -0.38348734 -0.15957642
-0.096696272 -0.38348734 -0.15957642
-0.077551723 -0.38348734 -0.15957642
-0.058407161 -0.38348734 -0.15957642
-0.039262608 -0.38348734 -0.15957642
-0.02011805 -0.38348734 -0.15957642
-0.00097349327 -0.38348734 -0.15957642
0.018171065 -0.38348734 -0.15957642
0.037315622 -0.38348734 -0.15957642
0.056460176 -0.38348734 -0.15957642
0.075604737 -0.38348734 -0.15957642
0.094749287 -0.38348734 -0.15957642
0.11389384 -0.38348734 -0.15957642
0.1330384 -0.38348734 -0.15957642
0.15218297 -0.38348734 -0.15957642
0.17132752 -0.38348734 -0.15957642
0.19047207 -0.38348734 -0.15957642
0.20961663 -0.38348734 -0.15957642
0.22876118 -0.38348734 -0.15957642
0.24790575 -0.38348734 -0.15957642
0.2670503 -0.38348734 -0.15957642
0.28619486 -0.38348734 -0.15957642
0.30533943 -0.38348734 -0.15957642
0.40195456 -0.36502266 -0.15405631
-0.52030617 -0.32731342 -0.14788699
0.38217887 -0.30707884 -0.15787971
-0.49918821 -0.28797507 -0.15729702
0.36411953 -0.25018403 -0.15037096
-0.48159674 -0.23105419 -0.14913571
0.34394267 -0.21132588 -0.15730929
-0.46098545 -0.19220003 -0.15663958
0.32576212 -0.15412849 -0.14980972
-0.44326401 -0.13494989 -0.1484741
0.30614647 -0.11561474 -0.15302408
-0.42431545 -0.096515529 -0.14681208
0.28625631 -0.096327171 -0.15904415
-0.40404832 -0.077223837 -0.15314841
0.28777567 -0.077279799 -0.1458863
-0.38388559 -0.058029868 -0.15944034
0.26787183 -0.058029823 -0.15195346
-0.38599932 -0.038778558 -0.14571118
0.24806564 -0.038872957 -0.15797877
-0.36582229 -0.019624669 -0.15204072
0.24938351 -0.019513361 -0.14480972
-0.34574538 -0.00056783855 -0.15835053
0.22956319 -0.00039559603 -0.15089452
0.20984116 0.01863008 -0.15692496
-0.3275606 0.038025178 -0.15094423
0.19060366 0.037758805 -0.15786731
-0.30860311 0.057331301 -0.1488862
-0.28820044 0.056860946 -0.15906888
0.17163162 0.057040244 -0.15518725
0.19157892 0.057501592 -0.14519787
-0.2896952 0.076706968 -0.14612401
-0.26934722 0.076157086 -0.15632951
0.15261792 0.076362602 -0.15251374
-0.25045121 0.095494889 -0.15359628
0.13356335 0.095726527 -0.14983451
-0.23151363 0.11487531 -0.15085709
0.094844192 0.11444206 -0.15711093
0.11446839 0.11513302 -0.14713705
-0.21253441 0.13429824 -0.14811194
-0.19268622 0.13368285 -0.156106
-0.17329679 0.13344046 -0.15925467
0.056495931 0.13353491 -0.15802842
0.075763226 0.13381204 -0.1544292
-0.17416926 0.15365389 -0.146662
-0.15472989 0.15338525 -0.14983463
-0.13534048 0.15311825 -0.15298665
-0.11599998 0.15285203 -0.15613079
-0.096707709 0.15258545 -0.15927953
-0.020129966 0.15269142 -0.15802842
-0.00097349327 0.15295517 -0.15491378
0.018231088 0.15322053 -0.15177906
0.037483864 0.1534856 -0.14864898
0.056785006 0.15375137 -0.14551091
-0.097192399 0.17289555 -0.14668691
-0.07785131 0.17260358 -0.14984715
-0.058586661 0.17242289 -0.15180397
-0.039430652 0.17271307 -0.14866138
-0.020226326 0.17300421 -0.14551091
-0.52259624 -0.44441706 -0.13686895
0.40454775 -0.4442406 -0.13801539
-0.54264468 -0.40624705 -0.13348639
0.40512875 -0.3481029 -0.13442123
0.38440916 -0.28925937 -0.14339364
-0.50233012 -0.27014229 -0.14159918
0.36625114 -0.23197836 -0.13579702
-0.48463768 -0.21280232 -0.13333464
0.34594908 -0.19294426 -0.14282918
-0.46388954 -0.17375882 -0.140921
0.32767022 -0.13535771 -0.13522923
-0.44606316 -0.11608501 -0.13266456
0.30777496 -0.096623287 -0.13980222
-0.42666432 -0.077379391 -0.1329428
-0.40627906 -0.058029868 -0.13934958
0.28930971 -0.058029823 -0.13260138
0.26929802 -0.038724639 -0.13872039
-0.3881346 -0.019313734 -0.13184214
-0.3678405 -0.00010343641 -0.13824201
0.25071543 5.2254647e-05 -0.13150048
-0.34764943 0.01900927 -0.14460909
0.23078667 0.019223541 -0.13765013
-0.34957287 0.038803406 -0.13072813
0.21095723 0.03830234 -0.14374471
-0.329368 0.057874128 -0.13713348
0.2120852 0.058184035 -0.13042414
-0.31021062 0.077261411 -0.13583493
0.17251126 0.076902725 -0.14249039
0.1925642 0.077446528 -0.13239896
-0.29120412 0.096759833 -0.1330564
-0.27074406 0.096124746 -0.14336848
0.15340151 0.096345223 -0.1397897
-0.27215683 0.11630233 -0.13025928
-0.2517511 0.11558544 -0.14060688
0.13425049 0.11582961 -0.13708305
-0.23271619 0.13508907 -0.13783896
0.095332131 0.13458148 -0.14443398
0.11505923 0.13535801 -0.13434541
-0.21364026 0.15463686 -0.13505256
-0.19365805 0.15392321 -0.14348125
0.076154426 0.1540719 -0.14172482
0.095825061 0.15492705 -0.13162708
-0.19463883 0.17436853 -0.13074064
-0.17505057 0.17407304 -0.13394129
-0.1555113 0.17377692 -0.13714612
-0.13602181 0.1734817 -0.14034283
-0.1165825 0.17318824 -0.14351892
-0.00097349327 0.17329475 -0.14236498
0.018327933 0.17358729 -0.13919842
0.037678041 0.17387927 -0.13603663
0.057077013 0.17417222 -0.13286686
-0.11717153 0.19373247 -0.13076603
-0.097682007 0.1934123 -0.13396633
-0.078242011 0.19309279 -0.13715875
-0.058877192 0.19288629 -0.13922369
-0.039624833 0.19320384 -0.13604915
-0.020323563 0.19352102 -0.1328795
-0.54369283 -0.44568646 -0.12862372
0.42705998 -0.44715112 -0.11911035
0.42645031 -0.42716852 -0.12271023
-0.46721628 -0.40771192 -0.12291408
-0.44842905 -0.40821242 -0.11930215
-0.42897445 -0.40821242 -0.11930215
-0.40951988 -0.40821242 -0.11930215
-0.39006528 -0.40821242 -0.11930215
-0.37061068 -0.40821242 -0.11930215
-0.35115612 -0.40821242 -0.11930215
-0.33170152 -0.40821242 -0.11930215
-0.31224692 -0.40821242 -0.11930215
-0.29279235 -0.40821242 -0.11930215
-0.27333775 -0.40821242 -0.11930215
-0.25388315 -0.40821242 -0.11930215
-0.23442857 -0.40821242 -0.11930215
-0.21497397 -0.40821242 -0.11930215
-0.19551939 -0.40821242 -0.11930215
-0.1760648 -0.40821242 -0.11930215
-0.15661021 -0.40821242 -0.11930215
-0.13715562 -0.40821242 -0.11930215
-0.11770103 -0.40821242 -0.11930215
-0.09824644 -0.40821242 -0.11930215
-0.078791849 -0.40821242 -0.11930215
-0.059337262 -0.40821242 -0.11930215
-0.039882671 -0.40821242 -0.11930215
-0.020428082 -0.40821242 -0.11930215
-0.00097349327 -0.40821242 -0.11930215
0.018481096 -0.40821242 -0.11930215
0.037935685 -0.40821242 -0.11930215
0.057390276 -0.40821242 -0.11930215
0.076844864 -0.40821242 -0.11930215
0.096299455 -0.40821242 -0.11930215
0.11575405 -0.40821242 -0.11930215
0.13520864 -0.40821242 -0.11930215
0.15466322 -0.40821242 -0.11930215
0.17411782 -0.40821242 -0.11930215
0.1935724 -0.40821242 -0.11930215
0.21302699 -0.40821242 -0.11930215
0.23248158 -0.40821242 -0.11930215
0.25193617 -0.40821242 -0.11930215
0.27139077 -0.40821242 -0.11930215
0.29084536 -0.40821242 -0.11930215
0.31029993 -0.40821242 -0.11930215
0.32975453 -0.40821242 -0.11930215
0.34797904 -0.40698236 -0.12817955
-0.52539605 -0.31052959 -0.1233983
0.38666362 -0.27123019 -0.12875056
-0.50551444 -0.25208405 -0.12568939
0.36840591 -0.21355793 -0.12106466
-0.4877198 -0.19431883 -0.11731923
0.34798077 -0.17434794 -0.12816679
-0.46682808 -0.15508291 -0.12501526
0.32960072 -0.11636643 -0.12047744
-0.44890028 -0.096979931 -0.11664081
0.30942082 -0.077429451 -0.12643957
-0.42903727 -0.058029823 -0.11893141
-0.40853459 -0.038622163 -0.12539685
0.29086158 -0.0385741 -0.11916149
0.27073938 -0.019213699 -0.12534606
-0.39029565 0.00036846846 -0.11780572
-0.36988303 0.019635312 -0.12427711
0.25206158 0.019827083 -0.11804891
0.23202318 0.039052114 -0.12426436
-0.35151953 0.058818825 -0.11667907
-0.33119714 0.077944569 -0.12315619
0.21322525 0.078278504 -0.11696088
-0.31183344 0.097400121 -0.12265921
0.17339994 0.096968777 -0.12966347
0.19355962 0.097596653 -0.11946821
-0.29273036 0.11702432 -0.11983871
0.15419315 0.11653268 -0.12693524
0.17429775 0.11724139 -0.1167047
-0.27358317 0.13669145 -0.1170249
-0.25306588 0.13588744 -0.12746859
0.13494466 0.13613895 -0.12420058
-0.23393254 0.15551597 -0.12467158
0.11565553 0.15579006 -0.12143481
-0.21475664 0.17518818 -0.12186873
0.076549627 0.17453951 -0.12889016
0.096323565 0.17548308 -0.11867559
-0.19563062 0.1950244 -0.11785698
-0.1759409 0.19470096 -0.12109017
-0.15630069 0.19437692 -0.1243279
-0.13671076 0.19405368 -0.12755752
-0.00097349327 0.19384047 -0.12968898
0.018425761 0.19416052 -0.12649047
0.037874188 0.19448006 -0.1232965
0.057371981 0.19480062 -0.12009418
0.076948911 0.19521791 -0.11592317
-0.1177666 0.2144874 -0.11788249
-0.098176628 0.21413893 -0.12111568
-0.078636698 0.21379137 -0.12434065
-0.059170667 0.21355686 -0.12651575
-0.039820977 0.21390253 -0.12330902
-0.020421885 0.21424764 -0.12010705
-0.00097349327 0.21459499 -0.11688411
0.42986014 -0.41053015 -0.10257602
-0.54798442 -0.3901436 -0.10871303
0.40835127 -0.33091295 -0.11448705
0.38894656 -0.25298983 -0.11392236
-0.50873685 -0.23379412 -0.1095891
0.370588 -0.19492093 -0.10614562
-0.49083897 -0.17559758 -0.10111165
0.35003638 -0.15553258 -0.11333168
-0.46980664 -0.13616869 -0.10889363
0.33155403 -0.097150669 -0.10555136
-0.45177373 -0.077629879 -0.1004113
0.31110805 -0.058029868 -0.11274099
-0.43143895 -0.038463231 -0.10474992
-0.41081539 -0.018997252 -0.11128819
0.29243016 -0.018909376 -0.10557723
0.2721962 0.0005065389 -0.11182833
-0.39247897 0.020271249 -0.1036247
-0.37194654 0.039594628 -0.1101687
0.25342223 0.039814718 -0.10445261
0.23327297 0.059093408 -0.11073494
-0.35348809 0.079059206 -0.10247242
-0.33304507 0.098239146 -0.10903537
0.21437645 0.098588251 -0.10336578
-0.31347495 0.11775226 -0.10933149
0.19456629 0.11795606 -0.10639095
-0.29427126 0.13750193 -0.10649419
0.15499295 0.13692829 -0.11394811
0.17520489 0.13772392 -0.10361171
-0.27502593 0.15729707 -0.10363758
-0.25439325 0.15640226 -0.11420476
0.1356467 0.15665901 -0.11117256
0.15580103 0.1575352 -0.10082638
-0.25573599 0.17713559 -0.10078752
-0.23516053 0.17615727 -0.11137831
0.11625802 0.17643309 -0.10839081
-0.21588592 0.19595751 -0.10853267
0.096826732 0.19625074 -0.10560298
-0.19663264 0.21589291 -0.10484052
-0.17684041 0.21554083 -0.10810709
-0.15709819 0.21518844 -0.11137831
-0.13740678 0.21483678 -0.11464095
0.018524585 0.21494323 -0.11365283
0.03807234 0.21529093 -0.11042619
0.057669964 0.21563968 -0.10719132
0.077352315 0.2161105 -0.10282218
-0.13810998 0.23583412 -0.10159135
-0.11836778 0.2354559 -0.10486639
-0.098676339 0.23507872 -0.10813284
-0.079035044 0.23470104 -0.11140394
-0.059467133 0.23443848 -0.11367846
-0.040018927 0.23481092 -0.11045194
-0.020521211 0.23518583 -0.10720408
-0.00097349327 0.23556188 -0.10394824
0.018624421 0.23593885 -0.10068381
-0.059766334 0.25553203 -0.10072267
-0.55092269 -0.4704918 -0.095081091
0.43150926 -0.47085425 -0.092838407
-0.49347824 -0.4323335 -0.087397695
0.37242749 -0.43143079 -0.093568921
0.41162536 -0.31344822 -0.09423399
-0.53058398 -0.29341224 -0.098437786
0.39125457 -0.23453239 -0.098931551
-0.5120033 -0.21526968 -0.093268871
0.37279603 -0.17606235 -0.091049194
0.35211635 -0.13649426 -0.098320842
-0.47282112 -0.11701076 -0.092577338
0.33353055 -0.077706523 -0.090447903
0.31295779 -0.038409084 -0.097722888
-0.43386555 -0.018675976 -0.090421796
-0.41311973 0.00084818527 -0.097033739
0.29401571 0.00096801668 -0.091846108
0.27366877 0.020439409 -0.098164916
-0.39468893 0.040399037 -0.089270473
-0.37403518 0.05977919 -0.095888615
0.25479758 0.060018353 -0.090709329
0.23453623 0.079350837 -0.097059846
-0.35547706 0.099527277 -0.088118315
-0.33491555 0.11876301 -0.094742179
0.21554118 0.11911846 -0.089610815
-0.31513232 0.13831946 -0.095875502
0.19558246 0.13852623 -0.09319067
-0.29583004 0.1581983 -0.092994928
0.17612143 0.15841958 -0.090382457
-0.27648267 0.17812085 -0.090120912
0.13635533 0.17739105 -0.098021984
0.15661754 0.17835665 -0.087568045
-0.2570917 0.19808835 -0.087240577
-0.23640274 0.19701847 -0.097931027
0.11686675 0.19729063 -0.095211387
-0.21702607 0.21694621 -0.095067978
0.09733513 0.21723437 -0.09239459
-0.19764502 0.23697746 -0.091689348
-0.17774829 0.23659492 -0.095003009
-0.15790391 0.23621464 -0.098294854
0.038272522 0.23631525 -0.09742403
0.057971004 0.23669258 -0.094155788
0.077760331 0.23722205 -0.089571476
-0.13882045 0.2570489 -0.088406563
-0.1189746 0.25663984 -0.091728568
-0.099180713 0.25623333 -0.095028877
-0.079437904 0.25582778 -0.098320961
-0.040219106 0.25593501 -0.097449899
-0.020621559 0.25633928 -0.094168782
-0.00097349327 0.25674435 -0.090879202
0.018725283 0.25715071 -0.087581158
-0.060068913 0.27684432 -0.087620497
0.41384369 -0.47284701 -0.080511451
-0.47556454 -0.43374774 -0.077728152
-0.45578986 -0.43374774 -0.077728152
-0.43601528 -0.43374774 -0.077728152
-0.41624063 -0.43374774 -0.077728152
-0.39646602 -0.43374774 -0.077728152
-0.37669137 -0.43374774 -0.077728152
-0.35691676 -0.43374774 -0.077728152
-0.33714214 -0.43374774 -0.077728152
-0.31736749 -0.43374774 -0.077728152
-0.29759288 -0.43374774 -0.077728152
-0.27781823 -0.43374774 -0.077728152
-0.25804365 -0.43374774 -0.077728152
-0.23826902 -0.43374774 -0.077728152
-0.21849439 -0.43374774 -0.077728152
-0.19871975 -0.43374774 -0.077728152
-0.17894512 -0.43374774 -0.077728152
-0.15917049 -0.43374774 -0.077728152
-0.13939586 -0.43374774 -0.077728152
-0.11962125 -0.43374774 -0.077728152
-0.099846624 -0.43374774 -0.077728152
-0.080071993 -0.43374774 -0.077728152
-0.060297374 -0.43374774 -0.077728152
-0.040522743 -0.43374774 -0.077728152
-0.020748118 -0.43374774 -0.077728152
-0.00097349327 -0.43374774 -0.077728152
0.018801132 -0.43374774 -0.077728152
0.038575757 -0.43374774 -0.077728152
0.058350388 -0.43374774 -0.077728152
0.078125007 -0.43374774 -0.077728152
0.097899638 -0.43374774 -0.077728152
0.11767427 -0.43374774 -0.077728152
0.13744888 -0.43374774 -0.077728152
0.15722351 -0.43374774 -0.077728152
0.17699814 -0.43374774 -0.077728152
0.19677277 -0.43374774 -0.077728152
0.2165474 -0.43374774 -0.077728152
0.23632203 -0.43374774 -0.077728152
0.25609666 -0.43374774 -0.077728152
0.27587125 -0.43374774 -0.077728152
0.29564589 -0.43374774 -0.077728152
0.31542051 -0.43374774 -0.077728152
0.33519515 -0.43374774 -0.077728152
0.35496977 -0.43374774 -0.077728152
0.43332258 -0.39362228 -0.082131267
-0.55342764 -0.3737179 -0.083459735
0.41495222 -0.29570159 -0.073654532
-0.53587836 -0.27595404 -0.072965264
0.39359203 -0.21585608 -0.083748937
-0.51530945 -0.19650492 -0.076750517
-0.49400091 -0.15663522 -0.084681869
0.37503046 -0.15697822 -0.075772285
0.35422114 -0.11722897 -0.083131075
-0.47587702 -0.097605087 -0.076036692
-0.45468199 -0.058029823 -0.083985567
0.33553076 -0.058029823 -0.075163722
0.31482959 -0.018554371 -0.082525969
-0.43642041 0.0013492927 -0.075335741
-0.41545227 0.020918503 -0.082604885
0.29561844 0.021061368 -0.077965856
0.27515724 0.040588282 -0.084353447
-0.39692399 0.060755305 -0.074753404
0.27666196 0.060956843 -0.070391417
-0.37614557 0.080191456 -0.081459999
0.25618786 0.080441631 -0.076816559
0.2358132 0.099827997 -0.083236217
-0.35749039 0.12022864 -0.073588014
-0.33680546 0.13951835 -0.080300689
0.21671861 0.1398721 -0.075706005
-0.316809 0.15910703 -0.082262874
0.19660923 0.15931115 -0.079852462
-0.29740393 0.17911461 -0.079364657
0.17704755 0.17933154 -0.077014804
-0.27795494 0.19916719 -0.076459765
0.13707136 0.19833919 -0.084734201
0.15744258 0.19939619 -0.074170828
-0.25846323 0.2192668 -0.073535204
-0.237657 0.21810091 -0.084353328
0.11748183 0.21836591 -0.081894398
0.13779488 0.21950686 -0.071307421
-0.23892589 0.23941067 -0.07061708
-0.21817949 0.23816013 -0.081446886
0.097848833 0.23843712 -0.079048038
-0.19866791 0.25828126 -0.078401446
-0.17866652 0.25786892 -0.081749558
-0.15871799 0.25745919 -0.085075736
0.038474765 0.25755626 -0.084287643
0.058275156 0.25796291 -0.080985785
0.078172207 0.25855303 -0.076195359
-0.15953974 0.27892348 -0.071731925
-0.13953835 0.27848473 -0.075084329
-0.11958832 0.27804562 -0.078441024
-0.099690825 0.27760899 -0.081776023
-0.079844944 0.27717376 -0.085102081
-0.040421348 0.2772769 -0.084313989
-0.020722941 0.27771068 -0.080998898
-0.00097349327 0.27814561 -0.077675343
0.018827191 0.27858171 -0.074342966
0.038679108 0.27901736 -0.071015358
-0.080256224 0.2987425 -0.071745276
-0.060374629 0.29837695 -0.074382663
-0.040625684 0.29883993 -0.071041942
-0.53689963 -0.47486126 -0.068051696
-0.51918972 -0.45665765 -0.057363391
0.39685458 -0.45585787 -0.062558413
0.43684113 -0.37644044 -0.061355114
-0.55898315 -0.3569636 -0.057685375
0.39646 -0.19713154 -0.065121293
-0.51866132 -0.17749625 -0.060003638
-0.49720135 -0.13742635 -0.068051577
0.37729177 -0.13766456 -0.060311556
0.35635114 -0.097732544 -0.067759037
-0.47897029 -0.077946357 -0.059293747
-0.45762801 -0.038175285 -0.067346454
0.33755499 -0.038116436 -0.059695601
0.31672382 0.0015383586 -0.067146659
-0.43925977 0.021658517 -0.058570266
-0.41780919 0.041216761 -0.068025112
0.29723874 0.041374274 -0.06393373
-0.39918458 0.08134409 -0.060070515
0.27818319 0.08154846 -0.056276202
-0.37828189 0.10083682 -0.066853642
0.25759336 0.1010881 -0.062772036
0.23710287 0.12052742 -0.06927526
-0.35952494 0.14116547 -0.058905244
-0.33871865 0.1605112 -0.065681219
0.2179089 0.16085255 -0.061649323
-0.31850198 0.18011659 -0.068517327
0.19764678 0.18031448 -0.066374183
-0.29899472 0.20025524 -0.065587997
0.17798343 0.20046356 -0.063506603
-0.27944452 0.22044104 -0.062638402
0.15827714 0.22065884 -0.060619235
0.11810338 0.23966244 -0.068437457
-0.25984821 0.24067172 -0.059695601
0.13852602 0.24089772 -0.057739139
-0.24020724 0.26094857 -0.056746125
-0.21934417 0.25960022 -0.067692637
0.098367937 0.25986266 -0.065561295
-0.19971795 0.27983573 -0.064761162
-0.17959432 0.27936512 -0.068357706
0.058582455 0.27945384 -0.067679048
0.078588411 0.28010833 -0.062678576
-0.10020626 0.29920819 -0.06838429
-0.020825373 0.29930407 -0.067692518
-0.16037095 0.30061442 -0.058235049
-0.14026374 0.30014506 -0.0616225
-0.12020846 0.29967505 -0.065014601
-0.00097349327 0.29976937 -0.064334154
0.018930158 0.30023599 -0.060967207
0.038885579 0.30070186 -0.05760479
-0.0806714 0.32053518 -0.058261991
-0.060683522 0.32013366 -0.061007261
-0.040832151 0.32062727 -0.057631731
-0.56042945 -0.4976024 -0.050975204
0.43883663 -0.49784002 -0.049572229
0.41833317 -0.2776666 -0.052740097
-0.54127681 -0.25814214 -0.046991944
0.3997035 -0.17823285 -0.044053912
-0.50044626 -0.11796655 -0.051190972
0.37957847 -0.11811695 -0.044677258
0.35850683 -0.078000948 -0.052201629
-0.48210663 -0.058029778 -0.042317867
-0.46061495 -0.018061031 -0.050476193
0.33960372 -0.017961841 -0.044040442
0.31863925 0.021873362 -0.051595211
-0.44213405 0.042233936 -0.041598201
-0.42019528 0.061747804 -0.053265214
0.29887679 0.061910279 -0.049747825
-0.40146902 0.1021683 -0.045232654
0.27972114 0.10236708 -0.042005658
-0.38044074 0.12171776 -0.052093625
0.25901428 0.12196174 -0.048573136
0.23840789 0.14145464 -0.055148005
-0.36158466 0.16234362 -0.044040322
0.2397273 0.16261256 -0.040864706
-0.34065202 0.1817432 -0.05090785
0.21911229 0.18206364 -0.047438145
-0.32021323 0.20135254 -0.054623723
0.19869532 0.20153964 -0.052753568
-0.32194471 0.22281995 -0.040565848
-0.30060422 0.22162554 -0.051649094
0.17892919 0.22181877 -0.049855828
-0.2809487 0.2419436 -0.048681259
0.15911971 0.24214494 -0.046937823
-0.26124951 0.26230976 -0.045692921
0.11873148 0.2611835 -0.054838777
0.13926491 0.26251516 -0.044026971
-0.24150372 0.28272128 -0.042711377
-0.22052255 0.28127322 -0.053776383
0.098892525 0.28151473 -0.051932096
0.11936686 0.28293458 -0.041082144
-0.20079164 0.30164292 -0.050813317
-0.18053187 0.30108705 -0.054825306
0.058892962 0.30116883 -0.054233789
0.079009026 0.30189154 -0.049018741
-0.18147932 0.32303804 -0.041150212
-0.16121092 0.32253397 -0.044595957
-0.14099604 0.3220315 -0.048032761
-0.12083512 0.32153207 -0.051446915
-0.1007266 0.3210319 -0.054865718
-0.020928873 0.32112238 -0.05424726
-0.00097349327 0.32161871 -0.050853729
0.019034201 0.32211632 -0.047451615
0.039094206 0.32261327 -0.044054031
0.059206728 0.32311159 -0.040647388
-0.10125294 0.34308797 -0.041190863
-0.081091367 0.34255961 -0.044623137
-0.060995638 0.34211788 -0.047492027
-0.041040774 0.34264293 -0.044080973
-0.021033462 0.34316948 -0.040661097
-0.54483044 -0.50117248 -0.02989459
0.42088863 -0.4999806 -0.03693223
-0.4834998 -0.4601351 -0.034777164
-0.46339455 -0.4601351 -0.034777164
-0.44328925 -0.4601351 -0.034777164
-0.42318401 -0.4601351 -0.034777164
-0.40307876 -0.4601351 -0.034777164
-0.38297346 -0.4601351 -0.034777164
-0.36286822 -0.4601351 -0.034777164
-0.34276295 -0.4601351 -0.034777164
-0.3226577 -0.4601351 -0.034777164
-0.30255243 -0.4601351 -0.034777164
-0.28244719 -0.4601351 -0.034777164
-0.26234192 -0.4601351 -0.034777164
-0.24223664 -0.4601351 -0.034777164
-0.22213137 -0.4601351 -0.034777164
-0.20202613 -0.4601351 -0.034777164
-0.18192086 -0.4601351 -0.034777164
-0.1618156 -0.4601351 -0.034777164
-0.14171034 -0.4601351 -0.034777164
-0.12160507 -0.4601351 -0.034777164
-0.10149981 -0.4601351 -0.034777164
-0.081394546 -0.4601351 -0.034777164
-0.061289281 -0.4601351 -0.034777164
-0.041184019 -0.4601351 -0.034777164
-0.021078756 -0.4601351 -0.034777164
-0.00097349327 -0.4601351 -0.034777164
0.01913177 -0.4601351 -0.034777164
0.039237034 -0.4601351 -0.034777164
0.059342295 -0.4601351 -0.034777164
0.07944756 -0.4601351 -0.034777164
0.099552825 -0.4601351 -0.034777164
0.11965808 -0.4601351 -0.034777164
0.13976336 -0.4601351 -0.034777164
0.15986861 -0.4601351 -0.034777164
0.17997387 -0.4601351 -0.034777164
0.20007914 -0.4601351 -0.034777164
0.22018439 -0.4601351 -0.034777164
0.24028966 -0.4601351 -0.034777164
0.26039493 -0.4601351 -0.034777164
0.2805002 -0.4601351 -0.034777164
0.30060545 -0.4601351 -0.034777164
0.32071072 -0.4601351 -0.034777164
0.34081596 -0.4601351 -0.034777164
0.36092123 -0.4601351 -0.034777164
-0.5029282 -0.45959359 -0.038294315
0.38023153 -0.45929828 -0.040212512
0.4404172 -0.35897806 -0.040239692
-0.56464857 -0.33986738 -0.031400919
0.42177173 -0.25933704 -0.031469584
-0.52342093 -0.15850049 -0.036223292
-0.50373125 -0.098250479 -0.034121633
0.38189298 -0.098331608 -0.02885282
0.36068872 -0.058029823 -0.036455154
-0.46363878 0.0023178235 -0.033397675
0.34167561 0.0024376959 -0.028208256
0.32057962 0.042455532 -0.035841465
-0.42260662 0.082514547 -0.038348675
0.30053297 0.08267317 -0.035404921
-0.40378195 0.12323401 -0.030209661
0.28127614 0.12341646 -0.027576923
-0.38262641 0.14284009 -0.037150383
0.26045093 0.14306596 -0.034217238
-0.3636663 0.18376538 -0.029017448
0.24106133 0.18400499 -0.026423454
-0.34260941 0.2032212 -0.035950541
0.22032899 0.20350945 -0.033069611
0.19975494 0.22298995 -0.038988471
-0.32369336 0.24452004 -0.026368499
-0.30222964 0.24322635 -0.037572742
0.17988501 0.24340111 -0.036059737
-0.28247073 0.26368117 -0.034558654
0.15997124 0.2638596 -0.033110738
-0.26266471 0.28418177 -0.03155148
0.14001241 0.2843644 -0.030154943
-0.24281304 0.30472946 -0.028537512
-0.22171257 0.30317956 -0.039723039
0.099422686 0.30339646 -0.038158298
0.12000839 0.30491585 -0.027192593
-0.20187597 0.32368487 -0.036727786
0.079434112 0.32390618 -0.035213828
-0.12146778 0.34361777 -0.037749648
-0.00097349327 0.34369746 -0.037231922
-0.18243681 0.34522206 -0.027329922
-0.16205975 0.34468576 -0.030812383
-0.14173682 0.34415105 -0.034285545
0.01913934 0.34422675 -0.033793807
0.039305031 0.34475544 -0.03036046
0.059523795 0.34528536 -0.026918054
-0.10178487 0.36537796 -0.027371049
-0.081515782 0.36481714 -0.030839682
-0.061311044 0.36433291 -0.033834815
-0.041251596 0.36489025 -0.030387759
-0.02113915 0.36544892 -0.026931643
-0.52749157 -0.48329434 -0.015885234
0.40358886 -0.48282027 -0.018818021
0.44405445 -0.34122938 -0.018762708
-0.54678535 -0.23996711 -0.020488977
0.40299827 -0.15902281 -0.022653699
-0.50706238 -0.078273401 -0.016812563
0.38423786 -0.078304119 -0.012821078
-0.48528188 -0.037850372 -0.025131345
0.36289725 -0.037814736 -0.020516515
-0.46670511 0.022966959 -0.016078949
0.34377468 0.023087367 -0.012168407
-0.4450486 0.063081548 -0.024388671
0.32254368 0.063289113 -0.019895315
-0.42504811 0.10352241 -0.02324605
0.3022075 0.10366675 -0.020902753
-0.40611959 0.14454317 -0.015026212
0.28284848 0.1447002 -0.012987494
-0.38483739 0.16420719 -0.022033453
0.26190355 0.16440463 -0.019701838
-0.36577404 0.20543724 -0.013806224
0.24241026 0.20563594 -0.011821032
-0.34458947 0.22494805 -0.020819902
0.22155921 0.22519359 -0.018541455
0.2008259 0.24466926 -0.025076509
-0.32546288 0.26645955 -0.012001634
-0.30387437 0.26506436 -0.023328662
0.18085103 0.2652137 -0.022116303
-0.28400788 0.28565472 -0.02029562
0.16083188 0.28580666 -0.019135475
-0.26409677 0.30629459 -0.017241716
0.14076719 0.30644616 -0.016148329
-0.244138 0.32698071 -0.014194489
-0.22291672 0.32532665 -0.025502563
0.099959031 0.32551369 -0.024223566
0.12065681 0.32713279 -0.013154149
-0.2241329 0.34771448 -0.011140227
-0.20297317 0.34596941 -0.022474527
0.079863735 0.3461563 -0.021261334
-0.18340357 0.36764038 -0.013376117
-0.16291766 0.3670736 -0.016881824
-0.14248547 0.36650604 -0.020392179
-0.12210841 0.36594248 -0.023879409
-0.00097349327 0.36600918 -0.023466349
0.019245587 0.36657092 -0.019991875
0.039518088 0.36713171 -0.016521931
0.059844222 0.36769411 -0.013043046
-0.10232246 0.38790575 -0.013403773
-0.081944719 0.38731185 -0.016909599
-0.061629772 0.38678285 -0.02003324
-0.041464649 0.38737276 -0.016549706
-0.021245958 0.38796446 -0.013056874
-0.57049954 -0.52585471 -0.0042561293
0.4467527 -0.52610713 -0.002830267
-0.57043022 -0.32242048 -0.0045773983
0.42526492 -0.24070343 -0.0098608732
-0.52877247 -0.1392296 -0.0094852448
0.40634766 -0.13949408 -0.00089859962
-0.51043516 -0.058029912 0.00071322918
0.38660955 -0.058029823 0.0033944845
-0.48850185 -0.017402459 -0.0077027082
0.36513099 -0.017351553 -0.0043958426
-0.46980989 0.043891124 0.0014566183
0.34589964 0.043991692 0.0040692091
-0.4479996 0.084205694 -0.0069638491
0.32453188 0.084378786 -0.0037530661
-0.42751575 0.12477396 -0.0079813004
0.30390078 0.12489475 -0.0062385798
-0.40848669 0.16610247 0.00034856796
0.28443843 0.16622245 0.0017654896
-0.38707411 0.1858232 -0.0067406893
0.26337239 0.18598178 -0.0050243139
-0.36790445 0.22736087 0.0015690327
0.24377427 0.2275092 0.0029450655
-0.34659082 0.24692667 -0.0055270195
0.22280316 0.2471202 -0.0038509369
0.20193829 0.26662898 -0.010625839
-0.32728654 0.28867775 0.0028043985
-0.30553555 0.28714061 -0.0089422464
0.18182746 0.28726083 -0.0080231428
0.20307602 0.28885436 0.0041536093
-0.28556341 0.3078714 -0.0058618784
0.16170175 0.30798948 -0.0050106049
-0.26554316 0.32864904 -0.0027883053
0.14153008 0.32876548 -0.0019909143
-0.24547625 0.34947473 0.0002925396
0.10050061 0.34786662 -0.010153055
0.12131221 0.34958917 0.0010359287
-0.22536367 0.37035134 0.0033946037
-0.20408136 0.36849672 -0.0080788136
0.080297969 0.3686454 -0.0071591139
0.10104802 0.37046045 0.0040693283
-0.12275462 0.3885009 -0.009888649
-0.00097349327 0.38855743 -0.0095546246
-0.18438163 0.39030117 0.00074112415
-0.16378473 0.3897011 -0.002802372
-0.14324214 0.38910007 -0.0063501596
0.019352963 0.38915214 -0.0060434341
0.03973341 0.38974622 -0.0025365353
0.060168061 0.39034161 0.00097966194
-0.10286529 0.4106724 0.00069904327
-0.082377821 0.41004497 -0.0028443336
-0.061951891 0.40947118 -0.0060851574
-0.041679963 0.41009456 -0.0025644302
-0.021353902 0.41071975 0.00096559525
-0.55311978 -0.5283767 0.0099875927
0.428177 -0.52805173 0.0081528425
-0.51127863 -0.48668623 0.0050959587
-0.49170235 -0.48741755 0.0096204281
-0.4712553 -0.48741755 0.0096204281
-0.45080826 -0.48741755 0.0096204281
-0.43036124 -0.48741755 0.0096204281
-0.40991423 -0.48741755 0.0096204281
-0.38946715 -0.48741755 0.0096204281
-0.36902013 -0.48741755 0.0096204281
-0.34857309 -0.48741755 0.0096204281
-0.32812607 -0.48741755 0.0096204281
-0.30767903 -0.48741755 0.0096204281
-0.28723201 -0.48741755 0.0096204281
-0.26678497 -0.48741755 0.0096204281
-0.24633792 -0.48741755 0.0096204281
-0.22589087 -0.48741755 0.0096204281
-0.20544386 -0.48741755 0.0096204281
-0.1849968 -0.48741755 0.0096204281
-0.16454978 -0.48741755 0.0096204281
-0.14410275 -0.48741755 0.0096204281
-0.12365571 -0.48741755 0.0096204281
-0.10320868 -0.48741755 0.0096204281
-0.082761638 -0.48741755 0.0096204281
-0.0623146 -0.48741755 0.0096204281
-0.041867565 -0.48741755 0.0096204281
-0.021420529 -0.48741755 0.0096204281
-0.00097349327 -0.48741755 0.0096204281
0.019473543 -0.48741755 0.0096204281
0.03992058 -0.48741755 0.0096204281
0.060367614 -0.48741755 0.0096204281
0.080814652 -0.48741755 0.0096204281
0.10126169 -0.48741755 0.0096204281
0.12170872 -0.48741755 0.0096204281
0.14215577 -0.48741755 0.0096204281
0.1626028 -0.48741755 0.0096204281
0.18304981 -0.48741755 0.0096204281
0.20349687 -0.48741755 0.0096204281
0.22394389 -0.48741755 0.0096204281
0.24439093 -0.48741755 0.0096204281
0.26483798 -0.48741755 0.0096204281
0.28528503 -0.48741755 0.0096204281
0.30573204 -0.48741755 0.0096204281
0.32617909 -0.48741755 0.0096204281
0.3466261 -0.48741755 0.0096204281
0.36707315 -0.48741755 0.0096204281
0.38674113 -0.4865565 0.004294157
-0.5524103 -0.22141859 0.0065742731
0.42881635 -0.22175932 0.01210773
-0.53423482 -0.11955991 0.017806292
-0.51385605 -0.037514582 0.018488407
-0.49176237 0.0033187531 0.0099451542
0.36739427 0.0033647306 0.011938095
-0.45099244 0.10561339 0.010708213
0.32654467 0.10572936 0.012588739
-0.43001458 0.14627543 0.0074762106
0.30561307 0.14636111 0.0085903406
-0.41087946 0.18791375 0.015889883
0.2860463 0.18798718 0.016684532
-0.38933507 0.20769131 0.0087171793
0.26485777 0.20780143 0.0098180771
-0.3700619 0.24954388 0.017138958
0.24515368 0.24962908 0.01787734
-0.34861746 0.2691645 0.0099593401
0.22406113 0.26929325 0.011004806
-0.32920608 0.31123185 0.018388987
-0.3072167 0.30946198 0.0056167841
0.18281439 0.30954581 0.0062222481
0.20422658 0.31133035 0.019099712
-0.28713465 0.33033171 0.0087171793
0.16258106 0.33041221 0.0092676878
-0.26700556 0.35125014 0.011824846
0.14230122 0.35132653 0.012319922
-0.2468306 0.37222016 0.014953852
0.12197471 0.37228885 0.015379429
-0.22660691 0.39323699 0.018076301
-0.20520285 0.39127463 0.0064898729
0.080737337 0.39137971 0.0071095228
0.10160137 0.39329958 0.01844573
-0.18537027 0.4132064 0.015010595
-0.16466027 0.4125697 0.011414766
-0.14400694 0.41193721 0.0078427792
-0.12340839 0.41130403 0.0042661428
-0.00097349327 0.41134641 0.0045051575
0.019461377 0.41197214 0.0080400705
0.039951034 0.41260222 0.011598587
0.060495373 0.4132314 0.015152454
-0.082816012 0.43302527 0.011386514
-0.062277447 0.43240181 0.0080118179
-0.041897584 0.43305925 0.011570215
-0.12406924 0.43435326 0.018573761
-0.10341451 0.43368697 0.014968157
-0.021463005 0.43371838 0.015138268
-0.00097349327 0.43437687 0.018701553
-0.53605509 -0.51079106 0.026900768
0.41055724 -0.51071364 0.026443124
0.40975311 -0.11963883 0.021220207
0.38901275 -0.03750433 0.019825101
-0.49506676 0.024318986 0.027830839
0.36968371 0.024338387 0.028460741
-0.4729588 0.065096803 0.019241929
0.34805095 0.065155298 0.02050817
-0.45402324 0.12730879 0.028603911
0.3285825 0.12734544 0.029133916
-0.43254057 0.16802907 0.023101568
0.3073447 0.16807017 0.023586512
-0.41330266 0.20998403 0.031629086
0.2876724 0.20999843 0.031772733
-0.39162469 0.22981843 0.024371505
0.2663599 0.22986773 0.024828434
-0.37224287 0.27198729 0.032878518
0.24654871 0.27199981 0.032979131
-0.35066611 0.29166269 0.025614262
0.2253321 0.29171506 0.026014209
-0.30891487 0.33202919 0.020323277
0.18381304 0.33207503 0.020636439
-0.28872329 0.35304129 0.023458123
0.16346991 0.35307854 0.023700714
-0.26848564 0.37410522 0.026614785
0.14308153 0.3741352 0.026800632
-0.24819875 0.39521638 0.029764533
0.12264443 0.39523593 0.029879212
-0.2278652 0.41638005 0.032935977
-0.20633569 0.41430318 0.021205902
0.081181042 0.41435879 0.021519303
0.10216076 0.41638771 0.032979131
-0.1863696 0.43635985 0.029434919
-0.16554618 0.43568829 0.02579987
-0.14478001 0.4350211 0.022189021
0.019571064 0.43503961 0.022288799
0.040170997 0.43570408 0.025885582
0.060826201 0.43636772 0.029477835
-0.12473726 0.45765245 0.033036709
-0.10396966 0.45695102 0.029391885
-0.083258949 0.45625418 0.02577126
-0.062606506 0.45557857 0.022260308
-0.042117544 0.45627069 0.025857091
-0.021573169 0.45696211 0.029449224
-0.00097349327 0.45765805 0.033065438
-0.56040937 -0.55530614 0.045059681
0.43419957 -0.55537045 0.045407653
-0.55814946 -0.20248279 0.034186482
0.43242744 -0.20249677 0.034445405
-0.53981143 -0.099478945 0.045668602
0.41321597 -0.099448726 0.043711901
-0.51732039 -0.016722139 0.036489487
0.39144382 -0.016722806 0.036446452
-0.4984186 0.045604549 0.045973301
0.37200385 0.045575038 0.045204639
-0.47614783 0.086588435 0.03725338
0.35022911 0.086582966 0.03715241
-0.45709756 0.14929923 0.046756983
0.33064586 0.14923236 0.045886278
-0.4350988 0.19004169 0.038926363
0.30909601 0.19002584 0.038753271
-0.41575247 0.23231548 0.047541261
0.28931701 0.23226073 0.047032833
-0.39393935 0.25220639 0.040197134
0.2678791 0.25218481 0.040009379
-0.37445378 0.29470158 0.048834443
0.24795966 0.29462546 0.048253059
-0.35274097 0.31442979 0.041468978
0.22661872 0.31439379 0.041208625
-0.33114651 0.33405057 0.034143567
0.20539017 0.33406115 0.03421545
-0.31063196 0.35484809 0.035193682
0.18482159 0.35484809 0.035193682
-0.29033127 0.37600666 0.038378239
0.16436847 0.37599286 0.038291454
-0.26998085 0.39721346 0.041555643
0.14386961 0.39719132 0.041425586
-0.24958353 0.41847265 0.04475522
0.12332148 0.41843426 0.044537783
-0.22913639 0.43977997 0.047947884
-0.20748231 0.43759125 0.036100626
0.081629582 0.4375886 0.036086321
0.10272629 0.43972915 0.047671795
-0.18737981 0.45976555 0.044016242
-0.16644171 0.4590584 0.040341496
-0.14556147 0.4583559 0.036691427
0.019681932 0.4583559 0.036691427
0.040393338 0.45905566 0.040327072
0.061160613 0.45975435 0.043958306
-0.12541255 0.48120606 0.047657251
-0.10453089 0.48046869 0.04397285
-0.083706707 0.47973597 0.040312648
-0.06293878 0.47900254 0.036648035
-0.042339657 0.47973031 0.04028368
-0.021684637 0.48045987 0.043929219
-0.00097349327 0.48119169 0.047584772
-0.54246628 -0.53704256 0.05893302
0.41576022 -0.53727353 0.060237408
-0.51971573 -0.51452297 0.048936129
-0.50018859 -0.51564366 0.055553675
-0.47938797 -0.51564366 0.055553675
-0.45858735 -0.51564366 0.055553675
-0.4377867 -0.51564366 0.055553675
-0.41698608 -0.51564366 0.055553675
-0.39618543 -0.51564366 0.055553675
-0.37538484 -0.51564366 0.055553675
-0.35458419 -0.51564366 0.055553675
-0.33378357 -0.51564366 0.055553675
-0.31298292 -0.51564366 0.055553675
-0.2921823 -0.51564366 0.055553675
-0.27138168 -0.51564366 0.055553675
-0.25058103 -0.51564366 0.055553675
-0.22978042 -0.51564366 0.055553675
-0.20897979 -0.51564366 0.055553675
-0.18817917 -0.51564366 0.055553675
-0.16737853 -0.51564366 0.055553675
-0.14657789 -0.51564366 0.055553675
-0.12577726 -0.51564366 0.055553675
-0.10497664 -0.51564366 0.055553675
-0.084176011 -0.51564366 0.055553675
-0.063375376 -0.51564366 0.055553675
-0.042574752 -0.51564366 0.055553675
-0.021774122 -0.51564366 0.055553675
-0.00097349327 -0.51564366 0.055553675
0.019827137 -0.51564366 0.055553675
0.040627766 -0.51564366 0.055553675
0.06142839 -0.51564366 0.055553675
0.082229026 -0.51564366 0.055553675
0.10302965 -0.51564366 0.055553675
0.12383027 -0.51564366 0.055553675
0.14463091 -0.51564366 0.055553675
0.16543154 -0.51564366 0.055553675
0.18623218 -0.51564366 0.055553675
0.2070328 -0.51564366 0.055553675
0.22783343 -0.51564366 0.055553675
0.24863404 -0.51564366 0.055553675
0.26943469 -0.51564366 0.055553675
0.29023531 -0.51564366 0.055553675
0.31103593 -0.51564366 0.055553675
0.33183658 -0.51564366 0.055553675
0.3526372 -0.51564366 0.055553675
0.37343785 -0.51564366 0.055553675
0.39332163 -0.5145821 0.049285293
-0.56401235 -0.18314958 0.0623945
0.43610206 -0.18290856 0.057176352
-0.52130437 0.004409954 0.057191014
0.39390537 0.0043194145 0.053276062
0.37435111 0.06707833 0.062144876
-0.47938278 0.10837347 0.055524468
0.35243464 0.10827986 0.054005742
0.33273524 0.17139497 0.062849879
-0.43790954 0.21245435 0.056313753
0.31093475 0.21229061 0.054677129
-0.41823381 0.25491536 0.063658118
0.29098046 0.254778 0.062467933
-0.39628378 0.27486309 0.056225896
0.26941568 0.27475685 0.055363774
0.24938542 0.31750852 0.063687563
-0.35483867 0.33746645 0.057498336
0.22792007 0.33733186 0.056576848
-0.33311185 0.3571431 0.05009985
0.20656705 0.35705134 0.049503565
-0.31237 0.37792537 0.050245404
0.18584122 0.37787107 0.049910784
-0.29195571 0.39922795 0.05345118
0.16527691 0.39915878 0.053042769
-0.2714943 0.42058399 0.056679249
0.14466634 0.42050096 0.056211233
-0.25098258 0.44198835 0.059900165
0.12400667 0.44189078 0.059372663
-0.20864065 0.46113795 0.051148057
0.082083054 0.46107364 0.050813317
-0.23042312 0.46344656 0.063143492
0.10329804 0.46332788 0.062526584
-0.1884011 0.4834277 0.058757305
-0.16734704 0.48268414 0.055042267
-0.14635071 0.48194259 0.051337481
0.019794008 0.48192525 0.0512501
0.040618092 0.48266083 0.054925442
0.061498657 0.4833954 0.058596253
-0.12609527 0.50501817 0.062438488
-0.10509825 0.50424385 0.058713317
-0.08415892 0.50347179 0.054998398
-0.063277341 0.50270474 0.051308513
-0.042564403 0.50344765 0.054881573
-0.021797318 0.50421345 0.058567047
-0.00097349327 0.50498158 0.062262177
-0.54547626 -0.56064785 0.073971868
0.41840905 -0.56128889 0.077442169
0.45988756 -0.26751217 0.074727535
0.48114032 -0.26764452 0.076447606
-0.5455029 -0.078973293 0.074105263
0.41673997 -0.078915514 0.066601157
0.3972424 0.025805183 0.076091528
-0.50181633 0.06718085 0.064363718
-0.48265949 0.13045594 0.074031234
0.35466802 0.13025093 0.071071863
-0.46021143 0.1715892 0.065143466
-0.4409031 0.23525658 0.074831128
0.31290635 0.23492479 0.071751952
0.29266313 0.27755487 0.078080773
-0.39865419 0.29778966 0.072432399
0.2709699 0.29758847 0.070894599
-0.37668711 0.31768382 0.064952016
-0.35696352 0.36078179 0.073734879
0.22923636 0.36053362 0.072121739
-0.33510071 0.38051221 0.066247582
0.20775744 0.38030511 0.064966798
-0.31412596 0.4012605 0.065452456
0.18687211 0.40114829 0.064790249
-0.29360011 0.42271385 0.068709254
0.16619539 0.42258081 0.067957044
-0.27302343 0.44421619 0.071959019
0.14547192 0.44406873 0.071160674
-0.25239879 0.46577293 0.075231433
0.12469877 0.4656046 0.074357033
-0.2317232 0.4873786 0.078496814
-0.20981321 0.48495346 0.066380024
0.082541533 0.48481774 0.065702677
0.10387672 0.4871912 0.07756114
-0.18943264 0.50734764 0.073645949
-0.16826235 0.50656992 0.069904804
-0.14714938 0.50579143 0.066159248
0.019907303 0.50575173 0.065967798
0.040845305 0.50652403 0.069683313
0.061840408 0.50729531 0.073394418
-0.12678483 0.52908975 0.077367783
-0.10567188 0.52828109 0.073616505
-0.084616549 0.52747154 0.069860578
-0.063619621 0.52666748 0.066129684
-0.042791612 0.52742386 0.069639087
-0.021911232 0.52822691 0.073364735
-0.00097349327 0.52903211 0.077100635
-0.52625543 -0.54128927 0.082917571
0.39851132 -0.54161674 0.08476758
0.50254357 -0.26782864 0.078838706
0.52399868 -0.26801878 0.081308484
0.545681 -0.26828161 0.084722757
0.56758565 -0.26860729 0.088954091
0.46176496 -0.24733192 0.085813046
0.48247603 -0.2472057 0.083991528
0.50330538 -0.24713442 0.082962275
0.52423096 -0.24710354 0.08251524
0.54526895 -0.24711373 0.082664013
0.56638056 -0.24714783 0.083156228
0.58822733 -0.24741584 0.087023735
-0.56999683 -0.16340452 0.091187119
0.43984196 -0.16298586 0.08031106
0.42032209 -0.058029778 0.08986783
-0.52682704 0.026106663 0.08588779
-0.50525796 0.089053087 0.082992077
0.37672818 0.088854082 0.07929945
-0.48598403 0.15284428 0.092808127
0.35692787 0.15250036 0.088340282
-0.46336809 0.19418541 0.083782554
0.33485109 0.19383857 0.080028296
0.31490135 0.25784495 0.089029074
-0.42074504 0.27778742 0.079968691
-0.40105534 0.32099506 0.088849425
0.27254063 0.32068214 0.086590171
-0.37894937 0.34094471 0.081278682
0.25082898 0.34065741 0.07931447
-0.35911202 0.38437656 0.09015274
0.23056792 0.3840037 0.087846518
-0.33711171 0.40416014 0.082574725
0.20896155 0.40382719 0.080608606
-0.31590354 0.42486292 0.080846786
0.18791442 0.42468381 0.079835057
-0.29526156 0.446464 0.084125757
0.16712408 0.44626296 0.0830369
-0.27457142 0.46812004 0.087427497
0.14628643 0.46789843 0.086276293
-0.25382978 0.48982549 0.090722203
0.12539859 0.48958254 0.089508414
-0.21099794 0.50903618 0.081770062
0.0830051 0.50882578 0.080757499
0.10446127 0.51131785 0.092748046
-0.19047661 0.53153545 0.08871448
-0.16918775 0.53072011 0.084931731
-0.14795689 0.52990383 0.081144571
0.020021843 0.52983952 0.080846906
0.041075014 0.5306493 0.08460331
0.062185921 0.53145808 0.088355303
-0.085079245 0.55173689 0.084887028
-0.063965693 0.55089486 0.081115007
-0.04302131 0.55166352 0.084558606
-0.022026399 0.55250436 0.088325381
-0.12748273 0.55343151 0.092477798
-0.10625184 0.55258471 0.088684678
-0.00097349327 0.55334765 0.092102528
-0.55010426 -0.58604008 0.097094655
0.42185497 -0.58656543 0.099823952
0.44253567 -0.58601695 0.096974134
-0.50827008 -0.5441891 0.099295855
-0.48781222 -0.54486859 0.10313368
-0.4666453 -0.54486859 0.10313368
-0.44547841 -0.54486859 0.10313368
-0.42431152 -0.54486859 0.10313368
-0.40314457 -0.54486859 0.10313368
-0.38197768 -0.54486859 0.10313368
-0.36081082 -0.54486859 0.10313368
-0.3396439 -0.54486859 0.10313368
-0.318477 -0.54486859 0.10313368
-0.29731008 -0.54486859 0.10313368
-0.27614319 -0.54486859 0.10313368
-0.2549763 -0.54486859 0.10313368
-0.2338094 -0.54486859 0.10313368
-0.21264251 -0.54486859 0.10313368
-0.19147559 -0.54486859 0.10313368
-0.17030869 -0.54486859 0.10313368
-0.14914179 -0.54486859 0.10313368
-0.1279749 -0.54486859 0.10313368
-0.106808 -0.54486859 0.10313368
-0.085641094 -0.54486859 0.10313368
-0.064474195 -0.54486859 0.10313368
-0.043307293 -0.54486859 0.10313368
-0.022140393 -0.54486859 0.10313368
-0.00097349327 -0.54486859 0.10313368
0.020193407 -0.54486859 0.10313368
0.041360307 -0.54486859 0.10313368
0.06252721 -0.54486859 0.10313368
0.083694108 -0.54486859 0.10313368
0.10486101 -0.54486859 0.10313368
0.12602791 -0.54486859 0.10313368
0.1471948 -0.54486859 0.10313368
0.16836171 -0.54486859 0.10313368
0.1895286 -0.54486859 0.10313368
0.21069552 -0.54486859 0.10313368
0.23186241 -0.54486859 0.10313368
0.25302932 -0.54486859 0.10313368
0.27419621 -0.54486859 0.10313368
0.2953631 -0.54486859 0.10313368
0.31653002 -0.54486859 0.10313368
0.33769691 -0.54486859 0.10313368
0.35886383 -0.54486859 0.10313368
0.3796809 -0.54442149 0.10060918
0.4637011 -0.2903671 0.097245216
0.4859724 -0.29091695 0.1037389
0.61083651 -0.24790192 0.094040155
0.5903818 -0.22698852 0.097019434
0.61104125 -0.22686148 0.094957232
0.63261098 -0.22698575 0.096974134
0.65489721 -0.22728682 0.10186327
0.65638685 -0.20646605 0.10810542
0.44364396 -0.14271894 0.10382974
-0.551319 -0.058029823 0.10316396
0.40066943 0.0476657 0.099522233
-0.50875002 0.11122898 0.10189366
0.37913758 0.11090841 0.096688151
