ply
format ascii 1.0
comment PCL generated
element vertex 1357
property float x
property float y
property float z
element camera 0
property float view_px
property float view_py
property float view_pz
property float x_axisx
property float x_axisy
property float x_axisz
property float y_axisx
property float y_axisy
property float y_axisz
property float z_axisx
property float z_axisy
property float z_axisz
property float focal
property float scalex
property float scaley
property float centerx
property float centery
property int viewportx
property int viewporty
property float k1
property float k2
end_header
-0.38155469 0.51187253 -0.015348911
0.5005812 0.53554368 -0.0092630386
-0.40476775 0.55784225 -0.011114001
0.49956825 0.55702651 -0.015528917
-0.40364662 0.57899344 -0.01877892
0.49855962 0.57841814 -0.021768093
-0.42804554 0.60394168 -0.0068819523
0.52302027 0.60322708 -0.010452271
-0.42686209 0.62500286 -0.014568925
0.52195996 0.62455708 -0.016712904
-0.43022951 -0.39501199 0.0073032379
0.025130859 -0.37260702 0.010077357
0.047926463 -0.37271285 0.010886312
0.0023502894 -0.3496767 0.0089335442
0.025130859 -0.34920979 0.0051423311
0.047888685 -0.34931281 0.0059790611
0.070683077 -0.34960544 0.0083544254
0.093514137 -0.3498984 0.010733485
-0.020412916 -0.32676598 0.0078059435
0.0023882501 -0.32632682 0.0040025711
0.025130859 -0.32589048 0.00022387505
0.047851149 -0.32599196 0.0011031628
0.070607662 -0.32626364 0.0034555197
0.093400821 -0.32653749 0.0058269501
0.11623061 -0.32681167 0.0082019567
0.13909711 -0.32708639 0.010581017
-0.066038854 -0.30428159 0.010474086
-0.043158434 -0.30387092 0.0066637993
-0.020337058 -0.30346298 0.0028784275
0.0024259668 -0.30305612 -0.00089716911
0.025130859 -0.3026486 -0.0046783686
0.047813624 -0.30274633 -0.0037715435
0.070532717 -0.30300069 -0.0014119148
0.093287885 -0.30325371 0.00093638897
0.11607978 -0.30350885 0.0033037663
0.13890827 -0.30376434 0.0056747198
0.16177344 -0.30402038 0.0080496073
-0.088787243 -0.28137478 0.0093300343
-0.065886863 -0.28099525 0.0055378675
-0.043045081 -0.2806167 0.001755476
-0.020261446 -0.28023756 -0.0020325184
0.0024636742 -0.27986103 -0.005795598
0.093175665 -0.28004852 -0.0039227009
0.11592992 -0.28028455 -0.0015633106
0.13872007 -0.28051957 0.00078487396
0.16154721 -0.28075644 0.0031517744
0.18468115 -0.28149536 0.01053524
-0.11158425 -0.25861791 0.009619832
-0.088597395 -0.25813547 0.0043976307
-0.065735362 -0.25778624 0.00061786175
-0.042931743 -0.25743806 -0.0031516552
0.13853304 -0.25735292 -0.0040739775
0.16132244 -0.25757086 -0.0017148256
0.18439546 -0.25821269 0.0052337646
-0.11133463 -0.23537439 0.0042152405
-0.088408761 -0.23497471 -0.00050330162
-0.065584376 -0.23465459 -0.0042853355
0.18411082 -0.23501322 -4.8875809e-05
0.20737728 -0.23577642 0.0089640617
-0.13436189 -0.21303444 0.0094672441
-0.1110852 -0.21221441 -0.0011848211
-0.088220164 -0.21188967 -0.005403161
0.18382716 -0.21189666 -0.005312562
0.20705116 -0.21258795 0.0036683083
-0.13407069 -0.18987523 0.0040632486
0.20672616 -0.18948241 -0.0016087294
0.2300504 -0.19010723 0.007409811
-0.15713717 -0.16745567 0.0093148947
-0.13377973 -0.16679971 -0.0013362169
0.22968391 -0.16701262 0.0021195412
0.25310683 -0.16756842 0.011145711
-0.15680441 -0.14438103 0.003911376
0.22931868 -0.14400047 -0.0031517744
0.25269857 -0.14448501 0.0058420897
-0.17991011 -0.12188166 0.009162426
-0.15647192 -0.12138972 -0.0014877319
0.25229177 -0.12148421 0.00055742264
0.27577135 -0.12190069 0.0095741749
-0.17953579 -0.098891355 0.0037593842
0.2518864 -0.098565385 -0.0047085285
0.27532274 -0.098911203 0.004275918
-0.20268071 -0.076312222 0.0090098381
-0.17916285 -0.07598488 -0.0016237497
0.2748757 -0.076003909 -0.0010032654
0.29841325 -0.076281764 0.0080190897
-0.20226485 -0.05340641 0.0036075115
0.29792434 -0.053386003 0.0027266741
-0.22544895 -0.030747537 0.0088572502
-0.20185049 -0.030584019 -0.0017751455
0.29743716 -0.030571926 -0.0025470257
0.321042 -0.030712437 0.006572485
-0.22499155 -0.0079260627 0.0034556389
0.3205007 -0.0079084085 0.0011638403
-0.24821486 0.014812352 0.0087049007
0.31997353 0.014812301 -0.0041041374
-0.22453579 0.014812455 -0.0019266605
-0.24771591 0.03754954 0.0033037663
0.34367484 0.037565511 0.0053706169
-0.2711432 0.060392953 0.010199428
-0.2472174 0.06020372 -0.0020929575
0.34299445 0.060221374 -0.00094246864
-0.27043793 0.083020605 0.0031517744
0.36702257 0.083190657 0.010520101
-0.26989791 0.1055905 -0.0022443533
0.36629108 0.10578851 0.0041848421
0.36556092 0.12828901 -0.0021384954
-0.293605 0.15141335 0.0071511269
0.38966882 0.15151407 0.0093300343
-0.29280293 0.17377922 -0.0002913475
0.38888729 0.1739558 0.0029848814
0.38810909 0.19630142 -0.0033332109
0.41229486 0.21978147 0.008125782
-0.31601879 0.24224558 0.0040935278
0.41146514 0.24206787 0.0017857552
-0.3621408 0.2653999 0.0089488029
-0.33774126 0.26428691 -0.0041949749
-0.31516123 0.26435995 -0.0033333302
0.41064095 0.26426005 -0.0045120716
0.43490249 0.28799349 0.0069227219
0.43402678 0.31012604 0.00060284138
0.43315271 0.33216268 -0.005704999
0.45749396 0.35615158 0.0057356358
0.45656815 0.37812802 -0.00059425831
-0.36142987 0.40137312 0.0035161972
0.48104286 0.40233764 0.010886312
-0.3604168 0.42303935 -0.0042251348
0.48006496 0.42425299 0.0045343637
-0.38476315 0.44747829 0.0078059435
0.4790912 0.44607458 -0.0017905235
-0.38368732 0.46905479 4.2080879e-05
0.50364363 0.47053885 0.0096806288
0.5026176 0.49229917 0.0033340454
-0.40702537 0.51520395 0.0043215752
0.50159842 0.51396877 -0.0029704571
-0.40589249 0.53657746 -0.0034241676
0.52632147 0.53878433 0.0090402365
-0.43043125 0.5614869 0.0086134672
0.52515453 0.56029278 0.0021499395
-0.42923528 0.58276993 0.00084543228
0.5240851 0.58180583 -0.0041645765
-0.45264578 0.62909663 0.0051271915
0.54866862 0.62940019 0.006587863
0.025130859 -0.44326749 0.024966121
0.048040427 -0.44337893 0.025690794
0.070987053 -0.44374964 0.028097987
-0.020718677 -0.42075825 0.027665615
0.0022356454 -0.42019662 0.023826241
0.025130859 -0.41963437 0.019981623
0.048002273 -0.41974449 0.02073431
0.070910618 -0.42009529 0.023133516
0.093855999 -0.42044684 0.025536418
0.11683802 -0.42079663 0.027928114
-0.04361707 -0.39767522 0.026523471
-0.020641794 -0.39714152 0.022672057
0.0022739861 -0.3966113 0.018845439
0.025130859 -0.39608037 0.015013695
0.047964364 -0.39619067 0.015809894
0.070834443 -0.39651993 0.018185735
0.093741544 -0.39685178 0.020580649
0.11668564 -0.39718416 0.022979498
0.13966683 -0.39751709 0.0253824
0.16270086 -0.3978976 0.028128743
-0.31774879 -0.37378454 0.019075751
-0.066497438 -0.37460792 0.025367141
-0.043501832 -0.37410617 0.021533608
-0.020565169 -0.37360388 0.017694831
0.002312202 -0.37310478 0.013881087
0.070758753 -0.3730247 0.013269424
0.093627483 -0.37333515 0.015641332
0.1165333 -0.37364799 0.018032193
0.13947609 -0.37396142 0.020427108
0.16245593 -0.37427527 0.022825718
-0.31774879 -0.35092592 0.019075751
-0.089360617 -0.35156038 0.024226785
-0.066343904 -0.35108668 0.020380974
-0.043386981 -0.35061607 0.016560555
-0.020489035 -0.35014674 0.012749791
0.11638194 -0.35019207 0.013116717
0.13928598 -0.35048401 0.015488148
0.16222744 -0.35077852 0.017879009
0.18554436 -0.35184705 0.026554465
-0.31775057 -0.328069 0.01909101
-0.11233936 -0.32886314 0.025968313
-0.089168862 -0.32808676 0.019244552
-0.066190891 -0.32764414 0.015411615
0.18525557 -0.32831207 0.021195531
-0.04327251 -0.3272045 0.011603951
0.16200042 -0.32736155 0.012963772
-0.31775233 -0.3052119 0.019106388
-0.11208697 -0.30536255 0.020503879
-0.088977724 -0.30469167 0.014278889
0.18496785 -0.30486163 0.01585567
0.20836274 -0.30584344 0.024966121
-0.34147918 -0.2830582 0.026153326
-0.31775233 -0.28235304 0.019106269
-0.13524276 -0.28302434 0.025814176
-0.11183479 -0.28194657 0.015044212
0.2080331 -0.28240377 0.019613028
-0.13494833 -0.25960901 0.020350218
0.23115684 -0.25988895 0.023379803
0.20770459 -0.25904819 0.014279008
-0.15814379 -0.23719028 0.025659919
-0.13465416 -0.23627833 0.014891148
0.23078635 -0.23654425 0.018032193
0.25434053 -0.23731828 0.027171612
-0.15780731 -0.21386039 0.020196676
0.23041824 -0.21328472 0.012719274
0.25392783 -0.21398461 0.021810293
-0.18104243 -0.19136086 0.025505662
0.25351661 -0.19073477 0.016468525
0.27712697 -0.19136618 0.02558279
-0.15747115 -0.19061495 0.014738202
-0.18066394 -0.16811633 0.020042896
0.27667347 -0.16812776 0.020227313
-0.20393871 -0.14553627 0.025351524
-0.18028685 -0.14495695 0.014600277
0.2762216 -0.14497261 0.014891028
0.29989049 -0.14546408 0.024011135
-0.20351823 -0.12237706 0.019889355
0.29939631 -0.12232038 0.018661261
-0.22683261 -0.099716447 0.025197506
-0.20309928 -0.099302724 0.014447212
0.29890391 -0.099259771 0.013330698
0.32295832 -0.099736653 0.025721669
-0.22637014 -0.076642528 0.019735932
0.32231626 -0.076629311 0.019305944
-0.24972413 -0.053901412 0.025043368
-0.22590806 -0.053652786 0.014279008
0.32167855 -0.053621665 0.012933135
-0.24921967 -0.03091269 0.019582391
0.34573856 -0.030988708 0.024519444
-0.24871562 -0.0080081532 0.014126062
0.34504768 -0.0080388682 0.018108964
-0.2726472 0.014812352 0.025228262
0.34435979 0.014812352 0.011726141
-0.27189329 0.037660357 0.017694831
0.36849862 0.037703622 0.023302913
0.36775902 0.060496066 0.016897678
-0.29521966 0.10634106 0.02213347
0.39124009 0.10633963 0.022087336
-0.29440948 0.12893391 0.014615536
0.39045182 0.12897518 0.015687346
0.41480345 0.15234385 0.027295113
-0.3186177 0.17522839 0.026600718
0.41396499 0.17492059 0.02088809
-0.31774703 0.19768055 0.019060373
0.41312811 0.19739932 0.014493108
-0.31688073 0.22001919 0.011558056
0.43755859 0.22102614 0.026091695
0.43666941 0.24344486 0.01967442
-0.38675907 0.26652291 0.02221036
0.43578404 0.26576707 0.013284683
0.46029311 0.28965163 0.024873972
0.45935532 0.31191325 0.018461823
0.4584215 0.33407909 0.012077332
0.48300907 0.35822099 0.023656845
0.48202506 0.38032779 0.017265558
-0.38584459 0.42578778 0.015610814
0.50570893 0.42673644 0.022456646
-0.41045782 0.45040092 0.027789116
0.50467402 0.44868478 0.016054869
-0.40930915 0.47211763 0.019935489
-0.40816426 0.49371752 0.012108088
0.52934247 0.49610516 0.026878357
-0.43283978 0.51858014 0.024257541
0.52782869 0.51751012 0.017940402
-0.43163353 0.54009145 0.01642251
-0.45516878 0.58659762 0.020734429
0.55182445 0.58730531 0.02441144
-0.45390522 0.60790473 0.012917876
0.55024177 0.6084159 0.015472889
0.025130859 -0.53859532 0.045057774
0.0020810999 -0.5153321 0.043902516
0.025130859 -0.51464218 0.040005565
0.048155535 -0.51475519 0.04064405
0.071217641 -0.51518565 0.043075562
0.09431693 -0.51561415 0.045495272
-0.020950647 -0.49208421 0.042732239
0.0021199603 -0.49142742 0.038854122
0.025130859 -0.49077231 0.034986019
0.048116997 -0.49088269 0.035637856
0.071140446 -0.49129301 0.038061023
0.094201297 -0.49170417 0.040488243
0.11729915 -0.49211323 0.0429039
0.14043495 -0.49252564 0.045338869
-0.067116261 -0.46948507 0.04546392
-0.043964751 -0.4688569 0.04157865
-0.020873224 -0.46823049 0.037703395
0.0021586902 -0.46760324 0.033822894
0.025130859 -0.46697986 0.029967666
0.048078708 -0.46709242 0.030663729
0.071063504 -0.46748039 0.033063412
0.094085693 -0.46787146 0.035482645
0.11714525 -0.46826318 0.037905693
0.14024225 -0.46865547 0.040332675
0.1634496 -0.46930328 0.044339538
-0.090133563 -0.44624531 0.044308186
-0.066960655 -0.44564512 0.040410399
-0.043848351 -0.44504902 0.036538243
-0.02079582 -0.44445437 0.032676101
0.0021972917 -0.44385892 0.028808355
0.093970478 -0.44411835 0.030493498
0.11699137 -0.44449013 0.03290844
0.14004961 -0.44486263 0.035327435
0.16319913 -0.44541514 0.038916349
-0.089939199 -0.42245391 0.039258599
-0.066806048 -0.42188805 0.035389423
-0.043732338 -0.42132121 0.031514645
0.13985759 -0.42114928 0.030339003
0.16294953 -0.42161345 0.033512831
0.18641612 -0.42296195 0.042732239
-0.11310285 -0.39988869 0.04249835
-0.089745492 -0.39874256 0.03422606
-0.066651486 -0.39820817 0.030369759
0.18612421 -0.39917043 0.037315011
-0.11284765 -0.37612686 0.036973238
-0.08955244 -0.37511086 0.02921021
0.18583333 -0.3754651 0.031917214
0.20935896 -0.3766723 0.041142344
-0.1361334 -0.35379171 0.042342544
-0.11259267 -0.3524504 0.031452894
0.2090257 -0.35297728 0.035730839
0.23265225 -0.35411462 0.044964075
-0.13583571 -0.33011603 0.036817908
0.20869362 -0.32936788 0.030339003
0.23227637 -0.33043012 0.039538741
-0.15916157 -0.30769935 0.042186618
-0.13553827 -0.30652595 0.031298041
0.23190184 -0.30683142 0.034132957
0.25558761 -0.30782714 0.043371916
-0.38974535 -0.28482038 0.043761849
-0.36594859 -0.28424838 0.038045526
-0.15882136 -0.28410995 0.036662579
0.23152867 -0.2833178 0.028746605
0.2551704 -0.28423902 0.037952065
-0.18218729 -0.26161176 0.042030692
-0.15848242 -0.26060754 0.031158924
0.25475472 -0.26073623 0.032552123
0.27849731 -0.26158732 0.04176569
-0.18180463 -0.23810881 0.036507249
0.27803886 -0.23809564 0.036352038
-0.20521067 -0.21552914 0.041874886
-0.18142335 -0.21469238 0.031004071
0.27758208 -0.21468873 0.030957699
0.30138382 -0.2153984 0.040176868
-0.20478551 -0.19211228 0.036351919
0.30088428 -0.19200271 0.034768701
-0.22823159 -0.16945122 0.04171896
-0.20436072 -0.16878086 0.03083396
0.30038649 -0.16869132 0.029380322
0.32490119 -0.16966173 0.045135975
-0.227764 -0.14612071 0.036196709
0.32425073 -0.14625214 0.038636327
-0.25143167 -0.12346894 0.043527842
-0.22729678 -0.12287537 0.030679345
0.32360315 -0.12294405 0.032165051
-0.25074008 -0.1001339 0.03604126
0.34782752 -0.1004364 0.043902516
-0.25023043 -0.07697472 0.030524373
0.34712762 -0.077186659 0.037408113
0.34643075 -0.054037578 0.030942202
-0.274165 -0.031233095 0.040394783
0.37073496 -0.031268299 0.042670012
-0.27340341 -0.0081517743 0.032784581
0.36998567 -0.0081778979 0.036181211
0.36924145 0.014812403 0.029735804
-0.29767513 0.037869897 0.044917226
0.39362547 0.037843317 0.041453958
-0.29685247 0.06080994 0.037283897
0.39282688 0.06077433 0.034970522
-0.29603401 0.083633408 0.02968955
0.39203179 0.083606318 0.028514981
0.41649535 0.1068982 0.040223479
-0.32037058 0.12997957 0.041781306
0.41564757 0.12967029 0.033745408
-0.31949103 0.1526612 0.034163833
0.44024727 0.15318456 0.045495272
0.43934643 0.17589614 0.038994193
0.43844953 0.19850954 0.032521367
-0.34302053 0.22189762 0.03866756
0.46312881 0.22228512 0.044261575
-0.34208426 0.2443219 0.03106606
0.462181 0.24483883 0.037781239
-0.41159669 0.26765475 0.035575747
0.46123505 0.26729384 0.031313539
0.48599395 0.29133013 0.043044329
0.48499468 0.31372392 0.03655386
0.48399973 0.33602059 0.030091524
0.50828433 0.38292927 0.038387656
0.50682569 0.40475583 0.029364824
-0.41161484 0.42857149 0.035699964
0.53240269 0.45291081 0.044948459
-0.43527636 0.47521964 0.040083528
0.53086799 0.4745734 0.035886168
-0.43405485 0.49695733 0.032149434
-0.45900747 0.5220049 0.044479966
-0.45772111 0.54365027 0.036522746
0.55501574 0.54469711 0.042436004
-0.45644158 0.56518084 0.028607607
0.55341661 0.5660671 0.03340435
-0.4808324 0.61276901 0.037221789
0.025130859 -0.61094296 0.060317278
0.048310868 -0.61104786 0.060822248
0.0019638445 -0.58753002 0.059134245
0.025130859 -0.58674526 0.055213571
0.048271809 -0.58685231 0.055748463
0.071450569 -0.58734381 0.058204293
0.094667241 -0.58783627 0.060664535
-0.044433966 -0.5648945 0.061895967
-0.021185214 -0.56413853 0.05796814
0.0020030998 -0.56338149 0.054034591
0.025130859 -0.56262964 0.050127149
0.048233002 -0.56274116 0.050707102
0.071372584 -0.56320924 0.053139091
0.094550073 -0.56368119 0.055591106
0.11776543 -0.56415367 0.058046818
0.14101814 -0.56462407 0.060490847
-0.067586258 -0.54149032 0.060727596
-0.044315971 -0.54076225 0.056786895
-0.021106763 -0.54003906 0.0528723
0.0020421054 -0.53931773 0.048967838
0.0481942 -0.53870791 0.045667171
0.071295105 -0.53915858 0.04810667
0.0944333 -0.53960723 0.050534725
0.11760948 -0.54005939 0.052982092
0.1408235 -0.54051232 0.05543375
0.16420653 -0.54149032 0.060727596
-0.090719998 -0.51810157 0.059544206
-0.067429058 -0.51740712 0.055622339
-0.044198386 -0.51671189 0.051695108
-0.021028569 -0.51602107 0.047793746
0.11745405 -0.51604599 0.047934532
0.1406289 -0.5164786 0.050377965
0.1639533 -0.51734042 0.055245042
-0.09052366 -0.49406755 0.054443359
-0.067272395 -0.49340558 0.050534725
-0.044081554 -0.49274528 0.046636105
0.163701 -0.49327815 0.049782395
0.18729825 -0.4948566 0.059102893
-0.11387488 -0.4717077 0.059213161
-0.090328582 -0.47011724 0.049374938
0.18700314 -0.47080445 0.05362606
-0.11361682 -0.44768 0.05362618
0.21036604 -0.44827566 0.057495594
0.18670911 -0.44683972 0.048169374
-0.13703401 -0.42534935 0.059055567
-0.113359 -0.42373881 0.048044086
0.21002913 -0.42432109 0.052024603
0.23378812 -0.42568639 0.061359167
-0.13673298 -0.40140891 0.053468943
0.20969345 -0.40045336 0.046573639
0.23340811 -0.40174216 0.055874228
-0.16019072 -0.37899595 0.058897853
0.25684714 -0.37910533 0.059733629
-0.2983025 -0.37792823 0.050738573
-0.13643222 -0.37755507 0.047887683
0.2330295 -0.37788504 0.050409198
-0.2983008 -0.3548238 0.050722718
-0.15984671 -0.35514268 0.053311944
0.25642657 -0.35526082 0.054270387
-0.2983008 -0.33172163 0.050722837
-0.18334496 -0.33264732 0.058740258
-0.15950398 -0.33137792 0.047746778
0.25600633 -0.33150083 0.048811078
0.27988264 -0.3325763 0.058125615
-0.2983008 -0.30861935 0.050722837
-0.18295802 -0.30888146 0.053154945
0.27941915 -0.30882725 0.052652359
-0.2982991 -0.28551555 0.050707102
-0.20649683 -0.28630361 0.058582664
-0.18257141 -0.28520203 0.047574878
0.27895737 -0.28516451 0.047199249
0.30316418 -0.28639042 0.059449673
-0.29844111 -0.26253513 0.052024603
-0.20606691 -0.26262495 0.052997947
0.30255803 -0.26261479 0.052888155
-0.22964625 -0.23996469 0.058425069
-0.2056374 -0.23903272 0.047418356
0.30195451 -0.23894259 0.046354771
-0.22917338 -0.21637338 0.052840948
0.32620898 -0.21678625 0.058204412
-0.22870095 -0.1928682 0.047261715
0.32555288 -0.19317207 0.05164814
-0.25285003 -0.17050825 0.058882117
-0.25213829 -0.14692795 0.051177502
0.34923476 -0.14723958 0.056960106
0.34853044 -0.12378741 0.050424933
0.37300059 -0.10114419 0.062291026
-0.27569991 -0.077750988 0.055732727
0.37224329 -0.077750988 0.055732727
-0.27493048 -0.054432526 0.048044086
0.37148747 -0.054458953 0.049187183
0.39604017 -0.031551309 0.061059117
-0.29933143 -0.0083634565 0.060285687
0.39523113 -0.0083189188 0.054490447
-0.29850033 0.014812352 0.052574039
0.3944256 0.014812352 0.047950149
0.41905886 0.037984591 0.059812427
0.41819996 0.061055757 0.053249121
-0.32214329 0.084267229 0.057133317
0.41734684 0.084026925 0.046730161
-0.32125467 0.10718182 0.049437761
0.44206068 0.10746349 0.058582544
0.44115201 0.13037385 0.052024603
-0.34585625 0.15393247 0.061690688
-0.3449055 0.17670327 0.053971767
0.4650414 0.17688471 0.057338119
-0.34396157 0.19935852 0.046307921
0.46408305 0.19963431 0.050785542
-0.36863002 0.24643648 0.058535457
0.48846874 0.24648117 0.059118748
0.48706028 0.26887345 0.049970388
0.51122814 0.33887732 0.056598067
0.50975174 0.36097008 0.047465086
-0.43773654 0.43139306 0.056063056
0.53394687 0.43111646 0.054066062
-0.43650442 0.45336592 0.04805994
-0.46080109 0.50074434 0.055575252
0.5582487 0.50157213 0.060696006
0.55662727 0.52320045 0.051538348
-0.48463696 0.57092273 0.059686184
-0.4827289 0.5919258 0.048419833
0.58096164 0.59380269 0.058172822
0.57927251 0.61513251 0.049030542
0.0018055942 -0.68494552 0.079691529
0.025130859 -0.68402767 0.075717092
0.048428722 -0.68412346 0.076131582
0.071764909 -0.68469834 0.078621268
-0.021501468 -0.66135639 0.078509212
0.0018453896 -0.66046619 0.074521899
0.025130859 -0.65958202 0.070560932
0.048389263 -0.65968132 0.07100606
0.071685866 -0.66023523 0.073486924
0.095020764 -0.66079009 0.075972199
0.11839356 -0.66134208 0.078445435
-0.044789985 -0.6377821 0.077311993
-0.021421941 -0.63692683 0.073343754
0.001884928 -0.63607371 0.069385886
0.071607091 -0.63585484 0.068370223
0.094902404 -0.63638866 0.070847154
0.11823597 -0.63692337 0.073327899
0.14160727 -0.63745552 0.075796843
0.025130859 -0.63521945 0.065422773
0.048350058 -0.63532519 0.065913439
-0.068060584 -0.61422986 0.076131582
-0.044671148 -0.6134057 0.072166443
-0.021342682 -0.61258048 0.06819582
0.0019244514 -0.61176062 0.064251542
0.071528822 -0.61156011 0.063286781
0.094784439 -0.61206985 0.065739393
0.11807843 -0.6125837 0.068211555
0.14141063 -0.61309856 0.070688248
0.1649718 -0.61447191 0.077296138
-0.091363959 -0.59096068 0.076274991
-0.067901775 -0.58989972 0.070974231
-0.044552356 -0.58910882 0.067022562
-0.021263694 -0.5883168 0.06306529
0.11792143 -0.58832622 0.063112736
0.14121406 -0.58882028 0.065580964
0.16471578 -0.59005564 0.071753144
0.1881901 -0.56754208 0.075653315
-0.091146477 -0.56657439 0.07062459
-0.067743503 -0.56565243 0.065834403
0.16446069 -0.5657286 0.066230297
-0.11465556 -0.54433334 0.076115608
-0.090929195 -0.54227591 0.064979315
0.18789174 -0.54322493 0.070116401
0.21172509 -0.54497027 0.079563618
-0.1143946 -0.52003527 0.070465803
0.18759444 -0.51899666 0.064599514
0.21138324 -0.5206632 0.074012399
-0.13794471 -0.49771076 0.075956225
-0.11413389 -0.49582499 0.064821005
0.21104357 -0.49644762 0.068497181
0.23493649 -0.49804586 0.077934504
-0.1376403 -0.47350106 0.070307016
0.21070419 -0.47231761 0.062986255
0.23455231 -0.47383767 0.072389126
-0.1612314 -0.45109326 0.075796723
-0.13733616 -0.44937909 0.064662695
0.23416951 -0.449718 0.066863894
0.25812176 -0.45116937 0.076290965
-0.16088353 -0.42697188 0.07014811
0.25769532 -0.42706004 0.070751786
-0.18451566 -0.40448064 0.07563746
-0.16053599 -0.40293804 0.064504623
0.25727046 -0.40303889 0.065232515
0.28128317 -0.40434587 0.074665308
-0.18412434 -0.38044742 0.069989204
0.28081462 -0.38033527 0.06913197
-0.20779744 -0.35787287 0.075477958
-0.18373337 -0.35650185 0.064346433
0.28034776 -0.35641214 0.063618779
0.30499715 -0.35834262 0.079292059
-0.2073627 -0.3339279 0.069830298
0.30438301 -0.33425277 0.072643638
-0.23126991 -0.31151587 0.077599406
-0.20692833 -0.31007051 0.064188123
0.30377153 -0.31026834 0.066024303
-0.23060934 -0.28742608 0.069798827
0.32819307 -0.28824988 0.078030348
-0.34765652 -0.26477808 0.076307058
-0.32294878 -0.26365134 0.064109087
-0.23012085 -0.26364401 0.064029932
0.32752988 -0.26432517 0.071403265
-0.3013953 -0.24174389 0.079435945
0.326868 -0.2405037 0.064789414
-0.25428447 -0.21803373 0.074410439
0.35137141 -0.2182166 0.076785684
-0.2535654 -0.19420981 0.06662643
0.35065603 -0.19445379 0.07014823
0.34994385 -0.17079498 0.063539624
-0.2780304 -0.14842835 0.079020619
0.37452883 -0.14823999 0.07552588
-0.27724904 -0.1247476 0.07121253
0.37376302 -0.12464052 0.068893909
-0.27647328 -0.1011892 0.063460588
0.39766699 -0.078321703 0.074267149
-0.30100653 -0.05507426 0.075828552
0.39685279 -0.054885432 0.067656636
-0.30016685 -0.031658705 0.068037271
0.42165828 -0.03183794 0.079675674
0.42078802 -0.0084615694 0.073025584
0.41992155 0.014812352 0.066404462
-0.32393244 0.038083263 0.072627783
0.44480854 0.038127802 0.078413606
-0.32303467 0.061234478 0.064852715
0.44388786 0.061340906 0.071768999
0.44297117 0.084452383 0.065153599
-0.34777242 0.10803819 0.077248216
-0.34681186 0.13104446 0.069449544
0.46701959 0.1310989 0.070862889
0.46600398 0.15403548 0.063919187
-0.37065959 0.20106658 0.074044347
0.49131158 0.20128465 0.077583432
-0.36964116 0.22380939 0.066262126
0.48988581 0.22395198 0.068322659
-0.41780618 0.24793717 0.078030229
-0.39470178 0.24805279 0.079531789
0.51420552 0.29428369 0.075015903
0.51271099 0.31664768 0.065770864
0.53706348 0.38712692 0.072468638
0.53550041 0.40918881 0.063239336
-0.46448019 0.45779383 0.078333616
0.56152141 0.4579176 0.07918036
-0.46263373 0.47935012 0.066911697
0.55988008 0.47981176 0.069910049
-0.48656207 0.5497641 0.071053743
0.58436793 0.55074781 0.076610088
0.58265811 0.57233942 0.067355394
-0.51055622 0.62037182 0.075207114
0.025130859 -0.7826466 0.096502304
0.048587773 -0.78272271 0.096793175
0.0016853865 -0.75888824 0.095306754
0.025130859 -0.75786406 0.091275215
0.048547775 -0.75794578 0.091597319
0.072003409 -0.75858468 0.094112277
0.095497489 -0.75922066 0.096615434
-0.021741444 -0.7351445 0.094096303
0.0017255936 -0.73415607 0.090083838
0.025130859 -0.73317039 0.086082339
0.048507914 -0.73325348 0.086419344
0.071923561 -0.73387086 0.088925719
0.095377885 -0.73448938 0.091436386
0.1188705 -0.73510474 0.093935013
0.14240235 -0.73572528 0.096453905
-0.045150034 -0.71142352 0.09290278
-0.021661097 -0.71046299 0.088877559
0.0017656609 -0.70950866 0.084878802
0.025130859 -0.70855701 0.080890656
0.04846831 -0.70864874 0.081274748
0.071843974 -0.70924103 0.083756685
0.095258318 -0.70983797 0.08625865
0.11871131 -0.71043605 0.088764906
0.14220242 -0.71103138 0.091259241
-0.068539783 -0.68771744 0.091694117
0.1657448 -0.6882574 0.094031811
-0.045029603 -0.68679231 0.087688088
-0.021581272 -0.68586957 0.083692551
0.095139153 -0.68527055 0.081098795
0.11855216 -0.68584734 0.083596587
0.14200377 -0.68642515 0.086098194
-0.092021964 -0.66467392 0.093370438
-0.068379335 -0.66313648 0.086483479
-0.044909589 -0.66224527 0.08249104
0.14180519 -0.66189873 0.080938697
0.16548593 -0.66357046 0.088427305
-0.091802008 -0.64001167 0.087655783
-0.06821993 -0.63864321 0.081306696
0.16522877 -0.63897789 0.082859397
0.18909182 -0.64103144 0.092386961
-0.11544508 -0.61777925 0.093208909
-0.091582276 -0.61543858 0.08194685
0.18879013 -0.61644483 0.086788535
0.21275829 -0.6184302 0.096340656
-0.11518117 -0.59320635 0.087495208
0.18848957 -0.59194863 0.081210732
0.21241264 -0.59385341 0.090727806
-0.13886572 -0.57088965 0.093047976
-0.11491749 -0.56872243 0.081786752
0.21206823 -0.56936693 0.085135579
0.2360976 -0.57120639 0.094693422
-0.13855785 -0.54640603 0.087334633
0.23570915 -0.54672974 0.089086533
-0.16228387 -0.52400488 0.092886567
-0.13825028 -0.5220114 0.081626773
0.2353221 -0.52234304 0.083500147
0.25941044 -0.52403063 0.093031764
-0.16193207 -0.4996106 0.087173939
0.25897929 -0.49965411 0.087431192
-0.18569954 -0.4771252 0.092725396
-0.16158059 -0.47530517 0.081466794
0.25854972 -0.47536728 0.081850886
0.28291488 -0.47732067 0.093934894
-0.18530381 -0.45282024 0.087013364
0.28234646 -0.45285231 0.087222219
-0.20911273 -0.43025044 0.092564225
-0.18490845 -0.42860392 0.081306696
0.28178188 -0.42849401 0.080554962
-0.20867307 -0.40603471 0.08685267
0.30623212 -0.40683946 0.092660904
-0.2082338 -0.38190749 0.081146717
0.30561399 -0.38253871 0.085969806
-0.27843863 -0.35881171 0.083099723
-0.23260127 -0.36007074 0.093322158
-0.27843863 -0.33546016 0.083099723
-0.23193385 -0.33573043 0.085440397
0.32953143 -0.33641902 0.09140408
-0.27843705 -0.31210697 0.083083868
0.32886076 -0.31228134 0.084702373
-0.27843705 -0.28875551 0.083083749
0.35353461 -0.29013395 0.096857905
-0.37256289 -0.26591268 0.088588119
-0.27843544 -0.26540262 0.083067656
-0.25573233 -0.26605079 0.090083957
0.35280979 -0.26605532 0.090132356
-0.32632387 -0.24292111 0.093338132
-0.27843544 -0.24205142 0.083067656
0.35208815 -0.24208263 0.083436131
-0.25500578 -0.24197954 0.082218885
0.37684464 -0.21966343 0.095581412
-0.27960533 -0.19615889 0.094758034
0.37607053 -0.19575144 0.088877439
-0.27881584 -0.17223172 0.086868644
0.37529799 -0.17194344 0.082187057
0.40013713 -0.14925294 0.094322205
0.39931011 -0.12550484 0.087607622
-0.30269727 -0.10226914 0.091516852
0.39848676 -0.10186143 0.080922842
-0.30184886 -0.078610472 0.083644629
0.42340824 -0.078900009 0.093047857
0.42253029 -0.055316962 0.086339116
-0.32665381 -0.032092273 0.09619534
-0.32574198 -0.0085791191 0.088298798
0.4467001 -0.0086080981 0.092064619
-0.32483488 0.014812301 0.080443025
0.44573331 0.014812301 0.085087538
-0.34970653 0.061667029 0.092951059
-0.34873599 0.084912375 0.085071325
0.46974146 0.08501406 0.089472532
0.46837637 0.10812721 0.08013916
-0.37271231 0.15522756 0.089729905
0.4941895 0.15552996 0.096276164
-0.3716833 0.17820653 0.08186686
0.49274611 0.1784777 0.086901188
-0.39697713 0.20241585 0.095952868
-0.39583638 0.22529596 0.087720275
0.51722223 0.24914166 0.093677044
0.51570922 0.27178207 0.084317803
0.54021573 0.34259373 0.091082096
0.53863341 0.36492771 0.081738949
-0.46634069 0.43607369 0.089842677
0.56317288 0.43588874 0.088507652
-0.49045628 0.50696367 0.094048023
0.58781922 0.50716472 0.095290899
-0.48850179 0.52844512 0.082507133
0.58608824 0.52902329 0.085921645
-0.51258969 0.59929109 0.086692333
0.61076462 0.60044605 0.09269321
0.60896462 0.62199956 0.08333993
-0.045635529 -0.81079549 0.11392558
-0.021984158 -0.80970043 0.10986066
0.0016046837 -0.80860376 0.10579073
0.025130859 -0.80751431 0.10174739
0.048627783 -0.80757987 0.10199058
0.072163694 -0.80826223 0.10452294
0.095738687 -0.8089456 0.10705936
0.11935236 -0.80962574 0.10958374
0.1430258 -0.81045216 0.11265099
-0.069186598 -0.7868861 0.1127001
-0.045513436 -0.78582299 0.10863853
-0.021902973 -0.78476286 0.10458791
0.0016451664 -0.78370106 0.10053158
0.072083287 -0.78337908 0.099300742
0.095617883 -0.78404057 0.10182834
0.11919153 -0.78470325 0.10436034
0.14280742 -0.78538841 0.10697806
-0.069024436 -0.76196885 0.10743368
-0.045391761 -0.7609365 0.10336995
-0.021822074 -0.75991106 0.099333048
0.11903074 -0.75986165 0.099138856
0.142603 -0.76050365 0.10166633
0.16652712 -0.76286703 0.11096978
-0.092687435 -0.73922467 0.11065972
-0.068862326 -0.73713315 0.10216916
-0.045270503 -0.73613554 0.098119259
0.16626537 -0.73790509 0.10530281
-0.092464976 -0.71428186 0.10488045
-0.068700776 -0.71238279 0.096922636
0.1660046 -0.71303529 0.09965694
0.19000354 -0.71533823 0.10930669
-0.11624356 -0.69205976 0.11049676
-0.09224274 -0.68942928 0.099106431
0.1896985 -0.69047755 0.10364592
0.21380299 -0.69270825 0.11330462
-0.11597665 -0.66720718 0.10471773
0.18939461 -0.66570884 0.09800601
0.21345349 -0.66785717 0.10762894
-0.13979718 -0.64489979 0.11033368
-0.11570998 -0.64244491 0.098944545
0.21310525 -0.64309794 0.10197437
0.23727047 -0.64517754 0.11162245
-0.13948582 -0.62013757 0.10455537
0.23687881 -0.62043154 0.10596955
-0.16334829 -0.59774488 0.11017072
-0.13917474 -0.5954656 0.098782659
0.23648748 -0.59577352 0.10032105
0.26071346 -0.59770244 0.10995865
-0.16299248 -0.57307309 0.10439301
0.26027754 -0.57305419 0.10429537
-0.18689686 -0.55059499 0.11000741
-0.16263701 -0.54849118 0.098620653
0.25984317 -0.5484972 0.098653197
-0.18649665 -0.52601343 0.10423052
0.28405932 -0.52658343 0.10744977
-0.2106452 -0.50389493 0.11247122
-0.18609677 -0.50152177 0.098459005
0.28348583 -0.50189757 0.10067737
-0.21003081 -0.47902718 0.1044904
0.30810738 -0.48039657 0.11296153
-0.20955406 -0.45455742 0.098297238
0.3074795 -0.45576873 0.10616457
0.30685443 -0.43124992 0.099397779
-0.23394515 -0.40913019 0.10919261
0.33155966 -0.40947363 0.11167145
-0.23327075 -0.38453561 0.10122848
0.33088005 -0.38501343 0.10488021
0.33020505 -0.36066353 0.098135352
-0.25793469 -0.33901957 0.1139257
0.35499397 -0.33861244 0.11039889
-0.25719675 -0.31456995 0.10593688
0.35426268 -0.31431946 0.1036135
-0.25646263 -0.29024726 0.097989798
-0.39767221 -0.26705629 0.10096908
0.37840691 -0.26780841 0.10911095
-0.35148028 -0.24410781 0.10735238
0.37762403 -0.24368265 0.1023314
-0.28039733 -0.22020933 0.10267186
0.40180218 -0.19706531 0.10784066
0.40096781 -0.17310619 0.10106647
-0.30440739 -0.14995676 0.10738492
0.42609122 -0.15028889 0.11354971
-0.30355009 -0.1260509 0.099430203
0.42517588 -0.12638003 0.10655499
0.42429009 -0.1025874 0.09978652
-0.32848984 -0.079486489 0.11209583
-0.32756847 -0.055727519 0.1041168
0.4493129 -0.055884711 0.11092091
0.44800133 -0.032173242 0.10145557
-0.35166281 0.014812352 0.10883403
-0.35068211 0.03830066 0.10087192
0.47249711 0.038357954 0.10831296
0.47111502 0.061758097 0.098863721
-0.37582949 0.085569978 0.11354971
-0.37478432 0.10891007 0.10556293
-0.37374669 0.13212936 0.097633958
0.49563935 0.13243945 0.1056931
-0.39927506 0.15628107 0.11253679
-0.39812183 0.17941056 0.10421431
0.52027637 0.20343916 0.11256945
0.51874459 0.22636116 0.10309386
0.54340982 0.29750994 0.10994244
0.54180789 0.32012159 0.10048306
0.56650358 0.3914195 0.10731983
0.56483454 0.41372383 0.097892761
-0.49242294 0.4853158 0.10566056
0.58956093 0.48517078 0.10471773
-0.51670051 0.55664372 0.10990989
0.61439818 0.55693829 0.11157358
-0.51463872 0.57805008 0.098264813
0.61257577 0.57875943 0.10210419
-0.069349825 -0.81189364 0.1180011
0.16705354 -0.81307006 0.12236691
0.19092548 -0.79047579 0.12641549
-0.093135506 -0.78939897 0.12230122
0.16678983 -0.78792185 0.11665773
-0.11705116 -0.76718873 0.12798178
-0.092910737 -0.7642622 0.11646128
0.19061702 -0.76533681 0.1206913
0.2148594 -0.7678178 0.13045824
-0.1167812 -0.7420519 0.12213683
0.19030972 -0.740291 0.11498857
0.21450594 -0.74268794 0.12471914
-0.14073929 -0.71975535 0.12781703
-0.11651149 -0.71700639 0.11629748
0.21415383 -0.71765155 0.11900115
0.23845762 -0.71997982 0.12875724
-0.14042436 -0.6947099 0.12197256
0.23806043 -0.69495296 0.12302446
-0.16442487 -0.67232704 0.12765193
0.23766471 -0.67001897 0.11731303
0.26219743 -0.67268068 0.1292361
-0.14010973 -0.6697557 0.11613381
-0.16406396 -0.64736944 0.12179172
0.26166865 -0.64749342 0.12236691
-0.18810791 -0.62490392 0.12748706
-0.16370544 -0.62251014 0.11597013
0.26115105 -0.62244213 0.11564279
-0.18770194 -0.60003793 0.12162757
0.28579372 -0.60129988 0.12793255
-0.18729866 -0.57526964 0.11580658
0.28521255 -0.57628226 0.12106907
-0.21188235 -0.55401939 0.12854278
0.28463393 -0.5513761 0.11423612
-0.21126153 -0.52889007 0.12047791
0.30937001 -0.52997935 0.12662971
0.30873805 -0.50513411 0.11978853
-0.23530452 -0.45870641 0.12524593
0.332928 -0.45872167 0.12534463
-0.23462303 -0.43385348 0.11719835
0.33224231 -0.43404281 0.11849284
0.35720566 -0.412141 0.13092101
-0.25942075 -0.38830236 0.13001215
0.35646453 -0.38752151 0.12404442
-0.25867504 -0.36359543 0.12193954
0.35572675 -0.36301157 0.11719835
0.38077649 -0.34083331 0.12963235
0.3799831 -0.31638306 0.12276149
0.37919328 -0.29204175 0.11592114
0.4043256 -0.26958367 0.12832832
-0.37686941 -0.24530545 0.12149596
0.40348005 -0.24530268 0.12146318
-0.32945013 -0.22157504 0.12041223
0.40263823 -0.22112969 0.11462855
-0.30613369 -0.19814347 0.12340271
-0.30526918 -0.17398766 0.115381
0.42733976 -0.17446241 0.12309027
-0.33034706 -0.12737875 0.12817979
-0.32941601 -0.10336984 0.12011683
0.45196056 -0.10375137 0.13002872
0.4506326 -0.079743579 0.12044525
-0.35363758 -0.032533698 0.12486732
-0.35264862 -0.0087989131 0.1168381
0.47528711 -0.008880035 0.12738812
0.47388777 0.014812301 0.11782086
-0.37793633 0.038522139 0.12964892
-0.37688017 0.06210779 0.1215781
0.49857113 0.085828446 0.12473559
0.49710068 0.10920639 0.11518466
-0.40083766 0.13313694 0.12381399
0.52181506 0.18037382 0.12208748
-0.42513147 0.20439665 0.12811387
-0.42340562 0.2272771 0.11631405
0.54664379 0.25186372 0.12903798
0.54502183 0.2747578 0.11946046
0.56987882 0.34639809 0.12638259
0.56818593 0.36897883 0.11682153
-0.49640721 0.44152537 0.12918663
0.59307373 0.44076958 0.12373173
-0.49440742 0.46350461 0.11737847
0.59131336 0.46304017 0.11420357
0.6180771 0.51288718 0.13068962
-0.51878095 0.53507578 0.12166035
0.61623186 0.53498125 0.12110186
-0.54322261 0.60684723 0.12595415
0.64126289 0.60724711 0.12803137
-0.54104561 0.62817031 0.11417079
0.6393472 0.62902874 0.11846006
-0.14169222 -0.79547101 0.1455009
-0.11732215 -0.79242152 0.13384926
0.21521416 -0.79304165 0.13621891
0.23965812 -0.79562396 0.14608526
-0.14137276 -0.77013332 0.13957274
0.23925644 -0.77031481 0.1402874
-0.16551381 -0.74776638 0.14533424
-0.14105542 -0.74489629 0.13368356
0.23885627 -0.74510032 0.13451159
-0.16514875 -0.72252119 0.13940656
0.26326087 -0.72339064 0.14305031
-0.18953873 -0.70075291 0.14813936
-0.16478612 -0.69737637 0.13351822
0.26272732 -0.69797707 0.1361196
-0.18897285 -0.67507732 0.13997173
-0.18851426 -0.6498614 0.13335252
0.28696391 -0.65167165 0.14175165
0.28637752 -0.62642932 0.13482654
-0.21313387 -0.60467589 0.14480054
0.31128755 -0.60519379 0.1473875
-0.21250649 -0.57928097 0.13665032
0.31064549 -0.58000976 0.14043713
0.31000632 -0.55493861 0.13351822
0.33500192 -0.53342098 0.14606845
-0.2366768 -0.50880289 0.14145195
0.33430696 -0.50840867 0.13912404
-0.23598956 -0.48369017 0.13333595
0.33361676 -0.48351097 0.13222742
0.35869789 -0.46171194 0.14476705
-0.26092398 -0.43810779 0.14628541
0.35795012 -0.4368709 0.13782871
-0.26017037 -0.41313949 0.13812745
0.38237205 -0.39006093 0.14345026
0.38157153 -0.36539102 0.13651764
0.40638113 -0.31878161 0.14501727
0.40518925 -0.2939851 0.13534045
-0.35484791 -0.22267437 0.13469386
-0.30700451 -0.22242717 0.13148308
0.42985818 -0.22326253 0.14233434
0.42859614 -0.19878693 0.13269043
-0.33203724 -0.17567724 0.14281714
-0.3312811 -0.15151323 0.13626862
0.45329684 -0.12790956 0.1396724
-0.35619956 -0.10435331 0.14566791
-0.35542426 -0.080326378 0.1393733
-0.35463375 -0.056393534 0.13295531
0.47810969 -0.056710623 0.1466862
0.47669521 -0.032720737 0.13701522
-0.37968361 -0.009000239 0.14300036
-0.37877229 0.014812403 0.13603663
0.50153965 0.038632751 0.14401698
-0.4041898 0.062514625 0.14800572
0.50005072 0.062304471 0.13434601
-0.40322173 0.086204514 0.14101934
-0.40225804 0.10978772 0.13406456
0.52492666 0.13381143 0.14133573
-0.42775023 0.15782739 0.14601827
0.52336597 0.1571652 0.13168168
-0.42672974 0.18128733 0.13904095
0.54827601 0.22882628 0.13867545
-0.45128053 0.25301799 0.14403355
-0.44949085 0.27585444 0.13240921
0.57329631 0.30081171 0.1456846
0.5715822 0.32367608 0.13600349
0.59663367 0.39581427 0.1430006
0.59484816 0.41836196 0.13333607
-0.52298731 0.49143672 0.14541769
0.61993057 0.49065214 0.14032102
-0.52087748 0.51334178 0.13350165
-0.54541641 0.58535969 0.13782859
0.6431905 0.58532894 0.13766241
-0.16624607 -0.79853946 0.15722454
0.26487598 -0.80032098 0.16403103
-0.16587922 -0.77310425 0.15126801
0.26433519 -0.77456182 0.15700603
-0.19061753 -0.75229293 0.16371024
0.26379681 -0.74891859 0.15001249
-0.19010761 -0.72656459 0.15635049
0.28873757 -0.72807932 0.16269779
0.28814322 -0.70249408 0.15567875
0.28755152 -0.67702383 0.14869106
-0.21431956 -0.65564883 0.16020298
0.31257877 -0.65589941 0.16136539
-0.21376461 -0.63020539 0.15299392
0.31193244 -0.6304912 0.15436912
-0.23850872 -0.58436853 0.16308582
0.33640125 -0.58378446 0.16005123
-0.23796971 -0.55922514 0.15672028
0.33570001 -0.55854601 0.15304422
-0.23736911 -0.53405118 0.14962769
0.36020181 -0.51172763 0.15872133
-0.26215363 -0.48793542 0.15959656
0.35944903 -0.48666483 0.15173686
-0.26156536 -0.4630146 0.15322852
0.38398781 -0.43973976 0.15744317
-0.28638071 -0.41651136 0.1624614
0.38317618 -0.41484192 0.15041423
-0.28574392 -0.39171615 0.1560986
0.40878752 -0.36884427 0.16455448
0.40758055 -0.34373423 0.15475512
0.43241051 -0.27267918 0.16183758
0.43113032 -0.24789318 0.15205514
-0.33276761 -0.19992667 0.1491425
0.45599464 -0.17668265 0.15914214
-0.35784462 -0.15273945 0.15902436
0.45464146 -0.15221959 0.14937687
-0.35698006 -0.12847915 0.15200496
-0.38244244 -0.081087239 0.16408169
0.47953549 -0.080851838 0.15643454
-0.38151866 -0.056949295 0.15702283
-0.38059905 -0.032920685 0.1499958
0.50454313 -0.009158249 0.16352475
0.50303799 0.014812352 0.15374839
-0.40613911 0.014812403 0.16207373
-0.40516225 0.038717493 0.15502381
0.52807748 0.086661905 0.16082633
-0.42980522 0.11058837 0.16006815
0.52649713 0.11031073 0.15105033
-0.42877537 0.13426137 0.15302742
-0.45452836 0.18269314 0.16512895
0.55156833 0.18231519 0.15811586
-0.45344082 0.20624109 0.15806532
0.54991555 0.20564318 0.1483568
-0.45235825 0.2296824 0.15103352
0.57675397 0.25464845 0.16521347
-0.47818655 0.27845487 0.16311955
0.57502121 0.27780339 0.15542674
0.6002385 0.35029179 0.16251206
0.59843045 0.37312463 0.15272558
0.62375367 0.44582087 0.16018617
-0.52511644 0.46936452 0.15744317
0.62179899 0.46828011 0.1500293
-0.54985213 0.54188007 0.16183758
-0.54762417 0.56370252 0.14977825
0.64534098 0.56345981 0.14840686
-0.19150653 -0.80359548 0.17654216
-0.19106054 -0.77788937 0.1701045
0.2899344 -0.7795983 0.1768316
0.28933463 -0.75378036 0.16974866
-0.21580161 -0.73207837 0.17945552
-0.21530513 -0.70649564 0.17300582
0.31388327 -0.70706862 0.1754874
-0.21481198 -0.68102175 0.16659963
0.31322953 -0.68142605 0.16841042
-0.240142 -0.66042769 0.18237412
0.33852237 -0.66018474 0.181247
-0.23959486 -0.63496888 0.1759125
0.33781326 -0.63460481 0.17416108
-0.23905142 -0.60961837 0.16949451
0.33710566 -0.60913724 0.16709018
0.36248598 -0.5876075 0.17991602
-0.26392984 -0.56330901 0.17882466
0.36172113 -0.56219953 0.17281914
-0.26333427 -0.5380792 0.17237759
0.36095971 -0.53690642 0.16575432
-0.26274276 -0.51295596 0.16597402
-0.28831017 -0.49151552 0.18174207
0.386262 -0.49077117 0.17713809
-0.28766382 -0.46641025 0.17528319
0.38512132 -0.46517494 0.16725934
-0.28702179 -0.44141078 0.16886747
0.41000214 -0.3941133 0.17441583
0.4349952 -0.322723 0.18158841
0.43369877 -0.29762185 0.17168176
0.45872664 -0.22607419 0.17885876
-0.35958973 -0.20159294 0.17319262
0.4573563 -0.20130038 0.16896939
-0.35871518 -0.17711066 0.1660924
-0.38430265 -0.12969363 0.17829645
0.48241425 -0.12959293 0.1761167
-0.38337043 -0.10533503 0.17117286
0.48097032 -0.10514544 0.16624463
-0.40810618 -0.033325072 0.17626989
0.50606036 -0.033280633 0.17337954
-0.40712038 -0.0092016133 0.16915572
-0.43292287 0.038920503 0.18138361
0.5312683 0.038914174 0.18056417
-0.43187889 0.062918603 0.17424619
0.52966785 0.062863499 0.17066407
-0.43083972 0.086807668 0.16714108
-0.45671836 0.13527463 0.17935312
0.55490524 0.1352157 0.17781925
-0.45562086 0.15903784 0.17222488
0.55323148 0.15883984 0.16793644
-0.480483 0.23150398 0.17732525
0.57850075 0.23134841 0.17507911
-0.47933215 0.25503278 0.17020643
0.60205799 0.32731453 0.17236078
0.62747842 0.4244087 0.17954075
-0.52666283 0.44665095 0.16617692
-0.55290866 0.49651206 0.17838156
-0.55159247 0.51944518 0.17125773
0.64918202 0.54285568 0.16759789
-0.57660693 0.59248054 0.17637193
-0.57465792 0.61460114 0.16624451
-0.21730082 -0.80945528 0.19893062
0.29053688 -0.80553353 0.18394673
-0.21679947 -0.78355771 0.19241762
0.31586239 -0.78469926 0.19691169
-0.21629886 -0.75776267 0.18591452
0.31519967 -0.75870442 0.1897378
0.31453997 -0.73282784 0.18259633
-0.24124025 -0.71165431 0.19534349
0.33995375 -0.71170193 0.19555008
-0.24068998 -0.68598807 0.1888454
0.33923644 -0.68588465 0.18838227
-0.26572815 -0.63962036 0.1982919
-0.26512673 -0.61407912 0.19178164
0.36355373 -0.61368722 0.18982363
-0.26452628 -0.58863997 0.18528116
-0.28960928 -0.54203558 0.19472349
0.38856518 -0.54245359 0.19708431
-0.28895754 -0.51672184 0.18821084
0.38740993 -0.51653022 0.18707931
-0.3142567 -0.47002706 0.19877517
-0.31347895 -0.44472951 0.19155824
0.41245246 -0.44513208 0.19431019
-0.31273606 -0.41958797 0.1846652
0.41122445 -0.41954285 0.18434012
0.43629992 -0.3479839 0.19155824
0.46149111 -0.2760945 0.19880962
0.46010333 -0.25100413 0.18879402
-0.38617992 -0.17874564 0.19264126
0.48532969 -0.17895557 0.19604981
-0.38523912 -0.15416357 0.18545246
0.48386735 -0.15419592 0.18605173
-0.41109067 -0.10636023 0.19780862
-0.41009128 -0.081903562 0.1905961
0.50912386 -0.081986211 0.19327772
-0.40909648 -0.057558887 0.1834166
0.50758725 -0.057556078 0.18329704
-0.43502513 -0.0094063068 0.19575691
0.53287619 0.014812352 0.19051027
-0.43397158 0.014812403 0.18855381
-0.45892838 0.087421291 0.1937077
0.5582847 0.087515265 0.19777429
-0.45782083 0.11140271 0.18651414
0.5565896 0.11144117 0.18776512
-0.48280054 0.18412282 0.19166136
-0.48163909 0.20786767 0.18447697
0.58025855 0.20790021 0.18500733
0.60560483 0.30504939 0.19155836
0.63124657 0.40272635 0.19912052
-0.55456948 0.47374168 0.1873709
0.65307438 0.52199763 0.18704522
-0.57962871 0.57119119 0.19207394
0.67879331 0.62005532 0.19458568
0.31652814 -0.81081319 0.20411861
-0.24290766 -0.78930318 0.21503484
-0.24234904 -0.76331091 0.20843792
0.3416734 -0.76436925 0.2127341
-0.24179421 -0.73743105 0.2018857
0.34067434 -0.73763752 0.20275092
-0.26694003 -0.69102567 0.21141088
-0.26633361 -0.66527134 0.20484638
0.3657209 -0.66636771 0.20993233
0.36463386 -0.63994324 0.19984591
-0.29167685 -0.61880302 0.21538377
-0.29094696 -0.59302962 0.20809042
-0.29026201 -0.56745142 0.2012459
0.3897278 -0.56854278 0.20715296
-0.31582305 -0.52097237 0.21330881
-0.31503808 -0.49544102 0.20602524
0.41493633 -0.49680728 0.21447682
0.41369042 -0.47088698 0.2043612
-0.33993965 -0.42327231 0.21125436
0.43893442 -0.3989912 0.21168947
0.43761295 -0.37340599 0.20159161
0.46288785 -0.30134538 0.20888948
-0.38807446 -0.22824953 0.20711827
0.48828003 -0.2289504 0.21622133
-0.38712502 -0.20344077 0.1998632
0.48679891 -0.20387246 0.20609462
-0.41355252 -0.15578672 0.21557558
-0.41209468 -0.13092948 0.2050544
0.5122267 -0.13131638 0.213431
0.5106703 -0.10657247 0.20332205
-0.43776312 -0.058276229 0.21447682
-0.43616962 -0.033745527 0.20358181
0.53612834 -0.033854097 0.21062803
0.53449708 -0.0094432449 0.20053709
-0.46195689 0.039166775 0.21337867
-0.46028069 0.063353449 0.2024914
0.56135565 0.063560076 0.21590722
-0.48613387 0.13654198 0.21228147
-0.48437506 0.16038549 0.20140147
0.58356565 0.18477082 0.20368576
-0.51029408 0.23384982 0.21118462
-0.50845283 0.25735047 0.20031238
0.60925335 0.28253511 0.21130657
-0.55763483 0.45188674 0.2039628
0.65701205 0.50087488 0.20671928
-0.58417511 0.55100161 0.21569777
0.68290222 0.59949809 0.21435475
0.34268934 -0.79129761 0.22288597
-0.26895201 -0.7694087 0.23319137
-0.26817665 -0.74289876 0.22479761
-0.26755056 -0.71689129 0.21802032
0.36791599 -0.71972722 0.23030043
0.36681491 -0.69296181 0.22008371
-0.29334772 -0.67114145 0.2320801
-0.29241008 -0.6446957 0.22271061
0.39207557 -0.62122506 0.2274853
0.39089793 -0.5947994 0.21728647
-0.3177264 -0.57294297 0.23096979
-0.31661165 -0.5466218 0.22062635
0.41619027 -0.52289426 0.22465742
-0.34208807 -0.47481292 0.22986031
-0.34081981 -0.44872519 0.21887672
0.44160056 -0.45065376 0.23206246
0.44026434 -0.42474073 0.22185206
0.46570823 -0.35233548 0.22924411
0.46429351 -0.32675853 0.21903419
0.48977071 -0.25418961 0.22641313
-0.41507131 -0.18083307 0.22653615
0.51379305 -0.15621942 0.22360468
-0.43936512 -0.082976259 0.22542965
0.53897285 -0.058593571 0.22822368
-0.46364203 0.014812403 0.22432399
-0.48790205 0.11253285 0.22321892
0.5870893 0.16141017 0.22358716
-0.51314402 0.21054861 0.22801268
0.61294806 0.25973621 0.23130453
0.63506556 0.38077304 0.21896422
0.66100299 0.47948813 0.22665918
-0.26997745 -0.79673547 0.24429202
0.37013957 -0.77377909 0.25093293
0.36902422 -0.74666572 0.2405833
-0.29445785 -0.69811624 0.24317312
0.39445171 -0.67458647 0.24806297
0.39325878 -0.64781791 0.23773205
-0.31892109 -0.5995661 0.24205518
0.41872245 -0.57557505 0.24521625
0.41745228 -0.54914969 0.23490357
-0.34336722 -0.50108492 0.24093771
0.44294772 -0.4767369 0.24235678
0.46856275 -0.40398443 0.24984479
0.46713209 -0.37807769 0.23952007
0.49127102 -0.27959189 0.23667073
-0.41814294 -0.23145089 0.24870431
-0.41660058 -0.20605326 0.23757291
0.51641524 -0.18170139 0.24063647
-0.4426052 -0.13289371 0.2475822
-0.44097826 -0.10784797 0.23645866
0.54223758 -0.083684109 0.24841917
-0.46533886 -0.009711151 0.23534524
0.56474936 0.0393405 0.23594606
-0.49064034 0.088493936 0.24015784
0.59065449 0.13775218 0.24372375
0.63893288 0.35854152 0.23905969
0.66504472 0.45782971 0.24685276
-0.58879387 0.53050911 0.23969746
0.68706679 0.57868379 0.23439145
0.37126222 -0.80106872 0.26134956
-0.29669788 -0.75262547 0.26555693
-0.29557395 -0.72527564 0.25432587
0.39565235 -0.7015292 0.25846112
-0.32133174 -0.65336555 0.26442313
-0.32012221 -0.62637192 0.25320005
0.42128769 -0.62894237 0.26604295
0.42000088 -0.60217208 0.25559592
-0.34594822 -0.55417556 0.26329005
-0.34465322 -0.52753764 0.25207496
0.44566837 -0.52941263 0.26314628
0.44430363 -0.50298941 0.25271785
-0.37054738 -0.45505556 0.26215792
0.47076732 -0.43082422 0.26575506
0.4936808 -0.30577442 0.25314653
-0.41969371 -0.25702488 0.2598958
0.51954895 -0.2076758 0.26099062
-0.4451184 -0.15843742 0.26476502
-0.46796679 -0.03449741 0.25241435
0.56818932 0.014812352 0.25625801
-0.49458051 0.064308643 0.2645309
0.59426844 0.11379269 0.26413524
-0.51723725 0.18738402 0.25218201
0.61668646 0.23664573 0.25153935
0.64284617 0.33602422 0.25939345
0.6691345 0.43589166 0.26728642
