ply
format ascii 1.0
comment PCL generated
element vertex 1323
property float x
property float y
property float z
element camera 0
property float view_px
property float view_py
property float view_pz
property float x_axisx
property float x_axisy
property float x_axisz
property float y_axisx
property float y_axisy
property float y_axisz
property float z_axisx
property float z_axisy
property float z_axisz
property float focal
property float scalex
property float scaley
property float centerx
property float centery
property int viewportx
property int viewporty
property float k1
property float k2
end_header
-0.033076793 0.45014209 -0.095975399
-0.0098382588 0.45055795 -0.093625665
0.013436511 0.45097482 -0.091272116
0.03674794 0.45139468 -0.08889997
0.060095549 0.45181268 -0.08653903
-0.21952626 0.47541994 -0.084837556
-0.19601494 0.47471684 -0.088644505
-0.17256197 0.47401243 -0.092456818
-0.14916866 0.47331262 -0.096244574
-0.12583348 0.47261196 -0.10003781
-0.079445273 0.47249341 -0.10067892
-0.056279063 0.4729262 -0.098336577
-0.033076793 0.47336233 -0.095975518
-0.0098382588 0.47379649 -0.093625665
0.013436511 0.47423136 -0.091272116
0.03674794 0.47466958 -0.088899851
0.060095549 0.4751057 -0.086539149
-0.12583348 0.49580103 -0.10003769
-0.079445273 0.49567777 -0.10067892
-0.056279063 0.49612832 -0.098336458
-0.21952626 0.49872625 -0.084837556
-0.19601494 0.49799371 -0.088644505
-0.17256197 0.49725997 -0.092456818
-0.14916866 0.49653107 -0.096244454
-0.033076793 0.49658281 -0.095975518
-0.0098382588 0.49703521 -0.093625546
0.013436511 0.4974879 -0.091272116
0.03674794 0.49794447 -0.088899851
0.060095549 0.49839878 -0.086539149
-0.21952626 0.5220325 -0.084837556
-0.19601494 0.52127051 -0.088644385
-0.17256197 0.52050745 -0.092456818
-0.14916866 0.51974952 -0.096244454
-0.12583348 0.51899016 -0.10003769
-0.079445273 0.51886189 -0.10067892
-0.056279063 0.5193308 -0.098336339
-0.033076793 0.51980329 -0.095975518
-0.0098382588 0.52027369 -0.093625665
0.013436511 0.52074456 -0.091272116
0.03674794 0.52121937 -0.088899851
0.060095549 0.52169186 -0.08653903
-0.21952626 0.54533863 -0.084837556
-0.19601494 0.54454744 -0.088644624
-0.17256197 0.54375505 -0.092456818
-0.14916866 0.54296774 -0.096244693
-0.12583348 0.54217935 -0.10003769
-0.079445273 0.54204607 -0.10067892
-0.056279063 0.54253298 -0.098336458
-0.033076793 0.54302371 -0.095975518
-0.0098382588 0.54351217 -0.093625665
0.013436511 0.54400116 -0.091272116
0.03674794 0.54449427 -0.088900089
0.060095549 0.544985 -0.086539149
-0.21952626 0.568645 -0.084837556
-0.19601494 0.5678243 -0.088644505
-0.17256197 0.56700253 -0.092456818
-0.14916866 0.56618613 -0.096244574
-0.12583348 0.56536847 -0.10003781
-0.079445273 0.56523043 -0.10067892
-0.056279063 0.5657354 -0.098336339
-0.033076793 0.56624418 -0.095975518
-0.0098382588 0.56675065 -0.093625665
0.013436738 0.56726122 -0.091257095
0.03674794 0.56776929 -0.088899851
0.060095549 0.56827813 -0.086539149
-0.19609758 0.59144342 -0.087110877
-0.17262848 0.59057158 -0.091017008
-0.14921933 0.58969837 -0.094928145
-0.1258707 0.58882761 -0.09882915
-0.10260059 0.58813512 -0.10193062
-0.079463176 0.58867431 -0.099515676
-0.056288607 0.58921427 -0.097096562
-0.033076793 0.58975524 -0.094673753
-0.0098276455 0.59029704 -0.092247009
0.013458926 0.59083956 -0.089816213
0.036783002 0.59138316 -0.087381601
0.060144231 0.59192419 -0.084958076
-0.14958569 0.61512512 -0.085409999
-0.12614176 0.61405903 -0.090026379
-0.1027879 0.6131829 -0.093820333
-0.079594947 0.61384404 -0.090957165
-0.056357838 0.61450309 -0.088103414
-0.033076793 0.61516315 -0.085244417
-0.24392048 -0.64617819 -0.069133162
-0.22020136 -0.645302 -0.073875308
-0.19656095 -0.64444542 -0.078511834
-0.17299327 -0.64359426 -0.083119154
0.013582475 -0.64383954 -0.081791162
0.036978066 -0.64436716 -0.078935504
0.060433187 -0.64498818 -0.075573921
-0.29090747 -0.6230287 -0.067564607
-0.26672813 -0.62132633 -0.077180028
-0.24309792 -0.62064892 -0.081006169
0.083719157 -0.62118965 -0.077952027
0.10749903 -0.6228022 -0.068843961
-0.29089713 -0.59956902 -0.067686319
-0.26672813 -0.59796119 -0.077179909
-0.24309792 -0.59731328 -0.08100605
0.083719157 -0.59783053 -0.077951908
0.1074962 -0.59936261 -0.068905115
-0.29089713 -0.57613087 -0.067686439
-0.26672813 -0.57459611 -0.077180028
-0.24309792 -0.57397765 -0.08100605
0.083719157 -0.57447124 -0.077952027
0.1074962 -0.57593381 -0.068905115
-0.29089713 -0.55269253 -0.067686439
-0.26672813 -0.55123097 -0.077180028
-0.24309792 -0.55064183 -0.081006169
0.083719157 -0.55111212 -0.077951908
0.1074962 -0.55250496 -0.068904877
-0.29089713 -0.52925444 -0.067686319
-0.26672813 -0.52786583 -0.077179909
-0.24309792 -0.5273062 -0.08100605
0.083719157 -0.52775288 -0.077952027
0.1074962 -0.52907616 -0.068904877
-0.29089844 -0.50581825 -0.06767118
-0.26672813 -0.50450069 -0.077180028
-0.24309792 -0.5039705 -0.08100605
0.083719157 -0.50439376 -0.077951908
0.1074962 -0.5056473 -0.068904996
-0.29089844 -0.48237991 -0.06767118
-0.26672813 -0.48113555 -0.077180147
-0.24309792 -0.48063487 -0.08100605
0.083719157 -0.48103446 -0.077952027
0.1074962 -0.4822185 -0.068904996
-0.29089844 -0.45894158 -0.06767118
-0.26672813 -0.45777047 -0.077179909
-0.24309792 -0.45729911 -0.08100605
0.083719157 -0.45767534 -0.077951908
0.1074962 -0.45878965 -0.068905115
-0.29089844 -0.4355033 -0.067671299
-0.26672813 -0.43440533 -0.07717979
-0.24309792 -0.43396354 -0.08100605
0.083719157 -0.4343161 -0.077952027
0.1074962 -0.43536085 -0.068904996
-0.29089844 -0.41206497 -0.06767118
-0.26672813 -0.41104025 -0.077179909
-0.24309792 -0.4106279 -0.08100605
0.083719157 -0.41095698 -0.077951908
0.1074962 -0.41193193 -0.068904996
-0.29089844 -0.38862664 -0.067671299
-0.26672813 -0.38767511 -0.077179909
-0.24309792 -0.38729209 -0.08100605
0.083719157 -0.3875978 -0.077952027
0.1074962 -0.38850319 -0.068904877
-0.29089844 -0.36518824 -0.06767118
-0.26672813 -0.36430991 -0.077179909
-0.24309792 -0.36395645 -0.081006169
0.083719157 -0.36423862 -0.077951908
0.1074962 -0.36507434 -0.068904877
-0.29089844 -0.34174997 -0.067671299
-0.26672813 -0.34094471 -0.077179909
-0.24309792 -0.34062076 -0.08100605
0.083719157 -0.34087938 -0.077952027
0.1074962 -0.34164548 -0.068904996
-0.29089844 -0.31831157 -0.06767118
-0.26672813 -0.31757966 -0.077180028
-0.24309792 -0.31728518 -0.08100605
0.083719157 -0.3175202 -0.077952027
0.1074962 -0.31821662 -0.068904877
-0.29089844 -0.29487321 -0.067671299
-0.26672813 -0.29421452 -0.077179909
-0.24309792 -0.2939494 -0.08100605
0.083719157 -0.29416108 -0.077951908
0.1074962 -0.29478779 -0.068904877
-0.29089844 -0.27143499 -0.067671299
-0.26672813 -0.27084929 -0.077180028
-0.24309792 -0.27061373 -0.08100605
0.083719157 -0.27080184 -0.077952027
0.1074962 -0.27135897 -0.068904996
-0.29089844 -0.24799661 -0.067671299
-0.26672813 -0.24748424 -0.077180028
-0.24309792 -0.24727806 -0.08100605
0.083719157 -0.24744271 -0.077951908
0.1074962 -0.24793014 -0.068904996
-0.29089844 -0.22455825 -0.067671299
-0.26672813 -0.2241191 -0.077180028
-0.24309792 -0.2239425 -0.08100605
0.083719157 -0.22408342 -0.077952027
0.1074962 -0.22450143 -0.068904877
-0.29089844 -0.20111991 -0.067671299
-0.26672813 -0.20075393 -0.077180028
-0.24309792 -0.20060673 -0.08100605
0.083719157 -0.20072426 -0.077951908
0.1074962 -0.20107251 -0.068904877
-0.29089844 -0.17768168 -0.06767118
-0.26672813 -0.17738876 -0.077180028
-0.24309792 -0.17727107 -0.08100605
0.083719157 -0.17736509 -0.077952027
0.1074962 -0.1776437 -0.068904996
-0.29089844 -0.15424335 -0.067671061
-0.26672813 -0.1540238 -0.077179909
-0.24309792 -0.1539354 -0.08100605
0.083719157 -0.15400591 -0.077951908
0.1074962 -0.15421483 -0.068904877
-0.29089844 -0.13080502 -0.06767118
-0.26672813 -0.13065863 -0.077179909
-0.24309792 -0.13059962 -0.08100605
0.083719157 -0.13064665 -0.077952027
0.1074962 -0.13078594 -0.068904877
-0.29089844 -0.10736663 -0.067671061
-0.26672813 -0.10729341 -0.077179909
-0.24309792 -0.10726396 -0.08100605
0.083719157 -0.10728747 -0.077951908
0.1074962 -0.10735712 -0.068904996
0.78640354 -0.10734199 -0.070867658
0.80999017 -0.10734691 -0.070244074
-0.29089844 -0.083928406 -0.06767118
-0.26672813 -0.083928354 -0.077179909
-0.24309792 -0.083928294 -0.08100605
0.1074962 -0.083928294 -0.068904996
0.78535211 -0.083928354 -0.074770331
0.80827367 -0.083928354 -0.076437593
0.083719157 -0.083928242 -0.077952027
0.83368599 -0.083928242 -0.069270372
-0.29089844 -0.060490016 -0.06767118
-0.26672813 -0.060563236 -0.077179909
-0.24309792 -0.060592629 -0.08100605
0.083719157 -0.060569126 -0.077951908
0.1074962 -0.060499419 -0.068905115
0.78495181 -0.060556047 -0.076255918
0.80677748 -0.060599118 -0.081836581
0.83103216 -0.060573988 -0.078587413
-0.29089844 -0.037051737 -0.06767118
-0.26672813 -0.037198067 -0.077179909
-0.24309792 -0.037256859 -0.08100605
0.083719157 -0.037209846 -0.077952027
0.1074962 -0.037070703 -0.068904877
0.78466213 -0.037200443 -0.077331305
0.85726786 -0.037068054 -0.068737507
-0.29089713 -0.013613723 -0.067686439
-0.26672813 -0.013832845 -0.077179909
-0.24309792 -0.013921358 -0.08100605
0.083719157 -0.013850734 -0.077951908
0.1074962 -0.013641827 -0.068904877
0.78502536 -0.013805181 -0.075983167
-0.29089713 0.0098245516 -0.067686439
-0.26672813 0.0095322132 -0.077180028
-0.24309792 0.0094143078 -0.08100605
0.083719157 0.0095084384 -0.077952027
0.1074962 0.0097870007 -0.068904996
0.78541338 0.009613432 -0.074542761
-0.29089713 0.033262782 -0.067686558
-0.2667293 0.032897927 -0.077164888
-0.24309792 0.032750078 -0.08100605
0.083719157 0.03286761 -0.077951908
0.1074962 0.033215821 -0.068904996
0.78636265 0.033134446 -0.071019888
0.87962043 0.03308408 -0.07232666
-0.29089713 0.056700945 -0.067686319
-0.2667293 0.056263208 -0.077164769
-0.24309792 0.05608575 -0.08100605
0.083719738 0.056227535 -0.077936888
0.1074962 0.056644693 -0.068904996
0.78757691 0.056755155 -0.066512704
-0.29089585 0.08013837 -0.067701697
-0.26672697 0.079626754 -0.077195048
-0.24309583 0.079419792 -0.08103621
0.083719738 0.079586759 -0.077936888
0.1074962 0.08007358 -0.068904996
-0.29089713 0.10357741 -0.067686439
-0.26672813 0.10299279 -0.077180028
-0.24309686 0.10275622 -0.08102119
0.083719738 0.10294609 -0.077936888
0.1074962 0.10350241 -0.068905115
-0.29089713 0.12701558 -0.067686319
-0.26672813 0.12635796 -0.077180028
-0.24309686 0.12609176 -0.08102119
0.083719738 0.12630543 -0.077936888
0.1074962 0.12693112 -0.068904877
0.90432036 0.12698601 -0.068112969
-0.29089844 0.15045504 -0.06767118
-0.26672697 0.14972188 -0.077195048
-0.24309686 0.14942738 -0.08102119
0.083719738 0.14966482 -0.077936888
0.1074962 0.15035994 -0.068904877
0.80647218 0.1492797 -0.082938075
0.90146792 0.14970788 -0.077376723
-0.29089844 0.17389332 -0.06767118
-0.26672697 0.17308684 -0.077195168
-0.24309686 0.17276295 -0.08102119
0.083719738 0.17302404 -0.077936769
0.1074962 0.17378883 -0.068904877
0.80673146 0.17267977 -0.082002521
0.89945364 0.17251755 -0.083918333
-0.29089844 0.19733159 -0.067671299
-0.26672813 0.19645329 -0.07717979
-0.24309686 0.19609849 -0.08102119
0.083719738 0.19638331 -0.077936888
0.1074962 0.19721763 -0.068904877
0.80697834 0.19609012 -0.08111167
-0.29089713 0.22076847 -0.067686439
-0.26672813 0.2198184 -0.07717979
-0.24309686 0.2194341 -0.08102119
0.083719738 0.2197427 -0.077936888
0.1074962 0.22064652 -0.068904996
0.8074013 0.21957763 -0.079585433
-0.29089713 0.24420677 -0.067686439
-0.26672813 0.24318348 -0.077180028
-0.24309686 0.24276961 -0.08102119
0.083719738 0.24310197 -0.077936888
0.1074962 0.24407534 -0.068905115
0.80725467 0.24286725 -0.080114841
-0.29089713 0.26764488 -0.067686319
-0.26672813 0.26654875 -0.07717979
-0.24309686 0.26610518 -0.08102119
0.083719738 0.26646131 -0.077936769
0.1074962 0.26750422 -0.068905115
0.80706215 0.26612955 -0.080809712
-0.29089713 0.29108316 -0.067686439
-0.26672813 0.28991383 -0.077179909
-0.24309686 0.28944069 -0.08102107
0.083719738 0.28982061 -0.077936769
0.1074962 0.29093295 -0.068904877
0.80696583 0.28942388 -0.081157088
-0.29089713 0.31452143 -0.067686439
-0.26672813 0.31327891 -0.077180028
-0.24309686 0.31277633 -0.08102119
0.083719738 0.31317979 -0.077936888
0.1074962 0.31436175 -0.068904996
0.80660176 0.31258655 -0.082470536
0.89945829 0.31239903 -0.083903313
-0.29089713 0.33795953 -0.067686319
-0.26672813 0.33664417 -0.077179909
-0.24309686 0.3361119 -0.08102119
0.083719738 0.33653921 -0.077936888
0.1074962 0.33779061 -0.068904877
0.90434384 0.33791089 -0.068036795
-0.29089713 0.3613978 -0.067686439
-0.26672813 0.36000925 -0.077180028
-0.24309792 0.35944945 -0.08100605
0.083719738 0.35989839 -0.077936769
0.1074962 0.36121958 -0.068904877
-0.29089713 0.38483608 -0.067686439
-0.26672813 0.38337433 -0.077180028
-0.24309792 0.38278538 -0.08100605
0.083719738 0.38325787 -0.077936769
0.1074962 0.38464844 -0.068904877
0.78675604 0.38454759 -0.069559574
-0.29089713 0.40827417 -0.0676862
-0.26672813 0.40673953 -0.077180028
-0.24309686 0.40611857 -0.08102107
0.083719738 0.40661711 -0.077936888
0.1074962 0.4080773 -0.068904996
0.78529084 0.40709221 -0.074997902
-0.29089713 0.43171251 -0.067686319
-0.26672813 0.43010449 -0.07717979
-0.24309686 0.42945415 -0.08102119
0.083719738 0.42997658 -0.077936888
0.1074962 0.43150622 -0.068904996
0.78472733 0.43012005 -0.077088952
-0.29089713 0.45515072 -0.067686439
-0.26672813 0.45346969 -0.077179909
-0.24309686 0.45278978 -0.08102119
0.083719738 0.4533357 -0.077936769
0.1074962 0.45493484 -0.068904877
0.78509068 0.4537245 -0.075740695
0.80683601 0.45268279 -0.081625223
0.83053267 0.45290995 -0.080341339
-0.26672813 0.47683489 -0.07717979
-0.24309686 0.47612536 -0.08102107
0.083719738 0.47669488 -0.077936888
0.80959821 0.47785497 -0.071658134
-0.29089713 0.47858864 -0.067686439
0.1074962 0.47836375 -0.068904877
0.78663301 0.47815841 -0.070015788
-0.29089713 0.50202686 -0.067686439
-0.26672813 0.50019991 -0.077179909
-0.24309686 0.49946088 -0.08102119
0.083719738 0.50005436 -0.077936888
0.1074962 0.50179255 -0.068904877
-0.29089713 0.52546519 -0.067686439
-0.26672813 0.52356517 -0.07717979
-0.24309686 0.52279639 -0.08102107
0.083719738 0.52341366 -0.077936888
0.1074962 0.52522141 -0.068904877
-0.29089713 0.54890347 -0.067686558
-0.26672813 0.54693031 -0.077179909
-0.24309792 0.54613513 -0.08100605
0.083719738 0.54677302 -0.077936769
0.1074962 0.54865021 -0.068904996
-0.29089713 0.57234162 -0.067686439
-0.26672813 0.57029533 -0.077180028
-0.24309792 0.5694707 -0.08100605
0.083719738 0.5701322 -0.077936888
0.1074962 0.57207912 -0.068904996
-0.26687393 0.59408337 -0.07528615
-0.2432204 0.59320116 -0.079237938
-0.21962838 0.59232122 -0.083179593
0.08379668 0.59393781 -0.075937748
0.10760248 0.59602135 -0.066604137
-0.2440809 0.61941868 -0.066817522
-0.22034821 0.61833948 -0.071490765
-0.19668822 0.61726344 -0.07615006
-0.17310134 0.61619443 -0.080779433
-0.0097515751 0.61582828 -0.082364917
0.013617828 0.6164909 -0.079494953
0.037031196 0.61715168 -0.076634526
0.060510732 0.6179781 -0.073055506
-0.29245088 -0.64983535 -0.049337864
-0.26772666 -0.64708805 -0.064208388
0.084249318 -0.64709365 -0.064177871
0.10826834 -0.6493088 -0.052188039
-0.31539783 -0.62504363 -0.056185007
0.13143693 -0.62447333 -0.059405565
0.15552092 -0.62614673 -0.049954534
-0.31534961 -0.60142851 -0.056706905
0.13141464 -0.60090142 -0.059818983
0.15547727 -0.60245198 -0.050663352
-0.31534961 -0.57790577 -0.056706905
0.13141464 -0.57740271 -0.059818983
0.15547727 -0.57888269 -0.050663471
-0.31534961 -0.55438304 -0.056706786
0.13141464 -0.55390394 -0.059818983
0.15547727 -0.55531353 -0.050663471
-0.31534961 -0.53086019 -0.056706905
0.13141464 -0.5304051 -0.059818983
0.15547727 -0.53174418 -0.050663471
-0.31534961 -0.50733757 -0.056706905
0.13141464 -0.50690639 -0.059818983
0.15547727 -0.50817496 -0.050663471
-0.31534961 -0.48381484 -0.056706786
0.13141464 -0.48340756 -0.059818983
0.15547727 -0.48460561 -0.050663471
-0.31534961 -0.46029216 -0.056706905
0.13141464 -0.45990872 -0.059818983
0.15547727 -0.46103638 -0.050663471
-0.31534961 -0.43676925 -0.056706905
0.13141464 -0.43641007 -0.059818983
0.15547727 -0.43746722 -0.050663471
-0.31534961 -0.41324657 -0.056706905
0.13141464 -0.41291124 -0.059818983
0.15547727 -0.41389787 -0.050663471
-0.31534961 -0.3897239 -0.056706786
0.13141464 -0.3894124 -0.059818983
0.15547727 -0.39032871 -0.050663471
-0.31535104 -0.36620259 -0.056691289
0.13141464 -0.36591363 -0.059818983
0.15547727 -0.36675936 -0.050663471
-0.31535104 -0.34267968 -0.056691408
0.13141464 -0.34241486 -0.059818983
0.15547727 -0.34319013 -0.050663471
-0.31535104 -0.3191568 -0.056691527
0.13141464 -0.31891614 -0.059819102
0.15547727 -0.31962097 -0.050663471
-0.31535104 -0.295634 -0.056691527
0.13141464 -0.29541731 -0.059819102
0.15547727 -0.29605162 -0.050663471
-0.31535104 -0.27211112 -0.056691527
0.13141464 -0.27191848 -0.059818983
0.15547727 -0.2724824 -0.050663471
-0.31535104 -0.24858828 -0.056691408
0.13141464 -0.24841982 -0.059819102
0.15547727 -0.24891303 -0.050663471
-0.31535104 -0.22506538 -0.056691527
0.13141464 -0.22492099 -0.059818983
0.15547727 -0.22534382 -0.050663471
-0.31535104 -0.20154259 -0.056691289
0.13141464 -0.20142214 -0.059818983
0.15547727 -0.20177467 -0.050663471
-0.31535104 -0.17801969 -0.056691527
0.13141464 -0.17792344 -0.059819102
0.15547727 -0.17820536 -0.050663471
0.74514735 -0.17825852 -0.048936725
0.76814485 -0.17818969 -0.05117178
-0.31535104 -0.15449694 -0.056691289
0.13141464 -0.15442464 -0.059818983
0.15547727 -0.15463614 -0.050663471
0.74450517 -0.15461755 -0.051464438
0.76641512 -0.15447176 -0.057780623
0.79027689 -0.15450154 -0.056491852
-0.31535104 -0.13097404 -0.056691408
0.13141464 -0.13092585 -0.059818983
0.15547727 -0.13106677 -0.050663471
0.7443918 -0.13104764 -0.051910996
0.76520073 -0.13088575 -0.062420607
0.7880497 -0.13084976 -0.064758062
0.8131721 -0.13094217 -0.058761835
-0.31535104 -0.10745125 -0.056691408
0.13141464 -0.1074271 -0.059818983
0.15547727 -0.10749756 -0.050663471
0.74483788 -0.10750151 -0.050154805
0.76473677 -0.10739349 -0.06419313
0.13141464 -0.083928294 -0.059819102
0.15547727 -0.083928294 -0.050663471
0.76470482 -0.083928354 -0.064315319
-0.31535244 -0.083928242 -0.056676149
-0.31535104 -0.060405344 -0.056691527
0.13141464 -0.060429603 -0.059819102
0.15547727 -0.060359031 -0.050663471
0.76506472 -0.060453542 -0.06294024
-0.31535104 -0.036882602 -0.056691408
0.13141464 -0.036930747 -0.059819102
0.15547632 -0.036790092 -0.05067873
0.76617432 -0.03691351 -0.058700562
-0.31535104 -0.013359703 -0.056691527
0.13141464 -0.013431944 -0.059818983
0.15547632 -0.013220884 -0.050678849
0.76803195 -0.013242222 -0.05160296
-0.31535104 0.010163091 -0.056691408
0.13141464 0.0100668 -0.059819102
0.15547632 0.010348275 -0.050678849
-0.31535104 0.033685997 -0.056691527
0.13141464 0.033565544 -0.059819102
0.15547632 0.033917435 -0.050678849
-0.31535104 0.057208732 -0.056691408
0.13141464 0.057064399 -0.059819102
0.15547632 0.057486475 -0.050678849
-0.31534821 0.080730006 -0.056722164
0.13141464 0.080563098 -0.059819102
0.15547632 0.081055686 -0.05067873
0.78926897 0.080540881 -0.06023252
-0.31534961 0.10425356 -0.056706667
0.13141464 0.10406195 -0.059819102
0.15547632 0.10462473 -0.05067873
0.90915287 0.10451764 -0.052418947
-0.31534961 0.12777635 -0.056706905
0.13141464 0.1275607 -0.059819102
0.15547632 0.12819394 -0.05067873
-0.31534961 0.15129904 -0.056706786
0.13141464 0.15105945 -0.059819102
0.15547632 0.15176299 -0.05067873
-0.31534961 0.17482178 -0.056706667
0.13141464 0.17455818 -0.059819102
0.15547632 0.1753322 -0.050678968
-0.31535104 0.19834591 -0.056691527
0.13141464 0.1980571 -0.059819102
0.15547632 0.19890146 -0.050678849
-0.31534961 0.22186731 -0.056706905
0.13141464 0.22155578 -0.059819102
0.15547632 0.22247057 -0.050678849
-0.31534961 0.24538989 -0.056706905
0.13141464 0.2450545 -0.059819102
0.15547727 0.24604131 -0.050663471
-0.31534961 0.26891261 -0.056706786
0.13141464 0.26855338 -0.059819102
0.15547727 0.26961064 -0.050663471
-0.31534821 0.2924335 -0.056722045
0.13141464 0.29205215 -0.059819102
0.15547727 0.29317969 -0.050663471
-0.31534821 0.31595612 -0.056722045
0.13141464 0.31555086 -0.059819102
0.15547727 0.3167491 -0.050663471
-0.31534821 0.33947867 -0.056722045
0.13141464 0.33904976 -0.059819102
0.15547727 0.34031838 -0.050663471
-0.31534821 0.36300129 -0.056722164
0.13141464 0.36254847 -0.059819102
0.15547727 0.36388743 -0.050663471
0.7892071 0.36245447 -0.060462236
-0.31534821 0.38652408 -0.056722045
0.13141464 0.38604724 -0.059819102
0.15547727 0.38745683 -0.050663471
-0.31534961 0.4100492 -0.056706786
0.13141464 0.40954608 -0.059819102
0.15547727 0.41102618 -0.050663471
0.76818526 0.41096878 -0.051017642
0.88348126 0.409603 -0.059466839
-0.31534961 0.43357182 -0.056706905
0.13141464 0.43304485 -0.059819102
0.15547727 0.43459547 -0.050663471
0.76572931 0.43294626 -0.060400844
-0.31534961 0.45709455 -0.056706667
0.13141464 0.45654356 -0.059819102
0.15547727 0.45816457 -0.050663471
0.76469684 0.45574212 -0.064345717
-0.31534961 0.48061746 -0.056706905
0.13141464 0.48004246 -0.059819102
0.15547727 0.4817338 -0.050663471
0.74432528 0.48145509 -0.052172542
0.76499271 0.47941476 -0.063215494
-0.31534961 0.50414002 -0.056706905
0.13141464 0.50354117 -0.059819102
0.15547727 0.50530314 -0.050663471
0.74498284 0.50551081 -0.049584508
0.76672029 0.5041579 -0.056614757
0.78989649 0.50390965 -0.057903409
-0.31534961 0.52766275 -0.056706667
0.13141464 0.52703995 -0.059819102
0.15547727 0.52887231 -0.050663471
0.13141464 0.55053872 -0.059818983
-0.31534961 0.55118549 -0.056706786
0.15547727 0.55244166 -0.050663471
-0.31534961 0.57470834 -0.056706905
0.13141464 0.57403737 -0.059818983
0.15547727 0.57601094 -0.050663471
-0.31567606 0.59902 -0.053172827
-0.29110375 0.59632456 -0.065246344
0.13157822 0.59821391 -0.056783319
-0.26790431 0.62055427 -0.061900496
0.084334619 0.62054008 -0.061961889
0.10833305 0.62312096 -0.050786734
-0.29254231 0.62370485 -0.048257947
-0.31761038 -0.65299559 -0.032233119
0.13254143 -0.65176225 -0.038908482
-0.36496881 -0.62917948 -0.032825589
0.20417267 -0.62960207 -0.030438662
-0.34007505 -0.62707901 -0.04468894
0.17976631 -0.62786067 -0.040274262
-0.36478746 -0.60518801 -0.034508109
-0.33997908 -0.60330141 -0.04564774
0.17968467 -0.60401189 -0.041452646
0.20403694 -0.60557848 -0.032202005
-0.36478746 -0.58149427 -0.034508109
-0.33997908 -0.5796935 -0.045647621
0.17968467 -0.58037168 -0.041452646
0.20403694 -0.58186716 -0.032202005
-0.36478746 -0.55780071 -0.034508109
-0.33997908 -0.55608571 -0.045647502
0.17968358 -0.55672908 -0.041468263
0.20403694 -0.55815578 -0.032202005
-0.36478746 -0.53410709 -0.034508228
-0.33997908 -0.5324778 -0.04564774
0.17968358 -0.53308916 -0.041468143
0.20403694 -0.53444445 -0.032201886
-0.36478746 -0.51041347 -0.034508228
-0.33997908 -0.50886989 -0.045647621
0.17968467 -0.50945121 -0.041452646
0.20403694 -0.51073307 -0.032201886
-0.36478746 -0.48671979 -0.034508228
-0.33997908 -0.4852621 -0.045647502
0.17968358 -0.48580909 -0.041468143
0.20403694 -0.48702168 -0.032202005
-0.36478746 -0.46302629 -0.03450799
-0.33997908 -0.46165419 -0.04564774
0.17968358 -0.46216899 -0.041468263
0.20403694 -0.4633103 -0.032201886
-0.36478746 -0.43933266 -0.03450799
-0.33997908 -0.4380464 -0.04564774
0.17968358 -0.4385289 -0.041468382
0.20403694 -0.43959898 -0.032201886
-0.36478746 -0.41563904 -0.034508109
-0.33997908 -0.41443849 -0.045647502
0.17968358 -0.41488892 -0.041468143
0.20403694 -0.41588759 -0.032201886
0.20403694 -0.39217615 -0.032202005
-0.36478746 -0.39194536 -0.03450799
-0.33997908 -0.3908307 -0.045647502
0.17968358 -0.39124882 -0.041468263
-0.36478746 -0.36825174 -0.034508109
-0.33997908 -0.36722273 -0.04564774
0.17968358 -0.36760885 -0.041468143
0.20403694 -0.36846477 -0.032202005
-0.36478746 -0.34455818 -0.034508109
-0.33997908 -0.34361482 -0.045647502
0.17968358 -0.34396881 -0.041468143
0.20403694 -0.34475338 -0.032202005
-0.36478746 -0.32086456 -0.034508109
-0.33997908 -0.32000703 -0.045647502
0.17968358 -0.32032877 -0.041468143
0.20403694 -0.32104206 -0.032202005
-0.36478746 -0.29717088 -0.034508109
-0.33997908 -0.29639912 -0.04564774
0.17968358 -0.29668868 -0.041468143
0.20403694 -0.29733068 -0.032202005
-0.36478746 -0.27347723 -0.034508109
-0.33997908 -0.27279124 -0.045647502
0.17968358 -0.27304864 -0.041468263
0.20403694 -0.27361929 -0.032202005
-0.36478746 -0.24978365 -0.034508228
-0.33998063 -0.24918416 -0.045632243
0.17968358 -0.24940863 -0.041468143
0.20403694 -0.24990793 -0.032202005
-0.36478746 -0.22609001 -0.03450799
-0.33998063 -0.2255763 -0.045632243
0.17968358 -0.22576855 -0.041468143
0.20403694 -0.22619657 -0.032201886
0.72541451 -0.22614552 -0.033308625
0.74902236 -0.22612818 -0.033682704
-0.36478746 -0.20239647 -0.034508109
-0.33998063 -0.20196822 -0.045632243
0.17968358 -0.20212856 -0.041468024
0.20403694 -0.2024852 -0.032201886
0.72424936 -0.2022604 -0.03803885
0.74658024 -0.20205815 -0.043296218
0.77104175 -0.20218103 -0.040103555
-0.36478746 -0.17870282 -0.034508109
-0.33998063 -0.17836033 -0.045632124
0.17968358 -0.17848851 -0.041468143
0.20403694 -0.17877382 -0.032201886
0.72380567 -0.17853865 -0.039839745
0.79350698 -0.17839503 -0.044503331
-0.36478746 -0.15500927 -0.034508109
-0.33998063 -0.15475222 -0.045632124
0.17968358 -0.1548484 -0.041468263
0.20403694 -0.1550625 -0.032202005
0.72431827 -0.15493411 -0.037759066
-0.36478916 -0.13131583 -0.034492612
-0.33998063 -0.13114421 -0.045632243
0.17968358 -0.13120845 -0.041468143
0.20403694 -0.13135111 -0.032201886
0.7256757 -0.13135041 -0.032248616
-0.36478916 -0.10762206 -0.034492493
-0.33998063 -0.10753636 -0.045632243
0.17968358 -0.10756835 -0.041468263
0.20403694 -0.10763963 -0.032202005
0.84302425 -0.10760666 -0.036484599
-0.33998063 -0.083928354 -0.045632243
0.17968358 -0.083928294 -0.041468024
0.20403694 -0.083928294 -0.032202005
0.74634826 -0.083928294 -0.044209242
-0.36478916 -0.083928242 -0.034492612
-0.36478916 -0.060234584 -0.034492612
-0.33998063 -0.06032034 -0.045632124
0.17968358 -0.060288299 -0.041468143
0.20403694 -0.060216919 -0.032202005
0.7488997 -0.060231991 -0.034165502
0.86745393 -0.060230155 -0.033916473
-0.36478916 -0.036540873 -0.034492612
-0.33998063 -0.036712334 -0.045632124
0.17968358 -0.036648247 -0.041468024
0.20403694 -0.036505535 -0.032202005
-0.36478579 -0.012847871 -0.034523845
-0.33998063 -0.013104327 -0.045632243
0.17968358 -0.013008192 -0.041468143
0.20403694 -0.012794152 -0.032202005
-0.36478579 0.010845736 -0.034523845
-0.33998063 0.010503523 -0.045632243
0.17968358 0.010631911 -0.041468263
0.20403694 0.010917172 -0.032202005
0.88710594 0.010449432 -0.047393322
-0.36478579 0.034539178 -0.034523726
-0.33998063 0.034111694 -0.045632243
0.17968358 0.034271859 -0.041468143
0.20403694 0.034628555 -0.032202005
-0.36478579 0.058232665 -0.034523845
-0.33998218 0.057720304 -0.045616627
0.17968358 0.057911962 -0.041468263
0.20403694 0.058339939 -0.032202005
-0.36478746 0.081927031 -0.034508109
-0.33997908 0.081326738 -0.045647621
0.17968358 0.081551909 -0.041468143
0.20403694 0.082051262 -0.032201886
-0.36478746 0.10562058 -0.034508109
-0.33997908 0.10493463 -0.045647502
0.17968358 0.10519202 -0.041468143
0.20403694 0.10576265 -0.032201886
-0.36478746 0.12931429 -0.034508109
-0.33997908 0.12854253 -0.04564774
0.17968358 0.12883203 -0.041468024
0.20403694 0.12947401 -0.032201886
-0.36478746 0.15300789 -0.034508228
-0.33997753 0.1521492 -0.045663118
0.17968358 0.15247223 -0.041468143
0.20403694 0.1531854 -0.032201886
-0.36478746 0.1767015 -0.034508228
-0.33997908 0.17575814 -0.045647621
0.17968358 0.17611222 -0.041468143
0.20403574 0.17689554 -0.032217503
-0.36478746 0.20039515 -0.034508228
-0.33998063 0.19936748 -0.045632243
0.17968358 0.19975217 -0.041468143
0.20403574 0.2006066 -0.032217503
-0.36478746 0.22408874 -0.034508228
-0.33997753 0.22297241 -0.045663118
0.17968358 0.22339217 -0.041468143
0.20403574 0.22431798 -0.032217503
-0.36478746 0.24778225 -0.03450799
-0.33997753 0.24658014 -0.045663118
0.17968358 0.24703227 -0.041468143
0.20403574 0.24802937 -0.032217503
-0.36478746 0.27147603 -0.03450799
-0.33997753 0.27018785 -0.045663118
0.17968358 0.27067232 -0.041468143
0.20403574 0.27174044 -0.032217503
-0.36478746 0.29516965 -0.03450799
-0.33997753 0.29379559 -0.045663118
0.17968358 0.29431236 -0.041468263
0.20403574 0.29545182 -0.032217503
-0.36478746 0.31886321 -0.03450799
-0.33997753 0.3174035 -0.045662999
0.17968358 0.31795228 -0.041468143
0.20403574 0.31916291 -0.032217383
-0.36478746 0.34255683 -0.034508109
-0.33997753 0.34101117 -0.045662999
0.17968358 0.34159249 -0.041468143
0.20403574 0.34287429 -0.032217503
-0.36478579 0.36624813 -0.034523845
-0.33997753 0.3646189 -0.045663118
0.17968358 0.36523247 -0.041468143
0.20403574 0.36658549 -0.032217503
0.91138554 0.36469126 -0.045168281
-0.36478579 0.38994163 -0.034523606
-0.33997753 0.38822663 -0.045663118
0.17968358 0.3888725 -0.041468143
0.20403574 0.39029676 -0.032217503
-0.36478579 0.41363531 -0.034523606
-0.33997753 0.4118343 -0.045663118
0.17968358 0.41251266 -0.041468024
0.20403574 0.41400802 -0.032217622
-0.36478746 0.4373315 -0.034508109
-0.33997908 0.43544477 -0.04564774
0.17968358 0.43615264 -0.041468143
0.20403574 0.43771923 -0.032217383
0.7482475 0.43695462 -0.03673327
-0.33997908 0.45905268 -0.045647502
0.17968358 0.45979267 -0.041468143
0.74534726 0.45860952 -0.048149824
-0.36478746 0.46102506 -0.034508228
0.20403574 0.46143043 -0.032217503
-0.36478746 0.48471856 -0.03450799
-0.33997908 0.48266071 -0.04564774
0.17968358 0.48343265 -0.041468143
0.20403574 0.48514175 -0.032217503
0.72431445 0.48411518 -0.037774682
0.84399092 0.48498046 -0.033090353
-0.36478746 0.50841218 -0.03450799
-0.33997908 0.50626838 -0.04564774
0.17968358 0.50707281 -0.041468143
0.20403574 0.50885302 -0.032217622
0.72397006 0.5075146 -0.039172173
-0.36478746 0.5321058 -0.03450799
-0.33997908 0.52987629 -0.045647502
0.17968358 0.53071278 -0.041468143
0.72556424 0.5324676 -0.032700658
0.7478013 0.53130907 -0.038489223
0.77158225 0.53139919 -0.038038492
0.20403574 0.53256434 -0.032217503
-0.36478746 0.55579937 -0.034508109
-0.33997908 0.55348426 -0.045647621
0.17968358 0.55435282 -0.041468143
0.20403574 0.55627543 -0.032217503
-0.36478746 0.57949299 -0.034508228
-0.33997908 0.57709199 -0.04564774
0.17968358 0.5779928 -0.041468382
0.20403574 0.57998675 -0.032217503
-0.34046093 0.60177481 -0.04083252
0.15572619 0.60048252 -0.046621203
0.18003534 0.60276634 -0.03639102
-0.31744629 0.6269955 -0.034009814
0.13250965 0.62572801 -0.039498329
0.15722598 -0.6548366 -0.022267699
-0.39006132 -0.63130462 -0.020823002
0.22914225 -0.63220441 -0.015740395
-0.41494888 -0.60900241 -0.011984706
-0.38977677 -0.60708833 -0.023287296
0.22885695 -0.60779577 -0.019109726
-0.41494888 -0.58513534 -0.011984706
-0.38977677 -0.58330834 -0.023287296
0.22885695 -0.58398366 -0.019109607
-0.41494888 -0.56126845 -0.011984587
-0.38977677 -0.55952835 -0.023287416
0.22885695 -0.56017143 -0.019109607
-0.41494888 -0.53740138 -0.011984706
-0.38977677 -0.53574836 -0.023287416
0.22885695 -0.53635937 -0.019109607
-0.41494888 -0.51353443 -0.011984468
-0.38977677 -0.51196831 -0.023287296
0.22885695 -0.51254714 -0.019109726
-0.41494888 -0.48966742 -0.011984587
-0.38977677 -0.48818833 -0.023287416
0.22885695 -0.48873496 -0.019109726
-0.41494888 -0.46580034 -0.011984706
0.22885695 -0.46492285 -0.019109607
-0.38977677 -0.46440834 -0.023287416
-0.41494888 -0.44193339 -0.011984468
-0.38977677 -0.44062829 -0.023287296
0.22885695 -0.44111073 -0.019109607
-0.41494888 -0.41806632 -0.011984587
-0.38977677 -0.41684836 -0.023287296
0.22885695 -0.4172985 -0.019109726
-0.41494888 -0.39419937 -0.011984706
-0.38977677 -0.39306837 -0.023287416
0.22885695 -0.39348632 -0.019109607
-0.41494888 -0.37033242 -0.011984468
-0.38977677 -0.36928833 -0.023287296
0.22885695 -0.36967421 -0.019109607
-0.41494888 -0.34646535 -0.011984587
-0.38977677 -0.34550834 -0.023287296
0.22885695 -0.34586215 -0.019109607
-0.41494888 -0.32259843 -0.011984587
-0.38977677 -0.32172835 -0.023287416
0.22885695 -0.32204989 -0.019109607
-0.41494888 -0.29873139 -0.011984587
-0.38977677 -0.2979483 -0.023287416
0.22885695 -0.29823768 -0.019109726
-0.41494888 -0.27486435 -0.011984706
-0.38977677 -0.27416831 -0.023287296
0.22885695 -0.2744256 -0.019109726
0.70615625 -0.27469811 -0.014684081
-0.41494888 -0.25099739 -0.011984587
-0.38977677 -0.25038838 -0.023287296
0.22885695 -0.25061348 -0.019109607
0.68248129 -0.25089186 -0.01394248
0.70424533 -0.25042051 -0.022691369
0.72735417 -0.25027254 -0.025434852
0.75264049 -0.2505956 -0.019439936
-0.41494888 -0.22713032 -0.011984587
-0.38977677 -0.2266084 -0.023287416
0.22885695 -0.22680131 -0.019109607
0.68282759 -0.22710921 -0.012442708
0.70340014 -0.22647221 -0.026233315
-0.41494888 -0.20326327 -0.011984706
-0.38977677 -0.20282833 -0.023287296
0.22885695 -0.20298904 -0.019109726
0.70342255 -0.20271859 -0.026139379
-0.41494888 -0.17939638 -0.011984587
-0.38977677 -0.17904833 -0.023287296
0.22885695 -0.17917693 -0.019109726
0.70438015 -0.17908399 -0.022126317
-0.41494888 -0.15552932 -0.011984587
-0.38977677 -0.15526831 -0.023287416
0.22885695 -0.15536478 -0.019109726
0.82401276 -0.15535244 -0.01964426
-0.41494888 -0.13166237 -0.011984468
-0.38977677 -0.13148837 -0.023287416
0.22885695 -0.13155267 -0.019109607
-0.41494888 -0.1077953 -0.011984587
-0.38977677 -0.10770836 -0.023287416
0.22885695 -0.10774051 -0.019109607
0.72838581 -0.10772409 -0.021247029
-0.38977677 -0.083928406 -0.023287296
0.22885695 -0.083928294 -0.019109726
-0.41494888 -0.083928242 -0.011984587
-0.41494888 -0.060061291 -0.011984468
-0.38977677 -0.060148396 -0.023287416
0.22885695 -0.060116138 -0.019109607
-0.41494888 -0.036194284 -0.011984587
-0.38977677 -0.036368337 -0.023287296
0.22885695 -0.036304034 -0.019109607
-0.41494888 -0.012327224 -0.011984706
-0.38977677 -0.012588382 -0.023287296
0.22885695 -0.012491927 -0.019109607
-0.41494888 0.011539675 -0.011984468
-0.38977677 0.011191674 -0.023287296
0.22885695 0.011320338 -0.019109607
-0.41494888 0.035406731 -0.011984587
-0.38977677 0.034971632 -0.023287416
0.22885695 0.03513255 -0.019109726
-0.41494888 0.05927369 -0.011984468
-0.38977677 0.058751643 -0.023287416
0.22885695 0.058944598 -0.019109726
-0.41494888 0.083140686 -0.011984468
-0.38977858 0.08253251 -0.023271918
0.22885695 0.082756713 -0.019109607
-0.41494888 0.10700774 -0.011984587
-0.38977677 0.10631165 -0.023287296
0.22885695 0.10656892 -0.019109607
-0.41494888 0.13087469 -0.011984468
-0.38977858 0.13009274 -0.02327168
0.22885695 0.13038118 -0.019109726
-0.41494694 0.15474047 -0.012000561
-0.38977858 0.15387291 -0.023271918
0.22885695 0.15419334 -0.019109607
-0.41494888 0.17860882 -0.011984706
-0.38977677 0.17765157 -0.023287416
0.22885695 0.17800535 -0.019109726
-0.41494694 0.20247425 -0.012000561
-0.38977858 0.20143302 -0.023271799
0.22885695 0.20181756 -0.019109607
-0.41494888 0.22634278 -0.011984587
-0.38977677 0.22521169 -0.023287296
0.22885695 0.2256297 -0.019109607
-0.41494888 0.25020963 -0.011984587
-0.38977677 0.24899162 -0.023287416
0.22885695 0.24944194 -0.019109726
-0.41494888 0.27407676 -0.011984587
-0.38977677 0.27277166 -0.023287296
0.22885695 0.2732541 -0.019109607
-0.38977677 0.29655164 -0.023287416
-0.41494888 0.29794371 -0.011984706
0.22885695 0.29706627 -0.019109607
-0.41494888 0.32181078 -0.011984468
-0.38977677 0.32033163 -0.023287296
0.22885695 0.32087827 -0.019109607
-0.41494888 0.34567773 -0.011984706
-0.38977677 0.34411162 -0.023287416
0.22885695 0.34469062 -0.019109726
-0.38977677 0.36789155 -0.023287416
0.22885561 0.36850035 -0.019125342
-0.41494888 0.3695448 -0.011984706
-0.41494888 0.39341164 -0.011984587
-0.38977677 0.39167154 -0.023287416
0.22885561 0.39231235 -0.019125462
-0.41494888 0.41727883 -0.011984587
-0.38977677 0.41545153 -0.023287416
0.22885561 0.41612434 -0.019125462
-0.41494888 0.4411459 -0.011984468
-0.38977677 0.43923157 -0.023287416
0.22885561 0.43993658 -0.019125342
-0.41494888 0.46501285 -0.011984587
-0.38977677 0.46301156 -0.023287416
0.22885561 0.46374857 -0.019125342
0.72685671 0.46227396 -0.027453899
-0.41494888 0.48887992 -0.011984587
-0.38977677 0.48679149 -0.023287416
0.22885561 0.48756057 -0.019125462
0.70480001 0.48733103 -0.020367265
-0.41494888 0.51274681 -0.011984468
-0.38977677 0.51057172 -0.023287296
0.22885561 0.51137263 -0.019125581
0.68280935 0.51264358 -0.012521744
0.703318 0.50993854 -0.026577592
-0.41494888 0.53661394 -0.011984468
-0.38977677 0.53435165 -0.023287296
0.22885561 0.53518468 -0.019125581
0.68274736 0.53645265 -0.012790084
0.70391607 0.53419471 -0.024071455
-0.41494888 0.56048095 -0.011984706
-0.38977677 0.55813164 -0.023287296
0.22885561 0.55899662 -0.019125342
0.7306596 0.56047428 -0.012016296
-0.38981116 0.58197582 -0.022989631
0.22889823 0.58291715 -0.018621922
-0.3654466 0.60455209 -0.028392076
0.20450605 0.60506183 -0.026108027
-0.39063549 0.60735184 -0.015850663
-0.34282225 0.63086885 -0.017236948
0.1569702 0.62874782 -0.026421189
0.18167372 0.63190681 -0.012742996
-0.41538531 -0.63349676 -0.0084414482
0.25488719 -0.63585925 0.004901886
-0.4411324 -0.61200035 0.0057168007
0.25437319 -0.61091995 -0.00066232681
-0.4411324 -0.58799708 0.0057168007
0.25437319 -0.58696574 -0.00066244602
-0.4411324 -0.56399375 0.0057168007
0.25437319 -0.56301171 -0.00066232681
-0.4411324 -0.53999048 0.0057166815
0.25437319 -0.53905743 -0.00066244602
-0.4411324 -0.51598716 0.0057168007
0.25437319 -0.51510322 -0.00066244602
-0.4411324 -0.49198395 0.0057168007
0.25437319 -0.49114913 -0.00066232681
-0.4411324 -0.46798068 0.0057168007
0.25437319 -0.46719497 -0.00066244602
-0.4411324 -0.44397736 0.0057165623
0.25437319 -0.44324076 -0.00066244602
-0.4411324 -0.41997403 0.0057165623
0.25437319 -0.41928667 -0.00066232681
-0.4411324 -0.39597082 0.0057165623
0.25437319 -0.39533246 -0.00066244602
-0.4411324 -0.37196755 0.0057166815
0.25437319 -0.37137836 -0.00066232681
-0.4411324 -0.34796423 0.0057166815
0.25437319 -0.34742415 -0.00066256523
-0.4411324 -0.32396102 0.0057166815
0.25437319 -0.32346997 -0.00066256523
-0.4411324 -0.29995772 0.0057168007
0.25437319 -0.29951584 -0.00066232681
0.66193163 -0.29962057 0.00085020065
0.68483579 -0.29930204 -0.0037468672
0.7093997 -0.29948598 -0.0010921955
-0.4411324 -0.27595448 0.0057168007
0.25437319 -0.27556169 -0.00066256523
0.66142344 -0.2755146 -0.0014262199
0.68315971 -0.27492464 -0.011004686
0.730901 -0.27492279 -0.011036515
-0.4411324 -0.25195119 0.0057168007
0.25437319 -0.25160748 -0.00066256523
0.66196012 -0.25169581 0.00097751617
-0.4411324 -0.22794801 0.0057168007
0.25437319 -0.22765335 -0.00066232681
0.77965224 -0.22735101 -0.0072058439
-0.4411324 -0.20394467 0.0057168007
0.25437319 -0.20369913 -0.00066256523
0.68434823 -0.20349914 -0.0058580637
-0.4411324 -0.17994149 0.0057166815
0.25437319 -0.17974508 -0.00066232681
-0.4411324 -0.15593815 0.0057168007
0.25437319 -0.15579081 -0.00066244602
0.70686448 -0.15553547 -0.011716008
-0.4411324 -0.13193487 0.0057168007
0.25437319 -0.13183658 -0.00066244602
-0.4411324 -0.10793169 0.0057168007
0.25437319 -0.10788246 -0.00066232681
-0.4411324 -0.083928354 0.0057168007
0.25437319 -0.083928294 -0.00066244602
-0.4411366 -0.059924796 0.0057487488
0.25437319 -0.059974074 -0.00066244602
-0.4411366 -0.035921294 0.0057486296
0.25437319 -0.036019962 -0.00066232681
-0.4411366 -0.011917681 0.0057486296
0.25437319 -0.012065746 -0.00066244602
-0.44113448 0.012085281 0.0057327747
0.25437319 0.011888318 -0.00066232681
-0.4411324 0.036088027 0.0057166815
0.25437319 0.035842538 -0.00066244602
-0.4411324 0.060091361 0.0057168007
0.25437319 0.059796706 -0.00066244602
-0.4411324 0.084094644 0.0057168007
0.25437319 0.083750814 -0.00066232681
-0.4411324 0.10809784 0.0057166815
0.25437319 0.10770504 -0.00066244602
-0.44113448 0.13210236 0.0057327747
0.25437319 0.13165909 -0.00066232681
-0.44113031 0.1561031 0.0057007074
0.25437319 0.15561321 -0.00066256523
-0.44113448 0.18010904 0.0057326555
0.25437319 0.17956753 -0.00066256523
-0.44112822 0.20410796 0.0056847334
0.25437319 0.20352174 -0.00066232681
-0.44113448 0.22811581 0.0057327747
0.25437173 0.22747426 -0.00067830086
-0.44113448 0.25211924 0.0057326555
0.25437319 0.25143009 -0.00066244602
-0.44113448 0.27612257 0.0057326555
0.25437319 0.27538413 -0.00066232681
-0.44113448 0.30012584 0.0057327747
0.25437173 0.29933637 -0.00067842007
-0.4411324 0.32412738 0.0057166815
0.25437173 0.32329035 -0.00067830086
-0.4411324 0.34813052 0.0057165623
0.25437173 0.34724438 -0.00067830086
-0.4411324 0.37213391 0.0057166815
0.25437173 0.37119842 -0.00067842007
-0.4411324 0.39613712 0.0057168007
0.25437173 0.39515251 -0.00067830086
-0.4411324 0.4201405 0.0057168007
0.25437173 0.41910654 -0.00067830086
-0.4411324 0.44414353 0.0057165623
0.25437173 0.44306064 -0.00067842007
-0.4411324 0.46814698 0.0057166815
0.25437173 0.46701455 -0.00067830086
-0.4411324 0.49215025 0.0057168007
0.25437173 0.49096864 -0.00067830086
0.68527997 0.49075705 -0.0018239021
-0.4411324 0.51615351 0.0057168007
0.25437173 0.51492268 -0.00067853928
0.66211307 0.51537317 0.0016629696
0.83070004 0.51591671 0.00448668
-0.4411324 0.54015684 0.0057168007
0.25437173 0.53887671 -0.00067842007
0.66160464 0.53888941 -0.0006146431
-0.4411324 0.56415999 0.0057168007
0.25437173 0.56283092 -0.00067830086
0.68533874 0.56264567 -0.0015692711
0.70732486 0.56093752 -0.0097868443
-0.41503063 0.58449095 -0.011320829
0.25448349 0.58704573 0.00053167343
-0.41603005 0.61017448 -0.0032068491
0.22963566 0.60867709 -0.0099134445
-0.36847454 0.63478112 -0.00029635429
0.20673101 0.63549519 0.0027948618
-0.44207147 -0.63727403 0.012892485
0.28019556 -0.61408168 0.018006206
0.28019556 -0.58998358 0.018006086
0.28019556 -0.56588578 0.018005967
0.28019556 -0.54178786 0.018006086
0.28019556 -0.51769012 0.018006206
0.28019556 -0.49359226 0.018006086
0.28019556 -0.46949428 0.018006206
0.28019556 -0.44539636 0.018006086
0.28019556 -0.42129856 0.018005967
0.28019556 -0.3972007 0.018006086
0.28019556 -0.37310284 0.018006206
0.28019556 -0.34900504 0.018006086
0.64263022 -0.34938473 0.022490263
0.66702592 -0.34948456 0.023669839
0.28019556 -0.32490709 0.018006206
0.64082813 -0.32460862 0.014129162
0.66366434 -0.32418388 0.0086117983
0.68785632 -0.32423928 0.0093324184
0.28019556 -0.30080914 0.018006086
0.64030898 -0.3003737 0.011721015
0.28019556 -0.27671129 0.018005967
0.64112949 -0.27655864 0.015527606
0.28019556 -0.25261346 0.018006086
0.28019556 -0.22851561 0.018006206
0.66412222 -0.22817631 0.010662556
0.28019556 -0.20441765 0.018006206
0.80763662 -0.20403022 0.0079394579
0.28019556 -0.1803198 0.018006206
0.28019556 -0.1562219 0.018006086
0.28019556 -0.13212405 0.018005967
0.28019556 -0.1080262 0.018006086
0.28019556 -0.083928294 0.018006206
0.28019556 -0.05983045 0.018006206
0.28019556 -0.035732597 0.018006206
0.28019556 -0.01163464 0.018006086
0.28019556 0.012463152 0.018005967
0.28019556 0.036561005 0.018006086
0.28019556 0.060658962 0.018006206
0.28019556 0.084756806 0.018006206
0.28019556 0.10885461 0.018006206
0.28019556 0.13295268 0.018006086
0.28019556 0.15705052 0.018006086
0.28019556 0.18114837 0.018006206
0.28019398 0.20524476 0.017989993
0.28019398 0.22934239 0.017989993
0.28019556 0.25344187 0.018006206
0.28019398 0.277538 0.017990232
0.28019398 0.30163556 0.017989993
0.28019398 0.32573342 0.017989993
0.28019398 0.34983134 0.017989993
0.28019398 0.37392896 0.017989993
0.28019398 0.39802682 0.017989993
0.28019398 0.42212445 0.017989993
0.28019398 0.44622231 0.017989993
0.28019398 0.47031999 0.017990232
0.28019398 0.49441761 0.017989993
0.66524053 0.49398947 0.015672326
0.28019398 0.51851547 0.017989993
0.64123702 0.51813745 0.016026258
0.28019398 0.54261315 0.017989993
0.64038503 0.54142922 0.012073994
0.28019398 0.56671101 0.017989993
0.64208055 0.5671162 0.019940019
0.6633929 0.56450909 0.0073956251
-0.44133744 0.58850092 0.0072835684
0.28038752 0.5912255 0.019924045
-0.44314155 0.61559409 0.021069407
0.25548154 0.6134212 0.01133585
-0.39509815 0.64011437 0.022797108
-0.46983185 -0.64200419 0.039608479
0.28107005 -0.63972652 0.026744127
-0.46818402 -0.61572599 0.027716279
0.30632794 -0.61727858 0.036883593
0.30632794 -0.59303546 0.036883712
-0.46818402 -0.59155339 0.02771616
-0.46818402 -0.56738073 0.027716279
0.30632794 -0.56879216 0.036883593
-0.46818402 -0.54320818 0.02771616
0.30632794 -0.54454899 0.036883593
0.30632794 -0.52030587 0.036883712
-0.46818402 -0.51903564 0.027716279
-0.46818402 -0.49486291 0.027716398
0.30632794 -0.49606264 0.036883593
-0.46818402 -0.47069037 0.027716279
0.30632794 -0.4718194 0.036883593
0.30632794 -0.44757628 0.036883712
-0.46818402 -0.44651771 0.027716398
-0.46818626 -0.42234689 0.027732611
0.30632794 -0.42333305 0.036883593
-0.46818626 -0.39817405 0.027732372
0.30632794 -0.39908993 0.036883712
0.30632794 -0.3748467 0.036883593
0.5983609 -0.37536108 0.042452455
0.62148607 -0.37484515 0.03686738
0.64600682 -0.37496418 0.038155794
-0.46818626 -0.37400132 0.027732491
-0.46818852 -0.34982997 0.027748704
0.30632794 -0.3506034 0.036883593
0.59751391 -0.35071671 0.038221002
0.61958408 -0.34982723 0.027716279
-0.46818852 -0.32565707 0.027748585
0.30632794 -0.32636032 0.036883712
0.59809899 -0.32668829 0.041144133
0.61896825 -0.32542649 0.024753332
0.30632794 -0.30211708 0.036883712
0.61971545 -0.30152568 0.028348446
-0.46818852 -0.30148423 0.027748704
-0.46818852 -0.27731133 0.027748704
0.30632794 -0.27787384 0.036883473
0.62236488 -0.27813327 0.041095257
-0.46818852 -0.25313854 0.027748823
0.30632794 -0.25363076 0.036883712
0.64359248 -0.25309569 0.026954889
0.30632794 -0.22938749 0.036883712
-0.46818852 -0.22896563 0.027748704
-0.46818852 -0.20479262 0.027748585
0.30632794 -0.20514439 0.036883712
-0.46818852 -0.18061987 0.027748704
0.30632794 -0.18090118 0.036883712
0.30632794 -0.15665787 0.036883712
-0.46818852 -0.1564469 0.027748585
-0.46818852 -0.13227417 0.027748704
0.30632794 -0.13241476 0.036883712
-0.46818852 -0.10810114 0.027748704
0.30632794 -0.10817151 0.036883712
0.30632794 -0.083928294 0.036883473
-0.46818852 -0.083928242 0.027748704
-0.46818626 -0.059755553 0.027732372
0.30632794 -0.059685193 0.036883712
-0.46818852 -0.035582483 0.027748704
0.30632794 -0.035441935 0.036883712
-0.46818852 -0.011409737 0.027748704
0.30632794 -0.011198834 0.036883712
-0.46818852 0.012763225 0.027748704
0.30632794 0.013044372 0.036883712
-0.46818626 0.036935426 0.027732372
0.30632794 0.037287638 0.036883473
-0.46818626 0.061108217 0.027732491
0.30632794 0.061530784 0.036883712
-0.46818402 0.085280046 0.027716279
0.30632794 0.08577399 0.036883712
-0.46818402 0.10945268 0.027716279
0.30632794 0.11001736 0.036883593
-0.46819079 0.13362867 0.027764916
0.30632794 0.13426046 0.036883712
-0.46818179 0.15779667 0.027699947
0.30632794 0.15850367 0.036883712
-0.46819079 0.18197463 0.027764797
0.30632794 0.18274681 0.036883831
-0.46818626 0.20614474 0.027732491
0.30632794 0.20699005 0.036883712
-0.46818626 0.23031737 0.027732491
0.30632794 0.23123325 0.036883712
-0.46818626 0.25449014 0.027732491
0.30632794 0.25547642 0.036883831
-0.46818626 0.27866304 0.027732491
0.30632794 0.27971965 0.036883712
-0.46818626 0.3028357 0.027732491
0.30632794 0.30396289 0.036883712
-0.46818626 0.32700837 0.027732491
0.30632794 0.328206 0.036883712
-0.46818626 0.35118103 0.027732491
0.30632794 0.35244924 0.036883712
-0.46818402 0.37535155 0.027716279
0.30632794 0.37669235 0.036883831
-0.46818402 0.39952409 0.027716279
0.30632794 0.40093553 0.036883712
-0.46818402 0.42369688 0.027716279
0.30632794 0.42517889 0.036883712
-0.46818402 0.44786942 0.027716279
0.30632794 0.449422 0.036883831
-0.46818402 0.47204202 0.02771616
0.30632794 0.47366518 0.036883712
-0.46818402 0.49621469 0.02771616
0.30632794 0.49790841 0.036883712
0.6445086 0.49685925 0.0312047
-0.46818402 0.52038741 0.027716279
0.30632794 0.52215147 0.036883712
0.59821677 0.5230847 0.041732907
0.61998177 0.52075553 0.029629946
-0.46818402 0.54456002 0.027716279
0.30632794 0.54639482 0.036883712
0.59762502 0.54677355 0.038775921
0.61903882 0.5440349 0.025092959
-0.46818402 0.56873256 0.02771616
0.30632794 0.57063806 0.036883712
0.62070775 0.56985617 0.03312254
-0.46853241 0.59344703 0.030230522
