ply
format ascii 1.0
comment PCL generated
element vertex 1319
property float x
property float y
property float z
element camera 0
property float view_px
property float view_py
property float view_pz
property float x_axisx
property float x_axisy
property float x_axisz
property float y_axisx
property float y_axisy
property float y_axisz
property float z_axisx
property float z_axisy
property float z_axisz
property float focal
property float scalex
property float scaley
property float centerx
property float centery
property int viewportx
property int viewporty
property float k1
property float k2
end_header
0.19336951 -0.44607091 -0.10859621
-0.28049725 -0.43014634 -0.10389459
-0.26240754 -0.42820287 -0.11324537
0.17589907 -0.42763388 -0.11598247
0.19352008 -0.42953861 -0.1068179
-0.26262164 -0.41168469 -0.11150694
0.17603505 -0.41114253 -0.11421597
0.19367185 -0.41298187 -0.10502571
-0.26283744 -0.39514244 -0.10975492
0.17617124 -0.39462441 -0.11244673
0.19382292 -0.39639592 -0.10324162
-0.26305225 -0.37857175 -0.10801101
-0.24522418 -0.37709701 -0.1159932
0.17630851 -0.37808162 -0.11066371
-0.26326737 -0.3619746 -0.10626423
-0.24542442 -0.36055911 -0.11425918
0.17644514 -0.36150998 -0.10888875
-0.26348287 -0.34535122 -0.10451472
0.17658201 -0.34491146 -0.10711086
-0.24562624 -0.34399688 -0.11251152
0.15903397 -0.34335983 -0.11627305
-0.24582708 -0.32740647 -0.11077183
0.15915631 -0.32680261 -0.11450696
0.17671908 -0.32828605 -0.10533011
-0.2460283 -0.31078947 -0.10902965
0.15927885 -0.31021857 -0.11273819
0.17685641 -0.31163371 -0.10354644
-0.24623105 -0.29414779 -0.10727358
-0.2284582 -0.2929796 -0.11526102
0.1594016 -0.29360771 -0.1109665
-0.24643287 -0.27747804 -0.10552567
-0.22864521 -0.27636951 -0.11352587
0.14219387 -0.27599478 -0.11622983
0.15952455 -0.27696997 -0.10919195
-0.24663502 -0.26078165 -0.10377496
-0.22883366 -0.25973445 -0.11177707
0.142296 -0.25936866 -0.11457169
0.1596477 -0.2603054 -0.10741466
-0.22902127 -0.24307151 -0.11003631
0.1423976 -0.24271612 -0.11292171
0.15977179 -0.24361505 -0.10562348
-0.22920917 -0.22638209 -0.10829276
-0.2115064 -0.2254606 -0.11627299
0.14249937 -0.22603841 -0.11126924
0.15989533 -0.22689624 -0.10384017
-0.22939739 -0.2096661 -0.10654658
-0.21168096 -0.20880586 -0.11452854
0.12536412 -0.20864922 -0.11598235
0.1426013 -0.20933551 -0.10961425
-0.22958705 -0.19292462 -0.10478657
-0.21185474 -0.19212349 -0.11279207
0.12545294 -0.19196911 -0.11433452
0.14270337 -0.19260731 -0.10795683
-0.21202877 -0.17541461 -0.11105305
0.12554185 -0.17526397 -0.11268425
0.14280559 -0.17585391 -0.10629684
-0.21220419 -0.15868011 -0.10930026
0.12563093 -0.15853347 -0.11103141
0.14290798 -0.15907522 -0.10463434
-0.19472729 -0.15814798 -0.11558414
-0.21237879 -0.14191791 -0.10755551
-0.19487758 -0.14142516 -0.11395723
0.10853009 -0.14128752 -0.1157456
0.12572013 -0.14177784 -0.10937607
-0.21255365 -0.12512924 -0.10580808
-0.19502908 -0.12467824 -0.11231709
0.10860622 -0.12455492 -0.11409742
0.12581004 -0.12499759 -0.10770732
-0.2127299 -0.10831429 -0.104047
-0.19517982 -0.10790551 -0.11068541
-0.17784825 -0.10758124 -0.11595011
0.10868245 -0.10779712 -0.11244667
0.12589951 -0.10819115 -0.10604709
-0.19533077 -0.091107816 -0.10905123
-0.17798597 -0.090823725 -0.11432379
0.10875881 -0.091013961 -0.11079353
0.12598912 -0.09135928 -0.10438424
-0.19548295 -0.074285552 -0.10740376
-0.17812388 -0.074041158 -0.11269504
0.091691986 -0.073910758 -0.11551952
0.10883579 -0.074205965 -0.10912693
-0.19563438 -0.057437606 -0.10576463
-0.17826293 -0.057234071 -0.11105305
-0.16097403 -0.057031117 -0.11632681
0.091755852 -0.057126075 -0.11386019
0.10891238 -0.057372048 -0.10746878
-0.195786 -0.040564544 -0.10412318
-0.17840126 -0.040401421 -0.10941941
-0.1611 -0.040239163 -0.11469024
0.074820243 -0.040190443 -0.11627299
0.091819406 -0.040315509 -0.11220914
0.10898907 -0.040512703 -0.10580808
-0.17853978 -0.023543715 -0.10778326
-0.16122535 -0.023421846 -0.1130619
0.074868985 -0.023384266 -0.11469007
0.091883048 -0.023479775 -0.11055559
0.1090659 -0.023627765 -0.10414487
-0.17867947 -0.0066610314 -0.106134
-0.16135088 -0.0065795109 -0.1114313
0.074917458 -0.0065535493 -0.11311585
0.091947205 -0.0066186301 -0.1088888
-0.17881842 0.010247096 -0.10449296
-0.16147742 0.01028784 -0.1097874
-0.14421895 0.010328501 -0.11506724
0.057996891 0.010331307 -0.11543339
0.074966334 0.010301236 -0.11152852
0.092011042 0.010268198 -0.10723019
-0.16160332 0.027180519 -0.10815197
0.075014949 0.027180519 -0.10994977
0.092074983 0.027180478 -0.10556906
-0.14433245 0.027180597 -0.11342877
0.058033228 0.027180597 -0.11386031
-0.16172943 0.044098407 -0.10651398
-0.1444454 0.044057745 -0.1117987
-0.12738019 0.044034235 -0.11485171
0.041136254 0.044024039 -0.11617607
0.058069859 0.044054031 -0.11227387
0.075063966 0.044084262 -0.10835785
0.09213943 0.044118561 -0.10389471
-0.1618557 0.061041553 -0.1048736
-0.14455852 0.060960028 -0.11016631
-0.12747647 0.060911976 -0.11328852
-0.11045748 0.060868151 -0.11613297
0.041160457 0.060891744 -0.114604
0.058106292 0.060951889 -0.1106962
0.075112723 0.061012231 -0.10677445
-0.161983 0.078010261 -0.10321981
-0.14467178 0.077887565 -0.10853124
-0.12757355 0.077814102 -0.11171228
-0.11054161 0.077748105 -0.11457163
0.024293924 0.077714473 -0.11602545
0.041184694 0.077783711 -0.1130296
0.058143035 0.077874318 -0.10910541
0.075161882 0.077965014 -0.10517788
-0.14478599 0.094840623 -0.10688299
-0.12767009 0.094740167 -0.1101445
-0.11062587 0.094652086 -0.11300802
-0.093626082 0.09456408 -0.11586398
0.0074492726 0.094556771 -0.11610079
0.024305778 0.094606601 -0.1144855
0.041209135 0.094700217 -0.11144203
0.058179576 0.094820939 -0.10752308
0.07521078 0.094942018 -0.10358995
-0.14489959 0.11181881 -0.10524309
-0.12776743 0.11169094 -0.10856366
-0.11071083 0.11158057 -0.1114313
-0.09369871 0.11147056 -0.11429137
-0.07677149 0.11140128 -0.11609
-0.0093941335 0.11139756 -0.1161868
0.0074492726 0.1114602 -0.11456084
0.024317648 0.1115224 -0.11294323
0.041233446 0.11164099 -0.1098631
0.058216419 0.11179246 -0.10592759
-0.14501338 0.12882234 -0.10360086
-0.12786427 0.12866573 -0.10699147
-0.11079533 0.12853304 -0.1098631
-0.093770958 0.12840077 -0.1127274
-0.07683076 0.12831657 -0.11455005
-0.059956174 0.12828866 -0.11515331
-0.043090887 0.12826088 -0.11575639
-0.026236381 0.12823749 -0.11626214
-0.0094060693 0.12831262 -0.11463624
0.0074492726 0.1283873 -0.11301887
0.024329536 0.12846211 -0.11139888
0.041257955 0.12860659 -0.10827118
0.058253068 0.12878811 -0.10434073
-0.12804225 0.14573556 -0.10410136
-0.11095008 0.1455799 -0.10699153
-0.093902253 0.14542393 -0.1098848
-0.076937497 0.14532202 -0.11177707
-0.060041513 0.14528939 -0.11238199
-0.043154858 0.14525691 -0.11298645
-0.02627917 0.14523011 -0.11348277
-0.009427499 0.145318 -0.11185271
0.0074492726 0.14540595 -0.11022019
0.024351195 0.145494 -0.10858542
0.041302569 0.14566708 -0.10537356
-0.11115097 0.16272368 -0.10326338
-0.094073489 0.16254424 -0.10617733
-0.077077024 0.1624226 -0.10815197
-0.060153078 0.16238521 -0.10875869
-0.043238234 0.16234723 -0.10937607
-0.0263349 0.16231728 -0.10986322
-0.0094554853 0.1624186 -0.10821688
0.0074492726 0.1625195 -0.10657912
0.024379266 0.1626205 -0.10493869
-0.077235453 0.17961302 -0.10403615
-0.060279746 0.17957081 -0.10464519
-0.043333177 0.17952788 -0.1052649
-0.026398335 0.17949486 -0.10574293
-0.0094872508 0.17960928 -0.10409051
-0.26366115 -0.46420705 -0.10306734
-0.29877707 -0.44917154 -0.09421128
0.21113981 -0.44809741 -0.099194825
-0.29899779 -0.43248999 -0.092618406
0.21129033 -0.43146181 -0.097565293
-0.29926765 -0.41585493 -0.090670943
-0.28074813 -0.41359186 -0.10197788
0.21145627 -0.41483462 -0.095768929
0.21162248 -0.39818025 -0.093969822
-0.28100082 -0.39701074 -0.10004687
-0.28125256 -0.38039845 -0.098123372
0.19397426 -0.37978309 -0.1014545
0.21178895 -0.38149887 -0.092167616
-0.28150615 -0.36375916 -0.096185446
0.19412582 -0.36314309 -0.099664629
0.21195672 -0.36479211 -0.090351522
-0.28175873 -0.34708863 -0.094255209
0.19427764 -0.3464762 -0.097871602
-0.28201324 -0.33039081 -0.092310607
-0.26370004 -0.32870287 -0.10275155
0.1944297 -0.32978207 -0.096075892
-0.28226674 -0.31366181 -0.090373516
-0.26391622 -0.31202632 -0.10099643
0.19458202 -0.31306082 -0.094277263
-0.26413274 -0.29532313 -0.099238455
0.17699392 -0.2949543 -0.10175985
0.1947355 -0.29631382 -0.092464447
-0.26435095 -0.27859467 -0.097466826
0.17713253 -0.27824932 -0.099959433
0.19488831 -0.27953786 -0.090659916
-0.26456815 -0.2618379 -0.095703244
0.1772705 -0.2615155 -0.098167121
-0.26478574 -0.24505444 -0.093936801
-0.24683875 -0.24405999 -0.10201055
0.17740871 -0.24475454 -0.09637171
-0.26502261 -0.22826187 -0.092013597
-0.24704155 -0.22731028 -0.10025424
0.17754714 -0.22796623 -0.094573557
-0.2652626 -0.21144232 -0.090065122
-0.24724469 -0.21053378 -0.098495185
0.16001907 -0.21015018 -0.10205418
0.17768578 -0.21115053 -0.092772305
-0.24744815 -0.19373052 -0.096733332
0.16014302 -0.19337702 -0.1002652
0.17782466 -0.19430745 -0.090968192
-0.24765319 -0.17690141 -0.094957411
-0.22977586 -0.17615528 -0.10303473
0.16026716 -0.17657667 -0.09847331
-0.24785727 -0.16004428 -0.093190014
-0.22996497 -0.15935922 -0.10128003
0.16039151 -0.15974888 -0.096678376
-0.24806172 -0.14316012 -0.091419578
-0.23015554 -0.14253722 -0.099511623
0.14301118 -0.14227185 -0.10295844
0.16051605 -0.14289369 -0.09488076
-0.23034525 -0.12568738 -0.097751439
0.14311388 -0.12544213 -0.10129094
0.16064158 -0.12601174 -0.093069077
-0.23053527 -0.10881065 -0.095988154
0.14321673 -0.10858686 -0.099620879
0.16076653 -0.10910143 -0.09126544
-0.23072676 -0.091907449 -0.09421134
-0.21290533 -0.091471918 -0.10229397
0.14331973 -0.091706112 -0.097948194
-0.23091739 -0.074976601 -0.092442513
-0.21308106 -0.074602611 -0.10053813
0.12607886 -0.074501947 -0.10271889
0.14342289 -0.074799664 -0.096273005
-0.23110832 -0.058018677 -0.090670824
-0.21325813 -0.05770693 -0.098768473
0.12616873 -0.057619043 -0.10105091
0.1435262 -0.057867564 -0.094595432
-0.21343441 -0.040783703 -0.097006977
0.12625875 -0.040710643 -0.099380434
0.14362969 -0.040909648 -0.092915177
-0.21361098 -0.023833372 -0.095242679
-0.19593887 -0.023666531 -0.10246831
0.1263489 -0.023776468 -0.09770757
0.14373398 -0.023926236 -0.091221333
-0.21378893 -0.0068560876 -0.093464613
-0.19609097 -0.0067428313 -0.10082185
0.10914334 -0.0067174248 -0.10246831
0.12643978 -0.0068166889 -0.096021116
-0.21396606 0.010148622 -0.091694593
-0.19624329 0.010206237 -0.09917289
0.1092204 0.010218725 -0.10080004
0.1265302 0.010169052 -0.094343007
-0.21414347 0.027180519 -0.089921892
-0.19639686 0.027180519 -0.097510517
-0.17895758 0.027180558 -0.10284954
0.10929757 0.027180519 -0.09912914
0.12662075 0.027180597 -0.092662454
-0.19654962 0.044180404 -0.095856726
-0.17909788 0.044139426 -0.10119283
0.10937486 0.044168115 -0.097455919
0.12671146 0.044217985 -0.090979218
-0.19670263 0.061205901 -0.094200432
-0.17923746 0.06112355 -0.099544346
0.092203557 0.061082251 -0.10222852
0.10945226 0.061181597 -0.095780015
-0.19685689 0.078257084 -0.092530549
-0.17937724 0.07813327 -0.097893596
0.092267781 0.078071669 -0.10055995
0.10952979 0.078220807 -0.094101667
-0.19701037 0.095333748 -0.090869129
-0.17951816 0.095168687 -0.096229255
-0.16210966 0.095004104 -0.10157442
0.092332102 0.09508685 -0.098888695
0.10960742 0.095285974 -0.092420518
-0.17965838 0.11222951 -0.094573557
-0.1622365 0.11202344 -0.099926651
0.075260088 0.11194404 -0.10198873
0.092396952 0.11212827 -0.097204089
0.1096857 0.11237754 -0.090725958
-0.1797988 0.12931585 -0.092915177
-0.16236438 0.12906873 -0.098265529
0.07530912 0.1289703 -0.10039622
0.092461474 0.12919514 -0.095527709
-0.16260129 0.14621593 -0.095187902
-0.14522405 0.14592643 -0.10055989
0.058320731 0.14588067 -0.10141098
0.075400338 0.14609489 -0.097433925
0.092582338 0.14636689 -0.092387557
-0.1629058 0.16346462 -0.091232419
-0.14549601 0.16313192 -0.096634686
-0.12827313 0.16290295 -0.10035247
0.041360386 0.16282499 -0.10161811
0.058408022 0.16307051 -0.097630918
0.075517483 0.16331697 -0.09362936
-0.14580168 0.18043147 -0.092222571
-0.12853311 0.18016072 -0.09613061
-0.11137728 0.17995751 -0.099063516
-0.094266951 0.17975487 -0.10198873
0.0074492726 0.17972313 -0.1024465
0.024411127 0.17983726 -0.10079998
0.041425817 0.18007502 -0.09736824
0.058506522 0.18035236 -0.093365788
-0.12882325 0.19752122 -0.091419518
-0.11163047 0.19729443 -0.094365001
-0.094483897 0.19706918 -0.097291648
-0.077412121 0.19690333 -0.099445999
-0.060420666 0.19685532 -0.10006857
-0.043439064 0.19680834 -0.10067999
-0.026469063 0.19677226 -0.1011492
-0.0095225833 0.1968991 -0.099500656
0.0074492726 0.19702706 -0.097838879
0.024446651 0.19715434 -0.096185446
0.041498777 0.19742803 -0.092629433
-0.094724633 0.21449937 -0.092079639
-0.077608533 0.21430771 -0.094343007
-0.060577709 0.21425477 -0.094968498
-0.043556526 0.21420181 -0.095593631
-0.026547506 0.21416281 -0.096053958
-0.0095619485 0.214304 -0.094386876
0.0074492726 0.21444531 -0.09271729
0.02448622 0.21458697 -0.09104526
-0.043687258 0.2317266 -0.089932859
-0.026634794 0.23168486 -0.090384543
-0.31753951 -0.45175028 -0.082247436
0.22929041 -0.45063114 -0.087439537
-0.31769052 -0.43486017 -0.081214964
0.22942755 -0.43385118 -0.086069167
-0.31797829 -0.41814137 -0.079247296
0.22962914 -0.41717929 -0.084054708
-0.31826499 -0.40139091 -0.077287316
-0.29953799 -0.39919066 -0.088719964
0.22983001 -0.40047467 -0.082047641
-0.29980725 -0.38249487 -0.086776614
0.23003121 -0.38373995 -0.080036998
-0.30007851 -0.36577171 -0.08481878
0.23023281 -0.36697495 -0.078022718
-0.30034876 -0.34901702 -0.082868576
0.21212374 -0.34805596 -0.088543415
-0.300621 -0.33223474 -0.080903947
0.21229103 -0.33129251 -0.086732328
-0.30089217 -0.3154211 -0.078946829
0.21246473 -0.31451195 -0.08485198
-0.30116537 -0.29857934 -0.076975107
-0.28252211 -0.29690516 -0.088422
0.21265 -0.29772061 -0.082846403
-0.28277794 -0.28011882 -0.086467206
0.21283561 -0.28089899 -0.080837131
-0.28303277 -0.26330155 -0.084519982
0.19504137 -0.26273459 -0.088852346
0.21302155 -0.26404685 -0.078824401
-0.28328952 -0.24645592 -0.082558215
0.19519469 -0.24590372 -0.087041855
0.21320783 -0.2471642 -0.076807976
-0.28354526 -0.22957934 -0.080603838
0.19534917 -0.2290466 -0.085217297
-0.28380287 -0.21267411 -0.078635216
0.195503 -0.21216059 -0.083400846
-0.28405952 -0.19573799 -0.076674163
-0.26550302 -0.19459325 -0.08811307
0.19565707 -0.19524685 -0.081581354
-0.26574251 -0.17771327 -0.086168647
0.17796376 -0.17743684 -0.089161217
0.19581138 -0.17830543 -0.079759002
-0.26598379 -0.16080469 -0.08420974
0.17810395 -0.16053958 -0.087340117
0.1959669 -0.16133714 -0.077922344
-0.26622412 -0.1438653 -0.082258582
0.17824352 -0.14361371 -0.085527182
-0.26646626 -0.12689693 -0.080292642
-0.24826774 -0.1262497 -0.089635313
0.17838331 -0.12666006 -0.083711147
-0.26670745 -0.10989775 -0.07833463
-0.24847284 -0.10931128 -0.087859213
0.17852333 -0.10967876 -0.081892252
-0.24867824 -0.092345655 -0.086080253
0.1608917 -0.092163578 -0.089458823
0.17866443 -0.092670105 -0.08005929
-0.24888399 -0.075352781 -0.084298372
0.16101708 -0.075197972 -0.087649345
0.17880492 -0.075632796 -0.078234375
-0.24909136 -0.058333032 -0.082502544
0.16114263 -0.058204643 -0.085836947
-0.24929777 -0.041285329 -0.08071506
-0.23129956 -0.041033372 -0.088896453
0.16126841 -0.041183539 -0.084021389
-0.24950451 -0.024210241 -0.078924477
-0.23149228 -0.024021275 -0.087108076
0.1613944 -0.024134528 -0.082202911
-0.24971285 -0.007107731 -0.077120066
-0.23168415 -0.0069813542 -0.085327923
0.14383778 -0.0069165491 -0.08953613
0.16152136 -0.0070577413 -0.080370545
-0.23187631 0.01008583 -0.08354491
0.14394175 0.010118945 -0.087848067
0.16164775 0.010047302 -0.078546047
-0.23206998 0.027180519 -0.08174789
0.14404722 0.027180519 -0.086135387
0.16177437 0.027180558 -0.076718628
-0.23226275 0.044302829 -0.079959154
-0.21432115 0.0442398 -0.08814615
0.14415899 0.044269241 -0.084320486
-0.23245585 0.061452683 -0.078167439
-0.21450025 0.061326545 -0.086356521
0.1268023 0.061281417 -0.08929342
0.14427093 0.061385941 -0.082502544
-0.21467853 0.07844083 -0.084575295
0.12689327 0.078370854 -0.087605178
0.14438307 0.078530699 -0.080681622
-0.21485709 0.095582508 -0.08279103
0.12698439 0.095486403 -0.085914373
0.14449541 0.09570355 -0.07885778
-0.21503592 0.1127518 -0.081003904
-0.19716711 0.11243729 -0.089172184
0.12707624 0.11262836 -0.08420974
0.14460859 0.11290513 -0.077019751
-0.21521617 0.12994924 -0.079202831
-0.19733125 0.12957078 -0.08739537
0.10976358 0.12949488 -0.089039981
0.12716763 0.12979627 -0.08251369
-0.18006347 0.14650682 -0.089789569
-0.19764394 0.14681828 -0.084010422
0.109911 0.14671919 -0.085847855
0.12734304 0.14707431 -0.079258382
-0.19803873 0.16417252 -0.07973671
-0.18040006 0.16379826 -0.085814834
0.092736244 0.16363971 -0.088389039
0.11009781 0.16404523 -0.081803441
-0.18078014 0.18118642 -0.081326008
-0.16324794 0.18080802 -0.086787581
0.075649641 0.18063131 -0.089337587
0.092910327 0.18101041 -0.083866358
0.11030846 0.18146929 -0.077242613
-0.16362992 0.19825971 -0.081825614
-0.14614378 0.19783948 -0.087284923
0.058616616 0.19773836 -0.088598549
0.075797305 0.19805062 -0.084542096
0.093105242 0.1984925 -0.078802109
-0.14652584 0.21537234 -0.081770122
-0.12914731 0.21500088 -0.08615762
-0.11191326 0.21475026 -0.089116991
0.041580379 0.21490157 -0.08732903
0.058739726 0.2152456 -0.083267748
0.075962052 0.21559067 -0.079191685
-0.12950782 0.23261608 -0.080303848
-0.11222725 0.23234034 -0.08329004
-0.094993047 0.23206517 -0.086268187
-0.077827081 0.23184372 -0.08866477
-0.060752448 0.23178583 -0.08929348
-0.009605743 0.23184076 -0.088697851
0.0074492726 0.23199685 -0.087008715
0.024530401 0.23215409 -0.08530587
0.041671094 0.23251145 -0.081437051
0.058876295 0.23288859 -0.077354133
-0.11257174 0.25007671 -0.076897025
-0.095287025 0.24977586 -0.079903543
-0.078066833 0.24952239 -0.082436085
-0.060943801 0.24945801 -0.083079338
-0.043830939 0.24939479 -0.083711267
-0.026730713 0.24935049 -0.084154248
-0.0096537769 0.24952014 -0.082458317
0.0074492726 0.24969125 -0.08074832
0.024578581 0.24986148 -0.079046965
-0.043989077 0.2672261 -0.076863647
-0.02683644 0.26718056 -0.077287138
-0.33699393 -0.45503992 -0.066985369
0.24788971 -0.4537003 -0.073200345
-0.33687791 -0.43766111 -0.067738771
0.24789213 -0.43653071 -0.073177934
-0.33722442 -0.42089528 -0.06548816
0.24811175 -0.41976404 -0.071139932
0.24833058 -0.40296465 -0.069109499
-0.31855378 -0.38461286 -0.075312674
0.2485498 -0.38613462 -0.067075372
-0.31884149 -0.36780298 -0.07334584
0.24876943 -0.36927396 -0.065037608
-0.31913131 -0.35096544 -0.071364045
0.23043473 -0.35017949 -0.076004744
-0.31942004 -0.33409601 -0.069390178
0.23063706 -0.33335358 -0.073983133
-0.31971091 -0.31719857 -0.067401469
0.23084085 -0.31649888 -0.071946621
-0.32000226 -0.30027103 -0.065409362
0.23104391 -0.29961163 -0.069917679
-0.30143753 -0.28170621 -0.075011194
0.23124732 -0.28269374 -0.067884982
-0.30171168 -0.26480484 -0.073032439
0.23145111 -0.26574492 -0.065848649
-0.30198479 -0.24787198 -0.071061492
0.23165527 -0.24876536 -0.063808441
-0.30225995 -0.23091047 -0.069075823
0.21339546 -0.23025216 -0.07477659
-0.30253556 -0.21391873 -0.067086697
0.21358243 -0.21330816 -0.072752655
-0.30281013 -0.19689569 -0.06510514
0.2137697 -0.1963333 -0.070725143
-0.28431809 -0.1787729 -0.074698329
0.21395735 -0.17932759 -0.068693995
-0.28457564 -0.16177675 -0.072730243
0.21414532 -0.16229083 -0.066659212
0.21433468 -0.14522402 -0.06460917
-0.2848351 -0.14475141 -0.070747733
0.19612172 -0.14433989 -0.076093912
-0.28509501 -0.12769589 -0.068761349
0.19627681 -0.12731475 -0.0742625
-0.28535396 -0.11060919 -0.066782892
0.1964331 -0.11026223 -0.072416961
-0.28561479 -0.093492903 -0.064789593
-0.2669504 -0.092869267 -0.076361835
0.19658868 -0.093180917 -0.07057941
-0.26719245 -0.07581003 -0.074396729
0.19674453 -0.076071374 -0.068738937
-0.2674363 -0.058721207 -0.072416961
0.17894563 -0.05856768 -0.07640636
0.19690064 -0.05893369 -0.066895485
-0.26767918 -0.041601583 -0.070444822
0.17908657 -0.041474417 -0.074575424
0.19705796 -0.041768149 -0.065037489
-0.26792389 -0.024451885 -0.06845808
0.17922862 -0.024353255 -0.072730362
-0.26816905 -0.0072717629 -0.066467762
0.17937003 -0.0072035976 -0.070893407
-0.26841322 0.0099391434 -0.064485133
-0.24992028 0.010022564 -0.075323761
0.17951167 0.0099742338 -0.069053352
-0.25012803 0.027180519 -0.073524654
0.1796544 0.027180558 -0.067199171
-0.25033611 0.044366214 -0.071722627
0.16190195 0.044341911 -0.074877083
0.17979653 0.044415254 -0.065352917
-0.25054583 0.061579887 -0.069906473
0.16202898 0.061531518 -0.073043704
0.17993887 0.06167848 -0.063503861
-0.25075459 0.078821301 -0.068098485
-0.23264925 0.078630194 -0.076372862
0.16215621 0.0787495 -0.071207166
-0.25097799 0.096094444 -0.066163719
-0.23284417 0.09583585 -0.074564278
0.16228442 0.095996171 -0.069356441
-0.25120828 0.11339976 -0.064169466
-0.2330382 0.11306892 -0.07276392
0.16241208 0.11327094 -0.067513943
-0.23323254 0.13032991 -0.070960701
0.14472128 0.13013452 -0.075189829
0.16253994 0.13057427 -0.065668344
-0.23361368 0.14771199 -0.067423999
-0.21556188 0.14726348 -0.075748026
0.14494102 0.14748588 -0.071621776
-0.215995 0.16468473 -0.071420074
0.12756228 0.16445254 -0.075189829
0.1452127 0.16494398 -0.067210317
-0.2164816 0.18220966 -0.066557825
-0.19848557 0.18163171 -0.074899435
0.12781072 0.18193097 -0.07057941
-0.19897997 0.19920495 -0.069547296
-0.18120335 0.19868289 -0.076328278
0.11054377 0.19900471 -0.072148204
0.12808689 0.19951998 -0.065454364
-0.1995393 0.21692005 -0.063492477
-0.18167971 0.21630952 -0.070702791
-0.16405913 0.21583977 -0.076250196
0.093322583 0.21610181 -0.073155582
0.11080769 0.21667093 -0.066433966
-0.18220429 0.23407535 -0.064507723
-0.16453364 0.2335601 -0.070085943
-0.14695081 0.23304729 -0.075636446
0.076144814 0.23326716 -0.073256254
0.093564391 0.23385695 -0.066872895
-0.14741622 0.25087517 -0.068918586
-0.12990326 0.2503784 -0.073882401
0.041770373 0.25026762 -0.074988842
0.059026275 0.2506808 -0.07085973
0.076345876 0.25109449 -0.066726625
-0.1303384 0.268309 -0.066816628
-0.11295086 0.26798087 -0.069861472
-0.095610067 0.26765242 -0.072909415
-0.078330271 0.26736325 -0.075591862
-0.061154772 0.26729476 -0.076227844
-0.0097067207 0.26736444 -0.075580478
0.0074492726 0.26754865 -0.073871374
0.024632465 0.26774517 -0.072047532
0.041879743 0.26819378 -0.067884922
0.059191465 0.26864409 -0.063707054
-0.095965326 0.28571707 -0.065217793
-0.078619555 0.28538698 -0.068076015
-0.061385717 0.28531182 -0.068727672
-0.044162445 0.28523916 -0.069356441
-0.026952147 0.28519118 -0.069771826
-0.0097647496 0.28539091 -0.068042457
0.0074492726 0.28559095 -0.066310167
0.024692241 0.28582501 -0.064282179
0.266846 -0.45702672 -0.057767928
-0.35665846 -0.4409579 -0.051877201
0.26657256 -0.43924141 -0.06013608
0.26681066 -0.42237914 -0.058074176
-0.33756992 -0.40409338 -0.063244402
0.26704785 -0.40548378 -0.056019783
-0.33791783 -0.38726002 -0.060984492
0.2672855 -0.38855737 -0.053961754
0.26755387 -0.37164652 -0.05163765
-0.3382664 -0.37039244 -0.058720291
-0.33861572 -0.35349089 -0.056451559
0.24898945 -0.3523826 -0.062995911
-0.33896571 -0.33655524 -0.054177999
0.24921109 -0.33546221 -0.060939312
-0.3393147 -0.31958348 -0.051911354
0.24943194 -0.31850892 -0.058890402
0.24965316 -0.30152476 -0.056837499
-0.32031563 -0.2833336 -0.063266873
0.2498748 -0.28450948 -0.0547809
-0.3206445 -0.26637703 -0.061018527
0.25009808 -0.26746446 -0.052709162
-0.32097566 -0.24938782 -0.058754265
0.25032052 -0.2503866 -0.050645113
-0.32130748 -0.23236428 -0.056485534
0.23186094 -0.23175599 -0.061753511
-0.32164001 -0.21530624 -0.054212213
0.23206584 -0.21471426 -0.059705853
-0.32197317 -0.1982138 -0.051934183
0.23227112 -0.19764127 -0.0576545
-0.30308676 -0.17984347 -0.063108802
0.23247677 -0.18053713 -0.055599451
-0.30336231 -0.16275981 -0.061120272
0.23268282 -0.16340171 -0.053540707
-0.30363989 -0.1456468 -0.05911696
0.23289035 -0.14623575 -0.051466525
-0.30391642 -0.12850223 -0.057121277
0.21452335 -0.12812498 -0.062566876
-0.30419502 -0.11132804 -0.055110693
0.21471237 -0.11099485 -0.060520649
-0.30447254 -0.09412238 -0.053107798
0.2149017 -0.093833417 -0.058470964
-0.30475211 -0.076886557 -0.051090181
-0.28587463 -0.076345541 -0.062804103
0.21509141 -0.076640569 -0.056417346
-0.28613642 -0.05916822 -0.060803533
0.2152825 -0.059416659 -0.054348648
-0.28639719 -0.041959763 -0.058810949
0.21547292 -0.042160586 -0.052287579
-0.28665993 -0.024721075 -0.056803405
0.1972146 -0.024573639 -0.063187897
0.21566367 -0.024873056 -0.050222695
-0.28692162 -0.0074512884 -0.05480361
0.19737148 -0.0073507987 -0.061335206
-0.28718528 0.0098491646 -0.052789092
0.19754492 0.0098991524 -0.059286833
-0.28744793 0.027180519 -0.050782084
-0.26865923 0.027180558 -0.062487721
0.19771965 0.027180558 -0.05722332
-0.2689043 0.044452716 -0.060498178
0.19789374 0.044493694 -0.055167496
-0.26915118 0.061755616 -0.058493614
0.19806814 0.061838523 -0.053107917
-0.26939711 0.079089224 -0.056496859
0.18008234 0.078970432 -0.061640263
0.19824286 0.079215124 -0.051044583
-0.26964492 0.096454091 -0.054485202
0.18022515 0.096290886 -0.059785128
-0.26989171 0.11384958 -0.052481234
0.1803682 0.11364002 -0.057926714
-0.27014038 0.13127668 -0.050462425
-0.25143766 0.13073534 -0.062182844
0.18051149 0.13101792 -0.056065321
-0.25189641 0.14820853 -0.058210194
0.16279396 0.14800417 -0.062002003
0.18080142 0.14852703 -0.052298903
-0.25245529 0.16579629 -0.05336982
-0.23408484 0.16520002 -0.063052297
0.16310303 0.16553949 -0.057541132
-0.23461278 0.18279184 -0.05815345
0.14552023 0.18251032 -0.06221664
0.16345279 0.18318404 -0.052492619
-0.23520322 0.20050374 -0.052675009
-0.21702236 0.19985104 -0.061154068
0.14586197 0.20019639 -0.056667149
-0.21763739 0.21763854 -0.055008233
0.12839909 0.21724448 -0.059660554
0.14624971 0.21803109 -0.050371051
-0.20015723 0.23478712 -0.056803405
0.11110016 0.23448226 -0.060102105
0.12874237 0.23511152 -0.053290129
-0.1827798 0.25199676 -0.057711184
-0.16505337 0.25143394 -0.063334525
0.093828931 0.25176764 -0.060000181
0.11142057 0.2524516 -0.053164899
-0.16563132 0.26949334 -0.055826724
-0.14793067 0.26888263 -0.061493516
0.07657671 0.26912662 -0.059230149
0.094122715 0.26986623 -0.05236727
-0.14849347 0.28708518 -0.053369761
-0.13081539 0.28642684 -0.059071541
-0.11336647 0.28607142 -0.062148929
0.041999742 0.28630894 -0.060090721
0.059372135 0.2867949 -0.055883646
0.076830164 0.28735888 -0.050998807
-0.13134345 0.304766 -0.050496697
-0.11380763 0.30433911 -0.053961754
-0.096342437 0.30395842 -0.057053149
-0.078926466 0.30358297 -0.060101926
-0.06163181 0.30350488 -0.060735822
-0.044346649 0.30342555 -0.061380386
-0.02707525 0.30337667 -0.061776042
-0.0098263975 0.30359119 -0.060034156
0.0074492726 0.30380476 -0.058300912
0.024755584 0.3040815 -0.056053877
0.042127077 0.30460298 -0.051820099
-0.079242602 0.32193297 -0.051888585
-0.061881412 0.32183594 -0.052629352
-0.044533748 0.321751 -0.053278744
-0.027200289 0.32170182 -0.053654432
-0.0098889265 0.32192987 -0.051911235
0.0074492726 0.32215989 -0.05015415
-0.35753608 -0.45946664 -0.046448171
0.2859177 -0.4427349 -0.04332757
-0.35702747 -0.42407626 -0.049594522
0.28621092 -0.42580718 -0.040946841
-0.35739723 -0.40716058 -0.047307074
0.28650478 -0.4088437 -0.038561165
-0.35776773 -0.39021033 -0.045015097
-0.35813716 -0.37322366 -0.042730033
-0.35850918 -0.35620451 -0.040428638
0.26782674 -0.35470635 -0.049274623
-0.35888195 -0.33915067 -0.038122773
0.2681002 -0.33773077 -0.046906292
0.2683742 -0.32071942 -0.044533253
-0.33966616 -0.3025791 -0.049628735
0.2686488 -0.30367219 -0.042155147
-0.3400183 -0.28554022 -0.047341526
0.268924 -0.28658921 -0.039771855
-0.34037119 -0.26846683 -0.045049548
0.26919976 -0.26947004 -0.037383795
-0.34072474 -0.25135863 -0.042753041
-0.34107903 -0.23421566 -0.040451705
0.25054342 -0.23327745 -0.04857713
-0.34143227 -0.21703655 -0.038157225
0.25076666 -0.21613686 -0.046505511
0.25099158 -0.19896592 -0.044418395
-0.32230535 -0.18108554 -0.049663007
0.2512157 -0.18176205 -0.042339146
-0.32263988 -0.16392373 -0.047375858
0.2514402 -0.16452661 -0.040255904
-0.32297513 -0.14672706 -0.04508388
0.25166637 -0.1472602 -0.038157403
-0.323311 -0.12949543 -0.042787492
0.23309717 -0.12903723 -0.04940021
-0.32364756 -0.11222865 -0.040486276
0.23330434 -0.1118072 -0.047330022
-0.32398483 -0.094926767 -0.038180351
0.23351304 -0.094546102 -0.045244634
0.23372099 -0.077252485 -0.043166697
-0.30503061 -0.059619464 -0.049080193
0.23392929 -0.059927136 -0.041085124
-0.3053112 -0.042321853 -0.047055185
0.23413914 -0.042570136 -0.038987994
-0.30559072 -0.024992831 -0.045038104
0.23434825 -0.025180772 -0.036898613
-0.3058978 -0.0076358318 -0.042821825
0.21585475 -0.0075537562 -0.048153996
-0.30621663 0.0097546801 -0.040520966
0.21604726 0.009797398 -0.046070039
-0.30653614 0.027180478 -0.038215101
0.21623906 0.027180597 -0.043993711
-0.28771251 0.044543013 -0.048760116
0.21643122 0.044595648 -0.041913509
-0.28797758 0.061936684 -0.046734571
0.2166248 0.062043101 -0.039818048
-0.28824162 0.079361297 -0.044716895
0.21681765 0.07952264 -0.037730098
-0.28850767 0.096817404 -0.042684019
0.1984179 0.096623696 -0.048977375
-0.28877267 0.11430461 -0.04065901
0.19859424 0.11406467 -0.046895027
-0.28903964 0.13182367 -0.038618863
0.19876994 0.13153729 -0.04482007
-0.27064329 0.14884605 -0.046379447
0.19913106 0.14915988 -0.040555418
-0.27125001 0.16653012 -0.041453302
0.18114869 0.16614002 -0.047787786
-0.25308004 0.18349813 -0.047959447
0.18154247 0.1838644 -0.042672455
-0.25378749 0.20133834 -0.041833043
0.16384299 0.20095143 -0.046860635
0.18198071 0.20171204 -0.036979556
-0.23587307 0.21836233 -0.046459675
0.16428462 0.21886818 -0.040486157
-0.2366174 0.23638049 -0.039553046
-0.21831304 0.23557651 -0.048256874
0.14667641 0.23602119 -0.043442369
-0.21905725 0.25368705 -0.040820181
-0.20083371 0.25282043 -0.0494802
0.12914625 0.25318921 -0.045794845
-0.20159115 0.27106097 -0.041280627
-0.18343714 0.27012679 -0.049948514
0.11177633 0.27061033 -0.04546243
0.12959515 0.27147233 -0.037464678
-0.18418086 0.28849429 -0.041165531
-0.16626072 0.28774554 -0.047650576
0.094442807 0.28816128 -0.044051111
0.1121644 0.28896838 -0.03706032
-0.1490906 0.30547357 -0.044751287
0.059564125 0.30512631 -0.047570348
-0.16692846 0.30618489 -0.03897649
0.077100001 0.30578345 -0.042235494
-0.13187841 0.32325184 -0.041810095
-0.11425574 0.32274991 -0.045645773
-0.09672495 0.32234079 -0.04877156
0.02481992 0.32248157 -0.047696233
0.042256236 0.32303971 -0.043431044
0.059758596 0.32360005 -0.039149463
-0.11470656 0.34129554 -0.037279963
-0.097110823 0.34086084 -0.040417254
-0.079563282 0.34042561 -0.043557286
-0.062132481 0.34029835 -0.044475794
-0.044722203 0.34020936 -0.045118392
-0.027326059 0.34015858 -0.045485377
-0.0099519975 0.3404035 -0.043718159
0.0074492726 0.3406471 -0.041959524
0.024884738 0.34101892 -0.039276361
-0.044912029 0.35880208 -0.036898613
-0.027452927 0.35875148 -0.037245274
0.28742722 -0.46278089 -0.031072021
-0.3767235 -0.44430429 -0.035777271
0.305677 -0.44647521 -0.025331974
-0.37712547 -0.4273169 -0.033403993
-0.37759122 -0.41036546 -0.030653775
-0.37805811 -0.39337289 -0.02789712
0.28679922 -0.39184439 -0.036170483
-0.37852609 -0.3763392 -0.02513361
0.28709432 -0.37480921 -0.033774734
0.28739002 -0.35773796 -0.031373918
0.28768635 -0.34063065 -0.028967917
-0.35925549 -0.32206208 -0.035811961
0.28798333 -0.32348698 -0.026556909
-0.35962981 -0.30493861 -0.033496618
0.2882809 -0.30630708 -0.024140835
-0.3600049 -0.28778011 -0.031176627
-0.36038071 -0.27058655 -0.028851569
-0.36075732 -0.25335783 -0.026521981
0.26947612 -0.25231475 -0.034990668
-0.36113471 -0.23609377 -0.024187505
0.26975301 -0.23512323 -0.032592297
0.27003056 -0.2178953 -0.030188978
-0.34178805 -0.19982363 -0.03584677
0.27030864 -0.2006309 -0.027780533
-0.34214449 -0.18257569 -0.033531427
0.27058598 -0.18332885 -0.025378764
-0.34250167 -0.16529247 -0.031211317
-0.34285963 -0.14797391 -0.028886437
-0.34321827 -0.13061987 -0.026556909
0.2518917 -0.12996098 -0.036066473
-0.34357768 -0.11323018 -0.024222612
0.2521337 -0.1126391 -0.033821106
0.25239244 -0.095291033 -0.03142041
-0.32432106 -0.07758905 -0.0358814
0.25265169 -0.077906169 -0.029014587
-0.32465973 -0.060216516 -0.033566177
0.25291154 -0.060484521 -0.026603639
-0.32499906 -0.042808577 -0.031246066
0.25317192 -0.043025926 -0.024187624
-0.32533905 -0.025364961 -0.028921366
-0.32568151 -0.0078858137 -0.026580274
0.23455773 -0.0077592432 -0.034805417
-0.32602289 0.0096293725 -0.024245918
0.23476875 0.0096944571 -0.032696724
0.23497899 0.027180519 -0.030595601
-0.3068563 0.04464196 -0.035904527
0.23518966 0.044699065 -0.028490782
-0.30717549 0.062138811 -0.033600867
0.23540068 0.062249973 -0.026382029
-0.30749854 0.079671815 -0.031269491
0.23561327 0.079833761 -0.0242576
-0.30782068 0.097240552 -0.028944671
0.21701089 0.097034432 -0.035638511
-0.30814344 0.1148452 -0.026615202
0.21720447 0.1145785 -0.033542931
-0.30846688 0.13248585 -0.024281025
0.21739948 0.13215566 -0.031431973
-0.28959021 0.14949092 -0.034411848
0.21780458 0.14988783 -0.027046561
-0.29024172 0.16727039 -0.02943325
0.19955917 0.16689685 -0.035499811
-0.29097715 0.18517107 -0.023813605
-0.27192774 0.18433006 -0.03595078
0.20004432 0.18475832 -0.029770494
-0.27269471 0.20227045 -0.029724061
-0.25458556 0.21933946 -0.03492105
0.18252672 0.21976568 -0.029886723
-0.25545987 0.23750785 -0.027349412
0.16477127 0.23694324 -0.03346175
-0.23751266 0.25464523 -0.031246066
0.14714704 0.25418937 -0.035800457
0.16530704 0.25519741 -0.025728822
-0.21988761 0.27200496 -0.032522798
0.14766677 0.27256125 -0.027361155
-0.22078374 0.29052627 -0.023568153
-0.20241088 0.28950572 -0.032406688
0.13008749 0.28997678 -0.028327823
-0.18497068 0.30706412 -0.031838179
0.094782636 0.3066473 -0.035221994
0.11257527 0.30751646 -0.028164804
-0.16760401 0.32477111 -0.030200601
-0.1496955 0.32400954 -0.03602016
0.07737302 0.32435644 -0.033369064
0.095126033 0.3252815 -0.026300371
-0.15030511 0.34268922 -0.027221382
-0.1324175 0.3418808 -0.03305608
0.042386364 0.34161443 -0.034978986
0.059954524 0.34221208 -0.030665517
0.077648185 0.34307563 -0.024432898
-0.13296078 0.36065453 -0.024234295
-0.11516135 0.35998082 -0.028839946
-0.09749902 0.35951686 -0.032012224
-0.079886332 0.35905576 -0.035164237
-0.062385727 0.35889685 -0.036251426
-0.010015441 0.35901016 -0.035476565
0.0074492726 0.35927081 -0.033693552
0.024950041 0.35969514 -0.03079319
0.042517465 0.36032838 -0.026463687
-0.080211334 0.37782288 -0.026720166
-0.062640823 0.37763101 -0.027966797
-0.045102973 0.37752891 -0.028630555
-0.027580541 0.3774786 -0.028956294
-0.010079438 0.37775475 -0.027163148
0.0074492726 0.37803119 -0.025367022
-0.39816895 -0.44897997 -0.013281226
-0.39856407 -0.43179113 -0.011049449
0.30599353 -0.42941654 -0.022913277
0.30631074 -0.41232163 -0.020489395
0.30662861 -0.3951903 -0.018060386
0.30694714 -0.37802249 -0.015626311
-0.37899327 -0.35926199 -0.022375107
0.30726638 -0.36081809 -0.013186872
-0.37946355 -0.34214532 -0.019598186
0.30758631 -0.34357703 -0.010742188
-0.379935 -0.32498699 -0.01681447
-0.38040555 -0.30778503 -0.014035761
-0.38087931 -0.2905429 -0.011238575
0.28857914 -0.28909051 -0.021719515
0.28887799 -0.27183747 -0.019293189
0.28917748 -0.25454772 -0.016861618
0.28947762 -0.23722105 -0.01442486
-0.36151284 -0.2187942 -0.021848381
0.28977838 -0.21985739 -0.011982858
-0.36189178 -0.20145914 -0.019504368
-0.36229619 -0.18410257 -0.017002642
-0.36274529 -0.16673091 -0.01422441
0.27086526 -0.16599123 -0.022960067
-0.36319745 -0.14931788 -0.01142776
0.27114651 -0.1486176 -0.020524621
0.2714256 -0.13120523 -0.018107414
0.27170667 -0.11375678 -0.015673161
-0.3439396 -0.095805578 -0.021871746
0.27198833 -0.096271046 -0.013234019
-0.34430048 -0.078344375 -0.019527853
0.27227062 -0.078747995 -0.010789454
-0.3446621 -0.060847282 -0.017179072
-0.34502447 -0.043314196 -0.014825404
-0.34538758 -0.025744952 -0.012466967
0.25343284 -0.02553026 -0.021766424
0.25369436 -0.0079973303 -0.019340098
0.25395638 0.0095729418 -0.016908705
-0.32636502 0.027180478 -0.021906853
0.254219 0.027180597 -0.014472008
-0.32670784 0.044767745 -0.019563019
0.25448215 0.044825755 -0.012030184
-0.3270514 0.062391125 -0.017214179
-0.32739562 0.080050781 -0.014860868
-0.32774058 0.097746842 -0.012502372
0.23582511 0.097450025 -0.022141039
0.23603731 0.11509906 -0.020020485
0.2362511 0.13278145 -0.017884135
-0.30915153 0.1503031 -0.019339979
0.23674126 0.15064543 -0.012986183
-0.30994859 0.1682463 -0.013587773
0.21828043 0.16773461 -0.02189517
0.21881606 0.18570568 -0.01609695
-0.29191774 0.20327872 -0.016626298
0.20058931 0.2027624 -0.023334205
-0.27355951 0.22037405 -0.022702694
0.20120117 0.22093245 -0.016108632
-0.27450943 0.23864956 -0.01499027
0.1831329 0.23800087 -0.022012293
-0.25643757 0.25588244 -0.018882394
0.1838032 0.25644064 -0.01330483
-0.2385053 0.27313513 -0.022035658
0.1659002 0.27365977 -0.017167211
-0.23958234 0.29185718 -0.012041926
0.14823665 0.29115683 -0.018107414
-0.22173414 0.30925238 -0.014071345
-0.20328029 0.30815327 -0.022995114
0.13060659 0.30868304 -0.01869452
-0.2041591 0.32695901 -0.013481557
-0.18576904 0.32579064 -0.022410154
0.11298937 0.32621092 -0.019199312
-0.18657403 0.34467322 -0.012903571
-0.16828485 0.34350187 -0.021356463
0.095472142 0.34406281 -0.017308295
-0.16898097 0.36239797 -0.012313485
-0.15091945 0.36151451 -0.018353999
0.060151927 0.36096406 -0.022117555
0.077925526 0.36194277 -0.01542598
-0.13350831 0.37957448 -0.015343606
-0.11561891 0.37880391 -0.020348608
-0.09789066 0.37831378 -0.023533046
0.025015835 0.37851167 -0.022246361
0.042649552 0.37918329 -0.017884135
0.060350548 0.37985575 -0.013516963
-0.11608054 0.39776987 -0.01178205
-0.098284692 0.3972494 -0.015002191
-0.080539227 0.39673227 -0.018201351
-0.062897794 0.39650261 -0.01962173
-0.045295585 0.39639467 -0.020290136
-0.027709272 0.39634538 -0.020594895
-0.010143816 0.39663547 -0.018800259
0.0074492726 0.39692789 -0.01699084
0.025082126 0.39747041 -0.013635039
-0.063156649 0.4155131 -0.011214912
-0.04548962 0.41539907 -0.011888444
-0.027838774 0.41534901 -0.012183547
-0.010208759 0.41565734 -0.010363698
0.32625207 -0.45102376 -0.0034483671
0.32651609 -0.43369371 -0.0015431643
-0.39905855 -0.41467571 -0.0082569122
0.32692611 -0.41653723 0.0014160872
-0.39955628 -0.3975209 -0.0054453611
-0.40005526 -0.38032407 -0.0026271343
-0.40055338 -0.36308283 0.0001860857
0.30790693 -0.32629901 -0.0082924962
0.30822819 -0.3089841 -0.0058373213
0.30859843 -0.29168326 -0.0030080676
-0.38135418 -0.27325851 -0.0084345937
0.30898365 -0.2743538 -6.4611435e-05
-0.38182822 -0.25593036 -0.0056354403
0.30937141 -0.25698143 0.0028985739
-0.38230544 -0.23856129 -0.0028175712
-0.38278383 -0.22114959 7.0333481e-06
-0.38326135 -0.20369393 0.0028268099
0.29007977 -0.20245671 -0.0095357299
0.29038185 -0.18501893 -0.0070831776
0.29068455 -0.16754368 -0.0046257377
0.29098791 -0.15003115 -0.0021626949
0.29129189 -0.1324809 0.0003054738
-0.36365065 -0.13186234 -0.0086240172
-0.36410499 -0.11436392 -0.0058135986
0.29159656 -0.11489305 0.0027789474
-0.36455852 -0.096822068 -0.0030080676
-0.36501509 -0.079237804 -0.00018388033
-0.36547279 -0.061610393 0.0026473999
0.27255347 -0.061187483 -0.0083396435
0.27283695 -0.043589428 -0.0058848262
0.27312103 -0.025953837 -0.0034245849
-0.34575146 -0.0081395507 -0.010103524
0.2734071 -0.0082805455 -0.00094711781
-0.34611604 0.0095022861 -0.0077353716
0.2736924 0.0094310381 0.0015236139
-0.34648141 0.027180519 -0.0053622127
-0.34684753 0.044895343 -0.0029842257
-0.3472493 0.062650397 -0.0003746748
0.2547459 0.062508613 -0.0095829964
-0.34768513 0.080450654 0.0024560094
0.25501019 0.080229357 -0.0071307421
0.25527501 0.097987927 -0.0046731234
-0.32808623 0.11547933 -0.010138988
0.25554046 0.11578456 -0.002210319
-0.32843432 0.13324904 -0.0077590942
0.25581288 0.13362211 0.00031733513
-0.32918322 0.15120302 -0.0026389956
0.23734267 0.1686534 -0.0069764853
-0.31084496 0.18632768 -0.0071188807
0.23801528 0.18680318 -0.00025546551
-0.31186709 0.20457855 0.00025773048
0.21942544 0.20382734 -0.0095002055
-0.29297581 0.22157326 -0.0085411668
0.22010215 0.2221123 -0.0021746755
0.20187809 0.23928465 -0.0081147552
-0.29414603 0.24007139 0.00040096045
-0.27556804 0.25713211 -0.0063951015
0.20263253 0.25785172 0.00079500675
-0.25751549 0.27448103 -0.009547472
0.18454547 0.27511519 -0.0036626458
-0.25869042 0.29332024 0.00062781572
0.16657501 0.29239017 -0.007427156
-0.24071895 0.31080133 -0.0014954209
0.14883526 0.3099525 -0.008387208
-0.22278054 0.32825029 -0.0036149025
0.13113074 0.32754987 -0.0089675188
0.14943971 0.32891017 0.0014280677
0.11343517 0.34513813 -0.009547472
-0.2050442 0.34592074 -0.003900528
0.13165873 0.34657627 0.00083076954
-0.18738677 0.36371553 -0.0033055544
0.095820986 0.36299312 -0.0082449913
0.1138875 0.36423498 0.00024574995
-0.16972022 0.3815195 -0.0027105808
-0.15153942 0.38048875 -0.0094054937
0.078205064 0.38095951 -0.0063477159
0.096172154 0.38207209 0.00087845325
0.042782642 0.39818102 -0.0092397928
-0.15216343 0.39961016 -0.00039863586
-0.13406086 0.39864463 -0.0063714385
0.060560007 0.39895564 -0.0044472814
0.07848683 0.40012771 0.0028028488
-0.13461702 0.41786277 0.00265944
-0.11654564 0.41687888 -0.0031508207
-0.098682232 0.41632932 -0.0063952208
-0.080869131 0.41578144 -0.0096303821
0.0074492726 0.41596597 -0.0085411668
0.025148917 0.41657275 -0.004958272
0.042916745 0.4173227 -0.00052988529
-0.099082761 0.43555331 0.0022765994
-0.081201971 0.43497622 -0.0009829402
-0.06341742 0.43466395 -0.0027462244
-0.045685079 0.43454391 -0.0034245849
-0.027969416 0.43449545 -0.0036981106
-0.010274185 0.43482006 -0.0018649101
0.0074492726 0.4351452 -2.8669834e-05
-0.42051363 -0.45427769 0.012207448
-0.42042676 -0.43635178 0.011737347
-0.4210133 -0.41913462 0.014912069
0.32733557 -0.39933449 0.004371047
0.32774773 -0.38208973 0.0073454976
0.32816097 -0.36480033 0.010327697
-0.40105483 -0.34580153 0.0030183196
0.32857525 -0.34746641 0.013317525
-0.40155751 -0.32847756 0.0058573484
-0.40205929 -0.31110907 0.0086913109
-0.40256441 -0.29369974 0.011544526
-0.40306869 -0.27624577 0.014392495
0.30976018 -0.2395644 0.0058692694
0.31014997 -0.22210242 0.0088478327
0.31053916 -0.20459411 0.011821747
-0.38374209 -0.1861966 0.0056653619
0.31093094 -0.18704183 0.01481539
-0.384224 -0.16865608 0.0085110664
-0.3847051 -0.1510714 0.011351585
-0.38518736 -0.13344353 0.014199078
0.29190189 -0.097267382 0.0052577257
0.29220784 -0.079603925 0.0077419281
0.29252779 -0.061906487 0.010339737
-0.36592966 -0.04393927 0.0054736137
0.29289609 -0.044181116 0.013329744
-0.36638767 -0.026224725 0.0083066821
-0.36684871 -0.0084668659 0.011158824
-0.36730897 0.009334933 0.014005959
0.27397832 0.027180636 0.0039997697
0.27426484 0.044968251 0.0064810514
0.27455199 0.062794238 0.008967936
0.27483976 0.08065863 0.011459947
-0.34812015 0.098294459 0.0052816868
0.27512816 0.098561555 0.01395756
-0.34855628 0.1161819 0.0081144571
-0.34901759 0.13412058 0.011110604
0.25638664 0.15164921 0.00564152
-0.3300404 0.16928139 0.0032216907
0.25704753 0.16980815 0.011773407
-0.33100581 0.18750143 0.0098221898
0.23878916 0.2051343 0.0074777007
-0.31300572 0.22301412 0.0084750056
0.23964693 0.22365548 0.016049087
0.22089176 0.240623 0.0063731074
-0.29545456 0.25881296 0.010399938
-0.27683657 0.27593064 0.0039040446
0.20346217 0.27665156 0.010592639
-0.27829075 0.29506183 0.015710354
0.18535681 0.29404181 0.0068773031
-0.25992313 0.31237775 0.011303365
0.16732855 0.31141031 0.003449142
-0.24186605 0.32992053 0.0091482997
0.16808924 0.33061159 0.014428854
-0.22384375 0.34743255 0.0070093274
0.15004863 0.34802914 0.011315584
-0.2059367 0.36504167 0.0057615042
0.1321919 0.36576766 0.010725081
-0.20684345 0.38433498 0.015577257
-0.18820533 0.38291621 0.0063611865
0.11434427 0.38349724 0.010135114
-0.18903182 0.40228087 0.016121626
-0.17046474 0.40079993 0.0069613457
0.096526586 0.4013052 0.010086894
-0.15279238 0.41888231 0.00867939
0.060771678 0.41821146 0.0047184229
0.078770846 0.41944921 0.012026608
-0.13517755 0.43723261 0.011761367
-0.11702394 0.43616396 0.0057254434
0.025216218 0.43582022 0.0037842989
0.043051865 0.43661046 0.0082466006
0.060985051 0.43762147 0.01395762
-0.11751572 0.45563191 0.014851749
-0.099485785 0.45492083 0.011002183
-0.081536859 0.45431393 0.007717967
-0.063679755 0.4539547 0.0057733655
-0.04588199 0.45383066 0.0051018596
-0.028100844 0.45378196 0.0048382282
-0.010340003 0.45412314 0.0066851974
0.0074492726 0.45446712 0.0085470676
0.025284031 0.45521468 0.012593627
-0.063944414 0.47339106 0.014368236
-0.04608037 0.47326088 0.013691902
-0.028233435 0.47321445 0.013450503
-0.010406407 0.47357249 0.015311241
0.34859771 -0.4576093 0.028236866
0.34795153 -0.43876994 0.02381897
0.34839398 -0.42143089 0.026843786
-0.42167762 -0.40194637 0.018507898
-0.42234403 -0.38470471 0.022114754
-0.4230125 -0.36740935 0.025732994
-0.42368302 -0.35006022 0.02936244
0.32898894 -0.33008575 0.016303122
0.32940537 -0.31266195 0.019308507
0.3298229 -0.29519308 0.022321701
0.3302398 -0.27767718 0.025330424
-0.4035742 -0.25874877 0.017247498
0.33065948 -0.26011747 0.028359175
-0.40408093 -0.24120866 0.020109594
-0.40458894 -0.22362535 0.022978783
-0.4050982 -0.20599842 0.025855064
-0.40573004 -0.18839133 0.029423714
0.31132373 -0.16944414 0.017816901
0.31171596 -0.15179981 0.020814121
0.31211078 -0.13411085 0.023831129
-0.38567078 -0.11577219 0.017053723
0.31250665 -0.11637585 0.026856065
-0.38615543 -0.098057359 0.019915402
-0.38664123 -0.080298632 0.022783995
-0.38712823 -0.062496156 0.02565968
-0.38761652 -0.044649586 0.028542757
0.29326379 -0.026409704 0.016315281
0.29363397 -0.0085925683 0.019320667
0.2940051 0.0092707574 0.02233386
-0.36777037 0.027180519 0.016860008
0.29437569 0.027180597 0.025342584
-0.36823291 0.045070164 0.01972115
0.29474875 0.04513675 0.028371572
-0.36869654 0.063003987 0.022589326
-0.3691614 0.080982119 0.025464535
-0.36962733 0.099004656 0.028347015
0.27541718 0.1165032 0.016460419
0.27572641 0.13449144 0.019138575
-0.34997362 0.1522785 0.017320216
0.27635267 0.1526688 0.024562359
-0.35106421 0.17058584 0.02440393
0.25779679 0.18811814 0.018726289
-0.33218753 0.20593673 0.017901719
0.25864401 0.20660536 0.026587367
-0.33364555 0.22465646 0.027870178
-0.31427833 0.24166556 0.017659485
0.24060872 0.24240473 0.0256598
-0.31569487 0.26056242 0.027882457
0.22185601 0.25945452 0.016811609
-0.2968874 0.27781063 0.021348953
0.22291484 0.27855706 0.028273702
0.20437299 0.29571283 0.021348774
-0.27980351 0.31443334 0.027992487
0.18620361 0.31318754 0.01787746
-0.26122493 0.33167797 0.022577047
0.18705946 0.3325178 0.028995395
-0.24302512 0.34921902 0.019903421
0.1688572 0.34999645 0.02551353
-0.22491683 0.36679256 0.017732143
0.15070847 0.36742109 0.022029757
0.13272965 0.38512456 0.020704746
-0.22600113 0.38633507 0.028567076
-0.20784137 0.40393913 0.026379824
0.11480442 0.40292346 0.020097494
-0.18986431 0.42180765 0.025952578
-0.17121556 0.42024314 0.016714692
0.096888997 0.42071533 0.019502699
-0.17197369 0.43985337 0.026563048
-0.15342627 0.43830705 0.01782912
0.079057142 0.4389258 0.021324575
-0.1540737 0.45790845 0.027173638
-0.13574253 0.456756 0.020935655
0.043188017 0.45604539 0.017090142
0.061200134 0.45718735 0.023270965
-0.11801142 0.47525442 0.024050474
-0.099892408 0.47443753 0.019806027
-0.081874758 0.47380072 0.016496718
0.0074492726 0.47393346 0.017186999
0.025352459 0.47476012 0.021482468
0.043325219 0.47562987 0.026001573
-0.10030159 0.49410087 0.028665066
-0.082214765 0.49343365 0.025330424
-0.064211048 0.49297261 0.023027539
-0.046279944 0.49283373 0.02233386
-0.02836702 0.49279249 0.022127032
-0.010473305 0.49316758 0.024001598
0.0074492726 0.49354345 0.025879383
0.34883577 -0.40404445 0.029864311
0.34928048 -0.3866151 0.032904863
0.34972456 -0.36913824 0.035941124
0.3501716 -0.35161787 0.038997769
-0.42435566 -0.33265692 0.033003211
0.35064515 -0.33407825 0.042235374
-0.42503038 -0.31519914 0.036655307
