ply
format ascii 1.0
comment PCL generated
element vertex 1389
property float x
property float y
property float z
element camera 0
property float view_px
property float view_py
property float view_pz
property float x_axisx
property float x_axisy
property float x_axisz
property float y_axisx
property float y_axisy
property float y_axisz
property float z_axisx
property float z_axisy
property float z_axisz
property float focal
property float scalex
property float scaley
property float centerx
property float centery
property int viewportx
property int viewporty
property float k1
property float k2
end_header
-0.40643087 -0.34094632 0.057553768
0.23355453 -0.32039812 0.049398422
-0.42449361 -0.30101255 0.049168944
0.25363517 -0.30192322 0.056127548
-0.4450534 -0.28253606 0.056290507
0.2721267 -0.26219302 0.04819715
-0.46298116 -0.2428178 0.047927499
0.29249147 -0.24373813 0.056467056
-0.48297158 -0.20445268 0.051425576
0.31079262 -0.18479107 0.047994852
-0.50401163 -0.16637814 0.060097933
0.33121338 -0.1466399 0.055761099
-0.5215621 -0.10755666 0.050668478
0.34937936 -0.088035561 0.047293663
-0.54272878 -0.069159806 0.059335589
0.36991569 -0.049596459 0.055069089
0.38913506 0.027999984 0.053957343
-0.5815106 0.086287312 0.058968067
0.42864439 0.20279971 0.058070302
0.44768506 0.28028202 0.056005359
0.46590045 0.27966276 0.049817204
0.48525915 0.27966276 0.049817204
0.50461781 0.27966276 0.049817204
0.52397358 0.27966136 0.049803615
0.54333216 0.27966136 0.049803615
0.56269073 0.27966136 0.049803615
0.58204931 0.27966136 0.049803615
0.60140783 0.27966136 0.049803615
0.6207664 0.27966136 0.049803615
0.64012498 0.27966136 0.049803615
0.65948355 0.27966136 0.049803615
0.67884588 0.27966276 0.049817204
0.69820839 0.27966398 0.049830675
0.71756321 0.27966276 0.049817204
0.73691779 0.27966136 0.049803615
0.75627637 0.27966136 0.049803615
0.44768506 0.29968819 0.056005239
0.44768506 0.31909457 0.056005359
0.44768506 0.33850092 0.056005359
0.46698689 0.33843404 0.05546248
0.48638901 0.33843404 0.05546248
0.50579119 0.33843404 0.05546248
0.52519333 0.33843404 0.05546248
0.54459548 0.33843404 0.05546248
0.56399757 0.33843404 0.05546248
0.58339971 0.33843404 0.05546248
0.60280186 0.33843404 0.05546248
0.62220401 0.33843404 0.05546248
0.64160252 0.33843243 0.055449009
0.6610046 0.33843243 0.055449009
0.68040663 0.33843243 0.055449009
0.70120645 0.33903688 0.060356736
0.38985494 0.47477084 0.058410406
0.38986376 0.49420565 0.058464646
0.38987032 0.51363885 0.058505535
-0.1548347 -0.55815035 0.073157191
-0.018066308 -0.55836648 0.074093103
-0.13513136 -0.55732524 0.069584608
-0.11548393 -0.55650568 0.066035867
-0.095891431 -0.55568844 0.06249702
-0.076458797 -0.55592483 0.063520789
-0.057048738 -0.55673647 0.067035079
-0.037584651 -0.55755037 0.070559263
-0.21317683 -0.53782058 0.069612026
-0.1934199 -0.53702837 0.066063285
-0.17371739 -0.53623527 0.06251061
0.0013980642 -0.53646684 0.063548088
0.020916546 -0.53725141 0.067062378
0.040489353 -0.53803813 0.070586681
-0.25243112 -0.51885128 0.072125554
-0.23192376 -0.51636446 0.060588241
0.05980169 -0.51707602 0.063889503
-0.27165097 -0.49867594 0.069022179
0.079152644 -0.4969824 0.060874462
0.099114202 -0.49931228 0.072084427
-0.29082385 -0.47854978 0.065926433
0.11848222 -0.47918034 0.069077134
-0.33083069 -0.46069443 0.074382305
-0.30994835 -0.45847005 0.062824607
0.13780357 -0.45909339 0.066063285
-0.34996983 -0.44056964 0.071259618
0.157079 -0.43905416 0.063056588
0.17740402 -0.44112885 0.074285984
0.19619106 -0.40051475 0.065310955
-0.38824725 -0.38114733 0.06599474
0.21629852 -0.38213843 0.072125554
-0.40883949 -0.36277318 0.073198438
0.23502658 -0.341905 0.064108014
-0.42700586 -0.32251966 0.064709425
0.25522751 -0.32337785 0.070902586
-0.44770023 -0.30398992 0.071919322
0.27382201 -0.28334764 0.062879205
0.29450989 -0.26504022 0.0728544
-0.46572998 -0.26395458 0.063452363
-0.48633158 -0.22564374 0.069612145
0.31292275 -0.20563941 0.064272046
0.33348283 -0.16730513 0.072139382
-0.52519989 -0.12804118 0.068843961
0.35176075 -0.10825208 0.063575387
0.37243804 -0.06962619 0.071452022
-0.56481975 -0.011053862 0.071671963
0.41080537 0.10597661 0.067418456
0.45075223 0.24287514 0.072606921
0.47028634 0.24287514 0.072606921
0.48982045 0.24287514 0.072606921
0.50935459 0.24287514 0.072606921
0.5288887 0.24287514 0.072606921
0.54842281 0.24287514 0.072606921
0.56795692 0.24287514 0.072606921
0.58748776 0.24287398 0.072593212
0.60701835 0.24287273 0.072579384
0.62655222 0.24287273 0.072579384
0.64608973 0.24287398 0.072593212
0.66562372 0.24287398 0.072593212
0.68516159 0.24287514 0.072606921
0.7046957 0.24287514 0.072606921
0.72422975 0.24287514 0.072606921
0.74375147 0.24287169 0.072565675
0.76328945 0.24287273 0.072579384
0.44863749 0.26135182 0.061160564
0.4680835 0.26135182 0.061160564
0.48752949 0.26135182 0.061160564
0.50697553 0.26135182 0.061160564
0.52642149 0.26135182 0.061160564
0.5458675 0.26135182 0.061160564
0.5653072 0.26134926 0.061133385
0.58475298 0.26134926 0.061133385
0.60419881 0.26134926 0.061133385
0.62364453 0.26134926 0.061133385
0.64309037 0.26134926 0.061133385
0.66254348 0.26135182 0.061160564
0.68198943 0.26135182 0.061160564
0.70143932 0.26135314 0.061174273
0.72088146 0.26135182 0.061160564
0.74031925 0.26134926 0.061133385
0.75976926 0.26135072 0.061146975
-0.60275531 0.53473037 0.066829681
-0.58326876 0.53473324 0.06684351
0.39121819 0.53473324 0.06684351
0.41070795 0.53473324 0.06684351
0.43019527 0.53473037 0.066829681
-0.15560719 -0.5811097 0.087492824
-0.13579161 -0.58024752 0.083879828
-0.1160326 -0.579391 0.080290914
-0.096329145 -0.57853705 0.076712132
-0.076784477 -0.57875443 0.077623129
-0.057266466 -0.57960242 0.081176758
-0.037693821 -0.58045286 0.0847404
-0.018066308 -0.58130568 0.088314056
-0.2142773 -0.560633 0.083907485
-0.19440658 -0.55980098 0.080304742
-0.17459282 -0.55897456 0.07672596
0.0015065204 -0.55918491 0.077636957
0.021134062 -0.56000561 0.081190705
0.040816545 -0.56082863 0.084754348
-0.2537967 -0.54168183 0.08690846
-0.23316415 -0.53907621 0.075236559
0.060241163 -0.53972918 0.078161716
-0.27312672 -0.52136093 0.083768845
0.0797012 -0.51949805 0.07512629
0.099778339 -0.52194166 0.086463451
-0.29240772 -0.50108707 0.080623031
0.11925448 -0.50166595 0.083408117
-0.3116428 -0.48086596 0.077498794
0.13868402 -0.48143864 0.080360174
-0.35190308 -0.46293649 0.08603251
0.15806715 -0.46125957 0.077319264
-0.3699415 -0.42161834 0.074492455
0.19745134 -0.42262778 0.080193996
-0.39055085 -0.4032979 0.081744552
0.21768209 -0.40420547 0.087103128
0.23651458 -0.36366293 0.078977108
-0.42954937 -0.34429422 0.080443144
0.25684011 -0.34508735 0.085865736
-0.45038012 -0.32571128 0.087743163
0.27553886 -0.30475256 0.077747464
-0.46851534 -0.28535593 0.079184532
-0.48973793 -0.24714179 0.088049531
0.31508246 -0.22676088 0.08077538
-0.50753587 -0.18736668 0.078410506
-0.52888787 -0.14882292 0.087270141
0.35417321 -0.12873249 0.080069542
-0.54653263 -0.089436993 0.077636838
0.37499121 -0.089917347 0.088035464
0.39283586 0.0084331837 0.076850176
-0.60517782 0.16499262 0.077319503
0.62948287 0.22422701 0.084115624
0.64911646 0.22423017 0.084157348
0.6687395 0.22423017 0.084157348
0.68836254 0.22423017 0.084157348
0.70798558 0.22423017 0.084157348
0.72760451 0.22422908 0.084143519
0.7472232 0.22422796 0.084129572
0.76685464 0.22423017 0.084157348
0.74692756 0.32222822 0.083144546
0.72798222 0.34212577 0.085434914
-0.56600732 0.47809437 0.077181458
-0.54643798 0.47809437 0.077181458
-0.52686864 0.47809437 0.077181458
-0.50729936 0.47809437 0.077181458
-0.48773003 0.47809437 0.077181458
-0.46816069 0.47809437 0.077181458
-0.44859138 0.47809437 0.077181458
-0.42902204 0.47809437 0.077181458
-0.40945277 0.47809437 0.077181458
-0.38988343 0.47809437 0.077181458
-0.37031409 0.47809437 0.077181458
-0.35074475 0.47809437 0.077181458
-0.33117545 0.47809437 0.077181458
-0.31160614 0.47809437 0.077181458
-0.29203683 0.47809437 0.077181458
-0.27246749 0.47809437 0.077181458
-0.25289816 0.47809437 0.077181458
-0.23332883 0.47809437 0.077181458
-0.21375953 0.47809437 0.077181458
-0.19419019 0.47809437 0.077181458
-0.17462087 0.47809437 0.077181458
-0.15505156 0.47809437 0.077181458
-0.13548224 0.47809437 0.077181458
-0.11591292 0.47809437 0.077181458
-0.096343592 0.47809437 0.077181458
-0.076774269 0.47809437 0.077181458
-0.057204947 0.47809437 0.077181458
-0.037635628 0.47809437 0.077181458
-0.018066308 0.47809437 0.077181458
0.0015030131 0.47809437 0.077181458
0.021072334 0.47809437 0.077181458
0.040641658 0.47809437 0.077181458
0.060210973 0.47809437 0.077181458
0.079780303 0.47809437 0.077181458
0.099349618 0.47809437 0.077181458
0.11891895 0.47809437 0.077181458
0.13848826 0.47809437 0.077181458
0.15805759 0.47809437 0.077181458
0.17762692 0.47809437 0.077181458
0.19719623 0.47809437 0.077181458
0.21676555 0.47809437 0.077181458
0.23633488 0.47809437 0.077181458
0.2559042 0.47809437 0.077181458
0.27547351 0.47809437 0.077181458
0.29504281 0.47809437 0.077181458
0.31461212 0.47809437 0.077181458
0.33418146 0.47809437 0.077181458
0.3537508 0.47809437 0.077181458
0.37332013 0.47809437 0.077181458
-0.56793302 0.49931431 0.086115837
-0.56793302 0.51895249 0.086115837
-0.567936 0.53859329 0.086129665
-0.15638846 -0.60432988 0.10199118
-0.13645938 -0.60342973 0.098337173
-0.11658749 -0.60253555 0.094707489
-0.096771806 -0.60164398 0.091087937
-0.077113807 -0.60184008 0.091883659
-0.057486638 -0.60272527 0.095477343
-0.037804216 -0.60361296 0.099081159
-0.21539024 -0.58370429 0.098365188
-0.19540539 -0.58283472 0.094721437
-0.17547816 -0.58197099 0.091102004
0.0016162992 -0.58216083 0.091897607
0.021354238 -0.58301842 0.09549129
0.041147731 -0.58387852 0.099095225
-0.2551783 -0.56478 0.10186446
-0.23441902 -0.56205285 0.090055823
0.06068562 -0.56263953 0.092596054
-0.27461976 -0.54431158 0.098688126
0.1004494 -0.54482597 0.10099244
0.080255449 -0.54226625 0.089526057
-0.29401162 -0.52389061 0.095505357
0.12003551 -0.52440727 0.097902179
-0.31335703 -0.50352323 0.092344522
0.13957448 -0.50403768 0.094819307
-0.35385898 -0.48556536 0.10097826
-0.33265474 -0.48320621 0.089191437
0.15906653 -0.48371708 0.091744065
0.17851178 -0.46344522 0.088676095
-0.37213862 -0.44409645 0.090348601
0.19872771 -0.44500512 0.095267415
-0.3928833 -0.42572585 0.097691655
0.2190821 -0.4265345 0.10225868
-0.41127825 -0.38487253 0.089038253
0.23802157 -0.38568044 0.094035864
-0.43212467 -0.36634138 0.096373916
0.25847185 -0.36705452 0.10100639
0.27727601 -0.32641083 0.092791557
-0.47180456 -0.30737182 0.097761869
0.29655641 -0.28662276 0.089470267
0.31727055 -0.24815984 0.097495317
-0.51110893 -0.2086605 0.096976519
0.3357839 -0.18824185 0.088745713
0.35661533 -0.14948082 0.096766353
-0.55038917 -0.11000966 0.096191883
0.39660457 -0.011492552 0.10016286
-0.58848184 0.067338958 0.090195298
0.4147265 0.087017238 0.090571761
0.67188001 0.20541476 0.095813394
0.69159663 0.20541564 0.095827579
0.7113055 0.20541476 0.095813394
0.73101413 0.20541376 0.095799685
0.75072259 0.20541285 0.095785499
0.45489484 0.36301416 0.095029473
0.47460157 0.36301416 0.095029473
0.49430826 0.36301416 0.095029473
0.51401502 0.36301416 0.095029473
0.53372175 0.36301416 0.095029473
0.55342841 0.36301416 0.095029473
0.57313192 0.36301228 0.095015407
0.59283859 0.36301228 0.095015407
0.61254513 0.36301228 0.095015407
0.63224822 0.36301044 0.095001221
0.65195471 0.36301044 0.095001221
0.6716612 0.36301044 0.095001221
0.69174415 0.36318833 0.096359849
-0.13713475 -0.62687641 0.11295938
-0.11714871 -0.62594384 0.10928822
-0.097219072 -0.62501031 0.10561335
-0.077446528 -0.62518257 0.10629106
-0.057709292 -0.62610936 0.10993958
-0.037915856 -0.6270352 0.11358416
-0.21651588 -0.60703874 0.11298776
-0.1964156 -0.60613084 0.1093024
-0.17637357 -0.60522908 0.10564148
-0.018066308 -0.60450327 0.10269511
0.0017273165 -0.60539609 0.10631919
0.021576898 -0.60629135 0.10995364
0.041482672 -0.60718918 0.11359835
-0.23568861 -0.58529925 0.10504901
0.061135598 -0.58581477 0.10720921
-0.27613035 -0.56753248 0.113783
0.080816016 -0.56529391 0.10408986
0.1011288 -0.56797564 0.11570203
-0.29563439 -0.5469625 0.1105628
0.12082622 -0.54741198 0.11257625
-0.3150914 -0.52644688 0.10736477
0.140476 -0.52689803 0.10945809
-0.35583794 -0.50846088 0.11610031
-0.33450016 -0.5059821 0.10417449
0.16007827 -0.50643378 0.10634744
0.17965169 -0.48606688 0.10348403
-0.3743633 -0.46685696 0.10640407
0.2000193 -0.46764922 0.11052036
-0.39524516 -0.44843644 0.11383975
-0.41374758 -0.40724945 0.10507715
0.23954509 -0.40795785 0.10925984
-0.43473247 -0.38866615 0.11250532
-0.45309362 -0.34770551 0.10376585
0.27903223 -0.34832487 0.10800087
0.29862994 -0.3084898 0.106305
-0.49319422 -0.26895502 0.10675728
0.31948572 -0.26984006 0.1144222
-0.51473725 -0.23026894 0.11582983
0.33811527 -0.20945446 0.10557115
-0.53262991 -0.16990912 0.10596645
0.35909173 -0.17050429 0.11369789
0.37835267 -0.11074667 0.10986876
-0.57161593 -0.031308971 0.10320222
0.41872001 0.067707747 0.11415243
0.67504936 0.18642633 0.10757685
0.69485658 0.18642724 0.10759079
0.71465999 0.18642724 0.10759079
0.73445517 0.18642549 0.10756254
0.75425839 0.18642549 0.10756254
0.71542174 0.36500797 0.11026537
-0.59376347 0.56399399 0.11385405
-0.57391798 0.56399977 0.11388242
0.39882246 0.56399977 0.11388242
0.41867188 0.56399673 0.11386812
-0.13781787 -0.65059221 0.12774944
-0.11771635 -0.64962035 0.12403607
-0.097671889 -0.64864755 0.12031913
-0.077783354 -0.64879322 0.12087584
-0.057934485 -0.64975905 0.12456596
-0.038028769 -0.65072381 0.12825215
-0.21765447 -0.63064098 0.12777817
-0.19743738 -0.62969404 0.12405038
-0.17727922 -0.6287533 0.12034762
-0.15717788 -0.62781173 0.11664116
-0.018066308 -0.62796366 0.117239
0.0018395949 -0.62889481 0.12090445
0.021802088 -0.62982857 0.12458038
0.04182142 -0.63076502 0.12826645
-0.23697318 -0.60882008 0.12021923
0.061590292 -0.60925287 0.12197602
-0.27765888 -0.59102845 0.12905681
-0.25657618 -0.5881505 0.116997
0.081383005 -0.58858579 0.11882102
-0.29727635 -0.5703072 0.12579823
0.1216253 -0.57067829 0.12740493
-0.31684628 -0.54964131 0.12256229
0.141387 -0.55001825 0.12425089
-0.33636734 -0.52902681 0.11933434
0.16110067 -0.52940834 0.12110436
0.18083343 -0.50902933 0.11883521
-0.37661612 -0.4899053 0.12266243
0.20132636 -0.49056453 0.12595606
-0.39763695 -0.4714351 0.13019264
0.2204975 -0.44912758 0.11758089
-0.41624811 -0.42990911 0.1213187
0.24108832 -0.43050435 0.12468064
-0.43737328 -0.41127405 0.12884116
0.26012155 -0.3892819 0.1163137
-0.45584142 -0.36997738 0.11999059
0.28081107 -0.37050331 0.12340629
-0.47514471 -0.32971349 0.11662686
0.30072922 -0.33064502 0.12334919
-0.49670416 -0.29109195 0.12575531
0.34047559 -0.23094691 0.1226052
-0.53643 -0.19130772 0.12495279
-0.55457735 -0.13096631 0.11634207
0.40044534 -0.031787366 0.12392151
-0.59562451 0.047915779 0.12219048
0.67824799 0.16726273 0.11944842
0.69814664 0.16726349 0.11946273
0.71803737 0.16726273 0.11944842
0.73792791 0.16726194 0.11943436
0.75782245 0.16726194 0.11943436
0.65945286 0.20734325 0.12364972
-0.55574244 0.5059343 0.12194741
-0.53582847 0.5059343 0.12194741
-0.51591456 0.5059343 0.12194741
-0.49600068 0.5059343 0.12194741
-0.47608674 0.5059343 0.12194741
-0.45617282 0.5059343 0.12194741
-0.43625885 0.5059343 0.12194741
-0.41634491 0.5059343 0.12194741
-0.396431 0.5059343 0.12194741
-0.37651706 0.5059343 0.12194741
-0.35660315 0.5059343 0.12194741
-0.3366892 0.5059343 0.12194741
-0.31677529 0.5059343 0.12194741
-0.29686135 0.5059343 0.12194741
-0.27694741 0.5059343 0.12194741
-0.2570335 0.5059343 0.12194741
-0.23711956 0.5059343 0.12194741
-0.2172056 0.5059343 0.12194741
-0.19729167 0.5059343 0.12194741
-0.17737775 0.5059343 0.12194741
-0.15746382 0.5059343 0.12194741
-0.13754989 0.5059343 0.12194741
-0.11763596 0.5059343 0.12194741
-0.097722031 0.5059343 0.12194741
-0.077808104 0.5059343 0.12194741
-0.05789417 0.5059343 0.12194741
-0.037980236 0.5059343 0.12194741
-0.018066308 0.5059343 0.12194741
0.0018476229 0.5059343 0.12194741
0.021761553 0.5059343 0.12194741
0.041675486 0.5059343 0.12194741
0.061589412 0.5059343 0.12194741
0.081503339 0.5059343 0.12194741
0.10141728 0.5059343 0.12194741
0.12133121 0.5059343 0.12194741
0.14124514 0.5059343 0.12194741
0.16115907 0.5059343 0.12194741
0.181073 0.5059343 0.12194741
0.20098695 0.5059343 0.12194741
0.22090088 0.5059343 0.12194741
0.24081479 0.5059343 0.12194741
0.26072872 0.5059343 0.12194741
0.28064266 0.5059343 0.12194741
0.30055657 0.5059343 0.12194741
0.32047051 0.5059343 0.12194741
0.34038442 0.5059343 0.12194741
0.36029837 0.5059343 0.12194741
0.38021228 0.5059343 0.12194741
0.38064191 0.54632068 0.12473786
-0.55631942 0.56625307 0.12472355
0.37960365 0.5648545 0.11799419
-0.13850887 -0.67458177 0.14271021
-0.11829054 -0.67356974 0.13895392
-0.098129921 -0.67255664 0.13519394
-0.078124024 -0.6726734 0.13562727
-0.058162019 -0.67367512 0.13934517
-0.038142867 -0.67467946 0.14307332
-0.21880616 -0.65451556 0.14273942
-0.19847092 -0.65352851 0.13896823
-0.1781953 -0.65254831 0.13522279
-0.15797715 -0.65156692 0.13147354
-0.018066308 -0.65169138 0.13194883
0.0019531529 -0.65266162 0.13565612
0.022029852 -0.65363473 0.1393739
0.042164035 -0.65461063 0.14310229
-0.23827301 -0.6326201 0.13556933
0.062050246 -0.63296169 0.13691354
-0.25799063 -0.61179817 0.13230896
0.081957094 -0.61214983 0.13373613
-0.29893786 -0.59392983 0.14121497
0.10181539 -0.5913887 0.13056672
0.1224336 -0.5942139 0.14240527
-0.31862199 -0.57311141 0.13794065
0.14230852 -0.57340568 0.13921463
-0.33825675 -0.5523451 0.13467407
0.16213486 -0.55264825 0.13603163
-0.35786107 -0.53166205 0.13155997
0.18202937 -0.53226793 0.13437104
-0.37889764 -0.51324701 0.13912773
0.20264921 -0.51375628 0.14157784
0.22193125 -0.47199494 0.13310158
-0.41878051 -0.45285702 0.13776684
0.24265011 -0.45332259 0.14028692
0.2617926 -0.41177836 0.13181925
-0.45862412 -0.39253247 0.13642192
0.2826114 -0.39294881 0.13899732
-0.47853181 -0.35238457 0.13575709
0.30285826 -0.35309795 0.14063489
0.32173222 -0.29181039 0.1315887
-0.51841658 -0.25219616 0.13494837
0.34286937 -0.25272784 0.13988113
0.36160111 -0.19180746 0.13085449
0.38203841 -0.1320419 0.13380837
-0.57858312 -0.052073911 0.13552606
0.42278546 0.048038699 0.13815761
0.66465455 0.12840001 0.14352393
0.68473464 0.12840001 0.14352393
0.70481461 0.12840001 0.14352393
0.72489053 0.12839946 0.14350927
0.74496621 0.12839904 0.14349484
0.76505041 0.12839946 0.14350927
0.66205513 0.1480214 0.13359213
0.68147624 0.14792161 0.13143039
0.70146722 0.14792223 0.13144481
0.72145015 0.14792161 0.13143039
0.74142861 0.14792024 0.13140154
0.76141536 0.14792024 0.13140154
0.66205132 0.16802421 0.1335777
0.66205132 0.18802756 0.1335777
0.46243542 0.38837621 0.13584387
0.4824563 0.38837621 0.13584387
0.50247723 0.38837621 0.13584387
0.52249819 0.38837621 0.13584387
0.54251599 0.38837433 0.13582945
0.56253678 0.38837433 0.13582945
0.58255756 0.38837433 0.13582945
0.60257488 0.3883723 0.13581514
0.62259555 0.3883723 0.13581514
0.64261627 0.3883723 0.13581514
0.66263312 0.38837034 0.1358006
0.68265367 0.38837034 0.1358006
0.70457304 0.38931966 0.14265215
-0.55886507 0.52873963 0.13697135
0.38168782 0.52769262 0.13153112
-0.55758774 0.54753911 0.13082576
-0.13920791 -0.69884968 0.15784454
-0.11887082 -0.69779265 0.15402997
-0.058392398 -0.6978696 0.1543082
-0.038258385 -0.69891477 0.15807962
-0.098593242 -0.69674248 0.1502409
-0.078468591 -0.69682747 0.15054774
-0.21997009 -0.67866331 0.15785933
-0.19951646 -0.67763954 0.15405929
-0.17912197 -0.67661864 0.1502701
-0.15878564 -0.67559659 0.14647734
-0.018066308 -0.67568702 0.14681256
0.0020678993 -0.67669737 0.15056252
0.022260236 -0.67771453 0.15433764
0.042510599 -0.67873055 0.15810907
-0.23958838 -0.65670472 0.15110314
0.062515542 -0.65694588 0.15202451
-0.25942197 -0.63572818 0.14780366
0.082537286 -0.63598371 0.14881015
-0.30061924 -0.61783528 0.15681648
-0.27920559 -0.61480445 0.14451241
0.10250992 -0.61507326 0.14560378
0.1232521 -0.61802709 0.15759492
-0.32041895 -0.59686214 0.1535027
0.14324166 -0.59706843 0.15436697
-0.34016868 -0.57594198 0.15019715
0.16318208 -0.57616138 0.15114689
-0.36003071 -0.55535108 0.148139
0.18323979 -0.5557878 0.15009487
-0.38121039 -0.5368908 0.15581846
0.20398684 -0.5372262 0.1573745
-0.40005928 -0.49472719 0.14675415
0.22338098 -0.49513578 0.14879549
-0.42134526 -0.47609866 0.1544255
0.24422936 -0.47641474 0.15606797
-0.4400478 -0.43417019 0.14538538
0.2634823 -0.43454418 0.14749742
-0.46144244 -0.41537613 0.15306342
0.28443182 -0.41566405 0.15476274
-0.48196948 -0.37539411 0.15517306
-0.50026363 -0.31355646 0.14502168
0.32400882 -0.31407523 0.14898527
-0.52215087 -0.27445078 0.15435231
0.34529334 -0.27479982 0.1573745
-0.54028368 -0.21302348 0.144207
0.364142 -0.21339481 0.14822662
-0.56136513 -0.1530997 0.14899993
0.40435559 -0.052461371 0.14810991
-0.60295165 0.0279999 0.15501189
0.66784948 0.10869594 0.15573049
0.68802351 0.10869594 0.15573049
0.70819747 0.10869594 0.15573049
0.72836733 0.10869548 0.15571594
0.74853688 0.10869507 0.15570128
0.76871502 0.10869548 0.15571594
-0.11945842 -0.72230178 0.1692965
-0.099061966 -0.72120982 0.16546309
-0.078817144 -0.72126031 0.16564035
-0.058625437 -0.72234398 0.1694448
-0.20057416 -0.70203143 0.16932595
-0.18005943 -0.7009691 0.16549277
-0.15960354 -0.69990593 0.16165578
-0.018066308 -0.69996297 0.16186213
0.0021840874 -0.70101416 0.16565526
0.022493048 -0.70206845 0.16945946
-0.24091956 -0.68107855 0.16682363
0.06298627 -0.68121004 0.16731167
-0.26087049 -0.65994531 0.16348433
0.083124816 -0.6600998 0.16407478
-0.28076938 -0.63886166 0.16013873
0.10321322 -0.63903755 0.16083097
-0.32223755 -0.62089872 0.16925192
0.14418481 -0.62100458 0.16968191
0.16424051 -0.59994572 0.16642416
-0.34210357 -0.59982222 0.16590667
-0.36222824 -0.57934463 0.1649313
0.18446495 -0.57959378 0.16601014
-0.40251273 -0.51831859 0.16352856
0.2248497 -0.51856107 0.16469479
-0.42394307 -0.49963981 0.17129898
0.24582939 -0.49979138 0.1720562
-0.44275665 -0.45736045 0.16214216
0.26519409 -0.4575893 0.16338098
-0.46429959 -0.43851665 0.16993392
0.28627613 -0.43865854 0.170735
0.30501416 -0.37585062 0.15813839
-0.50387925 -0.33635971 0.16459143
0.32631421 -0.33663824 0.16660166
-0.5441981 -0.23506598 0.16376472
0.36671928 -0.23527448 0.16584754
0.38579103 -0.15373586 0.15818262
-0.58573121 -0.073368818 0.16868889
0.42692977 0.027999943 0.16262877
0.67107439 0.088806383 0.16805196
0.69134724 0.088806756 0.16806686
0.71161211 0.088806383 0.16805196
0.73187673 0.088806175 0.16803718
0.75214112 0.08880572 0.16802239
-0.54511547 0.53477806 0.16834831
-0.52484435 0.53477806 0.16834831
-0.50457329 0.53477806 0.16834831
-0.48430216 0.53477806 0.16834831
-0.46403101 0.53477806 0.16834831
-0.44375989 0.53477806 0.16834831
-0.4234888 0.53477806 0.16834831
-0.40321767 0.53477806 0.16834831
-0.38294655 0.53477806 0.16834831
-0.36267543 0.53477806 0.16834831
-0.34240428 0.53477806 0.16834831
-0.32213315 0.53477806 0.16834831
-0.30186206 0.53477806 0.16834831
-0.28159091 0.53477806 0.16834831
-0.26131979 0.53477806 0.16834831
-0.24104865 0.53477806 0.16834831
-0.22077754 0.53477806 0.16834831
-0.20050642 0.53477806 0.16834831
-0.1802353 0.53477806 0.16834831
-0.15996417 0.53477806 0.16834831
-0.13969305 0.53477806 0.16834831
-0.11942193 0.53477806 0.16834831
-0.099150799 0.53477806 0.16834831
-0.078879677 0.53477806 0.16834831
-0.058608554 0.53477806 0.16834831
-0.038337432 0.53477806 0.16834831
-0.018066308 0.53477806 0.16834831
0.0022048149 0.53477806 0.16834831
0.022475937 0.53477806 0.16834831
0.042747065 0.53477806 0.16834831
0.06301818 0.53477806 0.16834831
0.08328931 0.53477806 0.16834831
0.10356043 0.53477806 0.16834831
0.12383156 0.53477806 0.16834831
0.14410269 0.53477806 0.16834831
0.16437382 0.53477806 0.16834831
0.18464494 0.53477806 0.16834831
0.20491605 0.53477806 0.16834831
0.22518718 0.53477806 0.16834831
0.24545829 0.53477806 0.16834831
0.26572943 0.53477806 0.16834831
0.28600052 0.53477806 0.16834831
0.30627164 0.53477806 0.16834831
0.32654279 0.53477806 0.16834831
0.34681392 0.53477806 0.16834831
0.36708504 0.53477806 0.16834831
-0.54518962 0.57539725 0.16871858
0.36685988 0.57500041 0.16680884
-0.58443445 0.5943681 0.162673
-0.56420702 0.5943681 0.162673
-0.54398549 0.5943746 0.16270244
0.36625925 0.5943746 0.16270244
0.38648468 0.59437126 0.16268766
0.40670985 0.5943681 0.162673
-0.12005292 -0.74709827 0.18474197
-0.09953618 -0.74596393 0.18086362
-0.079169743 -0.74597687 0.18090844
-0.058861181 -0.74710268 0.18475676
-0.20164429 -0.72670949 0.1847719
-0.18100697 -0.72560066 0.18087864
0.0023016203 -0.72561336 0.18092346
0.022728799 -0.72670949 0.1847719
-0.16043101 -0.72449905 0.17701137
-0.13991509 -0.72340095 0.17315578
-0.038375244 -0.72343057 0.17325985
-0.018066308 -0.7245205 0.17708611
-0.24226682 -0.70574719 0.18273401
-0.22114877 -0.70309687 0.17317045
0.042860836 -0.70312572 0.17327464
0.063462995 -0.70576376 0.18279386
-0.26233649 -0.68445474 0.17935443
0.08371868 -0.68449491 0.17950356
-0.28235352 -0.66321266 0.17596829
0.10392409 -0.663279 0.17622173
-0.32407811 -0.645226 0.18519187
-0.3023209 -0.64202881 0.17260587
0.12407941 -0.64211553 0.17294765
0.14513907 -0.64522219 0.18517697
-0.34406185 -0.62399107 0.18180597
0.16531137 -0.62400949 0.18188071
-0.36445421 -0.6036486 0.18194067
0.18570396 -0.60368788 0.1821053
-0.38355091 -0.56083637 0.17270994
0.20534204 -0.56098562 0.17337883
-0.40499792 -0.54221505 0.1805197
0.2263364 -0.54227304 0.18078876
-0.44550052 -0.48085022 0.1791153
0.26692683 -0.48091638 0.17945886
-0.4854615 -0.39875218 0.17489612
0.30720106 -0.39891344 0.17589378
-0.5075466 -0.35950539 0.18444204
0.32865283 -0.35950971 0.18447208
-0.52594417 -0.29704183 0.17406285
0.34775218 -0.29717201 0.1751194
-0.54816866 -0.25743979 0.18360269
0.36933154 -0.25745109 0.18370759
-0.56832999 -0.17580144 0.18250942
0.38961479 -0.17584062 0.18301845
0.40834197 -0.073525831 0.17276943
0.67432976 0.06872917 0.1804899
0.69469839 0.068729416 0.18050468
0.71505898 0.06872917 0.1804899
0.73541927 0.068728879 0.18047488
0.7557838 0.068728879 0.18047488
0.73481095 0.39426446 0.178339
0.49055985 0.41455585 0.1779511
0.51090491 0.41455585 0.1779511
0.53124994 0.41455585 0.1779511
0.55159503 0.41455585 0.1779511
0.57194006 0.41455585 0.1779511
0.5922851 0.41455585 0.1779511
0.61263013 0.41455585 0.1779511
0.63297153 0.41455367 0.17793632
0.65331644 0.41455367 0.17793632
0.67366141 0.41455367 0.17793632
0.69454539 0.41484624 0.17993689
-0.54645288 0.55638659 0.17503023
0.36789691 0.55616009 0.17389929
-0.10001598 -0.77100933 0.19644547
-0.079526462 -0.77098221 0.19635475
-0.18196657 -0.75052631 0.1964606
-0.16126819 -0.74938178 0.1925478
-0.1406306 -0.74824053 0.18864667
-0.038493458 -0.74823165 0.18861639
-0.018066308 -0.74936414 0.1924876
0.002420526 -0.75049978 0.19636977
-0.24363047 -0.73071587 0.198838
-0.22234127 -0.72781748 0.18866169
0.043215491 -0.72780889 0.18863177
0.063944891 -0.73060364 0.19844389
-0.26382029 -0.70926195 0.19541705
0.084319554 -0.70917827 0.19511473
-0.28395686 -0.68785912 0.19198978
0.10464334 -0.68780649 0.19179392
-0.30404317 -0.66651523 0.18858647
0.12491644 -0.66648781 0.18848133
-0.34604397 -0.64845389 0.19789839
0.16639595 -0.64836156 0.19753516
-0.36670914 -0.62826896 0.19917154
0.18695939 -0.62808222 0.19841361
-0.38592184 -0.58509254 0.18982029
0.20671389 -0.58503699 0.18957961
-0.40751761 -0.56642574 0.19774711
0.22784001 -0.56627369 0.19706583
-0.42657459 -0.5234862 0.18839097
0.24744903 -0.5234549 0.18824065
-0.44828248 -0.50464869 0.19632447
0.26867926 -0.50452757 0.19571948
-0.46719125 -0.46195456 0.18700826
0.28814134 -0.46193227 0.1868881
-0.48900384 -0.42246208 0.19490325
0.30941772 -0.42229062 0.19389117
-0.52979207 -0.31997359 0.19405723
0.35024446 -0.31984913 0.19310617
0.41240433 -0.094991632 0.19789863
0.67761606 0.048461128 0.19304585
0.69808131 0.048461296 0.19306076
0.71853858 0.048461128 0.19304585
0.73899549 0.048461087 0.19303071
0.75945222 0.048461005 0.19301569
0.72045892 0.41777709 0.19997525
-0.10050146 -0.79635149 0.21221185
-0.079887368 -0.7962808 0.21198225
-0.18293753 -0.77574724 0.21222723
-0.16211529 -0.77455884 0.20826817
-0.14135453 -0.77337348 0.20432055
-0.12065443 -0.77218729 0.20036936
-0.059099689 -0.77215081 0.20024812
-0.038613059 -0.77332336 0.2041533
-0.018066308 -0.77449912 0.20806968
0.0025408305 -0.7756784 0.21199751
-0.22354788 -0.75283003 0.20433569
-0.20272702 -0.75167871 0.20039999
0.022967307 -0.75163883 0.2002635
0.043574296 -0.75278103 0.20416856
-0.26532084 -0.73436815 0.21166086
0.084927566 -0.7341547 0.21091127
-0.28557974 -0.71280658 0.20820701
0.10537183 -0.71262872 0.20756602
-0.30578643 -0.69130039 0.20476198
0.12576424 -0.69115281 0.20421422
-0.32594112 -0.66984951 0.20132577
0.14610554 -0.66973031 0.20087028
0.16749236 -0.67299938 0.21336055
-0.38832369 -0.60966551 0.20715415
0.20810139 -0.60938174 0.20596528
0.22936365 -0.59057492 0.21355975
-0.42924044 -0.54764384 0.20570624
0.24908714 -0.54740739 0.20460963
-0.45109844 -0.52875572 0.21374369
0.27045503 -0.52843404 0.21219659
-0.470314 -0.48591781 0.2054472
0.29004535 -0.48551947 0.20337737
0.31166294 -0.44598585 0.21211994
-0.51126987 -0.38300306 0.20459449
0.33102146 -0.38269153 0.20257163
0.35276887 -0.34283522 0.21132445
-0.5521996 -0.2801539 0.2037425
0.37197727 -0.27992916 0.20179665
0.39351162 -0.19836788 0.20832908
-0.59306061 -0.095213145 0.2026931
0.66175157 0.027999943 0.21114075
0.72204709 0.027999943 0.20570624
0.74260145 0.027999943 0.20569086
0.76316005 0.027999943 0.20569086
0.68093371 0.028000025 0.2057215
0.70149255 0.028000025 0.2057215
0.66175157 0.04860051 0.21114063
0.66174763 0.069200829 0.21112537
0.66174763 0.089801274 0.21112537
0.66174763 0.11040168 0.21112537
0.66174382 0.13100141 0.21111012
0.66174382 0.15160173 0.21111012
0.66174382 0.17220217 0.21111012
0.66173989 0.19280151 0.21109486
0.66173989 0.21340157 0.21109486
-0.53304452 0.58417642 0.21095717
0.35296184 0.58454221 0.21271718
-0.53143066 0.60296804 0.20257163
0.35171619 0.60321712 0.20372736
-0.57477093 0.62594193 0.21349847
-0.55414611 0.62593514 0.21346784
-0.53352469 0.6259318 0.21345258
0.35306373 0.6259318 0.21345258
0.37368435 0.62593514 0.21346784
0.39430749 0.62594193 0.21349847
-0.16297247 -0.80003524 0.22417521
-0.14208639 -0.79880059 0.22016537
-0.12126308 -0.79757416 0.21618247
-0.059340999 -0.79749382 0.21592176
-0.038734067 -0.79871047 0.21987271
-0.018066308 -0.79993063 0.22383547
0.0026625525 -0.80115438 0.22780979
-0.2247688 -0.77813977 0.22019613
-0.20382263 -0.77694404 0.21621346
0.02320862 -0.77686107 0.21593702
0.043937333 -0.77804738 0.21988845
-0.24501082 -0.75599021 0.21513903
0.064432524 -0.75573909 0.21428025
0.085543431 -0.75943416 0.22691202
-0.28722259 -0.73806036 0.22462332
0.1061083 -0.7377435 0.22351122
-0.30755109 -0.7163896 0.22113597
0.12662129 -0.71610767 0.22011912
-0.32782692 -0.69477481 0.21765757
0.14708258 -0.69452637 0.2167356
-0.34805033 -0.67321616 0.21418822
-0.36899361 -0.65321195 0.21662807
0.18823035 -0.65277904 0.21492422
-0.39075708 -0.63456154 0.22471595
0.20950744 -0.63403273 0.2225697
-0.41006812 -0.59095019 0.21518493
-0.43194368 -0.57212222 0.22326422
0.25074714 -0.57166082 0.22119761
-0.47378409 -0.51057565 0.22593737
0.29216534 -0.50973487 0.22173727
-0.49260026 -0.44653398 0.2152158
-0.51505297 -0.40686345 0.22507143
0.33342469 -0.4061949 0.22093558
-0.53370172 -0.34325758 0.21437216
0.37466168 -0.30271837 0.22014999
-0.57547253 -0.19909158 0.216874
0.41654235 -0.1168696 0.22349596
0.66362578 0.0073425733 0.21851873
0.68428314 0.0073425733 0.21851873
0.70494044 0.0073425733 0.21851873
0.72559351 0.0073426981 0.21850324
0.7462464 0.00734278 0.21848786
0.76691246 0.0073425733 0.21851873
-0.53410041 0.56467539 0.21644378
-0.51345903 0.56467539 0.21644378
-0.4928177 0.56467539 0.21644378
-0.47217634 0.56467539 0.21644378
-0.45153499 0.56467539 0.21644378
-0.43089357 0.56467539 0.21644378
-0.41025221 0.56467539 0.21644378
-0.38961086 0.56467539 0.21644378
-0.3689695 0.56467539 0.21644378
-0.34832814 0.56467539 0.21644378
-0.32768676 0.56467539 0.21644378
-0.3070454 0.56467539 0.21644378
-0.28640404 0.56467539 0.21644378
-0.26576269 0.56467539 0.21644378
-0.24512132 0.56467539 0.21644378
-0.22447993 0.56467539 0.21644378
-0.20383857 0.56467539 0.21644378
-0.1831972 0.56467539 0.21644378
-0.16255584 0.56467539 0.21644378
-0.14191449 0.56467539 0.21644378
-0.12127312 0.56467539 0.21644378
-0.10063177 0.56467539 0.21644378
-0.079990402 0.56467539 0.21644378
-0.059349038 0.56467539 0.21644378
-0.038707674 0.56467539 0.21644378
-0.018066308 0.56467539 0.21644378
0.0025750566 0.56467539 0.21644378
0.023216421 0.56467539 0.21644378
0.043857783 0.56467539 0.21644378
0.064499147 0.56467539 0.21644378
0.085140504 0.56467539 0.21644378
0.10578188 0.56467539 0.21644378
0.12642324 0.56467539 0.21644378
0.1470646 0.56467539 0.21644378
0.16770597 0.56467539 0.21644378
0.18834732 0.56467539 0.21644378
0.20898871 0.56467539 0.21644378
0.22963007 0.56467539 0.21644378
0.25027141 0.56467539 0.21644378
0.27091277 0.56467539 0.21644378
0.29155412 0.56467539 0.21644378
0.31219551 0.56467539 0.21644378
0.33283687 0.56467539 0.21644378
0.35347822 0.56467539 0.21644378
-0.51447403 0.62782592 0.22193766
0.33387494 0.62837029 0.2243762
-0.22600432 -0.80375206 0.23624611
-0.20493127 -0.80251098 0.23221564
-0.18392009 -0.80126888 0.22818184
0.023452787 -0.80238199 0.23179626
0.044304669 -0.80361307 0.23579431
-0.24640816 -0.78157568 0.23164082
0.064926468 -0.78117967 0.23032141
-0.28888577 -0.76362604 0.24124241
-0.26684126 -0.75978744 0.22811985
0.10685363 -0.76315969 0.2396481
-0.30933753 -0.74178815 0.23771179
0.12748863 -0.74136186 0.23621511
-0.32973599 -0.7200073 0.23419058
0.14807132 -0.71961927 0.23279071
-0.35008138 -0.6982829 0.2306782
0.16860189 -0.69793189 0.22937512
-0.37130824 -0.67848384 0.23431492
0.18951721 -0.67778397 0.23164082
0.21092977 -0.65898824 0.23936665
-0.41265228 -0.61579818 0.23285306
0.23090628 -0.61517924 0.2302593
-0.43468031 -0.59692115 0.24103928
0.25242636 -0.59621388 0.23797715
-0.45395151 -0.55318034 0.23139238
0.27225295 -0.55263853 0.22887909
0.29431653 -0.53428912 0.2403667
-0.49625483 -0.47097927 0.23585665
0.31394109 -0.47001123 0.23061621
0.33586124 -0.43002397 0.23955405
-0.53766853 -0.36689773 0.2349844
0.35533023 -0.36614078 0.2298094
-0.5576964 -0.3040801 0.23120618
0.39748606 -0.22133148 0.23414385
-0.60058516 -0.1176298 0.23760271
0.66690803 -0.0135136 0.23143899
0.68766481 -0.0135136 0.23143899
0.70842159 -0.0135136 0.23143899
0.72917837 -0.0135136 0.23143899
0.74992639 -0.013513183 0.231408
-0.51763064 0.59000981 0.23902321
-0.51604587 0.60897601 0.2304455
0.33506972 0.60963583 0.23350608
-0.26838049 -0.78552097 0.24478221
0.086166114 -0.78501284 0.24308944
-0.31114614 -0.76750237 0.25449371
0.12836729 -0.7669251 0.25252068
-0.33166873 -0.74555278 0.25092864
0.14907293 -0.74501902 0.24905491
-0.35213757 -0.72366047 0.24737263
0.16972585 -0.72316867 0.2455982
-0.37365362 -0.70409137 0.25223672
0.190819 -0.70309865 0.24855161
-0.39322275 -0.65978688 0.24251032
-0.41527069 -0.64097571 0.25075507
0.23246683 -0.6400885 0.24715281
0.25412825 -0.62107933 0.25498343
-0.45684245 -0.57792884 0.24927521
0.27407172 -0.57714313 0.2457552
-0.4773052 -0.53561145 0.24672854
0.31625092 -0.49437076 0.24936974
-0.51889175 -0.43109003 0.24584925
0.35792723 -0.38977066 0.24855173
0.37828052 -0.32662612 0.24489224
-0.58280617 -0.22299559 0.25215805
0.42076319 -0.13917319 0.24960577
0.67022198 -0.034571737 0.24448431
0.6910792 -0.034571737 0.24448431
0.71193641 -0.034571737 0.24448431
0.73278928 -0.034571365 0.24446881
0.75364196 -0.034570992 0.24445295
0.3362706 0.59077036 0.24268234
-0.49879783 0.63413966 0.2502197
0.31689957 0.63512558 0.25463605
-0.29056957 -0.78950995 0.25806856
0.10760867 -0.78888738 0.25599504
-0.33362558 -0.77141678 0.26787531
0.15008572 -0.77072221 0.26550066
-0.35421941 -0.749354 0.26427495
0.17086233 -0.74870658 0.26200187
0.19213845 -0.72873718 0.26569176
-0.3957212 -0.68534815 0.2605412
0.21237132 -0.68426162 0.25639057
-0.41792414 -0.6664899 0.26889682
0.23404853 -0.66531593 0.26427507
-0.43745336 -0.62205005 0.25905073
-0.45977193 -0.60300803 0.26739681
0.27591512 -0.6019603 0.2628597
-0.48088118 -0.56103718 0.26784348
0.29649591 -0.55918282 0.25924075
0.31859115 -0.51906848 0.26837003
-0.49996325 -0.49580109 0.25680208
-0.52279317 -0.45569664 0.26696658
0.3383297 -0.45418298 0.25841689
0.36055842 -0.41372892 0.26754045
-0.54169685 -0.39090449 0.25591612
-0.56483144 -0.32950032 0.266855
0.40153554 -0.24474131 0.26044619
0.67356819 -0.055834584 0.25765669
0.69453096 -0.055835001 0.25767255
0.71548545 -0.055834584 0.25765669
0.7364397 -0.055834003 0.25764072
0.75739813 -0.055834003 0.25764072
-0.50164723 0.59568185 0.26631308
-0.48062199 0.59568185 0.26631308
-0.45959672 0.59568185 0.26631308
-0.43857148 0.59568185 0.26631308
-0.41754621 0.59568185 0.26631308
-0.39652094 0.59568185 0.26631308
-0.3754957 0.59568185 0.26631308
-0.35447043 0.59568185 0.26631308
-0.33344519 0.59568185 0.26631308
-0.31241992 0.59568185 0.26631308
-0.29139468 0.59568185 0.26631308
-0.27036941 0.59568185 0.26631308
-0.24934414 0.59568185 0.26631308
-0.22831888 0.59568185 0.26631308
-0.20729361 0.59568185 0.26631308
-0.18626836 0.59568185 0.26631308
-0.1652431 0.59568185 0.26631308
-0.14421785 0.59568185 0.26631308
-0.1231926 0.59568185 0.26631308
-0.10216734 0.59568185 0.26631308
-0.081142083 0.59568185 0.26631308
-0.06011682 0.59568185 0.26631308
-0.039091565 0.59568185 0.26631308
-0.018066308 0.59568185 0.26631308
0.0029589497 0.59568185 0.26631308
0.023984207 0.59568185 0.26631308
0.045009464 0.59568185 0.26631308
0.066034719 0.59568185 0.26631308
0.087059982 0.59568185 0.26631308
0.10808524 0.59568185 0.26631308
0.1291105 0.59568185 0.26631308
0.15013576 0.59568185 0.26631308
0.17116101 0.59568185 0.26631308
0.19218628 0.59568185 0.26631308
0.21321154 0.59568185 0.26631308
0.23423679 0.59568185 0.26631308
0.25526205 0.59568185 0.26631308
0.27628729 0.59568185 0.26631308
0.29731256 0.59568185 0.26631308
0.3183378 0.59568185 0.26631308
-0.50033891 0.61511457 0.25892389
0.31804565 0.6161958 0.26394105
-0.54369467 0.65875405 0.2662971
-0.52266365 0.6587466 0.26626527
-0.50163311 0.65873927 0.26623333
0.31832799 0.65873927 0.26623333
0.33935681 0.6587466 0.26626527
0.3603839 0.65875036 0.26628125
-0.35632738 -0.77537 0.28138936
0.17201264 -0.77455556 0.2786051
0.19347467 -0.75470167 0.28304994
-0.37603033 -0.73004144 0.27039802
-0.39825317 -0.71125233 0.2788142
0.21383113 -0.7098555 0.27363014
0.23564883 -0.6908595 0.28159881
-0.44026357 -0.64751559 0.27730346
0.25585169 -0.64625973 0.27220523
0.27778021 -0.62708873 0.28016555
0.29870778 -0.58442998 0.27839613
-0.5037325 -0.52101392 0.27809072
0.34083498 -0.47868413 0.27756059
-0.54579121 -0.41528907 0.27719116
0.3821584 -0.35116041 0.27140546
0.42506427 -0.16191316 0.27621174
0.67694712 -0.077305131 0.27095771
0.69801229 -0.077305667 0.27097368
0.71906483 -0.07730455 0.27094173
0.74012125 -0.077303879 0.27092564
0.76117742 -0.077303216 0.27090967
-0.48279089 0.64059144 0.27911985
-0.48129758 0.65967894 0.27030241
0.29844072 0.66101402 0.27608347
-0.37843898 -0.75634062 0.28880394
-0.4008193 -0.73750597 0.29733384
0.21530819 -0.735771 0.29107332
-0.42061323 -0.69234705 0.28728223
-0.44311169 -0.67332482 0.29580259
0.25759548 -0.67175686 0.28963017
-0.46274084 -0.62842423 0.28576231
-0.48451602 -0.58686554 0.28930616
0.32096636 -0.54411769 0.2876544
0.34337571 -0.50353247 0.29697537
-0.52675289 -0.48068666 0.28839898
0.36322889 -0.4380275 0.28681302
0.40566477 -0.26861179 0.28726614
-0.59033203 -0.24753542 0.28836668
0.66143334 -0.099406227 0.2934767
0.68035918 -0.098986447 0.28438914
0.7015236 -0.098986447 0.28438914
0.72268361 -0.098985747 0.28437304
0.74384344 -0.098985076 0.28435707
0.7650122 -0.098985747 0.28437304
0.66142935 -0.078171201 0.29346037
0.66142935 -0.056937046 0.29346049
0.66142935 -0.035702765 0.29346037
0.66142529 -0.014468363 0.29344416
0.66142529 0.0067657903 0.29344416
0.6614213 0.027999859 0.29342794
0.6614213 0.049233891 0.29342794
0.6614213 0.070467874 0.29342782
0.66141731 0.091701441 0.29341173
0.66141731 0.11293547 0.29341173
0.66141731 0.13416925 0.29341173
0.66141331 0.15540227 0.2933954
0.66141331 0.17663608 0.2933954
0.66140932 0.19786885 0.29337907
0.66140932 0.21910249 0.29337919
0.66140932 0.24033615 0.29337907
-0.48429385 0.62138039 0.2879945
0.30062941 0.62289852 0.29503775
0.2995322 0.6420238 0.28553605
-0.46413249 0.66523731 0.29437077
0.21680558 -0.76202369 0.30875671
-0.42333871 -0.71855462 0.30591691
0.23727112 -0.71673411 0.29916048
0.25936326 -0.69758517 0.30729496
-0.46574992 -0.65418452 0.30437601
0.27967086 -0.65254217 0.29770863
-0.48820558 -0.61309898 0.31109202
0.30095097 -0.6100347 0.29782283
0.32337332 -0.5695194 0.3071965
-0.50755835 -0.54662108 0.29969895
-0.53077525 -0.50607193 0.31017077
0.36593732 -0.46267152 0.30635965
-0.54994696 -0.4400551 0.29878521
0.3861129 -0.37617922 0.2984426
-0.57216096 -0.35560405 0.30347538
0.66253608 -0.1208818 0.29795325
0.68380493 -0.1208818 0.29795325
0.70507377 -0.1208818 0.29795325
0.72633821 -0.12088093 0.29793692
0.74760234 -0.12088004 0.2979207
-0.46573666 0.64621145 0.30429423
0.28093061 0.64735073 0.30939782
0.27981502 0.66631693 0.29904628
-0.42610142 -0.74511904 0.32480514
0.23891424 -0.74294174 0.31694806
0.26115385 -0.7237466 0.32518756
-0.44599849 -0.69948471 0.31455302
-0.46880001 -0.68029594 0.32324362
0.28158584 -0.67832309 0.31547749
0.30322427 -0.63600057 0.31751013
-0.51144785 -0.57263851 0.32166708
0.34595051 -0.5287317 0.31665027
-0.55417192 -0.46521717 0.32073843
0.40987605 -0.29295686 0.31461918
0.66931868 -0.16532707 0.32548702
0.69079942 -0.16532707 0.32548702
0.71228015 -0.16532707 0.32548702
0.73375648 -0.16532588 0.32547033
0.75523716 -0.16532588 0.32547033
0.66591054 -0.14299425 0.31165183
0.68728483 -0.14299425 0.31165183
0.70865911 -0.14299425 0.31165183
0.7300334 -0.14299425 0.31165183
0.75140309 -0.14299329 0.31163549
-0.46735245 0.62704808 0.31428921
-0.44654036 0.62786359 0.31807244
-0.42511663 0.62786359 0.31807244
-0.40369296 0.62786359 0.31807244
-0.38226923 0.62786359 0.31807244
-0.36084554 0.62786359 0.31807244
-0.33942184 0.62786359 0.31807244
-0.31799814 0.62786359 0.31807244
-0.29657444 0.62786359 0.31807244
-0.27515072 0.62786359 0.31807244
-0.25372702 0.62786359 0.31807244
-0.23230332 0.62786359 0.31807244
-0.21087962 0.62786359 0.31807244
-0.18945591 0.62786359 0.31807244
-0.16803221 0.62786359 0.31807244
-0.1466085 0.62786359 0.31807244
-0.12518482 0.62786359 0.31807244
-0.10376111 0.62786359 0.31807244
-0.082337409 0.62786359 0.31807244
-0.060913712 0.62786359 0.31807244
-0.039490007 0.62786359 0.31807244
-0.018066308 0.62786359 0.31807244
0.0033573937 0.62786359 0.31807244
0.024781095 0.62786359 0.31807244
0.04620479 0.62786359 0.31807244
0.067628495 0.62786359 0.31807244
0.0890522 0.62786359 0.31807244
0.11047589 0.62786359 0.31807244
0.13189961 0.62786359 0.31807244
0.15332331 0.62786359 0.31807244
0.17474702 0.62786359 0.31807244
0.19617072 0.62786359 0.31807244
0.2175944 0.62786359 0.31807244
0.2390181 0.62786359 0.31807244
0.26044181 0.62786359 0.31807244
0.28186551 0.62786359 0.31807244
-0.44735947 0.65047508 0.32339287
-0.44581059 0.66961646 0.31333256
0.26051962 0.67089057 0.31885004
-0.48990664 0.69286579 0.32113636
-0.46845666 0.69286191 0.32111967
-0.44700953 0.69286191 0.32111967
-0.42575401 0.69317454 0.32243025
0.26074675 0.69286191 0.32111967
0.28219393 0.69286191 0.32111967
0.30364108 0.69286191 0.32111967
-0.44892478 -0.7260024 0.33355987
0.2835238 -0.70443326 0.33345973
0.30553213 -0.66234338 0.33749664
-0.49195683 -0.63975495 0.3332423
0.32581675 -0.59528816 0.32703447
0.34856445 -0.55429602 0.33662462
-0.53486478 -0.53186524 0.33230615
0.36868221 -0.48766476 0.32616889
0.39014876 -0.40170014 0.32603598
-0.5980646 -0.27273992 0.32557034
0.67276084 -0.18788362 0.33946085
0.69434917 -0.18788362 0.33946085
0.71593755 -0.18788362 0.33946085
0.73752141 -0.18788229 0.33944392
0.75910491 -0.18788101 0.33942711
0.26157215 0.65180886 0.32936764
-0.42723516 0.67405605 0.33255672
0.24094732 0.67553401 0.33895683
0.23996757 0.69458735 0.32835054
0.28548884 -0.73088795 0.35169291
-0.47230321 -0.7074312 0.34491396
0.32829541 -0.62142831 0.34715879
-0.51539665 -0.59906876 0.34396982
0.37146893 -0.51302129 0.34628057
-0.57968628 -0.38241464 0.34107423
0.41417447 -0.31779274 0.34253824
-0.42872953 0.65480161 0.34277415
0.241933 0.65633166 0.34962702
-0.4084008 0.67855757 0.35204887
-0.40697572 0.69778848 0.34176397
0.22017759 0.69941461 0.34857821
0.30787337 -0.68906742 0.35777235
-0.49576557 -0.66683525 0.35573137
-0.51940924 -0.62592566 0.36663294
0.35121399 -0.58022654 0.35687065
-0.53901696 -0.55806959 0.35478032
0.37429613 -0.53874576 0.36668408
-0.56110591 -0.49331802 0.35676837
0.39426357 -0.42773303 0.35416901
-0.60600907 -0.29863492 0.36379278
0.6762377 -0.21066707 0.35357511
0.69793475 -0.21066707 0.35357511
0.71962726 -0.21066566 0.35355818
0.7413196 -0.21066417 0.35354102
0.76301628 -0.21066417 0.35354102
-0.40983877 0.65918893 0.36242628
0.22108878 0.68024105 0.359339
-0.38793963 0.70247477 0.36140215
0.31024674 -0.71617645 0.37832654
-0.49963892 -0.69435894 0.37860274
0.33080795 -0.64794385 0.36755788
0.35390434 -0.6065383 0.37742877
-0.54323959 -0.58470213 0.37763572
-0.58742231 -0.40996617 0.37972569
0.41855747 -0.34313017 0.37100661
0.66109079 -0.23489957 0.38102269
0.67974979 -0.23368107 0.36783206
0.7015565 -0.23368107 0.36783206
0.72335875 -0.23367949 0.36781514
0.74516076 -0.23367785 0.36779773
0.76697677 -0.23368107 0.36783206
0.66109079 -0.21299122 0.38102269
0.66109079 -0.19108301 0.38102269
0.66109079 -0.1691747 0.38102269
0.66108668 -0.14726534 0.38100541
0.66108668 -0.12535723 0.38100541
0.66108668 -0.10344899 0.38100541
0.66108668 -0.081540875 0.38100517
0.66108668 -0.059632801 0.38100541
0.66108251 -0.037724063 0.38098812
0.66108251 -0.015816117 0.38098812
0.66108251 0.0060918704 0.38098812
0.66108251 0.027999943 0.38098812
0.66108251 0.049907975 0.38098812
0.66107839 0.07181567 0.38097072
0.66107839 0.093723655 0.38097072
0.66107839 0.1156316 0.38097072
0.66107839 0.13753934 0.38097095
-0.38929096 0.66126555 0.37172842
-0.36745423 0.66126555 0.37172842
-0.34561747 0.66126555 0.37172842
-0.32378075 0.66126555 0.37172842
-0.30194399 0.66126555 0.37172842
-0.28010726 0.66126555 0.37172842
-0.2582705 0.66126555 0.37172842
-0.23643374 0.66126555 0.37172842
-0.214597 0.66126555 0.37172842
-0.19276026 0.66126555 0.37172842
-0.17092352 0.66126555 0.37172842
-0.14908677 0.66126555 0.37172842
-0.12725003 0.66126555 0.37172842
-0.10541329 0.66126555 0.37172842
-0.083576545 0.66126555 0.37172842
-0.061739795 0.66126555 0.37172842
-0.039903052 0.66126555 0.37172842
-0.018066308 0.66126555 0.37172842
0.0037704371 0.66126555 0.37172842
0.025607182 0.66126555 0.37172842
0.047443926 0.66126555 0.37172842
0.069280669 0.66126555 0.37172842
0.091117412 0.66126555 0.37172842
0.11295416 0.66126555 0.37172842
0.13479091 0.66126555 0.37172842
0.15662766 0.66126555 0.37172842
0.1784644 0.66126555 0.37172842
0.20030114 0.66126555 0.37172842
0.22200698 0.66092044 0.37018228
-0.38930449 0.68312609 0.37183142
0.20084895 0.68474579 0.37884462
-0.3678548 0.70571512 0.37498045
0.17903285 0.70689696 0.37993336
0.19998011 0.70394385 0.36755788
-0.41203001 0.72837985 0.37823999
-0.39014539 0.72838414 0.37825727
-0.36825839 0.72838414 0.37825727
-0.34636939 0.72837985 0.37823999
0.15720218 0.72907376 0.38105726
0.17891675 0.72838414 0.37825727
0.20080376 0.72838414 0.37825727
0.22269075 0.72838414 0.37825727
0.24457617 0.72837985 0.37823999
0.33335933 -0.67485148 0.38827276
-0.52349013 -0.65322351 0.38968182
0.37819797 -0.56639642 0.39484298
0.39846218 -0.45429623 0.38287508
0.66138405 -0.25693089 0.3822515
0.68329751 -0.2569291 0.38223422
0.70521516 -0.2569291 0.38223422
0.72712827 -0.25692734 0.38221693
0.74904573 -0.25692734 0.38221693
-0.36921802 0.68640941 0.38604856
0.17982167 0.68762654 0.3913188
