ply
format ascii 1.0
comment PCL generated
element vertex 1326
property float x
property float y
property float z
element camera 0
property float view_px
property float view_py
property float view_pz
property float x_axisx
property float x_axisy
property float x_axisz
property float y_axisx
property float y_axisy
property float y_axisz
property float z_axisx
property float z_axisy
property float z_axisz
property float focal
property float scalex
property float scaley
property float centerx
property float centery
property int viewportx
property int viewporty
property float k1
property float k2
end_header
-0.12562504 -0.37043336 -0.10843599
-0.015784143 -0.37043783 -0.10840166
0.0025371816 -0.37067997 -0.10655135
0.020887217 -0.37092412 -0.1046865
0.039265759 -0.37116691 -0.10283035
0.057673328 -0.37141177 -0.10095972
0.076184697 -0.37191153 -0.097140789
-0.19977772 -0.35360721 -0.096414506
-0.18116935 -0.35323554 -0.099431396
-0.16260791 -0.35286495 -0.10244042
-0.14409319 -0.35249537 -0.10544193
-0.12562504 -0.35212657 -0.10843587
-0.015784143 -0.3521308 -0.1084016
0.0025371816 -0.35235873 -0.10655117
0.020887217 -0.35258836 -0.1046865
0.039265759 -0.352817 -0.10283029
0.057673328 -0.35304731 -0.10095978
0.076184697 -0.35351774 -0.09714067
-0.19977772 -0.33520785 -0.096414506
-0.18116935 -0.33485952 -0.099431217
-0.16260791 -0.33451205 -0.10244042
-0.14409319 -0.33416548 -0.10544193
-0.12562504 -0.33381975 -0.10843599
-0.015784143 -0.33382359 -0.10840172
0.0025371816 -0.33403733 -0.10655117
0.020887217 -0.33425269 -0.1046865
0.039265759 -0.33446693 -0.10283035
0.057673328 -0.33468297 -0.10095972
0.076184697 -0.33512402 -0.09714067
-0.19977772 -0.31680852 -0.096414566
-0.18116935 -0.31648332 -0.099431276
-0.16260791 -0.3161591 -0.10244036
-0.14409319 -0.31583554 -0.10544199
-0.12562504 -0.31551293 -0.10843587
-0.015784143 -0.31551656 -0.10840166
0.0025371816 -0.315716 -0.10655117
0.020887217 -0.31591693 -0.10468656
0.039265759 -0.31611705 -0.10283029
0.057673328 -0.31631869 -0.10095972
0.076184697 -0.31673023 -0.09714061
-0.19977772 -0.29840916 -0.096414506
-0.18116935 -0.29810727 -0.099431217
-0.16260791 -0.29780608 -0.10244036
-0.14409319 -0.29750574 -0.10544193
-0.12562504 -0.29720604 -0.10843587
-0.015784143 -0.2972095 -0.1084016
0.0025371816 -0.29739475 -0.10655123
0.020887217 -0.29758137 -0.1046865
0.039265759 -0.2977671 -0.10283029
0.057673328 -0.29795423 -0.10095978
0.076184697 -0.29833645 -0.09714061
-0.19977772 -0.28000975 -0.096414566
-0.18116935 -0.27973109 -0.099431276
-0.16260791 -0.27945313 -0.10244036
-0.14409319 -0.27917582 -0.10544211
-0.12562504 -0.27889931 -0.10843587
-0.015784143 -0.27890241 -0.10840172
0.0025371816 -0.27907336 -0.10655123
0.020887217 -0.27924564 -0.1046865
0.039265759 -0.2794171 -0.10283035
0.057673328 -0.27958989 -0.10095972
0.076184697 -0.27994263 -0.09714067
-0.19977772 -0.26161039 -0.096414566
-0.18116935 -0.26135498 -0.099431217
-0.16260791 -0.26110017 -0.10244036
-0.14409319 -0.26084596 -0.10544193
-0.12562504 -0.2605924 -0.10843587
-0.015784143 -0.26059532 -0.10840172
0.0025371816 -0.26075202 -0.10655123
0.020887217 -0.26090997 -0.1046865
0.039265759 -0.26106715 -0.10283029
0.057673328 -0.26122546 -0.10095978
0.076184697 -0.26154888 -0.09714061
-0.1997786 -0.243212 -0.096402943
-0.18117015 -0.24297974 -0.099419832
-0.16260862 -0.24274805 -0.10242897
-0.14409381 -0.24251701 -0.10543048
-0.12562504 -0.24228561 -0.10843599
-0.015784143 -0.24228831 -0.10840166
0.0025371816 -0.24243064 -0.10655123
0.020887217 -0.24257423 -0.10468656
0.039265759 -0.24271716 -0.10283035
0.057673328 -0.24286121 -0.10095978
0.076184697 -0.24315518 -0.09714067
-0.1997786 -0.22481251 -0.096402943
-0.18117015 -0.22460344 -0.099419832
-0.16260862 -0.22439502 -0.10242879
-0.14409381 -0.22418702 -0.10543048
-0.12562504 -0.22397883 -0.10843587
-0.015784143 -0.22398116 -0.10840172
0.0025371816 -0.22410946 -0.10655117
0.020887217 -0.22423863 -0.1046865
0.039265759 -0.2243672 -0.10283035
0.057673328 -0.22449683 -0.10095972
0.076184697 -0.22476144 -0.09714061
-0.1997786 -0.206413 -0.096403062
-0.18117015 -0.20622727 -0.099419773
-0.16260862 -0.20604196 -0.10242891
-0.14409381 -0.20585707 -0.10543054
-0.12562504 -0.20567203 -0.10843599
-0.015784143 -0.20567414 -0.10840172
0.0025371816 -0.20578812 -0.10655117
0.020887217 -0.20590289 -0.1046865
0.039265759 -0.20601726 -0.10283029
0.057673328 -0.20613237 -0.10095978
0.076184697 -0.20636767 -0.09714061
-0.1997786 -0.18801358 -0.096403062
-0.18117015 -0.18785107 -0.099419773
-0.16260862 -0.18768886 -0.10242897
-0.14409381 -0.18752718 -0.10543048
-0.12562504 -0.18736522 -0.10843587
-0.015784143 -0.18736702 -0.10840166
0.0025371816 -0.18746674 -0.10655123
0.020887217 -0.1875672 -0.10468656
0.039265759 -0.18766724 -0.10283035
0.057673328 -0.18776812 -0.10095972
0.076184697 -0.1879738 -0.09714067
-0.1997786 -0.16961415 -0.096403062
-0.18117015 -0.1694748 -0.099419773
-0.16260862 -0.16933587 -0.10242891
-0.14409381 -0.16919722 -0.10543054
-0.12562504 -0.16905841 -0.10843599
-0.015784143 -0.16905996 -0.1084016
0.0025371816 -0.16914541 -0.10655123
0.020887217 -0.16923159 -0.1046865
0.039265759 -0.16931728 -0.10283029
0.057673328 -0.16940367 -0.10095978
0.076184697 -0.16958007 -0.09714067
-0.1997786 -0.15121472 -0.096402943
-0.18117015 -0.15109855 -0.099419773
-0.16260862 -0.15098271 -0.10242891
-0.14409381 -0.15086725 -0.10543036
-0.12562504 -0.15075159 -0.10843587
-0.015784143 -0.15075284 -0.10840172
0.0025371816 -0.1508241 -0.10655123
0.020887217 -0.15089592 -0.1046865
0.039265759 -0.15096731 -0.10283035
0.057673328 -0.1510393 -0.10095978
0.076184697 -0.15118629 -0.09714061
-0.1997786 -0.13281524 -0.096402943
-0.18117015 -0.13272233 -0.099419832
-0.16260862 -0.13262974 -0.10242891
-0.14409381 -0.13253728 -0.10543048
-0.12562504 -0.13244469 -0.10843587
-0.015784143 -0.13244578 -0.10840166
0.0025371816 -0.13250276 -0.10655135
0.020887217 -0.13256016 -0.1046865
0.039265759 -0.13261735 -0.10283029
0.057673328 -0.13267496 -0.1009596
0.076184697 -0.1327925 -0.09714061
-0.1997786 -0.11441588 -0.096402943
-0.18117015 -0.11434623 -0.099419773
-0.16260862 -0.11427669 -0.10242891
-0.14409381 -0.11420731 -0.10543054
-0.12562504 -0.11413796 -0.10843587
-0.015784143 -0.11413874 -0.1084016
0.0025371816 -0.11418143 -0.10655135
0.020887217 -0.11422449 -0.10468656
0.039265759 -0.11426747 -0.10283029
0.057673328 -0.11431058 -0.10095978
0.076184697 -0.11439887 -0.09714061
-0.1997786 -0.096016333 -0.096403062
-0.18117015 -0.095969945 -0.099419773
-0.16260862 -0.095923558 -0.10242891
-0.14409381 -0.095877439 -0.10543048
-0.12562504 -0.095831051 -0.10843587
-0.015784143 -0.095831618 -0.10840172
0.0025371816 -0.095860049 -0.10655135
0.020887217 -0.095888838 -0.1046865
0.039265759 -0.095917396 -0.10283035
0.057673328 -0.095946267 -0.10095972
0.076184697 -0.096004978 -0.09714067
-0.1997786 -0.077616878 -0.096403062
-0.18117015 -0.077593684 -0.099419773
-0.16260862 -0.077570625 -0.10242891
-0.14409381 -0.077547431 -0.10543048
-0.12562504 -0.077524319 -0.10843587
-0.015784143 -0.077524588 -0.10840166
0.0025371816 -0.077538893 -0.10655123
0.020887217 -0.077553198 -0.1046865
0.039265759 -0.077567406 -0.10283029
0.057673328 -0.077581801 -0.10095978
0.076184697 -0.077611245 -0.09714067
-0.1997786 -0.059217468 -0.096403062
-0.18117015 -0.059217468 -0.099419832
-0.16260862 -0.059217468 -0.10242891
-0.14409381 -0.059217468 -0.10543054
-0.015784143 -0.059217513 -0.10840166
0.0025371816 -0.059217513 -0.10655123
0.020887217 -0.059217468 -0.1046865
0.039265759 -0.059217468 -0.10283035
0.076184697 -0.059217513 -0.09714067
-0.12562504 -0.059217423 -0.10843587
0.057673328 -0.059217423 -0.10095972
-0.1997786 -0.040818058 -0.096403062
-0.18117015 -0.040841207 -0.099419832
-0.16260862 -0.040864401 -0.10242897
-0.14409381 -0.040887594 -0.10543048
-0.12562504 -0.040910698 -0.10843587
-0.015784143 -0.040910393 -0.10840172
0.0025371816 -0.040896177 -0.10655123
0.020887217 -0.040881783 -0.10468656
0.039265759 -0.040867522 -0.10283029
0.057673328 -0.040853176 -0.10095972
0.076184697 -0.040823735 -0.09714061
-0.1997786 -0.0224186 -0.096402943
-0.18117015 -0.022465076 -0.099419653
-0.16260862 -0.022511333 -0.10242891
-0.14409381 -0.022557545 -0.10543048
-0.12562504 -0.022603799 -0.10843587
-0.015784143 -0.022603359 -0.10840166
0.0025371816 -0.022574797 -0.10655123
0.020887217 -0.022546101 -0.1046865
0.039265759 -0.022517625 -0.10283029
0.057673328 -0.02248871 -0.10095978
0.076184697 -0.022429954 -0.09714061
-0.1997786 -0.0040191449 -0.096402943
-0.18117015 -0.0040888153 -0.099419773
-0.16260862 -0.0041582659 -0.10242891
-0.14409319 -0.0042278469 -0.10544193
-0.12562504 -0.0042970777 -0.10843587
-0.015784143 -0.0042962395 -0.1084016
0.0025371816 -0.0042535067 -0.10655135
0.020887217 -0.00421042 -0.1046865
0.039265759 -0.004167553 -0.10283035
0.057673328 -0.0041243769 -0.10095972
0.076184697 -0.0040361769 -0.09714067
-0.1997786 0.014380224 -0.096402943
-0.18117015 0.014287442 -0.099419773
-0.16260862 0.014194667 -0.10242891
-0.14409319 0.014101937 -0.10544193
-0.12562504 0.014009826 -0.10843587
-0.015784143 0.014010876 -0.10840166
0.0025371816 0.014067829 -0.10655135
0.020887217 0.014125265 -0.1046865
0.039265759 0.014182344 -0.10283029
0.057673328 0.014240004 -0.10095978
0.076184697 0.014357597 -0.09714067
-0.1997786 0.032779805 -0.096403062
-0.18117015 0.032663666 -0.099419773
-0.16260862 0.032547824 -0.10242891
-0.14409319 0.032431856 -0.10544199
-0.12562504 0.032316722 -0.10843587
-0.015784143 0.032317951 -0.10840166
0.0025371816 0.032389209 -0.10655135
0.020887217 0.032460861 -0.1046865
0.039265759 0.032532379 -0.10283047
0.057673328 0.032604337 -0.10095978
0.076184697 0.032751374 -0.09714067
-0.1997786 0.051179223 -0.096403062
-0.18117015 0.051039927 -0.099419773
-0.16260862 0.050900847 -0.10242891
-0.14409319 0.050761729 -0.10544193
-0.12562504 0.050623447 -0.10843587
-0.015784143 0.050624989 -0.1084016
0.0025371816 0.050710455 -0.10655117
0.020887217 0.050796628 -0.1046865
0.039265759 0.050882362 -0.10283029
0.057673328 0.050968669 -0.1009596
0.076184697 0.051145114 -0.09714061
-0.1997786 0.069578677 -0.096403062
-0.18117015 0.069416001 -0.099419773
-0.16260862 0.069253922 -0.10242879
-0.14409319 0.069091558 -0.10544181
-0.12562504 0.068930328 -0.10843587
-0.015784143 0.068932101 -0.10840172
0.0025371816 0.06903173 -0.10655123
0.020887217 0.069132268 -0.1046865
0.039265759 0.069232225 -0.10283029
0.057673328 0.069333136 -0.10095972
0.076184697 0.069538891 -0.09714061
-0.1997786 0.08797808 -0.096403062
-0.18117015 0.087792307 -0.099419773
-0.16260862 0.087606966 -0.10242891
-0.14409319 0.087421432 -0.10544199
-0.12562504 0.087237045 -0.10843587
-0.015784143 0.087239176 -0.10840166
0.0025371816 0.087353081 -0.10655123
0.020887217 0.087468013 -0.1046865
0.039265759 0.08758232 -0.10283035
0.057673328 0.087697431 -0.10095972
0.076184697 0.087932706 -0.09714067
-0.1997786 0.10637751 -0.096402943
-0.18117015 0.10616851 -0.099419773
-0.16260862 0.10596013 -0.10242897
-0.14409319 0.10575126 -0.10544193
-0.12562504 0.10554394 -0.10843587
-0.015784143 0.10554621 -0.1084016
0.0025371816 0.10567442 -0.10655123
0.020887217 0.10580361 -0.1046865
0.039265759 0.10593221 -0.10283029
0.057673328 0.10606188 -0.10095978
0.076184697 0.10632646 -0.09714061
-0.1997786 0.12477697 -0.096402943
-0.18117015 0.12454472 -0.099419773
-0.16260862 0.12431307 -0.10242891
-0.14409319 0.12408113 -0.10544181
-0.12562504 0.12385067 -0.10843587
-0.015784143 0.12385333 -0.10840172
0.0025371816 0.12399583 -0.10655123
0.020887217 0.12413934 -0.1046865
0.039265759 0.12428223 -0.10283035
0.057673328 0.12442623 -0.10095978
0.076184697 0.12472017 -0.09714067
-0.1997786 0.14317641 -0.096403122
-0.18117015 0.14292106 -0.099419773
-0.16260862 0.14266615 -0.10242897
-0.14409319 0.14241101 -0.10544193
-0.12562504 0.14215757 -0.10843587
-0.015784143 0.14216037 -0.10840166
0.0025371816 0.14231718 -0.10655135
0.020887217 0.14247499 -0.1046865
0.039265759 0.14263214 -0.10283035
0.057673328 0.14279054 -0.1009596
0.076184697 0.14311393 -0.09714061
-0.1997786 0.16157588 -0.096403062
-0.18117015 0.16129714 -0.099419653
-0.16260862 0.16101928 -0.10242897
-0.14409319 0.16074084 -0.10544193
-0.12562504 0.16046427 -0.10843587
-0.015784143 0.16046745 -0.10840166
0.0025371816 0.16063845 -0.10655135
0.020887217 0.16081059 -0.1046865
0.039265759 0.16098209 -0.10283029
0.057673328 0.16115496 -0.10095978
0.076184697 0.16150771 -0.09714061
-0.1997786 0.17997536 -0.096403062
-0.18117015 0.17967337 -0.099419773
-0.16260862 0.17937225 -0.10242891
-0.14409319 0.17907082 -0.10544193
-0.12562504 0.17877117 -0.10843587
-0.015784143 0.17877464 -0.10840172
0.0025371816 0.17895971 -0.10655117
0.020887217 0.17914635 -0.1046865
0.039265759 0.17933215 -0.10283035
0.057673328 0.17951927 -0.10095972
0.076184697 0.17990156 -0.09714067
-0.1997786 0.19837481 -0.096402943
-0.18117015 0.19804969 -0.099419773
-0.16260862 0.19772536 -0.10242891
-0.14409319 0.19740063 -0.10544193
-0.12562504 0.1970779 -0.10843587
-0.015784143 0.19708169 -0.10840166
0.0025371816 0.19728106 -0.10655117
0.020887217 0.19748199 -0.10468656
0.039265759 0.19768202 -0.10283029
0.057673328 0.19788373 -0.10095978
0.076184697 0.1982953 -0.09714067
-0.1997786 0.21677417 -0.096403062
-0.18117015 0.21642587 -0.099419773
-0.16260862 0.21607843 -0.10242879
-0.14409319 0.21573049 -0.10544181
-0.12562504 0.21538478 -0.10843587
-0.015784143 0.21538863 -0.10840166
0.0025371816 0.2156024 -0.10655117
0.020887217 0.21581775 -0.1046865
0.039265759 0.21603212 -0.10283035
0.057673328 0.21624807 -0.10095972
0.076184697 0.21668908 -0.09714067
-0.1997786 0.23517367 -0.096402884
-0.18117015 0.23480213 -0.099419773
-0.16260862 0.23443148 -0.10242891
-0.14409319 0.23406044 -0.10544193
-0.12562504 0.2336916 -0.10843587
-0.015784143 0.23369581 -0.10840172
0.0025371816 0.23392376 -0.10655123
0.020887217 0.23415333 -0.1046865
0.039265759 0.23438197 -0.10283029
0.057673328 0.23461246 -0.1009596
0.076184697 0.23508281 -0.09714061
-0.1997786 0.25357306 -0.096402884
-0.18117015 0.25317824 -0.099419773
-0.16260862 0.25278455 -0.10242897
-0.14409319 0.25239024 -0.10544193
-0.12562504 0.25199845 -0.10843587
-0.015784143 0.25200284 -0.10840172
0.0025371816 0.25224513 -0.10655123
0.020887217 0.252489 -0.1046865
0.039265759 0.25273189 -0.10283029
0.057673328 0.25297686 -0.10095978
0.076184697 0.25347656 -0.097140491
-0.1997786 0.27197254 -0.096403062
-0.18117015 0.2715545 -0.099419773
-0.16260862 0.27113748 -0.10242891
-0.14409319 0.27072006 -0.10544193
-0.12562504 0.27030513 -0.10843587
-0.015784143 0.27031001 -0.1084016
0.0025371816 0.27056634 -0.10655135
0.020887217 0.27082482 -0.1046865
0.039265759 0.27108201 -0.10283029
0.057673328 0.27134109 -0.10095972
0.076184697 0.27187043 -0.09714067
-0.1997786 0.29037207 -0.096403062
-0.18117015 0.28993067 -0.099419773
-0.16260862 0.28949058 -0.10242897
-0.14409319 0.28904992 -0.10544199
-0.12562504 0.28861204 -0.10843587
-0.015784143 0.28861704 -0.1084016
0.0025371816 0.28888771 -0.10655135
0.020887217 0.28916049 -0.10468656
0.039265759 0.28943187 -0.10283029
0.057673328 0.28970554 -0.10095978
0.076184697 0.29026419 -0.09714061
-0.1997786 0.30877146 -0.096403062
-0.18117015 0.30830702 -0.099419773
-0.16260791 0.30784196 -0.10244036
-0.14409319 0.30737975 -0.10544193
-0.12562504 0.30691883 -0.10843581
-0.015784143 0.30692419 -0.10840166
0.0025371816 0.30720896 -0.10655117
0.020887217 0.30749604 -0.1046865
0.039265759 0.30778188 -0.10283047
0.057673328 0.30806985 -0.10095978
0.076184697 0.3086578 -0.09714067
-0.1997786 0.32717082 -0.096403062
-0.18117015 0.32668328 -0.099419773
-0.16260791 0.32619497 -0.10244036
-0.14409319 0.32570955 -0.10544193
-0.12562504 0.32522571 -0.10843587
-0.015784143 0.32523125 -0.1084016
0.0025371816 0.32553032 -0.10655117
0.020887217 0.32583174 -0.1046865
0.039265759 0.32613191 -0.10283029
0.057673328 0.3264342 -0.1009596
0.076184697 0.32705155 -0.09714067
-0.1997786 0.34557033 -0.096402884
-0.18117015 0.34505939 -0.099419653
-0.16260791 0.34454778 -0.10244036
-0.14409319 0.34403962 -0.10544193
-0.12562504 0.34353244 -0.10843599
-0.015784143 0.34353831 -0.1084016
0.0025371816 0.34385169 -0.10655117
0.020887217 0.34416756 -0.1046865
0.039265759 0.34448183 -0.10283029
0.057673328 0.34479862 -0.10095978
0.076184697 0.34544533 -0.09714061
-0.1997786 0.36396974 -0.096402943
-0.18117015 0.36343563 -0.099419773
-0.16260791 0.36290079 -0.10244042
-0.14409319 0.36236939 -0.10544193
-0.12562504 0.36183923 -0.10843587
-0.015784143 0.3618454 -0.10840166
0.0025371816 0.36217302 -0.10655117
0.020887217 0.36250311 -0.10468638
0.039265759 0.36283177 -0.10283035
0.057673328 0.36316302 -0.1009596
0.076184697 0.36383921 -0.09714067
-0.1997786 0.38236922 -0.096403062
-0.18117015 0.3818118 -0.099419773
-0.16260791 0.38125378 -0.10244036
-0.14409319 0.38069937 -0.10544199
-0.12562504 0.38014615 -0.10843587
-0.015784143 0.38015246 -0.1084016
0.0025371816 0.38049436 -0.10655123
0.020887217 0.38083878 -0.1046865
0.039265759 0.38118169 -0.10283029
0.057673328 0.38152748 -0.10095978
0.076184697 0.38223296 -0.09714067
-0.12562504 0.39845294 -0.10843581
-0.015784143 0.39845955 -0.1084016
-0.1997786 0.40076873 -0.096403062
-0.18117015 0.40018806 -0.099419773
-0.16260791 0.39960673 -0.10244036
-0.14409319 0.39902914 -0.10544193
0.0025371816 0.39881569 -0.10655123
0.020887217 0.39917448 -0.1046865
0.039265759 0.39953181 -0.10283035
0.057673328 0.39989167 -0.10095978
0.076184697 0.40062672 -0.09714067
-0.1997786 0.41916814 -0.096403062
-0.18117015 0.41856441 -0.099419773
-0.16260791 0.41795978 -0.10244036
-0.14409319 0.41735893 -0.10544193
-0.12562504 0.41675985 -0.10843587
-0.015784143 0.41676664 -0.10840172
0.0025371816 0.41713694 -0.10655135
0.020887217 0.41751033 -0.1046865
0.039265759 0.4178817 -0.10283029
0.057673328 0.41825601 -0.10095972
0.076184697 0.41902044 -0.09714061
-0.1997786 0.43756756 -0.096402943
-0.18117015 0.43694058 -0.099419653
-0.16260791 0.43631262 -0.10244036
-0.14409319 0.43568879 -0.10544199
-0.12562504 0.43506649 -0.10843587
-0.015784143 0.4350737 -0.10840166
0.0025371816 0.43545818 -0.10655117
0.020887217 0.43584588 -0.10468638
0.039265759 0.43623155 -0.10283029
0.057673328 0.43662044 -0.10095978
0.076184697 0.43741423 -0.097140491
-0.1997786 0.45596698 -0.096402943
-0.18117015 0.45531675 -0.099419773
-0.16260791 0.45466563 -0.10244042
-0.14409319 0.45401856 -0.10544199
-0.12562504 0.4533734 -0.10843587
-0.015784143 0.45338067 -0.1084016
0.0025371816 0.45377955 -0.10655117
0.020887217 0.45418146 -0.1046865
0.039265759 0.45458171 -0.10283029
0.057673328 0.45498481 -0.1009596
0.076184697 0.45580807 -0.09714067
-0.14409319 0.47234854 -0.10544181
-0.12562504 0.47168019 -0.10843587
-0.015784143 0.47168788 -0.10840172
0.0025371816 0.47210094 -0.10655123
-0.1997786 0.4743664 -0.096403062
-0.18117015 0.47369298 -0.099419773
-0.16260791 0.47301868 -0.10244036
0.020887217 0.47251716 -0.1046865
0.039265759 0.47293159 -0.10283029
0.057673328 0.47334924 -0.10095978
0.076184697 0.47420189 -0.09714067
-0.1997786 0.49276593 -0.096402884
-0.18117015 0.49206921 -0.099419773
-0.16260791 0.49137166 -0.10244036
-0.14409319 0.49067852 -0.10544193
-0.12562504 0.48998705 -0.10843587
-0.015784143 0.48999485 -0.10840166
0.0025371816 0.49042228 -0.10655123
0.020887217 0.49085298 -0.1046865
0.039265759 0.4912816 -0.10283047
0.057673328 0.49171367 -0.10095972
0.076184697 0.49259564 -0.09714061
-0.1997786 0.51116538 -0.096403062
-0.18117015 0.51044548 -0.099419832
-0.16260791 0.50972474 -0.10244036
-0.14409319 0.50900829 -0.10544193
-0.12562504 0.50829375 -0.10843587
-0.015784143 0.50830197 -0.1084016
0.0025371816 0.50874364 -0.10655123
0.020887217 0.50918853 -0.10468638
0.039265759 0.50963151 -0.10283035
0.057673328 0.51007795 -0.1009596
0.076184697 0.51098943 -0.09714061
-0.1997786 0.52956474 -0.096403062
-0.18117015 0.52882147 -0.099419773
-0.16260791 0.52807748 -0.10244036
-0.14409319 0.52733803 -0.10544181
-0.12562504 0.5266006 -0.10843587
-0.015784143 0.52660906 -0.10840172
0.0025371816 0.52706492 -0.10655123
0.020887217 0.52752423 -0.1046865
0.039265759 0.52798152 -0.10283029
0.057673328 0.52844226 -0.10095978
0.076184697 0.52938306 -0.097140491
-0.14409319 0.54566813 -0.10544193
-0.12562504 0.54490745 -0.10843587
-0.015784143 0.54491615 -0.10840172
0.0025371816 0.54538631 -0.10655123
0.020887217 0.54585993 -0.10468656
-0.1997786 0.54796422 -0.096402943
-0.18117015 0.54719782 -0.099419653
-0.16260791 0.54643047 -0.10244036
0.039265759 0.54633152 -0.10283035
0.057673328 0.54680657 -0.10095972
0.076184697 0.54777682 -0.09714067
-0.1997786 0.56636357 -0.096402943
-0.18117015 0.56557417 -0.099419773
-0.16260791 0.56478357 -0.10244036
-0.14409319 0.56399786 -0.10544193
-0.12562504 0.5632143 -0.10843587
-0.015784143 0.56322312 -0.1084016
0.0025371816 0.56370735 -0.10655123
0.020887217 0.56419563 -0.10468638
0.039265759 0.56468141 -0.10283029
0.057673328 0.565171 -0.10095978
0.076184697 0.56617057 -0.09714067
-0.1997786 0.58476305 -0.096403062
-0.18117015 0.58395028 -0.099419773
-0.16260791 0.58313644 -0.10244036
-0.14409319 0.5823276 -0.10544193
-0.12562504 0.58152115 -0.10843581
-0.015784143 0.58153033 -0.10840172
0.0025371816 0.58202875 -0.10655123
0.020887217 0.58253133 -0.1046865
0.039265759 0.58303154 -0.10283029
0.057673328 0.58353543 -0.10095978
0.076184697 0.58456433 -0.09714067
-0.1997786 0.60316265 -0.096402884
-0.18117015 0.60232663 -0.099419773
-0.16260791 0.60148942 -0.10244024
-0.14409319 0.6006577 -0.10544193
-0.12562504 0.59982789 -0.10843587
-0.015784143 0.5998373 -0.10840172
0.0025371816 0.60035026 -0.10655123
0.020887217 0.60086703 -0.1046865
0.039265759 0.60138142 -0.10283029
0.057673328 0.60189974 -0.1009596
0.076184697 0.60295808 -0.09714061
-0.16260791 0.61984241 -0.10244042
-0.14409319 0.61898744 -0.10544181
-0.12562504 0.61813474 -0.10843587
-0.015784143 0.61814439 -0.10840166
0.0025371816 0.61867154 -0.10655123
0.020887217 0.61920261 -0.10468656
0.039265759 0.61973119 -0.10283029
-0.1997786 0.621562 -0.096403062
-0.18116935 0.62069952 -0.099431217
0.057673328 0.62026417 -0.10095972
0.076184697 0.62135184 -0.09714061
-0.1997786 0.63996148 -0.096403062
-0.18116935 0.63907564 -0.099431217
-0.16260791 0.6381954 -0.10244036
-0.14409319 0.63731742 -0.10544193
-0.12562504 0.63644147 -0.10843587
-0.015784143 0.63645172 -0.10840166
0.0025371816 0.63699293 -0.10655123
0.020887217 0.63753843 -0.10468638
0.039265759 0.63808131 -0.10283035
0.057673328 0.63862848 -0.1009596
0.076184697 0.63974571 -0.09714067
-0.1997786 0.65836096 -0.096403062
-0.18116935 0.65745163 -0.099431217
-0.16260791 0.65654838 -0.10244042
-0.14409319 0.65564728 -0.10544193
-0.12562504 0.65474844 -0.10843587
-0.015784143 0.65475869 -0.10840166
0.0025371816 0.65531421 -0.10655135
0.020887217 0.65587413 -0.1046865
0.039265759 0.65643132 -0.10283029
0.057673328 0.65699291 -0.10095972
0.076184697 0.65813947 -0.09714067
-0.25650963 -0.67028987 -0.08108753
-0.2371905 -0.66808486 -0.089767158
-0.21843317 -0.66716456 -0.093390226
0.094907254 -0.66802025 -0.090022027
0.1137417 -0.66983938 -0.082861066
-0.25650963 -0.6517725 -0.08108753
0.1137417 -0.6513356 -0.082861066
-0.2371905 -0.64963448 -0.089767039
-0.21843317 -0.64874184 -0.093390226
0.094907254 -0.64957166 -0.090022147
-0.25650963 -0.63325512 -0.08108741
-0.2371905 -0.63118386 -0.089767158
-0.21843317 -0.63031924 -0.093390226
0.094907254 -0.63112307 -0.090022027
0.1137417 -0.63283193 -0.082861066
-0.25650963 -0.61473787 -0.081087351
-0.2371905 -0.61273336 -0.089767158
-0.21843317 -0.61189663 -0.093390167
0.094907254 -0.61267447 -0.090022147
0.1137417 -0.61432815 -0.082861066
-0.25650963 -0.59622037 -0.08108753
-0.2371905 -0.59428287 -0.089767039
-0.21843317 -0.59347403 -0.093390286
0.094907254 -0.59422588 -0.090022147
0.1137417 -0.5958246 -0.082861006
-0.25650963 -0.57770312 -0.08108741
0.1137417 -0.57732081 -0.082861066
-0.2371905 -0.57583237 -0.089767039
-0.21843317 -0.57505143 -0.093390167
0.094907254 -0.57577729 -0.090022206
-0.25650963 -0.55918586 -0.08108741
-0.2371905 -0.55738181 -0.089767158
-0.21843317 -0.5566287 -0.093390286
0.094907254 -0.55732882 -0.090022147
0.1137417 -0.55881727 -0.082861066
-0.25650963 -0.54066849 -0.08108741
-0.2371905 -0.53893113 -0.089767218
-0.21843317 -0.5382061 -0.093390226
0.094907254 -0.53888023 -0.090022027
0.1137417 -0.54031348 -0.082861185
-0.25650963 -0.52215111 -0.08108753
-0.2371905 -0.52048075 -0.089767158
-0.21843317 -0.51978344 -0.093390048
0.094907254 -0.52043164 -0.090022147
0.1137417 -0.52180976 -0.082861066
-0.25650963 -0.50363374 -0.08108741
0.1137417 -0.50330615 -0.082861006
-0.2371905 -0.50203019 -0.089767158
-0.21843317 -0.50136077 -0.093390226
0.094907254 -0.50198305 -0.090022147
-0.25650963 -0.48511645 -0.08108753
-0.2371905 -0.48357961 -0.089767158
-0.21843317 -0.48293823 -0.093390226
0.094907254 -0.48353449 -0.090022147
0.1137417 -0.4848024 -0.082861066
-0.25650963 -0.46659911 -0.08108741
-0.2371905 -0.46512917 -0.089767039
-0.21843317 -0.46451554 -0.093390226
0.094907254 -0.46508592 -0.090022147
0.1137417 -0.46629873 -0.082861006
-0.25650963 -0.44808164 -0.08108753
-0.2371905 -0.44667858 -0.089767039
-0.21843317 -0.44609287 -0.093390226
0.094907254 -0.44663742 -0.090022027
0.1137417 -0.44779506 -0.082861066
-0.25650963 -0.42956433 -0.08108741
0.1137417 -0.42929137 -0.082861006
-0.2371905 -0.42822805 -0.089767158
-0.21843317 -0.42767024 -0.093390286
0.094907254 -0.42818886 -0.090022147
-0.25650963 -0.41104704 -0.08108741
-0.2371905 -0.40977761 -0.089767039
-0.21843317 -0.40924758 -0.093390226
0.094907254 -0.40974024 -0.090022027
0.1137417 -0.41078758 -0.082861066
-0.25650963 -0.3925297 -0.08108741
-0.2371905 -0.39132699 -0.089767039
-0.21843317 -0.390825 -0.093390167
0.094907254 -0.39129168 -0.090022147
0.1137417 -0.39228398 -0.082861006
-0.25650963 -0.37401229 -0.08108753
-0.2371905 -0.3728765 -0.089767158
-0.21843317 -0.37240228 -0.093390226
0.094907254 -0.37284309 -0.090022147
0.1137417 -0.37378019 -0.082861066
-0.25650963 -0.35549501 -0.08108753
0.1137417 -0.35527658 -0.082861006
-0.2371905 -0.35442591 -0.089767158
-0.21843317 -0.35397977 -0.093390226
0.094907254 -0.3543945 -0.090022206
-0.25650963 -0.33697766 -0.08108741
-0.2371905 -0.33597541 -0.089767039
-0.21843317 -0.33555704 -0.093390286
0.094907254 -0.33594596 -0.090022206
0.1137417 -0.33677286 -0.082861066
-0.25650963 -0.3184604 -0.081087351
-0.2371905 -0.31752491 -0.089767039
-0.21843317 -0.31713441 -0.093390226
0.094907254 -0.31749743 -0.090022027
0.1137417 -0.31826922 -0.082861006
-0.25650963 -0.29994297 -0.08108753
-0.2371905 -0.29907429 -0.089767158
-0.21843317 -0.29871184 -0.093390167
0.094907254 -0.2990489 -0.090022027
0.1137417 -0.29976541 -0.082861066
-0.25650963 -0.28142554 -0.08108753
0.1137417 -0.2812618 -0.082861006
-0.2371905 -0.28062385 -0.089767039
-0.21843317 -0.28028911 -0.093390226
0.094907254 -0.28060025 -0.090022147
-0.25650963 -0.26290828 -0.08108741
-0.2371905 -0.2621733 -0.089767039
-0.21843317 -0.26186651 -0.093390167
0.094907254 -0.26215172 -0.090022147
0.1137417 -0.26275802 -0.082861066
-0.25650963 -0.24439095 -0.081087351
-0.2371905 -0.24372277 -0.089767158
-0.21843414 -0.24344476 -0.093378603
0.094907254 -0.24370307 -0.090022147
0.1137417 -0.24425443 -0.082861066
-0.25650963 -0.22587352 -0.08108753
-0.2371905 -0.22527222 -0.089767158
-0.21843414 -0.225022 -0.093378603
0.094907254 -0.22525449 -0.090022147
0.1137417 -0.22575065 -0.082861185
-0.25650963 -0.20735626 -0.08108753
0.1137417 -0.20724706 -0.082861006
-0.2371905 -0.20682172 -0.089767039
-0.21843414 -0.20659928 -0.093378723
0.094907254 -0.20680606 -0.090022147
-0.25650963 -0.18883891 -0.08108741
-0.2371905 -0.18837123 -0.089767039
-0.21843414 -0.18817663 -0.093378603
0.094907254 -0.18835747 -0.090022027
0.1137417 -0.18874335 -0.082861006
-0.25650963 -0.17032157 -0.08108741
-0.2371905 -0.16992058 -0.089767158
-0.21843414 -0.16975382 -0.093378603
0.094907254 -0.1699089 -0.090022147
0.1137417 -0.1702396 -0.082861006
-0.25650963 -0.1518043 -0.08108741
-0.2371905 -0.15147014 -0.089767039
-0.21843414 -0.15133102 -0.093378723
0.094907254 -0.15146026 -0.090022147
0.1137417 -0.15173599 -0.082861006
-0.25650963 -0.13328686 -0.08108753
0.1137417 -0.13323224 -0.082861006
-0.2371905 -0.13301961 -0.089767039
-0.21843414 -0.13290843 -0.093378603
0.094907254 -0.13301173 -0.090022147
-0.25650963 -0.11476946 -0.08108741
-0.2371905 -0.11456904 -0.089767039
-0.21843414 -0.11448564 -0.093378723
0.094907254 -0.11456318 -0.090022206
0.1137417 -0.11472861 -0.082861006
-0.25650963 -0.096252188 -0.08108741
-0.23719156 -0.096118703 -0.089755535
-0.21843414 -0.096062899 -0.093378723
0.094907254 -0.09611465 -0.090022027
0.1137417 -0.096224859 -0.082861066
-0.25650963 -0.077734828 -0.081087351
-0.23719156 -0.077668108 -0.089755535
-0.21843414 -0.07764025 -0.093378603
0.094907254 -0.077666081 -0.090022027
0.1137417 -0.077721231 -0.082861006
-0.23719156 -0.059217468 -0.089755535
-0.21843414 -0.059217513 -0.093378603
0.094907254 -0.059217468 -0.090022027
-0.25650963 -0.059217423 -0.08108753
0.1137417 -0.059217423 -0.082861006
-0.25650963 -0.040700153 -0.08108741
-0.23719156 -0.040766872 -0.089755535
-0.21843414 -0.04079473 -0.093378723
0.094907254 -0.040768895 -0.090022147
0.1137417 -0.040713795 -0.082861006
-0.25650963 -0.022182789 -0.08108741
-0.23719156 -0.022316188 -0.089755535
-0.21843414 -0.022371992 -0.093378603
0.094907254 -0.022320323 -0.090022147
0.1137417 -0.022210032 -0.082861066
-0.25650963 -0.0036655143 -0.081087351
-0.23719156 -0.0038655922 -0.089755535
-0.21843414 -0.0039493442 -0.093378603
0.094907254 -0.0038717538 -0.090022147
0.1137417 -0.0037064478 -0.082861006
-0.23719156 0.014585003 -0.089755595
-0.21843414 0.014473483 -0.093378723
0.094907254 0.014576778 -0.090022147
-0.25650963 0.014851891 -0.08108753
0.1137417 0.014797315 -0.082861066
-0.25650963 0.033369251 -0.08108741
-0.23719156 0.033035599 -0.089755535
-0.21843414 0.032896131 -0.093378544
0.094907254 0.033025347 -0.090022027
0.1137417 0.033300944 -0.082861006
-0.25650963 0.051886611 -0.081087351
-0.23719156 0.051486239 -0.089755535
-0.21843414 0.051318869 -0.093378603
0.094907254 0.051473871 -0.090022027
0.1137417 0.051804706 -0.082861066
-0.25650963 0.070403934 -0.081087351
-0.23719156 0.069936886 -0.089755535
-0.21843414 0.069741607 -0.093378723
0.094907254 0.069922492 -0.090022027
0.1137417 0.070308387 -0.082861006
-0.23719156 0.088387474 -0.089755535
-0.21843414 0.0881643 -0.093378603
0.094907254 0.088371024 -0.090022147
-0.25650963 0.088921338 -0.08108741
0.1137417 0.088812098 -0.082861066
-0.25650963 0.10743865 -0.08108741
-0.23719156 0.10683808 -0.089755595
-0.21843414 0.1065871 -0.093378603
0.094907254 0.10681964 -0.090022147
0.1137417 0.10731573 -0.082861006
-0.25650963 0.12595597 -0.081087351
-0.23719156 0.12528877 -0.089755535
-0.21843414 0.12500978 -0.093378723
0.094907254 0.12526821 -0.090022147
0.1137417 0.12581936 -0.082861006
-0.25650963 0.14447327 -0.081087351
-0.23719156 0.14373936 -0.089755595
-0.21843414 0.14343248 -0.093378603
0.094907254 0.14371666 -0.090022027
0.1137417 0.1443231 -0.082861066
-0.23719156 0.16218995 -0.089755595
-0.21843414 0.16185525 -0.093378603
0.094907254 0.1621653 -0.090022027
-0.25650963 0.16299067 -0.08108753
0.1137417 0.16282679 -0.082861006
-0.25650963 0.181508 -0.08108753
-0.23719156 0.18064056 -0.089755595
-0.21843414 0.18027802 -0.093378603
0.094907254 0.18061385 -0.090022147
0.1137417 0.18133053 -0.082861006
-0.25650963 0.20002529 -0.08108741
-0.23719156 0.19909117 -0.089755595
-0.21843414 0.19870082 -0.093378723
0.094907254 0.19906241 -0.090022147
0.1137417 0.1998342 -0.082861006
-0.25650963 0.21854261 -0.08108741
-0.23719156 0.21754184 -0.089755595
-0.21843414 0.21712333 -0.093378603
0.094907254 0.21751103 -0.090022147
0.1137417 0.21833792 -0.082861066
-0.23719156 0.2359924 -0.089755416
-0.21843414 0.23554611 -0.093378603
0.094907254 0.23595965 -0.090022147
-0.25650963 0.23706004 -0.08108753
0.1137417 0.23684153 -0.082861006
-0.25650963 0.25557736 -0.08108753
-0.23719156 0.25444296 -0.089755416
-0.21843414 0.25396889 -0.093378723
0.094907254 0.25440812 -0.090022206
0.1137417 0.25534526 -0.082861066
-0.25650963 0.27409467 -0.08108753
-0.23719156 0.27289361 -0.089755416
-0.21843414 0.27239156 -0.093378603
0.094907254 0.27285665 -0.090022027
0.1137417 0.27384892 -0.082861006
-0.25650963 0.29261199 -0.08108741
-0.23719156 0.29134429 -0.089755416
-0.21843414 0.29081437 -0.093378603
0.094907254 0.29130527 -0.090022027
0.1137417 0.29235265 -0.082861185
-0.23719156 0.30979484 -0.089755416
-0.21843414 0.30923715 -0.093378603
0.094907254 0.30975389 -0.090022027
-0.25650963 0.31112954 -0.08108741
0.1137417 0.31085622 -0.082861006
-0.25650963 0.32964689 -0.08108741
-0.23719156 0.32824549 -0.089755416
-0.21843414 0.32765979 -0.093378603
0.094907254 0.32820237 -0.090022147
0.1137417 0.32936016 -0.082861006
-0.25650963 0.34816417 -0.081087351
-0.23719156 0.34669605 -0.089755416
-0.21843414 0.34608245 -0.093378723
0.094907254 0.34665099 -0.090022147
0.1137417 0.34786373 -0.082861006
-0.25650963 0.36668143 -0.081087351
-0.23719156 0.3651467 -0.089755416
-0.21843414 0.36450526 -0.093378782
0.094907254 0.36509964 -0.090022147
0.1137417 0.36636752 -0.082861066
-0.23719156 0.3835974 -0.089755416
-0.21843414 0.38292792 -0.093378603
0.094907254 0.38354802 -0.090022027
-0.25650963 0.38519889 -0.08108753
0.1137417 0.38487118 -0.082861006
-0.25650963 0.40371621 -0.08108741
-0.23719156 0.40204793 -0.089755416
-0.21843414 0.40135065 -0.093378603
0.094907254 0.40199664 -0.090022027
0.1137417 0.40337491 -0.082861066
-0.25650963 0.42223352 -0.081087351
-0.23719156 0.42049861 -0.089755416
-0.21843414 0.41977343 -0.093378603
0.094907254 0.42044526 -0.090022027
0.1137417 0.42187852 -0.082861006
-0.25650963 0.44075081 -0.081087351
-0.23719156 0.43894932 -0.089755416
-0.21843414 0.43819612 -0.093378603
0.094907254 0.43889382 -0.090022027
0.1137417 0.44038221 -0.082861006
-0.23719156 0.45739982 -0.089755416
-0.21843414 0.45661893 -0.093378603
0.094907254 0.45734242 -0.090022147
-0.25650963 0.45926824 -0.08108753
0.1137417 0.45888588 -0.082861006
-0.25650963 0.47778562 -0.08108753
-0.23719156 0.47585055 -0.089755416
-0.21843414 0.47504172 -0.093378603
0.094907254 0.47579095 -0.090022147
0.1137417 0.47738948 -0.082861006
-0.25651079 0.49630561 -0.081075728
-0.23719156 0.49430099 -0.089755416
-0.21843414 0.49346426 -0.093378603
0.094907254 0.49423954 -0.090022147
0.1137417 0.49589333 -0.082861006
-0.25651079 0.51482296 -0.081075728
-0.23719156 0.5127517 -0.089755416
-0.21843414 0.51188695 -0.093378603
0.094907254 0.51268792 -0.090022147
0.1137417 0.51439691 -0.082861006
-0.23719156 0.53120232 -0.089755416
-0.21843414 0.5303098 -0.093378723
0.094907254 0.53113663 -0.090022147
-0.25651079 0.53334045 -0.081075788
0.1137417 0.53290057 -0.082861066
-0.25651079 0.55185783 -0.081075728
-0.23719156 0.54965293 -0.089755535
-0.21843414 0.54873252 -0.093378544
0.094907254 0.54958522 -0.090022147
0.1137417 0.55140436 -0.082861006
-0.25651079 0.57037532 -0.081075728
-0.23719156 0.56810355 -0.089755416
-0.21843414 0.56715524 -0.093378603
0.094907254 0.56803381 -0.090022027
0.1137417 0.56990814 -0.082861006
-0.25651079 0.5888927 -0.081075728
-0.23719156 0.58655417 -0.089755416
-0.21843414 0.58557796 -0.093378603
0.094907254 0.58648229 -0.090022147
0.1137417 0.58841169 -0.082861006
-0.23719156 0.60500479 -0.089755535
-0.21843414 0.60400081 -0.093378723
0.094907254 0.604931 -0.090022147
-0.25651079 0.60741019 -0.081075728
0.1137417 0.60691547 -0.082861006
-0.25651079 0.62592757 -0.081075728
-0.23719156 0.62345541 -0.089755416
-0.21843414 0.62242341 -0.093378603
0.094907254 0.62337947 -0.090021968
0.1137417 0.62541914 -0.082861006
-0.25651079 0.64444506 -0.081075728
-0.23719156 0.6419059 -0.089755535
-0.21843414 0.64084613 -0.093378603
0.094907254 0.64182794 -0.090022027
0.1137417 0.64392281 -0.082861066
-0.25651079 0.66296244 -0.081075728
-0.23719156 0.66035664 -0.089755535
-0.21843414 0.65926886 -0.093378723
0.094907254 0.66027665 -0.090022027
0.1137417 0.66242647 -0.082861006
-0.27596793 -0.67250788 -0.072356462
0.13268904 -0.67166936 -0.07565707
0.1517503 -0.67351043 -0.068409741
-0.27596793 -0.65392327 -0.072356582
0.13268904 -0.65311027 -0.07565707
0.1517503 -0.65489542 -0.068409741
-0.27596793 -0.63533866 -0.072356462
0.1517503 -0.63628066 -0.068409741
0.13268904 -0.63455117 -0.07565707
-0.27596793 -0.61675417 -0.072356462
0.13268904 -0.61599183 -0.075657129
0.1517503 -0.61766565 -0.068409741
-0.27596793 -0.59816957 -0.072356462
0.13268904 -0.59743273 -0.07565707
0.1517503 -0.59905064 -0.068409801
-0.27596793 -0.57958496 -0.072356582
0.13268904 -0.57887363 -0.07565707
0.1517503 -0.58043575 -0.068409801
0.1517503 -0.56182086 -0.068409741
-0.27596793 -0.56100047 -0.072356582
0.13268904 -0.56031454 -0.07565707
-0.27596793 -0.54241598 -0.072356284
0.13268904 -0.54175526 -0.07565707
0.1517503 -0.54320586 -0.068409741
-0.27596793 -0.52383149 -0.072356462
0.13268904 -0.52319622 -0.07565707
0.1517503 -0.52459091 -0.068409741
-0.27596793 -0.50524688 -0.072356403
0.13268904 -0.504637 -0.07565707
0.1517503 -0.50597602 -0.068409741
-0.27596793 -0.4866623 -0.072356403
0.13268904 -0.48607787 -0.07565707
0.1517503 -0.48736104 -0.068409801
-0.27596793 -0.46807775 -0.072356403
0.13268904 -0.46751875 -0.07565707
0.1517503 -0.46874616 -0.068409801
-0.27596793 -0.44949317 -0.072356462
0.13268904 -0.44895962 -0.07565707
0.1517503 -0.45013118 -0.068409622
-0.27596793 -0.43090862 -0.072356403
0.13268904 -0.43040046 -0.07565707
0.1517503 -0.43151623 -0.068409741
-0.27596793 -0.4123241 -0.072356403
0.13268904 -0.41184136 -0.07565707
0.1517503 -0.41290131 -0.068409741
-0.27596793 -0.39373949 -0.072356403
0.13268904 -0.3932822 -0.07565707
0.1517503 -0.39428645 -0.068409741
-0.27596793 -0.37515491 -0.072356462
0.13268904 -0.37472302 -0.07565707
0.1517503 -0.37567142 -0.068409741
-0.27596793 -0.35657042 -0.072356462
0.13268904 -0.35616386 -0.07565707
0.1517503 -0.35705647 -0.068409801
-0.27596793 -0.33798581 -0.072356403
0.13268904 -0.33760467 -0.07565707
0.1517503 -0.33844152 -0.068409801
-0.27596793 -0.31940123 -0.072356403
0.13268904 -0.31904551 -0.07565707
0.1517503 -0.31982669 -0.068409741
-0.27596793 -0.30081674 -0.072356403
0.13268904 -0.30048639 -0.07565707
0.1517503 -0.30121166 -0.068409741
-0.27596793 -0.28223214 -0.072356462
0.13268904 -0.28192723 -0.07565707
0.1517503 -0.28259671 -0.068409801
-0.27596793 -0.26364762 -0.072356462
0.13268904 -0.26336813 -0.07565707
0.1517503 -0.26398185 -0.068409741
-0.27596793 -0.24506304 -0.072356462
0.13268904 -0.24480896 -0.07565707
0.1517503 -0.2453669 -0.068409801
-0.27596793 -0.22647843 -0.072356403
0.13268904 -0.22624984 -0.07565707
0.1517503 -0.22675185 -0.068409801
-0.27596793 -0.20789394 -0.072356582
0.13268904 -0.20769072 -0.07565707
0.1517503 -0.20813702 -0.068409622
-0.27596793 -0.18930936 -0.072356462
0.13268904 -0.1891316 -0.07565695
0.1517503 -0.18952207 -0.068409741
-0.27596793 -0.17072473 -0.072356462
0.13268904 -0.17057243 -0.07565695
0.1517503 -0.17090711 -0.068409801
-0.27596793 -0.15214023 -0.072356582
0.13268904 -0.15201324 -0.07565707
0.1517503 -0.15229219 -0.068409622
-0.27596793 -0.13355567 -0.072356462
0.13268904 -0.13345399 -0.07565707
0.1517503 -0.13367724 -0.068409741
-0.27596793 -0.11497108 -0.072356462
0.13268904 -0.1148949 -0.07565707
0.1517503 -0.11506227 -0.068409741
-0.27596921 -0.096386775 -0.072344601
0.13268904 -0.096335724 -0.07565707
0.1517503 -0.096447423 -0.068409622
-0.27596921 -0.077802166 -0.072344601
0.13268904 -0.077776641 -0.07565707
0.1517503 -0.077832401 -0.068409622
0.13268904 -0.059217468 -0.07565707
-0.27596921 -0.059217378 -0.072344661
0.1517503 -0.059217423 -0.068409741
-0.27596921 -0.040632814 -0.07234478
0.13268904 -0.04065834 -0.07565707
0.1517503 -0.040602535 -0.068409801
-0.27596921 -0.02204816 -0.072344601
0.13268904 -0.022099212 -0.07565707
0.1517503 -0.021987643 -0.068409741
-0.27596921 -0.0034635477 -0.072344661
0.13268904 -0.0035400838 -0.07565695
0.1517503 -0.0033726655 -0.068409741
-0.27596921 0.015121192 -0.072344661
0.13268904 0.015019089 -0.07565695
0.1517503 0.015242316 -0.068409801
-0.27596921 0.033705756 -0.07234478
0.13268904 0.033578172 -0.07565695
0.1517503 0.033857159 -0.068409622
-0.27596921 0.052290455 -0.072344601
0.13268904 0.052137434 -0.07565695
0.1517503 0.052472092 -0.068409741
-0.27596921 0.070875019 -0.072344661
0.13268904 0.070696607 -0.07565707
0.1517503 0.071087107 -0.068409741
-0.27596921 0.089459673 -0.072344601
0.13268904 0.08925578 -0.07565707
0.1517503 0.089701995 -0.068409622
-0.27596921 0.10804437 -0.07234478
0.13268904 0.10781486 -0.07565707
0.1517503 0.10831693 -0.068409741
-0.27596921 0.12662902 -0.072344661
0.13268904 0.12637404 -0.07565707
0.1517503 0.12693188 -0.068409801
-0.27596921 0.1452136 -0.072344661
0.13268904 0.14493318 -0.07565707
0.1517503 0.14554682 -0.068409622
-0.27596921 0.16379827 -0.072344601
0.13268904 0.16349229 -0.07565707
0.1517503 0.16416176 -0.068409741
-0.27596921 0.18238296 -0.07234478
0.13268904 0.18205144 -0.07565707
0.1517503 0.18277681 -0.068409741
-0.27596921 0.20096764 -0.072344661
0.13268904 0.20061058 -0.07565707
0.1517503 0.20139167 -0.068409801
-0.27596921 0.21955219 -0.072344661
0.13268904 0.21916968 -0.07565707
0.1517503 0.22000661 -0.068409622
-0.27596921 0.23813677 -0.072344661
0.13268904 0.23772883 -0.07565707
0.1517503 0.23862147 -0.068409801
-0.27596921 0.25672153 -0.072344601
0.13268904 0.25628799 -0.07565707
0.1517503 0.25723648 -0.068409801
-0.27596921 0.2753062 -0.072344661
0.13268904 0.27484709 -0.07565695
0.1517503 0.27585143 -0.068409622
-0.27596921 0.29389077 -0.072344661
0.13268904 0.29340634 -0.07565707
0.1517503 0.29446632 -0.068409801
-0.27596921 0.31247538 -0.072344661
0.13268904 0.3119655 -0.07565707
0.1517503 0.31308135 -0.068409801
-0.27596921 0.33106008 -0.072344601
0.13268904 0.33052456 -0.07565707
0.1517503 0.33169624 -0.068409622
-0.27596921 0.34964478 -0.07234478
0.13268904 0.34908387 -0.07565707
0.1517503 0.35031113 -0.068409741
-0.27596921 0.36822939 -0.072344661
0.13268904 0.367643 -0.07565707
0.1517503 0.3689262 -0.068409741
-0.27596921 0.38681409 -0.072344601
0.13268904 0.38620213 -0.07565707
0.1517503 0.38754091 -0.068409741
-0.27596921 0.40539873 -0.072344601
0.13268904 0.40476134 -0.07565707
0.1517503 0.40615597 -0.068409741
-0.27596921 0.42398334 -0.07234478
0.13268904 0.42332041 -0.07565695
0.1517503 0.42477104 -0.068409741
-0.27596921 0.44256791 -0.072344661
0.13268904 0.44187948 -0.07565695
0.1517503 0.44338587 -0.068409801
-0.27596921 0.4611527 -0.072344601
0.13268904 0.4604387 -0.07565695
0.1517503 0.4620007 -0.068409622
-0.27596921 0.47973731 -0.072344601
0.13268904 0.47899786 -0.07565695
0.1517503 0.48061576 -0.068409622
-0.27596921 0.49832186 -0.072344601
0.13268904 0.49755695 -0.07565695
0.1517503 0.49923065 -0.068409801
0.13268904 0.51611614 -0.07565707
-0.27596921 0.5169065 -0.07234478
0.1517503 0.51784563 -0.068409622
-0.27596921 0.53549123 -0.072344601
0.13268904 0.53467536 -0.07565707
0.1517503 0.53646052 -0.068409801
-0.27596921 0.55407584 -0.072344601
0.13268904 0.55323446 -0.07565707
0.1517503 0.55507553 -0.068409801
-0.27596921 0.57266057 -0.072344601
0.13268904 0.57179368 -0.07565707
0.1517503 0.57369041 -0.068409622
0.13268904 0.59035265 -0.07565707
-0.27596921 0.59124517 -0.07234478
0.1517503 0.5923053 -0.068409741
-0.27596921 0.6098299 -0.072344601
0.13268904 0.60891187 -0.07565707
0.1517503 0.61092043 -0.068409801
-0.27596921 0.62841451 -0.072344601
0.13268904 0.62747097 -0.07565707
0.1517503 0.62953532 -0.068409622
-0.27596921 0.64699912 -0.072344601
0.13268904 0.64603019 -0.07565707
0.1517503 0.64815009 -0.068409741
0.13268904 0.66458917 -0.07565707
-0.31531432 -0.6769985 -0.054679096
-0.29556936 -0.67474496 -0.063549995
0.17092559 -0.67535961 -0.061130643
0.19021767 -0.67722297 -0.053795576
-0.31531432 -0.65827787 -0.054679036
-0.29556936 -0.65609264 -0.063549936
0.17092559 -0.65668869 -0.061130643
0.19021767 -0.65849543 -0.053795457
-0.31531432 -0.63955724 -0.054678917
-0.29556936 -0.63744032 -0.063549995
0.17092559 -0.63801765 -0.061130643
0.19021767 -0.639768 -0.053795636
-0.31531432 -0.62083662 -0.054679096
0.19021767 -0.6210407 -0.053795576
-0.29556936 -0.618788 -0.063549995
0.17092559 -0.61934662 -0.061130524
-0.31531432 -0.60211599 -0.054679096
-0.29556936 -0.60013556 -0.063550115
0.17092559 -0.6006757 -0.061130524
0.19021767 -0.60231316 -0.053795576
-0.31531432 -0.58339536 -0.054679036
-0.29556936 -0.58148324 -0.063549936
0.17092559 -0.58200479 -0.061130643
0.19021767 -0.58358574 -0.053795636
-0.31531432 -0.56467462 -0.054679036
-0.29556936 -0.56283092 -0.063549936
0.17092559 -0.56333375 -0.061130643
0.19021767 -0.56485832 -0.053795576
-0.31531432 -0.54595411 -0.054679036
-0.29556936 -0.54417849 -0.063549995
0.17092559 -0.54466277 -0.061130524
0.19021767 -0.5461309 -0.053795576
-0.31531432 -0.52723348 -0.054678917
-0.29556936 -0.52552623 -0.063549995
0.17092559 -0.5259918 -0.061130524
0.19021767 -0.52740335 -0.053795636
-0.31531432 -0.50851274 -0.054679096
-0.29556936 -0.50687385 -0.063549995
0.17092559 -0.50732082 -0.061130524
0.19021767 -0.50867605 -0.053795576
-0.31531432 -0.48979217 -0.054679036
-0.29556936 -0.4882215 -0.063549936
0.17092559 -0.48864993 -0.061130524
0.19021767 -0.48994854 -0.053795636
-0.31531432 -0.47107151 -0.054679036
-0.29556936 -0.46956915 -0.063550115
0.17092559 -0.46997893 -0.061130524
0.19021767 -0.47122112 -0.053795636
-0.31531432 -0.45235083 -0.054679096
-0.29556936 -0.45091677 -0.063549995
0.17092559 -0.45130795 -0.061130524
0.19021767 -0.45249364 -0.053795457
-0.31531432 -0.43363023 -0.054679036
-0.29556936 -0.43226448 -0.063549936
0.17092559 -0.43263695 -0.061130524
0.19021767 -0.43376622 -0.053795576
-0.31531432 -0.41490957 -0.054679096
0.17092559 -0.41396603 -0.061130524
0.19021767 -0.41503879 -0.053795636
-0.29556936 -0.41361207 -0.063549995
-0.31531432 -0.39618897 -0.054679036
-0.29556936 -0.39495975 -0.063549936
0.17092559 -0.39529502 -0.061130524
0.19021767 -0.39631137 -0.053795576
-0.31531432 -0.37746835 -0.054679036
-0.29556936 -0.3763074 -0.063550115
0.17092559 -0.37662402 -0.061130524
0.19021767 -0.37758392 -0.053795576
-0.31531432 -0.35874757 -0.054679096
-0.29556936 -0.35765508 -0.063549995
0.17092559 -0.35795301 -0.061130643
0.19021767 -0.3588565 -0.053795457
-0.31531432 -0.34002703 -0.054679096
0.19021767 -0.34012908 -0.053795576
-0.29556936 -0.33900276 -0.063549936
0.17092559 -0.3392821 -0.061130702
-0.31531432 -0.32130641 -0.054679036
-0.29556936 -0.32035029 -0.063549995
0.17092559 -0.32061109 -0.061130702
0.19021767 -0.3214016 -0.053795636
-0.31531432 -0.30258572 -0.054679036
-0.29556936 -0.30169797 -0.063549936
0.17092559 -0.30194008 -0.061130643
0.19021767 -0.30267423 -0.053795576
-0.31531432 -0.28386515 -0.054679036
-0.29556936 -0.28304565 -0.063550115
0.17092559 -0.28326911 -0.061130643
0.19021767 -0.28394669 -0.053795457
-0.31531432 -0.26514453 -0.054679036
-0.29556936 -0.26439333 -0.063549995
0.17092559 -0.26459813 -0.061130643
0.19021767 -0.26521927 -0.053795576
-0.31531432 -0.24642383 -0.054679096
-0.29556936 -0.24574101 -0.063549936
0.17092559 -0.2459272 -0.061130643
0.19021767 -0.24649195 -0.053795457
-0.31531432 -0.22770315 -0.054679036
-0.29556936 -0.2270886 -0.063549995
0.17092559 -0.22725619 -0.061130702
0.19021767 -0.22776444 -0.053795576
-0.31531432 -0.20898263 -0.054679036
-0.29556936 -0.20843634 -0.063549936
0.17092559 -0.20858525 -0.061130643
0.19021767 -0.20903696 -0.053795576
-0.31531432 -0.1902619 -0.054679096
-0.29556936 -0.18978389 -0.063550115
0.17092559 -0.18991426 -0.061130643
0.19021767 -0.19030957 -0.053795457
-0.31531432 -0.1715413 -0.054679036
-0.29556936 -0.17113158 -0.063549936
0.17092559 -0.17124334 -0.061130643
0.19021767 -0.17158213 -0.053795576
-0.31531432 -0.15282074 -0.054679036
-0.29556936 -0.15247926 -0.063549936
0.17092559 -0.15257236 -0.061130643
0.19021767 -0.15285465 -0.053795636
-0.31531432 -0.13410002 -0.054679096
-0.29556936 -0.13382685 -0.063549936
0.17092559 -0.13390136 -0.061130643
0.19021767 -0.1341273 -0.053795576
-0.31531432 -0.11537942 -0.054679036
