ply
format ascii 1.0
comment PCL generated
element vertex 1324
property float x
property float y
property float z
element camera 0
property float view_px
property float view_py
property float view_pz
property float x_axisx
property float x_axisy
property float x_axisz
property float y_axisx
property float y_axisy
property float y_axisz
property float z_axisx
property float z_axisy
property float z_axisz
property float focal
property float scalex
property float scaley
property float centerx
property float centery
property int viewportx
property int viewporty
property float k1
property float k2
end_header
-0.12102443 -0.37473604 -0.088841856
0.1712231 -0.37458622 -0.089814901
0.18978921 -0.37505159 -0.08679229
0.20840141 -0.37551644 -0.083773315
-0.13956591 -0.35749254 -0.081816494
-0.12102443 -0.35646495 -0.088841796
0.1712231 -0.35632262 -0.089814782
0.18978921 -0.35676467 -0.08679235
0.20840141 -0.35720626 -0.083773315
-0.13956591 -0.3391673 -0.081816494
-0.12102443 -0.3381938 -0.088841796
0.17122415 -0.33806059 -0.089803696
0.18978921 -0.33847785 -0.08679229
0.20840141 -0.33889616 -0.083773434
-0.13956591 -0.32084215 -0.081816494
-0.12102443 -0.31992275 -0.088841796
0.17122415 -0.31979692 -0.089803636
0.18978921 -0.320191 -0.08679229
0.20840141 -0.32058609 -0.083773255
-0.13956591 -0.30251697 -0.081816494
-0.12102443 -0.30165169 -0.088841796
0.17122415 -0.30153319 -0.089803696
0.18978921 -0.30190414 -0.08679235
0.20840141 -0.30227596 -0.083773315
-0.13956591 -0.28419182 -0.081816494
-0.12102443 -0.28338054 -0.088841796
0.17122415 -0.28326958 -0.089803696
0.18978921 -0.28361732 -0.08679235
0.20840141 -0.28396583 -0.083773315
-0.13956591 -0.26586661 -0.081816494
-0.12102443 -0.26510954 -0.088841856
0.17122415 -0.26500583 -0.089803636
0.18978921 -0.2653304 -0.08679235
0.20840141 -0.26565579 -0.083773255
-0.13956591 -0.24754149 -0.081816494
-0.12102443 -0.24683844 -0.088841796
0.17122415 -0.24674223 -0.089803636
0.18978921 -0.24704355 -0.08679235
0.20840141 -0.2473457 -0.083773315
-0.13956591 -0.22921634 -0.081816494
-0.12102443 -0.22856738 -0.088841796
0.17122415 -0.22847845 -0.089803696
0.18978921 -0.22875673 -0.08679229
0.20840141 -0.22903553 -0.083773315
-0.13956591 -0.21089116 -0.081816494
-0.12102443 -0.21029623 -0.088841796
0.17122415 -0.21021482 -0.089803696
0.18978921 -0.2104698 -0.08679235
0.20840141 -0.2107254 -0.083773434
-0.13956591 -0.19256593 -0.081816494
-0.12102443 -0.19202518 -0.088841796
0.17122415 -0.19195114 -0.089803636
0.18978921 -0.19218299 -0.08679229
0.20840141 -0.19241536 -0.083773315
-0.13956591 -0.17424077 -0.081816494
-0.12102443 -0.17375404 -0.088841796
0.17122415 -0.17368747 -0.089803636
0.18978921 -0.17389603 -0.08679235
0.20840141 -0.17410524 -0.083773315
-0.13956591 -0.15591566 -0.081816494
-0.12102443 -0.15548296 -0.088841796
0.17122415 -0.15542369 -0.089803696
0.18978921 -0.15560919 -0.08679235
0.20840141 -0.15579508 -0.083773315
-0.13956591 -0.13759041 -0.081816494
-0.12102443 -0.13721184 -0.088841796
0.17122415 -0.13716006 -0.089803696
0.18978921 -0.13732237 -0.08679229
0.20840141 -0.13748504 -0.083773315
-0.13956591 -0.11926526 -0.081816494
-0.12102443 -0.11894085 -0.088841796
0.17122415 -0.11889644 -0.089803636
0.18978921 -0.11903544 -0.08679235
0.20840141 -0.11917491 -0.083773315
-0.13956591 -0.1009401 -0.081816494
-0.12102443 -0.1006697 -0.088841796
0.17122415 -0.1006327 -0.089803636
0.18978921 -0.10074863 -0.08679229
0.20840141 -0.10086474 -0.083773315
-0.13956591 -0.082614928 -0.081816494
-0.12102443 -0.082398638 -0.088841796
0.17122415 -0.082368992 -0.089803696
0.18978921 -0.082461663 -0.08679235
0.20840141 -0.08255472 -0.083773255
-0.13956591 -0.064289689 -0.081816494
-0.12102443 -0.06412755 -0.088841796
0.17122415 -0.064105302 -0.089803636
0.18978921 -0.064174838 -0.08679229
0.20840141 -0.064244591 -0.083773315
-0.13956591 -0.04596458 -0.081816494
-0.12102443 -0.045856435 -0.088841796
0.17122415 -0.045841679 -0.089803636
0.18978921 -0.045888092 -0.08679229
0.20840141 -0.045934465 -0.083773315
-0.13956591 -0.027639408 -0.081816554
-0.12102443 -0.027585346 -0.088841796
0.17122415 -0.027577966 -0.089803517
0.18978921 -0.027601175 -0.08679235
0.20840141 -0.027624294 -0.083773315
0.18978921 -0.0093143219 -0.08679229
-0.13956591 -0.0093142772 -0.081816554
-0.12102443 -0.0093142325 -0.088841677
0.17122415 -0.0093142325 -0.089803696
0.20840141 -0.0093142772 -0.083773315
-0.13956591 0.0090109864 -0.081816494
-0.12102443 0.0089567462 -0.088841796
0.17122415 0.0089493683 -0.089803696
0.18978921 0.0089726197 -0.08679235
0.20840141 0.0089958729 -0.083773315
-0.13956591 0.027336117 -0.081816554
-0.12102443 0.027227905 -0.088841796
0.17122415 0.027213104 -0.089803636
0.18978921 0.027259428 -0.08679229
0.20840141 0.027305979 -0.083773315
-0.13956591 0.045661248 -0.081816554
-0.12102443 0.045498975 -0.088841796
0.17122415 0.045476727 -0.089803636
0.18978921 0.045546282 -0.08679229
0.20840141 0.045616038 -0.083773255
-0.13956591 0.063986331 -0.081816375
-0.12102443 0.063770063 -0.088841796
0.17122415 0.063740507 -0.089803696
0.18978921 0.063833199 -0.08679235
0.20840141 0.06392619 -0.083773315
-0.13956591 0.082311548 -0.081816375
-0.12102443 0.082041152 -0.088841677
0.17122415 0.08200413 -0.089803636
0.18978921 0.082120031 -0.08679229
0.20840141 0.082236297 -0.083773315
-0.13956591 0.10063673 -0.081816375
-0.12102443 0.10031225 -0.088841677
0.17122415 0.10026786 -0.089803636
0.18978921 0.10040697 -0.08679235
0.20840141 0.10054642 -0.083773315
-0.13956591 0.11896183 -0.081816375
-0.12102443 0.11858337 -0.088841677
0.17122415 0.11853146 -0.089803517
0.18978921 0.11869381 -0.08679235
0.20840141 0.11885648 -0.083773315
-0.13956591 0.1372871 -0.081816375
-0.12102443 0.13685447 -0.088841677
0.17122415 0.13679516 -0.089803696
0.18978921 0.13698065 -0.08679229
0.20840141 0.1371666 -0.083773315
-0.13956591 0.15561223 -0.081816375
-0.12102443 0.15512547 -0.088841796
0.17122415 0.15505891 -0.089803636
0.18978921 0.15526757 -0.08679235
0.20840141 0.15547676 -0.083773315
-0.13956591 0.17393737 -0.081816375
-0.12102443 0.17339662 -0.088841677
0.17122415 0.17332253 -0.089803636
0.18978921 0.17355438 -0.08679229
0.20840141 0.17378679 -0.083773255
-0.13956591 0.19226255 -0.081816375
-0.12102443 0.19166769 -0.088841677
0.17122415 0.1915863 -0.089803696
0.18978921 0.19184135 -0.08679235
0.20840141 0.19209687 -0.083773315
-0.13956591 0.21058777 -0.081816375
-0.12102443 0.20993878 -0.088841677
0.17122415 0.20984992 -0.089803696
0.18978921 0.21012811 -0.08679235
0.20840141 0.21040697 -0.083773434
-0.13956591 0.22891292 -0.081816375
-0.12102443 0.22820987 -0.088841677
0.17122415 0.22811367 -0.089803636
0.18978921 0.22841491 -0.08679229
0.20840141 0.22871701 -0.083773255
-0.13956591 0.24723805 -0.081816375
-0.12102443 0.24648096 -0.088841677
0.17122415 0.24637727 -0.089803636
0.18978921 0.24670182 -0.08679235
0.20840141 0.24702717 -0.083773315
-0.13956591 0.26556322 -0.081816375
-0.12102443 0.26475209 -0.088841617
0.17122415 0.26464108 -0.089803696
0.18978921 0.26498869 -0.08679229
0.20840141 0.26533732 -0.083773315
-0.13956591 0.28388843 -0.081816375
-0.12102443 0.28302309 -0.088841677
0.17122415 0.28290471 -0.089803696
0.18978921 0.28327554 -0.086792171
0.20840141 0.28364745 -0.083773434
-0.13956591 0.30221361 -0.081816375
-0.12102443 0.30129418 -0.088841677
0.17122415 0.30116835 -0.089803636
0.18978921 0.30156252 -0.08679229
0.20840141 0.30195749 -0.083773315
-0.13956591 0.32053879 -0.081816375
-0.12102443 0.31956527 -0.088841677
0.17122415 0.31943205 -0.089803517
0.18978921 0.3198494 -0.086792171
0.20840141 0.32026768 -0.083773315
-0.13956591 0.33886388 -0.081816375
-0.12102443 0.33783641 -0.088841677
0.17122415 0.33769584 -0.089803696
0.18978921 0.33813617 -0.08679235
0.20840141 0.33857778 -0.083773315
-0.13956591 0.35718906 -0.081816375
-0.12102443 0.3561075 -0.088841617
0.17122415 0.35595939 -0.089803696
0.18978921 0.35642299 -0.08679235
0.20840141 0.35688788 -0.083773255
-0.13956591 0.37551439 -0.081816375
-0.12102443 0.37437862 -0.088841617
0.17122415 0.37422308 -0.089803636
0.18978921 0.37470978 -0.08679229
0.20840141 0.37519798 -0.083773315
-0.13956591 0.39383951 -0.081816375
-0.12102443 0.39264977 -0.088841796
0.17122415 0.39248681 -0.089803517
0.18978921 0.39299676 -0.08679235
0.20840263 0.39351004 -0.08376205
0.17122415 0.4107506 -0.089803636
-0.13956591 0.41216469 -0.081816375
-0.12102443 0.41092083 -0.088841796
0.18978921 0.41128358 -0.08679229
0.20840263 0.41182026 -0.08376205
-0.13956591 0.43048984 -0.081816375
-0.12102443 0.42919201 -0.088841796
0.17122415 0.42901415 -0.089803696
0.18978921 0.42957056 -0.08679235
0.20840263 0.43013048 -0.08376205
-0.13956591 0.44881499 -0.081816375
-0.12102443 0.44746307 -0.088841796
0.17122415 0.44727784 -0.089803517
0.18978921 0.44785738 -0.08679235
0.20840263 0.44844046 -0.083762169
-0.13956591 0.46714017 -0.081816375
-0.12102443 0.46573418 -0.088841796
0.17122415 0.46554157 -0.089803517
0.18978921 0.46614417 -0.086792171
0.20840263 0.46675071 -0.083762169
-0.13956591 0.48546526 -0.081816375
-0.12102443 0.48400527 -0.088841796
0.17122415 0.48380524 -0.089803696
0.18978921 0.48443112 -0.08679235
0.20840263 0.48506093 -0.083762169
-0.13956591 0.50379038 -0.081816375
-0.12102443 0.50227618 -0.088841796
0.17122415 0.50206888 -0.089803636
0.18978921 0.50271791 -0.08679229
0.20840263 0.50337112 -0.08376205
-0.13956591 0.52211577 -0.081816375
-0.12102443 0.52054733 -0.088841796
0.17122415 0.52033257 -0.089803517
0.18978921 0.52100486 -0.08679235
0.20840263 0.52168137 -0.08376205
-0.13956591 0.54044086 -0.081816375
-0.12102443 0.53881836 -0.088841796
0.17122415 0.53859633 -0.089803517
0.18978921 0.53929162 -0.08679235
0.20840263 0.53999156 -0.083762169
-0.13956591 0.55876601 -0.081816375
-0.12102443 0.55708951 -0.088841796
0.17122415 0.55685985 -0.089803696
0.18978921 0.55757856 -0.08679229
0.20840263 0.55830175 -0.083762169
-0.12102443 0.57536054 -0.088841796
0.17122415 0.57512361 -0.089803636
-0.13956591 0.57709122 -0.081816375
0.18978921 0.57586545 -0.08679235
0.20840263 0.576612 -0.083762169
-0.13956591 0.59541631 -0.081816494
-0.12102443 0.59363168 -0.088841796
0.17122415 0.59338737 -0.089803517
0.18978921 0.59415227 -0.08679229
0.20840263 0.59492207 -0.08376199
-0.13956591 0.61374152 -0.081816494
-0.12102443 0.61190283 -0.088841796
0.17122415 0.61165088 -0.089803517
0.18978921 0.61243916 -0.08679235
0.20840263 0.61323231 -0.08376199
-0.13956591 0.63206667 -0.081816494
-0.12102443 0.63017386 -0.088841796
0.17122415 0.6299147 -0.089803696
0.18978921 0.63072598 -0.08679229
0.20840263 0.63154227 -0.08376205
-0.13956591 0.65039188 -0.081816375
-0.12102443 0.64844495 -0.088841796
0.17122415 0.64817834 -0.089803636
0.18978921 0.64901292 -0.086792171
0.20840263 0.64985251 -0.08376205
-0.13956591 0.66871709 -0.081816375
-0.12102443 0.66671604 -0.088841677
0.17122415 0.6664421 -0.089803517
0.18978921 0.66729987 -0.08679235
0.20840263 0.66816282 -0.08376205
-0.1582175 -0.6709789 -0.07474947
0.2276777 -0.67079693 -0.075405896
-0.17698017 -0.65451473 -0.067640364
0.24713221 -0.65478486 -0.066637576
-0.1582175 -0.65259933 -0.07474947
0.2276777 -0.65242249 -0.075405896
-0.17698017 -0.63608038 -0.067640364
-0.1582175 -0.63421977 -0.07474947
0.2276777 -0.63404799 -0.075405896
0.24713221 -0.63634294 -0.066637576
-0.17698017 -0.61764622 -0.067640305
-0.1582175 -0.6158402 -0.07474947
0.2276777 -0.61567342 -0.075405896
0.24713221 -0.61790085 -0.066637695
-0.17698017 -0.59921187 -0.067640305
-0.1582175 -0.59746069 -0.07474941
0.2276777 -0.59729886 -0.075405896
0.24713221 -0.59945881 -0.066637516
-0.17698017 -0.58077753 -0.067640305
0.24713221 -0.5810169 -0.066637516
-0.1582175 -0.57908106 -0.07474941
0.2276777 -0.57892436 -0.075405896
-0.17698017 -0.56234318 -0.067640364
-0.1582175 -0.56070149 -0.074749291
0.2276777 -0.56054991 -0.075406015
0.24713221 -0.5625748 -0.066637576
-0.17698017 -0.54390901 -0.067640305
-0.1582175 -0.54232198 -0.07474947
0.2276777 -0.54217535 -0.075406015
0.24713221 -0.54413283 -0.066637516
-0.17698017 -0.52547473 -0.067640364
-0.1582175 -0.52394235 -0.07474941
0.2276777 -0.52380079 -0.075405836
0.24713221 -0.52569079 -0.066637695
-0.17698017 -0.50704032 -0.067640364
-0.1582175 -0.50556272 -0.07474947
0.2276777 -0.50542629 -0.075405896
0.24713221 -0.50724876 -0.066637516
-0.17698017 -0.48860598 -0.067640364
-0.1582175 -0.48718312 -0.07474947
0.2276777 -0.48705178 -0.075405896
0.24713361 -0.48880899 -0.066626251
-0.17698017 -0.47017175 -0.067640305
-0.1582175 -0.46880352 -0.07474947
0.2276777 -0.46867725 -0.075405896
0.24713361 -0.47036693 -0.066626072
-0.17698017 -0.45173746 -0.067640305
-0.1582175 -0.45042408 -0.074749291
0.2276777 -0.45030275 -0.075405896
0.24713361 -0.45192477 -0.066626132
-0.17698017 -0.43330309 -0.067640305
-0.1582175 -0.43204448 -0.07474941
0.2276777 -0.43192822 -0.075405896
0.24713361 -0.43348262 -0.066626251
-0.17698017 -0.41486889 -0.067640185
0.24713361 -0.41504064 -0.066626132
-0.1582175 -0.41366497 -0.07474941
0.2276777 -0.41355371 -0.075405896
-0.17698017 -0.39643458 -0.067640305
-0.1582175 -0.39528534 -0.07474941
0.2276777 -0.39517921 -0.075405896
0.24713361 -0.39659846 -0.066626132
-0.17698017 -0.3780002 -0.067640305
-0.1582175 -0.37690571 -0.07474941
0.2276777 -0.37680459 -0.075406015
0.24713361 -0.37815639 -0.066626132
-0.17698017 -0.35956588 -0.067640364
-0.1582175 -0.35852611 -0.07474941
0.2276777 -0.35843009 -0.075406015
0.24713361 -0.35971421 -0.066626251
-0.17698017 -0.34113169 -0.067640305
-0.1582175 -0.34014654 -0.07474947
0.22767901 -0.34005719 -0.07539463
0.24713361 -0.34127218 -0.066626132
-0.17698017 -0.32269737 -0.067640305
-0.1582175 -0.32176697 -0.07474947
0.22767901 -0.32168263 -0.07539463
0.24713361 -0.32283002 -0.066626132
-0.17698017 -0.30426303 -0.067640305
-0.1582175 -0.30338737 -0.07474947
0.22767901 -0.30330789 -0.07539463
0.24713361 -0.30438796 -0.066626251
-0.17698017 -0.28582871 -0.067640364
-0.1582175 -0.28500789 -0.074749291
0.22767901 -0.28493336 -0.07539463
0.24713361 -0.28594589 -0.066626072
-0.17698017 -0.26739448 -0.067640185
-0.1582175 -0.26662832 -0.07474941
0.22767901 -0.26655874 -0.075394571
0.24713361 -0.26750377 -0.066626251
-0.17698017 -0.2489602 -0.067640364
-0.1582175 -0.24824876 -0.07474941
0.22767901 -0.24818416 -0.07539475
0.24713361 -0.2490616 -0.066626251
-0.17698017 -0.23052581 -0.067640305
-0.1582175 -0.22986916 -0.07474941
0.22767901 -0.22980954 -0.07539463
0.24713361 -0.23061961 -0.066626132
-0.17698017 -0.21209151 -0.067640364
-0.1582175 -0.21148959 -0.07474947
0.22767901 -0.21143498 -0.07539463
0.24713361 -0.21217746 -0.066626132
-0.17698017 -0.19365734 -0.067640305
-0.1582175 -0.19310999 -0.07474947
0.22767901 -0.19306034 -0.075394571
0.24713361 -0.19373538 -0.066626251
-0.17698017 -0.17522304 -0.067640305
-0.1582175 -0.17473041 -0.07474941
0.22767901 -0.17468567 -0.07539463
0.24713361 -0.17529324 -0.066626072
-0.17698017 -0.15678865 -0.067640305
-0.1582175 -0.15635084 -0.07474947
0.22767901 -0.15631112 -0.07539463
0.24713361 -0.15685116 -0.066626132
-0.17698017 -0.13835435 -0.067640364
-0.1582175 -0.13797125 -0.07474947
0.22767901 -0.13793656 -0.075394571
0.24713361 -0.138409 -0.066626251
-0.17698017 -0.1199201 -0.067640305
-0.1582175 -0.11959175 -0.07474941
0.22767901 -0.11956184 -0.07539463
0.24713361 -0.11996701 -0.066626132
-0.17698017 -0.10148573 -0.067640305
-0.1582175 -0.10121215 -0.074749291
0.22767901 -0.10118727 -0.07539463
0.24713361 -0.10152483 -0.066626132
-0.17698017 -0.083051443 -0.067640305
-0.1582175 -0.082832515 -0.074749291
0.22767901 -0.082812682 -0.075394571
0.24713361 -0.083082631 -0.066626251
-0.17698017 -0.064617142 -0.067640364
-0.1582175 -0.064453013 -0.07474941
0.22767901 -0.064438149 -0.075394571
0.24713361 -0.064640552 -0.066626251
-0.17698017 -0.046182927 -0.067640305
-0.1582175 -0.046073418 -0.07474941
0.22767901 -0.04606349 -0.07539463
0.24713361 -0.046198465 -0.066626132
-0.17698017 -0.027748559 -0.067640305
-0.1582175 -0.027693827 -0.07474947
0.22767901 -0.027688865 -0.07539463
0.24713361 -0.027756382 -0.066626251
0.22767901 -0.0093143666 -0.07539463
-0.17698017 -0.0093142325 -0.067640364
-0.1582175 -0.0093142772 -0.07474947
0.24713361 -0.0093142325 -0.066626251
-0.17698017 0.0091200927 -0.067640364
-0.1582175 0.0090653161 -0.07474947
0.22767901 0.0090603521 -0.07539463
0.24713361 0.0091278283 -0.066626132
-0.17698017 0.02755424 -0.067640305
-0.1582175 0.02744491 -0.07474947
0.22767901 0.027434893 -0.07539463
0.24713361 0.027569979 -0.066626132
-0.17698017 0.045988657 -0.067640305
-0.1582175 0.045824416 -0.074749291
0.22767901 0.045809526 -0.075394571
0.24713361 0.046012044 -0.066626251
-0.17698017 0.064422935 -0.067640364
-0.1582175 0.064203963 -0.074749291
0.22767901 0.064184107 -0.075394571
0.24713361 0.064454146 -0.066626132
-0.17698017 0.082857177 -0.067640185
-0.1582175 0.082583554 -0.07474941
0.22767901 0.082558803 -0.07539463
0.24713361 0.082896233 -0.066626132
-0.17698017 0.10129146 -0.067640305
-0.1582175 0.10096318 -0.07474941
0.22767901 0.10093333 -0.07539463
0.24713361 0.10133839 -0.066626132
-0.17698017 0.11972585 -0.067640305
-0.1582175 0.11934277 -0.07474941
0.22767901 0.11930796 -0.075394571
0.24713361 0.1197804 -0.066626132
-0.17698017 0.13816012 -0.067640364
-0.1582175 0.13772228 -0.07474947
0.22767901 0.13768257 -0.07539463
0.24713361 0.13822256 -0.066626132
-0.17698017 0.15659435 -0.067640185
-0.1582175 0.1561019 -0.07474947
0.22767901 0.15605718 -0.07539463
0.24713361 0.15666467 -0.066626251
-0.17698017 0.17502867 -0.067640305
-0.1582175 0.1744815 -0.07474947
0.22767901 0.17443173 -0.07539463
0.24713361 0.17510676 -0.066626072
-0.17698017 0.19346303 -0.067640305
-0.1582175 0.19286092 -0.074749291
0.22767901 0.19280633 -0.075394571
0.24713361 0.19354881 -0.066626132
-0.17698017 0.21189731 -0.067640364
-0.1582175 0.21124053 -0.07474941
0.22767901 0.21118101 -0.07539463
0.24713361 0.21199104 -0.066626132
-0.17698017 0.23033153 -0.067640185
-0.1582175 0.22962014 -0.07474941
0.22767901 0.22955562 -0.07539463
0.24713361 0.23043309 -0.066626251
-0.17698017 0.2487659 -0.067640185
-0.1582175 0.24799974 -0.074749291
0.22767901 0.24793015 -0.075394571
0.24713361 0.24887516 -0.066626072
-0.17698017 0.26720023 -0.067640305
-0.1582175 0.26637927 -0.07474941
0.22767901 0.26630488 -0.07539463
0.24713361 0.2673173 -0.066626132
-0.17698017 0.28563461 -0.067640305
-0.1582175 0.28475896 -0.074749291
0.22767901 0.28467941 -0.07539463
0.24713361 0.28575954 -0.066626132
-0.17698017 0.30406883 -0.067640185
-0.1582175 0.30313843 -0.07474947
0.22767901 0.30305395 -0.07539463
0.24713361 0.30420154 -0.066626072
-0.17698017 0.32250315 -0.067640185
-0.1582175 0.32151806 -0.07474947
0.22767901 0.32142866 -0.075394452
0.24713361 0.32264364 -0.066626251
-0.17698017 0.34093744 -0.067640364
-0.1582175 0.33989766 -0.07474947
0.22767901 0.33980328 -0.07539463
0.24713361 0.3410857 -0.066626251
-0.17698017 0.35937172 -0.067640364
-0.1582175 0.35827717 -0.074749291
0.22767901 0.35817784 -0.07539463
0.24713361 0.35952789 -0.066626072
-0.17698017 0.37780589 -0.067640305
-0.1582175 0.37665671 -0.074749291
0.22767901 0.37655237 -0.07539463
0.24713361 0.37797001 -0.066626132
-0.1582175 0.39503634 -0.074749291
0.22767901 0.39492714 -0.07539463
-0.17698017 0.39624026 -0.067640305
0.24713361 0.39641207 -0.066626251
-0.17698017 0.41467455 -0.067640364
-0.1582175 0.41341594 -0.074749291
0.22767901 0.41330168 -0.07539463
0.24713361 0.41485408 -0.066626072
-0.17698017 0.43310902 -0.067640364
-0.1582175 0.43179545 -0.07474947
0.22767901 0.43167624 -0.07539463
0.24713361 0.43329632 -0.066626072
-0.17698017 0.45154321 -0.067640185
-0.1582175 0.45017502 -0.07474947
0.22767901 0.4500508 -0.075394571
0.24713361 0.45173842 -0.066626132
-0.17698017 0.46997747 -0.067640305
-0.1582175 0.46855462 -0.07474947
0.22767901 0.46842557 -0.07539463
0.24713361 0.47018039 -0.066626072
-0.17698017 0.48841175 -0.067640364
-0.1582175 0.48693427 -0.07474947
0.22767901 0.4868001 -0.075394571
0.24713361 0.48862255 -0.066626251
-0.17698017 0.50684613 -0.067640364
-0.1582175 0.50531375 -0.07474947
0.22767901 0.50517464 -0.075394571
0.24713361 0.5070647 -0.066626132
-0.17698017 0.5252803 -0.067640305
-0.1582175 0.52369332 -0.074749291
0.22767901 0.52354926 -0.07539463
0.24713361 0.52550685 -0.066626251
-0.17698017 0.54371464 -0.067640364
-0.1582175 0.54207289 -0.074749291
0.22767901 0.54192382 -0.07539463
0.24713361 0.54394889 -0.066626132
-0.1582175 0.56045234 -0.07474947
0.22767901 0.5602985 -0.075394571
-0.17698017 0.56214905 -0.067640185
0.24713361 0.56239086 -0.066626251
-0.17698017 0.58058321 -0.067640185
-0.1582175 0.57883197 -0.07474941
0.22767901 0.57867306 -0.075394571
0.24713361 0.5808332 -0.066626251
-0.17698017 0.59901762 -0.067640185
-0.1582175 0.5972116 -0.07474941
0.22767901 0.59704769 -0.07539463
0.24713361 0.59927523 -0.066626072
-0.17698017 0.61745191 -0.067640305
-0.1582175 0.61559117 -0.07474941
0.22767901 0.61542225 -0.07539463
0.24713361 0.61771721 -0.066626132
-0.1582175 0.6339708 -0.07474947
0.22767901 0.63379693 -0.075394571
-0.17698017 0.63588613 -0.067640305
0.24713361 0.63615936 -0.066626251
-0.17698017 0.65432036 -0.067640185
-0.1582175 0.65235037 -0.07474947
0.22767901 0.65217155 -0.07539463
0.24713361 0.65460151 -0.066626072
-0.1582175 0.67072999 -0.07474941
0.22767901 0.67054611 -0.07539463
-0.21484345 -0.65838313 -0.053282857
-0.19585487 -0.65644163 -0.060488701
0.26673019 -0.65716481 -0.057804585
0.28647318 -0.65956235 -0.048906147
-0.21484345 -0.63983822 -0.053282857
0.28647479 -0.6409868 -0.048894525
-0.19585487 -0.63795221 -0.06048882
0.26673019 -0.63865477 -0.057804525
-0.21484345 -0.62129349 -0.053282738
-0.19585487 -0.61946297 -0.060488701
0.26673019 -0.62014478 -0.057804525
0.28647479 -0.62240815 -0.048894644
-0.21484345 -0.60274863 -0.053282857
-0.19585487 -0.60097355 -0.060488701
0.26673019 -0.60163468 -0.057804585
0.28647479 -0.60382968 -0.048894465
-0.21484345 -0.58420378 -0.053282857
-0.19585487 -0.58248413 -0.06048882
0.26673019 -0.58312476 -0.057804585
0.28647479 -0.58525103 -0.048894525
-0.21484345 -0.56565899 -0.053282857
0.26673019 -0.56461471 -0.057804525
0.28647479 -0.56667244 -0.048894465
-0.19585487 -0.56399488 -0.060488701
-0.21484345 -0.54711413 -0.053282857
-0.19585487 -0.54550546 -0.06048882
0.26673019 -0.54610473 -0.057804525
0.28647479 -0.5480938 -0.048894465
-0.21484345 -0.52856928 -0.053282917
-0.19585487 -0.52701616 -0.060488701
0.26673019 -0.52759469 -0.057804525
0.28647479 -0.52951521 -0.048894525
-0.21484345 -0.51002455 -0.053282857
-0.19585487 -0.50852674 -0.06048882
0.26673019 -0.5090847 -0.057804525
0.28647479 -0.51093662 -0.048894525
-0.21484345 -0.49147964 -0.053282857
-0.19585487 -0.49003747 -0.060488641
0.26673168 -0.49057692 -0.057793081
0.28647479 -0.49235794 -0.048894525
-0.21484345 -0.47293487 -0.053282857
-0.19585487 -0.47154805 -0.060488701
0.26673168 -0.47206685 -0.057793081
0.28647479 -0.47377938 -0.048894644
-0.21484345 -0.45438999 -0.053282857
-0.19585487 -0.45305869 -0.06048882
0.26673168 -0.45355672 -0.057792962
0.28647479 -0.4552007 -0.048894525
-0.21484345 -0.43584514 -0.053282917
-0.19585487 -0.43456936 -0.06048882
0.26673168 -0.43504661 -0.057793081
0.28647479 -0.43662211 -0.048894525
-0.21484345 -0.41730031 -0.053282857
-0.19585487 -0.41607997 -0.06048888
0.26673168 -0.41653657 -0.057793081
0.28647479 -0.41804355 -0.048894465
0.28647479 -0.39946499 -0.048894525
-0.21484345 -0.39875555 -0.053282857
-0.19585487 -0.39759061 -0.060488701
0.26673168 -0.39802641 -0.057793081
-0.21484345 -0.38021073 -0.053282738
-0.19585487 -0.37910125 -0.06048882
0.26673168 -0.37951636 -0.057792962
0.28647479 -0.38088638 -0.048894465
-0.21484345 -0.36166587 -0.053282857
-0.19585487 -0.36061192 -0.060488701
0.26673168 -0.36100623 -0.057793081
0.28647479 -0.36230779 -0.048894525
-0.21484345 -0.34312099 -0.053282857
-0.19585487 -0.34212264 -0.06048882
0.26673168 -0.3424961 -0.057792902
0.28647479 -0.34372914 -0.048894525
-0.21484345 -0.32457629 -0.053282738
0.28647479 -0.32515055 -0.048894644
-0.19585487 -0.32363331 -0.060488701
0.26673168 -0.32398602 -0.057793081
-0.21484345 -0.30603141 -0.053282857
-0.19585487 -0.30514392 -0.06048882
0.26673168 -0.30547598 -0.057792962
0.28647479 -0.3065719 -0.048894525
-0.21484345 -0.28748667 -0.053282738
-0.19585487 -0.2866545 -0.06048882
0.26673168 -0.28696585 -0.057793081
0.28647479 -0.28799328 -0.048894525
-0.21484345 -0.26894176 -0.053282857
-0.19585487 -0.2681652 -0.060488701
0.26673168 -0.26845565 -0.057793081
0.28647479 -0.26941463 -0.048894644
-0.21484345 -0.250397 -0.053282917
-0.19585487 -0.24967581 -0.06048882
0.26673168 -0.24994563 -0.057793081
0.28647479 -0.25083619 -0.048894525
-0.21484345 -0.23185214 -0.053282738
-0.19585487 -0.23118651 -0.060488701
0.26673168 -0.23143554 -0.057793081
0.28647479 -0.23225756 -0.048894465
-0.21484345 -0.21330726 -0.053282857
-0.19585487 -0.21269709 -0.06048882
0.26673168 -0.21292542 -0.057792962
0.28647479 -0.21367897 -0.048894465
-0.21484345 -0.19476256 -0.053282738
-0.19585487 -0.19420782 -0.060488701
0.26673168 -0.19441529 -0.057793081
0.28647479 -0.19510032 -0.048894465
-0.21484345 -0.17621768 -0.053282857
-0.19585487 -0.1757184 -0.060488701
0.26673168 -0.17590524 -0.057792962
0.28647479 -0.17652172 -0.048894465
-0.21484345 -0.15767284 -0.053282857
-0.19585487 -0.15722911 -0.060488641
0.26673168 -0.15739508 -0.057793081
0.28647479 -0.15794307 -0.048894525
-0.21484345 -0.13912803 -0.053282738
-0.19585487 -0.13873976 -0.060488701
0.26673168 -0.13888505 -0.057792962
0.28647479 -0.13936447 -0.048894525
-0.21484345 -0.12058321 -0.053282857
-0.19585487 -0.12025039 -0.06048882
0.26673168 -0.1203749 -0.057793081
0.28647479 -0.12078591 -0.048894644
-0.21484345 -0.10203844 -0.053282738
-0.19585487 -0.10176104 -0.060488701
0.26673168 -0.10186478 -0.057793081
0.28647479 -0.1022073 -0.048894644
-0.21484345 -0.083493575 -0.053282857
-0.19585487 -0.083271667 -0.06048882
0.26673168 -0.083354704 -0.057792962
0.28647479 -0.083628662 -0.048894644
-0.21484345 -0.064948708 -0.053282857
-0.19585487 -0.064782344 -0.060488701
0.26673168 -0.064844571 -0.057793081
0.28647479 -0.065050147 -0.048894465
-0.21484345 -0.046404004 -0.053282857
-0.19585487 -0.046292972 -0.06048882
0.26673168 -0.046334513 -0.057792962
0.28647479 -0.04647148 -0.048894465
-0.21484345 -0.027859051 -0.053282857
-0.19585487 -0.027803648 -0.060488701
0.26673168 -0.027824305 -0.057793081
0.28647479 -0.027892902 -0.048894465
-0.21484345 -0.0093142772 -0.053282738
-0.19585487 -0.0093142772 -0.060488701
0.26673168 -0.0093142772 -0.057792962
0.28647479 -0.0093142325 -0.048894465
-0.21484345 0.009230542 -0.053282857
-0.19585487 0.0091750482 -0.060488701
0.26673168 0.0091957962 -0.057793081
0.28647479 0.0092642577 -0.048894525
-0.21484345 0.027775407 -0.053282857
-0.19585487 0.027664464 -0.060488701
0.26673168 0.027705915 -0.057792902
0.28647479 0.027842928 -0.048894525
-0.21484345 0.046320178 -0.053282857
-0.19585487 0.046153881 -0.06048882
0.26673168 0.046216037 -0.057792962
0.28647479 0.046421506 -0.048894525
-0.21484345 0.064865045 -0.053282857
-0.19585487 0.06464316 -0.060488701
0.26673168 0.064726196 -0.057793081
0.28647479 0.065000176 -0.048894525
-0.21484345 0.083409771 -0.053282738
-0.19585487 0.083132491 -0.06048882
0.26673168 0.083236188 -0.057793081
0.28647479 0.083578795 -0.048894525
-0.21484345 0.10195468 -0.053282857
-0.19585487 0.10162177 -0.060488701
0.26673168 0.10174642 -0.057793081
0.28647479 0.10215742 -0.048894525
-0.21484345 0.1204995 -0.053282857
-0.19585487 0.12011116 -0.06048882
0.26673168 0.12025642 -0.057792962
0.28647479 0.12073595 -0.048894465
-0.21484345 0.13904431 -0.053282738
-0.19585487 0.13860045 -0.060488701
0.26673168 0.13876653 -0.057793081
0.28647479 0.13931446 -0.048894465
-0.21484345 0.15758911 -0.053282857
-0.19585487 0.1570899 -0.060488701
0.26673168 0.15727663 -0.057792962
0.28647479 0.15789311 -0.048894465
-0.21484345 0.17613392 -0.053282738
-0.19585487 0.17557921 -0.060488701
0.26673168 0.17578679 -0.057793081
0.28647479 0.17647171 -0.048894465
-0.21484345 0.19467872 -0.053282857
-0.19585487 0.1940686 -0.060488701
0.26673168 0.19429681 -0.057792962
0.28647479 0.19505037 -0.048894525
-0.21484345 0.21322362 -0.053282857
-0.19585487 0.21255799 -0.06048882
0.26673168 0.21280701 -0.057793081
0.28647479 0.21362898 -0.048894525
-0.21484345 0.23176843 -0.053282738
-0.19585487 0.23104729 -0.060488701
0.26673168 0.2313171 -0.057793081
0.28647479 0.23220763 -0.048894525
-0.21484345 0.25031325 -0.053282857
-0.19585487 0.24953668 -0.06048882
0.26673168 0.24982713 -0.057792962
0.28647479 0.25078624 -0.048894525
-0.21484345 0.26885805 -0.053282738
-0.19585487 0.26802599 -0.060488701
0.26673168 0.26833728 -0.057793081
0.28647479 0.2693648 -0.048894644
-0.21484345 0.28740299 -0.053282738
-0.19585487 0.28651536 -0.06048882
0.26673168 0.28684741 -0.057792902
0.28647479 0.28794336 -0.048894465
-0.19585487 0.30500466 -0.060488701
0.26673168 0.30535755 -0.057793081
-0.21484345 0.30594772 -0.053282857
0.28647479 0.30652192 -0.048894465
-0.21484345 0.32449251 -0.053282857
-0.19585487 0.32349405 -0.06048882
0.26673168 0.32386753 -0.057792962
0.28647479 0.32510063 -0.048894465
-0.21484345 0.34303737 -0.053282857
-0.19585487 0.34198335 -0.060488701
0.26673168 0.34237775 -0.057793081
0.28647479 0.34367919 -0.048894465
-0.21484345 0.36158222 -0.053282678
-0.19585487 0.36047274 -0.060488701
0.26673168 0.36088771 -0.057792962
0.28647479 0.36225775 -0.048894465
-0.21484345 0.38012692 -0.053282857
-0.19585487 0.37896216 -0.06048882
0.26673168 0.37939793 -0.057793081
0.28647479 0.38083643 -0.048894465
-0.21484345 0.39867184 -0.053282857
-0.19585487 0.39745143 -0.060488701
0.26673168 0.397908 -0.057792902
0.28647479 0.39941502 -0.048894525
-0.21484345 0.4172166 -0.053282738
-0.19585487 0.41594082 -0.060488701
0.26673168 0.41641802 -0.057793081
0.28647479 0.41799366 -0.048894525
-0.21484345 0.43576154 -0.053282857
-0.19585487 0.43443015 -0.060488701
0.26673168 0.43492824 -0.057793081
0.28647479 0.43657225 -0.048894644
-0.21484345 0.45430627 -0.053282678
-0.19585487 0.45291954 -0.060488701
0.26673168 0.45343834 -0.057792962
0.28647479 0.45515093 -0.048894465
-0.21484345 0.47285107 -0.053282857
-0.19585487 0.47140884 -0.060488701
0.26673168 0.47194839 -0.057793081
0.28647479 0.4737294 -0.048894465
-0.21484345 0.49139598 -0.053282857
-0.19585487 0.48989829 -0.060488701
0.26673168 0.49045849 -0.057792962
0.28647479 0.49230787 -0.048894465
-0.21484345 0.50994068 -0.053282738
-0.19585487 0.50838751 -0.060488641
0.26673168 0.50896865 -0.057793081
0.28647479 0.51088661 -0.048894465
-0.21484345 0.5284856 -0.053282738
-0.19585487 0.52687693 -0.060488701
0.26673168 0.52747864 -0.057792962
0.28647479 0.52946514 -0.048894465
-0.19585487 0.54536641 -0.060488701
-0.21484345 0.54703027 -0.053282738
0.26673168 0.5459888 -0.057793081
0.28647479 0.54804385 -0.048894465
-0.21484345 0.56557518 -0.053282857
-0.19585487 0.56385565 -0.060488701
0.26673168 0.56449884 -0.057792902
0.28647479 0.56662238 -0.048894525
-0.21484345 0.58412009 -0.053282857
-0.19585487 0.58234507 -0.060488701
0.26673168 0.58300894 -0.057793081
0.28647479 0.58520114 -0.048894465
-0.21484345 0.60266483 -0.053282738
-0.19585487 0.60083413 -0.060488701
0.26673168 0.60151917 -0.057793081
0.28647479 0.60377967 -0.048894525
-0.19585487 0.61932361 -0.06048882
0.26673168 0.62002927 -0.057792902
-0.21484345 0.62120956 -0.053282857
0.28647479 0.6223582 -0.048894644
-0.21484345 0.63975453 -0.053282857
-0.19585487 0.63781297 -0.060488701
0.26673168 0.63853931 -0.057793081
0.28647479 0.64093685 -0.048894525
-0.21484345 0.65829933 -0.053282738
-0.19585487 0.65630227 -0.060488701
0.26673168 0.65704948 -0.057792962
0.28647479 0.65951532 -0.048894465
-0.25316256 -0.66229492 -0.038763821
-0.23394546 -0.66033316 -0.046045125
0.30636287 -0.66197771 -0.03994143
-0.25316256 -0.64363831 -0.038763881
-0.23394546 -0.64173257 -0.046045065
0.30636457 -0.64333314 -0.039929986
-0.25316256 -0.62498176 -0.038763881
0.30636457 -0.62468559 -0.039929926
-0.23394546 -0.62313205 -0.046045125
-0.25316256 -0.60632515 -0.038763821
-0.23394546 -0.60453153 -0.046045125
0.30636457 -0.60603797 -0.039929986
-0.25316256 -0.58766854 -0.038763821
-0.23394546 -0.585931 -0.046045065
0.30636457 -0.58739024 -0.039929986
-0.25316256 -0.56901205 -0.038763821
-0.23394546 -0.56733042 -0.046045125
0.30636457 -0.56874275 -0.039929807
-0.25316256 -0.55035543 -0.038763821
0.30636457 -0.55009508 -0.039929926
-0.23394546 -0.5487299 -0.046045065
-0.25316256 -0.53169882 -0.038763702
-0.23394546 -0.53012943 -0.046045065
0.30636457 -0.53144753 -0.039929926
-0.25316256 -0.51304215 -0.038763881
-0.23394546 -0.51152879 -0.046045125
0.30636457 -0.5127998 -0.039929926
-0.25316256 -0.49438554 -0.038763881
-0.23394546 -0.49292827 -0.046045125
0.30636457 -0.49415225 -0.039929807
-0.25316256 -0.47572893 -0.038763821
0.30636457 -0.47550464 -0.039929926
-0.23394546 -0.47432762 -0.046045125
-0.25316256 -0.45707241 -0.038763821
-0.23394546 -0.45572719 -0.046045125
0.30636457 -0.45685703 -0.039929986
-0.25316256 -0.4384158 -0.038763821
-0.23394546 -0.43712664 -0.046045065
0.30636457 -0.4382093 -0.039929986
-0.25316256 -0.41975921 -0.038763821
-0.23394546 -0.41852611 -0.046045125
0.30636457 -0.41956183 -0.039929807
-0.25316256 -0.40110269 -0.038763821
-0.23394546 -0.39992559 -0.046045125
0.30636457 -0.40091416 -0.039929926
-0.25316256 -0.38244608 -0.038763702
-0.23394546 -0.3813251 -0.046045065
0.30636457 -0.38226649 -0.039929926
-0.25316256 -0.3637895 -0.038763702
-0.23394546 -0.36272451 -0.046045244
0.30636457 -0.36361885 -0.039929986
-0.25316256 -0.34513289 -0.038763881
-0.23394546 -0.34412399 -0.046045065
0.30636457 -0.34497133 -0.039929807
-0.25316256 -0.32647631 -0.038763821
-0.23394546 -0.32552341 -0.046045244
0.30636457 -0.32632375 -0.039929926
-0.25316256 -0.30781975 -0.038763821
-0.23394546 -0.30692285 -0.046045125
0.30636457 -0.30767602 -0.039929926
-0.25316256 -0.28916311 -0.038763821
-0.23394546 -0.28832242 -0.046045125
0.30636457 -0.28902841 -0.039929986
-0.25316256 -0.2705065 -0.038763821
-0.23394546 -0.26972178 -0.046045125
0.30636457 -0.27038091 -0.039929926
-0.25316256 -0.25184998 -0.038763821
-0.23394546 -0.25112134 -0.046045125
0.30636457 -0.25173327 -0.039929926
-0.25316256 -0.23319338 -0.038763702
-0.23394546 -0.2325208 -0.046045065
0.30636457 -0.23308562 -0.039929926
-0.25316256 -0.2145368 -0.038763642
-0.23394546 -0.21392021 -0.046045125
0.30636457 -0.21443804 -0.039929807
-0.25316256 -0.19588016 -0.038763821
-0.23394546 -0.19531967 -0.046045125
0.30636457 -0.19579045 -0.039929807
-0.25316256 -0.17722356 -0.038763821
-0.23394546 -0.1767192 -0.046045065
0.30636457 -0.17714284 -0.039929926
-0.25316256 -0.15856697 -0.038763821
-0.23394546 -0.15811858 -0.046045125
0.30636457 -0.15849513 -0.039929986
-0.25316256 -0.13991043 -0.038763821
-0.23394546 -0.13951811 -0.046045125
0.30636457 -0.13984762 -0.039929807
-0.25316256 -0.12125383 -0.038763821
-0.23394546 -0.12091748 -0.046045125
0.30636457 -0.1212 -0.039929926
-0.25316256 -0.10259723 -0.038763821
-0.23394546 -0.10231701 -0.046045125
0.30636457 -0.10255235 -0.039929986
-0.25316256 -0.083940707 -0.038763821
-0.23394546 -0.083716482 -0.046045065
0.30636457 -0.083904691 -0.039929986
-0.25316256 -0.065284058 -0.038763702
-0.23394546 -0.065115884 -0.046045125
0.30636457 -0.06525714 -0.039929807
-0.25316256 -0.046627447 -0.038763881
-0.23394546 -0.046515346 -0.046045125
0.30636457 -0.046609517 -0.039929807
-0.25316256 -0.027970839 -0.038763821
-0.23394546 -0.0279149 -0.046045065
0.30636457 -0.027961854 -0.039929926
-0.25316256 -0.0093142325 -0.038763821
-0.23394546 -0.0093142772 -0.046045125
0.30636457 -0.0093141878 -0.039929986
-0.25316256 0.0093422858 -0.038763821
-0.23394546 0.0092862127 -0.046045125
0.30636457 0.0093332985 -0.039929807
-0.25316256 0.027998894 -0.038763821
-0.23394546 0.027886838 -0.046045125
0.30636457 0.02798092 -0.039929926
-0.25316256 0.046655502 -0.038763702
-0.23394546 0.046487283 -0.046045125
0.30636457 0.046628628 -0.039929926
-0.25316256 0.06531202 -0.038763821
-0.23394546 0.065087862 -0.046045065
0.30636457 0.06527625 -0.039929986
-0.25316256 0.083968632 -0.038763821
-0.23394546 0.083688438 -0.046045125
0.30636457 0.083923735 -0.039929807
-0.25316256 0.10262524 -0.038763702
-0.23394546 0.10228898 -0.046045125
0.30636457 0.1025714 -0.039929926
-0.25316256 0.12128188 -0.038763881
-0.23394546 0.12088942 -0.046045065
0.30636457 0.12121906 -0.039929926
-0.25316256 0.13993847 -0.038763821
-0.23394546 0.13949004 -0.046045125
0.30636457 0.13986656 -0.039929807
-0.25316256 0.15859507 -0.038763821
-0.23394546 0.15809052 -0.046045125
0.30636457 0.1585142 -0.039929807
-0.25316256 0.17725159 -0.038763821
-0.23394546 0.17669109 -0.046045065
0.30636457 0.17716186 -0.039929926
-0.25316256 0.19590823 -0.038763821
-0.23394546 0.19529162 -0.046045125
0.30636457 0.19580954 -0.039929926
-0.25316256 0.21456483 -0.038763702
-0.23394546 0.21389215 -0.046045065
0.30636457 0.21445702 -0.039929807
-0.25316256 0.23322135 -0.038763702
-0.23394546 0.23249276 -0.046045125
0.30636457 0.23310466 -0.039929807
-0.25316256 0.25187796 -0.038763702
-0.23394546 0.2510933 -0.046045125
0.30636457 0.25175232 -0.039929926
-0.25316256 0.27053466 -0.038763821
-0.23394546 0.26969376 -0.046045065
0.30636457 0.27040002 -0.039929926
-0.25316256 0.28919122 -0.038763821
-0.23394546 0.28829437 -0.046045125
0.30636457 0.28904745 -0.039929807
-0.25316256 0.30784774 -0.038763821
-0.23394546 0.30689493 -0.046045065
0.30636457 0.30769515 -0.039929807
-0.25316256 0.32650438 -0.038763821
-0.23394546 0.32549533 -0.046045065
0.30636457 0.32634282 -0.039929926
-0.25316256 0.34516096 -0.038763821
-0.23394546 0.34409595 -0.046045125
0.30636457 0.34499037 -0.039929986
-0.25316256 0.36381745 -0.038763821
-0.23394546 0.3626965 -0.046045125
0.30636457 0.36363795 -0.039929807
-0.25316256 0.38247415 -0.038763702
-0.23394546 0.38129714 -0.046045125
0.30636457 0.38228571 -0.039929807
-0.25316256 0.40113071 -0.038763702
-0.23394546 0.39989755 -0.046045125
0.30636457 0.40093321 -0.039929986
-0.25316256 0.41978732 -0.038763881
-0.23394546 0.41849807 -0.046045125
0.30636457 0.41958082 -0.039929807
-0.25316256 0.43844396 -0.038763821
-0.23394546 0.43709868 -0.046045125
0.30636457 0.43822852 -0.039929807
-0.23394546 0.45569927 -0.046045065
-0.25316256 0.45710054 -0.038763821
0.30636457 0.45687607 -0.039929926
-0.25316256 0.47575706 -0.038763821
-0.23394546 0.47429964 -0.046045065
0.30636457 0.47552377 -0.039929926
-0.25316256 0.49441376 -0.038763821
-0.23394546 0.49290022 -0.046045125
0.30636457 0.49417117 -0.039929807
-0.25316256 0.51307029 -0.038763702
-0.23394546 0.51150078 -0.046045065
0.30636457 0.51281887 -0.039929807
-0.23394546 0.5301013 -0.046044946
-0.25316256 0.53172678 -0.038763821
0.30636457 0.53146654 -0.039929807
-0.25316256 0.55038351 -0.038763642
-0.23394546 0.54870176 -0.046045125
0.30636457 0.5501141 -0.039929986
-0.25316256 0.56904 -0.038763642
-0.23394546 0.56730235 -0.046045125
0.30636457 0.56876171 -0.039929807
-0.25316256 0.58769661 -0.038763821
-0.23394546 0.58590299 -0.046045125
0.30636457 0.58740938 -0.039929807
-0.23394546 0.60450351 -0.046045065
-0.25316256 0.60635334 -0.038763821
0.30636457 0.60605693 -0.039929986
-0.25316256 0.62500983 -0.038763821
-0.23394546 0.62310398 -0.046045065
0.30636457 0.6247046 -0.039929986
-0.25316256 0.64366639 -0.038763821
-0.23394546 0.6417045 -0.046045125
0.30636457 0.64335209 -0.039929807
-0.25316256 0.66232306 -0.038763702
-0.23394546 0.66030514 -0.046045065
0.30636457 0.66199982 -0.039929926
-0.27290207 -0.66545343 -0.027040899
0.32640266 -0.66441411 -0.030898392
0.34659076 -0.66686565 -0.021799326
-0.27290207 -0.64670664 -0.027040839
0.32640266 -0.645697 -0.030898452
0.34659076 -0.6480785 -0.021799326
-0.27290207 -0.62795979 -0.02704072
0.32640266 -0.62697989 -0.030898392
0.34659076 -0.62929136 -0.021799326
0.34659076 -0.61050415 -0.021799445
-0.27290207 -0.60921293 -0.027040839
0.32640266 -0.60826272 -0.030898392
-0.27290207 -0.59046614 -0.02704072
0.32640266 -0.58954561 -0.030898392
0.34659076 -0.59171695 -0.021799326
-0.27290207 -0.57171923 -0.027040899
0.32640266 -0.5708285 -0.030898392
0.34659076 -0.5729298 -0.021799445
-0.27290207 -0.5529725 -0.027040839
0.32640266 -0.55211127 -0.030898452
0.34659076 -0.55414259 -0.021799326
0.34659076 -0.53535545 -0.021799445
-0.27290207 -0.53422564 -0.02704072
0.32640266 -0.53339422 -0.030898571
-0.27290207 -0.51547873 -0.027040839
0.32640266 -0.51467699 -0.030898452
0.34659076 -0.51656818 -0.021799326
-0.27290207 -0.49673197 -0.02704072
0.32640266 -0.49595991 -0.030898452
0.34659076 -0.49778101 -0.021799326
-0.27290207 -0.47798511 -0.02704072
0.32640266 -0.47724271 -0.030898452
0.34659076 -0.47899386 -0.021799445
0.34659076 -0.46020663 -0.021799445
-0.27290207 -0.45923826 -0.027040839
0.32640266 -0.45852554 -0.030898392
-0.27290207 -0.44049144 -0.02704072
0.32640266 -0.43980849 -0.030898392
0.34659076 -0.44141945 -0.021799445
-0.27290207 -0.42174459 -0.027040899
0.32640266 -0.42109129 -0.030898452
0.34659076 -0.42263225 -0.021799326
-0.27290207 -0.40299779 -0.027040839
0.32640266 -0.40237421 -0.030898452
0.34659076 -0.40384507 -0.021799445
0.34659076 -0.38505793 -0.021799445
-0.27290207 -0.38425094 -0.02704072
0.32640266 -0.38365701 -0.030898392
-0.27290207 -0.36550409 -0.027040839
0.32640266 -0.36493996 -0.030898392
0.34659076 -0.36627069 -0.021799445
-0.27290207 -0.34675726 -0.02704072
0.32640266 -0.34622267 -0.030898571
0.34659076 -0.34748352 -0.021799505
-0.27290207 -0.32801047 -0.02704072
0.32640266 -0.32750562 -0.030898571
0.34659076 -0.32869631 -0.021799445
0.34659076 -0.30990914 -0.021799445
-0.27290207 -0.30926362 -0.027040839
0.32640266 -0.30878845 -0.030898452
-0.27290207 -0.29051679 -0.02704072
0.32640266 -0.29007128 -0.030898452
0.34659076 -0.29112202 -0.021799445
-0.27290207 -0.27176991 -0.027040899
0.32640266 -0.27135423 -0.030898452
0.34659076 -0.27233478 -0.021799505
-0.27290207 -0.25302312 -0.027040839
0.32640266 -0.25263703 -0.030898392
0.34659076 -0.25354761 -0.021799445
0.34659076 -0.23476049 -0.021799266
-0.27290207 -0.23427631 -0.02704072
0.32640266 -0.23391996 -0.030898392
-0.27290207 -0.21552944 -0.027040839
0.32640266 -0.21520281 -0.030898392
0.34659076 -0.21597332 -0.021799326
-0.27290207 -0.1967826 -0.02704072
0.32640266 -0.1964857 -0.030898452
0.34659076 -0.19718611 -0.021799266
-0.27290207 -0.17803583 -0.02704072
0.32640266 -0.17776856 -0.030898392
0.34659076 -0.178399 -0.021799326
0.34659076 -0.15961178 -0.021799326
-0.27290207 -0.15928896 -0.027040839
0.32640266 -0.15905136 -0.030898392
-0.27290207 -0.14054213 -0.027040839
0.32640266 -0.14033429 -0.030898392
0.34659076 -0.14082457 -0.021799326
-0.27290207 -0.12179534 -0.02704072
0.32640266 -0.12161706 -0.030898452
0.34659076 -0.12203739 -0.021799326
-0.27290207 -0.10304843 -0.027040839
0.32640266 -0.10289993 -0.030898452
0.34659076 -0.10325017 -0.021799326
0.34659076 -0.084463082 -0.021799326
-0.27290207 -0.084301658 -0.02704072
0.32640266 -0.084182799 -0.030898452
-0.27290207 -0.065554768 -0.027040839
0.32640266 -0.065465696 -0.030898452
0.34659076 -0.065675855 -0.021799326
-0.27290207 -0.046807967 -0.027040839
0.32640266 -0.046748538 -0.030898452
0.34659076 -0.046888635 -0.021799326
-0.27290207 -0.028061166 -0.02704072
0.32640266 -0.028031476 -0.030898452
0.34659076 -0.028101455 -0.021799326
-0.27290207 -0.0093142772 -0.027040839
0.32640266 -0.0093142772 -0.030898452
0.34659076 -0.0093142325 -0.021799326
-0.27290207 0.0094325235 -0.027040839
0.32640266 0.0094028758 -0.030898392
0.34659076 0.0094728572 -0.021799326
-0.27290207 0.028179325 -0.02704072
0.32640266 0.028119985 -0.030898392
0.34659076 0.028260082 -0.021799326
-0.27290207 0.046926212 -0.027040839
0.32640266 0.04683714 -0.030898273
0.34659076 0.047047302 -0.021799326
-0.27290207 0.065673016 -0.02704072
0.32640266 0.065554202 -0.030898273
0.34659076 0.065834485 -0.021799326
-0.27290207 0.084419854 -0.027040839
0.32640266 0.084271491 -0.030898452
0.34659076 0.08462166 -0.021799326
-0.27290207 0.1031667 -0.027040839
0.32640266 0.10298856 -0.030898452
0.34659076 0.10340879 -0.021799326
-0.27290207 0.1219135 -0.02704072
0.32640266 0.12170575 -0.030898452
0.34659076 0.12219601 -0.021799326
-0.27290207 0.14066039 -0.027040899
0.32640266 0.14042281 -0.030898452
0.34659076 0.14098319 -0.021799445
-0.27290207 0.15940721 -0.02704072
0.32640266 0.15913999 -0.030898452
0.34659076 0.15977037 -0.021799326
-0.27290207 0.17815404 -0.02704072
0.32640266 0.17785712 -0.030898392
0.34659076 0.17855759 -0.021799326
-0.27290207 0.19690096 -0.027040839
0.32640266 0.19657423 -0.030898392
0.34659076 0.19734471 -0.021799445
-0.27290207 0.21564771 -0.02704072
0.32640266 0.21529135 -0.030898392
0.34659076 0.2161319 -0.021799445
-0.27290207 0.23439462 -0.027040839
0.32640266 0.23400849 -0.030898392
0.34659076 0.2349191 -0.021799326
-0.27290207 0.25314137 -0.027040839
0.32640266 0.2527256 -0.030898392
0.34659076 0.25370631 -0.021799326
-0.27290207 0.27188826 -0.02704072
0.32640266 0.2714428 -0.030898273
0.34659076 0.27249345 -0.021799505
-0.27290207 0.29063508 -0.027040899
0.32640266 0.29015988 -0.030898273
0.34659076 0.29128075 -0.021799326
-0.27290207 0.3093819 -0.02704072
0.32640266 0.30887705 -0.030898452
0.34659076 0.31006786 -0.021799445
-0.27290207 0.32812864 -0.02704072
0.32640266 0.32759431 -0.030898452
0.34659076 0.32885513 -0.021799326
-0.27290207 0.34687561 -0.027040839
0.32640266 0.34631139 -0.030898452
0.34659076 0.34764224 -0.021799445
-0.27290207 0.36562234 -0.02704072
0.32640266 0.36502847 -0.030898452
0.34659076 0.3664293 -0.021799326
-0.27290207 0.38436928 -0.027040899
0.32640266 0.38374558 -0.030898452
0.34659076 0.38521656 -0.021799266
-0.27290207 0.40311599 -0.027040839
0.32640266 0.40246284 -0.030898392
0.34659076 0.40400371 -0.021799326
-0.27290207 0.4218629 -0.02704072
0.32640266 0.42117989 -0.030898392
0.34659076 0.42279091 -0.021799266
-0.27290207 0.44060972 -0.027040899
0.32640266 0.43989697 -0.030898452
0.34659076 0.44157809 -0.021799326
-0.27290207 0.45935655 -0.02704072
0.32640266 0.45861408 -0.030898452
0.34659076 0.46036518 -0.021799326
-0.27290207 0.47810325 -0.02704072
0.32640266 0.47733137 -0.030898273
0.34659076 0.47915247 -0.021799326
-0.27290207 0.49685028 -0.027040839
0.32640266 0.49604842 -0.030898273
0.34659076 0.49793962 -0.021799326
-0.27290207 0.51559699 -0.02704072
0.32640266 0.51476556 -0.030898452
0.34659076 0.51672685 -0.021799266
-0.27290207 0.53434396 -0.027040899
0.32640266 0.53348279 -0.030898452
0.34659076 0.535514 -0.021799326
-0.27290207 0.55309069 -0.027040839
0.32640266 0.5521999 -0.030898452
0.34659076 0.55430102 -0.021799326
-0.27290207 0.57183754 -0.02704072
0.32640266 0.57091701 -0.030898452
0.34659076 0.57308841 -0.021799326
-0.27290207 0.59058434 -0.027040899
0.32640266 0.58963406 -0.030898452
0.34659076 0.59187549 -0.021799326
-0.27290207 0.60933119 -0.02704072
0.32640266 0.60835129 -0.030898392
0.34659076 0.61066276 -0.021799326
-0.27290207 0.62807798 -0.02704072
0.32640266 0.6270684 -0.030898392
0.34659076 0.6294499 -0.021799326
-0.27290207 0.64682484 -0.027040839
0.32640266 0.64578551 -0.030898392
0.34659076 0.64823705 -0.021799326
-0.27290207 0.66557175 -0.02704072
0.32640266 0.6645028 -0.030898273
0.34659076 0.66702431 -0.021799326
0.36771724 -0.6705873 -0.0079864264
-0.29310277 -0.66936779 -0.012512863
-0.29310277 -0.65050906 -0.012512863
0.36771724 -0.65169382 -0.0079864264
-0.29310277 -0.63165039 -0.012512684
0.36771724 -0.63280028 -0.0079865456
-0.29310277 -0.61279178 -0.012512684
0.36771724 -0.61390686 -0.0079864264
0.36771724 -0.59501326 -0.0079864264
-0.29310277 -0.59393317 -0.012512743
-0.29310277 -0.57507449 -0.012512743
0.36771724 -0.57611972 -0.0079864264
-0.29310277 -0.55621576 -0.012512743
0.36771724 -0.55722618 -0.0079865456
-0.29310277 -0.53735709 -0.012512684
0.36771724 -0.53833276 -0.0079864264
-0.29310277 -0.51849836 -0.012512743
0.36771724 -0.51943916 -0.0079864264
-0.29310277 -0.49963975 -0.012512863
0.36771724 -0.50054562 -0.0079865456
-0.29310277 -0.48078102 -0.012512743
0.36771724 -0.48165214 -0.0079865456
-0.29310277 -0.46192235 -0.012512743
