ply
format ascii 1.0
comment PCL generated
element vertex 1306
property float x
property float y
property float z
element camera 0
property float view_px
property float view_py
property float view_pz
property float x_axisx
property float x_axisy
property float x_axisz
property float y_axisx
property float y_axisy
property float y_axisz
property float z_axisx
property float z_axisy
property float z_axisz
property float focal
property float scalex
property float scaley
property float centerx
property float centery
property int viewportx
property int viewporty
property float k1
property float k2
end_header
-0.0058412217 -0.21367453 -0.0992136
0.012238439 -0.21369299 -0.098995507
0.03032146 -0.21371156 -0.098777294
0.048407923 -0.2137309 -0.098548234
0.066497743 -0.21374936 -0.098329961
0.084602535 -0.21381035 -0.09760946
0.084602535 -0.19571675 -0.09760946
-0.096188009 -0.19550759 -0.10032547
-0.078125298 -0.19552441 -0.10010743
-0.060059648 -0.19554207 -0.09987855
-0.041990142 -0.19555882 -0.099660575
-0.023917276 -0.19557564 -0.099442542
-0.0058412217 -0.19559321 -0.0992136
0.012238439 -0.19561011 -0.098995388
0.03032146 -0.19562677 -0.098777413
0.048407923 -0.19564442 -0.098548234
0.066497743 -0.19566128 -0.098329842
-0.096188009 -0.17743494 -0.10032541
-0.078125298 -0.17744994 -0.10010755
-0.060059648 -0.17746586 -0.09987855
-0.041990142 -0.17748097 -0.099660635
-0.023917276 -0.17749603 -0.099442542
-0.0058412217 -0.17751181 -0.09921366
0.012238439 -0.17752698 -0.098995388
0.03032146 -0.17754216 -0.098777235
0.048407923 -0.17755808 -0.098548174
0.066497743 -0.1775731 -0.098329842
0.084602535 -0.17762297 -0.09760946
-0.096188009 -0.15936206 -0.10032541
-0.078125298 -0.15937546 -0.10010755
-0.060059648 -0.1593896 -0.099878669
-0.041990142 -0.15940309 -0.099660635
-0.023917276 -0.15941644 -0.099442661
-0.0058412217 -0.15943056 -0.09921366
0.012238439 -0.159444 -0.098995507
0.03032146 -0.15945743 -0.098777294
0.048407923 -0.15947156 -0.098548174
0.066497743 -0.15948498 -0.098329961
0.084602535 -0.15952937 -0.09760946
-0.096188009 -0.14128932 -0.10032547
-0.078125298 -0.14130108 -0.10010743
-0.060059648 -0.14131339 -0.099878669
-0.041990142 -0.14132516 -0.099660635
-0.023917276 -0.14133684 -0.099442661
-0.0058412217 -0.14134915 -0.09921366
0.012238439 -0.14136092 -0.098995507
0.03032146 -0.14137265 -0.098777294
0.048407923 -0.14138512 -0.098548174
0.066497743 -0.14139681 -0.098329961
0.084602535 -0.14143559 -0.097609341
-0.096188009 -0.12321649 -0.10032547
-0.078125298 -0.12322663 -0.10010755
-0.060059648 -0.12323718 -0.099878669
-0.041990142 -0.12324722 -0.099660635
-0.023917276 -0.12325726 -0.099442542
-0.0058412217 -0.12326793 -0.099213481
0.012238439 -0.12327789 -0.098995507
0.03032146 -0.12328801 -0.098777413
0.048407923 -0.12329865 -0.098548174
0.066497743 -0.12330864 -0.098329961
0.084602535 -0.12334196 -0.097609341
0.084602535 -0.10524821 -0.097609341
-0.096188009 -0.10514376 -0.10032547
-0.078125298 -0.10515209 -0.10010755
-0.060059648 -0.10516098 -0.099878669
-0.041990142 -0.1051693 -0.099660754
-0.023917276 -0.10517767 -0.099442542
-0.0058412217 -0.10518652 -0.099213481
0.012238439 -0.10519493 -0.098995388
0.03032146 -0.10520338 -0.098777294
0.048407923 -0.10521215 -0.098548174
0.066497743 -0.10522056 -0.098329842
-0.096188009 -0.087070942 -0.10032547
-0.078125298 -0.087077662 -0.10010755
-0.060059648 -0.087084651 -0.099878669
-0.041990142 -0.087091506 -0.099660635
-0.023917276 -0.087098077 -0.099442542
-0.0058412217 -0.087105274 -0.0992136
0.012238439 -0.08711192 -0.098995388
0.03032146 -0.087118596 -0.098777294
0.048407923 -0.087125629 -0.098548174
0.066497743 -0.087132394 -0.098329842
0.084602535 -0.087154582 -0.09760946
-0.096188009 -0.068998158 -0.10032547
-0.078125298 -0.06900312 -0.10010761
-0.060059648 -0.069008425 -0.099878669
-0.041990142 -0.069013566 -0.099660635
-0.023917276 -0.069018558 -0.099442661
-0.0058412217 -0.069023877 -0.0992136
0.012238439 -0.069028869 -0.098995388
0.03032146 -0.069033876 -0.098777413
0.048407923 -0.069039181 -0.098548174
0.066497743 -0.069044217 -0.098329842
0.084602535 -0.069060832 -0.097609341
-0.096188009 -0.050925329 -0.10032547
-0.078125298 -0.050928764 -0.10010743
-0.060059648 -0.050932225 -0.099878669
-0.041990142 -0.050935641 -0.099660635
-0.023917276 -0.050939009 -0.099442542
-0.0058412217 -0.050942469 -0.0992136
0.012238439 -0.050945841 -0.098995507
0.03032146 -0.050949231 -0.098777235
0.048407923 -0.050952669 -0.098548174
0.066497743 -0.050956085 -0.098329961
0.084602535 -0.050967205 -0.097609341
-0.096188009 -0.032852612 -0.10032529
-0.078125298 -0.032854274 -0.10010743
-0.060059648 -0.032856002 -0.099878669
-0.041990142 -0.032857731 -0.099660635
-0.023917276 -0.032859392 -0.099442542
-0.0058412217 -0.032861169 -0.0992136
0.012238439 -0.032862835 -0.098995507
0.03032146 -0.032864541 -0.098777235
0.048407923 -0.032866225 -0.098548234
0.066497743 -0.032867908 -0.098329961
0.084602535 -0.032873526 -0.097609341
-0.096188009 -0.014779847 -0.10032541
-0.078125298 -0.014779802 -0.10010743
-0.060059648 -0.01477978 -0.099878669
-0.041990142 -0.014779825 -0.099660635
-0.023917276 -0.014779802 -0.099442661
-0.0058412217 -0.01477978 -0.0992136
0.03032146 -0.014779825 -0.098777294
0.048407923 -0.014779825 -0.098548055
0.066497743 -0.014779825 -0.098329782
0.084602535 -0.014779825 -0.097609341
0.012238439 -0.014779758 -0.098995507
-0.096188009 0.0032929815 -0.10032541
-0.078125298 0.0032946672 -0.10010755
-0.060059648 0.0032964665 -0.099878669
-0.041990142 0.0032980815 -0.099660635
-0.023917276 0.0032998119 -0.099442661
-0.0058412217 0.0033015199 -0.09921366
0.012238439 0.0033031367 -0.098995388
0.03032146 0.0033049565 -0.098777294
0.048407923 0.0033066422 -0.098548174
0.066497743 0.003308326 -0.098329842
0.084602535 0.0033138301 -0.097609341
-0.096188009 0.021365747 -0.10032547
-0.078125298 0.02136907 -0.10010743
-0.060059648 0.021372553 -0.09987855
-0.041990142 0.021375898 -0.099660575
-0.023917276 0.021379314 -0.099442542
-0.0058412217 0.021382887 -0.0992136
0.012238439 0.021386255 -0.098995388
0.03032146 0.021389559 -0.098777235
0.048407923 0.021393087 -0.098548174
0.066497743 0.021396477 -0.098329842
0.084602535 0.021407556 -0.097609341
-0.096188009 0.039438576 -0.10032541
-0.078125298 0.039443519 -0.10010743
-0.060059648 0.039448775 -0.09987855
-0.041990142 0.039453831 -0.099660635
-0.023917276 0.03945893 -0.099442542
-0.0058412217 0.039464232 -0.09921366
0.012238439 0.03946922 -0.098995507
0.03032146 0.039474275 -0.098777294
0.048407923 0.039479576 -0.098548174
0.066497743 0.039484609 -0.098329961
0.084602535 0.039501186 -0.097609341
-0.096188009 0.057511296 -0.10032547
-0.078125298 0.057518076 -0.10010743
-0.060059648 0.05752502 -0.09987855
-0.041990142 0.057531755 -0.099660635
-0.023917276 0.057538565 -0.099442542
-0.0058412217 0.057545599 -0.09921366
0.012238439 0.057552289 -0.098995507
0.03032146 0.05755901 -0.098777294
0.048407923 0.057566043 -0.098548174
0.066497743 0.057572778 -0.098329961
0.084602535 0.057594959 -0.097609282
-0.096188009 0.075584143 -0.10032547
-0.078125298 0.075592473 -0.10010755
-0.060059648 0.07560128 -0.09987855
-0.041990142 0.075609669 -0.099660635
-0.023917276 0.075618088 -0.099442661
-0.0058412217 0.075626895 -0.099213481
0.012238439 0.075635299 -0.098995507
0.03032146 0.075643718 -0.098777413
0.048407923 0.075652525 -0.098548174
0.066497743 0.07566084 -0.098329842
0.084602535 0.075688586 -0.097609341
-0.096188009 0.093656883 -0.10032547
-0.078125298 0.093667045 -0.10010755
-0.060059648 0.093677536 -0.09987855
-0.041990142 0.093687594 -0.099660635
-0.023917276 0.093697593 -0.099442542
-0.0058412217 0.093708172 -0.099213481
0.012238439 0.09371829 -0.098995328
0.03032146 0.093728334 -0.098777235
0.048407923 0.093738973 -0.098548174
0.066497743 0.093749017 -0.098329842
0.084602535 0.093782306 -0.097609282
-0.096188009 0.11172964 -0.10032541
-0.078125298 0.11174139 -0.10010743
-0.060059648 0.11175375 -0.09987855
-0.041990142 0.1117655 -0.099660635
-0.023917276 0.1117772 -0.099442542
-0.0058412217 0.11178955 -0.099213481
0.012238439 0.11180128 -0.098995388
0.03032146 0.11181308 -0.098777294
0.048407923 0.11182544 -0.098548234
0.066497743 0.11183715 -0.098329842
0.084602535 0.11187598 -0.097609341
-0.096188009 0.12980245 -0.10032541
-0.078125298 0.1298158 -0.10010755
-0.060059648 0.12982994 -0.09987855
-0.041990142 0.12984343 -0.099660754
-0.023917276 0.12985684 -0.099442661
-0.0058412217 0.12987088 -0.0992136
0.012238439 0.12988436 -0.098995388
0.03032146 0.1298978 -0.098777294
0.048407923 0.12991193 -0.098548234
0.066497743 0.1299253 -0.098329961
0.084602535 0.12996972 -0.097609341
-0.096188009 0.14787519 -0.10032541
-0.078125298 0.14789036 -0.10010755
-0.060059648 0.14790617 -0.099878669
-0.041990142 0.14792126 -0.099660635
-0.023917276 0.14793646 -0.099442661
-0.0058412217 0.14795226 -0.099213481
0.012238439 0.1479674 -0.098995507
0.03032146 0.14798249 -0.098777115
0.048407923 0.1479983 -0.098548055
0.066497743 0.14801346 -0.098329961
0.084602535 0.14806336 -0.097609282
-0.096188009 0.16594805 -0.10032541
-0.078125298 0.1659648 -0.10010755
-0.060059648 0.16598243 -0.099878669
-0.041990142 0.16599911 -0.099660635
-0.023917276 0.16601595 -0.099442542
-0.0058412217 0.16603358 -0.0992136
0.012238439 0.16605045 -0.098995507
0.03032146 0.16606715 -0.098777235
0.048407923 0.16608475 -0.098548174
0.066497743 0.16610165 -0.098329961
0.084602535 0.16615707 -0.097609282
-0.096188009 0.18402079 -0.10032547
-0.078125298 0.18403921 -0.10010743
-0.060059648 0.18405864 -0.099878669
-0.041990142 0.18407704 -0.099660635
-0.023917276 0.18409558 -0.099442542
-0.0058412217 0.18411493 -0.0992136
0.012238439 0.18413347 -0.098995507
0.03032146 0.18415184 -0.098777294
0.048407923 0.18417124 -0.098548174
0.066497743 0.18418971 -0.098329842
0.084602535 0.18425083 -0.09760946
-0.096188009 0.20209363 -0.10032547
-0.078125298 0.20211367 -0.10010743
-0.060059648 0.20213483 -0.099878669
-0.041990142 0.20215495 -0.099660635
-0.023917276 0.20217517 -0.099442661
-0.0058412217 0.20219633 -0.0992136
0.012238439 0.20221634 -0.098995388
0.03032146 0.20223665 -0.098777294
0.048407923 0.20225771 -0.098548174
0.066497743 0.20227788 -0.098329842
0.084602535 0.20234455 -0.09760946
-0.096188009 0.22016637 -0.10032547
-0.078125298 0.22018817 -0.10010743
-0.060059648 0.22021106 -0.099878669
-0.041990142 0.22023287 -0.099660635
-0.023917276 0.22025478 -0.099442661
-0.0058412217 0.22027765 -0.09921366
0.012238439 0.22029947 -0.098995388
0.03032146 0.22032125 -0.098777235
0.048407923 0.2203442 -0.098548174
0.066497743 0.22036606 -0.098329961
0.084602535 0.2204382 -0.09760946
-0.096188009 0.23823909 -0.10032529
-0.078125298 0.23826264 -0.10010755
-0.060059648 0.23828731 -0.099878669
-0.041990142 0.23831077 -0.099660635
-0.023917276 0.23833422 -0.099442542
-0.0058412217 0.23835905 -0.09921366
0.012238439 0.23838241 -0.098995507
0.03032146 0.23840593 -0.098777294
0.048407923 0.23843072 -0.098548174
0.066497743 0.23845421 -0.098329961
0.084602535 0.23853187 -0.09760946
-0.096188009 0.25631186 -0.10032541
-0.078125298 0.25633711 -0.10010761
-0.060059648 0.2563636 -0.099878669
-0.041990142 0.25638863 -0.099660575
-0.023917276 0.25641388 -0.099442542
-0.0058412217 0.25644034 -0.09921366
0.012238439 0.25646552 -0.098995507
0.03032146 0.25649074 -0.098777294
0.048407923 0.2565172 -0.098548174
0.066497743 0.25654238 -0.098329961
0.084602535 0.25662562 -0.09760946
-0.096188009 0.27438471 -0.10032541
-0.078125298 0.2744115 -0.10010743
-0.060059648 0.27443984 -0.099878669
-0.041990142 0.27446654 -0.099660635
-0.023917276 0.27449346 -0.099442661
-0.0058412217 0.27452162 -0.099213481
0.012238439 0.27454856 -0.098995507
0.03032146 0.27457544 -0.098777294
0.048407923 0.27460366 -0.098548174
0.066497743 0.27463046 -0.098329842
0.084602535 0.27471924 -0.09760946
-0.096188009 0.29245746 -0.10032547
-0.078125298 0.29248598 -0.10010743
-0.060059648 0.29251596 -0.09987849
-0.041990142 0.29254448 -0.099660635
-0.023917276 0.29257306 -0.099442661
-0.0058412217 0.2926029 -0.099213481
0.012238439 0.29263151 -0.098995328
0.03032146 0.29266006 -0.098777235
0.048407923 0.29269016 -0.098548174
0.066497743 0.29271862 -0.098329842
0.084602535 0.29281297 -0.09760946
-0.096188009 0.31053028 -0.10032547
-0.078125298 0.31056044 -0.10010755
-0.060059648 0.31059214 -0.09987849
-0.041990142 0.31062248 -0.099660635
-0.023917276 0.31065252 -0.099442661
-0.0058412217 0.31068426 -0.0992136
0.012238439 0.31071463 -0.098995388
0.03032146 0.31074479 -0.098777235
0.048407923 0.31077644 -0.098548174
0.066497743 0.31080681 -0.098329961
0.084602535 0.31090665 -0.09760946
-0.096188009 0.32860309 -0.10032547
-0.078125298 0.32863498 -0.10010755
-0.060059648 0.32866839 -0.09987855
-0.041990142 0.32870039 -0.099660635
-0.023917276 0.32873213 -0.099442661
-0.0058412217 0.32876572 -0.099213481
0.012238439 0.32879758 -0.098995507
0.03032146 0.32882953 -0.098777294
0.048407923 0.32886302 -0.098548055
0.066497743 0.32889485 -0.098329961
0.084602535 0.32900035 -0.09760946
-0.096188009 0.34667596 -0.10032547
-0.078125298 0.34670937 -0.10010743
-0.060059648 0.3467446 -0.09987855
-0.041990142 0.3467783 -0.099660635
-0.023917276 0.34681174 -0.099442661
-0.0058412217 0.346847 -0.0992136
0.012238439 0.34688061 -0.098995507
0.03032146 0.34691423 -0.098777413
0.048407923 0.3469494 -0.098548174
0.066497743 0.34698313 -0.098329961
0.084602535 0.34709409 -0.09760946
-0.096188009 0.3647486 -0.10032547
-0.078125298 0.36478394 -0.10010743
-0.060059648 0.36482084 -0.09987855
-0.041990142 0.36485609 -0.099660456
-0.023917276 0.36489138 -0.099442661
-0.0058412217 0.36492831 -0.09921366
0.012238439 0.36496359 -0.098995507
0.03032146 0.36499885 -0.098777294
0.048407923 0.36503592 -0.098548174
0.066497743 0.36507109 -0.098329842
0.084602535 0.36518764 -0.09760946
-0.096188009 0.38282138 -0.10032541
-0.078125298 0.38285834 -0.10010743
-0.060059648 0.38289705 -0.099878669
-0.041990142 0.38293397 -0.099660456
-0.023917276 0.38297084 -0.099442482
-0.0058412217 0.38300973 -0.099213481
0.012238439 0.38304678 -0.098995507
0.03032146 0.3830837 -0.098777235
0.048407923 0.38312235 -0.098548174
0.066497743 0.38315937 -0.098329782
0.084602535 0.38328141 -0.09760946
-0.096188009 0.40089419 -0.10032541
-0.078125298 0.40093279 -0.10010743
-0.060059648 0.40097329 -0.099878669
-0.041990142 0.40101191 -0.099660456
-0.023917276 0.40105048 -0.099442661
-0.0058412217 0.4010911 -0.0992136
0.012238439 0.40112963 -0.098995388
0.03032146 0.40116838 -0.098777294
0.048407923 0.40120891 -0.098548174
0.066497743 0.40124744 -0.098329961
0.084602535 0.40137514 -0.09760946
-0.096188009 0.41896701 -0.10032541
-0.078125298 0.41900736 -0.10010755
-0.060059648 0.41904944 -0.099878669
-0.041990142 0.41908985 -0.099660635
-0.023917276 0.41913012 -0.099442661
-0.0058412217 0.41917238 -0.09921366
0.012238439 0.4192127 -0.098995507
0.03032146 0.41925296 -0.098777115
0.048407923 0.4192954 -0.098548174
0.066497743 0.41933572 -0.098329842
0.084602535 0.41946885 -0.097609341
-0.096188009 0.43703967 -0.10032547
-0.078125298 0.43708161 -0.10010743
-0.060059648 0.43712571 -0.099878669
-0.041990142 0.43716776 -0.099660635
-0.023917276 0.4372097 -0.099442661
-0.0058412217 0.43725368 -0.09921366
0.012238439 0.43729565 -0.098995507
0.03032146 0.43733761 -0.098777294
0.048407923 0.43738183 -0.098548174
0.066497743 0.4374238 -0.098329961
0.084602535 0.43756247 -0.09760946
-0.096188009 0.45511252 -0.10032547
-0.078125298 0.45515612 -0.10010743
-0.060059648 0.45520195 -0.099878669
-0.041990142 0.4552457 -0.099660635
-0.023917276 0.45528921 -0.099442482
-0.0058412217 0.45533511 -0.09921366
0.012238439 0.45537871 -0.098995507
0.03032146 0.45542237 -0.098777294
0.048407923 0.45546839 -0.098548174
0.066497743 0.45551199 -0.098329782
0.084602535 0.45565617 -0.097609341
-0.096188009 0.47318533 -0.10032547
-0.078125298 0.47323066 -0.10010743
-0.060059648 0.47327816 -0.099878669
-0.041990142 0.47332349 -0.099660456
-0.023917276 0.47336885 -0.099442482
-0.0058412217 0.47341639 -0.099213481
0.012238439 0.47346184 -0.098995507
0.03032146 0.47350723 -0.098777294
0.048407923 0.47355476 -0.098548234
0.066497743 0.47360006 -0.098329842
0.084602535 0.47374985 -0.097609341
-0.096188009 0.49125814 -0.10032547
-0.078125298 0.49130517 -0.10010743
-0.060059648 0.49135435 -0.099878669
-0.041990142 0.49140143 -0.099660456
-0.023917276 0.4914484 -0.099442542
-0.0058412217 0.4914977 -0.099213481
0.012238439 0.49154472 -0.098995388
0.03032146 0.49159181 -0.098777115
0.048407923 0.49164116 -0.098548055
0.066497743 0.49168825 -0.098329842
0.084602535 0.49184346 -0.09760946
-0.096188009 0.50933099 -0.10032547
-0.078125298 0.50937951 -0.10010743
-0.060059648 0.50943077 -0.099878669
-0.041990142 0.50947934 -0.099660575
-0.023917276 0.50952804 -0.099442661
-0.0058412217 0.50957918 -0.099213481
0.012238439 0.50962776 -0.098995507
0.03032146 0.50967652 -0.098777235
0.048407923 0.5097276 -0.098548174
0.066497743 0.50977635 -0.098329961
0.084602535 0.50993717 -0.09760946
-0.096188009 0.52740359 -0.10032541
-0.078125298 0.52745396 -0.10010743
-0.060059648 0.52750701 -0.099878669
-0.041990142 0.52755725 -0.099660575
-0.023917276 0.52760756 -0.099442482
-0.0058412217 0.52766043 -0.099213481
0.012238439 0.52771074 -0.098995507
0.03032146 0.52776122 -0.098777294
0.048407923 0.52781415 -0.098548055
0.066497743 0.52786463 -0.098329961
0.084602535 0.52803093 -0.097609341
-0.096188009 0.5454765 -0.10032541
-0.078125298 0.54552853 -0.10010743
-0.060059648 0.54558313 -0.099878669
-0.041990142 0.5456351 -0.099660575
-0.023917276 0.54568714 -0.099442542
-0.0058412217 0.54574174 -0.0992136
0.012238439 0.54579395 -0.098995388
0.03032146 0.54584593 -0.098777294
0.048407923 0.54590052 -0.098548174
0.066497743 0.54595256 -0.098329842
0.084602535 0.54612464 -0.097609282
-0.096188009 0.56354922 -0.10032541
-0.078125298 0.56360286 -0.10010755
-0.060059648 0.56365925 -0.09987849
-0.041990142 0.56371313 -0.099660575
-0.023917276 0.56376678 -0.099442542
-0.0058412217 0.5638231 -0.0992136
0.012238439 0.56387693 -0.098995507
0.03032146 0.56393051 -0.098777294
0.048407923 0.56398702 -0.098548174
0.066497743 0.56404084 -0.098329782
0.084602535 0.56421816 -0.09760946
-0.096188009 0.58162206 -0.10032541
-0.078125298 0.58167738 -0.10010755
-0.060059648 0.58173549 -0.09987855
-0.041990142 0.58179092 -0.099660635
-0.023917276 0.58184636 -0.099442542
-0.0058412217 0.58190447 -0.0992136
0.012238439 0.5819599 -0.098995507
0.03032146 0.58201534 -0.098777235
0.048407923 0.58207345 -0.098548174
0.066497743 0.58212894 -0.098329961
0.084602535 0.58231199 -0.097609341
-0.17004408 -0.59766138 -0.081844509
-0.15146512 -0.59649688 -0.086571872
-0.13296025 -0.59533697 -0.091280282
-0.11452834 -0.59417903 -0.095981121
0.10285427 -0.59504229 -0.092476606
0.12118633 -0.59631503 -0.087310076
0.13959846 -0.59759045 -0.082132161
-0.17004408 -0.57944632 -0.081844509
-0.15146512 -0.57831818 -0.086571753
-0.13296025 -0.57719457 -0.091280341
-0.11452834 -0.57607275 -0.095981181
0.10285427 -0.57690907 -0.092476428
0.12118633 -0.57814199 -0.087310076
0.13959846 -0.57937771 -0.082132041
-0.17004408 -0.56123126 -0.081844509
-0.15146512 -0.5601396 -0.086571872
-0.13296025 -0.55905217 -0.091280341
-0.11452834 -0.55796653 -0.095981121
0.10285427 -0.5587759 -0.092476547
0.12118633 -0.55996907 -0.087310076
0.13959846 -0.5611648 -0.08213222
-0.17004408 -0.5430162 -0.081844389
0.13959846 -0.542952 -0.082132161
-0.15146512 -0.54196084 -0.086571872
-0.13296025 -0.54090971 -0.091280341
-0.11452834 -0.53986037 -0.095981002
0.10285427 -0.54064274 -0.092476428
0.12118633 -0.54179609 -0.087310076
-0.17004408 -0.52480119 -0.081844509
-0.15146512 -0.52378225 -0.086571872
-0.13296025 -0.52276731 -0.09128046
-0.11452834 -0.52175409 -0.095981121
0.10285427 -0.52250952 -0.092476547
0.12118633 -0.52362311 -0.087310195
0.13959846 -0.52473915 -0.082132161
-0.17004408 -0.50658613 -0.081844509
-0.15146512 -0.50560355 -0.086571872
-0.13296025 -0.5046249 -0.091280341
-0.11452834 -0.50364786 -0.095981121
0.10285427 -0.50437629 -0.092476547
0.12118633 -0.50545007 -0.087310076
0.13959846 -0.50652641 -0.082132041
-0.17004408 -0.48837098 -0.081844509
-0.15146512 -0.487425 -0.086571872
-0.13296025 -0.48648241 -0.091280341
-0.11452834 -0.48554167 -0.095981002
0.10285427 -0.48624316 -0.092476428
0.12118633 -0.48727712 -0.087310195
0.13959846 -0.48831353 -0.08213222
-0.17004408 -0.47015595 -0.081844389
-0.15146512 -0.46924624 -0.086571872
-0.13296025 -0.46834013 -0.091280341
-0.11452834 -0.46743545 -0.095981121
0.10285427 -0.46810982 -0.092476547
0.12118633 -0.46910411 -0.087310076
0.13959846 -0.4701007 -0.082132041
-0.17004408 -0.45194095 -0.081844509
-0.15146512 -0.45106766 -0.086571753
-0.13296025 -0.45019764 -0.09128046
-0.11452834 -0.4493292 -0.095981121
0.10285427 -0.44997677 -0.092476428
0.12118633 -0.45093116 -0.087310195
0.13959846 -0.45188785 -0.082132161
-0.17004408 -0.43372592 -0.081844509
-0.15146512 -0.43288895 -0.086571753
-0.13296025 -0.43205529 -0.091280282
-0.11452834 -0.43122292 -0.095981181
0.10285427 -0.43184343 -0.092476428
0.12118633 -0.43275815 -0.087310076
0.13959846 -0.43367499 -0.08213222
-0.17004408 -0.41551083 -0.081844509
-0.15146512 -0.41471022 -0.086571932
-0.13296025 -0.41391286 -0.091280341
-0.11452834 -0.41311678 -0.095981121
0.10285427 -0.41371027 -0.092476547
0.12118633 -0.4145852 -0.087310195
0.13959846 -0.41546217 -0.082132041
-0.17004408 -0.3972958 -0.081844389
-0.15146512 -0.39653161 -0.086571753
-0.13296025 -0.39577043 -0.091280341
-0.11452834 -0.39501053 -0.095981121
0.10285427 -0.39557707 -0.092476428
0.12118633 -0.39641222 -0.087310195
0.13959846 -0.39724931 -0.08213222
-0.17004408 -0.37908077 -0.081844389
-0.15146512 -0.37835291 -0.086571872
-0.13296025 -0.37762797 -0.091280341
-0.11452834 -0.37690422 -0.095981181
0.10285427 -0.37744385 -0.092476547
0.12118633 -0.37823921 -0.087310195
0.13959846 -0.37903655 -0.082132161
-0.17004408 -0.36086574 -0.081844509
-0.15146512 -0.3601743 -0.086571753
-0.13296025 -0.35948566 -0.091280282
-0.11452834 -0.35879806 -0.095981121
0.10285427 -0.3593106 -0.092476547
0.12118633 -0.36006624 -0.087310195
0.13959846 -0.36082366 -0.082132161
-0.17004408 -0.34265062 -0.081844509
-0.15146512 -0.3419956 -0.086571872
-0.13296025 -0.34134319 -0.091280341
-0.11452834 -0.34069183 -0.095981002
0.10285427 -0.34117746 -0.092476428
0.12118633 -0.34189335 -0.087310255
0.13959846 -0.34261081 -0.082132041
-0.17004408 -0.32443562 -0.081844389
-0.15146512 -0.32381704 -0.086571753
-0.13296025 -0.32320073 -0.09128046
-0.11452834 -0.32258558 -0.095981121
0.10285427 -0.32304421 -0.092476547
0.12118633 -0.32372034 -0.087310195
0.13959846 -0.32439801 -0.08213222
-0.17004408 -0.30622059 -0.081844389
-0.15146512 -0.30563831 -0.086571872
-0.13296025 -0.30505845 -0.091280341
-0.11452834 -0.30447942 -0.095981002
0.10285427 -0.30491111 -0.092476428
0.12118633 -0.30554739 -0.087310195
0.13959846 -0.30618519 -0.082132041
-0.17004408 -0.28800559 -0.081844509
-0.15146512 -0.28745961 -0.086571872
-0.13296025 -0.2869159 -0.09128046
-0.11452834 -0.2863732 -0.095981121
0.10285427 -0.28677782 -0.092476428
0.12118633 -0.28737453 -0.087310076
0.13959846 -0.28797227 -0.082132161
-0.17004408 -0.26979044 -0.081844389
-0.15146512 -0.269281 -0.086571753
-0.13296025 -0.26877353 -0.091280341
-0.11452834 -0.26826695 -0.095981121
0.10285427 -0.26864463 -0.092476606
0.12118633 -0.26920152 -0.087310076
0.13959846 -0.26975954 -0.082132041
-0.17004408 -0.25157544 -0.081844389
-0.15146512 -0.25110239 -0.086571872
-0.13296025 -0.25063112 -0.09128046
-0.11452834 -0.25016084 -0.095981121
0.10285427 -0.25051141 -0.092476428
0.12118633 -0.25102854 -0.087310076
0.13959846 -0.25154665 -0.082132161
-0.17004408 -0.23336042 -0.081844389
-0.15146512 -0.23292376 -0.086571753
-0.13296025 -0.23248878 -0.091280341
-0.11452834 -0.23205456 -0.095981121
0.10285427 -0.23237824 -0.092476547
0.12118633 -0.23285557 -0.087310076
0.13959846 -0.23333383 -0.08213222
-0.17004408 -0.21514539 -0.081844389
-0.15146512 -0.21474504 -0.086571753
-0.13296025 -0.2143463 -0.091280341
-0.11452834 -0.21394825 -0.095981121
0.10285427 -0.21424514 -0.092476428
0.12118633 -0.21468258 -0.087310076
0.13959846 -0.21512102 -0.082132161
-0.17004408 -0.19693029 -0.081844389
-0.15146512 -0.19656643 -0.086571753
-0.13296025 -0.19620399 -0.091280341
-0.11452834 -0.19584201 -0.095981181
0.10285427 -0.19611186 -0.092476547
0.12118633 -0.19650961 -0.087310076
0.13959846 -0.19690812 -0.08213222
-0.17004408 -0.17871526 -0.081844389
-0.15146512 -0.17838778 -0.086571872
-0.13296025 -0.17806152 -0.091280341
-0.11452834 -0.17773587 -0.095981121
0.10285427 -0.17797866 -0.092476606
0.12118633 -0.17833662 -0.087310195
0.13959846 -0.17869538 -0.082132041
-0.17004408 -0.16050023 -0.081844389
-0.15146512 -0.16020904 -0.086571872
-0.13296025 -0.15991911 -0.091280282
-0.11452834 -0.15962958 -0.095981121
0.10285427 -0.15984549 -0.092476428
0.12118633 -0.16016363 -0.087310195
0.13959846 -0.16048242 -0.082132161
-0.17004408 -0.14228521 -0.081844389
-0.15146512 -0.14203043 -0.086571753
-0.13296025 -0.1417767 -0.091280341
-0.11452834 -0.14152338 -0.095981181
0.10285427 -0.14171226 -0.092476547
0.12118633 -0.14199066 -0.087310195
0.13959846 -0.14226967 -0.082132041
-0.17004408 -0.12407011 -0.08184433
-0.15146512 -0.12385172 -0.086571872
-0.13296025 -0.12363422 -0.09128046
-0.11452834 -0.12341723 -0.095981121
0.10285427 -0.123579 -0.092476606
0.12118633 -0.12381765 -0.087310195
0.13959846 -0.12405683 -0.082132161
-0.17004408 -0.10585509 -0.081844389
-0.15146512 -0.10567316 -0.086571753
-0.13296025 -0.10549192 -0.091280341
-0.11452834 -0.10531095 -0.095981121
0.10285427 -0.10544588 -0.092476428
0.12118633 -0.10564469 -0.087310195
0.13959846 -0.10584404 -0.082132041
-0.17004408 -0.087640047 -0.08184433
-0.15146512 -0.087494448 -0.086571872
-0.13296025 -0.08734946 -0.09128046
-0.11452834 -0.08720471 -0.095981121
0.10285427 -0.087312609 -0.092476547
0.12118633 -0.087471709 -0.087310195
0.13959846 -0.087631136 -0.082132161
-0.17004408 -0.069425032 -0.081844389
-0.15146512 -0.069315821 -0.086571693
-0.13296025 -0.069207072 -0.091280341
-0.11452834 -0.069098487 -0.095981002
0.10285427 -0.069179505 -0.092476428
0.12118633 -0.069298707 -0.087310195
0.13959846 -0.069418386 -0.082132041
-0.17004408 -0.051209927 -0.08184433
-0.15146512 -0.051137112 -0.086571753
-0.13296025 -0.05106464 -0.09128046
-0.11452834 -0.050992254 -0.095981121
0.10285427 -0.051046215 -0.092476547
0.12118633 -0.051125746 -0.087310195
0.13959846 -0.051205501 -0.082132161
-0.17004408 -0.032994889 -0.08184433
-0.15146512 -0.032958403 -0.086571872
-0.13296025 -0.032922253 -0.091280341
-0.11452834 -0.032885995 -0.095981121
0.10285427 -0.032913022 -0.092476606
0.12118633 -0.032952741 -0.087310195
0.13959846 -0.032992594 -0.082132161
-0.17004408 -0.014779847 -0.08184433
-0.15146512 -0.014779847 -0.086571872
0.10285427 -0.014779802 -0.092476428
0.13959846 -0.014779847 -0.082132161
-0.13296025 -0.014779758 -0.091280341
-0.11452834 -0.014779758 -0.095981121
0.12118633 -0.014779758 -0.087310195
-0.17004408 0.0034351684 -0.081844389
-0.15146512 0.003398886 -0.086571872
-0.13296025 0.0033625141 -0.091280341
-0.11452834 0.0033263899 -0.095981121
0.10285427 0.0033533927 -0.092476547
0.12118633 0.0033932254 -0.087310195
0.13959846 0.003433058 -0.08213222
-0.17004408 0.021650299 -0.08184433
-0.15146512 0.021577507 -0.086571753
-0.13296025 0.021505032 -0.091280341
-0.11452834 0.021432649 -0.095981121
0.10285427 0.021486565 -0.092476428
0.12118633 0.021566186 -0.087310195
0.13959846 0.021645781 -0.082132041
-0.17004408 0.039865315 -0.08184433
-0.15146512 0.03975622 -0.086571872
-0.13296025 0.039647397 -0.091280282
-0.11452834 0.039538886 -0.095981121
0.10285427 0.039619785 -0.092476547
0.12118633 0.039739169 -0.087310195
0.13959846 0.03985871 -0.082132161
-0.17004408 0.058080334 -0.08184433
-0.15146512 0.05793475 -0.086571753
-0.13296025 0.057789799 -0.091280341
-0.11452834 0.057645056 -0.095981121
0.10285427 0.057753023 -0.092476606
0.12118633 0.057912152 -0.087310195
0.13959846 0.058071505 -0.082132041
-0.17004408 0.076295346 -0.08184433
-0.15146512 0.076113462 -0.086571872
-0.13296025 0.075932279 -0.09128046
-0.11452834 0.075751245 -0.095981121
0.10285427 0.07588616 -0.092476547
0.12118633 0.076085016 -0.087310016
0.13959846 0.076284334 -0.082132161
-0.17004408 0.094510451 -0.08184433
-0.15146512 0.094292179 -0.086571872
-0.13296025 0.094074681 -0.091280341
-0.11452834 0.093857601 -0.095981121
0.10285427 0.094019413 -0.092476547
0.12118633 0.09425801 -0.087310016
0.13959846 0.094497204 -0.082132041
-0.17004408 0.11272556 -0.081844509
-0.15146512 0.11247079 -0.086571753
-0.13296025 0.11221704 -0.09128046
-0.11452834 0.11196373 -0.095981002
0.10285427 0.11215255 -0.092476428
0.12118633 0.11243099 -0.087310076
0.13959846 0.11271003 -0.082132161
-0.17004408 0.13094062 -0.081844509
-0.15146512 0.13064943 -0.086571872
-0.13296025 0.13035944 -0.091280341
-0.11452834 0.13007 -0.095981121
0.10285427 0.13028578 -0.092476428
0.12118633 0.13060398 -0.087310076
0.13959846 0.13092282 -0.082132041
-0.17004408 0.14915563 -0.081844509
-0.15146512 0.14882807 -0.086571753
-0.13296025 0.14850193 -0.091280341
-0.11452834 0.14817625 -0.095981121
0.10285427 0.14841901 -0.092476547
0.12118633 0.14877698 -0.087310076
0.13959846 0.14913563 -0.082132161
-0.17004408 0.16737074 -0.081844509
-0.15146512 0.16700678 -0.086571872
-0.13296025 0.16664425 -0.091280341
-0.11452834 0.1662824 -0.095981002
0.10285427 0.16655217 -0.092476428
0.12118633 0.16694996 -0.087310076
0.13959846 0.16734855 -0.082132161
-0.17004408 0.18558575 -0.081844509
-0.15146512 0.18518548 -0.086571872
-0.13296025 0.18478669 -0.091280341
-0.11452834 0.18438862 -0.095981121
0.10285427 0.18468539 -0.092476547
0.12118633 0.18512294 -0.087310076
0.13959846 0.18556136 -0.082132161
-0.17004408 0.20380077 -0.081844509
-0.15146512 0.2033641 -0.086571753
-0.13296025 0.20292912 -0.091280282
-0.11452834 0.20249486 -0.095981121
0.10285427 0.20281871 -0.092476606
0.12118633 0.20329581 -0.087310195
0.13959846 0.2037742 -0.08213222
-0.17004408 0.22201583 -0.081844509
-0.15146512 0.22154273 -0.086571872
-0.13296025 0.22107153 -0.091280341
-0.11452834 0.22060111 -0.095981181
0.10285427 0.22095177 -0.092476547
0.12118633 0.22146879 -0.087310195
0.13959846 0.22198701 -0.082132041
-0.17004408 0.2402309 -0.081844509
-0.15146512 0.23972134 -0.086571753
-0.13296025 0.2392139 -0.091280282
-0.11452834 0.23870735 -0.095981002
0.10285427 0.23908506 -0.092476547
0.12118633 0.23964177 -0.087310195
0.13959846 0.24019991 -0.082132161
-0.17004408 0.25844598 -0.081844389
-0.15146512 0.25790009 -0.086571753
-0.13296025 0.25735638 -0.091280341
-0.11452834 0.25681362 -0.095981121
0.10285427 0.25721818 -0.092476428
0.12118633 0.25781482 -0.087310195
0.13959846 0.25841266 -0.082132041
-0.17004408 0.27666101 -0.081844509
-0.15146512 0.27607873 -0.086571693
-0.13296025 0.27549878 -0.09128046
-0.11452834 0.27491987 -0.095981121
0.10285427 0.27535146 -0.092476428
0.12118633 0.27598777 -0.087310195
0.13959846 0.27662554 -0.082132161
-0.17004408 0.29487604 -0.081844509
-0.15146512 0.29425734 -0.086571872
-0.13296025 0.29364118 -0.091280341
-0.11452834 0.293026 -0.095981002
0.10285427 0.29348469 -0.092476547
0.12118633 0.29416075 -0.087310195
0.13959846 0.29483834 -0.082132041
-0.17004408 0.31309104 -0.081844509
-0.15146512 0.31243613 -0.086571872
-0.13296025 0.31178358 -0.091280341
-0.11452834 0.31113222 -0.095981121
0.10285427 0.31161785 -0.092476428
0.12118633 0.31233382 -0.087310195
0.13959846 0.31305122 -0.082132161
-0.17004408 0.3313061 -0.081844509
-0.15146512 0.33061463 -0.086571872
-0.13296025 0.32992601 -0.091280282
-0.11452834 0.32923847 -0.095981121
0.10285427 0.3297511 -0.092476547
0.12118633 0.3305068 -0.087310195
0.13959846 0.33126408 -0.082132041
-0.17004408 0.34952125 -0.081844389
-0.15146512 0.34879333 -0.086571872
-0.13296025 0.34806845 -0.091280341
-0.11452834 0.34734464 -0.095981002
0.10285427 0.34788415 -0.092476428
0.12118633 0.34867978 -0.087310195
0.13959846 0.34947684 -0.082132161
-0.17004408 0.36773628 -0.08184433
-0.15146512 0.366972 -0.086571753
-0.13296025 0.36621076 -0.091280341
-0.11452834 0.36545086 -0.095981121
0.10285427 0.36601746 -0.092476547
0.12118633 0.36685273 -0.087310195
0.13959846 0.36768976 -0.08213222
-0.17004408 0.38595134 -0.081844389
-0.15146512 0.3851507 -0.086571872
-0.13296025 0.38435328 -0.091280341
-0.11452834 0.38355711 -0.095981121
0.10285427 0.38415068 -0.092476547
0.12118633 0.38502574 -0.087310195
0.13959846 0.38590264 -0.082132041
-0.17004408 0.40416634 -0.081844389
-0.15146512 0.40332931 -0.086571693
-0.13296025 0.40249565 -0.091280282
-0.11452834 0.40166339 -0.095981181
0.10285427 0.40228394 -0.092476428
0.12118633 0.40319869 -0.087310195
0.13959846 0.40411541 -0.08213222
-0.17004408 0.42238137 -0.081844389
-0.15146512 0.42150804 -0.086571753
-0.13296025 0.42063805 -0.091280341
-0.11452834 0.41976953 -0.095981121
0.10285427 0.42041704 -0.092476547
0.12118633 0.42137158 -0.087310016
0.13959846 0.4223282 -0.082132041
-0.17004408 0.44059637 -0.081844389
-0.15146512 0.43968669 -0.086571872
-0.13296025 0.43878061 -0.091280341
-0.11452834 0.43787581 -0.095981121
0.10285427 0.43855023 -0.092476428
0.12118633 0.43954459 -0.087310016
0.13959846 0.44054118 -0.082132041
-0.17004408 0.45881143 -0.081844509
-0.15146512 0.45786533 -0.086571753
-0.13296025 0.45692289 -0.091280341
-0.11452834 0.455982 -0.095981181
0.10285427 0.45668352 -0.092476428
0.12118633 0.45771754 -0.087310016
0.13959846 0.45875385 -0.082132041
-0.17004408 0.47702646 -0.081844389
-0.15146512 0.47604403 -0.086571753
-0.13296025 0.47506529 -0.09128046
-0.11452834 0.47408834 -0.095981002
0.10285427 0.47481677 -0.092476547
0.12118633 0.4758904 -0.087310076
0.13959846 0.4769668 -0.082132041
-0.17004408 0.49524164 -0.08184433
-0.15146512 0.49422252 -0.086571872
-0.13296025 0.49320775 -0.091280341
-0.11452834 0.49219459 -0.095981002
0.10285427 0.49294984 -0.092476428
0.12118633 0.49406338 -0.087310195
0.13959846 0.49517941 -0.082132041
-0.15146512 0.51240122 -0.086571872
-0.13296025 0.5113501 -0.091280341
-0.11452834 0.51030076 -0.095981121
0.10285427 0.51108307 -0.092476547
0.12118633 0.51223642 -0.087310195
-0.17004408 0.5134567 -0.08184433
0.13959846 0.51339239 -0.082132161
-0.17004408 0.53167164 -0.08184433
-0.15146512 0.53057981 -0.086571693
-0.13296025 0.52949244 -0.091280341
-0.11452834 0.52840698 -0.095981002
0.10285427 0.52921629 -0.092476547
0.12118633 0.53040934 -0.087310195
0.13959846 0.5316053 -0.082132161
-0.17004408 0.5498867 -0.08184433
-0.15146512 0.54875857 -0.086571872
-0.13296025 0.54763502 -0.091280341
-0.11452834 0.5465132 -0.095981002
0.10285427 0.54734957 -0.092476428
0.12118633 0.54858232 -0.087310195
0.13959846 0.54981804 -0.082132161
-0.17004408 0.56810176 -0.081844389
-0.15146512 0.56693721 -0.086571872
-0.13296025 0.5657773 -0.091280282
-0.11452834 0.56461948 -0.095981121
0.10285427 0.56548268 -0.092476606
0.12118633 0.56675535 -0.087310195
0.13959846 0.56803089 -0.082132161
-0.17004408 0.58631676 -0.08184433
-0.15146512 0.58511591 -0.086571753
-0.13296025 0.58391982 -0.091280341
-0.11452834 0.58272564 -0.095981002
0.10285427 0.58361578 -0.092476428
0.12118633 0.58492833 -0.087310195
0.13959846 0.58624375 -0.082132041
-0.20742717 -0.6000073 -0.072321475
-0.18869862 -0.59883332 -0.077086866
0.15809156 -0.59887165 -0.076931417
0.17666613 -0.60015845 -0.071707726
-0.22623117 -0.58286065 -0.067536891
-0.20742717 -0.58171886 -0.072321594
-0.18869862 -0.58058172 -0.077086926
0.15809156 -0.58061886 -0.076931298
0.17666613 -0.58186537 -0.071707606
0.19532272 -0.58311737 -0.066461027
-0.22623117 -0.5645355 -0.067536771
-0.20742717 -0.56343055 -0.072321415
-0.18869862 -0.56232995 -0.077087045
0.15809156 -0.56236595 -0.076931417
0.17666613 -0.56357235 -0.071707606
0.19532272 -0.56478387 -0.066460848
-0.22623117 -0.54621035 -0.067536771
-0.20742717 -0.54514217 -0.072321594
-0.18869862 -0.54407829 -0.077086926
0.15809156 -0.54411298 -0.076931417
0.17666613 -0.54527915 -0.071707726
0.19532272 -0.54645038 -0.066460967
-0.22623117 -0.52788514 -0.067536712
0.19532272 -0.528117 -0.066460967
-0.20742717 -0.52685386 -0.072321475
-0.18869862 -0.52582663 -0.077086926
0.15809156 -0.52586019 -0.076931298
0.17666613 -0.52698612 -0.071707606
-0.22623117 -0.50955993 -0.067536891
-0.20742717 -0.50856537 -0.072321475
-0.18869862 -0.50757498 -0.077086926
0.15809156 -0.50760734 -0.076931417
0.17666613 -0.50869304 -0.071707606
0.19532272 -0.50978357 -0.066460848
-0.22623117 -0.49123472 -0.067536771
-0.20742717 -0.49027702 -0.072321475
-0.18869862 -0.48932332 -0.077086926
0.15809156 -0.4893544 -0.076931477
0.17666613 -0.49039987 -0.071707726
0.19532272 -0.49145007 -0.066460967
-0.22623117 -0.47290948 -0.067536771
-0.20742717 -0.47198877 -0.072321415
-0.18869862 -0.47107163 -0.077086866
0.15809156 -0.47110155 -0.076931298
0.17666613 -0.47210681 -0.071707726
0.19532272 -0.47311661 -0.066460967
-0.22623117 -0.45458439 -0.067536771
-0.20742717 -0.45370039 -0.072321475
-0.18869862 -0.45282 -0.077086866
0.15809156 -0.45284867 -0.076931417
0.17666613 -0.45381376 -0.071707606
0.19532272 -0.45478305 -0.066461027
-0.22623117 -0.43625924 -0.067536771
-0.20742717 -0.43541208 -0.072321415
-0.18869862 -0.43456823 -0.077087045
0.15809156 -0.43459582 -0.076931477
0.17666613 -0.43552077 -0.071707606
0.19532272 -0.43644965 -0.066460967
-0.22623117 -0.41793394 -0.067536891
-0.20742717 -0.41712362 -0.072321475
-0.18869862 -0.41631654 -0.077086926
0.15809156 -0.41634297 -0.076931417
0.17666613 -0.41722757 -0.071707726
0.19532272 -0.41811618 -0.066460967
-0.22623117 -0.39960876 -0.067536891
-0.20742717 -0.3988353 -0.072321415
-0.18869862 -0.39806485 -0.077086926
0.15809156 -0.39809006 -0.076931298
0.17666613 -0.39893457 -0.071707726
0.19532272 -0.39978266 -0.066460967
-0.22623117 -0.38128355 -0.067536771
-0.20742717 -0.38054693 -0.072321475
-0.18869862 -0.37981328 -0.077086926
0.15809156 -0.37983713 -0.076931477
0.17666613 -0.38064149 -0.071707726
0.19532272 -0.38144925 -0.066460848
-0.22623117 -0.36295837 -0.067536771
-0.20742717 -0.36225861 -0.072321415
-0.18869862 -0.3615616 -0.077086926
0.15809156 -0.36158437 -0.076931417
0.17666613 -0.36234835 -0.071707726
0.19532272 -0.36311579 -0.066460967
-0.22623117 -0.34463328 -0.067536712
-0.20742717 -0.34397024 -0.072321594
-0.18869862 -0.34330997 -0.077086926
0.15809156 -0.34333152 -0.076931417
0.17666613 -0.34405527 -0.071707726
0.19532272 -0.34478235 -0.066460967
-0.22623117 -0.32630801 -0.067536891
-0.20742717 -0.3256819 -0.072321415
-0.18869862 -0.32505819 -0.077087045
0.15809156 -0.32507855 -0.076931417
0.17666613 -0.32576221 -0.071707606
0.19532272 -0.32644874 -0.066460967
-0.22623117 -0.30798283 -0.067536771
-0.20742717 -0.30739346 -0.072321475
-0.18869862 -0.30680656 -0.077087045
0.15809156 -0.30682576 -0.076931298
0.17666613 -0.30746913 -0.071707606
0.19532272 -0.30811536 -0.066460848
-0.22623117 -0.28965762 -0.067536771
-0.20742717 -0.28910515 -0.072321415
-0.18869862 -0.28855488 -0.077086926
0.15809156 -0.28857285 -0.076931417
0.17666613 -0.28917602 -0.071707726
0.19532272 -0.28978184 -0.066460967
-0.22623117 -0.27133244 -0.067536771
0.19532272 -0.2714484 -0.066460967
-0.20742717 -0.27081674 -0.072321594
-0.18869862 -0.27030322 -0.077086926
0.15809156 -0.27032 -0.076931477
0.17666613 -0.27088293 -0.071707726
-0.22623117 -0.25300729 -0.067536712
-0.20742717 -0.25252846 -0.072321475
-0.18869862 -0.25205156 -0.077086926
0.15809156 -0.25206715 -0.076931298
0.17666613 -0.25258988 -0.071707606
0.19532272 -0.25311497 -0.066460848
-0.22623117 -0.23468204 -0.067536771
-0.20742717 -0.23424017 -0.072321415
-0.18869862 -0.2337999 -0.077086866
0.15809156 -0.23381424 -0.076931417
0.17666613 -0.23429672 -0.071707726
0.19532272 -0.23478144 -0.066460967
-0.22623117 -0.21635693 -0.067536771
-0.20742717 -0.21595171 -0.072321475
-0.18869862 -0.21554825 -0.077086866
0.15809156 -0.21556139 -0.076931477
0.17666613 -0.21600378 -0.071707726
0.19532272 -0.21644802 -0.066460848
-0.22623117 -0.19803174 -0.067536771
-0.20742717 -0.19766341 -0.072321415
-0.18869862 -0.19729649 -0.077087045
0.15809156 -0.1973085 -0.076931298
0.17666613 -0.19771068 -0.071707606
0.19532272 -0.19811456 -0.066460967
-0.22623117 -0.17970653 -0.067536771
-0.20742717 -0.17937502 -0.072321475
-0.18869862 -0.17904483 -0.077086926
0.15809156 -0.17905563 -0.076931417
0.17666613 -0.17941763 -0.071707606
0.19532272 -0.17978106 -0.066460848
-0.22623117 -0.16138136 -0.067536712
-0.20742717 -0.16108672 -0.072321415
-0.18869862 -0.16079317 -0.077086926
0.15809156 -0.16080271 -0.076931417
0.17666613 -0.16112447 -0.071707726
0.19532272 -0.16144753 -0.066460967
-0.22623117 -0.14305608 -0.067536771
-0.20742717 -0.14279832 -0.072321475
-0.18869862 -0.14254157 -0.077086926
0.15809156 -0.14254995 -0.076931298
0.17666613 -0.14283139 -0.071707726
0.19532272 -0.14311409 -0.066460967
-0.22623117 -0.12473091 -0.067536771
-0.20742717 -0.12450992 -0.072321415
-0.18869862 -0.12428991 -0.077086926
0.15809156 -0.12429701 -0.076931298
0.17666613 -0.12453833 -0.071707606
0.19532272 -0.1247807 -0.066460848
-0.22623117 -0.10640581 -0.067536771
-0.20742717 -0.10622153 -0.072321475
-0.18869862 -0.10603826 -0.077086926
0.15809156 -0.10604419 -0.076931298
0.17666613 -0.10624516 -0.071707726
0.19532272 -0.10644712 -0.066460967
-0.22623117 -0.0880806 -0.067536771
-0.20742717 -0.087933257 -0.072321475
-0.18869862 -0.087786466 -0.077087045
0.15809156 -0.087791339 -0.076931298
0.17666613 -0.087952122 -0.071707726
0.19532272 -0.088113695 -0.066460848
-0.22623117 -0.06975542 -0.067536712
-0.20742717 -0.069644861 -0.072321475
-0.18869862 -0.069534801 -0.077086926
0.15809156 -0.069538414 -0.076931417
0.17666613 -0.069659039 -0.071707606
0.19532272 -0.069780216 -0.066460967
-0.22623117 -0.051430158 -0.067536771
-0.20742717 -0.051356561 -0.072321475
-0.18869862 -0.051283143 -0.077086926
0.15809156 -0.051285569 -0.076931298
0.17666613 -0.051365998 -0.071707606
0.19532348 -0.051446918 -0.066449821
-0.22623117 -0.033104993 -0.067536771
-0.20742717 -0.033068173 -0.072321475
-0.18869862 -0.03303146 -0.077086926
0.15809156 -0.033032719 -0.076931298
0.17666613 -0.033072822 -0.071707726
0.19532348 -0.033113439 -0.066449642
-0.22623117 -0.014779802 -0.067536771
-0.20742717 -0.014779802 -0.072321415
-0.18869862 -0.014779802 -0.077086926
0.15809156 -0.014779802 -0.076931417
0.17666613 -0.014779847 -0.071707726
0.19532348 -0.014779802 -0.066449702
-0.22623117 0.003545342 -0.067536771
-0.20742717 0.003508497 -0.072321415
-0.18869862 0.0034718327 -0.077086866
0.15809156 0.0034729559 -0.076931298
0.17666613 0.0035132151 -0.071707606
0.19532348 0.0035537891 -0.066449821
-0.22623117 0.021870531 -0.067536712
-0.20742717 0.021796886 -0.072321475
-0.18869862 0.021723513 -0.077086866
0.15809156 0.021725919 -0.076931298
0.17666613 0.021806367 -0.071707726
0.19532348 0.021887247 -0.066449642
-0.22623117 0.040195763 -0.067536771
-0.20742717 0.040085211 -0.072321415
-0.18869862 0.039975286 -0.077086926
0.15809156 0.039978836 -0.076931417
0.17666613 0.040099431 -0.071707726
0.19532348 0.040220838 -0.066449702
-0.22623117 0.058520954 -0.067536771
-0.20742717 0.058373604 -0.072321475
-0.18869862 0.058226917 -0.077086926
0.15809156 0.058231618 -0.076931298
0.17666613 0.058392514 -0.071707606
0.19532348 0.058554497 -0.066449702
-0.22623117 0.076846167 -0.067536771
-0.20742717 0.076661944 -0.072321415
-0.18869862 0.076478601 -0.077086926
0.15809156 0.076484486 -0.076931417
0.17666613 0.076685563 -0.071707547
0.19532348 0.076887995 -0.066449642
-0.22623117 0.095171303 -0.067536712
-0.20742717 0.094950363 -0.072321475
-0.18869862 0.094730243 -0.077086926
0.15809156 0.094737455 -0.076931417
0.17666613 0.094978735 -0.071707726
0.19532348 0.095221564 -0.066449702
-0.22623117 0.1134965 -0.067536592
-0.20742717 0.11323865 -0.072321415
-0.18869862 0.11298183 -0.077086926
0.15809156 0.11299023 -0.076931298
0.17666613 0.11327177 -0.071707606
0.19532348 0.11355515 -0.066449702
-0.22623117 0.13182171 -0.067536771
-0.20742717 0.13152705 -0.072321475
-0.18869862 0.1312335 -0.077086926
0.15809156 0.13124312 -0.076931417
0.17666613 0.13156486 -0.071707606
0.19532348 0.13188863 -0.066449642
-0.22623117 0.15014689 -0.067536771
-0.20742717 0.14981535 -0.072321475
-0.18869862 0.14948522 -0.077087045
0.15809156 0.14949608 -0.076931417
0.17666613 0.14985797 -0.071707726
0.19532348 0.1502222 -0.066449642
-0.22623117 0.16847207 -0.067536771
-0.20742717 0.16810384 -0.072321475
-0.18869862 0.16773693 -0.077086926
0.15809156 0.16774885 -0.076931298
0.17666613 0.16815107 -0.071707726
0.19532348 0.1685558 -0.066449702
-0.22623117 0.18679725 -0.067536712
-0.20742717 0.18639214 -0.072321415
-0.18869862 0.18598858 -0.077086926
0.15809156 0.18600173 -0.076931298
0.17666613 0.18644401 -0.071707726
0.19532348 0.18688928 -0.066449642
-0.22623117 0.20512244 -0.067536592
-0.20742717 0.20468053 -0.072321475
-0.18869862 0.20424025 -0.077086926
0.15809156 0.20425466 -0.076931417
0.17666613 0.20473711 -0.071707606
0.19532348 0.20522286 -0.066449642
-0.22623117 0.2234477 -0.067536771
-0.20742717 0.22296883 -0.072321475
-0.18869862 0.22249193 -0.077086926
0.15809156 0.22250752 -0.076931298
0.17666613 0.22303024 -0.071707726
0.19532348 0.22355643 -0.066449702
-0.20742717 0.24125709 -0.072321415
-0.18869862 0.24074356 -0.077086926
0.15809156 0.24076037 -0.076931298
0.17666681 0.24132459 -0.071696579
-0.22623117 0.24177279 -0.067536771
0.19532348 0.24188991 -0.066449642
-0.22623117 0.26009801 -0.067536771
-0.20742717 0.25954551 -0.072321475
-0.18869862 0.25899526 -0.077086866
0.15809156 0.25901327 -0.076931417
0.17666681 0.25961772 -0.07169646
0.19532348 0.26022351 -0.066449642
-0.22623117 0.27842322 -0.067536712
-0.20742717 0.27783391 -0.072321415
-0.18869862 0.27724698 -0.077086926
0.15809156 0.27726606 -0.076931298
0.17666681 0.27791089 -0.071696579
0.19532348 0.27855712 -0.066449702
-0.22623117 0.29674831 -0.067536712
-0.20742717 0.29612231 -0.072321475
-0.18869862 0.29549858 -0.077086926
0.15809156 0.29551899 -0.076931298
0.17666681 0.29620403 -0.07169646
0.19532348 0.29689077 -0.066449702
-0.22623117 0.31507367 -0.067536771
-0.20742717 0.3144106 -0.072321415
-0.18869862 0.3137503 -0.077086926
0.15809156 0.3137719 -0.076931477
0.17666681 0.31449726 -0.071696579
0.19532348 0.31522426 -0.066449642
-0.22623117 0.33339876 -0.067536771
-0.20742717 0.332699 -0.072321475
-0.18869862 0.33200192 -0.077086926
0.15809156 0.33202469 -0.076931298
0.17666681 0.33279037 -0.071696401
0.19532348 0.33355787 -0.066449642
-0.22623117 0.351724 -0.067536712
-0.20742717 0.35098729 -0.072321415
-0.18869862 0.3502537 -0.077086926
0.15809156 0.35027754 -0.076931417
0.17666681 0.35108364 -0.07169646
0.19532348 0.35189146 -0.066449702
-0.22623117 0.37004909 -0.067536712
-0.20742717 0.36927572 -0.072321475
-0.18869862 0.36850524 -0.077086866
0.15809156 0.36853048 -0.076931477
0.17666681 0.36937663 -0.07169646
0.19532348 0.37022495 -0.066449642
-0.22623117 0.38837442 -0.067536592
-0.20742717 0.38756403 -0.072321475
-0.18869862 0.38675711 -0.077086926
0.15809156 0.38678324 -0.076931417
0.17666681 0.38766983 -0.071696579
0.19532348 0.38855854 -0.066449642
-0.22623117 0.4066996 -0.067536771
-0.20742717 0.40585241 -0.072321475
-0.18869862 0.40500867 -0.077086926
0.15809156 0.40503627 -0.076931298
0.17666681 0.40596294 -0.071696401
0.19532348 0.40689209 -0.066449702
-0.22623117 0.42502472 -0.067536771
-0.20742717 0.42414081 -0.072321296
-0.18869862 0.42326042 -0.077086926
0.15809156 0.42328918 -0.076931417
0.17666681 0.42425624 -0.071696579
0.19532348 0.42522559 -0.066449642
-0.22623117 0.44334993 -0.067536712
-0.20742717 0.44242924 -0.072321475
-0.18869862 0.44151202 -0.077086926
0.15809156 0.44154197 -0.076931298
0.17666681 0.44254944 -0.071696579
0.19532348 0.44355914 -0.066449642
-0.22623117 0.46167508 -0.067536712
-0.20742717 0.46071753 -0.072321415
-0.18869862 0.45976374 -0.077086866
0.15809156 0.45979482 -0.076931298
0.17666681 0.46084258 -0.07169646
0.19532348 0.46189272 -0.066449821
-0.22623117 0.48000041 -0.067536771
-0.20742717 0.47900584 -0.072321296
