ply
format ascii 1.0
comment PCL generated
element vertex 1331
property float x
property float y
property float z
element camera 0
property float view_px
property float view_py
property float view_pz
property float x_axisx
property float x_axisy
property float x_axisz
property float y_axisx
property float y_axisy
property float y_axisz
property float z_axisx
property float z_axisy
property float z_axisz
property float focal
property float scalex
property float scaley
property float centerx
property float centery
property int viewportx
property int viewporty
property float k1
property float k2
end_header
0.0099533275 0.10268719 -0.19206148
-0.0041385815 0.11563685 -0.20078999
0.0099533275 0.11637602 -0.19206148
-0.0041385815 0.12925845 -0.20078999
0.0099533275 0.13006479 -0.1920616
-0.0041385815 0.14288002 -0.20078999
0.0099533275 0.14375347 -0.19206154
-0.22281978 0.15753219 -0.1912269
-0.004138954 0.1565007 -0.20079803
0.0099533275 0.15744227 -0.19206154
-0.004138954 0.17012218 -0.20079798
0.0099528879 0.17113009 -0.19206965
-0.20907462 0.18483374 -0.19194818
-0.0041393191 0.18374264 -0.20080596
0.0099528879 0.18481874 -0.19206965
-0.0041393191 0.19736415 -0.20080602
0.0099524483 0.19850639 -0.1920777
-0.1953406 0.21211317 -0.1926688
-0.0041393191 0.21098557 -0.20080602
0.0099524483 0.21219501 -0.1920777
-0.0041396916 0.22460589 -0.20081407
0.0099524483 0.22588366 -0.1920777
-0.18161774 0.23937038 -0.19338882
-0.0041396916 0.23822722 -0.20081407
0.0099524483 0.23957229 -0.1920777
-0.0041396916 0.25184858 -0.20081407
0.0099520162 0.2532596 -0.19208574
-0.0041396916 0.26547 -0.20081401
0.0099520162 0.26694822 -0.19208574
-0.0041396916 0.27909142 -0.20081407
0.0099520162 0.28063673 -0.1920858
-0.14062998 0.29437172 -0.19183469
-0.0041396916 0.29271281 -0.20081407
0.0099520162 0.29432535 -0.19208574
-0.126867 0.3074584 -0.1949724
-0.0041396916 0.30633411 -0.20081407
0.0099520162 0.30801386 -0.19208586
-0.11315265 0.32050052 -0.19809115
-0.0041396916 0.31995544 -0.20081407
0.0099520162 0.32170248 -0.1920858
-0.099486381 0.33349699 -0.20119894
-0.0041396916 0.33357695 -0.20081407
0.0099520162 0.33539099 -0.19208586
-0.0041400641 0.34719643 -0.20082206
0.0099520162 0.34907967 -0.1920858
-0.0041400641 0.36081788 -0.200822
0.0099520162 0.36276817 -0.19208586
-0.0041396916 0.37444097 -0.20081407
0.0099520162 0.37645668 -0.19208574
-0.03132683 0.38849342 -0.19900775
-0.0041393191 0.38806438 -0.20080608
0.0099524483 0.39014718 -0.1920777
-0.004138954 0.40168768 -0.20079798
0.0099528879 0.40383783 -0.19206959
0.0099533275 0.41752863 -0.19206154
0.024184942 -0.39187232 -0.18324649
0.024184942 -0.37811565 -0.18324649
0.024184443 -0.36435756 -0.18325472
0.024183936 -0.35059953 -0.18326283
-0.22346434 -0.33691236 -0.18285376
0.024183936 -0.33684304 -0.18326288
-0.085867964 -0.32385021 -0.17853898
0.024183437 -0.32308528 -0.18327105
-0.26489815 -0.30963141 -0.18130589
-0.099638194 -0.30960485 -0.18147796
0.024183437 -0.30932882 -0.18327099
-0.11345252 -0.29625371 -0.17861301
0.024183437 -0.29557243 -0.18327099
0.024183437 -0.28181604 -0.18327099
0.024183437 -0.26805949 -0.18327111
0.024183936 -0.25430411 -0.18326294
0.024183936 -0.24054766 -0.18326288
0.024183936 -0.2267912 -0.18326288
-0.18212152 -0.21295691 -0.18403959
0.024184443 -0.21303546 -0.18325478
0.024184443 -0.19927898 -0.18325472
-0.19591483 -0.18551478 -0.18334466
0.024184942 -0.18552303 -0.18324661
-0.40231356 -0.17178535 -0.18300116
0.024184942 -0.17176643 -0.18324649
-0.20971887 -0.15805124 -0.18264914
0.024184443 -0.15800931 -0.18325472
0.024184443 -0.14425279 -0.18325466
-0.42918617 -0.1303294 -0.18634945
-0.22353366 -0.13056636 -0.18195319
0.024184443 -0.1304962 -0.18325472
0.024184942 -0.11674006 -0.18324649
-0.2374669 -0.10310898 -0.17998505
0.024184942 -0.1029834 -0.18324661
-0.23712701 -0.089203581 -0.18399876
0.024184942 -0.08922676 -0.18324661
-0.23678866 -0.075360566 -0.18799448
0.024184942 -0.075470105 -0.18324661
0.024184942 -0.061713599 -0.18324649
0.024184942 -0.047956958 -0.18324649
0.024184942 -0.034200314 -0.18324649
-0.48547557 -0.020420738 -0.18026417
0.024184443 -0.020443745 -0.18325472
-0.25104561 -0.0066707358 -0.18218249
0.024184443 -0.0066872407 -0.18325466
-0.25067577 0.0070016086 -0.18618637
-0.25041482 0.020648677 -0.18901104
-0.25078881 0.034516729 -0.18496269
-0.25116524 0.048448347 -0.18088764
0.024184443 0.048339032 -0.18325472
0.024184443 0.062095515 -0.18325466
0.024184942 0.07585264 -0.18324661
0.024184942 0.089609139 -0.18324649
0.024184942 0.10336577 -0.18324649
-0.23688933 0.11682104 -0.18680578
0.024184942 0.11712243 -0.18324643
-0.23723367 0.13092589 -0.1827392
0.024185449 0.13087982 -0.18323839
0.024185449 0.14463648 -0.18323839
0.024184942 0.15839231 -0.18324661
0.024184443 0.17214793 -0.18325472
0.024184443 0.1859045 -0.18325478
0.024184443 0.19966102 -0.18325466
0.024183936 0.21341646 -0.18326294
-0.19617635 0.22778207 -0.17909801
0.024183936 0.22717291 -0.18326288
0.024183936 0.24092942 -0.18326283
-0.18234842 0.25524104 -0.179829
0.024183437 0.25468463 -0.18327105
-0.168302 0.26805776 -0.18553388
0.024183936 0.26844236 -0.18326283
-0.15444136 0.2812373 -0.18869394
0.024183936 0.28219885 -0.18326283
0.024183936 0.29595539 -0.18326294
0.024183437 0.30971032 -0.18327099
0.024183437 0.32346666 -0.18327099
0.024183437 0.33722311 -0.18327099
0.024183437 0.35097966 -0.18327105
0.024183437 0.36473596 -0.18327111
0.024183437 0.37849241 -0.18327105
0.024183936 0.39225084 -0.18326283
0.024184443 0.40600929 -0.18325472
0.024184942 0.41976783 -0.18324649
-0.0030557439 -0.43445942 -0.17734575
0.038558938 -0.39365581 -0.17433542
-0.0028949454 -0.37992126 -0.17386442
0.038558364 -0.37982905 -0.17434371
0.03855779 -0.36600235 -0.17435187
-0.044435594 -0.35184848 -0.17620885
0.03855779 -0.35217726 -0.17435193
0.038557217 -0.33835077 -0.17436022
0.038556658 -0.3245244 -0.17436844
0.038556658 -0.31069943 -0.1743685
0.038556658 -0.29687446 -0.1743685
-0.12731099 -0.28285855 -0.17574698
0.038557217 -0.28305078 -0.17436022
-0.14121386 -0.26942042 -0.17287195
0.038557217 -0.26922566 -0.17436028
-0.33502778 -0.25567576 -0.17212689
-0.15516137 -0.25593922 -0.16998756
0.038557217 -0.25540063 -0.17436028
-0.34876829 -0.24175319 -0.17282236
-0.16915408 -0.24241567 -0.16708565
0.038557217 -0.24157563 -0.17436028
-0.36314005 -0.22829077 -0.16934824
0.038557217 -0.2277506 -0.17436022
0.03855779 -0.21392643 -0.17435193
-0.1967185 -0.20047617 -0.1702947
0.038558364 -0.20010209 -0.17434371
0.038558364 -0.18627691 -0.17434376
-0.21062371 -0.1728178 -0.1695891
0.038558364 -0.17245179 -0.17434365
-0.41805813 -0.15877168 -0.17225105
0.03855779 -0.15862608 -0.17435199
-0.22453919 -0.14513734 -0.16889107
0.03855779 -0.14480099 -0.17435193
0.03855779 -0.13097596 -0.17435193
-0.44568431 -0.11723492 -0.17253262
-0.23846614 -0.11743573 -0.16818434
0.038558364 -0.11715119 -0.17434376
0.038558364 -0.1033261 -0.17434371
-0.45927235 -0.089519545 -0.17374039
0.038558364 -0.089500904 -0.17434371
0.038558364 -0.0756758 -0.17434365
-0.47284752 -0.061841756 -0.17492181
-0.25216523 -0.048058417 -0.17006224
-0.25179034 -0.034200352 -0.1741206
-0.4882243 -0.034200333 -0.16795129
-0.25141716 -0.020404508 -0.17816067
-0.50157666 0.0073705055 -0.17021173
-0.25154337 0.062443711 -0.17679405
-0.25192252 0.076502718 -0.1726898
-0.25230414 0.090626799 -0.1685586
0.038558938 0.11787698 -0.17433542
0.038558938 0.13170227 -0.17433542
-0.23772803 0.14527065 -0.17690098
0.038558938 0.14552739 -0.17433536
0.038558364 0.15935168 -0.17434365
-0.22386616 0.17279696 -0.17763388
0.038558364 0.17317688 -0.17434365
0.03855779 0.18700105 -0.17435199
-0.21001559 0.20030072 -0.17836624
0.03855779 0.20082614 -0.17435193
0.03855779 0.21465117 -0.17435187
0.038557217 0.22847503 -0.17436028
0.038557217 0.24230015 -0.17436022
0.038557217 0.25612512 -0.17436022
0.038557217 0.26995009 -0.17436022
0.038557217 0.28377518 -0.17436016
0.038557217 0.29760012 -0.17436016
0.038557217 0.31142524 -0.17436016
0.038557217 0.32525018 -0.17436016
-0.11360092 0.34019473 -0.16897422
0.038556658 0.33907348 -0.1743685
-0.099709667 0.35336745 -0.17219311
0.038556658 0.35289851 -0.17436844
0.038556658 0.36672345 -0.17436832
-0.058257803 0.37995201 -0.17695051
0.038557217 0.38055032 -0.17436016
0.038557217 0.39437529 -0.17436022
-0.016725682 0.40831023 -0.17391396
0.03855779 0.40820232 -0.17435193
0.038558364 0.42202955 -0.17434371
0.038558938 0.43585691 -0.17433542
0.067739181 -0.41123608 -0.15626919
0.053076364 -0.39545557 -0.16534334
0.067739882 -0.39727348 -0.15626079
0.067739882 -0.38330907 -0.15626085
-0.15546948 -0.38220793 -0.16198254
0.053075723 -0.38155958 -0.16535163
-0.18358982 -0.36924666 -0.15679157
-0.030004334 -0.36938214 -0.15605849
0.053075723 -0.3676652 -0.16535163
0.067739181 -0.36934319 -0.15626919
0.053075083 -0.35376933 -0.16536003
0.067738466 -0.35537738 -0.15627766
-0.071920402 -0.34104678 -0.15844119
0.053074442 -0.33987367 -0.16536838
0.067738466 -0.34141323 -0.1562776
-0.25329471 -0.32719707 -0.1578356
0.053074442 -0.32597938 -0.16536838
0.067737751 -0.32744759 -0.156286
0.067737751 -0.31348351 -0.15628594
0.053073786 -0.31208384 -0.16537666
0.053073786 -0.29818958 -0.16537672
0.067737751 -0.29951924 -0.156286
-0.30898345 -0.2852053 -0.15881103
0.053074442 -0.28429666 -0.16536832
0.067737751 -0.28555518 -0.15628594
-0.32205585 -0.27038822 -0.16547692
0.053074442 -0.27040234 -0.16536838
0.067738466 -0.27159208 -0.15627766
0.053074442 -0.2565082 -0.16536838
0.067738466 -0.25762787 -0.15627766
0.067738466 -0.24366364 -0.15627772
0.053074442 -0.24261391 -0.16536838
-0.18319154 -0.22884747 -0.16418272
0.053074442 -0.22871971 -0.16536838
0.067738466 -0.2296994 -0.1562776
-0.37756744 -0.21477616 -0.16586059
-0.19753347 -0.21565673 -0.15706116
0.053075083 -0.21482632 -0.16536003
0.067739181 -0.21573606 -0.15626919
-0.3920494 -0.20120835 -0.16236782
0.053075723 -0.20093277 -0.16535175
0.067739181 -0.20177177 -0.15626919
-0.40675431 -0.1876677 -0.15791965
-0.21154127 -0.18780103 -0.15634513
0.053075723 -0.18703833 -0.16535169
0.067739882 -0.18780813 -0.15626079
0.067739181 -0.17384323 -0.15626919
0.053075723 -0.17314401 -0.16535169
-0.22556013 -0.15992326 -0.15562838
0.053075723 -0.1592496 -0.16535169
0.067739181 -0.15987894 -0.15626919
-0.43399489 -0.14560093 -0.16136265
0.053075083 -0.14535475 -0.16536009
0.067738466 -0.14591408 -0.15627766
0.053075083 -0.13146041 -0.16536009
0.067739181 -0.13195029 -0.15626919
0.053075723 -0.11756651 -0.16535175
-0.46306318 -0.10405131 -0.1555019
-0.25330091 -0.090011269 -0.15776825
-0.47676989 -0.076082706 -0.15672421
-0.2529209 -0.075963549 -0.16188204
-0.25254259 -0.061979435 -0.1659773
-0.49100921 -0.048170645 -0.15547663
-0.50445229 -0.0062947161 -0.15775979
-0.2674408 -0.0062659867 -0.15589827
-0.26702827 0.0076059513 -0.16002065
-0.26677743 0.02146405 -0.16252685
-0.26719558 0.035541072 -0.15834868
-0.25268674 0.10481533 -0.16441661
-0.2530719 0.11906997 -0.16024721
-0.25345808 0.1333898 -0.15606689
-0.23889846 0.16056573 -0.16307914
0.053076364 0.16032171 -0.16534328
0.053075723 0.1742152 -0.16535163
0.067739181 0.17526397 -0.15626925
-0.22492865 0.18829679 -0.16383171
0.053075723 0.18810958 -0.16535169
0.067739181 0.18922827 -0.15626919
0.053075083 0.20200285 -0.16536003
0.067739181 0.20319253 -0.15626925
-0.21097106 0.21600586 -0.16457522
0.053075083 0.21589711 -0.16536009
0.067738466 0.21715561 -0.15627766
0.053075083 0.22979143 -0.16535991
0.067738466 0.23111981 -0.15627772
-0.19702497 0.24369213 -0.16531831
0.053074442 0.24368444 -0.16536838
0.067738466 0.24508411 -0.15627748
0.053074442 0.25757867 -0.16536838
0.067738466 0.25904834 -0.15627766
0.053074442 0.27147287 -0.16536826
0.067738466 0.27301258 -0.15627766
-0.16966614 0.28702593 -0.15599948
0.053074442 0.28536713 -0.16536838
0.067738466 0.28697675 -0.15627766
-0.15557441 0.30039063 -0.1592564
0.053074442 0.29926136 -0.16536826
0.067738466 0.30094093 -0.15627766
-0.14153293 0.31370565 -0.16251004
0.053074442 0.31315565 -0.16536838
0.067737751 0.31490359 -0.15628612
-0.12754202 0.32697475 -0.16574371
0.053074442 0.32704985 -0.16536826
0.067737751 0.3288677 -0.15628612
0.053074442 0.34094414 -0.16536838
0.067737751 0.34283191 -0.15628612
0.053073786 0.35483658 -0.16537672
0.067737751 0.35679597 -0.15628612
0.053073786 0.36873078 -0.16537666
0.067737751 0.37076014 -0.15628594
0.053074442 0.38262689 -0.16536826
0.067737751 0.38472438 -0.156286
0.053075083 0.39652303 -0.16536003
0.067738466 0.39869049 -0.1562776
0.053075723 0.41041952 -0.16535169
0.067739181 0.41265681 -0.15626913
0.053075723 0.4243139 -0.16535169
0.067739882 0.4266232 -0.15626079
0.053076364 0.4382104 -0.16534334
0.067739882 0.44058758 -0.15626073
0.082621761 -0.4554247 -0.14632827
0.054660954 -0.41362837 -0.14475906
0.082551725 -0.41314465 -0.14708638
0.082551725 -0.39910969 -0.14708644
0.082551725 -0.38507468 -0.14708632
0.08255095 -0.37103814 -0.14709491
-0.21187204 -0.3562108 -0.1515708
0.08255095 -0.35700327 -0.14709479
0.082550175 -0.34296688 -0.14710343
0.082549371 -0.32893062 -0.14711189
-0.11386522 -0.31417292 -0.1518079
0.082549371 -0.31489587 -0.14711189
-0.29581413 -0.30013213 -0.15209591
-0.12793203 -0.30060607 -0.14885569
0.082549371 -0.30086115 -0.14711189
-0.14204459 -0.2869952 -0.14589357
0.082549371 -0.28682637 -0.14711183
0.082550175 -0.27279264 -0.14710337
0.082550175 -0.25875786 -0.14710337
0.082550175 -0.24472296 -0.14710337
0.082550175 -0.23068815 -0.14710337
0.08255095 -0.21665415 -0.14709485
0.082551725 -0.20262 -0.14708638
0.082551725 -0.1885851 -0.14708626
-0.42274827 -0.17456713 -0.14686495
0.08255095 -0.17454949 -0.14709485
0.08255095 -0.16051447 -0.14709485
-0.45012411 -0.13226929 -0.15034992
-0.23959011 -0.13202348 -0.15491116
-0.25368267 -0.10412313 -0.15363556
-0.26827154 -0.034200333 -0.14759707
-0.507366 -0.020150408 -0.14514297
-0.26785523 -0.020201294 -0.15175706
-0.26761562 0.049683221 -0.1541512
-0.26803678 0.063890569 -0.14994258
-0.26846078 0.078164481 -0.14570606
-0.25417605 0.14813343 -0.14829445
-0.24008632 0.17609745 -0.14905101
-0.22600764 0.20403707 -0.14981526
0.08255095 0.20439309 -0.14709479
0.08255095 0.21842799 -0.14709485
-0.21194136 0.23195454 -0.15057051
0.082550175 0.23246169 -0.14710337
0.082550175 0.24649656 -0.14710337
-0.19800271 0.26015338 -0.1494416
0.082550175 0.26053134 -0.14710337
-0.18380864 0.27361321 -0.15273076
0.082550175 0.27456623 -0.14710325
0.082550175 0.2886011 -0.14710337
0.082550175 0.30263585 -0.14710337
0.082550175 0.31667072 -0.14710337
0.082549371 0.33070394 -0.14711183
0.082549371 0.34473872 -0.14711183
0.082549371 0.3587735 -0.14711183
-0.085867964 0.37119725 -0.15432858
0.082549371 0.37280813 -0.14711183
0.082549371 0.38684303 -0.14711189
-0.04385858 0.39989662 -0.1512233
0.082550175 0.40087983 -0.14710331
0.08255095 0.41491669 -0.14709479
-0.0017048866 0.42869657 -0.14809883
0.082551725 0.4289538 -0.14708632
0.082551725 0.44298878 -0.14708632
0.08255095 0.45702145 -0.14709479
0.097513311 -0.42917538 -0.13782716
0.097514175 -0.41507092 -0.13781863
0.097514175 -0.40096462 -0.13781857
-0.015244886 -0.38731575 -0.13544172
0.097514175 -0.38685822 -0.13781863
0.097514175 -0.37275192 -0.13781863
-0.057656385 -0.35863349 -0.13788736
0.097513311 -0.35864407 -0.13782722
-0.24138054 -0.34522542 -0.13376725
0.097512461 -0.34453639 -0.13783574
-0.099955037 -0.33002889 -0.1403181
0.097512461 -0.33043024 -0.13783586
-0.28397289 -0.3172074 -0.13209838
0.097511597 -0.31632268 -0.13784444
0.097511597 -0.30221659 -0.13784444
0.097511597 -0.28811049 -0.1378445
-0.15620312 -0.2733399 -0.14292186
0.097512461 -0.2740055 -0.13783574
-0.17040825 -0.25964108 -0.13993204
0.097512461 -0.25989932 -0.13783574
-0.36852899 -0.24619606 -0.13434589
-0.18465948 -0.24589643 -0.13694096
0.097512461 -0.24579313 -0.13783586
-0.19895737 -0.23210683 -0.13393992
0.097512461 -0.23168692 -0.13783586
0.097514175 -0.2175824 -0.13781863
-0.21247244 -0.2030063 -0.14290476
0.097514175 -0.20347613 -0.13781857
0.097514175 -0.18936986 -0.13781857
-0.22659561 -0.17492795 -0.1421774
0.097513311 -0.17526287 -0.13782722
-0.43893859 -0.16130573 -0.13567448
-0.24072999 -0.14682725 -0.14144963
-0.46693173 -0.1188812 -0.13688922
-0.25487566 -0.11870419 -0.14072108
-0.48077631 -0.090615802 -0.13813674
-0.26953286 -0.076584585 -0.13499314
-0.49460396 -0.062389005 -0.13937408
-0.26911077 -0.062391587 -0.13921088
-0.26868975 -0.048263539 -0.14341778
-0.51032257 -0.034200333 -0.13234067
-0.52391016 0.0081908181 -0.13469112
-0.28386757 0.0082281642 -0.13307583
-0.28363487 0.022304527 -0.13523471
-0.26888588 0.09250439 -0.14145821
-0.26931381 0.10691183 -0.13718188
-0.26974288 0.12138609 -0.13289416
-0.25549328 0.1636959 -0.13403505
-0.24129277 0.19187218 -0.13480335
0.097513311 0.20560595 -0.13782716
-0.2271035 0.2200236 -0.13557953
0.097513311 0.2197122 -0.13782716
0.097513311 0.23381841 -0.13782716
-0.2129274 0.24815401 -0.13633806
0.097512461 0.24792328 -0.13783574
0.097512461 0.26202953 -0.13783574
0.097512461 0.27613574 -0.13783574
0.097512461 0.29024196 -0.13783574
0.097512461 0.3043482 -0.13783574
0.097512461 0.31845424 -0.13783574
-0.14246644 0.33368978 -0.13219357
0.097512461 0.33256048 -0.13783574
-0.12823942 0.34714276 -0.13554513
0.097511597 0.34666488 -0.13784438
0.097511597 0.36077106 -0.13784444
0.097511597 0.37487713 -0.13784438
0.097512461 0.38898522 -0.13783592
0.097512461 0.40309146 -0.13783586
0.097513311 0.4171997 -0.13782722
0.097514175 0.43130818 -0.13781852
0.097514175 0.44541445 -0.13781863
0.097513311 0.45951852 -0.13782716
0.0983086 -0.45922324 -0.12988007
0.11289392 -0.46011862 -0.12600267
0.013736956 -0.44684926 -0.12184626
0.11262856 -0.43119338 -0.12846482
0.1126295 -0.41701683 -0.12845623
-0.12841216 -0.40291673 -0.12806511
0.013752043 -0.40421748 -0.12156618
0.11263043 -0.4028402 -0.12844747
0.1126295 -0.38866007 -0.12845623
0.1126295 -0.37448174 -0.12845618
0.11262856 -0.36030176 -0.12846488
0.11262856 -0.34612343 -0.12846482
0.11262763 -0.33194372 -0.12847358
-0.12857196 -0.31889364 -0.12114584
0.11262669 -0.31776416 -0.12848222
0.11262669 -0.30358595 -0.12848222
0.11262763 -0.28940892 -0.12847358
-0.34183612 -0.27594799 -0.12299204
0.11262763 -0.27523071 -0.12847358
-0.3550415 -0.26087281 -0.12993211
0.11262856 -0.2610535 -0.12846494
0.11262856 -0.24687517 -0.12846482
-0.383248 -0.2324537 -0.13072121
0.11262856 -0.23269689 -0.12846482
-0.39802375 -0.21865606 -0.12709099
-0.2134175 -0.21843857 -0.12926388
0.1126295 -0.21851939 -0.12845623
-0.4128595 -0.20480457 -0.12343764
0.11263043 -0.20434183 -0.12844747
-0.2276465 -0.19015673 -0.12852579
0.1126295 -0.19016263 -0.12845623
-0.24188691 -0.16185224 -0.12778687
-0.45532879 -0.14788058 -0.12434584
-0.25613877 -0.13352492 -0.12704748
-0.27040118 -0.10517468 -0.12631613
-0.26995689 -0.090843052 -0.1307559
-0.49882975 -0.076920502 -0.12044489
-0.28478488 -0.019991975 -0.12456399
-0.52700049 -0.0057401359 -0.12174124
-0.28432518 -0.005849259 -0.12882978
-0.28409797 0.036596075 -0.13093787
-0.28456414 0.050955214 -0.12661225
-0.28503254 0.065381974 -0.12226629
-0.270174 0.1359283 -0.12858659
-0.24251828 0.20789555 -0.12033099
0.11262856 0.22100952 -0.12846488
-0.22821662 0.23626211 -0.12111962
0.11262856 0.2351878 -0.12846482
0.11262856 0.24936607 -0.12846482
0.11262856 0.26354441 -0.12846494
0.11262856 0.27772281 -0.12846482
-0.18546015 0.2930311 -0.12208241
0.11262856 0.29190111 -0.12846482
-0.17107658 0.30663413 -0.12546223
0.11262856 0.30607939 -0.12846482
-0.1567452 0.32018581 -0.12883842
0.11262763 0.32025614 -0.12847358
0.11262763 0.33443439 -0.12847358
0.11262763 0.34861264 -0.12847358
-0.1141832 0.36221287 -0.13115454
0.11262669 0.36278898 -0.12848222
0.11262669 0.37696713 -0.12848228
-0.071685627 0.39126971 -0.1279434
0.11262763 0.39114743 -0.12847358
0.11262856 0.40532762 -0.12846482
0.1126295 0.41950813 -0.12845612
-0.029039927 0.42042401 -0.12473845
0.1126295 0.43368649 -0.12845623
0.11263043 0.44786721 -0.12844747
0.1126295 0.46204326 -0.12845623
-0.043119222 -0.43318862 -0.11920816
0.12789905 -0.4332321 -0.11900628
0.14332828 -0.43529379 -0.10944146
0.12790108 -0.41898465 -0.11898887
0.14332938 -0.42097086 -0.10943258
0.14332938 -0.40664607 -0.10943252
0.12790108 -0.40473336 -0.11898887
0.12790006 -0.39048034 -0.11899763
0.14332828 -0.3923195 -0.1094414
-0.043065038 -0.37662375 -0.116862
0.12790108 -0.37623084 -0.11898881
0.14332938 -0.37799633 -0.10943258
0.12790006 -0.36197802 -0.11899769
0.14332828 -0.36366993 -0.10944146
0.14332718 -0.34934369 -0.10945028
-0.085867964 -0.34766731 -0.1193487
0.12789905 -0.34772533 -0.11900645
0.12789804 -0.33347276 -0.11901516
0.14332718 -0.33501899 -0.10945028
0.12789804 -0.31922171 -0.11901516
0.1433261 -0.32069293 -0.10945916
-0.14290063 -0.30510548 -0.11809295
0.12789804 -0.30497065 -0.1190151
0.1433261 -0.30636829 -0.10945922
-0.32853079 -0.29113743 -0.11599928
-0.15727669 -0.29127178 -0.11502999
0.12789804 -0.29071957 -0.1190151
0.1433261 -0.29204375 -0.10945904
-0.17170078 -0.27739328 -0.11194801
0.12789804 -0.27646852 -0.1190151
0.1433261 -0.27771905 -0.10945916
-0.1861724 -0.26346764 -0.10886472
0.12789905 -0.26221853 -0.1190064
0.14332718 -0.26339546 -0.10945028
0.12789905 -0.24796733 -0.11900645
0.14332718 -0.24907076 -0.10945028
0.12789905 -0.23371622 -0.11900645
0.14332718 -0.23474604 -0.10945028
0.14332828 -0.2204223 -0.1094414
0.12790006 -0.21946591 -0.11899763
-0.22871393 -0.20561546 -0.11465967
0.12790108 -0.2052156 -0.11898875
0.14332938 -0.20609832 -0.10943252
-0.42774931 -0.190896 -0.11979616
-0.44402638 -0.17746371 -0.10923737
-0.24306202 -0.177104 -0.11390972
-0.2574209 -0.148569 -0.11316788
-0.47192451 -0.13428904 -0.11286747
-0.27179217 -0.12001149 -0.11241674
-0.48486567 -0.10544991 -0.11916435
-0.2861779 -0.062816046 -0.11163837
-0.51332092 -0.048448808 -0.11935741
-0.28571174 -0.048474852 -0.11596411
-0.28524676 -0.034200404 -0.1202783
-0.28550217 0.079876371 -0.11790842
-0.28597501 0.094439961 -0.11352122
-0.2864491 0.10907187 -0.10912198
-0.27115643 0.15108821 -0.11876935
-0.25683132 0.17950386 -0.11955047
0.12789905 0.23657122 -0.1190064
0.12789905 0.2508224 -0.1190064
0.14332718 0.25229356 -0.10945022
-0.21438658 0.26567638 -0.11527687
0.12789905 0.26507345 -0.11900645
0.14332718 0.26661834 -0.10945028
-0.1998965 0.27937809 -0.11869025
0.12789905 0.27932465 -0.1190064
0.14332718 0.28094304 -0.10945028
0.12789905 0.29357579 -0.1190064
0.14332718 0.29526776 -0.10945028
0.12789905 0.30782682 -0.1190064
0.14332718 0.30959243 -0.10945028
0.12789804 0.32207638 -0.1190151
0.14332718 0.32391715 -0.10945028
0.12789804 0.33632737 -0.1190151
0.1433261 0.33824006 -0.10945916
0.12789804 0.3505784 -0.11901516
0.1433261 0.35256469 -0.10945898
0.12789804 0.3648296 -0.1190151
0.1433261 0.36688927 -0.10945904
0.12789804 0.37908062 -0.1190151
0.1433261 0.38121399 -0.10945904
0.12789804 0.39333171 -0.11901516
0.1433261 0.39553851 -0.10945916
0.12789905 0.40758485 -0.1190064
0.14332718 0.40986523 -0.10945022
0.12790006 0.42183813 -0.11899763
0.14332828 0.42419219 -0.10944134
0.12790108 0.43609151 -0.11898887
0.14332938 0.43851927 -0.10943252
0.12790108 0.45034286 -0.11898881
0.14332938 0.45284408 -0.10943234
0.12790006 0.46459165 -0.11899763
0.14332828 0.46716645 -0.10944134
0.12789905 0.47884038 -0.1190064
0.14332718 0.48148879 -0.10945022
0.029129192 -0.45106503 -0.10296196
0.15891662 -0.43737495 -0.099785984
0.15891778 -0.42297778 -0.099777043
0.15891778 -0.40857849 -0.099777043
0.15891662 -0.39417771 -0.099785984
0.15891778 -0.37978023 -0.099777043
-0.071454301 -0.36571458 -0.097893238
0.15891778 -0.36538106 -0.099777102
0.15891662 -0.35098037 -0.099786043
-0.27230319 -0.33536491 -0.10731035
-0.11465608 -0.33647555 -0.10043985
0.15891546 -0.33657986 -0.099794924
0.15891427 -0.32217944 -0.099803865
-0.31553385 -0.30692858 -0.10562867
0.15891427 -0.3077805 -0.099803925
0.15891427 -0.29338154 -0.099803865
0.15891427 -0.27898255 -0.099803925
0.15891546 -0.26458472 -0.099794924
-0.20069212 -0.24949563 -0.10577106
0.15891662 -0.25018674 -0.099785984
-0.21526018 -0.23547709 -0.10266727
0.15891662 -0.23578763 -0.099785924
-0.22987753 -0.22141278 -0.099543929
0.15891662 -0.22138858 -0.099785984
-0.2442542 -0.19258654 -0.099830866
-0.46068615 -0.16394511 -0.097578764
-0.25872332 -0.16384184 -0.09906882
-0.27320427 -0.13507372 -0.098306239
-0.48904064 -0.12059449 -0.099794924
-0.28769603 -0.10628182 -0.097551882
-0.50314778 -0.091756187 -0.10110241
-0.28711683 -0.09169998 -0.10292631
-0.28664628 -0.077224255 -0.10729241
-0.51724142 -0.062958568 -0.10238123
-0.53013265 -0.01986919 -0.10861617
-0.30172095 -0.00541991 -0.10094136
-0.5471428 0.0090441443 -0.097740412
-0.30121571 0.0088692419 -0.10531682
-0.30100811 0.023170389 -0.10711467
-0.30152065 0.037683852 -0.10267609
-0.3020356 0.052266739 -0.098216355
-0.28692642 0.12377415 -0.10469306
-0.28740507 0.13854575 -0.10025185
-0.27263024 0.16692832 -0.10404199
-0.2581906 0.19556314 -0.10483569
-0.24376324 0.22417372 -0.10562867
-0.22934815 0.25275996 -0.10642087
0.15891662 0.25378159 -0.099785984
0.15891662 0.26818064 -0.099785984
0.15891662 0.28257972 -0.099785984
0.15891662 0.2969788 -0.099785984
0.15891546 0.31137627 -0.099794984
0.15891546 0.32577527 -0.099794865
-0.15795633 0.3406592 -0.097372174
0.15891546 0.34017429 -0.099794865
-0.14343096 0.35434997 -0.10086972
0.15891427 0.35457146 -0.099803865
0.15891427 0.36897033 -0.099803865
-0.10023409 0.38241732 -0.10406882
0.15891427 0.38336942 -0.099803865
0.15891546 0.39777035 -0.099794865
-0.057085082 0.41193432 -0.10078025
0.15891546 0.41216949 -0.099794865
0.15891662 0.42657062 -0.099785924
0.15891778 0.44097206 -0.099776924
0.15891778 0.45537117 -0.099777102
0.15891662 0.4697679 -0.099786043
0.15891546 0.48416445 -0.099794924
0.17466754 -0.4394778 -0.090029895
0.17466882 -0.42500547 -0.090020835
0.17466882 -0.41053122 -0.090020835
-0.028133839 -0.3950386 -0.095312357
0.17466754 -0.39605522 -0.090029895
-0.20190015 -0.38229695 -0.086155236
0.17466882 -0.38158271 -0.090020895
0.17466882 -0.3671084 -0.090020835
0.17466754 -0.35263267 -0.090029836
0.17466629 -0.33815697 -0.090039015
0.17466629 -0.3236829 -0.090038955
-0.15838352 -0.3097595 -0.086273551
0.17466506 -0.30920747 -0.090047956
0.17466506 -0.29473332 -0.090048075
0.17466629 -0.28026044 -0.090038955
-0.37601423 -0.2663174 -0.085727751
0.17466629 -0.26578635 -0.090038896
-0.38934231 -0.25096771 -0.093022406
0.17466754 -0.25131327 -0.090029836
-0.40423742 -0.23679906 -0.090400994
0.17466754 -0.23683903 -0.090029836
-0.41938001 -0.22270715 -0.08660984
0.17466882 -0.22236577 -0.090020835
-0.24546459 -0.20830575 -0.085536778
-0.47755596 -0.15025604 -0.08577323
-0.30325207 -0.048692577 -0.087681592
-0.53331172 -0.034200367 -0.095294416
-0.30273858 -0.034200367 -0.092128336
-0.30222857 -0.019776365 -0.096545219
-0.30255198 0.066918872 -0.093744278
-0.30307192 0.081641741 -0.089241624
-0.28869623 0.1541402 -0.088271558
-0.27412769 0.18302247 -0.089078486
-0.2595717 0.21187991 -0.089885056
-0.24502817 0.24071279 -0.090690672
0.17466754 0.25528353 -0.090029836
0.17466754 0.26975781 -0.090029836
0.17466754 0.28423199 -0.090029776
-0.20185593 0.29926506 -0.086873174
0.17466754 0.29870611 -0.090029836
-0.18716782 0.31311342 -0.090391994
0.17466629 0.31317872 -0.090038896
-0.17253491 0.32691199 -0.093888521
0.17466629 0.32765287 -0.090039015
0.17466629 0.34212691 -0.090038896
0.17466629 0.35660115 -0.090038955
0.17466629 0.37107518 -0.090038896
0.17466506 0.38554728 -0.090047896
0.17466629 0.40002349 -0.090038896
0.17466754 0.41449976 -0.090029836
0.17466882 0.42897609 -0.090020835
0.17466882 0.44345051 -0.090020776
0.17466882 0.45792469 -0.090020835
0.17466754 0.47239652 -0.090029836
0.17466629 0.48686829 -0.090038955
0.044838555 -0.45536578 -0.083697021
0.19058368 -0.4416028 -0.080171466
0.19058633 -0.4270564 -0.080153227
0.19058633 -0.41250622 -0.080153227
0.19058499 -0.39795429 -0.080162227
-0.056702558 -0.38418519 -0.07593447
0.19058499 -0.38340408 -0.080162287
-0.23134276 -0.36879241 -0.080509961
0.19058499 -0.3688539 -0.080162287
-0.2609615 -0.35520518 -0.07483995
-0.10043067 -0.35457987 -0.078532159
0.19058368 -0.35430226 -0.080171406
0.19058368 -0.33975211 -0.080171525
-0.30412561 -0.32521054 -0.08011651
0.19058233 -0.32520068 -0.080180526
-0.14403874 -0.32505423 -0.081131756
0.19058233 -0.31065062 -0.080180645
-0.17303345 -0.29569679 -0.083095133
0.19058233 -0.29610059 -0.080180585
-0.36257145 -0.28177714 -0.078449547
-0.18773237 -0.28158531 -0.079915285
0.19058233 -0.28155062 -0.080180645
-0.20248091 -0.26742622 -0.076724589
0.19058233 -0.26700056 -0.080180526
0.19058368 -0.2524516 -0.080171466
0.19058368 -0.23790157 -0.080171406
0.19058499 -0.22335237 -0.080162227
-0.43458551 -0.20855907 -0.08279407
-0.44984743 -0.19435132 -0.078990221
-0.26004484 -0.17934766 -0.08476311
-0.27463707 -0.15036596 -0.083988726
-0.49463984 -0.13639328 -0.073818028
-0.28924128 -0.12136036 -0.083213627
-0.50755709 -0.10690536 -0.081351101
-0.30480397 -0.092583261 -0.074241638
-0.52179229 -0.077792808 -0.082675338
-0.30428421 -0.077883586 -0.078742802
-0.30376691 -0.063253514 -0.083222806
-0.53653663 -0.048738036 -0.081780553
-0.55046302 -0.0051631723 -0.084261954
-0.31909728 0.0095301196 -0.076696932
-0.31892321 0.024063487 -0.078110278
-0.30359325 0.096434869 -0.084726632
-0.30411819 0.11129982 -0.080180526
-0.30464461 0.12623584 -0.075621843
-0.27564937 0.19937688 -0.073873222
-0.26097512 0.22846034 -0.074692607
-0.24631429 0.25752035 -0.075502276
-0.231397 0.27141064 -0.079805255
0.19058368 0.27135143 -0.080171466
-0.21659848 0.28536326 -0.08335048
0.19058368 0.28590149 -0.080171406
0.19058368 0.30045173 -0.080171466
0.19058368 0.3150017 -0.080171406
0.19058233 0.32955012 -0.080180526
0.19058233 0.34410006 -0.080180526
0.19058233 0.35865006 -0.080180526
-0.12953238 0.37333429 -0.079558194
0.19058233 0.37320009 -0.080180526
0.19058233 0.38775015 -0.080180585
-0.085867964 0.40322337 -0.076182485
0.19058233 0.40230006 -0.080180645
0.19058368 0.41685233 -0.080171466
0.19058499 0.43140474 -0.080162287
0.19058499 0.44595483 -0.080162227
0.19058499 0.46050495 -0.080162227
0.19058368 0.47505274 -0.080171525
0.19058368 0.48960277 -0.080171466
0.060634367 -0.45905709 -0.067161918
0.075635739 -0.45998287 -0.063015342
0.20666897 -0.44375202 -0.070199907
0.20667037 -0.42912713 -0.070190668
0.20667037 -0.41450018 -0.070190668
0.20666897 -0.3998715 -0.070199847
0.20666897 -0.3852447 -0.070199847
0.20666897 -0.37061787 -0.070199788
0.20666897 -0.35599098 -0.070199847
0.20666754 -0.3413626 -0.070209146
0.20666611 -0.32673436 -0.070218384
0.20666611 -0.31210768 -0.070218444
-0.34902313 -0.29735553 -0.071124077
0.20666611 -0.29748106 -0.070218325
0.20666611 -0.28285435 -0.070218384
0.20666611 -0.26822764 -0.070218325
-0.21727934 -0.25321928 -0.073523104
0.20666754 -0.25360197 -0.070209146
-0.23212862 -0.23896521 -0.070301592
0.20666897 -0.23897615 -0.070199847
-0.24702838 -0.22466269 -0.067069054
0.20666897 -0.22434932 -0.070199847
-0.26138672 -0.19509253 -0.070236802
-0.46619931 -0.18048167 -0.070033371
-0.27609196 -0.16589385 -0.069450617
-0.29080939 -0.13667108 -0.068663538
-0.30553794 -0.1074237 -0.06788522
-0.52644449 -0.09294387 -0.062530637
-0.54081249 -0.063551582 -0.063862801
-0.32077211 -0.034200333 -0.063099146
-0.55383146 -0.019576427 -0.070588171
-0.32021001 -0.019553993 -0.067662597
-0.31965175 -0.0049773827 -0.072195232
-0.31948593 0.038805291 -0.073541522
-0.32005253 0.053618908 -0.068941414
-0.32062188 0.068504542 -0.064318776
-0.30517355 0.14124414 -0.071040988
-0.29033634 0.17026797 -0.073053002
0.19235492 0.25866586 -0.068061352
0.20666897 0.27296352 -0.070199847
0.20666897 0.28759038 -0.070199788
0.20666754 0.30221546 -0.070209146
0.20666754 0.31684232 -0.070209086
0.20666754 0.33146918 -0.070209026
0.20666611 0.34609407 -0.070218325
0.20666611 0.36072075 -0.070218384
0.20666611 0.37534738 -0.070218325
0.20666611 0.38997409 -0.070218325
0.20666611 0.40460083 -0.070218325
0.20666754 0.41922969 -0.070209026
-0.042047564 0.4332172 -0.072803974
0.20666897 0.43385869 -0.070199788
0.20666897 0.44848558 -0.070199847
0.20667037 0.46311492 -0.070190668
0.20666897 0.47773924 -0.070199788
0.20666754 0.49236366 -0.070209086
0.090702601 -0.46091256 -0.058850646
0.10583635 -0.46184844 -0.054658353
0.16504019 -0.46222019 -0.052993298
0.17941129 -0.46159464 -0.055794954
0.1937418 -0.46097317 -0.058579206
0.20802924 -0.46035129 -0.061364651
-0.026969295 -0.446491 -0.057492793
0.2229234 -0.4459222 -0.060131788
0.22292489 -0.4312197 -0.06012249
0.22292489 -0.41651535 -0.06012249
0.2229234 -0.4018091 -0.060131788
0.2229234 -0.38710475 -0.060131788
-0.085867964 -0.37311178 -0.056114137
0.2229234 -0.37240043 -0.060131907
0.2229234 -0.35769603 -0.060131907
-0.29239479 -0.34399062 -0.053953111
-0.13001233 -0.34321094 -0.058775663
0.2229234 -0.34299168 -0.060131788
0.22292188 -0.32828593 -0.060141146
-0.33689204 -0.31475666 -0.052107751
-0.17440814 -0.31457758 -0.053332031
0.22292039 -0.31358027 -0.060150445
0.22292039 -0.29887608 -0.060150564
0.22292039 -0.28417185 -0.060150564
0.22292039 -0.26946765 -0.060150564
0.22292188 -0.2547645 -0.060141087
0.2229234 -0.24006122 -0.060131907
0.2229234 -0.22535694 -0.060131907
-0.2627503 -0.2110827 -0.055475652
-0.2775704 -0.18166375 -0.054677129
-0.48335415 -0.16669571 -0.057876885
-0.29240286 -0.15222034 -0.053877831
-0.51206058 -0.12237811 -0.061177969
-0.30724666 -0.12275185 -0.053087354
-0.3219021 -0.063704602 -0.053924859
-0.32133573 -0.048917066 -0.058522999
-0.55724669 -0.034200333 -0.056723893
-0.5713324 0.0099328049 -0.059262276
-0.32119286 0.083462089 -0.059683025
-0.32176775 0.098493256 -0.055015385
-0.30682349 0.15729448 -0.056752086
-0.29200321 0.18665883 -0.057586372
-0.27719584 0.21599761 -0.058419943
-0.26240224 0.24531227 -0.059243619
0.2229234 0.27459103 -0.060131788
0.2229234 0.28929535 -0.060131788
0.22292188 0.30399805 -0.060141146
-0.20388329 0.31984565 -0.053953111
0.22292188 0.31870234 -0.060141146
-0.18893558 0.33389828 -0.057586372
0.22292188 0.33340669 -0.060141146
-0.1740436 0.3478941 -0.061224639
0.22292188 0.34811097 -0.060141146
-0.15960872 0.36399969 -0.054441988
0.22292039 0.36281323 -0.060150564
0.22292039 0.37751746 -0.060150445
-0.11541821 0.39427811 -0.050938427
0.22292039 0.39222163 -0.060150564
0.22292188 0.40692797 -0.060141146
0.22292188 0.42163229 -0.060141146
0.2229234 0.4363389 -0.060131729
0.22292489 0.45104566 -0.06012243
0.22292489 0.46575001 -0.060122371
0.2229234 0.48045197 -0.060131967
0.22292188 0.49515364 -0.060141146
0.12103563 -0.46278638 -0.050457001
0.13617039 -0.46347451 -0.047374487
0.15062702 -0.46284747 -0.050183177
0.23935258 -0.44811746 -0.049947083
0.25595623 -0.45033419 -0.039662778
0.23935258 -0.43333465 -0.049947083
0.25595793 -0.43547425 -0.039653182
0.23935258 -0.41855198 -0.049947023
0.25595623 -0.42061028 -0.039662778
-0.17493159 -0.4052988 -0.041998923
0.23935097 -0.40376732 -0.04995662
0.25595453 -0.40574652 -0.039672315
0.23935097 -0.38898468 -0.04995662
0.25595453 -0.3908847 -0.039672315
0.23935097 -0.37420195 -0.04995656
0.25595453 -0.37602282 -0.039672315
0.25595623 -0.3611626 -0.039662659
0.23935258 -0.3594209 -0.049947202
0.23935097 -0.34463662 -0.04995662
0.25595453 -0.34629917 -0.039672256
0.2393494 -0.32985252 -0.049965978
0.25595284 -0.33143583 -0.039681852
0.2393494 -0.31506985 -0.049966037
0.25595284 -0.31657407 -0.039681911
-0.18934163 -0.30027547 -0.050051093
0.2393494 -0.30028725 -0.049966037
0.25595284 -0.30171224 -0.039681852
-0.20432636 -0.2859244 -0.046758652
0.2393494 -0.28550467 -0.049965978
0.25595284 -0.28685051 -0.039681911
-0.39801928 -0.27202988 -0.039347708
-0.21936253 -0.27152395 -0.043455005
0.2393494 -0.27072206 -0.049965978
0.25595284 -0.27198878 -0.039681852
-0.4115884 -0.25628242 -0.046995521
-0.23445117 -0.25707513 -0.040130436
0.2393494 -0.25593942 -0.049965978
0.25595284 -0.25712696 -0.039681852
-0.42616758 -0.24133924 -0.048273802
0.23935097 -0.24115786 -0.04995656
0.25595453 -0.24226618 -0.039672315
-0.44169542 -0.22694016 -0.044310451
0.23935097 -0.22637513 -0.04995662
0.25595623 -0.22740537 -0.039662659
-0.45728928 -0.2124826 -0.04032129
-0.27907103 -0.19767988 -0.039681733
-0.2940203 -0.16801256 -0.038869977
-0.50073189 -0.15273288 -0.045554221
-0.53119713 -0.10842188 -0.041951299
-0.32304415 -0.093494356 -0.044652462
-0.54571205 -0.078701377 -0.043331385
-0.32247114 -0.078563467 -0.049304605
-0.56071448 -0.049039297 -0.042646289
-0.57489669 -0.0045622494 -0.0452317
-0.33814389 -0.004520813 -0.042541564
-0.33753499 0.01021149 -0.047194421
-0.33740366 0.024984568 -0.048198104
-0.3380219 0.039962545 -0.043473899
-0.32234433 0.11359739 -0.050334215
-0.32292372 0.12877551 -0.045630157
-0.32359758 0.14409688 -0.040159106
-0.30864036 0.17372066 -0.041017532
-0.29369748 0.20331913 -0.041865528
-0.2787677 0.23289162 -0.042712986
-0.26424807 0.26309985 -0.039261699
0.21098879 0.26265645 -0.042141736
0.22611204 0.26292348 -0.040407002
0.23979151 0.26185375 -0.047355473
0.25595623 0.26303813 -0.039662838
-0.24907067 0.27736849 -0.042950809
0.23935097 0.276236 -0.04995656
0.25595623 0.27790004 -0.039662659
-0.23395041 0.29158109 -0.046635449
0.23935097 0.29101858 -0.04995656
0.25595453 0.29276031 -0.039672315
-0.21888852 0.30574107 -0.050296485
0.23935097 0.3058013 -0.04995656
0.25595453 0.30762225 -0.039672256
0.2393494 0.32058221 -0.049965978
0.25595453 0.32248402 -0.039672256
0.2393494 0.33536476 -0.049965978
0.25595284 0.33734414 -0.039681852
0.2393494 0.35014752 -0.049965978
0.25595284 0.35220578 -0.039681852
0.2393494 0.36493006 -0.049965978
0.25595284 0.36706755 -0.039681852
0.2393494 0.37971261 -0.049965978
0.25595284 0.3819294 -0.039681852
0.2393494 0.39449525 -0.049965978
0.25595284 0.39679116 -0.039681852
0.2393494 0.40927792 -0.049965978
0.25595284 0.41165298 -0.039681852
-0.071066067 0.42465863 -0.047459722
0.23935097 0.42406279 -0.049956501
0.25595453 0.42651704 -0.039672256
0.23935097 0.43884543 -0.04995656
0.25595623 0.44138113 -0.039662778
0.23935258 0.45363045 -0.049947083
0.25595623 0.45624301 -0.039662659
0.23935258 0.46841332 -0.049947083
0.25595623 0.47110501 -0.039662659
0.23935097 0.48319337 -0.04995656
0.25595453 0.48596427 -0.039672256
-0.011465997 -0.45085135 -0.037263513
0.27274045 -0.43763483 -0.029257953
0.27274045 -0.42269281 -0.029257953
0.2727387 -0.40774897 -0.02926755
-0.070955679 -0.3920953 -0.033119977
0.27273688 -0.39280519 -0.029277265
0.27273688 -0.37786332 -0.029277205
-0.11565013 -0.36180419 -0.035874665
0.2727387 -0.36292312 -0.02926755
0.2727387 -0.34798115 -0.02926755
-0.16021875 -0.33160356 -0.038592875
0.27273688 -0.33303773 -0.029277205
0.27273512 -0.31809446 -0.029286921
0.27273512 -0.30315262 -0.029286921
-0.38432994 -0.287893 -0.031715691
0.27273512 -0.28821084 -0.029286981
0.27273512 -0.27326906 -0.029286981
0.27273512 -0.25832725 -0.029286921
-0.24959117 -0.24257538 -0.036803901
0.27273688 -0.24338648 -0.029277265
-0.26478434 -0.22802639 -0.033456326
0.2727387 -0.22844562 -0.02926755
-0.47294405 -0.19796324 -0.036334634
-0.48932853 -0.18363023 -0.029132426
-0.5183329 -0.13858841 -0.033081532
-0.30898216 -0.1383203 -0.038057566
-0.32395542 -0.10860259 -0.037253916
-0.33998841 -0.049148593 -0.028447032
-0.33937058 -0.034200333 -0.033168137
-0.57851613 -0.019271597 -0.030983746
-0.3387545 -0.019324683 -0.037875712
-0.33864316 0.055014379 -0.038726568
-0.33926624 0.070140138 -0.033965409
-0.33989364 0.085341193 -0.02917105
0.2727387 0.26463857 -0.02926755
0.2727387 0.27958047 -0.029267728
0.27273688 0.29452074 -0.029277205
0.27273688 0.30946261 -0.029277265
0.27273688 0.32440448 -0.029277265
0.27273688 0.33934632 -0.029277205
0.27273512 0.35428637 -0.029286921
0.27273512 0.36922804 -0.029286921
0.27273512 0.38416991 -0.029286921
0.27273512 0.39911175 -0.029286861
0.27273512 0.41405347 -0.029286861
0.27273688 0.42899758 -0.029277265
0.2727387 0.44394195 -0.02926755
0.2727387 0.45888382 -0.02926755
0.2727387 0.4738256 -0.02926755
0.2727387 0.48876771 -0.02926755
0.0043682605 -0.45530272 -0.016611576
0.28970471 -0.43981886 -0.018750191
0.28970471 -0.4247959 -0.01875025
0.28970283 -0.40977114 -0.018759966
0.28970096 -0.39474654 -0.018769681
0.28970096 -0.37972379 -0.018769741
0.28970283 -0.36470267 -0.018759966
0.28970283 -0.34967983 -0.018759906
-0.32545125 -0.33367944 -0.025109172
0.28970096 -0.33465549 -0.018769681
-0.19106987 -0.31974834 -0.017979324
0.28969908 -0.31963128 -0.018779397
-0.37064272 -0.30398694 -0.023265958
-0.20623112 -0.30501741 -0.015829086
0.28969908 -0.30460861 -0.018779457
0.28969908 -0.28958592 -0.018779457
0.28969908 -0.27456328 -0.018779397
0.28969908 -0.25954062 -0.018779457
0.28970096 -0.24451891 -0.018769681
0.28970283 -0.22949716 -0.018759906
-0.28059536 -0.21394873 -0.024449825
0.28969908 -0.21447253 -0.018779397
-0.29566327 -0.18405408 -0.023625255
-0.50700617 -0.16956618 -0.016445279
-0.31074396 -0.15413424 -0.02279985
-0.53616351 -0.12425939 -0.020446181
-0.32583624 -0.12418841 -0.021983504
-0.55072069 -0.094181277 -0.022343099
-0.34123313 -0.079264812 -0.018935502
-0.56537616 -0.064169601 -0.023722291
-0.34060925 -0.064169876 -0.02370286
-0.58218956 -0.034200333 -0.01652348
-0.59653449 0.010858461 -0.019179285
-0.35655633 0.010914322 -0.016758084
-0.35647914 0.025935505 -0.017315149
-0.34052292 0.10061698 -0.024362564
-0.34115532 0.11596873 -0.019530296
-0.32556948 0.16055718 -0.024149239
-0.31048739 0.19041908 -0.025021911
-0.29541981 0.22025555 -0.025884151
-0.28036657 0.25006682 -0.026736021
0.29008994 0.25152767 -0.016748369
0.28970283 0.26625633 -0.018759966
0.28970283 0.28127912 -0.018759966
0.28970283 0.29630199 -0.018759906
0.28970096 0.31132314 -0.018769681
0.28970096 0.3263458 -0.018769681
-0.22125956 0.32684392 -0.016073585
-0.20598216 0.34115663 -0.019871414
0.28970096 0.34136859 -0.018769681
-0.19076404 0.35541368 -0.023654461
0.28970096 0.35639137 -0.018769681
0.28969908 0.3714121 -0.018779397
-0.14576706 0.38509339 -0.02500248
0.28969908 0.3864347 -0.018779516
0.28969908 0.40145743 -0.018779397
-0.10087018 0.41586599 -0.021438777
0.28970096 0.41648236 -0.018769741
0.28970096 0.43150508 -0.018769741
0.28970283 0.44653022 -0.018759966
0.28970283 0.46155313 -0.018759847
0.28970283 0.47657594 -0.018759966
0.30685362 -0.44202659 -0.0081279874
0.30685362 -0.42692187 -0.008128047
0.30685166 -0.41181535 -0.0081379414
0.30684969 -0.39670888 -0.0081477761
-0.10093954 -0.38084653 -0.012428045
0.30684969 -0.3816044 -0.0081477761
0.30685166 -0.36650157 -0.0081379414
-0.14606853 -0.35025325 -0.015212417
0.30685166 -0.35139695 -0.0081379414
0.30685166 -0.33629239 -0.0081378818
0.30684969 -0.32118633 -0.0081477165
0.30684969 -0.3060818 -0.0081477165
-0.22151282 -0.29041839 -0.012418211
0.30684969 -0.2909773 -0.0081477761
-0.23684871 -0.2757695 -0.0089856386
0.30684969 -0.27587271 -0.0081477165
-0.25223765 -0.26106814 -0.0055508018
0.30684969 -0.2607682 -0.0081477761
-0.4491013 -0.24608645 -0.004224956
0.30684969 -0.24566367 -0.0081477761
0.30685166 -0.23056009 -0.0081379414
0.27674448 -0.21550655 -0.0075855255
0.30684769 -0.21545365 -0.0081575513
-0.29733238 -0.20035094 -0.0081378222
-0.3125338 -0.17019987 -0.007299304
-0.32774824 -0.14002296 -0.0064600706
-0.34297439 -0.10981989 -0.0056298971
-0.34186137 -0.09443406 -0.014134824
-0.35789022 -0.019088024 -0.0071315169
-0.60036296 -0.0039359089 -0.0045517087
-0.35722163 -0.0040499568 -0.011956632
-0.35715359 0.041156799 -0.012447774
-0.35783279 0.056454621 -0.007545948
-0.34179083 0.13139686 -0.014673829
-0.34279597 0.14716062 -0.0069932342
-0.32757437 0.1772927 -0.0078716278
-0.31236526 0.20739681 -0.0087589025
-0.29717201 0.23747632 -0.0096257925
0.27734709 0.25334483 -0.0043239594
0.30684769 0.25278419 -0.0081574917
0.30685166 0.26789171 -0.0081379414
-0.26744622 0.28356159 -0.004640758
0.30685166 0.2829963 -0.0081379414
-0.25199103 0.29804581 -0.0084632635
0.30685166 0.2981008 -0.0081378818
-0.23659581 0.3124736 -0.012270927
0.30685166 0.31320542 -0.0081378222
0.30684969 0.32830825 -0.0081476569
0.30684969 0.34341273 -0.0081477761
0.30684969 0.35851732 -0.0081476569
0.30684969 0.37362179 -0.0081477761
0.30684969 0.38872638 -0.0081477761
0.30684969 0.40383083 -0.0081477761
0.30684969 0.41893545 -0.0081477761
0.30685166 0.43404222 -0.0081379414
0.30685166 0.44914681 -0.0081378818
0.30685166 0.46425143 -0.0081378222
0.30685362 0.47935864 -0.0081279874
0.020301245 -0.45887718 -2.8014183e-05
0.035742618 -0.45983738 0.0044265389
0.32419023 -0.42907119 0.0026103854
0.32418814 -0.41388193 0.0026004314
0.32418609 -0.39869282 0.0025904179
0.32418609 -0.3835057 0.0025904775
-0.25239518 -0.38239363 -0.0036902428
-0.28328842 -0.36829653 0.002460897
0.32418814 -0.36832014 0.0026003718
0.32418814 -0.3531329 0.0026004314
-0.17714423 -0.33845448 0.0059058666
0.32418814 -0.33794564 0.0026004314
-0.35951114 -0.32304591 0.0045663714
0.32418609 -0.32275692 0.0025904179
0.32418609 -0.30756974 0.0025904775
0.32418609 -0.29238251 0.0025904179
0.32418609 -0.27719533 0.0025904179
-0.43495455 -0.26186547 0.0013549924
0.32418609 -0.26200813 0.0025904775
-0.26768056 -0.246315 -0.002104044
0.32418609 -0.24682099 0.0025905371
-0.46503606 -0.23136774 -6.7830086e-05
-0.28317878 -0.23151112 0.001365006
0.32418814 -0.23163471 0.0026003718
-0.48103839 -0.21658665 0.0041069388
-0.29902932 -0.21691012 0.0076079369
0.26407042 -0.21677688 0.0061660409
0.32418403 -0.21644571 0.0025805235
0.30932841 -0.20139882 0.0042367578
0.32418609 -0.20125937 0.0025904775
-0.52491641 -0.15531719 -0.0035910606
-0.55584192 -0.11000262 -0.00088274479
-0.57064778 -0.079648465 -0.0023221374
-0.35991591 -0.064650133 0.0074877143
-0.58591563 -0.049353279 -0.0018557906
-0.35923734 -0.049387507 0.0025904179
-0.35856211 -0.034200333 -0.0022825599
-0.35851538 0.07182914 -0.0026197433
-0.35920006 0.087280609 0.0023212433
-0.35988954 0.10281045 0.0072973371
0.30972055 0.23966858 0.006196022
0.32418814 0.23917037 0.0026004314
-0.29895374 0.25498751 0.0069066882
0.32418403 0.25435469 0.0025804639
-0.28296277 0.26902249 -0.00079327822
0.32418814 0.2695449 0.0026004314
0.32418814 0.28473222 0.0026004314
0.32418814 0.29991955 0.0026004314
0.32418814 0.31510672 0.0026004314
0.32418814 0.33029404 0.0026004314
0.32418609 0.34547931 0.0025904775
0.32418609 0.36066648 0.0025904775
-0.17694691 0.37565491 0.0016338229
0.32418609 0.37585366 0.0025904775
0.32418609 0.39104089 0.0025904775
-0.13149223 0.40683433 0.0053059459
0.32418609 0.40622804 0.0025904775
0.32418609 0.42141524 0.0025904775
0.32418814 0.43660486 0.0026004314
0.32418814 0.45179209 0.0026004314
0.32419023 0.46698192 0.002610445
0.32419023 0.4821693 0.002610445
0.051253252 -0.46079966 0.0088913441
0.066834204 -0.46176636 0.013376296
0.082486786 -0.46273971 0.017891765
-0.070612162 -0.44610694 0.011503458
0.34171763 -0.43124413 0.013467073
0.34171548 -0.41597128 0.013456941
0.34171331 -0.40069866 0.013446808
0.34171331 -0.3854278 0.013446987
-0.13157156 -0.36936009 0.0087408423
0.34171548 -0.37015879 0.013456941
-0.31437439 -0.35410926 0.0086404681
0.34171548 -0.35488796 0.013457
0.34171548 -0.3396171 0.013456881
0.34171548 -0.32434621 0.013457
0.34171331 -0.30907401 0.013446748
-0.40719229 -0.29432005 0.017395794
0.34171331 -0.29380319 0.013446748
-0.42113307 -0.2780295 0.0093630552
0.34171331 -0.27853245 0.013446808
0.34171331 -0.26326168 0.013446808
0.34171331 -0.24799097 0.013446748
0.34171548 -0.23272121 0.013456941
0.25041682 -0.21762842 0.015383899
0.34171116 -0.21744853 0.013436794
-0.49710447 -0.2017411 0.0082794428
0.29687342 -0.20260653 0.018499374
0.34171116 -0.20217779 0.013436794
-0.5134753 -0.18691725 0.013567686
-0.31435353 -0.18652403 0.0084599257
0.34171763 -0.1869095 0.013467014
-0.32969093 -0.15611182 0.0093127489
-0.54306614 -0.14087993 0.0094432831
-0.34504026 -0.12567286 0.010156274
-0.36128461 -0.095404066 0.017365396
-0.36059925 -0.079988867 0.012419224
-0.5909965 -0.06481415 0.018144846
-0.60425198 -0.018953763 0.010306954
-0.3761909 0.011640146 0.014667332
-0.37617615 0.026917163 0.014566362
-0.36058113 0.11841812 0.012288451
-0.36127621 0.13410467 0.017304718
-0.34496406 0.163932 0.0095738769
-0.32961309 0.19431067 0.0086807013
