ply
format ascii 1.0
comment PCL generated
element vertex 1326
property float x
property float y
property float z
element camera 0
property float view_px
property float view_py
property float view_pz
property float x_axisx
property float x_axisy
property float x_axisz
property float y_axisx
property float y_axisy
property float y_axisz
property float z_axisx
property float z_axisy
property float z_axisz
property float focal
property float scalex
property float scaley
property float centerx
property float centery
property int viewportx
property int viewporty
property float k1
property float k2
end_header
-0.70413274 -0.34860376 -0.050457627
-0.67867774 -0.35195103 -0.051763095
-0.65381712 -0.35155794 -0.055102095
-0.62942177 -0.35568678 -0.055398695
-0.62287879 -0.35217196 -0.044508513
-0.60000938 -0.35510033 -0.049436234
-0.48223451 -0.35225853 -0.059906445
-0.44494882 -0.35084352 -0.057985254
-0.33218819 -0.35754782 -0.056589425
-0.32549599 -0.35363692 -0.041618008
-0.30367944 -0.3577477 -0.056703448
-0.27481014 -0.35778856 -0.056819998
-0.24506755 -0.35563308 -0.049332045
-0.21681638 -0.35552445 -0.049472399
-0.18843994 -0.35544488 -0.049613059
-0.15992767 -0.35537988 -0.049754292
-0.13664851 -0.35325742 -0.042366829
-0.1258886 -0.35737169 -0.057425529
-0.10246053 -0.35524443 -0.050047517
-0.082679242 -0.35307667 -0.042723536
-0.060006458 -0.35513335 -0.050279655
-0.028138366 -0.35329702 -0.051013239
-0.0016272552 -0.35499954 -0.050585464
0.027785141 -0.35493329 -0.050774805
0.052298188 -0.35261536 -0.043633778
0.062470749 -0.35709631 -0.058189578
0.079301476 -0.352552 -0.043758709
0.10063061 -0.354801 -0.051048912
0.12777227 -0.35702157 -0.058454238
0.13330382 -0.35255206 -0.043758601
0.16060457 -0.35478914 -0.051146775
0.19085258 -0.35476223 -0.051214769
0.21430393 -0.35257918 -0.043705121
0.22823992 -0.35689071 -0.058861688
0.24131028 -0.35254285 -0.043776684
0.26537263 -0.3546668 -0.051433071
0.29614434 -0.3546344 -0.051512145
0.32232541 -0.35248867 -0.04388364
0.34059885 -0.35459268 -0.051609732
0.36712709 -0.35666704 -0.059425406
0.37633866 -0.35245249 -0.043954983
0.40307367 -0.35449779 -0.051780522
0.43478513 -0.35415176 -0.052078851
0.52077317 -0.35528809 -0.055827349
0.62255728 -0.34831116 -0.055461213
0.67298335 -0.35336593 -0.0421528
0.69540691 -0.34090292 -0.056135617
0.70063323 -0.35186407 -0.045116071
0.72917449 -0.35150972 -0.05588387
0.75094134 -0.35274959 -0.054912396
0.77238983 -0.34514272 -0.054875463
-0.81868982 -0.33051598 -0.054797545
-0.79811031 -0.33547914 -0.057800375
-0.77785122 -0.33659652 -0.044740621
-0.53859514 -0.33894575 -0.052346051
-0.40524787 -0.3354544 -0.045586314
0.64359784 -0.33807418 -0.055443019
0.75903875 -0.33873141 -0.057490245
0.78472716 -0.3225868 -0.043109838
0.79375297 -0.33751911 -0.054838918
0.81524211 -0.3304078 -0.054798476
0.83595937 -0.32153061 -0.054772831
-0.83379894 -0.30722013 -0.054888941
-0.81738955 -0.30978903 -0.041600913
-0.80765724 -0.30948511 -0.043704681
-0.47098735 -0.30516818 -0.057580322
-0.43701714 -0.31989181 -0.059935488
0.53774554 -0.30836308 -0.051736742
0.81607598 -0.31415552 -0.059434339
0.83011669 -0.30926409 -0.057725526
0.85387641 -0.30543327 -0.054805763
-0.83643776 -0.28594965 -0.055237211
-0.82497728 -0.28444663 -0.058036432
0.64774817 -0.29045045 -0.055738032
0.8449648 -0.28451765 -0.045057442
-0.84469867 -0.27235174 -0.055073105
-0.41549805 -0.26606721 -0.0474937
0.50540471 -0.270852 -0.056442469
0.86995739 -0.28421357 -0.054879576
-0.84106863 -0.26250488 -0.051286116
-0.41785982 -0.25580224 -0.056908876
0.50578123 -0.25971639 -0.052827805
0.86885583 -0.25973061 -0.04920613
0.88518727 -0.26022905 -0.054974914
-0.85328889 -0.23023669 -0.055314198
-0.84438401 -0.23928434 -0.048457641
-0.41549805 -0.24053313 -0.0474937
0.50578123 -0.23481739 -0.052827805
0.87596577 -0.23697491 -0.048002079
0.8997283 -0.23374726 -0.055089541
-0.84688884 -0.21620308 -0.046320446
-0.4155125 -0.21499793 -0.047504
0.50513381 -0.21457499 -0.056812108
-0.84904873 -0.1931995 -0.044477608
-0.83547336 -0.20798412 -0.058115385
-0.47474304 -0.20234536 -0.057028763
-0.44664791 -0.20231862 -0.057142682
-0.41828924 -0.20227621 -0.057257697
0.53058922 -0.21037053 -0.056736656
0.63825315 -0.21048351 -0.056300111
0.91355979 -0.20453833 -0.055224828
-0.86050671 -0.18296465 -0.055594526
0.9010585 -0.19065797 -0.055641159
0.90866357 -0.1890952 -0.044104353
-0.85081089 -0.17026697 -0.042974275
0.90825403 -0.16765739 -0.049313083
0.92651039 -0.17190753 -0.055386148
-0.85236287 -0.1473823 -0.041650228
0.90960389 -0.1451568 -0.048126023
0.942882 -0.14862394 -0.055472337
-0.86675 -0.13131128 -0.055907458
-0.84924746 -0.12416561 -0.0489498
0.91214174 -0.12337363 -0.056137152
0.92726916 -0.12531985 -0.055511571
0.94177884 -0.12112565 -0.043952242
-0.85242414 -0.10135132 -0.051619045
0.95401067 -0.1085421 -0.055689871
-0.8493011 -0.087522946 -0.057270624
0.93735832 -0.099697255 -0.052922487
-0.86900598 -0.076308228 -0.057723776
-0.85449725 -0.078633159 -0.053360954
0.9051609 -0.078076214 -0.05203329
0.94701809 -0.07698413 -0.053273387
-0.86775392 -0.056209516 -0.058064595
-0.8558411 -0.055970758 -0.054490037
0.9072693 -0.055583581 -0.050179057
0.93960124 -0.05516614 -0.050919868
0.96142083 -0.058016788 -0.057725966
-0.86873913 -0.033457946 -0.057211123
-0.85685885 -0.033338349 -0.055345155
0.90937358 -0.033133615 -0.048328433
0.944727 -0.03283532 -0.051022775
-0.86912882 -0.010726192 -0.056873806
-0.85724854 -0.010726192 -0.055672608
0.9104296 -0.010726192 -0.047399782
0.9434309 -0.010877953 -0.053667083
-0.87390327 -0.0065567545 -0.056695506
-0.85275251 -0.0020019328 -0.056696549
0.96819556 0.0022466984 -0.056357808
-0.86919379 0.012000998 -0.056817479
-0.857324 0.011881339 -0.055736169
0.91062826 0.011668553 -0.047225099
0.9310419 0.016181737 -0.042116307
0.93957049 0.011494095 -0.050947376
-0.86883664 0.034735367 -0.057126954
-0.85695624 0.034496192 -0.055427022
0.90958291 0.034084432 -0.048144326
0.94471192 0.033492371 -0.051000476
-0.86794889 0.057492919 -0.057895832
-0.85603607 0.057134844 -0.054654092
0.94369143 0.054857127 -0.051438823
-0.86907083 0.079099171 -0.058093473
-0.85288477 0.072599858 -0.054943927
0.90557039 0.079057276 -0.051673181
0.94767344 0.077591196 -0.053559579
0.90283805 0.10164123 -0.054076128
0.93605506 0.10087237 -0.054107331
-0.85292375 0.10253035 -0.052038766
-0.84820461 0.12425831 -0.052677587
0.9339596 0.1229376 -0.055956773
0.94124019 0.12178582 -0.04347882
-0.84298784 0.14852493 -0.043690108
0.90844244 0.14619167 -0.04914739
0.92347836 0.14150426 -0.055456996
-0.85112816 0.17158075 -0.042703811
-0.84070927 0.17495765 -0.055586636
0.90853554 0.1648462 -0.049643986
0.90662152 0.19065838 -0.050276145
-0.85427827 0.19532146 -0.051121242
-0.45552084 0.19837284 -0.056992106
-0.42736399 0.19839421 -0.057105973
-0.39895886 0.19843136 -0.057220601
0.48397294 0.20630057 -0.05681134
0.51154923 0.20627438 -0.056699999
0.59281123 0.20618244 -0.056371726
0.61942506 0.20615745 -0.05626417
0.87880212 0.20714922 -0.045727901
0.89452106 0.19763367 -0.055206694
-0.84729499 0.21754085 -0.045974147
-0.83378214 0.22219779 -0.055305272
0.51523578 0.22638045 -0.053278543
0.88087726 0.22691929 -0.055070035
-0.84970874 0.24043746 -0.041759051
-0.84485674 0.24063577 -0.048054136
-0.41549805 0.24461487 -0.0474937
-0.39653787 0.2474269 -0.056909643
0.50578123 0.23826402 -0.052827805
0.87691945 0.23804194 -0.047176111
-0.842094 0.26381844 -0.050411165
-0.82559067 0.26466021 -0.055060342
0.48441535 0.26210013 -0.056444272
0.50903183 0.26112258 -0.054816447
0.87016118 0.25818813 -0.051695615
-0.84696281 0.26907831 -0.045933053
-0.41549805 0.27014896 -0.0474937
0.84295237 0.27026403 -0.043679807
0.85144275 0.27758211 -0.054857433
-0.82061893 0.29278377 -0.056953229
-0.39701673 0.30043742 -0.056560546
0.38935852 0.29264623 -0.056628935
0.83552104 0.29895118 -0.05478204
0.84657484 0.28567192 -0.043683752
-0.81576395 0.30989096 -0.050412804
-0.46108493 0.31293455 -0.059937842
-0.37822115 0.31453022 -0.046609104
0.81787413 0.31557706 -0.054744616
0.83338749 0.31031823 -0.054934859
-0.80386555 0.32988802 -0.052393861
-0.78097141 0.33616707 -0.054772727
0.62399143 0.32991582 -0.05543524
0.75438207 0.3394168 -0.054845326
0.76954889 0.33914769 -0.048793308
0.77944309 0.32970184 -0.052816957
0.79724407 0.32466203 -0.054768503
-0.75886101 0.34195212 -0.054824233
-0.7422244 0.34705839 -0.055435844
-0.7310546 0.35338122 -0.059335493
-0.70736372 0.35092506 -0.055590801
-0.68673295 0.34793982 -0.055076942
-0.66886187 0.35227886 -0.05477234
-0.64890742 0.3560631 -0.053942315
-0.63123167 0.35112926 -0.05035226
-0.61648369 0.35397699 -0.053580128
-0.59415948 0.35821262 -0.049619712
-0.58630419 0.35254723 -0.055453271
-0.56345701 0.35317713 -0.051905453
-0.50293499 0.34909445 -0.059870444
-0.46998057 0.34495223 -0.059764259
-0.38680297 0.35820025 -0.059340753
-0.37317777 0.35840595 -0.05627732
-0.35181722 0.35804155 -0.054312728
-0.34371546 0.35609844 -0.05641178
-0.31847936 0.3564226 -0.055136688
-0.29791912 0.35827467 -0.049494892
-0.28366095 0.35578349 -0.057792157
-0.27097499 0.35836342 -0.049316593
-0.2493618 0.35673845 -0.05494713
-0.22691147 0.35366997 -0.056900382
-0.21549933 0.35833204 -0.053960562
-0.1937467 0.355966 -0.053159803
-0.17386255 0.35598689 -0.057822675
-0.15511312 0.35846978 -0.053842157
-0.13685517 0.35595888 -0.053307772
-0.11400379 0.35872823 -0.058233358
-0.10820101 0.35596791 -0.053387031
-0.080063254 0.35693222 -0.055005513
-0.055558633 0.35831022 -0.049423441
-0.047215324 0.35631669 -0.057802297
-0.028630521 0.3583014 -0.049441196
-0.0078673251 0.35599449 -0.053601556
0.015931088 0.35632071 -0.057801202
0.025226025 0.35831022 -0.049423441
0.048948888 0.35686719 -0.054998808
0.078942224 0.35678941 -0.055042714
0.10631102 0.35824305 -0.053392649
0.11425914 0.35379273 -0.058280267
0.13899127 0.35671827 -0.055025712
0.15987068 0.35827476 -0.049494676
0.17359157 0.35585165 -0.057825007
0.19163805 0.35796881 -0.053239278
0.21380986 0.35607538 -0.054106697
0.22582443 0.35741964 -0.056866519
0.24778475 0.35642922 -0.055057459
0.26760119 0.35818601 -0.049673192
0.28675944 0.35633287 -0.055095099
0.31185088 0.35603029 -0.056527451
0.31906229 0.35604694 -0.054412618
0.3443709 0.35713252 -0.053104818
0.35160357 0.35397506 -0.059239656
0.37182486 0.35697454 -0.053049199
0.39509055 0.35585317 -0.055153437
0.42267808 0.3539606 -0.059527382
0.42929071 0.35779566 -0.050458178
0.45556566 0.35639536 -0.054662481
0.48605815 0.35658059 -0.057821721
0.50032538 0.34625205 -0.055828772
0.53041065 0.35327679 -0.057032764
0.60397035 0.34230742 -0.055435129
0.70473307 0.35424492 -0.054003961
0.72576493 0.34873194 -0.056384824
-0.40155938 0.35932222 -0.056156553
-0.37802702 0.36109021 -0.04383301
-0.017153639 0.35911521 -0.057838894
0.031707868 0.36119416 -0.052539587
0.48240432 0.36025009 -0.045522425
0.50890857 0.36144358 -0.043122329
0.67097646 0.35953316 -0.046964061
-0.55246818 -0.35864949 -0.031891111
-0.52676827 -0.36039919 -0.031891167
-0.50066471 -0.36176983 -0.031891055
-0.47418615 -0.36284181 -0.031891055
-0.45313093 -0.36110714 -0.031814236
-0.43211415 -0.35847422 -0.03150136
-0.40987226 -0.35950091 -0.032032881
-0.39514059 -0.36088696 -0.031891167
-0.36650789 -0.36152971 -0.031891331
-0.33372682 -0.35861608 -0.031891219
0.49623796 -0.35979053 -0.031891275
0.52387351 -0.36140522 -0.031891219
0.54867125 -0.36062407 -0.031891193
0.58340627 -0.35993937 -0.031891
0.62215191 -0.35899559 -0.031891219
0.7037527 -0.35879067 -0.031891275
-0.7542516 -0.34596795 -0.031891331
-0.72387922 -0.3396973 -0.031891055
-0.70477343 -0.34640718 -0.031891137
-0.66932565 -0.35313973 -0.031891275
-0.65037239 -0.34540224 -0.031891055
-0.62808639 -0.35122818 -0.031891137
-0.59617782 -0.35437605 -0.031891193
-0.57757676 -0.35610759 -0.031891
-0.55192989 -0.35703647 -0.031891331
-0.51412857 -0.3544046 -0.023678832
-0.48663267 -0.35612687 -0.027076948
-0.45932356 -0.35740486 -0.029598359
-0.3789967 -0.35559478 -0.030255064
-0.35615999 -0.35499299 -0.03671886
-0.33150452 -0.35636142 -0.031891111
-0.30055922 -0.35588989 -0.035079967
-0.27040926 -0.3560341 -0.035085924
-0.24516924 -0.35700852 -0.031891111
-0.2312638 -0.35738048 -0.031891167
-0.21568526 -0.356958 -0.031891111
-0.19175276 -0.35708278 -0.031891193
-0.16006666 -0.3569966 -0.031891111
-0.1311307 -0.35708383 -0.031891219
-0.12554799 -0.35684797 -0.031891055
-0.096616879 -0.35698113 -0.031891137
-0.064903602 -0.35698846 -0.031891137
-0.033210855 -0.35696474 -0.031891167
-0.0015273243 -0.35693309 -0.031891193
0.030059494 -0.3570545 -0.031891167
0.061794341 -0.35704529 -0.031891219
0.091831222 -0.3572917 -0.031891275
0.095195264 -0.35673389 -0.031891
0.12524039 -0.35700294 -0.031891167
0.15697207 -0.35697046 -0.031891193
0.18279302 -0.35735121 -0.031891331
0.19470282 -0.3565523 -0.031891111
0.21252665 -0.35735592 -0.031891219
0.2285471 -0.35649586 -0.031891055
0.24197863 -0.35736075 -0.031891219
0.26696551 -0.35691598 -0.031891111
0.29869932 -0.35688847 -0.031891219
0.32871702 -0.35743219 -0.031891275
0.33228248 -0.35621029 -0.031891055
0.36237082 -0.35672912 -0.031891111
0.38518959 -0.35745487 -0.031891275
0.40345564 -0.35578245 -0.031891
0.41301596 -0.35743034 -0.031891275
0.44024882 -0.35628799 -0.031891137
0.45686501 -0.35412481 -0.040655494
0.47215992 -0.35619384 -0.031891081
0.48354197 -0.35509938 -0.038732547
0.51062059 -0.35693154 -0.033809591
0.53690761 -0.35672119 -0.035532787
0.56466335 -0.3544046 -0.023678832
0.59093654 -0.356271 -0.027361222
0.61803979 -0.35584766 -0.026525937
0.64519787 -0.3553248 -0.025494382
0.66513377 -0.35398313 -0.031891
0.7169432 -0.34024316 -0.031891055
0.72680336 -0.35432494 -0.031891219
0.74869382 -0.34744564 -0.031891275
0.7701416 -0.33972403 -0.031891275
-0.81193715 -0.32918853 -0.030327778
-0.79389364 -0.32948333 -0.031891167
-0.77157176 -0.33496559 -0.031891
-0.74791896 -0.33758268 -0.031891167
-0.51473159 -0.32956508 -0.034183424
-0.48813382 -0.32822394 -0.031586621
-0.46127459 -0.32764438 -0.030464653
-0.43355748 -0.33019817 -0.035409171
0.56490779 -0.33076656 -0.036509659
0.59283829 -0.32818711 -0.031515498
0.62076265 -0.3258484 -0.026987307
0.64718652 -0.32744202 -0.030072875
0.67325526 -0.32975772 -0.034556463
0.74947059 -0.33462909 -0.033614278
0.7736789 -0.32222649 -0.031891111
0.79143918 -0.33182281 -0.031891331
0.81291664 -0.32455742 -0.031891219
-0.81062067 -0.31021583 -0.031891055
-0.80247676 -0.31015164 -0.02436398
-0.38509679 -0.31743845 -0.040492207
0.82013994 -0.30899295 -0.036429219
0.83443201 -0.31128639 -0.035964947
-0.82285362 -0.28613183 -0.037009601
-0.56658721 -0.29816878 -0.031891167
0.85054898 -0.29668462 -0.031891275
-0.84758443 -0.26610351 -0.033898495
-0.82273674 -0.27877373 -0.031891055
-0.64812887 -0.28374135 -0.031891
0.53572714 -0.27729318 -0.031891219
0.8397305 -0.27513188 -0.028902087
0.8664518 -0.27478689 -0.031891219
-0.82650447 -0.26278183 -0.033942223
-0.56673694 -0.25470778 -0.031891331
0.52587885 -0.25904721 -0.036843684
0.85669708 -0.26041099 -0.035047639
0.88164061 -0.25047198 -0.031891275
-0.84999216 -0.23805036 -0.028421488
-0.83000457 -0.23839521 -0.031993028
0.52587885 -0.23421513 -0.036843684
0.86709541 -0.23667245 -0.026176132
-0.8304981 -0.21659598 -0.030586407
0.53559148 -0.22082689 -0.031891275
0.89166534 -0.21669252 -0.0346165
-0.83220214 -0.19358592 -0.029154524
-0.56687415 -0.21039255 -0.031891331
0.55786806 -0.21040669 -0.031891219
0.58489811 -0.2104274 -0.031891275
0.61169666 -0.21046302 -0.031891275
0.88034028 -0.20215786 -0.036725435
0.9100517 -0.19442651 -0.031891219
-0.83829635 -0.18992166 -0.031891055
-0.81614953 -0.18538886 -0.031891111
0.89342165 -0.19032115 -0.032881405
-0.83395904 -0.17060611 -0.02767837
-0.82082313 -0.17152092 -0.025066219
0.90316314 -0.16718619 -0.024442662
0.92533076 -0.16842513 -0.031891219
-0.83998477 -0.14453676 -0.032991286
0.88662481 -0.14583242 -0.03876904
-0.85380358 -0.12453423 -0.040421087
-0.83810282 -0.12471999 -0.024196528
0.93249983 -0.1275425 -0.032267027
-0.85492653 -0.1017277 -0.039462846
-0.83547062 -0.10202599 -0.026408132
-0.8195461 -0.097717948 -0.031891055
0.92611796 -0.099678926 -0.031764373
0.94959223 -0.094844982 -0.031891219
-0.85584134 -0.078949869 -0.038682356
-0.84023446 -0.072299309 -0.028459899
-0.8566035 -0.056193404 -0.038032278
-0.8571474 -0.033454359 -0.037568282
0.93675965 -0.044603862 -0.031891219
0.95544869 -0.036253341 -0.031891219
-0.85737562 -0.010726192 -0.037373435
-0.82398075 -0.010558374 -0.031891055
0.93313944 -0.0092497794 -0.034280084
-0.8454175 0.0016925102 -0.031891055
-0.85739726 0.011999474 -0.037354805
-0.85722357 0.03472862 -0.037503187
0.93619514 0.03186208 -0.031891167
0.95697463 0.038833871 -0.031891275
-0.85670131 0.057471693 -0.037948772
-0.8225773 0.057165593 -0.031891
0.92955047 0.056420684 -0.026555035
-0.85600471 0.080232181 -0.03854296
-0.83739853 0.080496877 -0.024788305
-0.8418417 0.088091217 -0.031891111
0.91837615 0.089501671 -0.028818309
0.92858499 0.083929814 -0.031891219
-0.85513353 0.10301534 -0.039286409
-0.8357684 0.10338373 -0.026158158
0.91636562 0.11717214 -0.036616176
-0.85402161 0.12583037 -0.040235005
-0.82418352 0.13051967 -0.031891055
0.91580963 0.12660205 -0.036052648
0.92745644 0.12262173 -0.032425739
-0.85264671 0.14868605 -0.04140804
-0.83629721 0.14899087 -0.025713667
0.88753766 0.14683349 -0.037978142
-0.83684826 0.17328562 -0.029650249
-0.82143706 0.17299034 -0.025582165
0.91296911 0.16509892 -0.028136529
-0.81848609 0.18198159 -0.031891
0.89279604 0.18929711 -0.031828918
-0.83251178 0.19496328 -0.028894361
-0.59194249 0.20415735 -0.031891275
0.53888011 0.20624863 -0.031891331
0.56596857 0.20622288 -0.031891167
-0.8308413 0.21798386 -0.030298188
-0.81176633 0.22911096 -0.031891111
0.51443636 0.21219315 -0.031891219
0.87723428 0.216897 -0.031891167
0.89177626 0.21393293 -0.036629658
-0.82903516 0.24105252 -0.031815551
-0.59151006 0.24837658 -0.031891167
0.52587885 0.23759484 -0.036843684
0.86284477 0.24363524 -0.031891219
0.86883533 0.23762329 -0.024691537
-0.82689321 0.2641972 -0.033615429
0.52587885 0.26242697 -0.036843684
0.85895109 0.26138672 -0.033124581
-0.80361885 0.27114818 -0.031891111
-0.62976646 0.27914101 -0.031891055
-0.35719863 0.27953312 -0.031891111
0.51488107 0.26845646 -0.031891275
0.84906965 0.27660158 -0.027598452
-0.82360047 0.2875334 -0.036382206
-0.79187191 0.30305329 -0.031891111
-0.59105557 0.29175934 -0.031891167
0.83205545 0.29003924 -0.031891275
-0.81841946 0.31119806 -0.040735606
0.80173153 0.31324825 -0.031198375
0.81938553 0.30965516 -0.032790776
-0.8107363 0.33306959 -0.03987183
-0.78080964 0.3325161 -0.034344483
-0.75393271 0.33406416 -0.030530844
-0.75268233 0.34033045 -0.035477336
-0.7300086 0.33241171 -0.031891111
-0.70593411 0.33456838 -0.031891167
-0.68159932 0.33654976 -0.031891167
-0.63234895 0.34047443 -0.031891111
-0.54037946 0.33507052 -0.027858533
-0.4052501 0.33687812 -0.031424865
0.69781995 0.33678827 -0.031247664
0.72939169 0.34031686 -0.02868472
0.7529915 0.33622512 -0.033088017
0.77559263 0.33233902 -0.033180635
0.79220831 0.32287741 -0.031891
-0.77713442 0.34273887 -0.03545906
-0.73026174 0.34946102 -0.031891275
-0.71444321 0.34414104 -0.036375958
-0.68965214 0.35118374 -0.031891167
-0.67182428 0.34855273 -0.040090568
-0.65051109 0.35183832 -0.031891167
-0.6091457 0.34863517 -0.031891167
-0.59248644 0.3563883 -0.040792808
-0.5779295 0.3512117 -0.031891193
-0.56156778 0.35496047 -0.031935137
-0.53428668 0.35378098 -0.031891167
-0.5085755 0.35563391 -0.031891111
-0.48244491 0.35708386 -0.031891055
-0.45593038 0.35822403 -0.031891055
-0.42900246 0.35902315 -0.031891055
-0.38652167 0.35853505 -0.031891219
-0.37110603 0.35474625 -0.031891111
-0.35387629 0.35534284 -0.031891219
-0.34141186 0.352101 -0.031891111
-0.31635088 0.3532446 -0.031891193
-0.28476846 0.35354796 -0.031891167
-0.25326958 0.35365605 -0.031891167
-0.22649767 0.3530004 -0.031891055
-0.21707548 0.35417429 -0.031891275
-0.19030891 0.35349846 -0.031891249
-0.16714133 0.35303676 -0.031891111
-0.15047732 0.35390833 -0.031891331
-0.13706283 0.35309947 -0.031891055
-0.11761813 0.35385385 -0.031891219
-0.10666433 0.35311818 -0.031891055
-0.080533043 0.35347629 -0.031891167
-0.04893608 0.35346684 -0.031891167
-0.02098332 0.35369453 -0.031891331
-0.013697553 0.35320577 -0.031891167
0.014258604 0.35344166 -0.031891167
0.045761973 0.35357001 -0.031891193
0.072876438 0.35359928 -0.031891331
0.081915557 0.35347962 -0.031891111
0.10354453 0.35354856 -0.031891219
0.11448687 0.35348552 -0.031891
0.14065792 0.35348707 -0.031891167
0.16400924 0.35346285 -0.031891275
0.18060821 0.35351327 -0.031891111
0.1938049 0.35341331 -0.031891275
0.21418007 0.35351962 -0.031891111
0.22331809 0.35336432 -0.031891167
0.25033474 0.35342017 -0.031891111
0.28194934 0.35338429 -0.031891111
0.31020239 0.3532199 -0.031891219
0.31701845 0.35349125 -0.031891167
0.33862495 0.35317266 -0.031891219
0.35942441 0.35327184 -0.031891167
0.39108443 0.35319656 -0.031891167
0.42280316 0.35309884 -0.031891167
0.45479751 0.3529284 -0.031891081
0.47812411 0.35534239 -0.031891219
0.49669409 0.35231984 -0.031891055
0.50586551 0.35697877 -0.031891219
0.53207064 0.35602504 -0.031891137
0.56704515 0.35654032 -0.031891055
0.60351884 0.35779881 -0.031891111
0.64210093 0.3571997 -0.031891
0.66095048 0.35435623 -0.031891219
0.68529719 0.3532851 -0.031891193
0.70883554 0.34884688 -0.031891275
0.73065972 0.34178543 -0.031891275
-0.4848046 0.36349019 -0.039006628
-0.45786652 0.36382914 -0.031120759
-0.430895 0.3643311 -0.031793796
-0.40899533 0.36201954 -0.031480879
-0.37762931 0.36274081 -0.023268752
0.53542733 0.36247638 -0.041045301
-0.49917802 -0.35889137 -0.0078773415
-0.47244301 -0.35952917 -0.0077733407
-0.44496611 -0.35922253 -0.0076600825
0.5221228 -0.3579511 -0.0079780528
0.54970747 -0.35994452 -0.0081027085
0.57681036 -0.36151624 -0.0082227634
0.60281098 -0.36133662 -0.0083267624
0.62849391 -0.36096665 -0.0084282411
0.65389985 -0.36047667 -0.0085279113
-0.69921672 -0.34081104 -0.0085685691
-0.67467386 -0.34263667 -0.0084811719
-0.6476438 -0.34248343 -0.0084053921
-0.62544197 -0.34720278 -0.0083118593
-0.60074091 -0.34989285 -0.0082295025
-0.57349348 -0.34920353 -0.0074429875
-0.54653698 -0.35271299 -0.011977152
-0.52515829 -0.35722268 -0.0079715876
-0.41618693 -0.35700238 -0.0075291237
-0.38750184 -0.35549006 -0.007403207
-0.3562057 -0.35321853 -0.012128438
-0.330962 -0.35542005 -0.007173839
-0.32606009 -0.35086742 -0.016699806
-0.30079737 -0.35356021 -0.01218526
-0.27284345 -0.35391048 -0.012627997
-0.24474792 -0.35403711 -0.012756928
-0.2319885 -0.35644841 -0.0049161529
-0.21648644 -0.35402516 -0.012741749
-0.19143729 -0.35484472 -0.010150678
-0.16125588 -0.35483345 -0.010143335
-0.1341376 -0.35423529 -0.012030658
-0.11736789 -0.35393572 -0.012531915
-0.096509948 -0.35628211 -0.0058382852
-0.082739741 -0.35189119 -0.018719848
-0.061773766 -0.35482264 -0.010134258
-0.031623583 -0.35480431 -0.010141308
-0.0014760271 -0.35479569 -0.0101475
0.028578511 -0.35488009 -0.010136048
0.05230986 -0.35226247 -0.019452229
0.06206771 -0.35641599 -0.0058425581
0.085477091 -0.35457259 -0.012733777
0.10115395 -0.35388684 -0.012298136
0.12557214 -0.35624677 -0.0058333809
0.13334449 -0.35207224 -0.019077107
0.15834425 -0.35480809 -0.010237745
0.18258804 -0.3570253 -0.006597952
0.19153687 -0.35362339 -0.011987726
0.21336044 -0.35447049 -0.012736817
0.22961669 -0.35512021 -0.0049031666
0.24159634 -0.35442546 -0.01271605
0.26970094 -0.35437873 -0.012676845
0.29766437 -0.35433382 -0.012654846
0.32549661 -0.35430521 -0.012650215
0.34954125 -0.35151991 -0.01798714
0.35683608 -0.35700437 -0.0073028235
0.38073841 -0.35415161 -0.012576462
0.40365013 -0.35123897 -0.017432954
0.41266549 -0.35678837 -0.007527425
0.43543997 -0.35388467 -0.012428026
0.45787516 -0.35062248 -0.016216524
0.46725371 -0.35613751 -0.0077441363
0.48969287 -0.35301778 -0.011434962
0.51207757 -0.35020518 -0.015393076
0.53855872 -0.35185501 -0.018648397
0.67813939 -0.35787943 -0.008609063
0.69525766 -0.34124687 -0.0069807442
0.70536429 -0.34708312 -0.0082648722
0.72391236 -0.34764311 -0.0087271435
0.74588954 -0.34082803 -0.0087714726
-0.79359496 -0.32874799 -0.0088716364
-0.7828061 -0.33356616 -0.021851886
-0.76327926 -0.33477345 -0.013904563
-0.74764109 -0.33692724 -0.0087390887
-0.72566968 -0.3375158 -0.01279931
-0.70059901 -0.33679277 -0.015604691
-0.67293203 -0.33867356 -0.011963178
0.72665137 -0.33781826 -0.019426093
0.76803714 -0.33465227 -0.0088206781
0.78949285 -0.32703063 -0.0088576088
-0.81019956 -0.30924436 -0.0092982082
0.78545064 -0.32109487 -0.017783746
0.8102175 -0.31046513 -0.015400528
0.83035702 -0.30712411 -0.0088925669
-0.81337357 -0.28582475 -0.015347268
-0.80030632 -0.28882372 -0.0078269849
0.84370387 -0.28466898 -0.017649062
0.84692699 -0.28716183 -0.008829006
-0.82163131 -0.27593121 -0.0086391987
-0.787723 -0.27731648 -0.012980488
-0.73326141 -0.2751151 -0.014398671
-0.81895071 -0.26229268 -0.010732283
0.84080136 -0.24968678 -0.0071079759
0.85451508 -0.26184043 -0.011390771
-0.82932889 -0.23194179 -0.0083822152
-0.81693208 -0.24022305 -0.01180455
0.85716003 -0.23647912 -0.0053231092
0.87476742 -0.23814829 -0.010529297
-0.81428272 -0.2180479 -0.019570693
0.87631208 -0.21324822 -0.018312618
0.89213294 -0.21236272 -0.0085222134
-0.81562573 -0.19383985 -0.014041905
-0.83613163 -0.18410076 -0.0080965729
0.87661904 -0.18615806 -0.0090781553
0.88493532 -0.19005582 -0.010955513
0.90608817 -0.18300202 -0.0083863782
0.91331011 -0.16729966 -0.018915903
0.92383343 -0.16400489 -0.0083337771
0.8784101 -0.14561497 -0.016522601
0.91124439 -0.14505729 -0.017099366
-0.84223163 -0.13268848 -0.0077845743
0.89370137 -0.12816884 -0.0090222647
0.92805779 -0.12447733 -0.0088816909
-0.81647545 -0.10656919 -0.0062538991
0.91482472 -0.11802901 -0.016756792
0.89876807 -0.093956985 -0.0059866672
0.91615033 -0.094476461 -0.012475285
0.92855537 -0.096652955 -0.0080998866
0.91294456 -0.077485442 -0.015969731
0.94395995 -0.077385359 -0.0078480253
-0.84250462 -0.058134183 -0.013454896
0.91292387 -0.055232774 -0.015987594
0.92477804 -0.050436046 -0.021041367
-0.84356821 -0.033470575 -0.019604117
0.91292387 -0.032979485 -0.015987594
-0.84356821 -0.010726192 -0.019604117
0.91292387 -0.010726192 -0.015987594
0.94873995 -0.014929087 -0.0074583841
-0.84662491 -0.0017880164 -0.0069451267
-0.82532299 -0.0067793285 -0.006943264
-0.84356821 0.012018193 -0.019604117
0.91290313 0.01152731 -0.016005676
0.92933267 0.010589113 -0.0074919192
-0.84356821 0.03476258 -0.019604117
0.9129135 0.033780601 -0.015996579
-0.84356821 0.057506964 -0.019604117
-0.8247171 0.063052461 -0.0073981648
0.92142117 0.062262774 -0.0077982182
0.94601762 0.055738129 -0.018590864
0.91295493 0.078285724 -0.015960742
0.94395828 0.081275038 -0.0068090176
-0.83885157 0.096918121 -0.0062672691
0.91210496 0.10087728 -0.016543645
-0.8393563 0.12599154 -0.023143385
-0.82201904 0.12469953 -0.0077908756
0.91654336 0.12103161 -0.0081633655
0.92013937 0.12235829 -0.0097373286
0.87932497 0.14658001 -0.015742116
0.91124439 0.14599343 -0.017099366
0.90591174 0.1629073 -0.014758422
-0.83692855 0.18213075 -0.0057016285
-0.8162663 0.17614526 -0.0081045171
0.87536699 0.19052643 -0.019060999
0.88656366 0.18343532 -0.009097279
-0.8182292 0.19624212 -0.022886727
0.87314463 0.20564611 -0.0085417749
-0.81234145 0.22172984 -0.014259054
0.87795252 0.21413422 -0.016913068
-0.8177197 0.24163443 -0.011810248
0.85860473 0.23223367 -0.0086570615
0.8765232 0.23808578 -0.016263098
-0.81978512 0.26361093 -0.010042095
-0.8071292 0.2665568 -0.013559881
0.84157914 0.25527722 -0.01286764
0.84890002 0.26116344 -0.01226356
-0.80240655 0.268098 -0.0086505963
-0.73500091 0.28383949 -0.0063742818
0.8328073 0.28251112 -0.015315707
-0.81471467 0.28712472 -0.014237576
-0.79664278 0.29610237 -0.0089950869
0.81193179 0.30062702 -0.0089159636
-0.80513752 0.31136337 -0.022162348
0.7714746 0.3214843 -0.0088888416
0.77653271 0.31802833 -0.010400119
0.79281211 0.31375033 -0.0089245131
0.81355262 0.30972561 -0.012382026
-0.77534539 0.32260802 -0.0088979369
-0.75342959 0.32913488 -0.008852019
-0.72972697 0.33176094 -0.0087732812
-0.7056039 0.33382067 -0.0086891716
-0.68123674 0.33574528 -0.0086030895
-0.6566568 0.33761582 -0.0085159121
-0.63188559 0.33948672 -0.0084278574
-0.51474619 0.33103615 -0.019898582
-0.48814771 0.32971394 -0.017289832
-0.46128502 0.32915187 -0.016180579
-0.4335649 0.33167833 -0.021165643
0.56491435 0.3322477 -0.022288922
0.59285212 0.32968679 -0.017236024
0.62078053 0.3273721 -0.012669147
0.64719772 0.3289614 -0.015804909
0.67326313 0.33125323 -0.020326853
0.72783995 0.33526823 -0.0088025955
0.74427009 0.33461931 -0.011592167
-0.69881564 0.34224921 -0.02176005
-0.67119455 0.344156 -0.017997772
-0.64365113 0.34603179 -0.014296862
-0.61143571 0.34580398 -0.0079477793
-0.58258736 0.34492722 -0.0082640229
-0.56319898 0.35090128 -0.0070495931
-0.54030913 0.35818595 -0.014109029
-0.53241974 0.35009751 -0.0080948183
-0.50692558 0.3524394 -0.0080069294
-0.48094156 0.35422701 -0.0079135047
-0.45421311 0.35502043 -0.007810547
-0.42677793 0.35494855 -0.0076990398
-0.39797843 0.35288137 -0.0075689582
-0.36911744 0.35123327 -0.0074413428
-0.35174316 0.35842544 -0.01459056
-0.34090906 0.35122845 -0.0073271515
-0.31876981 0.35410279 -0.0094642891
-0.29810247 0.35730731 -0.012342026
-0.28494391 0.35258663 -0.0059595713
-0.27108371 0.35773334 -0.013198788
-0.25028017 0.3544707 -0.0084880227
-0.22600262 0.35219941 -0.0068683615
-0.21741353 0.35568061 -0.0093343733
-0.19026253 0.35451069 -0.0085236924
-0.16662407 0.35222802 -0.0066284174
-0.15709811 0.35564393 -0.0094693033
-0.13644639 0.35508409 -0.010031245
-0.11800541 0.35333189 -0.0054976298
-0.10776883 0.35508406 -0.0099697122
-0.081116796 0.35448998 -0.0084754927
-0.055572767 0.35790199 -0.013537963
-0.048813555 0.35278884 -0.0059468327
-0.024976294 0.35555932 -0.0097041512
-0.007385876 0.35510203 -0.0097726723
0.014417507 0.35272384 -0.0059473803
0.025232874 0.35790196 -0.013537855
0.048044071 0.35471579 -0.00865098
0.072675943 0.3533012 -0.0062691318
0.08087372 0.35526177 -0.0097313011
0.1046887 0.35564342 -0.010099354
0.11529585 0.3523947 -0.0054884786
0.13333821 0.35562041 -0.01017834
0.1573174 0.35448301 -0.0085692825
0.18157062 0.35225606 -0.0052192742
0.19021048 0.35551327 -0.010209874
0.21449821 0.35506216 -0.0093549481
0.22309311 0.35300028 -0.0068759779
0.24740736 0.35433072 -0.0085159307
0.26764825 0.35791081 -0.013555826
0.28646782 0.3542597 -0.0084490264
0.30995822 0.35280356 -0.0072261663
0.32153496 0.35783103 -0.013395171
0.34341431 0.35525724 -0.0103499
0.36647037 0.35257125 -0.0074533438
0.37542498 0.35776004 -0.013252486
0.39836296 0.35501418 -0.010248094
0.42188916 0.3522301 -0.0076754233
0.42938831 0.35744041 -0.012609859
0.45271784 0.3543179 -0.0097757122
0.47621465 0.35171381 -0.0078918608
0.48361337 0.35634759 -0.010412064
0.50712019 0.35567906 -0.010625954
0.53170151 0.35539773 -0.0081405723
0.55885208 0.35688156 -0.0082601877
0.58483726 0.35651928 -0.0083629275
0.61056459 0.35609165 -0.0084642963
0.63600785 0.35553232 -0.0085635288
0.66014802 0.35261124 -0.0086421585
0.66574663 0.34897399 -0.008491748
0.68881297 0.34676662 -0.012335368
0.70586973 0.34213153 -0.0087585403
-0.51263422 0.36046225 -0.018686753
-0.48521742 0.36215857 -0.02209802
0.53621495 0.36018795 -0.018135086
0.56229955 0.36243212 -0.022647936
0.58929384 0.36207035 -0.021920376
0.61637062 0.36153162 -0.020837206
0.64342231 0.36109886 -0.019966856
0.67048502 0.36067453 -0.019113488
-0.51334888 -0.3587054 -0.00379238
-0.47476813 -0.36087799 -0.0039626798
-0.4373447 -0.36221287 -0.004122843
-0.40212551 -0.36141726 -0.0042602113
-0.36945087 -0.35797301 -0.0043700198
-0.68173569 -0.33984819 -0.0029873988
-0.64024442 -0.34302866 -0.0031760549
-0.61704546 -0.34436163 -0.00094998628
-0.59552377 -0.34571475 0.0010081567
-0.55787355 -0.35207599 0.0026199101
-0.53445727 -0.35131493 0.012512727
-0.4014031 -0.35077882 0.011474705
-0.37481278 -0.35053733 0.011007311
-0.34221256 -0.35299733 0.0031989198
-0.32145381 -0.3508234 0.01156117
-0.29795307 -0.35351318 0.0038799569
-0.26716387 -0.3538321 0.0039200392
-0.24142845 -0.35140419 0.012685657
-0.21479346 -0.35139525 0.012668341
-0.18815592 -0.35140419 0.012685657
-0.16151799 -0.35142204 0.012720177
-0.13488215 -0.35142204 0.012720177
-0.10824725 -0.35140419 0.012685657
-0.081611469 -0.35139525 0.012668341
-0.054975402 -0.35138625 0.012650917
-0.028339017 -0.35136846 0.012616507
-0.0017021932 -0.35133278 0.012547466
0.024929861 -0.35165432 0.013169928
0.051567014 -0.35150242 0.012875902
0.078205697 -0.3514221 0.012720287
0.10484647 -0.35135058 0.012581876
0.13148805 -0.35129699 0.012478096
0.15813415 -0.35121655 0.012322481
0.18478394 -0.3511273 0.012149441
0.21143447 -0.35105574 0.012011031
0.23808603 -0.35099322 0.011889935
0.264314 -0.35297152 0.0035372199
0.29138714 -0.35091278 0.011734101
0.29852882 -0.35483146 -0.0046224566
0.31804419 -0.35085025 0.011613006
0.33910775 -0.35274422 0.0035060421
0.37017471 -0.35255095 0.0034574671
0.40144613 -0.35234007 0.0034098234
0.43293464 -0.35206142 0.0032504266
0.47841826 -0.34918606 0.0083908886
0.47875863 -0.35234082 -0.0038768174
0.50506318 -0.34927565 0.008564367
0.52390039 -0.35072371 0.0030898526
0.55553007 -0.35120505 0.0036476851
0.5847066 -0.35028702 0.010522492
0.59130412 -0.35122478 -0.0034138067
0.61169887 -0.34940994 0.0088244202
0.63582677 -0.34770432 0.0012648497
0.65838271 -0.34400755 0.01225355
0.67242354 -0.34331256 0.001458602
0.68596852 -0.34196198 0.0037218761
-0.65649247 -0.33594993 0.012733218
-0.62833118 -0.33820063 0.0082922596
0.62441844 -0.33650693 0.010392521
0.67936516 -0.33874071 -0.0029756716
0.72947949 -0.32701409 -0.0026961667
-0.80373526 -0.30844066 0.0061206557
-0.78795344 -0.31359616 0.002552568
0.74774474 -0.32088107 0.011742868
0.77786291 -0.31387141 -0.0015777079
0.79609454 -0.30898288 0.0026689507
0.78754532 -0.29765427 0.0042623654
0.80569977 -0.28904685 0.0089024473
-0.77821761 -0.26806626 0.010733121
0.82436985 -0.28411445 -0.0034311758
-0.80287796 -0.25315022 -0.0019294871
0.83939219 -0.26166731 0.0091927461
-0.81090599 -0.24263254 0.013238201
-0.82689065 -0.21584611 -0.0041624596
-0.81459129 -0.21911021 0.010094002
0.8351602 -0.22014888 0.013485214
0.86648399 -0.21306895 0.0025114724
-0.83017915 -0.19279462 -0.00144138
-0.81788236 -0.19569311 0.0072861281
0.8765803 -0.18978284 0.010994818
0.89014006 -0.19154082 0.0014607394
-0.83316177 -0.16982946 0.0010266593
-0.8208499 -0.17236449 0.0047541987
0.89633447 -0.16684158 -0.0012299838
-0.83579654 -0.14694394 0.003206701
-0.82356346 -0.14911048 0.0024391441
0.91984206 -0.15554324 -0.00062176865
-0.83826095 -0.12411904 0.005246141
-0.82608056 -0.12592056 0.00029154122
0.91125083 -0.12149128 0.011496294
-0.83306271 -0.10164626 0.00094457809
-0.82056928 -0.10310217 0.0049936492
-0.83461154 -0.078870259 0.0022263238
-0.82242054 -0.079952627 0.0034143711
0.92340934 -0.077879712 0.0015931223
-0.83526373 -0.056382019 0.0021967348
-0.83527482 -0.033553995 0.002196461
-0.83527482 -0.010726192 0.002196461
-0.83527482 0.012101614 0.002196461
0.92244345 0.011668132 0.0024555819
-0.83527482 0.034929421 0.002196461
-0.83526373 0.057757549 0.0021967348
0.92756397 0.055592105 -0.0033059167
-0.83489686 0.080121256 0.0024623768
-0.82276779 0.081561819 0.0031179348
0.89918983 0.095586404 0.010291151
-0.83337039 0.10290866 0.0011992613
-0.82093966 0.10472525 0.0046778154
-0.83949685 0.12527183 0.0062688193
-0.82653862 0.12747957 -9.9142082e-05
0.89416057 0.12959957 0.0073122103
0.91184998 0.12215596 0.012007414
0.92930156 0.12322162 -0.003667119
-0.83626789 0.14816186 0.0035968358
-0.82403368 0.15068921 0.0020379415
-0.83371109 0.1710626 0.0014811223
-0.82141101 0.17395841 0.0042756256
0.89388937 0.16688912 0.0003713211
0.87805313 0.19058065 0.01223229
0.89360392 0.19237517 -0.0015855981
-0.83075207 0.19404978 -0.0009673005
-0.81844497 0.19731094 0.0068060216
-0.82755351 0.21711922 -0.0036138603
-0.81522316 0.22074839 0.0095549356
0.8682158 0.21392679 0.0039665867
-0.82942748 0.2463446 -0.0019178707
-0.81169814 0.24428365 0.01256237
0.83689982 0.23608023 0.007262676
0.85893816 0.2374074 -0.0038288729
0.84186816 0.26273105 0.0088429954
0.82648802 0.2851719 -0.0016786391
0.80470341 0.2925019 -0.0014200108
-0.79878581 0.31225756 0.0039234636
0.80473202 0.30832824 0.0024322122
-0.79762888 0.3254872 -0.00099121872
-0.70196331 0.33819193 -0.0030352334
0.69870245 0.33804026 -0.0030334806
0.71789652 0.32902235 0.010886107
0.74774152 0.32561937 -0.00010081287
-0.66033 0.34132189 -0.0032240534
-0.62635666 0.34491056 0.012587685
-0.61719054 0.34663758 -0.0034334222
-0.59283298 0.35038203 0.0012154253
-0.57366335 0.35299435 -0.0036513386
-0.5605998 0.35391185 0.0012509869
-0.5332979 0.35610411 0.00041269045
-0.50644368 0.35678989 0.0069294181
-0.48717067 0.35795319 0.0020482969
-0.45313367 0.35741138 0.008155603
-0.42681178 0.35655347 0.0064629004
-0.42213801 0.35858381 -0.004301033
-0.39496699 0.35539535 0.00028280076
-0.37386259 0.35575578 0.0048889918
-0.35604888 0.35271731 -0.0045302371
-0.34731838 0.35558033 0.0045430213
-0.3207497 0.35447606 0.00033214316
-0.2939994 0.35636947 0.0060997247
-0.26740906 0.35647455 0.0063071754
-0.24083306 0.35650963 0.0063763256
-0.21426184 0.35651833 0.0063936403
-0.18769076 0.35652706 0.006410846
-0.16112013 0.35653582 0.0064280513
-0.13455115 0.35652706 0.006410846
-0.10798144 0.35652706 0.006410846
-0.081409886 0.35656223 0.0064801057
-0.054840665 0.35656208 0.0064799963
-0.028271843 0.35653582 0.0064280513
-0.0017021932 0.35649198 0.0063415859
0.024864601 0.35670224 0.0067564878
0.051435616 0.35657966 0.0065145167
0.078009918 0.35647455 0.0063071754
0.10458581 0.35639566 0.0061514503
0.13116395 0.35632551 0.0060131499
0.15774155 0.35628179 0.0059269038
0.18432285 0.35622042 0.0058058086
0.21090609 0.35615906 0.0056847129
0.2374915 0.35609773 0.0055637276
0.26407748 0.35604507 0.0054599475
0.29067191 0.35595742 0.0052867979
0.31823203 0.35200182 -0.0046645934
0.34387723 0.35574695 0.0048715677
0.35327697 0.35195273 -0.0045224568
0.37048942 0.35562414 0.0046293773
0.39293605 0.35366285 2.2008084e-05
0.42422572 0.35343403 -0.00014703162
0.45029536 0.35544881 0.0042834068
0.46933675 0.35250545 -0.0012923675
0.50141549 0.35179019 -0.0016209679
0.5305512 0.35399988 0.0014246842
0.53640538 0.34915942 -0.0037628999
0.55707318 0.35425478 0.0019274764
0.57853299 0.35179919 -0.0011831624
0.61117452 0.35101509 -0.0020320332
0.63808829 0.35133213 -0.0038389536
0.65244299 0.34612307 -0.0032735327
0.69554728 0.3427763 0.011170159
0.71832079 0.34125847 -0.00067513809
-0.45716706 0.35974434 -0.0041669523
0.46872646 -0.35893631 0.016354511
-0.69874924 -0.33975264 0.014771616
-0.6741643 -0.34150615 0.014947616
-0.6493994 -0.34328642 0.015124765
-0.63312316 -0.34365967 0.020430323
-0.59972501 -0.34679034 0.02032109
-0.57433611 -0.34946415 0.015651392
-0.55845052 -0.34973273 0.024789089
-0.54840332 -0.35047543 0.015848104
-0.52015215 -0.35266089 0.020226214
-0.50174654 -0.35277733 0.015654925
-0.47966072 -0.3547819 0.020159502
-0.46933207 -0.35361719 0.016446948
-0.44595668 -0.35499585 0.01893287
-0.42763862 -0.3523148 0.014448824
-0.41055572 -0.35525835 0.020177145
-0.38671148 -0.3540687 0.017109739
-0.37233469 -0.35448799 0.023220332
-0.35861647 -0.35413533 0.017336259
-0.33703485 -0.35455605 0.022933813
-0.33026892 -0.3542172 0.017564695
-0.30194265 -0.35464656 0.020219309
-0.27006158 -0.35512543 0.020187611
-0.24391137 -0.35493773 0.01825428
-0.23271374 -0.35551572 0.022076942
-0.21440838 -0.35489193 0.018493677
-0.19172865 -0.3551966 0.02026898
-0.16536041 -0.35560688 0.021530479
-0.15450157 -0.35472459 0.018980686
-0.13219261 -0.35565162 0.021261439
-0.1241263 -0.35466224 0.019227371
-0.096406117 -0.35514766 0.020235721
-0.064656034 -0.35512269 0.020229967
-0.032898698 -0.35508946 0.020226788
-0.0011608079 -0.35503259 0.020226762
0.03056349 -0.35493669 0.020229829
0.062482938 -0.35495993 0.020233363
0.090976104 -0.35599867 0.019450437
0.10627224 -0.34155449 0.021263905
0.12155949 -0.35595024 0.0192037
0.13055646 -0.35326687 0.021307139
0.15794177 -0.35437572 0.020271309
0.18186136 -0.35586935 0.018716633
0.19789654 -0.35237995 0.021863848
0.21157859 -0.35582191 0.018476635
0.23212889 -0.35188955 0.022147352
0.24102445 -0.35578978 0.01823872
0.26845244 -0.35358417 0.02021835
0.30037585 -0.3533262 0.020246185
0.32771605 -0.35569522 0.017538231
0.33698732 -0.35043606 0.023015127
0.35607752 -0.35566431 0.017309135
0.37845367 -0.35274062 0.020197254
0.41047484 -0.35238746 0.020235829
0.43949869 -0.35537413 0.016637743
0.4484227 -0.35042194 0.019829448
0.48893449 -0.34991431 0.020244844
0.52179992 -0.34851104 0.020313144
0.54694736 -0.35439387 0.015780816
0.56242275 -0.34147 0.024957253
0.57365674 -0.35505128 0.01555605
0.59994352 -0.35534278 0.015339394
0.62407756 -0.35077479 0.015106929
0.65026939 -0.35258192 0.014968273
0.67428726 -0.34933263 0.014816384
0.69759965 -0.34485847 0.014686302
-0.79329062 -0.32799873 0.014160278
-0.77514565 -0.3260259 0.026975596
-0.77110261 -0.33383486 0.014263401
-0.74507159 -0.33198896 0.024106737
-0.72422057 -0.33643979 0.020465966
-0.71319604 -0.33110407 0.022294145
-0.6839121 -0.33601168 0.021684781
0.60271621 -0.33863252 0.025320483
0.64625061 -0.33279848 0.025749411
0.69076294 -0.32892716 0.027033404
0.71965456 -0.3321707 0.01724319
0.7429387 -0.33386433 0.014463454
0.76544273 -0.32839972 0.014352715
0.78724533 -0.32149708 0.014266633
-0.8101508 -0.30903357 0.014272222
0.6964274 -0.32046652 0.026317026
0.7097047 -0.30521566 0.028491916
0.78127992 -0.30933341 0.019976899
0.8085146 -0.31348264 0.01419951
-0.80012184 -0.29030806 0.022439022
0.7736237 -0.29999331 0.029323254
0.79579777 -0.28465715 0.03162406
0.82628393 -0.2966502 0.014276112
-0.81817019 -0.28044614 0.014723069
-0.80698156 -0.26625493 0.016586455
0.75160474 -0.27805549 0.031556118
0.80465335 -0.26832741 0.027034501
0.81303596 -0.28403839 0.016472867
0.84243166 -0.27534282 0.014424495
-0.8197419 -0.26090485 0.019162932
0.81675017 -0.25753266 0.019542765
0.85810578 -0.25234452 0.014598741
-0.82953691 -0.23248853 0.015117751
-0.82396007 -0.23774603 0.022599898
0.83470249 -0.234859 0.02532525
0.8471874 -0.23629147 0.015449366
-0.82734978 -0.21474367 0.025361799
0.85627621 -0.21292536 0.022970032
0.87069064 -0.22204551 0.017891515
0.88825196 -0.20143589 0.015021423
-0.83336782 -0.18811975 0.021806177
-0.81388992 -0.19205917 0.020523636
0.86441904 -0.18981408 0.029707909
0.90358001 -0.17577237 0.015233532
-0.83333445 -0.16899398 0.030238207
0.87121588 -0.17376679 0.024365475
0.89287746 -0.16792506 0.023765508
0.89365655 -0.1433973 0.025093818
0.92009073 -0.15295619 0.015398681
-0.8422482 -0.13273418 0.016321305
-0.8259666 -0.12653519 0.030480508
0.89963549 -0.12148973 0.030366972
-0.83053237 -0.10127529 0.027955044
-0.81515151 -0.11038505 0.019443752
0.92954898 -0.10829794 0.015907062
0.9139958 -0.099228457 0.013838307
-0.83805078 -0.072851732 0.023221318
0.9160552 -0.077041097 0.015595227
-0.82628107 -0.057043459 0.030207962
0.89924341 -0.048219841 0.014549097
0.91759723 -0.054905284 0.016910836
0.93623573 -0.053440522 0.016571386
-0.82628107 -0.033884827 0.030207962
0.91744345 -0.03130278 0.01764686
-0.82445818 -0.012536353 0.024166629
0.8921532 -0.0089498358 0.024114737
0.91902435 -0.010726192 0.018128473
-0.84402913 0.0056941295 0.01811987
-0.82628107 0.012432442 0.030207962
0.8861841 0.027550437 0.030041825
0.9190346 0.01134898 0.018137131
0.9376756 0.020239685 0.017524695
-0.82628107 0.035591077 0.030207962
0.91728908 0.03943935 0.01721289
-0.82461882 0.058479346 0.023690274
0.89908844 0.050374296 0.02987799
0.91783363 0.055535354 0.017112479
-0.83243757 0.079747863 0.029507473
0.9164049 0.077679686 0.015893528
0.91205013 0.10029741 0.015051369
-0.83344454 0.10376906 0.023832053
-0.82423151 0.12648097 0.023195099
0.90013385 0.1221603 0.03078571
0.86918992 0.15642275 0.031494636
0.89898372 0.14508234 0.021925518
0.92041677 0.15674493 0.01603939
-0.8338809 0.17010823 0.030683354
0.88884997 0.16845818 0.020000022
0.90433848 0.16990018 0.018619429
-0.83412772 0.18710828 0.024419859
-0.81637824 0.17643961 0.015677419
0.86757439 0.18494405 0.023746794
0.86919081 0.19476902 0.014982081
-0.82797599 0.21589823 0.025871988
-0.80995488 0.22445279 0.015100546
0.8373729 0.21210426 0.019749833
0.8561579 0.21754341 0.019483313
0.87390018 0.21693353 0.015742734
-0.82464314 0.23892166 0.023156386
0.80536127 0.2454038 0.024339722
0.83937484 0.2458533 0.014554467
0.84903687 0.23719427 0.016979713
-0.82054925 0.26210061 0.019820737
0.82519722 0.26114917 0.02638201
-0.81571949 0.28545439 0.015885418
-0.80506819 0.26839274 0.015383722
0.77435768 0.27698475 0.026420148
0.8041333 0.27080494 0.014891671
0.81950235 0.2769573 0.016306786
-0.796637 0.29694501 0.017601516
0.77901953 0.29786482 0.023566686
0.80780566 0.29024658 0.014228552
-0.78216171 0.31950986 0.022924827
0.71533787 0.3204852 0.026188806
0.74417162 0.30716681 0.026448093
0.76917207 0.31593508 0.014204825
0.78887779 0.30888659 0.019504355
-0.79209685 0.32647988 0.026703872
-0.77200651 0.33437863 0.021256782
-0.74560946 0.33356911 0.024090901
-0.72319788 0.33457729 0.021659929
-0.70646805 0.3358292 0.022399735
-0.68171573 0.3374863 0.018303156
-0.66167617 0.33988035 0.025472701
-0.65614063 0.33649352 0.014878246
-0.6313318 0.33830613 0.015055177
-0.60660428 0.3406969 0.015224162
0.12570916 0.33835149 0.021182317
0.58262384 0.33935028 0.024867501
0.62276703 0.33687446 0.025224922
0.63427216 0.33816227 0.028582655
0.66179657 0.33570981 0.023834191
0.67280561 0.33551848 0.020133557
0.6896733 0.33263579 0.017882338
0.70220524 0.33383414 0.014512495
0.72490096 0.32847559 0.014398851
0.74740553 0.32295322 0.014289044
-0.65445262 0.34264287 0.017147986
-0.61955994 0.34406191 0.025077034
-0.57996535 0.34539106 0.020045448
-0.55617845 0.3446584 0.015580324
-0.53767473 0.35155097 0.024316162
-0.53022385 0.34576494 0.015775939
-0.50136185 0.35056779 0.019968241
-0.47785941 0.34836963 0.01616569
-0.4615117 0.35472894 0.023658194
-0.45102295 0.34906912 0.016373744
-0.42532188 0.35166204 0.019986846
-0.39425901 0.35083279 0.01997079
-0.36831903 0.34982276 0.017033301
-0.35686618 0.35172939 0.022850307
-0.34015012 0.34991154 0.017260149
-0.32170102 0.3519226 0.02256313
-0.31172729 0.35001552 0.017488915
-0.28495854 0.35144758 0.019993175
-0.2533789 0.35170895 0.019967092
-0.22520991 0.35091668 0.018177293
-0.21837302 0.35250559 0.021719299
-0.19024658 0.35171327 0.01993205
-0.16582407 0.35097718 0.018657237
-0.15155917 0.35247239 0.021178976
-0.13565911 0.35094133 0.018901784
-0.11867763 0.35242528 0.020913443
-0.10523015 0.35094988 0.019147974
-0.080303445 0.35166863 0.020023556
-0.048669118 0.35165733 0.020018734
-0.021956462 0.35231721 0.020131804
-0.012084302 0.35088488 0.019902818
0.0096019208 0.35221156 0.019877832
0.019601092 0.3508324 0.020160021
0.046356875 0.35160044 0.020019995
0.072023951 0.35233167 0.019370986
0.084070176 0.35052687 0.020685881
0.10266091 0.35221255 0.019124631
0.13300472 0.35209465 0.018880524
0.15644455 0.35112721 0.019930024
0.18346222 0.34978473 0.021500014
0.19283894 0.35187688 0.018399101
0.21739812 0.349381 0.021780012
0.22232784 0.35176215 0.018161843
0.25161403 0.35032594 0.019994598
0.28340793 0.35009387 0.020020571
0.3091915 0.35149652 0.017462339
0.32132331 0.34820786 0.022636609
0.33761159 0.3514142 0.017233245
0.36124775 0.34952271 0.019968159
0.39308631 0.34922522 0.020004243
0.42118073 0.35093245 0.016563222
0.42885417 0.34672162 0.023526467
0.4507035 0.35482436 0.016273251
0.47057492 0.34754881 0.019993996
0.50312036 0.34636855 0.020056406
0.5288465 0.34976479 0.015707118
0.5436573 0.34103686 0.024530077
0.55570978 0.3505626 0.015479119
0.5819689 0.35063919 0.015265532
0.59862262 0.35133561 0.027002007
0.60742956 0.34953839 0.015073971
0.63579482 0.34738803 0.021250647
0.65630263 0.3442491 0.014747672
0.67016512 0.34465623 0.021272345
-0.67354232 -0.3401261 0.038401663
-0.6487118 -0.3417913 0.038670376
-0.61673158 -0.34217072 0.044296697
-0.59861046 -0.34543949 0.039206974
-0.57314312 -0.34701866 0.039485272
