ply
format ascii 1.0
comment PCL generated
element vertex 1364
property float x
property float y
property float z
element camera 0
property float view_px
property float view_py
property float view_pz
property float x_axisx
property float x_axisy
property float x_axisz
property float y_axisx
property float y_axisy
property float y_axisz
property float z_axisx
property float z_axisy
property float z_axisz
property float focal
property float scalex
property float scaley
property float centerx
property float centery
property int viewportx
property int viewporty
property float k1
property float k2
end_header
-0.69146729 0.10708573 -0.16574307
-0.65318775 0.10830286 -0.16753222
-0.61409265 0.10954631 -0.16934028
-0.59828538 0.10679948 -0.15212706
-0.57039857 0.10753991 -0.15334596
-0.54253381 0.10827989 -0.15456429
-0.51469117 0.10901919 -0.15578128
-0.48687062 0.10975799 -0.15699749
-0.45907208 0.11049623 -0.15821268
-0.43129823 0.11122322 -0.15940966
-0.40875465 0.11243948 -0.15750925
-0.37581113 0.11269671 -0.16183531
-0.34810033 0.11343259 -0.16304679
-0.33683428 0.11082117 -0.15915844
-0.32033506 0.11459829 -0.16496575
-0.29279101 0.11461921 -0.16500027
-0.27051669 0.10907999 -0.15941314
-0.26524916 0.11462967 -0.16501749
-0.2377062 0.1146507 -0.16505201
-0.20809732 0.1110292 -0.16237922
-0.18262206 0.11469277 -0.1651213
-0.14921245 0.11022198 -0.16252524
-0.12754118 0.11472426 -0.16517304
-0.10000119 0.11474518 -0.16520756
-0.082338959 0.10413895 -0.16015695
-0.072461873 0.11476616 -0.16524211
-0.044923391 0.11477662 -0.16525932
-0.017385032 0.11479759 -0.16529384
0.010152655 0.11481857 -0.16532849
0.037690002 0.11482903 -0.16534568
0.065226451 0.11485007 -0.16538022
0.092762448 0.11487115 -0.16541497
0.12029788 0.11489207 -0.1654494
0.14783321 0.11490259 -0.16546671
0.17536758 0.11492351 -0.16550113
0.20290115 0.11494455 -0.16553588
0.23043546 0.11495506 -0.16555309
0.25469369 0.11861056 -0.16352209
0.28549987 0.11499696 -0.16562204
0.30762002 0.11779809 -0.16365379
0.34616619 0.11699 -0.16376223
0.36809415 0.11504943 -0.16570842
0.39786828 0.11621766 -0.16388918
0.4231548 0.11508086 -0.16576016
0.45047095 0.11604406 -0.16617441
0.4778837 0.11642253 -0.16796897
0.49652356 0.11415825 -0.16451123
0.5053972 0.11642259 -0.16796897
0.53715038 0.11455472 -0.16629969
0.56042433 0.11642253 -0.16796897
0.5865804 0.11383594 -0.16635786
0.61545163 0.11642253 -0.16796897
0.62807006 0.10984395 -0.16486958
0.64296532 0.11642253 -0.16796897
0.67020917 0.11244669 -0.16647479
0.70443451 0.11177542 -0.16652904
0.72550595 0.11642253 -0.16796897
0.75197184 0.11111864 -0.16658658
0.78053325 0.11642253 -0.16796897
0.79008704 0.10453041 -0.16530801
0.80804682 0.11642253 -0.16796897
0.83556038 0.11642253 -0.16796897
0.86307412 0.11642253 -0.16796897
0.89058745 0.11642253 -0.16796897
0.91810101 0.11642253 -0.16796897
0.9437893 0.10779384 -0.15796877
0.97317624 0.10695942 -0.16795576
-0.87999117 0.12356409 -0.16377158
-0.8707636 0.12491482 -0.15246977
-0.85128123 0.13577196 -0.15540709
-0.82220364 0.1348428 -0.15674385
-0.80142319 0.12673537 -0.16029833
-0.79315186 0.13391487 -0.15807895
-0.76479548 0.13053998 -0.16074559
-0.73197377 0.13076173 -0.16234179
-0.70612234 0.13106 -0.16218613
-0.69146729 0.1309233 -0.16574307
-0.67716432 0.13011014 -0.16355282
-0.6507234 0.13081604 -0.16616249
-0.61887556 0.13354295 -0.16215554
-0.59294885 0.13330244 -0.15979804
-0.56465334 0.1332286 -0.1610319
-0.53990185 0.14055073 -0.1547166
-0.5328629 0.12577127 -0.16979524
-0.27051669 0.13937551 -0.15941314
-0.20603092 0.13725893 -0.15967178
-0.14334306 0.13520156 -0.15991198
-0.082338959 0.13319921 -0.16015695
-0.022989605 0.13125144 -0.1603846
0.034789018 0.12935519 -0.16060606
0.091077223 0.12750764 -0.1608323
0.14589638 0.12570852 -0.16104218
0.19933791 0.12395443 -0.16125719
0.45057181 0.14121896 -0.16437975
0.49652356 0.13941033 -0.16451123
0.54139 0.13764463 -0.1646304
0.58522284 0.13591963 -0.16474676
0.62807006 0.13423318 -0.16486958
0.66993958 0.13258544 -0.16498059
0.71087658 0.13097438 -0.16508913
0.75092393 0.12939814 -0.1652042
0.79008704 0.12785691 -0.16530801
0.82841724 0.12634824 -0.16541812
0.86591899 0.12487239 -0.16551739
0.90265131 0.12342641 -0.16563161
0.9386242 0.12929142 -0.158797
-0.87902206 0.14624123 -0.16300619
-0.86760348 0.15903676 -0.15389417
-0.80144602 0.14987341 -0.16031565
-0.76547039 0.15147305 -0.16205981
-0.72883695 0.15310061 -0.16388305
-0.69146729 0.15476088 -0.16574307
-0.65318775 0.15646484 -0.16753222
-0.61409265 0.15820569 -0.16934028
-0.5121929 0.14127374 -0.15592761
-0.48450837 0.14198604 -0.15712088
-0.45684287 0.14270803 -0.15833034
-0.42919922 0.1434294 -0.15953878
-0.40777153 0.144162 -0.15757084
-0.37397724 0.14487043 -0.16195273
-0.34639907 0.14559011 -0.16315825
-0.33683428 0.141552 -0.15915844
-0.31877393 0.14668912 -0.16499926
-0.29135999 0.14670965 -0.16503368
-0.26394662 0.14673023 -0.1650681
-0.23653533 0.14674047 -0.16508532
-0.2091231 0.14676099 -0.16511972
-0.18171139 0.14678146 -0.16515402
-0.15430042 0.14680204 -0.16518845
-0.12689078 0.14681228 -0.16520566
-0.099480763 0.14683287 -0.16524018
-0.072071522 0.14685339 -0.16527438
-0.044663239 0.14686362 -0.16529159
-0.020122249 0.15340315 -0.1628553
0.010152655 0.14690462 -0.16536042
0.036174357 0.15228595 -0.16300051
0.064966351 0.14693543 -0.16541193
0.091724716 0.15119278 -0.16313933
0.11977758 0.14697649 -0.16548078
0.14589638 0.15327065 -0.16104218
0.14718293 0.14698678 -0.16549787
0.17458726 0.14700732 -0.16553229
0.2006644 0.1490967 -0.16341184
0.22939393 0.14704837 -0.16560112
0.25410858 0.14808658 -0.16353738
0.28419954 0.14707913 -0.16565263
0.30690485 0.14710696 -0.16366893
0.34538603 0.14613606 -0.16377741
0.36640352 0.14713041 -0.16573846
0.39695802 0.14520463 -0.16390415
0.42120439 0.14716119 -0.16579008
0.44829023 0.14848368 -0.16800541
0.47567379 0.14848372 -0.16800553
0.50305742 0.14848362 -0.1680053
0.53044093 0.14848372 -0.16800553
0.55782449 0.14848372 -0.16800553
0.58520824 0.14848362 -0.1680053
0.61259168 0.14848372 -0.16800553
0.62807006 0.1586224 -0.16486958
0.63997549 0.14848372 -0.16800553
0.66864926 0.15259182 -0.16649295
0.70280951 0.1516521 -0.16654733
0.72212631 0.14848372 -0.16800553
0.74950975 0.14848368 -0.16800541
0.75092393 0.15298152 -0.1652042
0.77689326 0.14848372 -0.16800553
0.79718208 0.14983357 -0.16665676
0.83003891 0.14895348 -0.16671176
0.85904425 0.14848368 -0.16800541
0.86591899 0.14770147 -0.16551739
0.88642782 0.14848372 -0.16800553
0.90823126 0.1472491 -0.16681856
0.94082856 0.15269765 -0.1567388
-0.87565732 0.170782 -0.1597378
-0.82635123 0.16999866 -0.15663138
-0.80148023 0.17301014 -0.16034186
-0.79715288 0.1690506 -0.15797311
-0.76673675 0.17147107 -0.16069596
-0.73383248 0.17192239 -0.16227756
-0.70969754 0.16617234 -0.162047
-0.69146729 0.17859845 -0.16574307
-0.68059349 0.16520189 -0.16342044
-0.65153879 0.16430905 -0.16468444
-0.62133187 0.16690385 -0.15859611
-0.59300762 0.16681246 -0.15983115
-0.56470621 0.16672117 -0.16106547
-0.53642905 0.16662493 -0.16228999
-0.50972104 0.1732126 -0.15605561
-0.48216578 0.17391913 -0.15726012
-0.4546321 0.17462519 -0.15846373
-0.42712015 0.1753307 -0.15966655
-0.41396564 0.17542897 -0.15439548
-0.39962977 0.17603558 -0.16086824
-0.37216103 0.1767398 -0.16206881
-0.34471369 0.17744367 -0.16326894
-0.33683428 0.17228281 -0.15915844
-0.31722739 0.17847829 -0.16503267
-0.28994238 0.17849836 -0.16506687
-0.27051669 0.16967104 -0.15941314
-0.262658 0.17851849 -0.16510127
-0.2353756 0.17852844 -0.16511816
-0.20706156 0.17283978 -0.162412
-0.18080951 0.17856854 -0.16518664
-0.14843519 0.17162548 -0.16256647
-0.12624657 0.17859864 -0.16523793
-0.090652257 0.17043915 -0.16271454
-0.071685001 0.17863891 -0.16530655
-0.044405553 0.17864886 -0.16532354
-0.017126113 0.17866887 -0.16535762
0.010152599 0.17868906 -0.16539203
0.037430745 0.17870903 -0.16542622
0.064708605 0.17871915 -0.16544344
0.091985628 0.17873906 -0.1654774
0.11926232 0.17875931 -0.16551171
0.14653811 0.17877944 -0.16554612
0.17381428 0.17878933 -0.165563
0.20021348 0.17859326 -0.16342725
0.22836326 0.17882961 -0.16563161
0.25352892 0.17741179 -0.16355257
0.28291148 0.17885964 -0.1656829
0.30619636 0.17626509 -0.16368406
0.34461224 0.17513643 -0.16380091
0.36472899 0.17890979 -0.16576827
0.39605644 0.17404082 -0.16391899
0.41927022 0.17894995 -0.16583687
0.44654229 0.17895997 -0.16585386
0.45057181 0.16677247 -0.16437975
0.49652356 0.16466241 -0.16451123
0.54139 0.16260242 -0.1646304
0.58522284 0.16058992 -0.16474676
0.71087658 0.17866656 -0.16508913
0.75092393 0.1765649 -0.1652042
0.79008704 0.17450991 -0.16530801
0.82841724 0.17249836 -0.16541812
0.86591899 0.17053056 -0.16551739
0.90265131 0.16860259 -0.16563161
0.94738752 0.16756794 -0.15409482
-0.87533206 0.19180584 -0.16009171
-0.86310154 0.19303837 -0.15592329
-0.80151433 0.19614621 -0.16036795
-0.65318775 0.18054585 -0.16753222
-0.61409265 0.18253537 -0.16934028
-0.56739271 0.19698876 -0.16837952
-0.53828776 0.19607949 -0.16964588
-0.20603092 0.19700335 -0.15967178
-0.14334306 0.19412301 -0.15991198
-0.082338959 0.19131976 -0.16015695
-0.022989605 0.18859287 -0.1603846
0.034789018 0.18593812 -0.16060606
0.091077223 0.18335156 -0.1608323
0.14589638 0.18083279 -0.16104218
0.35176864 0.19758384 -0.16185066
0.4001129 0.19504525 -0.16203552
0.45057181 0.19232599 -0.16437975
0.47348478 0.18024331 -0.16804186
0.49863148 0.18507889 -0.16627654
0.53469217 0.18390177 -0.16633613
0.55524909 0.18024331 -0.16804186
0.58386338 0.1827517 -0.16639419
0.60975879 0.18024331 -0.16804186
0.62807006 0.18301161 -0.16486958
0.63701379 0.18024325 -0.16804174
0.66710401 0.18052892 -0.16651112
0.69152319 0.18024325 -0.16804174
0.71877813 0.18024331 -0.16804186
0.74603289 0.18024331 -0.16804186
0.77328777 0.18024321 -0.16804163
0.79531473 0.18903984 -0.16667488
0.82810736 0.18790834 -0.16672993
0.85505223 0.18024321 -0.16804163
0.86591899 0.19335964 -0.16551739
0.88230699 0.18024331 -0.16804186
0.90956199 0.18024325 -0.16804174
-0.8885389 0.20159578 -0.15474831
-0.86762083 0.20852883 -0.1549197
-0.83054525 0.2055195 -0.15649922
-0.8011986 0.20455097 -0.15784815
-0.76870328 0.20089355 -0.16064976
-0.74257815 0.20260334 -0.1605605
-0.72883695 0.20030139 -0.16388305
-0.71330911 0.20163728 -0.16190584
-0.69146729 0.20243603 -0.16574307
-0.68405718 0.20064591 -0.16328648
-0.65401769 0.20216724 -0.16606273
-0.6189819 0.20259196 -0.1621988
-0.59652126 0.19789857 -0.16711247
-0.45244214 0.20624159 -0.15859601
-0.42506066 0.20693131 -0.15979297
-0.41396564 0.20668416 -0.15439548
-0.39770049 0.20762067 -0.16098915
-0.37036169 0.20830931 -0.1621841
-0.33984286 0.20648688 -0.16210353
-0.31569535 0.20996989 -0.16506563
-0.28853813 0.20998947 -0.16509971
-0.27051669 0.19996656 -0.15941314
-0.26138139 0.2100091 -0.16513379
-0.23422529 0.21002872 -0.16516787
-0.20707099 0.21003851 -0.16518486
-0.17991589 0.2100582 -0.16521893
-0.1527614 0.21007782 -0.16525301
-0.12560755 0.21009739 -0.16528697
-0.098454922 0.21010718 -0.16530396
-0.071302176 0.21012686 -0.16533816
-0.044149894 0.21014655 -0.16537224
-0.016998395 0.21015628 -0.16538922
0.010152711 0.21017596 -0.1654233
0.03604608 0.21221256 -0.16303161
0.064453177 0.21021527 -0.16549157
0.09134005 0.21074927 -0.16317043
0.11875173 0.21024463 -0.16554241
0.14589822 0.20932962 -0.16330934
0.17304854 0.2102742 -0.1655937
0.19976681 0.20794103 -0.16344243
0.22734237 0.21031339 -0.16566175
0.25295404 0.20659323 -0.16357619
0.28163525 0.21034271 -0.1657127
0.30549449 0.20527451 -0.16369896
0.3359246 0.21038201 -0.16578086
0.36307031 0.21039185 -0.16579784
0.39021343 0.21041147 -0.16583204
0.41735613 0.21043105 -0.1658659
0.49652356 0.21516655 -0.16451123
0.54139 0.21251802 -0.1646304
0.58522284 0.20993051 -0.16474676
0.62807006 0.20740083 -0.16486958
0.66993958 0.20492922 -0.16498059
0.71087658 0.20251265 -0.16508913
0.71546143 0.21170552 -0.16807751
0.7425887 0.21170558 -0.16807751
0.75092393 0.20014827 -0.1652042
0.76971596 0.21170552 -0.16807751
0.79684329 0.21170558 -0.16807751
0.82397056 0.21170563 -0.16807762
0.8510977 0.21170558 -0.16807751
0.8720721 0.21394715 -0.16679744
0.93245727 0.20020388 -0.15885901
-0.88214755 0.22599648 -0.16062766
-0.86758941 0.22318488 -0.15610421
-0.84243965 0.2260175 -0.16523597
-0.80153722 0.2192827 -0.16038549
-0.76556379 0.22156775 -0.16213034
-0.72886086 0.2238995 -0.16390082
-0.69146729 0.22627358 -0.16574307
-0.65569073 0.23209167 -0.16600738
-0.62886852 0.23454462 -0.16575837
-0.61409265 0.23119475 -0.16934028
-0.59957135 0.23362772 -0.16701484
-0.5702948 0.23269844 -0.16828829
-0.54104275 0.23176973 -0.16956095
-0.33683428 0.23374447 -0.15915844
-0.27051669 0.2302621 -0.15941314
-0.20603092 0.22687556 -0.15967178
-0.14334306 0.22358374 -0.15991198
-0.082338959 0.22038002 -0.16015695
-0.022989605 0.21726358 -0.1603846
0.19933791 0.23279968 -0.16125719
0.25141951 0.22972298 -0.16145666
0.30220875 0.22672264 -0.16165102
0.35176864 0.22379458 -0.16185066
0.4001129 0.22093868 -0.16203552
0.45057181 0.2178795 -0.16437975
0.76996124 0.23422047 -0.15282507
0.91466063 0.22815205 -0.15525918
0.93195307 0.2294846 -0.1651642
-0.86910158 0.23778658 -0.15517032
-0.83477646 0.24138507 -0.15638438
-0.80528003 0.24039564 -0.15774018
-0.77069855 0.24216971 -0.1606213
-0.74636596 0.23841943 -0.16044825
-0.72889692 0.24749589 -0.1639276
-0.71694797 0.23743312 -0.1618
-0.68950957 0.24327254 -0.16445617
-0.65318775 0.25278884 -0.16753222
-0.41396564 0.23793936 -0.15439548
-0.39578936 0.2389096 -0.1611086
-0.3685815 0.23957337 -0.16228117
-0.3412073 0.24115846 -0.16508114
-0.31417587 0.24117768 -0.16511522
-0.2871469 0.2411873 -0.16513221
-0.2601167 0.24120641 -0.16516607
-0.23308705 0.24122572 -0.16520004
-0.2060592 0.24123526 -0.16521691
-0.17903058 0.24125451 -0.16525099
-0.14767285 0.24715909 -0.16259836
-0.12497532 0.24129286 -0.1653187
-0.090144068 0.24537131 -0.16274625
-0.070922807 0.24132159 -0.16536954
-0.04389694 0.24134082 -0.1654034
-0.019930817 0.24364236 -0.16290249
0.010152711 0.24136961 -0.16545434
0.035982896 0.24195495 -0.16304718
0.064200275 0.24140796 -0.16552205
0.091150358 0.24030653 -0.16318567
0.11824599 0.24143678 -0.165573
0.14558214 0.23870644 -0.16332442
0.17229012 0.24146551 -0.16562374
0.19931081 0.24148485 -0.1656577
0.22633088 0.24150392 -0.16569167
0.2533505 0.24152309 -0.16572541
0.28037107 0.24153271 -0.1657424
0.3047992 0.24740532 -0.16371369
0.33440763 0.24157113 -0.16581021
0.35176864 0.25000533 -0.16185066
0.36142483 0.24159029 -0.16584407
0.38844377 0.2415998 -0.16586106
0.41545996 0.24161902 -0.16589503
0.44001684 0.2431359 -0.16085036
0.91259968 0.24865994 -0.15129405
-0.86042005 0.26127473 -0.15295057
-0.7656104 0.26829633 -0.16216525
-0.72892082 0.27109298 -0.16394526
-0.69108146 0.27258369 -0.16305129
-0.61409265 0.25552446 -0.16934028
-0.43662688 0.26834109 -0.16858663
-0.33683428 0.26447529 -0.15915844
-0.27051669 0.26055765 -0.15941314
-0.20603092 0.25674778 -0.15967178
0.034789018 0.27081251 -0.16060606
0.091077223 0.26711741 -0.1608323
0.14589638 0.26351917 -0.16104218
0.19933791 0.26001099 -0.16125719
0.25141951 0.25659245 -0.16145666
0.47698995 0.26941952 -0.1673184
0.49324554 0.26600498 -0.1623067
0.73935127 0.27222455 -0.15662283
0.90096527 0.25833106 -0.15440595
0.92027217 0.25827962 -0.15102659
-0.84409916 0.28616288 -0.16003253
-0.80940795 0.27661651 -0.15761274
-0.779787 0.27560705 -0.15897404
-0.75019222 0.27459848 -0.16033421
-0.72062367 0.27359059 -0.16169348
-0.69149178 0.27394596 -0.16576095
-0.35827851 0.29222214 -0.1657591
-0.27051669 0.29085317 -0.15941314
-0.20603092 0.28661999 -0.15967178
-0.14334306 0.28250524 -0.15991198
-0.082338959 0.27850056 -0.16015695
-0.022989605 0.27460501 -0.1603846
0.14589638 0.29108131 -0.16104218
0.19933791 0.2872223 -0.16125719
0.25141951 0.2834619 -0.16145666
0.30220875 0.27979481 -0.16165102
0.35176864 0.27621606 -0.16185066
0.77073026 0.27529347 -0.15939683
0.89289469 0.27871266 -0.15828173
0.91745806 0.27645275 -0.15783353
-0.84704244 0.30042589 -0.16084406
-0.82319206 0.30023602 -0.1541165
-0.81027311 0.31065688 -0.16707243
-0.78913659 0.30583343 -0.16560133
-0.72664684 0.30240202 -0.16277854
-0.69308585 0.30343315 -0.164369
-0.54747468 0.30769941 -0.16479254
-0.51230419 0.30464873 -0.15781081
-0.45942825 0.30769941 -0.16479254
0.63820899 0.30740482 -0.15885833
0.65581852 0.30767184 -0.16482909
0.73935127 0.29591843 -0.15662283
0.86773229 0.3013508 -0.15352277
0.88824695 0.30654013 -0.16086593
-0.80225438 0.31343243 -0.15414482
-0.7816456 0.31580579 -0.15665694
-0.7551533 0.31787214 -0.15752135
-0.73525697 0.32480475 -0.15638325
-0.71144831 0.32868451 -0.15706363
-0.69940698 0.31326056 -0.16131489
-0.65418017 0.32828355 -0.15715699
-0.61832839 0.31546688 -0.15960205
-0.52005094 0.31609505 -0.1536493
-0.49055573 0.31591332 -0.15389057
0.41861746 0.31226772 -0.16399947
0.47477123 0.32813856 -0.15587133
0.51213348 0.32857901 -0.16108769
0.53632826 0.3216759 -0.16077152
0.57235658 0.32587746 -0.15182696
0.60803431 0.31746474 -0.15639657
0.6286785 0.31592727 -0.15387201
0.72271842 0.31914407 -0.15634488
0.73935127 0.31961229 -0.15662283
0.82747608 0.32553643 -0.15355001
0.8488006 0.31644756 -0.15338929
-0.70844483 0.33280182 -0.15566173
-0.68381059 0.33339414 -0.15869108
-0.63348192 0.34369522 -0.15798335
-0.59871143 0.33901396 -0.15654331
-0.57816386 0.33677885 -0.15866905
-0.56340295 0.3334437 -0.15790197
-0.54908496 0.33284062 -0.15952989
-0.52318048 0.33352122 -0.15864277
-0.50450325 0.3355518 -0.15683743
-0.4941462 0.33306736 -0.16085497
-0.46785983 0.33613876 -0.16137265
-0.44124132 0.34274757 -0.15842772
-0.41218179 0.34170672 -0.158445
-0.37057552 0.34031972 -0.15377495
-0.35812584 0.34381762 -0.16373554
-0.33136642 0.3427375 -0.15870909
-0.29852784 0.34337401 -0.15867159
-0.27072361 0.34506372 -0.16580887
-0.26071677 0.34340426 -0.1514509
-0.24114652 0.34563723 -0.16650459
-0.2112533 0.34614035 -0.16721071
-0.18108496 0.34664807 -0.16792348
-0.15064748 0.34717581 -0.16864175
-0.11987773 0.34763166 -0.16937098
0.13639247 0.34180349 -0.1696921
0.16769232 0.34207726 -0.16892131
0.19869669 0.34236363 -0.1681572
0.22939044 0.342632 -0.1674013
0.25979701 0.34291273 -0.16665199
0.2895979 0.34266618 -0.16593787
0.31189474 0.33009687 -0.16589035
0.37839785 0.34375843 -0.1637388
0.40739471 0.34404221 -0.16302346
0.46390978 0.34336287 -0.16167785
0.49431196 0.34395775 -0.15840156
0.52404016 0.33799607 -0.15182664
0.54454988 0.33450729 -0.15707476
0.56931859 0.33269632 -0.15953737
0.58994097 0.33345979 -0.15837
0.6215086 0.33436331 -0.1586366
0.63848025 0.33736417 -0.15312202
0.66381425 0.33081165 -0.15960908
0.68682069 0.34308937 -0.15809251
0.70766878 0.34366676 -0.15574685
0.72962153 0.34521288 -0.16046911
0.76108897 0.34802556 -0.15427852
0.78345042 0.34087265 -0.15401654
0.80544209 0.33305341 -0.1537897
0.81349885 0.34205973 -0.16226992
0.83323157 0.33412436 -0.16762693
0.30632821 0.35598662 -0.15155107
0.34215575 0.35571858 -0.1522848
0.37836316 0.35544774 -0.15302642
0.41497007 0.35515743 -0.15377651
0.43511015 0.36304668 -0.15396985
0.76379043 0.35146147 -0.16095608
0.80820191 0.34921646 -0.15859903
-0.65331995 -0.35586572 -0.13368601
-0.63150913 -0.36061361 -0.13321449
-0.60329133 -0.35732237 -0.13389322
-0.46669245 -0.35812452 -0.13663106
-0.44065267 -0.36206084 -0.13702917
-0.38141945 -0.35804874 -0.13835908
-0.35272118 -0.35847434 -0.13892585
-0.32378936 -0.35894841 -0.13949572
-0.29457831 -0.35939696 -0.14007215
-0.26510125 -0.35984957 -0.14065388
-0.23531766 -0.36024582 -0.14124353
-0.23088188 -0.34946674 -0.1506796
-0.20526838 -0.36066088 -0.14183803
-0.17494074 -0.36107984 -0.14243808
-0.16999055 -0.3499139 -0.15019444
-0.14429151 -0.36144134 -0.14304647
-0.13507247 -0.3508822 -0.1494562
-0.10695367 -0.35677567 -0.14619532
-0.082083851 -0.36211249 -0.14428315
-0.066449568 -0.35264459 -0.14800981
-0.050389897 -0.36223498 -0.14492048
-0.032874566 -0.35323384 -0.14731111
-0.018281467 -0.36220235 -0.14557134
0.0056978129 -0.35400981 -0.14623637
0.014154721 -0.36215377 -0.14622925
0.039989069 -0.35813168 -0.14641996
0.065554485 -0.35459054 -0.14527485
0.079975039 -0.36208671 -0.1475634
0.09767653 -0.35498691 -0.14461201
0.11341441 -0.36200505 -0.1482428
0.12946975 -0.35536402 -0.14395623
0.15408275 -0.35864118 -0.14612682
0.18160301 -0.36145201 -0.14964066
0.19188851 -0.35573927 -0.14268091
0.21622597 -0.36117128 -0.15035056
0.22264645 -0.35592395 -0.14205252
0.25309068 -0.35607657 -0.14143136
0.28325385 -0.35624304 -0.14081562
0.31311291 -0.35637778 -0.14020695
0.34268183 -0.3564961 -0.13960475
0.37194815 -0.35656875 -0.13901021
0.40094236 -0.35664085 -0.13842106
0.42973238 -0.35683015 -0.13783224
0.78877401 -0.34968704 -0.1323189
-0.71633989 -0.34174886 -0.13628176
-0.68872291 -0.34342775 -0.13941377
-0.58075386 -0.3446846 -0.14175834
-0.55330157 -0.34642094 -0.14499754
-0.52752107 -0.34319076 -0.13897151
-0.50653863 -0.33950964 -0.13595061
-0.48948756 -0.34825161 -0.13649304
-0.4725264 -0.34738305 -0.14679231
-0.44647703 -0.3446117 -0.14162247
-0.33834726 -0.34786367 -0.14768909
-0.31147954 -0.34817192 -0.14826395
-0.28459725 -0.34861591 -0.14909223
-0.25773114 -0.3490504 -0.14990284
-0.20531197 -0.34890205 -0.15094228
0.50298631 -0.33507246 -0.13706234
0.52889127 -0.33120641 -0.13666475
0.69164294 -0.33231443 -0.13333505
0.71906418 -0.33507401 -0.1326898
0.75683242 -0.34634811 -0.14026667
0.80645388 -0.34319559 -0.1498052
0.81571227 -0.34513938 -0.14260685
-0.8214258 -0.3119289 -0.14670891
-0.79997277 -0.31581515 -0.14002502
-0.78553241 -0.31633529 -0.13669027
-0.74727333 -0.3293609 -0.13250819
-0.66933626 -0.3278743 -0.13352098
-0.56022573 -0.32420871 -0.13584884
-0.5488109 -0.31239906 -0.14199847
-0.5327431 -0.32418174 -0.13640583
-0.48997548 -0.31241292 -0.14198002
-0.38895035 -0.31932512 -0.13947457
0.44388089 -0.33020291 -0.13841785
0.55433869 -0.32677576 -0.13629492
0.57576424 -0.31719184 -0.1473719
0.58020878 -0.3235476 -0.13587707
0.60479605 -0.32104003 -0.14265823
0.63185567 -0.32072744 -0.14182542
0.65966177 -0.31887645 -0.13759309
0.73929125 -0.32147455 -0.13245498
0.76241881 -0.31879881 -0.14446203
0.85578209 -0.32293752 -0.13410412
0.86797303 -0.31697658 -0.14358674
-0.84011757 -0.31109703 -0.13227659
-0.8277427 -0.31127039 -0.13652584
-0.75408977 -0.31044289 -0.1446366
-0.72436363 -0.30941102 -0.14602827
-0.69466436 -0.30837998 -0.14741869
0.76484329 -0.30289736 -0.13986902
0.87739426 -0.308947 -0.14568184
-0.85483658 -0.28637615 -0.14390281
-0.80942279 -0.27596289 -0.14216886
-0.77980131 -0.27496433 -0.14353737
-0.75021058 -0.27398029 -0.14488584
0.44372907 -0.27589834 -0.14019892
0.76983541 -0.27912912 -0.1433592
0.90533173 -0.28423998 -0.13904023
-0.8625536 -0.26269275 -0.14999828
-0.72064131 -0.2729834 -0.14625198
-0.6910941 -0.27197406 -0.1476351
-0.66885263 -0.25687554 -0.15008809
-0.63222188 -0.27045518 -0.14971647
-0.60344189 -0.27198756 -0.14761665
-0.40751436 -0.26973617 -0.14933124
-0.37009236 -0.25686583 -0.150071
0.65298533 -0.27205491 -0.14752442
0.76243049 -0.27161345 -0.14447092
0.91695279 -0.26626933 -0.1481133
0.93372339 -0.25664282 -0.14967699
-0.88034189 -0.23934253 -0.13528213
-0.86113948 -0.25254214 -0.14243308
-0.82774848 -0.25040972 -0.13483104
-0.80528992 -0.23985313 -0.14239292
-0.73886228 -0.24621238 -0.13917127
-0.65318316 -0.2421681 -0.14329886
-0.57074159 -0.23828065 -0.1471267
0.68328273 -0.24274974 -0.13861333
0.71083659 -0.24533825 -0.13475433
0.73929799 -0.2431092 -0.13785833
0.76243049 -0.24802151 -0.14447092
0.93342882 -0.23729116 -0.13292806
-0.49106351 -0.23452386 -0.15081547
0.76243049 -0.22442958 -0.14447092
0.92225718 -0.22456017 -0.14241003
-0.90397626 -0.20987555 -0.13263641
-0.8805787 -0.20829937 -0.14180855
-0.83055019 -0.20507687 -0.14124015
-0.80120343 -0.20411915 -0.14259572
-0.64992112 -0.20913544 -0.14485936
-0.57074159 -0.20596944 -0.1471267
-0.49106351 -0.20274933 -0.15081547
0.94156033 -0.21176867 -0.13789354
-0.88565093 -0.19347844 -0.13954143
0.9472208 -0.19221996 -0.14886615
-0.88714659 -0.17070386 -0.14074138
-0.82635611 -0.16967875 -0.14144824
-0.79715759 -0.16874114 -0.14279705
-0.65318316 -0.17643496 -0.14329886
-0.57074159 -0.17365822 -0.1471267
-0.49106351 -0.17097479 -0.15081547
0.93724489 -0.16161443 -0.14374472
0.96348321 -0.17598522 -0.1338622
-0.90329385 -0.15571256 -0.14105761
-0.88860798 -0.14796057 -0.14191367
-0.65318316 -0.1435684 -0.14329886
0.93862629 -0.14690851 -0.13716289
0.96774876 -0.14588057 -0.13237445
-0.90044779 -0.13021159 -0.14379326
-0.88939148 -0.12527911 -0.14254229
-0.85128611 -0.13556284 -0.140293
-0.8222087 -0.13464448 -0.14163595
-0.79315662 -0.13372689 -0.14297791
-0.57074159 -0.14134701 -0.1471267
-0.49106351 -0.13920026 -0.15081547
0.94017142 -0.12436471 -0.13842195
0.96851116 -0.12354644 -0.13300522
-0.9084447 -0.10626116 -0.13643721
-0.65318316 -0.11070182 -0.14329886
-0.57074159 -0.10903578 -0.1471267
-0.49106351 -0.10742573 -0.15081547
-0.91486907 -0.095906474 -0.13614747
-0.88612396 -0.097245783 -0.14226133
-0.84702933 -0.10084238 -0.14050378
-0.81809729 -0.099943578 -0.1418401
-0.78919035 -0.099045567 -0.14317542
-0.76029938 -0.098124169 -0.1445456
-0.73143423 -0.097203553 -0.14591433
-0.70259482 -0.096283719 -0.14728215
-0.67378497 -0.095376827 -0.14863074
-0.64501929 -0.094531119 -0.14988822
0.93444395 -0.087181821 -0.14136438
0.94136822 -0.10186506 -0.13939713
0.96342891 -0.095248364 -0.1344554
-0.91096562 -0.082643725 -0.13411829
-0.89069879 -0.079047672 -0.1425671
-0.84281427 -0.066463619 -0.14071219
-0.7389437 -0.078992151 -0.13913292
-0.65318316 -0.077835262 -0.14329886
-0.57074159 -0.076724567 -0.1471267
-0.49106351 -0.075651191 -0.15081547
0.94216543 -0.079400778 -0.14004667
0.96853161 -0.0789681 -0.13302232
-0.91145116 -0.059119884 -0.1336713
-0.88942116 -0.056493469 -0.13996384
-0.8140263 -0.065583937 -0.14204212
-0.78525382 -0.064681321 -0.14340667
-0.7565068 -0.063779712 -0.1447701
-0.72778958 -0.062890589 -0.1461143
-0.6990934 -0.061990552 -0.14747515
-0.67042655 -0.061103005 -0.14881688
-0.64180732 -0.060287103 -0.15005052
0.94295168 -0.056952417 -0.14068723
0.96852124 -0.056679651 -0.13301371
-0.91194785 -0.035605907 -0.13321453
-0.88266063 -0.040553283 -0.1473967
-0.83864039 -0.032421045 -0.14091904
-0.82803106 -0.046148449 -0.13470113
-0.80999047 -0.031548906 -0.14225987
-0.78136051 -0.030665744 -0.14361767
-0.75275612 -0.02978348 -0.14497414
-0.73156011 -0.03722446 -0.14273137
-0.65318316 -0.044968698 -0.14329886
-0.57074159 -0.044413351 -0.1471267
-0.49106351 -0.043876663 -0.15081547
0.94318217 -0.034525007 -0.14087506
0.96854198 -0.034390688 -0.13303086
-0.91419637 -0.017292958 -0.13564864
-0.88316959 -0.012102133 -0.14728141
-0.82803106 -0.012102133 -0.13470113
-0.7389437 -0.012102133 -0.13913292
-0.69562227 -0.028021093 -0.1476838
-0.66710508 -0.027175836 -0.14898334
-0.65318316 -0.012102133 -0.14329886
-0.638623 -0.026365895 -0.15022868
-0.57074159 -0.012102133 -0.1471267
-0.49106351 -0.012102133 -0.15081547
0.9431926 -0.012102133 -0.14088361
0.96853161 -0.012102133 -0.13302232
-0.83450258 0.0013011945 -0.1411413
-0.80598903 0.0021660225 -0.14249347
-0.77750051 0.0030300645 -0.14384477
-0.74903727 0.0038932059 -0.14519437
-0.72060275 0.0047444245 -0.14652541
-0.6921891 0.0056062164 -0.14787287
-0.6638118 0.0064332532 -0.14916612
-0.63546968 0.0072254213 -0.15040493
0.93611699 -0.0021679052 -0.13854709
0.95601785 -0.003899924 -0.13873824
-0.91256559 0.011395297 -0.13264608
-0.89451969 0.011629759 -0.13852617
-0.88324845 0.016351894 -0.14727281
-0.82803106 0.021944184 -0.13470113
-0.7389437 0.021342877 -0.13913292
-0.65318316 0.020764433 -0.14329886
-0.57074159 0.020209085 -0.1471267
-0.49106351 0.019672401 -0.15081547
0.94317168 0.010320843 -0.14086652
0.96851116 0.010186729 -0.13300522
-0.91206914 0.034902923 -0.13310285
-0.89111799 0.03313484 -0.14392754
-0.8587929 0.033871792 -0.14005016
-0.83039981 0.034707602 -0.14137952
-0.80203134 0.035542287 -0.14270718
-0.77368265 0.036387544 -0.14405161
-0.74535877 0.037232127 -0.1453948
-0.71705955 0.038075808 -0.14673676
-0.68878496 0.038918875 -0.14807758
-0.66055065 0.03971678 -0.14934675
-0.63234675 0.040492076 -0.15057994
0.94314039 0.032744441 -0.14084104
0.96854198 0.03247498 -0.13303086
-0.91157275 0.058420755 -0.13355951
-0.88264322 0.056112789 -0.14731054
-0.82803106 0.05599051 -0.13470113
-0.7389437 0.054787889 -0.13913292
-0.65318316 0.053631008 -0.14329886
-0.57074159 0.052520309 -0.1471267
-0.49106351 0.051446937 -0.15081547
0.94311929 0.055168346 -0.14082389
0.96852124 0.054764152 -0.13301371
-0.91195267 0.074491903 -0.13777019
-0.8907429 0.078386515 -0.14362645
-0.85458589 0.066984184 -0.14030997
-0.82633674 0.067790754 -0.14161503
-0.79810715 0.068607271 -0.14293619
-0.7698971 0.069434084 -0.14427397
-0.74171162 0.070260219 -0.14561075
-0.71355462 0.071074829 -0.14692874
-0.68541783 0.071899392 -0.14826293
-0.65732068 0.072680026 -0.14952604
-0.62925768 0.073427491 -0.15073539
-0.49106351 0.083221473 -0.15081547
0.94537491 0.080646545 -0.13914248
0.96853161 0.077052504 -0.13302232
-0.89405334 0.085430935 -0.13611907
-0.89021754 0.1010344 -0.143205
-0.85041946 0.099777594 -0.14056744
-0.82514125 0.09530092 -0.13829651
-0.79422522 0.10134377 -0.14314562
-0.76615226 0.10215247 -0.14447699
-0.73852372 0.095596671 -0.14246997
-0.65318316 0.086497568 -0.14329886
-0.57074159 0.084831521 -0.1471267
0.94153625 0.10009327 -0.13953389
0.96853161 0.099341162 -0.13302232
-0.90955102 0.10553984 -0.13541952
-0.7389437 0.12167791 -0.13913292
-0.71007937 0.10376769 -0.14713603
-0.68207908 0.10457436 -0.14846404
-0.65365434 0.11234038 -0.14649236
-0.62619442 0.10605831 -0.15090691
-0.57074159 0.11714275 -0.1471267
-0.49106351 0.114996 -0.15081547
0.92441618 0.11442108 -0.13496652
0.96851116 0.12163104 -0.13300522
-0.9015618 0.12956059 -0.14276849
-0.88158458 0.12825094 -0.14218372
-0.84629279 0.13225652 -0.14082243
-0.82311809 0.12855355 -0.13843383
-0.79036683 0.13379841 -0.14340532
-0.76243901 0.13456847 -0.14469531
-0.73452604 0.13535868 -0.14601904
-0.70664114 0.13613784 -0.1473241
-0.67877597 0.13692665 -0.14864558
-0.65095723 0.13765262 -0.14986178
0.94399744 0.12940608 -0.14309241
-0.89680892 0.15351278 -0.1471411
-0.88953668 0.14672115 -0.13812771
-0.82786143 0.15812233 -0.13477914
-0.7389437 0.15512291 -0.13913292
-0.65318316 0.15223069 -0.14329886
-0.57074159 0.14945397 -0.1471267
-0.49106351 0.14677054 -0.15081547
0.93899429 0.14514661 -0.13746287
0.96351314 0.14894706 -0.13832599
-0.89274293 0.17750613 -0.15088104
-0.88746899 0.16913171 -0.14100002
-0.86716235 0.16964099 -0.14996661
-0.8422057 0.1644253 -0.1410747
-0.81436616 0.16517963 -0.14236064
-0.78654981 0.16593321 -0.14364535
-0.75876099 0.16667594 -0.14491171
-0.7309866 0.16743836 -0.14621159
-0.70323163 0.16821046 -0.14752768
-0.67550439 0.1689717 -0.14882566
-0.64781886 0.16968164 -0.1500359
-0.49106351 0.17854507 -0.15081547
0.96407431 0.17463638 -0.15006694
-0.90154749 0.18633468 -0.14565799
-0.88597393 0.19191775 -0.13980046
-0.83815283 0.19629854 -0.14134195
-0.82780474 0.19216436 -0.13480507
-0.81045175 0.19702598 -0.14260438
-0.78276885 0.19776282 -0.1438829
-0.7389437 0.18856792 -0.13913292
-0.65318316 0.18509726 -0.14329886
-0.57074159 0.18176517 -0.1471267
0.94788575 0.19077702 -0.14217882
-0.88399619 0.20725414 -0.13538648
-0.75511348 0.19848907 -0.1451432
-0.72747636 0.19922467 -0.14641957
-0.69985849 0.19996955 -0.14771226
-0.67226356 0.2007138 -0.1490037
-0.64471012 0.20140788 -0.1502082
-0.57074159 0.2140764 -0.1471267
-0.49106351 0.21031961 -0.15081547
0.94254905 0.21101986 -0.14635843
-0.8600263 0.2305655 -0.14636838
-0.83094561 0.22703286 -0.13821033
-0.80657429 0.22857147 -0.14284587
-0.77902395 0.22929171 -0.14411819
-0.75150031 0.23000172 -0.14537252
-0.73144233 0.22636528 -0.14290069
-0.69651306 0.23143944 -0.14791223
-0.6690532 0.23215738 -0.14918052
-0.65318316 0.21796384 -0.14329886
0.76243049 0.22381724 -0.14447092
0.93343955 0.23560466 -0.13293678
-0.88131499 0.23775747 -0.13606265
-0.65318316 0.25083041 -0.14329886
-0.57074159 0.24638763 -0.1471267
-0.49106351 0.24209413 -0.15081547
0.76243049 0.24740919 -0.14447092
-0.82766348 0.26024368 -0.13487007
-0.80273318 0.25982031 -0.14308511
-0.77531826 0.2605148 -0.14433438
-0.74792129 0.26121834 -0.14559972
-0.7388078 0.25544876 -0.13919669
-0.72054696 0.2619212 -0.14686397
-0.69319886 0.2626141 -0.1481102
-0.66692483 0.26064789 -0.14457384
-0.4410682 0.26925498 -0.14087208
-0.36900651 0.26066697 -0.14460802
0.49955109 0.26672086 -0.13602346
0.76189977 0.26330116 -0.14130466
0.76948363 0.25838178 -0.14049782
-0.8564741 0.28482062 -0.14519617
0.90818286 0.28235084 -0.14132755
-0.84639275 0.3090362 -0.1372333
-0.82685006 0.31005198 -0.15092671
-0.48050269 0.30665112 -0.13724439
-0.36304462 0.30079472 -0.13981289
0.57042807 0.29355678 -0.13476726
0.68857783 0.29422197 -0.13387027
0.76241881 0.29459456 -0.14446203
0.88308465 0.29833591 -0.14658266
-0.8208673 0.31370291 -0.13347583
-0.79670501 0.31827492 -0.13764429
-0.76735753 0.32481211 -0.13890383
-0.6701622 0.32576317 -0.14081714
-0.65039217 0.32004601 -0.13336802
-0.57905579 0.32522628 -0.15061222
-0.54317302 0.32095179 -0.13550799
0.42232636 0.31906107 -0.13842635
0.5461176 0.32423928 -0.14877099
0.62137127 0.32846621 -0.13409056
0.68902558 0.320842 -0.14734873
0.72296256 0.31969678 -0.13232201
0.76241881 0.31818661 -0.14446203
0.84607786 0.32569435 -0.14809985
0.86915302 0.32108453 -0.14198659
-0.73683131 0.34253907 -0.14048252
-0.70180011 0.3457765 -0.14383487
-0.67141771 0.34661207 -0.13416338
-0.63486969 0.34357318 -0.13291192
-0.61702466 0.34035662 -0.14698735
-0.60665298 0.34416011 -0.13422734
-0.57959408 0.33971089 -0.13415675
-0.56067288 0.33845541 -0.15088499
-0.52679127 0.33563423 -0.14296088
-0.47173676 0.33858871 -0.14268509
-0.4410919 0.33867589 -0.13699339
-0.41681057 0.346854 -0.13546264
-0.39152297 0.34824044 -0.13697259
-0.2249539 0.34433442 -0.15069686
-0.18957669 0.34525484 -0.14995082
-0.15461518 0.34611708 -0.14921504
-0.12008458 0.34689045 -0.14849104
-0.08590591 0.3476716 -0.14777377
-0.052277584 0.34817684 -0.14707682
-0.019082408 0.34855139 -0.14639285
0.46394879 0.34343576 -0.13678604
0.49208501 0.34585679 -0.13601385
0.5185377 0.34365886 -0.13573179
0.5409236 0.3307426 -0.13564391
0.55239904 0.33857015 -0.15064979
0.56944054 0.33294129 -0.13499498
0.5888015 0.3358084 -0.14256451
0.60950899 0.33848405 -0.15082626
0.65252656 0.33792701 -0.13315043
0.66407502 0.34474418 -0.13799252
0.68145424 0.34343731 -0.13238458
0.70674634 0.34741044 -0.13539533
0.73305768 0.34849021 -0.13744712
0.81066525 0.34487173 -0.13761224
0.8362934 0.33464262 -0.14248043
-0.63224256 0.34896272 -0.13834514
-0.36272159 0.35193625 -0.13814509
-0.33579585 0.35113314 -0.13937457
-0.31081936 0.35010272 -0.14051154
-0.30498725 0.35293818 -0.13928048
-0.27988443 0.35203338 -0.14059637
-0.25718024 0.35097456 -0.14216842
-0.24626474 0.35406315 -0.14043202
-0.22341169 0.35295573 -0.14198287
-0.20361049 0.35175663 -0.14365445
-0.18158962 0.35357231 -0.14300558
-0.15595235 0.35547101 -0.14221346
-0.15009156 0.35254675 -0.14515613
-0.1243017 0.35439041 -0.1443173
-0.095432714 0.35475865 -0.14495338
-0.066428319 0.35512745 -0.14557482
-0.043218765 0.35385892 -0.1476496
-0.031216774 0.35691658 -0.14469019
-0.016531169 0.35397401 -0.14786848
0.0082937051 0.35330859 -0.14638156
0.038858928 0.35347915 -0.14644982
0.064663127 0.35811019 -0.14790721
0.078480348 0.34960642 -0.14438403
0.094786346 0.35571781 -0.1480197
0.1135879 0.35221401 -0.14632083
0.13937876 0.35388049 -0.14670311
0.16997351 0.35385534 -0.14671753
0.19902329 0.35559449 -0.14919056
0.203667 0.35026902 -0.14182909
0.23118991 0.35377187 -0.14676094
0.25022557 0.35452318 -0.14891192
0.270726 0.35370865 -0.14676143
0.29427621 0.35050318 -0.13998796
0.30358642 0.35446116 -0.14879405
0.32708055 0.35248792 -0.14405704
0.35322163 0.35058171 -0.13879274
0.35695684 0.35437259 -0.14862579
0.3829644 0.35245755 -0.14334749
0.41123515 0.35046479 -0.1391397
0.43702376 0.35423982 -0.1483734
0.78357714 0.35482389 -0.14948341
-0.73129088 -0.35028967 -0.13153341
-0.70679307 -0.353266 -0.13193157
-0.63999087 -0.35884011 -0.12999941
-0.60207593 -0.35760456 -0.12941791
-0.41026518 -0.36079505 -0.12622927
-0.38297749 -0.34953573 -0.12608244
-0.34963635 -0.35696146 -0.11944224
-0.32578442 -0.36241031 -0.11394267
-0.30790386 -0.35291678 -0.12477849
-0.2966969 -0.3630088 -0.11439797
-0.27147624 -0.35398653 -0.12416072
-0.26733851 -0.36359739 -0.11485782
-0.23652424 -0.35963678 -0.11943501
-0.20369673 -0.36048579 -0.11936592
-0.17752987 -0.36519793 -0.11626974
-0.16431321 -0.35744923 -0.12233534
-0.14937034 -0.36291236 -0.11516981
-0.12705356 -0.35954031 -0.11803482
-0.11616698 -0.3661308 -0.11723855
-0.092550501 -0.36235812 -0.11797306
-0.070735246 -0.36127093 -0.11573835
-0.052671682 -0.36304146 -0.11842316
-0.027143005 -0.36134639 -0.12001272
-0.019163813 -0.36436701 -0.11773352
0.0089750662 -0.36361504 -0.11855167
0.025199758 -0.35421887 -0.12219064
0.039765786 -0.36387107 -0.11861946
0.064050004 -0.36212063 -0.11735305
0.073802859 -0.36512342 -0.11935088
0.097208172 -0.36295229 -0.11769865
0.11377402 -0.36477444 -0.11931528
0.14116253 -0.36456123 -0.11887002
0.17190723 -0.36448362 -0.11885343
0.19801219 -0.36328039 -0.11699155
0.21200508 -0.36668566 -0.12253651
0.22677176 -0.36326426 -0.11669223
0.25254333 -0.3643387 -0.11863774
0.28326511 -0.36425546 -0.11862746
0.30659759 -0.36206648 -0.11725003
0.32301098 -0.3641499 -0.11858068
0.34487131 -0.35998327 -0.11922456
0.35708094 -0.36388189 -0.12092209
0.38462383 -0.3639344 -0.1185738
0.42058489 -0.36358476 -0.12136462
0.44142872 -0.36175019 -0.11664906
0.73324144 -0.36559698 -0.13100314
0.76521152 -0.3590987 -0.12019414
0.78062266 -0.35840347 -0.13068037
0.80282021 -0.35093856 -0.13047549
-0.8249265 -0.33167377 -0.13024814
-0.80221468 -0.33753881 -0.13051556
-0.77896982 -0.34239498 -0.13082695
-0.77373278 -0.33416116 -0.12212676
-0.75003809 -0.34254333 -0.13065135
-0.7128579 -0.34632176 -0.12242039
-0.69911063 -0.3428652 -0.12436976
-0.67560214 -0.34900445 -0.1213112
-0.66427916 -0.33743596 -0.12823601
-0.58494925 -0.33820748 -0.11943486
-0.5598284 -0.34083357 -0.13094826
-0.53471243 -0.34680843 -0.12861027
-0.53101617 -0.34179109 -0.12902255
-0.499392 -0.3455365 -0.1255495
-0.46730956 -0.33728835 -0.1277684
-0.41544202 -0.3481569 -0.11622098
-0.27669558 -0.34747285 -0.12179214
0.49113223 -0.3331663 -0.12793311
0.68266004 -0.33452907 -0.13099803
0.76536566 -0.33776635 -0.12885249
0.82288313 -0.34024572 -0.13050364
0.84728432 -0.33472508 -0.1263245
-0.84672493 -0.32375005 -0.1300665
-0.67019111 -0.3249037 -0.12513505
-0.59394819 -0.3234342 -0.13018145
-0.52128088 -0.32054898 -0.13100754
-0.39213544 -0.32515892 -0.11384441
0.55257362 -0.31367871 -0.12171094
0.57990068 -0.31727782 -0.11460964
0.60963541 -0.31377724 -0.12151657
0.64758337 -0.32979587 -0.13055426
0.714881 -0.32958609 -0.11359207
0.86796606 -0.32615614 -0.12996873
0.88859642 -0.31541625 -0.12990296
-0.86620688 -0.30993709 -0.13012443
-0.6685403 -0.29994252 -0.120046
-0.58621234 -0.30636951 -0.12754923
0.5604437 -0.29672092 -0.13000992
0.59910035 -0.29668301 -0.13063659
0.62607068 -0.31019825 -0.13071914
0.89056683 -0.30879825 -0.12719482
0.90682417 -0.30104321 -0.12567443
-0.88248366 -0.28743985 -0.13053165
-0.8629427 -0.28165606 -0.12659842
-0.67000103 -0.27707681 -0.13058844
0.44876403 -0.28546655 -0.11429606
0.56881601 -0.28616053 -0.12819451
0.5989331 -0.28890204 -0.12443769
0.62761891 -0.28614706 -0.12821306
0.68669444 -0.2870464 -0.12698044
0.91669703 -0.28430584 -0.11929496
0.92368537 -0.27718383 -0.13044462
-0.8785845 -0.26762 -0.12931429
-0.60408062 -0.27286494 -0.13086413
-0.52980286 -0.26184008 -0.11327434
-0.50172371 -0.26180205 -0.1137298
-0.47339782 -0.26177934 -0.11418898
-0.41842735 -0.26998016 -0.12564564
0.68622941 -0.26048866 -0.11365528
0.91230583 -0.27149668 -0.1201005
0.92934293 -0.26025257 -0.12959889
-0.89369804 -0.2509779 -0.12554845
0.44161409 -0.24395195 -0.12758343
0.77017373 -0.24810426 -0.13090226
0.93505174 -0.24019843 -0.13142566
-0.89832586 -0.22375244 -0.11436783
0.9510203 -0.22063914 -0.12544879
0.47715873 -0.21360746 -0.12937652
0.95053822 -0.20926195 -0.12405753
-0.89099675 -0.19399621 -0.11489916
0.96104091 -0.19100448 -0.12682399
-0.89360064 -0.17107998 -0.11702096
-0.89018446 -0.16143818 -0.11789332
0.95008802 -0.17534627 -0.11680844
0.96534514 -0.1683435 -0.13038555
-0.89619857 -0.14821538 -0.1191376
0.95055503 -0.1519969 -0.11637901
-0.89776319 -0.12545283 -0.12041245
0.95096755 -0.12865992 -0.11599952
-0.87815875 -0.10682577 -0.1316067
-0.89925075 -0.1027241 -0.12162456
0.96044403 -0.087874219 -0.11515786
-0.90057606 -0.080029458 -0.12270455
-0.8989405 -0.058357898 -0.11906837
-0.90136635 -0.034736793 -0.12334836
-0.90176141 -0.012102133 -0.12367027
0.95350236 -0.028101739 -0.11370461
-0.90185744 0.010527696 -0.12374856
0.97497833 0.01747188 -0.11371253
-0.90146244 0.033165302 -0.12342653
-0.91895849 0.048035566 -0.11509116
-0.90105683 0.055811003 -0.12309608
-0.88796479 0.055280097 -0.12137239
-0.90066171 0.078464277 -0.12277429
0.98249519 0.076573893 -0.1151389
-0.89958227 0.10115901 -0.12189472
-0.88206714 0.091584615 -0.12707987
-0.89808452 0.12389973 -0.12067436
-0.91377842 0.14745778 -0.11777933
-0.8965953 0.14666933 -0.11946085
0.95067447 0.15109985 -0.11626901
-0.89415944 0.16954285 -0.11747627
0.95014238 0.17445813 -0.11675873
0.96592331 0.16641365 -0.13086401
-0.89155686 0.19247909 -0.11535558
0.96208739 0.18906981 -0.12768994
0.93145794 0.20587616 -0.13182965
0.95227718 0.20497623 -0.12006474
-0.89920276 0.2229753 -0.11357307
0.47584915 0.21770494 -0.12364969
0.50324303 0.21770494 -0.12364969
0.91573578 0.23111005 -0.13132171
0.94575781 0.22973762 -0.12184604
-0.89367408 0.24710432 -0.11858331
-0.87544107 0.24429777 -0.1312943
-0.86027884 0.25319856 -0.13117501
0.44161409 0.24550876 -0.12758343
-0.88057214 0.26640451 -0.12872872
-0.45425591 0.25583285 -0.11402066
0.51564807 0.2664355 -0.11638761
0.91015667 0.26944596 -0.12372099
0.93411636 0.26171318 -0.13133717
-0.86331254 0.28068674 -0.1256009
-0.67002004 0.2759681 -0.1161987
0.76901066 0.28250346 -0.12816897
0.89153636 0.29057744 -0.1248838
0.92005867 0.28235495 -0.12203397
-0.84751385 0.30157474 -0.12998401
-0.66883546 0.29612234 -0.13130729
-0.51228911 0.30466616 -0.12871706
0.54340786 0.30420342 -0.12040947
0.60508394 0.3078576 -0.12264626
0.63327605 0.3078725 -0.11546132
0.68591589 0.30995679 -0.12212676
0.76729721 0.30932051 -0.12093981
0.87011993 0.30749089 -0.12974383
0.8948791 0.30682543 -0.13065447
0.9019078 0.31042671 -0.12300351
-0.82753515 0.31391388 -0.12786183
-0.80667466 0.32431549 -0.13006583
-0.47566411 0.31246001 -0.12679665
-0.37068394 0.31453514 -0.11383593
0.82829803 0.3275601 -0.12993307
0.84963417 0.31854481 -0.12979636
0.86438036 0.31807002 -0.12805066
-0.7819106 0.33503824 -0.12236682
-0.76537281 0.337441 -0.12562257
-0.74318469 0.34056818 -0.12239265
-0.73710394 0.33952102 -0.13097587
-0.71575272 0.34034795 -0.12963043
-0.68816102 0.34528491 -0.13059922
-0.67083347 0.34386373 -0.13025692
-0.63200366 0.34331867 -0.1296427
-0.60184234 0.3336581 -0.12940733
-0.5823276 0.33899075 -0.11939494
-0.55933022 0.33613503 -0.1235881
-0.52470827 0.33397987 -0.1281503
-0.502478 0.33598056 -0.11367463
-0.47414359 0.34054112 -0.12234125
-0.44362244 0.34227794 -0.12288828
-0.40849683 0.33869535 -0.12614559
-0.36449787 0.34766451 -0.12519832
-0.32771674 0.34851867 -0.12458049
0.45612586 0.33774549 -0.12491335
0.49770465 0.34494361 -0.12709713
0.53756976 0.34244439 -0.12780799
0.54868156 0.33926126 -0.11990906
0.60317993 0.33748251 -0.11652872
0.62066776 0.33529136 -0.12934053
0.65915745 0.33658308 -0.12674461
0.6873374 0.34147918 -0.12520903
0.7076245 0.34356868 -0.13185066
0.73031181 0.34448448 -0.13087481
0.76539922 0.33643338 -0.11453508
0.78449935 0.34334815 -0.13030241
0.80633831 0.33521342 -0.13012685
0.84386665 0.34119579 -0.12033355
0.84714276 0.33673942 -0.12139116
-0.72627151 0.35089067 -0.12539195
-0.69570404 0.35602722 -0.11486159
-0.64151537 0.35035348 -0.1264932
-0.44297621 0.3510884 -0.12498647
-0.3561489 0.36036161 -0.11435163
-0.33595881 0.35586154 -0.11331549
-0.30700153 0.35637218 -0.11377096
-0.2912313 0.34949416 -0.12396428
-0.27787051 0.35703591 -0.11422515
-0.25501648 0.35062084 -0.12334859
-0.24845926 0.35767579 -0.11468449
-0.21899526 0.35498193 -0.11894554
-0.18630065 0.35581279 -0.11887991
-0.15852563 0.35949486 -0.11609282
-0.14887406 0.35373709 -0.12154868
-0.1279557 0.36005151 -0.11657304
-0.11428913 0.35470596 -0.12096347
-0.097061113 0.36055258 -0.11706005
-0.07297422 0.35837686 -0.11896747
-0.046433669 0.35631528 -0.11982268
-0.034055281 0.36252534 -0.11956705
-0.013252325 0.3568033 -0.1192729
-0.0022658855 0.36157408 -0.1185679
0.024843434 0.35951066 -0.11890787
0.057443894 0.35982317 -0.118901
0.084316507 0.35828438 -0.11765455
0.095756561 0.36199847 -0.12014364
0.11612587 0.35867658 -0.11712939
0.12908816 0.36213207 -0.12067965
0.15511341 0.36036637 -0.11892633
0.17826085 0.35860315 -0.11612543
0.1970723 0.36198992 -0.12178393
0.20888403 0.35856694 -0.11563064
0.23542041 0.36020026 -0.11874348
0.26789162 0.36012977 -0.11878459
0.29675615 0.36188498 -0.12666933
0.30041549 0.36004272 -0.11883152
0.32849419 0.35839608 -0.11369877
0.33747068 0.3614687 -0.12407035
0.37349847 0.36132675 -0.12465736
0.40994826 0.36113408 -0.12525247
0.44670194 0.36103827 -0.12584999
0.46389595 0.34889108 -0.12949114
0.69009507 0.35049492 -0.12620322
0.76107031 0.35808444 -0.12508687
0.77238983 0.35621437 -0.11447793
0.80640084 0.34933287 -0.13197944
0.17521033 -0.36993688 -0.09447822
0.20966029 -0.36974892 -0.094900236
0.2444533 -0.36957538 -0.095326066
0.27962008 -0.36938372 -0.095756739
0.31515387 -0.36918992 -0.096192077
0.35107389 -0.36897779 -0.09663225
0.38738656 -0.36874712 -0.097077712
0.42408538 -0.36851338 -0.097527675
-0.75680071 -0.35010523 -0.10728768
-0.73279619 -0.3537688 -0.10758029
-0.70835185 -0.3567954 -0.10789673
-0.6903286 -0.35177183 -0.098833472
-0.67532331 -0.35665229 -0.10481591
-0.65540105 -0.3551428 -0.1087971
-0.63561416 -0.35890323 -0.10454101
-0.61238563 -0.35375386 -0.1079572
-0.60287285 -0.35870537 -0.10482555
-0.58570528 -0.35388502 -0.10170245
-0.55963397 -0.35095948 -0.096143097
-0.53137201 -0.35175121 -0.098763824
-0.50555807 -0.35035467 -0.094993711
-0.46898499 -0.35516545 -0.11025739
-0.44390431 -0.35697713 -0.10562201
-0.4225494 -0.35634527 -0.10637797
-0.41109401 -0.35980842 -0.097787715
-0.38447011 -0.35825518 -0.10796602
-0.36835039 -0.35682735 -0.10729398
-0.35706922 -0.35542533 -0.10160437
-0.33608556 -0.35762909 -0.10154731
-0.31418306 -0.35730925 -0.10820976
-0.30104992 -0.35877708 -0.097364396
-0.27947366 -0.35790387 -0.10275849
-0.26277956 -0.35985839 -0.10302278
-0.23821457 -0.35881111 -0.10283352
-0.22977675 -0.36233631 -0.095536731
-0.20009431 -0.36121428 -0.10347823
-0.1787688 -0.3596867 -0.11272781
-0.15933198 -0.36406067 -0.094647668
0.4052251 -0.364344 -0.11293483
0.43388635 -0.36443847 -0.11246844
0.47133657 -0.3512159 -0.09663035
0.7318911 -0.36702207 -0.10129439
0.75923699 -0.3679491 -0.10710955
0.77875245 -0.35599655 -0.1096985
0.79598856 -0.35266054 -0.10324703
-0.82642537 -0.33544463 -0.10654455
-0.80363327 -0.34103176 -0.10676719
-0.7814213 -0.34052423 -0.10489821
-0.7323572 -0.34547615 -0.10489039
-0.5756976 -0.34387663 -0.10009916
-0.49749073 -0.34595361 -0.09910892
-0.48974451 -0.34874931 -0.11164629
-0.39075509 -0.34013635 -0.097927302
0.45268247 -0.33844644 -0.11103097
0.49697307 -0.33486059 -0.1055536
0.64534432 -0.33226672 -0.10092632
0.68831599 -0.3330639 -0.10524537
0.71889412 -0.33468902 -0.10863385
0.74689269 -0.34699571 -0.10818243
0.81590724 -0.34529507 -0.097635433
0.83247072 -0.34013996 -0.10819685
0.8478995 -0.33838475 -0.10644858
-0.86790681 -0.31440642 -0.10642409
-0.84664524 -0.32103997 -0.1033289
-0.8036108 -0.32832468 -0.11123896
-0.66867483 -0.32765824 -0.10154679
-0.47624579 -0.32681423 -0.099227026
-0.37080142 -0.32306382 -0.10142475
0.49813119 -0.32928017 -0.11302137
0.52178061 -0.32102767 -0.1072112
0.52851045 -0.32909116 -0.10752727
