ply
format ascii 1.0
comment PCL generated
element vertex 276
property float x
property float y
property float z
element camera 1
property float view_px
property float view_py
property float view_pz
property float x_axisx
property float x_axisy
property float x_axisz
property float y_axisx
property float y_axisy
property float y_axisz
property float z_axisx
property float z_axisy
property float z_axisz
property float focal
property float scalex
property float scaley
property float centerx
property float centery
property int viewportx
property int viewporty
property float k1
property float k2
end_header
-0.18701065 -0.28745556 -0.47728157
-0.14525975 -0.19980086 -0.49145031
-0.072191805 -0.15902349 -0.46701431
-0.13942763 -0.087086663 -0.5125885
-0.055704553 -0.075680338 -0.47611809
-0.13429646 0.043628216 -0.52266598
-0.064266413 0.041817144 -0.48028183
-0.14943711 0.1577417 -0.49268913
-0.081961259 0.12545545 -0.4680233
-0.21862149 0.26206705 -0.47440624
-0.1894927 0.23295231 -0.47163486
-0.29070666 -0.53171688 -0.36569118
-0.256648 -0.43972498 -0.36653423
-0.15506196 -0.42149439 -0.36044693
-0.077198714 -0.41185865 -0.3482399
-0.25600126 -0.33747253 -0.38553238
-0.14686239 -0.33673707 -0.41655731
-0.048434798 -0.3296299 -0.37627316
-0.11033905 -0.242782 -0.45178509
-0.031551171 -0.21422106 -0.42542648
0.066485293 -0.20201452 -0.36499023
0.00087475777 -0.087981723 -0.44777107
0.094681472 -0.083870925 -0.38442802
0.17978466 -0.062837861 -0.34253407
-0.0077454746 0.051615268 -0.44507599
0.094951309 0.044014946 -0.38293839
0.17995831 0.0092389155 -0.3393116
-0.11584194 0.20244969 -0.44736671
-0.031204838 0.17116064 -0.41428471
0.06644614 0.157138 -0.36285877
-0.24250039 0.31321028 -0.40480995
-0.15737915 0.2879363 -0.40122318
-0.051608022 0.26259586 -0.36537743
-0.24969661 0.36582896 -0.36662865
-0.21131505 0.36947426 -0.34170341
-0.35927019 -0.58734632 -0.24272251
-0.27464578 -0.54080391 -0.26228142
-0.35029465 -0.49346995 -0.23012733
-0.26692861 -0.47309741 -0.28757572
-0.14994603 -0.47865605 -0.28786659
-0.03150687 -0.449123 -0.26619053
0.062524155 -0.42599273 -0.23358059
-0.01263357 -0.37408262 -0.32271385
0.056946933 -0.38246715 -0.25897789
0.21688519 -0.31741229 -0.22887516
0.1238462 -0.22039816 -0.32306385
0.22062717 -0.20522733 -0.28371525
0.31758931 -0.17504707 -0.23609924
0.15953377 -0.14548022 -0.3354044
0.22802889 -0.08075735 -0.31417084
0.34031552 -0.07566487 -0.24756145
0.15960184 0.091895603 -0.33393192
0.2285627 0.040840618 -0.30984497
0.33961642 0.033881083 -0.24795628
0.11867169 0.17929232 -0.32327461
0.21825543 0.16022426 -0.27718925
0.31427422 0.13824174 -0.23307514
-0.28934622 0.29566339 -0.31348801
-0.1160599 0.33716369 -0.32667065
-0.018458374 0.30962086 -0.30470276
0.085393324 0.28102097 -0.270751
0.19415924 0.25012022 -0.23631954
-0.34529528 0.44401965 -0.2662077
-0.26540715 0.42495289 -0.26382828
-0.14253291 0.38052312 -0.27802658
-0.037323181 0.36856988 -0.24390602
-0.40771812 -0.57575768 -0.13685131
-0.15736538 -0.54403657 -0.16501331
-0.041857522 -0.53294724 -0.12828541
-0.41860238 -0.46197671 -0.11995888
-0.018703595 -0.50213885 -0.17894077
0.099117339 -0.47064674 -0.15968513
0.21695429 -0.43619657 -0.13817787
0.33093914 -0.41027361 -0.10376835
0.23273687 -0.35971355 -0.19870377
0.35388198 -0.333471 -0.15594387
0.44708049 -0.3150146 -0.11715889
0.36874023 -0.21973704 -0.20066929
0.47759113 -0.20957489 -0.14741898
0.56788582 -0.19094323 -0.10264492
0.40285563 -0.11884862 -0.21057129
0.47461545 -0.078234106 -0.17634296
0.58383322 -0.080186509 -0.1132555
0.3978169 0.070209809 -0.20786381
0.47152299 0.041489691 -0.17581749
0.5769456 0.035279691 -0.11736107
0.36476338 0.17342307 -0.18584442
0.46862513 0.16532177 -0.13805866
0.56654286 0.12786201 -0.10258961
0.12261176 0.33676961 -0.19420528
0.23415692 0.29948419 -0.16975784
0.33923766 0.27076891 -0.13654137
0.43350682 0.25284043 -0.10505962
-0.36802915 0.43457758 -0.14131641
-0.28982949 0.42834058 -0.13821125
-0.15035184 0.44203645 -0.17079449
-0.030281413 0.4164311 -0.15714359
0.086847916 0.38619545 -0.14688778
0.19564375 0.36494073 -0.11879349
-0.2535806 0.48862967 -0.18684864
-0.17553219 0.51707929 -0.12478828
-0.48027402 -0.56063759 -0.014928818
-0.40548208 -0.56218821 -0.034357071
-0.12289633 -0.56550997 -0.07235527
0.013052937 -0.54309475 -0.070972443
0.09042073 -0.5361554 -0.058753967
0.19922908 -0.53526413 0.016654015
-0.506733 -0.47101766 0.00390625
-0.3854908 -0.45622805 -0.019808769
-0.21525458 -0.43236169 -0.052063942
0.10334705 -0.51757544 -0.087792397
0.23806038 -0.49479121 -0.042365074
0.34664649 -0.45992908 -0.031281471
0.4631553 -0.42850119 -0.0062522888
0.56195945 -0.40762857 0.022422791
-0.26010737 -0.3058289 0.017238617
0.48876145 -0.35914466 -0.061498642
0.58878452 -0.3270947 -0.028693199
0.69535357 -0.30756253 0.0058107376
-0.25721177 -0.21342574 0.014087677
0.61966127 -0.21303155 -0.066551208
0.71427578 -0.20238835 -0.032539368
-0.24684513 -0.077862568 -0.00081253052
0.64259869 -0.086267561 -0.0806427
0.7216202 -0.080693096 -0.052950859
-0.23970512 0.03637749 -0.0041255951
0.63959414 0.055858813 -0.079597473
0.71786213 0.044134088 -0.054757118
-0.24399918 0.16481516 0.012112617
0.52065837 0.21515693 -0.085988045
0.61261702 0.16812581 -0.05835247
0.71654773 0.16138498 -0.02899456
-0.52373719 0.32799315 0.012195587
0.36611554 0.32886374 -0.0680933
0.47301811 0.30257773 -0.042918205
0.58584225 0.26852039 -0.014141083
0.69572157 0.25551322 0.0068044662
-0.4938345 0.43414229 -0.0036039352
-0.41312909 0.44091171 -0.040924072
-0.0095256157 0.45441738 -0.070944786
0.095496289 0.44506663 -0.029941559
0.22390679 0.40940899 -0.027237892
0.33834475 0.38010064 -0.016915321
0.48066643 0.364705 0.025940895
-0.22513884 0.54537386 -0.069526672
-0.14105529 0.57408994 -0.06469059
-0.078122407 0.59309781 -0.058168411
-0.10943161 0.62777847 -0.038568497
-0.039997209 0.66893482 -0.019225121
0.043488696 0.71585721 0.0095415115
-0.011143614 0.73620337 0.028837204
0.059151627 0.75195742 0.02939415
-0.50418645 -0.52832812 0.060011864
-0.40388048 -0.55096298 0.053754807
-0.32640576 -0.55279315 0.12015724
0.26101354 -0.54332525 0.064252853
0.352797 -0.53029472 0.093036652
0.43747225 -0.53294438 0.14671326
-0.53014028 -0.4460094 0.12166405
-0.40541771 -0.46251905 0.090119362
-0.31997481 -0.42570198 0.13349628
0.35379857 -0.50464791 0.04457283
0.48308069 -0.48105615 0.07510376
0.608298 -0.44611612 0.09957695
0.67970604 -0.42133042 0.08275032
-0.5707373 -0.37349036 0.13528919
-0.41841245 -0.38019818 0.088972092
-0.3086018 -0.30372322 0.089447975
0.64821583 -0.37503111 0.044220924
0.70203996 -0.36957902 0.047930717
-0.31176147 -0.21333434 0.09616375
-0.31261808 -0.081644043 0.10381413
-0.29939669 0.046976194 0.0911026
-0.30055386 0.17036588 0.10200787
-0.59898841 0.24686204 0.15523815
-0.52090484 0.28713012 0.11899471
-0.43209738 0.30888259 0.12679768
-0.30038264 0.27102792 0.10066605
0.62018794 0.3271189 0.045323372
0.69092572 0.31773305 0.04561615
-0.59496689 0.37853533 0.13514519
-0.51784462 0.40126804 0.095359802
-0.43296364 0.40255463 0.09486866
0.1419563 0.47389907 0.049564362
0.24967435 0.45350918 0.070406914
0.35149619 0.44221041 0.095011711
0.46817413 0.41311312 0.089253426
0.59447807 0.38556653 0.094758987
0.67129415 0.38618314 0.099811554
0.17857957 0.47832587 0.07694912
-0.011397444 0.75582647 0.044625282
0.10544309 0.79612815 0.062983513
0.19127724 0.8275966 0.091715813
0.14398997 0.86862159 0.1097641
0.2330543 0.88029969 0.098869324
0.34507746 0.87988478 0.11050606
0.3300764 -0.56131697 0.17048836
0.47665936 -0.5360952 0.16620541
0.5525198 -0.55109549 0.25899506
-0.60736251 -0.41732359 0.19707584
-0.49429858 -0.40804946 0.20262432
-0.40488577 -0.42530221 0.19556236
0.59145844 -0.51572448 0.1930027
-0.62902695 -0.3156099 0.22161102
-0.52838409 -0.33452988 0.23321819
-0.40693191 -0.34312192 0.2295084
-0.62609762 -0.20757712 0.24940109
-0.57295603 -0.24992467 0.27860069
-0.3647522 -0.20721678 0.20137787
-0.65048695 -0.06926088 0.25890446
-0.36861083 -0.090153366 0.21539021
-0.62521362 0.036825873 0.24424553
-0.58581328 0.040487744 0.21362686
-0.3689647 0.056451939 0.21124649
-0.62053198 0.16845614 0.22366047
-0.52092248 0.16629966 0.22866058
-0.37684986 0.16571476 0.23120499
-0.6307478 0.28631753 0.2201004
-0.51640654 0.2752575 0.22281075
-0.39810041 0.28214127 0.21579075
-0.48777974 0.35226092 0.22236156
-0.40291449 0.38924769 0.20921516
-0.32673585 0.40313432 0.23286343
0.4695574 0.46137398 0.17450428
0.60040605 0.44895214 0.17340946
0.35226625 0.52438599 0.21806526
0.45192596 0.53982288 0.24629974
0.55892068 0.47663984 0.220644
0.39038745 0.61165828 0.27489662
0.46932912 0.65319365 0.24918652
0.40374824 0.83705467 0.17121315
0.46644297 0.78952777 0.22961521
0.25602829 0.85954887 0.16384983
0.35861477 0.87241268 0.21062851
0.45066637 0.86977249 0.20098686
0.51975924 -0.55665714 0.2933979
-0.4183147 -0.41572732 0.32291698
0.0011376776 -0.48052979 0.35860252
0.070660502 -0.48394275 0.38354683
-0.50062299 -0.30025756 0.33534527
-0.42596355 -0.32097384 0.33415699
-0.65854812 -0.17805344 0.31097507
-0.53257734 -0.20712206 0.33229542
-0.42381662 -0.22547141 0.34208679
-0.71041 -0.034537818 0.32628727
-0.6408608 -0.087615699 0.3190155
-0.53132987 -0.080765367 0.34390736
-0.44023234 -0.063499406 0.38188362
-0.71038657 0.0040577631 0.32618237
-0.65400445 0.051258005 0.31190395
-0.53297728 0.036250137 0.35053635
-0.43737271 0.032571442 0.36468983
-0.68016827 0.13488477 0.30629921
-0.50316709 0.14480835 0.31628227
-0.43789592 0.15751861 0.30975437
-0.43049818 0.28724983 0.32968426
0.39633545 0.64803785 0.33008766
0.41950089 0.69474995 0.30763435
0.43411204 0.7621026 0.32274055
0.0087786987 -0.42565975 0.48426628
0.087493032 -0.44653928 0.48570728
0.1800366 -0.46333286 0.49747753
-0.48647892 -0.17656207 0.43372059
-0.44635844 -0.16896249 0.46315193
-0.53659427 -0.083271615 0.41556931
-0.44777134 -0.1156758 0.47334957
-0.53481144 0.020574836 0.4153595
0.11283635 -0.41239437 0.55865097
0.1972695 -0.42233655 0.59938908
0.098736629 -0.36689004 0.60983562
0.17642507 -0.38749382 0.63955784
0.26220274 -0.41800866 0.66158962
0.12144376 -0.30702442 0.69088459
0.21274202 -0.37551498 0.69147396
0.29368788 -0.39428517 0.7074194
0.093329214 -0.22328976 0.72562122
0 0 0 1 0 0 0 1 0 0 0 1 0 0 0 0 0 276 1 0 0
