ply
format ascii 1.0
comment PCL generated
element vertex 301
property float x
property float y
property float z
element camera 1
property float view_px
property float view_py
property float view_pz
property float x_axisx
property float x_axisy
property float x_axisz
property float y_axisx
property float y_axisy
property float y_axisz
property float z_axisx
property float z_axisy
property float z_axisz
property float focal
property float scalex
property float scaley
property float centerx
property float centery
property int viewportx
property int viewporty
property float k1
property float k2
end_header
-0.51277745 -0.099872954 -0.82177544
-0.68216211 -0.15336315 -0.71085072
-0.59318513 -0.15832111 -0.769701
-0.46773425 -0.1564209 -0.78194332
-0.36384085 -0.14587186 -0.74717999
-0.68337119 -0.089401461 -0.72457695
-0.59166533 -0.083266243 -0.79775715
-0.45648479 -0.071887046 -0.80048847
-0.35184965 -0.068902172 -0.73938274
-0.043115471 -0.41905314 -0.59410763
0.0089214463 -0.44515491 -0.57018661
-0.15110935 -0.29152384 -0.6102953
-0.082868099 -0.32821971 -0.6258316
-0.0091407895 -0.38914931 -0.56568336
-0.70245141 -0.17970343 -0.65949821
-0.29899797 -0.14231452 -0.64491081
-0.17708623 -0.18303956 -0.6500082
-0.11889073 -0.21023691 -0.65124798
-0.72674417 -0.096749283 -0.65547466
-0.29170072 -0.049929809 -0.64840031
-0.2050381 -0.059991017 -0.64573288
-0.12945512 -0.11759506 -0.64002132
-0.27604726 0.002719641 -0.57781315
-0.18740885 0.06570141 -0.63684177
-0.16525763 0.18037774 -0.63668919
-0.12613623 0.22671615 -0.63923645
-0.082660437 0.327108 -0.59469509
0.092820592 -0.53130054 -0.50684166
0.17874056 -0.54374546 -0.46721935
0.065698527 -0.46894124 -0.52175236
0.15818214 -0.50329649 -0.45938778
-0.19005857 -0.29865468 -0.48127365
-0.13678984 -0.35895267 -0.48122025
-0.28702706 -0.16828761 -0.46809673
-0.23588969 -0.20644473 -0.50639343
-0.72549021 -0.060514212 -0.50681114
-0.29073808 0.070226729 -0.46194458
-0.25248832 0.094343297 -0.52628422
-0.22515512 0.20520009 -0.49980545
-0.17460458 0.30282709 -0.48345947
-0.12230735 0.36005321 -0.48832798
-0.059082989 0.42660078 -0.46866608
0.039385103 0.46431297 -0.49357224
0.23585074 -0.55256599 -0.41598129
0.30698335 -0.54992712 -0.36556721
0.40388489 -0.54542255 -0.3185215
-0.16618834 -0.40111724 -0.33046436
-0.10809221 -0.42638868 -0.38669872
0.078392886 -0.45683232 -0.40216351
0.19856995 -0.50559938 -0.37315273
0.31888151 -0.51741803 -0.30717087
-0.27762488 -0.2657648 -0.33847809
-0.21696784 -0.32653213 -0.37462807
-0.13963474 -0.38876241 -0.41962624
-0.30759019 -0.2067716 -0.35893059
-0.73761213 -0.041442621 -0.37649822
-0.35304132 0.0027192514 -0.36357307
-0.3432669 0.072386369 -0.36690712
-0.31088158 0.19051315 -0.36435223
-0.28637481 0.27993751 -0.32536125
-0.2188931 0.33528307 -0.36622143
-0.15980083 0.40961188 -0.34883308
-0.078957342 0.46263281 -0.36118126
0.02370372 0.50845277 -0.38852501
0.15985408 0.52073371 -0.31916142
0.090393223 0.53370237 -0.37087154
0.18022305 0.53675348 -0.35435867
0.44159263 -0.53443265 -0.28798771
-0.18603468 -0.41192082 -0.25158119
-0.10199677 -0.47195187 -0.23633385
0.10510445 -0.47711083 -0.27672482
0.19671072 -0.49210712 -0.24044514
0.3221347 -0.49732083 -0.22945786
0.45126042 -0.48072115 -0.21839237
0.56642598 -0.44437143 -0.20344162
-0.31412923 -0.30217355 -0.22483444
-0.25685364 -0.36107543 -0.22889805
0.62969738 -0.3758516 -0.17129135
0.65405673 -0.37625057 -0.16805077
-0.41170356 -0.21040267 -0.1687603
-0.35597304 -0.22844476 -0.24255276
-0.72490591 -0.031924296 -0.2451458
-0.42546639 0.0027192514 -0.24033165
-0.39591056 0.0027192514 -0.28944016
-0.44065121 0.057264946 -0.20630741
-0.39826459 0.071521662 -0.2714529
-0.41157672 0.17130999 -0.20567417
-0.36645919 0.21503575 -0.25086975
-0.31362119 0.32270545 -0.22882843
-0.26107639 0.35780329 -0.26968575
0.62039721 0.37255329 -0.17826653
0.65407854 0.35801545 -0.16794872
-0.20697425 0.43261606 -0.22566032
-0.10180943 0.49733421 -0.23364449
0.10654802 0.5117501 -0.23922062
0.19039977 0.51912981 -0.19564533
0.31817478 0.51717114 -0.20721054
0.44904888 0.49290225 -0.19923878
0.56061769 0.43161821 -0.19750023
-0.0091407895 0.53671533 -0.22889519
0.21971793 0.52896333 -0.27268124
0.30449539 0.54044217 -0.25625896
0.38661978 0.53815961 -0.22073841
-0.27719122 -0.41154069 -0.079378128
-0.21644059 -0.4279508 -0.13715553
0.089015849 -0.48800793 -0.057534218
0.18566054 -0.48484609 -0.078072548
0.32430249 -0.46375999 -0.10159111
0.44916919 -0.42504781 -0.10999203
0.5394963 -0.4028548 -0.14574909
0.65438104 -0.40013343 -0.16654587
-0.41709846 -0.29116052 -0.064889908
-0.35162693 -0.33980307 -0.099440575
0.49585533 -0.38006768 -0.070625305
0.58910078 -0.33344263 -0.099235535
0.68145221 -0.29701847 -0.13697433
-0.43578756 -0.23069091 -0.10827351
-0.38904351 -0.25846371 -0.16047859
0.63002408 -0.24311313 -0.0514431
0.70514095 -0.19098063 -0.098520279
-0.69515896 -0.04543063 -0.11746502
-0.50907421 -0.0053918352 -0.10306549
0.7295289 -0.063072994 -0.089356422
-0.49670377 0.077315293 -0.10783291
0.72754639 0.074400201 -0.092354774
-0.46191972 0.19383428 -0.10925961
0.63095456 0.24891007 -0.046794891
0.69613218 0.19414712 -0.099663734
-0.42476529 0.29626495 -0.068833351
-0.36435717 0.33997199 -0.11682224
0.50507337 0.39450169 -0.06402874
0.59119838 0.33863884 -0.096953392
0.67240441 0.29438433 -0.13817596
-0.3141675 0.41721785 -0.076906204
-0.22761157 0.47188702 -0.092646599
0.08894062 0.51741266 -0.061063766
0.18629564 0.5160085 -0.069750786
0.32930109 0.49369681 -0.1032486
0.45548621 0.44704303 -0.10420036
0.5375939 0.41999397 -0.12942791
-0.335711 -0.40748423 0.017536163
-0.23221344 -0.45592958 -0.024501801
0.067727193 -0.48408219 0.083379745
0.20171919 -0.47428238 0.045549393
0.32733953 -0.43436253 0.023659706
0.40836245 -0.40237296 -0.0063343048
-0.45327234 -0.30742908 0.020549774
-0.38736597 -0.37550601 0.030623436
0.46612626 -0.34301209 0.038314819
0.54403228 -0.29195678 0.0057992935
-0.50024378 -0.24907818 0.026041031
0.59388727 -0.20196442 0.026825905
0.65943813 -0.15821478 -0.028201103
-0.67611754 -0.030551083 0.0045318604
-0.59879166 -0.011651619 0.022863388
0.61999029 -0.073369034 0.055235863
0.66633677 -0.052462474 -0.0029983521
-0.67096931 0.002719641 0.06179142
-0.58481735 0.068123989 0.041322708
-0.52865899 0.1264139 -0.031218529
0.61987942 0.078687198 0.0526371
0.66767061 0.060766425 -0.0081224442
-0.55177975 0.19040303 0.048793793
-0.50897598 0.22159438 0.0016422272
0.59416211 0.20754339 0.028468132
0.65928745 0.16362329 -0.028926849
-0.46294472 0.3207483 0.028605461
0.47552627 0.35872874 0.038651466
0.54667133 0.30847746 0.0038537979
-0.3379516 0.44781232 0.040176392
-0.15800411 0.52374023 -0.021917343
0.079962917 0.51198 0.062841415
0.2029172 0.49971753 0.045517921
0.32515827 0.46070424 0.031839371
0.41943508 0.4188056 0.0069932938
-0.43368536 -0.40835088 0.20082283
-0.32313201 -0.45490703 0.1526165
0.083470099 -0.47373945 0.19364262
0.17886838 -0.46558586 0.16664982
0.31405416 -0.42399758 0.11459541
-0.56459844 -0.28806773 0.19042492
-0.48069966 -0.33905768 0.12655544
0.36732861 -0.38679501 0.12838936
0.43552503 -0.3135033 0.15367603
-0.55537301 -0.25739148 0.1340332
0.49381816 -0.22982661 0.16929913
0.53470141 -0.17286636 0.14946175
0.55850726 -0.068503 0.16032791
-0.63851339 0.067749955 0.12668133
0.5608744 0.070146918 0.15515518
-0.60283649 0.19493675 0.14406204
0.49582785 0.22108471 0.18275833
0.53442937 0.17825803 0.14777851
-0.56308728 0.30610466 0.18172264
-0.49206254 0.35570604 0.12706757
0.37193516 0.38379535 0.170331
0.44281453 0.32388365 0.15445518
-0.45513573 0.41355187 0.16190434
-0.40121278 0.44706792 0.15053844
-0.24224064 0.52071911 0.11960316
0.056328177 0.50299108 0.17547607
0.18584746 0.47745097 0.1609869
0.30928409 0.42793417 0.15570927
-0.47689182 -0.42358342 0.32841682
-0.38923639 -0.45882562 0.28194427
0.041258834 -0.46921054 0.27363777
0.17971458 -0.45032308 0.25870609
0.2828328 -0.41366714 0.26760483
-0.59692699 -0.32525542 0.30554485
-0.52548218 -0.37774244 0.28534412
0.33634758 -0.34273019 0.29960346
0.41126996 -0.29419026 0.26284122
0.37813538 -0.2462441 0.34857082
0.45183387 -0.18480887 0.2913065
0.4810265 -0.051720168 0.29401016
0.52578062 -0.010645651 0.22951317
-0.72034639 0.06832961 0.28504944
0.48034045 0.070693918 0.28901386
0.52561462 0.029456457 0.22843456
-0.70886439 0.1832464 0.30542278
-0.64839506 0.22483493 0.2513485
0.37796652 0.25157353 0.34700489
0.44534856 0.19153553 0.28793049
-0.68078721 0.28795105 0.34063053
-0.60600179 0.33612069 0.29699039
0.24002066 0.39030355 0.3514328
0.33331126 0.34515795 0.29511833
0.41246918 0.28978351 0.25166512
-0.48877838 0.43685976 0.28053379
-0.35897106 0.50093877 0.25280571
-0.043537963 0.46334901 0.32819271
0.045456883 0.48097986 0.30617619
0.18950436 0.44365168 0.29182529
0.26883835 0.41516709 0.24981785
-0.57293022 -0.40609246 0.41735935
-0.4892005 -0.4491019 0.42342472
-0.047059465 -0.42836148 0.44846153
0.024910685 -0.4373579 0.44481945
-0.5964722 -0.37478113 0.38788986
-0.074012198 -0.3203485 0.45006657
0.23781493 -0.35821056 0.45715332
0.30721831 -0.30330262 0.41047096
-0.15396583 -0.18420573 0.39680862
-0.079967432 -0.1960825 0.44423676
0.34959176 -0.21433188 0.43547916
0.39674187 -0.16520312 0.39201069
-0.16303636 -0.053245995 0.3906908
-0.079951279 -0.054057926 0.44368935
0.36372742 -0.097659625 0.48101997
0.41022915 -0.057420317 0.40602779
-0.16335317 0.072831564 0.39824581
-0.080130421 0.073892251 0.45249844
0.36271852 0.088463724 0.47093773
0.41336009 0.067423381 0.39702892
-0.16158859 0.19253096 0.39329338
-0.080019638 0.20162196 0.44712448
-0.0091407895 0.26113087 0.48495007
0.34606317 0.21369089 0.43460846
0.39406163 0.16513343 0.3929472
-0.67574525 0.33602145 0.36319923
-0.63654155 0.37919435 0.37752247
-0.14903082 0.29648468 0.38954639
-0.077896893 0.32944986 0.42717457
0.015399732 0.35381708 0.46776199
0.22566903 0.35889524 0.43725109
0.29967445 0.31157663 0.40383148
-0.57847208 0.44919431 0.40771866
-0.48861587 0.50608057 0.45587063
-0.051102743 0.40869969 0.39267731
0.047537874 0.43418652 0.43760872
0.15584198 0.41721633 0.41581917
-0.44133508 -0.48710105 0.49800873
0.063099377 -0.40150955 0.50587463
0.13699591 -0.40646395 0.55183983
0.053066242 -0.32420024 0.52333069
0.18331704 -0.30982006 0.55712605
0.26587486 -0.27229676 0.51728249
0.045400728 -0.19534923 0.52526951
0.17681098 -0.19371346 0.5965538
0.29329783 -0.18859109 0.54507256
0.049236715 -0.055365443 0.52788734
0.160933 -0.056412719 0.5960083
0.3173936 -0.061042659 0.55493069
0.049266502 0.075398743 0.53091621
0.16843154 0.076677777 0.59796429
0.3180272 0.063134499 0.55258369
0.047888435 0.198073 0.52834606
0.17658877 0.19891003 0.59209061
0.28619614 0.19403701 0.54036522
0.07005737 0.31509924 0.51340199
0.17888121 0.3137829 0.54562283
0.2531161 0.26497602 0.54044914
0.048571296 0.42602444 0.50428772
-0.43681118 0.56341386 0.50938702
-0.3874239 0.57016218 0.53512955
0.22901593 -0.16101283 0.62228012
0.216337 -0.065342881 0.62341118
0.25930035 -0.042021077 0.6297102
0.22921193 0.062328447 0.62546062
0.25877124 0.077132173 0.62207413
0.23006295 0.16716239 0.63928127
0 0 0 1 0 0 0 1 0 0 0 1 0 0 0 0 0 301 1 0 0
