ply
format ascii 1.0
comment PCL generated
element vertex 268
property float x
property float y
property float z
element camera 1
property float view_px
property float view_py
property float view_pz
property float x_axisx
property float x_axisy
property float x_axisz
property float y_axisx
property float y_axisy
property float y_axisz
property float z_axisx
property float z_axisy
property float z_axisz
property float focal
property float scalex
property float scaley
property float centerx
property float centery
property int viewportx
property int viewporty
property float k1
property float k2
end_header
-0.18067726 -0.21719782 -0.25178879
-0.16165221 -0.21611352 -0.26352584
-0.14413345 -0.21608983 -0.26378286
-0.18067726 -0.19961829 -0.25178885
-0.16165221 -0.19862446 -0.26352584
-0.14413345 -0.19860266 -0.26378292
-0.18067876 -0.18203974 -0.25177753
-0.16165221 -0.18113536 -0.26352584
-0.1445702 -0.1814068 -0.26000059
-0.18067876 -0.16446026 -0.25177747
-0.16165221 -0.16364627 -0.26352596
-0.14503175 -0.16416745 -0.25600338
-0.18067876 -0.14688075 -0.25177753
-0.1620878 -0.14637496 -0.25998944
-0.14549494 -0.14686753 -0.25199205
-0.18067726 -0.041403424 -0.25178885
-0.16217202 -0.041287769 -0.25930548
-0.14559144 -0.041413229 -0.25115639
-0.18067726 -0.023824021 -0.25178879
-0.16175959 -0.023740325 -0.26265407
-0.14520201 -0.023802932 -0.25452894
-0.18067726 -0.0062445765 -0.25178879
-0.16165221 -0.0062445356 -0.26352596
-0.14481372 -0.0062444946 -0.25789154
-0.18067726 0.011334867 -0.25178885
-0.16165221 0.011244525 -0.26352596
-0.14442661 0.011262086 -0.26124412
-0.1806758 0.028914146 -0.25180012
-0.16165221 0.028733626 -0.26352596
-0.14413345 0.028729606 -0.26378292
-0.1806758 0.046493467 -0.25180012
-0.16165221 0.046222609 -0.26352584
-0.14413217 0.046216413 -0.26379395
-0.1807763 0.064096421 -0.25103217
-0.16174307 0.063734442 -0.26278824
-0.14412829 0.063702442 -0.26382756
-0.16197324 0.081301123 -0.26091945
-0.14413089 0.081190109 -0.26380527
-0.16237661 0.098961473 -0.25764436
-0.14413217 0.098677486 -0.26379395
-0.16301721 0.11677621 -0.25244343
-0.14413345 0.11616515 -0.26378292
-0.14488506 0.13405311 -0.25727373
-0.1459977 -0.23519266 -0.24763793
-0.12925515 -0.23599939 -0.2395761
-0.19989994 -0.21829331 -0.23992968
-0.12925637 -0.21832696 -0.23956472
-0.19989994 -0.20062254 -0.2399298
-0.12925637 -0.20065342 -0.23956484
-0.19990152 -0.18295272 -0.23991835
-0.12925762 -0.18298085 -0.23955333
-0.19990152 -0.16528189 -0.23991835
-0.12925762 -0.16530727 -0.23955321
-0.12925884 -0.1476343 -0.23954189
-0.16398361 -0.12968811 -0.24459732
-0.1465615 -0.12978736 -0.24275529
-0.12925884 -0.12996064 -0.23954183
-0.12925884 -0.11228678 -0.23954183
-0.12925884 -0.09461315 -0.23954183
-0.12925884 -0.076939344 -0.23954189
-0.16459224 -0.05926308 -0.23965597
-0.14678505 -0.059236247 -0.24081933
-0.12925884 -0.059265703 -0.23954189
-0.12925884 -0.041592024 -0.23954183
-0.12925762 -0.023918219 -0.23955321
-0.19989836 -0.0062446175 -0.23994124
-0.12925637 -0.0062446175 -0.23956466
-0.19989836 0.011426027 -0.23994118
-0.12925637 0.011428899 -0.23956472
-0.19989836 0.029096715 -0.23994118
-0.1292527 0.029102005 -0.23959893
-0.19989836 0.046767235 -0.23994118
-0.12925515 0.046775769 -0.23957604
-0.20000747 0.064462133 -0.2391538
-0.12925515 0.064449169 -0.23957604
-0.20028451 0.08221586 -0.23715448
-0.18102932 0.081756115 -0.24909866
-0.12925392 0.082122236 -0.23958755
-0.18147278 0.099512711 -0.24571002
-0.12925392 0.09979555 -0.23958755
-0.18215609 0.11742032 -0.24048847
-0.12925637 0.11747018 -0.23956472
-0.16389966 0.13479176 -0.24527866
-0.12925515 0.13514298 -0.23957622
-0.14591792 0.15221001 -0.24832892
-0.1292527 0.15281482 -0.23959893
-0.14721218 0.17067894 -0.23712021
-0.12925145 0.17048731 -0.23961037
-0.1655992 -0.23680957 -0.23148018
-0.183009 -0.13026072 -0.23397112
-0.16623187 -0.11289644 -0.22634381
-0.14745405 -0.11249545 -0.23502553
-0.14778253 -0.094896436 -0.23218101
-0.16649798 -0.077412337 -0.22418314
-0.14757979 -0.077112108 -0.23393667
-0.18386525 -0.059545506 -0.2274282
-0.2007685 0.10006924 -0.23366147
-0.20149806 0.11807195 -0.22839642
-0.18311706 0.13553901 -0.2331453
-0.18433532 0.15390691 -0.22383618
-0.16502431 0.15305388 -0.23614776
-0.1664339 0.17163466 -0.22470337
-0.14882225 0.18955196 -0.22317672
-0.12966534 0.18848564 -0.23577011
-0.18547803 -0.23844835 -0.21510428
-0.11405519 -0.23847286 -0.2148596
-0.1140587 -0.22061236 -0.2148245
-0.11405987 -0.20274934 -0.21481299
-0.11405987 -0.18488531 -0.21481299
-0.11406104 -0.16702205 -0.21480125
-0.11405987 -0.14915723 -0.21481293
-0.11405987 -0.13129313 -0.21481282
-0.11405987 -0.11342897 -0.21481293
-0.16692737 -0.095338501 -0.22069705
-0.11405987 -0.095564969 -0.21481293
-0.11405987 -0.077700876 -0.21481293
-0.11405987 -0.059836838 -0.21481293
-0.11405987 -0.041972749 -0.21481282
-0.1140587 -0.024108581 -0.2148245
-0.11405753 -0.0062445356 -0.21483624
-0.11405753 0.011619222 -0.21483624
-0.11405753 0.029483184 -0.21483624
-0.11405636 0.047346778 -0.21484786
-0.11405636 0.065210581 -0.2148478
-0.11405519 0.083074011 -0.21485955
-0.11405519 0.10093777 -0.21485955
-0.11405987 0.11880391 -0.21481282
-0.11405519 0.1545288 -0.21485955
-0.18586594 0.17260183 -0.21214002
-0.1140587 0.17239517 -0.2148245
-0.16819158 0.19063109 -0.21043283
-0.11405636 0.1902573 -0.21484786
-0.13150874 0.20776847 -0.21866542
-0.1140587 0.20812315 -0.2148245
-0.18635455 -0.11372494 -0.20840651
-0.18635455 -0.095811538 -0.20840645
-0.18635455 -0.077898175 -0.20840645
-0.15084487 0.20896977 -0.20566028
-0.11479723 0.22672567 -0.20744485
-0.098526619 -0.24100253 -0.18958116
-0.098529898 -0.22294757 -0.18954539
-0.098531 -0.20488994 -0.18953359
-0.098531 -0.18683133 -0.18953341
-0.098531 -0.16877261 -0.18953347
-0.098529898 -0.15071321 -0.18954545
-0.098529898 -0.13265468 -0.18954545
-0.098529898 -0.1145961 -0.18954533
-0.098529898 -0.096537463 -0.18954545
-0.098529898 -0.078478947 -0.18954539
-0.098529898 -0.06042036 -0.18954539
-0.098529898 -0.042361766 -0.18954557
-0.09852881 -0.02430309 -0.18955737
-0.09852881 -0.0062446175 -0.18955731
-0.098527707 0.011813813 -0.18956935
-0.098527707 0.029872201 -0.18956918
-0.098526619 0.047930304 -0.18958116
-0.098526619 0.06598857 -0.1895811
-0.098525502 0.084046513 -0.18959308
-0.098525502 0.10210469 -0.18959308
-0.17039788 0.21018364 -0.19252008
-0.13423049 0.22813006 -0.19341087
-0.098531 0.22851817 -0.18953359
-0.098720469 0.24679789 -0.18748248
-0.15389112 0.22954433 -0.17927885
-0.1182212 0.24833384 -0.17323029
-0.08265803 -0.22533306 -0.16372162
-0.082660101 -0.20707777 -0.16369724
-0.082954399 0.066892721 -0.16022158
-0.082657002 0.085041814 -0.16373384
-0.082655974 0.10329849 -0.163746
-0.13795486 0.24988335 -0.15885299
-0.082660101 0.26761886 -0.16369736
-0.10193364 0.26888877 -0.15269887
-0.085724376 0.012291568 -0.12750983
-0.12174236 0.27058089 -0.13804483
-0.085858397 0.030852042 -0.12592733
-0.069248714 0.012497605 -0.10074341
-0.069395043 0.031269036 -0.098842859
-0.052402653 0.012708235 -0.073375463
-0.052558266 0.031695794 -0.071129441
-0.035173558 0.012923707 -0.045385003
-0.035333268 0.032131951 -0.042791724
-0.017548211 0.013144144 -0.016750932
-0.017707504 0.03257836 -0.013794661
0.00048722327 0.013369749 0.0125494
0.00033316761 0.033035398 0.015884638
0.018947214 0.013600566 0.042539597
0.018803582 0.033503145 0.046271324
0.03784693 0.01383688 0.073243856
0.037719257 0.033982377 0.077390194
0.057201236 0.014079387 0.10473382
0.057096511 0.034473099 0.10926867
0.077028513 0.014327559 0.13699353
0.076952443 0.034976043 0.14193451
0.097346313 0.014582212 0.1700511
0.097305 0.035491586 0.17541742
0.11817307 0.0148431 0.2039367
0.11817307 0.036020007 0.20974851
0.13952816 0.015110553 0.23868203
0.13957661 0.036562383 0.244977
0.16143164 0.015384735 0.27430272
0.16153768 0.037119932 0.28119016
0.18390536 0.015666176 0.31086802
0.18408284 0.037695169 0.31855285
0.20674612 0.015898675 0.34107041
0.20689973 0.038118768 0.34605873
0.2072024 -0.0062445356 0.35588837
0.22976497 0.016073819 0.36381876
0.22987926 0.038437795 0.36678767
0.2300902 -0.0062445356 0.37226844
0.25295383 0.016218849 0.38266504
0.20785977 0.0610204 0.37723708
0.23047546 0.061136793 0.38227797
0.25343576 -0.0062445356 0.39309919
0.25310043 0.038731135 0.38583922
0.23111179 -0.028832436 0.39881003
0.25412789 0.061732788 0.40808415
0.27748853 0.016514774 0.42110252
0.25534111 -0.029105838 0.43435097
0.27807289 -0.0062446175 0.43194711
0.2777234 0.0393412 0.42546117
0.27899027 0.062677018 0.44897163
0.3027105 0.016822554 0.46109104
0.28016454 -0.029386215 0.47076344
0.30337247 -0.0062446175 0.4718399
0.30302349 0.039968006 0.4661727
0.3045519 0.063647464 0.490991
0.32862413 0.017138872 0.50217581
0.30560061 -0.029673073 0.5080198
0.32936299 -0.0062446995 0.51283979
0.32902765 0.040611878 0.50799966
0.330845 0.064645976 0.53423107
0.33177477 -0.029978227 0.54765081
0.35525668 0.017463885 0.54438245
0.35607037 -0.0062446995 0.5549525
0.35576835 0.041274462 0.55102944
0.35869977 -0.030297253 0.58910954
0.38265225 0.017798908 0.58792639
0.3578971 0.065672547 0.57868266
0.38352603 -0.0062446175 0.59824526
0.38327605 0.041955832 0.59529305
0.38574418 0.066729307 0.62444043
0.38635877 -0.03062522 0.63169837
0.41176188 -0.0062446175 0.64276803
0.41085365 0.018145502 0.63293672
0.41158423 0.042657223 0.64084482
0.41441977 0.067817092 0.67154086
0.41478014 -0.030961882 0.67544198
0.4398798 0.018502105 0.67926288
0.4408116 -0.0062446175 0.68857431
0.44072607 0.043378964 0.68771946
0.44399992 -0.031308148 0.72043371
0.4697673 0.018869214 0.72696435
0.44396546 0.068938352 0.72008955
0.47071347 -0.0062446175 0.7357434
0.47074342 0.044122532 0.7360214
0.47405019 -0.031664424 0.7667042
0.50055522 0.01924748 0.77610242
0.47441691 0.070093334 0.77010703
0.50150055 -0.0062446175 0.78428936
0.50166863 0.044888172 0.78574526
0.50409377 -0.031972617 0.80674708
0.5314905 -0.0062446995 0.82029521
0.53076214 0.019542295 0.81438184
0.53163773 0.045438506 0.82149017
0.50452983 0.071026854 0.81052363
0.53412849 -0.032241754 0.84171319
0.5342015 0.071760818 0.8423059
0 0 0 1 0 0 0 1 0 0 0 1 0 0 0 0 0 268 1 0 0
