ply
format ascii 1.0
comment PCL generated
element vertex 206
property float x
property float y
property float z
element camera 1
property float view_px
property float view_py
property float view_pz
property float x_axisx
property float x_axisy
property float x_axisz
property float y_axisx
property float y_axisy
property float y_axisz
property float z_axisx
property float z_axisy
property float z_axisz
property float focal
property float scalex
property float scaley
property float centerx
property float centery
property int viewportx
property int viewporty
property float k1
property float k2
end_header
0.4163447 -0.036565207 -0.35560799
0.41567111 -0.016275581 -0.35897374
0.41567111 0.0039880928 -0.3589735
0.41567111 0.024251815 -0.35897362
0.41566843 0.044515349 -0.35898685
0.39755827 -0.036625341 -0.34779716
0.39755827 -0.016275581 -0.34779727
0.39755827 0.0040741768 -0.34779727
0.39755565 0.024423704 -0.34781063
0.39755565 0.044773366 -0.34781063
0.39755565 0.065122932 -0.34781063
0.36086246 -0.057323337 -0.32518446
0.37928846 -0.057148378 -0.33653903
0.36086482 -0.03679955 -0.32517087
0.37928846 -0.036712028 -0.33653915
0.37928846 -0.016275674 -0.33653891
0.36086482 -0.016275581 -0.32517087
0.44090009 -0.016275581 -0.33508456
0.36086482 0.0042483434 -0.32517076
0.37928846 0.0041607711 -0.33653891
0.4412027 0.0041832812 -0.33362854
0.36086246 0.024772082 -0.32518446
0.37928846 0.024597265 -0.33653891
0.44150567 0.02466451 -0.33217084
0.36086246 0.045295771 -0.32518435
0.37928602 0.045033384 -0.3365525
0.4418118 0.045168485 -0.33069813
0.36086246 0.065819696 -0.32518435
0.37928602 0.065469593 -0.33655238
0.36086246 0.086343527 -0.32518435
0.34228042 -0.05749983 -0.31371868
0.34228042 -0.036887728 -0.31371856
0.34228042 -0.016275628 -0.31371868
0.34228042 0.0043365192 -0.31371856
0.34228042 0.024948575 -0.31371856
0.34227809 0.0455603 -0.31373227
0.34227809 0.066172361 -0.31373227
0.42500573 0.066215321 -0.3123349
0.40543759 -0.057605445 -0.30685508
0.32353786 -0.03697665 -0.30215383
0.44761258 -0.036971763 -0.30278909
0.32353786 -0.016275721 -0.30215383
0.32353562 0.0044253934 -0.30216777
0.32353562 0.025126461 -0.30216765
0.32353562 0.04582734 -0.30216765
0.32353562 0.066528454 -0.30216765
0.38546011 0.087192178 -0.30313396
0.30463055 -0.016275628 -0.29050255
0.47240192 -0.016275534 -0.28379941
0.30463055 0.0045152437 -0.29050267
0.47272497 0.0045783054 -0.28230059
0.30463055 0.025306068 -0.29050267
0.47305143 0.025455538 -0.28078604
0.3046284 0.046096519 -0.2905165
0.47337824 0.046356115 -0.2792697
0.43707293 -0.058449302 -0.2520436
0.48015928 -0.037395068 -0.24780953
0.45794845 0.068040565 -0.2530607
0.50514412 -0.016275581 -0.23049486
0.41763484 0.089488477 -0.24347603
0.50549203 0.0049891435 -0.22893631
0.50584036 0.026277818 -0.2273761
0.50619233 0.047591049 -0.22579968
0.47002709 -0.059328414 -0.19494712
0.51406157 -0.037835948 -0.19054961
0.49237865 0.069947839 -0.19111884
0.53920501 -0.016275581 -0.17503405
0.30133194 0.0054357909 -0.17090786
0.53957599 0.005416397 -0.17342758
0.53995091 0.027133491 -0.17180395
0.5403263 0.048875559 -0.17017841
0.45126712 0.091888353 -0.18112528
0.30280364 -0.016275581 -0.16084576
0.28131601 0.0055300128 -0.1586715
0.30241016 0.027260825 -0.16353595
0.26236576 -0.016275628 -0.13685215
0.28267112 -0.016275581 -0.14889181
0.26112771 0.0056251641 -0.14631259
0.26228839 0.027662545 -0.1374433
0.28244033 0.027460568 -0.15055728
0.50438422 -0.060244869 -0.13541973
0.54941279 -0.038295615 -0.13083315
0.2418896 -0.016275674 -0.12469423
0.22023973 0.0058193766 -0.12108028
0.24076438 0.0057212468 -0.13383019
0.24194762 0.027866013 -0.12422359
0.52839559 0.071942538 -0.12634122
0.22123647 -0.016275721 -0.11244833
0.19953111 0.0059183408 -0.10821605
0.22141564 0.028071199 -0.11089635
0.20040607 -0.016275628 -0.10009742
0.17863601 0.0060182828 -0.095236063
0.20071262 0.028281223 -0.097252965
0.15820599 -0.016275674 -0.075058222
0.17939782 -0.016275628 -0.087623715
0.15755194 0.0061191563 -0.082138658
0.17983839 0.028497338 -0.083221197
0.13682997 -0.016275581 -0.062383533
0.13627627 0.0062209591 -0.068922281
0.15876228 0.028715685 -0.069036484
0.11526858 -0.016275628 -0.049581766
0.093139715 0.0064272135 -0.042125821
0.11480644 0.0063235983 -0.055585265
0.13747954 0.028936218 -0.054712534
0.093516745 -0.016275721 -0.036684036
0.071273424 0.0065317154 -0.028542519
0.11598713 0.029158935 -0.04024756
0.071573325 -0.016275674 -0.023672938
0.049205698 0.0066374689 -0.014816523
0.072362892 0.029611535 -0.010851979
0.094283096 0.029384028 -0.025622606
0.027110226 -0.016275674 0.0028846264
0.049435772 -0.016275581 -0.010546684
0.02693174 0.0067439247 -0.00097978115
0.050264783 0.029853139 0.0048378706
0.0045845583 -0.016275581 0.016489267
0.0044503883 0.006851539 0.013003349
-0.018146731 -0.016275674 0.030218124
-0.018242732 0.0069600381 0.027100325
0.027947985 0.030102272 0.021022677
-0.04108689 -0.016275628 0.044055462
-0.041147791 0.0070702117 0.041418195
0.0053887963 0.03035415 0.037383795
-0.064237863 -0.016275674 0.058037519
-0.064269006 0.0071826633 0.056014419
-0.017416798 0.030608822 0.053923249
-0.0876031 -0.016275581 0.072149396
-0.087613858 0.0072960462 0.070751786
-0.040340684 0.030954268 0.076366782
-0.1111856 -0.016275534 0.086374044
-0.1111856 0.0074109174 0.085650563
-0.13498828 -0.016275628 0.10074973
-0.13498771 0.0075264852 0.10067666
-0.15901434 -0.016275674 0.11526048
-0.15902372 0.0076434501 0.11586893
-0.20774943 -0.016275628 0.14469445
-0.183267 -0.016275628 0.12990797
-0.18329708 0.0077614356 0.13121092
-0.23246492 -0.016275581 0.15962148
-0.20781136 0.0078809112 0.14670515
-0.25741684 -0.016275628 0.17469144
-0.23257011 0.0080011785 0.16235423
-0.28261796 -0.016275581 0.19007981
-0.25757617 0.0081228837 0.17814064
-0.30806884 -0.016275534 0.20567751
-0.28283486 0.0082457066 0.19410539
-0.2843242 -0.041009732 0.22174418
-0.25908372 -0.040925413 0.21078014
-0.33376914 -0.016275628 0.22140896
-0.30836502 0.0083717871 0.21048641
-0.30981275 -0.041103996 0.23399484
-0.35972366 -0.016275628 0.2372961
-0.33416593 0.0085000042 0.22713554
-0.33563656 -0.041214637 0.24836278
-0.38593781 -0.016275628 0.25336123
-0.36023501 0.0086292457 0.24393868
-0.36169147 -0.041326158 0.26285875
-0.41241232 -0.016275767 0.26956666
-0.38657948 0.0087601151 0.26093841
-0.38798061 -0.041438844 0.27748525
-0.41320035 0.0088922866 0.27809763
-0.41450715 -0.041552365 0.29224408
-0.46532276 -0.016275628 0.29467547
-0.43915257 -0.016275581 0.28593469
-0.44010571 0.0090259444 0.29545915
-0.46693912 -0.041686632 0.30967343
-0.44127429 -0.041667003 0.30713654
-0.49254245 -0.016275721 0.31133914
-0.46621397 0.0090833809 0.3029449
-0.49418512 -0.041808896 0.32556498
-0.52004212 -0.016275581 0.32819343
-0.49361342 0.0092196446 0.32061398
-0.52174437 -0.041935436 0.3420136
-0.54782116 -0.016275674 0.3451997
-0.52131093 0.0093572568 0.3384949
-0.54957825 -0.042063285 0.35862601
-0.57588935 -0.016275674 0.36240232
-0.54930639 0.0094961245 0.35654831
-0.577694 -0.042192757 0.37542653
-0.57760704 0.0096365735 0.37479877
-0.60609001 -0.042323254 0.39237475
-0.60425788 -0.016275674 0.37984836
-0.60621798 0.0097786039 0.39324951
-0.63477671 -0.042455055 0.4095161
-0.63295019 -0.016275581 0.39765239
-0.66194713 -0.016275674 0.41564548
-0.63514763 0.0099224951 0.41192555
-0.66375196 -0.042588342 0.42681015
-0.69125366 -0.016275581 0.43383062
-0.66443455 0.010069549 0.43103242
-0.69302726 -0.042723022 0.44430315
-0.72087473 -0.016275674 0.45221102
-0.694125 0.010221532 0.45078504
-0.72260368 -0.0428591 0.46197629
-0.75081539 -0.016275581 0.47078979
-0.72416013 0.010375375 0.4707669
-0.75249028 -0.042996764 0.47985542
-0.78268343 -0.043135628 0.49789703
-0.78108084 -0.016275767 0.48957026
-0.75454593 0.010530986 0.49098217
-0.81319207 -0.0432758 0.51612759
-0.81167656 -0.016275674 0.50855517
-0.78528875 0.010688456 0.51143491
-0.84402126 -0.04341783 0.53454936
-0.84260774 -0.016275581 0.52774847
-0.81639957 0.01084788 0.53215289
0 0 0 1 0 0 0 1 0 0 0 1 0 0 0 0 0 206 1 0 0
