ply
format ascii 1.0
comment PCL generated
element vertex 670
property float x
property float y
property float z
element camera 1
property float view_px
property float view_py
property float view_pz
property float x_axisx
property float x_axisy
property float x_axisz
property float y_axisx
property float y_axisy
property float y_axisz
property float z_axisx
property float z_axisy
property float z_axisz
property float focal
property float scalex
property float scaley
property float centerx
property float centery
property int viewportx
property int viewporty
property float k1
property float k2
end_header
-0.10522254 -0.15494178 -0.40618575
-0.088794947 -0.15494178 -0.40618575
-0.072367355 -0.15494178 -0.40618575
-0.055939768 -0.15494178 -0.40618575
-0.039512172 -0.15494178 -0.40618575
-0.023084424 -0.15494078 -0.40619576
0.026198121 -0.15494078 -0.40619576
0.042625636 -0.15494078 -0.40619576
0.059053384 -0.15494178 -0.40618575
0.075480983 -0.15494178 -0.40618575
0.091908574 -0.15494178 -0.40618575
0.10833617 -0.15494178 -0.40618575
-0.10549363 -0.13894014 -0.40115482
-0.089027315 -0.13894014 -0.40115482
-0.072560996 -0.13894014 -0.40115482
-0.056094673 -0.13894014 -0.40115482
-0.039628357 -0.13894014 -0.40115482
-0.023161881 -0.13893923 -0.40116495
0.026236849 -0.13893923 -0.40116495
0.042703092 -0.13893923 -0.40116495
0.059169568 -0.13894014 -0.40115482
0.07563588 -0.13894014 -0.40115482
0.0921022 -0.13894014 -0.40115482
0.10856853 -0.13894014 -0.40115482
-0.10576655 -0.12286361 -0.39609021
-0.089261234 -0.12286361 -0.39609021
-0.072755545 -0.12286291 -0.39610034
-0.056250315 -0.12286291 -0.39610034
-0.039745085 -0.12286291 -0.39610034
-0.023239855 -0.12286291 -0.39610034
0.026275758 -0.12286219 -0.39611036
0.04278091 -0.12286219 -0.39611036
0.059286296 -0.12286291 -0.39610034
0.075791523 -0.12286291 -0.39610034
0.092297137 -0.12286361 -0.39609021
0.10880245 -0.12286361 -0.39609021
-0.10606094 -0.10673688 -0.39062703
-0.08951357 -0.10673688 -0.39062703
-0.072966218 -0.10673688 -0.39062703
-0.056418534 -0.10673612 -0.39063716
-0.039871253 -0.10673612 -0.39063716
-0.023323964 -0.10673612 -0.39063716
0.026317813 -0.10673545 -0.39064723
0.042865019 -0.10673545 -0.39064723
0.059412464 -0.10673612 -0.39063716
0.075959742 -0.10673612 -0.39063716
0.092507422 -0.10673688 -0.39062703
0.10905479 -0.10673688 -0.39062703
-0.10639742 -0.090574101 -0.38438261
-0.08980152 -0.09057337 -0.3843928
-0.073206171 -0.09057337 -0.3843928
-0.056610499 -0.090572849 -0.38440299
-0.040015221 -0.090572849 -0.38440299
-0.023419946 -0.090572849 -0.38440299
0.026365804 -0.090572134 -0.38441318
0.042961158 -0.090572849 -0.38440299
0.059556432 -0.090572849 -0.38440299
0.076152027 -0.09057337 -0.3843928
0.092747375 -0.09057337 -0.3843928
0.1093432 -0.090574101 -0.38438261
-0.10673587 -0.074317068 -0.37810189
-0.090091616 -0.074316502 -0.37811202
-0.073447511 -0.07431598 -0.37812239
-0.056803893 -0.07431598 -0.37812239
-0.04016003 -0.074315414 -0.37813252
-0.023516487 -0.074315414 -0.37813252
0.026414074 -0.074314833 -0.37814283
0.043057699 -0.074315414 -0.37813252
0.05970148 -0.07431598 -0.37812239
0.076345101 -0.07431598 -0.37812239
0.092989117 -0.074316502 -0.37811202
0.1096333 -0.074317068 -0.37810189
-0.10707574 -0.057964619 -0.37179458
-0.09038341 -0.057964619 -0.37179458
-0.073690668 -0.057964113 -0.37180495
-0.0569981 -0.057963606 -0.37181532
-0.040305924 -0.057963606 -0.37181532
-0.023613587 -0.057963219 -0.37182564
0.026462702 -0.057963219 -0.37182564
0.043154798 -0.057963219 -0.37182564
0.059847135 -0.057963606 -0.37181532
0.076539621 -0.057964113 -0.37180495
0.093232289 -0.057964619 -0.37179458
0.10992461 -0.057964619 -0.37179458
-0.10747513 -0.041557539 -0.36438268
-0.090725273 -0.041557115 -0.36439312
-0.073975563 -0.041556749 -0.36440331
-0.057226006 -0.041556302 -0.36441374
-0.040476855 -0.041556302 -0.36441374
-0.02372754 -0.041555922 -0.36442423
0.026519679 -0.041555922 -0.36442423
0.043268751 -0.041555922 -0.36442423
0.060018066 -0.041556302 -0.36441374
0.076767534 -0.041556749 -0.36440331
0.093517169 -0.041557115 -0.36439312
0.11026695 -0.041557539 -0.36438268
-0.007041866 -0.04187293 -0.3561886
-0.10788515 -0.025042441 -0.35677361
-0.091076717 -0.025042135 -0.35678416
-0.07426843 -0.02504177 -0.35679454
-0.057460297 -0.025041502 -0.35680491
-0.040652569 -0.025041502 -0.35680491
-0.023844685 -0.025041204 -0.35681546
-0.0070369598 -0.025040839 -0.35682583
0.026578331 -0.025041502 -0.35680491
0.043386057 -0.025041502 -0.35680491
0.060193781 -0.025041502 -0.35680491
0.077001825 -0.02504177 -0.35679454
0.093810037 -0.025042135 -0.35678416
0.1106184 -0.025042441 -0.35677361
-0.1082975 -0.0084112585 -0.34912163
-0.091430619 -0.0084112585 -0.34912163
-0.074563339 -0.008410994 -0.34913206
-0.057696234 -0.0084107518 -0.34914273
-0.040829524 -0.0084107518 -0.34914273
-0.02396265 -0.0084105283 -0.34915316
-0.0070959423 -0.0084102266 -0.34916371
0.026637316 -0.0084107518 -0.34914273
0.043504186 -0.008410994 -0.34913206
0.060370978 -0.008410994 -0.34913206
0.07723777 -0.008410994 -0.34913206
0.094104961 -0.0084112585 -0.34912163
0.11097184 -0.0084112585 -0.34912163
-0.10875326 0.0083254166 -0.34066355
-0.091820791 0.0083256997 -0.34067422
-0.074888483 0.0083258189 -0.34068477
-0.057956342 0.0083259828 -0.34069538
-0.041024607 0.0083259828 -0.34069538
-0.024092704 0.008326143 -0.34070593
-0.0071610492 0.008326143 -0.34070593
0.0097706057 0.0083258189 -0.34068477
0.026702425 0.0083258189 -0.34068477
0.043634243 0.0083258189 -0.34068477
0.060566064 0.0083258189 -0.34068477
0.077498212 0.0083256997 -0.34067422
0.094430521 0.0083254166 -0.34066355
0.11136249 0.0083254166 -0.34066355
0.0097706057 -0.0087277219 -0.33541453
-0.10924366 0.025187386 -0.33156282
-0.092241138 0.025187468 -0.33157367
-0.075238764 0.025187548 -0.33158422
-0.058236893 0.025187548 -0.33158422
-0.041235015 0.025187548 -0.33158422
-0.024233144 0.025187548 -0.33158422
-0.007231269 0.025187548 -0.33158422
0.0097706057 0.025187468 -0.33157367
0.026772562 0.025187468 -0.33157367
0.043774519 0.025187468 -0.33157367
0.060776476 0.025187468 -0.33157367
0.077778429 0.025187468 -0.33157367
0.094780803 0.025187386 -0.33156282
0.11178285 0.025187386 -0.33156282
-0.10973814 0.042189408 -0.32238656
-0.092665464 0.042189408 -0.32238656
-0.075592786 0.042189408 -0.32238656
-0.058520105 0.042189408 -0.32238656
-0.041447431 0.042189408 -0.32238656
-0.02437475 0.042189408 -0.32238656
-0.0073020719 0.042189408 -0.32238656
0.0097706057 0.042189408 -0.32238656
0.026843283 0.042189408 -0.32238656
0.043915961 0.042189408 -0.32238656
0.060988642 0.042189408 -0.32238656
0.078061312 0.042189408 -0.32238656
0.095134005 0.042189408 -0.32238656
0.11220717 0.042189449 -0.32237589
-0.11027013 0.059338089 -0.31251419
-0.093121454 0.059338089 -0.31251419
-0.075972766 0.059338089 -0.31251419
-0.058824103 0.059338089 -0.31251419
-0.041675426 0.059338089 -0.31251419
-0.024526749 0.059338089 -0.31251419
-0.0073780715 0.059338089 -0.31251419
0.0097706057 0.059338089 -0.31251419
0.026919283 0.059338089 -0.31251419
0.04406796 0.059338089 -0.31251419
0.061216637 0.059338089 -0.31251419
0.078365311 0.059338089 -0.31251419
0.095513985 0.059338089 -0.31251419
0.11266267 0.059338089 -0.31251419
-0.110853 0.076653294 -0.30169731
-0.09362106 0.076653294 -0.30169731
-0.076389119 0.076653294 -0.30169731
-0.059157167 0.076653294 -0.30169731
-0.041925229 0.076653294 -0.30169731
-0.02469328 0.076653294 -0.30169731
-0.0074613374 0.076653294 -0.30169731
0.0097706057 0.076653294 -0.30169731
0.027002549 0.076653294 -0.30169731
0.044234492 0.076653294 -0.30169731
0.061466441 0.076653294 -0.30169731
0.078698382 0.076653294 -0.30169731
0.095930323 0.076653294 -0.30169731
0.11316228 0.076653294 -0.30169731
-0.11144157 0.09413749 -0.290775
-0.094125539 0.09413749 -0.290775
-0.076809511 0.09413749 -0.290775
-0.059493493 0.09413749 -0.290775
-0.042177469 0.09413749 -0.290775
-0.024861444 0.09413749 -0.290775
-0.007545419 0.09413749 -0.290775
0.0097706057 0.09413749 -0.290775
0.02708663 0.09413749 -0.290775
0.044402655 0.09413749 -0.290775
0.06171868 0.09413749 -0.290775
0.079034701 0.09413749 -0.290775
0.096350729 0.09413749 -0.290775
0.11366676 0.09413749 -0.290775
-0.11207753 0.11181696 -0.2789728
-0.094670653 0.11181696 -0.2789728
-0.077263787 0.11181696 -0.2789728
-0.05985691 0.11181696 -0.2789728
-0.042450026 0.11181696 -0.2789728
-0.025043152 0.11181696 -0.2789728
-0.0076362733 0.11181696 -0.2789728
0.0097706057 0.11181696 -0.2789728
0.027177485 0.11181696 -0.2789728
0.044584364 0.11181696 -0.2789728
0.061991237 0.11181696 -0.2789728
0.079398125 0.11181696 -0.2789728
0.096804991 0.11181696 -0.2789728
0.11421187 0.11181696 -0.2789728
-0.11276844 0.12971729 -0.26615137
-0.095262855 0.12971729 -0.26615137
-0.077757284 0.12971729 -0.26615137
-0.060251702 0.12971729 -0.26615137
-0.042746127 0.12971729 -0.26615137
-0.025240548 0.12971729 -0.26615137
-0.0077349711 0.12971729 -0.26615137
0.0097706057 0.12971729 -0.26615137
0.027276183 0.12971729 -0.26615137
0.044781759 0.12971729 -0.26615137
0.062287338 0.12971729 -0.26615137
0.079792917 0.12971729 -0.26615137
0.097298488 0.12971729 -0.26615137
0.11480407 0.12971729 -0.26615137
-0.11346722 0.14782181 -0.25318354
-0.095861807 0.14782181 -0.25318354
-0.078256413 0.14782181 -0.25318354
-0.060651008 0.14782181 -0.25318354
-0.043045603 0.14782181 -0.25318354
-0.025440201 0.14782181 -0.25318354
-0.0078347996 0.14782181 -0.25318354
0.0097706057 0.14782181 -0.25318354
0.027376011 0.14782181 -0.25318354
0.044981413 0.14782181 -0.25318354
0.062586814 0.14782181 -0.25318354
0.080192223 0.14782181 -0.25318354
0.097797617 0.14782181 -0.25318354
0.11540303 0.14782181 -0.25318354
-0.1142509 0.1662109 -0.23864049
-0.096533537 0.1662109 -0.23864049
-0.078816175 0.1662109 -0.23864049
-0.061098818 0.1662109 -0.23864049
-0.043381464 0.1662109 -0.23864049
-0.025664106 0.1662109 -0.23864049
-0.0079467501 0.1662109 -0.23864049
0.0097706057 0.1662109 -0.23864049
0.027487962 0.1662109 -0.23864049
0.045205317 0.1662109 -0.23864049
0.062922671 0.1662109 -0.23864049
0.080640033 0.1662109 -0.23864049
0.098357394 0.1662109 -0.23864049
0.11607474 0.1662109 -0.23864049
-0.11507247 0.18486723 -0.2233938
-0.097237751 0.18486723 -0.2233938
-0.079403028 0.18486723 -0.2233938
-0.061568294 0.18486723 -0.2233938
-0.043733571 0.18486723 -0.2233938
-0.025898844 0.18486723 -0.2233938
-0.0080641191 0.18486723 -0.2233938
0.0097706057 0.18486723 -0.2233938
0.027605331 0.18486723 -0.2233938
0.045440055 0.18486723 -0.2233938
0.063274786 0.18486723 -0.2233938
0.081109509 0.18486723 -0.2233938
0.098944232 0.18486723 -0.2233938
0.11677895 0.18486723 -0.2233938
-0.11593327 0.20380858 -0.20741922
-0.097975582 0.20380858 -0.20741922
-0.08001788 0.20380858 -0.20741922
-0.062060181 0.20380858 -0.20741922
-0.04410249 0.20380858 -0.20741922
-0.026144788 0.20380858 -0.20741922
-0.008187091 0.20380858 -0.20741922
0.0097706057 0.20380858 -0.20741922
0.027728302 0.20380858 -0.20741922
0.045685999 0.20380858 -0.20741922
0.063643701 0.20380858 -0.20741922
0.081601396 0.20380858 -0.20741922
0.099559098 0.20380858 -0.20741922
0.1175168 0.20380858 -0.20741922
-0.11689992 0.2231473 -0.18948072
-0.098804116 0.2231473 -0.18948072
-0.080708325 0.2231473 -0.18948072
-0.062612548 0.2231473 -0.18948072
-0.044516757 0.2231473 -0.18948072
-0.02642097 0.2231473 -0.18948072
-0.0083251819 0.2231473 -0.18948072
0.0097706057 0.2231473 -0.18948072
0.027866393 0.2231473 -0.18948072
0.045962181 0.2231473 -0.18948072
0.064057969 0.2231473 -0.18948072
0.082153752 0.2231473 -0.18948072
0.10024954 0.2231473 -0.18948072
0.11834534 0.2231473 -0.18948072
-0.11788152 0.24278566 -0.17126405
-0.09964551 0.24278566 -0.17126405
-0.081409484 0.24278566 -0.17126405
-0.063173473 0.24278566 -0.17126405
-0.04493745 0.24278566 -0.17126405
-0.026701432 0.24278566 -0.17126405
-0.008465413 0.24278566 -0.17126405
0.0097706057 0.24278566 -0.17126405
0.028006624 0.24278566 -0.17126405
0.046242643 0.24278566 -0.17126405
0.064478666 0.24278566 -0.17126405
0.082714677 0.24278566 -0.17126405
0.10095069 0.24278566 -0.17126405
0.11918671 0.24278566 -0.17126405
-0.10062304 0.26297662 -0.15010011
-0.082224101 0.26297662 -0.15010011
-0.06382516 0.26297662 -0.15010011
-0.045426216 0.26297662 -0.15010011
-0.027027275 0.26297662 -0.15010011
-0.0086283349 0.26297662 -0.15010011
0.0097706057 0.26297662 -0.15010011
0.028169546 0.26297662 -0.15010011
0.046568487 0.26297662 -0.15010011
0.064967424 0.26297662 -0.15010011
0.083366364 0.26297662 -0.15010011
0.1017653 0.26297662 -0.15010011
-0.10162407 0.28354451 -0.12842691
-0.083058298 0.28354451 -0.12842691
-0.064492509 0.28354451 -0.12842691
-0.045926735 0.28354451 -0.12842691
-0.027360953 0.28354451 -0.12842691
-0.0087951738 0.28354451 -0.12842691
0.0097706057 0.28354451 -0.12842691
0.028336385 0.28354451 -0.12842691
0.046902165 0.28354451 -0.12842691
0.065467946 0.28354451 -0.12842691
0.084033728 0.28354451 -0.12842691
0.1025995 0.28354451 -0.12842691
-0.1027887 0.30482781 -0.10321224
-0.08402881 0.30482781 -0.10321224
-0.065268934 0.30482781 -0.10321224
-0.046509046 0.30482781 -0.10321224
-0.027749162 0.30482781 -0.10321224
-0.0089892782 0.30482781 -0.10321224
0.0097706057 0.30482781 -0.10321224
0.02853049 0.30482781 -0.10321224
0.047290374 0.30482781 -0.10321224
0.066050261 0.30482781 -0.10321224
0.084810138 0.30482781 -0.10321224
0.10357001 0.30482781 -0.10321224
-0.10401416 0.3266513 -0.076680422
-0.085050017 0.3266513 -0.076680422
-0.06608589 0.3266513 -0.076680422
-0.047121774 0.3266513 -0.076680422
-0.028157644 0.3266513 -0.076680422
-0.0091935191 0.3266513 -0.076680422
0.0097706057 0.3266513 -0.076680422
0.028734731 0.3266513 -0.076680422
0.047698855 0.3266513 -0.076680422
0.066662982 0.3266513 -0.076680422
0.085627109 0.3266513 -0.076680422
0.10459124 0.3266513 -0.076680422
-0.10544892 0.34944153 -0.045616508
-0.086245671 0.34944153 -0.045616508
-0.06704241 0.34944153 -0.045616508
-0.047839157 0.34944153 -0.045616508
-0.028635904 0.34944153 -0.045616508
-0.0094326492 0.34944153 -0.045616508
0.0097706057 0.34944153 -0.045616508
0.028973861 0.34944153 -0.045616508
0.048177116 0.34944153 -0.045616508
0.067380369 0.34944153 -0.045616508
0.086583629 0.34944153 -0.045616508
0.10578687 0.34944153 -0.045616508
-0.1070691 0.3732352 -0.010538816
-0.08759582 0.3732352 -0.010538816
-0.068122536 0.3732352 -0.010538816
-0.048649248 0.3732352 -0.010538816
-0.029175963 0.3732352 -0.010538816
-0.0097026788 0.3732352 -0.010538816
0.0097706057 0.3732352 -0.010538816
0.02924389 0.3732352 -0.010538816
0.048717175 0.3732352 -0.010538816
0.068190455 0.3732352 -0.010538816
0.08766374 0.3732352 -0.010538816
0.10713702 0.3732352 -0.010538816
-0.1088769 0.39813194 0.02860105
-0.089102313 0.39813194 0.02860105
-0.069327727 0.39813194 0.02860105
-0.049553145 0.39813194 0.02860105
-0.029778562 0.39813194 0.02860105
-0.010003977 0.39813194 0.02860105
0.0097706057 0.39813194 0.02860105
0.029545188 0.39813194 0.02860105
0.049319774 0.39813194 0.02860105
0.06909436 0.39813194 0.02860105
0.088868946 0.39813194 0.02860105
0.10864352 0.39813194 0.02860105
-0.030590225 0.42561731 0.081320524
-0.010344418 0.42437473 0.072825313
0.0097706057 0.42437473 0.072825313
0.0299516 0.42562836 0.081395745
-0.051310237 0.42903474 0.10468554
0.050492819 0.42905036 0.10479283
-0.01075837 0.45276886 0.12659991
0.0097706057 0.4527497 0.1264751
0.0097706057 -0.040621344 0.14916539
-0.031572159 0.4556171 0.14509892
0.030443205 0.45564145 0.14525688
0.0097706057 -0.061830316 0.16231918
-0.011135595 -0.083247766 0.1756022
0.0097706057 -0.083247036 0.1755861
-0.011238856 -0.10487685 0.18901646
0.0097706057 -0.10487597 0.18900025
-0.011343017 -0.12671961 0.20254755
0.0097706057 -0.12671863 0.20253122
-0.011448346 -0.14878114 0.21623015
0.0097706057 -0.14878003 0.21621335
-0.011554601 -0.17106272 0.23003304
0.0097706057 -0.1710614 0.23001611
-0.011662055 -0.19356994 0.24399173
0.0097706057 -0.19356845 0.24397469
-0.0117706 -0.21630503 0.25809193
0.0097706057 -0.21630199 0.25805759
-0.011783285 0.4948211 0.25974
0.0097706057 0.49481821 0.25972283
-0.011880113 -0.23926996 0.27231836
0.0097706057 -0.23926826 0.2723012
-0.033518296 0.49672285 0.27150404
0.031415455 0.49673128 0.2715559
-0.011990882 -0.26247141 0.28670764
0.0097706057 -0.26246765 0.28667259
-0.033640511 -0.23998289 0.27944231
0.031476699 -0.2399898 0.27951205
-0.055312697 0.47607818 0.27799726
0.053162154 0.47610497 0.27817118
-0.011973105 0.52055097 0.28439844
0.0097706057 0.52055389 0.28441572
-0.012102652 -0.28590944 0.30122721
0.0097706057 -0.28590742 0.30120945
-0.03386372 -0.26325083 0.29393995
0.031588174 -0.26325658 0.29399276
-0.055724401 -0.24162228 0.29582441
0.053435568 -0.2416328 0.29593003
-0.055717479 0.50060606 0.29552484
0.053431232 0.50062591 0.2956481
-0.033856947 0.5220924 0.29350007
0.031584926 0.52210444 0.29357052
-0.012215719 -0.30959171 0.31591451
0.0097706057 -0.30958739 0.31587887
-0.034089234 -0.28675935 0.30858755
0.031700939 -0.28676552 0.30864084
-0.056065593 -0.26504615 0.31059825
0.053663049 -0.26505771 0.31070507
-0.056082863 0.52511483 0.31134641
0.053674016 0.52512687 0.3114177
-0.034127872 0.54702181 0.31109703
-0.0121231 0.54574466 0.30388319
0.0097706057 0.54574466 0.30388319
0.031719983 0.54702497 0.31111467
-0.034317087 -0.31051213 0.32338727
0.031814866 -0.31051877 0.32344103
-0.056410354 -0.28871542 0.32552683
0.053892627 -0.28872579 0.32561707
-0.078542203 0.46167532 0.3278501
0.076011464 0.46171489 0.32812035
-0.07841751 0.48312995 0.32380068
0.075915426 0.48315486 0.32396221
-0.078577742 0.5060181 0.32900393
0.076035187 0.50604147 0.32914817
-0.056392487 0.54943973 0.32475328
0.053880442 0.54945248 0.32482541
-0.034346152 0.57159054 0.32527494
-0.012245616 0.57057869 0.31979835
0.0097706057 0.57057536 0.31978047
0.031829264 0.57159722 0.32531095
-0.034547329 -0.33451307 0.33834159
-0.012329817 -0.33351779 0.33073652
0.0097706057 -0.33351544 0.33071852
0.031929992 -0.33452025 0.33839607
-0.056758326 -0.31263161 0.34059465
0.054124907 -0.31264502 0.34070361
-0.078651115 -0.24518119 0.33138692
0.076093569 -0.24521013 0.33167601
-0.078799337 0.52932411 0.33620083
0.076200575 0.52934247 0.33630967
-0.056639697 0.57347172 0.33545792
0.054044977 0.5734818 0.33551204
-0.034524143 0.59587371 0.3368355
-0.012346094 0.59510696 0.33285105
0.0097706057 0.59511042 0.33286929
0.031918116 0.59587723 0.33685362
-0.034779981 -0.35876584 0.3534528
-0.012445249 -0.35769597 0.3457315
0.0097706057 -0.3576909 0.34569502
0.032046322 -0.35877347 0.35350788
-0.057110395 -0.3368029 0.35583985
0.054359637 -0.33681732 0.35595
-0.079143405 -0.26900968 0.34737468
0.076463282 -0.26904309 0.34768534
-0.079022616 0.55275047 0.34345222
0.076367632 0.55276674 0.34354341
-0.079256624 0.57635283 0.35105145
0.07654272 0.57636625 0.35112488
-0.056874003 0.59756112 0.34560359
0.054200627 0.59756464 0.34562206
-0.0346715 0.61993665 0.34640682
-0.012427142 0.61933076 0.34337926
0.0097706057 0.61933076 0.34337926
0.031991798 0.61994046 0.34642494
-0.035015088 -0.38327473 0.36872363
-0.012561748 -0.38212529 0.36086524
0.0097706057 -0.38212258 0.36084676
0.032163881 -0.38328284 0.3687793
-0.079641223 -0.29310501 0.36354172
0.076836735 -0.29314119 0.3638556
-0.10208456 0.51198101 0.36588967
0.099259287 0.51200497 0.36603796
-0.10205536 0.53422374 0.36513138
0.09923479 0.53424245 0.36524224
-0.10208741 0.55673623 0.3659637
0.099258155 0.55674273 0.36600077
-0.1022329 0.57980627 0.36974359
0.099375695 0.57981992 0.36981785
-0.079482794 0.60002315 0.35839641
0.076711506 0.60003024 0.35843337
-0.057152864 0.62219286 0.35767877
0.054387104 0.62220389 0.35773385
-0.035252694 -0.40804356 0.38415635
-0.01267962 -0.40681517 0.37617743
0.0097706057 -0.40680933 0.37614
-0.05746622 -0.36123154 0.37124729
0.054596588 -0.36124435 0.37134016
-0.08014521 -0.31747392 0.3799094
0.077214807 -0.31751296 0.38022685
-0.10237375 0.49076697 0.37340331
0.099491253 0.49079266 0.3735708
-0.012798598 -0.43176389 0.39163303
0.0097706057 -0.43176085 0.3916142
0.032282688 -0.4080523 0.38421285
-0.057825413 -0.38591865 0.38680077
0.054836351 -0.38593522 0.38691354
-0.080654338 -0.34211665 0.39644349
0.077596724 -0.34215868 0.39676476
-0.10315013 0.47128814 0.39357424
0.10011359 0.4713186 0.39378178
-0.12572905 0.53902143 0.39346099
0.12269279 0.53904694 0.39361203
-0.12585808 0.56209934 0.39625466
0.12279887 0.56211942 0.39636791
-0.01291899 -0.45698166 0.40727246
0.0097706057 -0.45697847 0.40725338
-0.03549283 -0.43307671 0.39975405
0.032402761 -0.43308595 0.39981091
-0.058188904 -0.41087395 0.40254033
0.055078402 -0.41088864 0.40263534
-0.12614579 0.51789677 0.40248358
0.12303863 0.51791519 0.40259731
-0.013040528 -0.48246664 0.42306042
0.0097706057 -0.48246324 0.42304111
-0.035735544 -0.4583782 0.41551864
0.032524124 -0.45838809 0.41557622
-0.058555882 -0.43609604 0.41843104
0.055323366 -0.43611461 0.4185462
-0.081169844 -0.36704257 0.41318524
0.077983007 -0.36708501 0.41349101
-0.12683101 0.49752808 0.41731906
0.12361044 0.49754867 0.41745317
-0.03598088 -0.4839527 0.43145335
0.032646794 -0.48396289 0.43151152
-0.058927294 -0.4615953 0.43451381
0.055570699 -0.46161145 0.43461049
-0.081690669 -0.39225164 0.43009949
0.078374147 -0.39229971 0.43042815
-0.036228869 -0.50980425 0.44756067
-0.013163522 -0.50822967 0.43903792
0.0097706057 -0.5082261 0.43901849
0.032770794 -0.50981516 0.4476198
-0.059302758 -0.48737305 0.45077181
0.055821024 -0.48739034 0.4508698
-0.082218111 -0.41775417 0.44722843
0.078769371 -0.41780245 0.44754148
-0.036479559 -0.53593779 0.46384382
-0.013287699 -0.5342682 0.45516896
0.0097706057 -0.53426433 0.45514941
0.032896146 -0.53594917 0.46390319
-0.082751051 -0.44354928 0.46453607
0.079169601 -0.44360363 0.46487236
-0.013413381 -0.56059426 0.47149563
0.0097706057 -0.56059021 0.47147548
-0.059681896 -0.51343066 0.46718919
0.0560738 -0.51344883 0.46728814
-0.013540287 -0.58720469 0.48798096
0.0097706057 -0.58720469 0.48798096
-0.036732998 -0.56235754 0.48030543
0.033022873 -0.56236941 0.48036528
-0.06006569 -0.53977972 0.48380756
0.056329679 -0.53979897 0.4839077
-0.083290815 -0.46964836 0.48206544
0.079574063 -0.4697026 0.48238575
-0.013668742 -0.61411238 0.50466824
0.0097706057 -0.61410797 0.50464761
-0.036989238 -0.58906853 0.49694824
0.033150837 -0.58907682 0.49698853
-0.060453277 -0.56641763 0.50059056
0.056588396 -0.56644189 0.50071204
-0.083836287 -0.49605024 0.49978042
0.079983726 -0.49611121 0.50012481
-0.03724831 -0.6160754 0.51377547
0.033280376 -0.61608434 0.51381636
-0.060845654 -0.59335691 0.51758122
0.056849692 -0.59337813 0.51768351
-0.084388822 -0.52276713 0.51772451
0.080397755 -0.5228278 0.51805258
-0.037509952 -0.64337873 0.53076982
-0.013798468 -0.64131367 0.52151954
0.0097706057 -0.64131367 0.52151954
0.033411361 -0.64339256 0.53083181
-0.013929794 -0.66882247 0.53857946
0.0097706057 -0.66882247 0.53857946
-0.06124245 -0.62059921 0.53476298
0.05711424 -0.6206215 0.53486657
-0.084947288 -0.54979736 0.53586125
0.080816686 -0.54986137 0.53619301
-0.014062431 -0.69663471 0.55580962
0.0097706057 -0.69663471 0.55580962
-0.037774842 -0.67099231 0.54797482
0.03354381 -0.6710068 0.54803753
-0.061643247 -0.64814448 0.55211771
0.057381451 -0.64816791 0.55222261
-0.08551307 -0.57715452 0.55423546
0.081241116 -0.57722163 0.55457091
-0.014196724 -0.72476518 0.57325518
0.0097706057 -0.72476518 0.57325518
-0.038042717 -0.69891715 0.56537414
0.033677757 -0.69893217 0.5654372
-0.062049072 -0.67600733 0.5696907
0.057652026 -0.67603189 0.5697968
-0.086084977 -0.60483575 0.57280874
0.081680447 -0.60499913 0.57359469
-0.038313631 -0.72715837 0.58297038
0.033813216 -0.72717416 0.5830344
-0.062459055 -0.70418376 0.58744359
0.057925358 -0.70420927 0.58755052
-0.038587634 -0.75572157 0.60076714
-0.014332375 -0.75320899 0.59087646
0.0097706057 -0.75320899 0.59087646
0.033950225 -0.75573814 0.6008321
-0.086796328 -0.63377917 0.59591091
0.082225189 -0.63405329 0.59718275
-0.014469735 -0.78198224 0.60872042
0.0097706057 -0.78198224 0.60872042
-0.062874243 -0.73268902 0.60542142
0.05820217 -0.73271555 0.60552955
-0.038864773 -0.78461206 0.61876774
0.034088798 -0.78462929 0.61883354
-0.063294232 -0.76152366 0.62360716
0.058482181 -0.76155156 0.62371695
-0.087532476 -0.66325784 0.61981761
0.082777739 -0.66354626 0.62110901
-0.088279232 -0.69318449 0.64406967
0.083338782 -0.69349247 0.64540315
-0.089038253 -0.72357917 0.66871893
0.083908528 -0.72390252 0.67007351
0 0 0 1 0 0 0 1 0 0 0 1 0 0 0 0 0 670 1 0 0
