ply
format ascii 1.0
comment PCL generated
element vertex 589
property float x
property float y
property float z
element camera 1
property float view_px
property float view_py
property float view_pz
property float x_axisx
property float x_axisy
property float x_axisz
property float y_axisx
property float y_axisy
property float y_axisz
property float z_axisx
property float z_axisy
property float z_axisz
property float focal
property float scalex
property float scaley
property float centerx
property float centery
property int viewportx
property int viewporty
property float k1
property float k2
end_header
-0.057031542 -0.8446241 -0.46690071
-0.03341084 -0.84405667 -0.4686147
-0.0098297093 -0.84405667 -0.4686147
0.013751419 -0.84405667 -0.4686147
0.03733255 -0.84405667 -0.4686147
0.060940735 -0.84463853 -0.46685684
-0.081152797 -0.87401456 -0.44978833
-0.057426743 -0.87401456 -0.44978833
-0.033700228 -0.87400454 -0.4498179
-0.0099744052 -0.87400454 -0.4498179
0.013751419 -0.87400454 -0.4498179
0.037477244 -0.87400454 -0.4498179
0.061203301 -0.87400955 -0.44980311
0.084929578 -0.87401456 -0.44978833
-0.081124969 -0.84998935 -0.45069218
0.084911779 -0.85003334 -0.4505589
-0.0815138 -0.83035296 -0.43806422
-0.057313964 -0.82498354 -0.45467174
-0.033597536 -0.82439631 -0.45648789
-0.0099230595 -0.82439631 -0.45648789
0.013751419 -0.82439631 -0.45648789
0.037425898 -0.82439631 -0.45648789
0.061128795 -0.82499319 -0.45464206
0.085203096 -0.83039171 -0.43794465
-0.0575983 -0.80518103 -0.44235957
-0.033785731 -0.80457979 -0.44426465
-0.010017155 -0.80457979 -0.44426465
0.013751419 -0.80457979 -0.44426465
0.037519991 -0.80457979 -0.44426465
0.061318584 -0.80519515 -0.44231486
-0.081905834 -0.81055516 -0.42533255
0.085497141 -0.81059307 -0.42521191
-0.057885267 -0.78522396 -0.42993355
0.061509907 -0.78523785 -0.42988837
-0.033975191 -0.78460032 -0.43195903
-0.010111885 -0.78460032 -0.43195903
0.013751419 -0.78460032 -0.43195903
0.037614726 -0.78460032 -0.43195903
-0.034166396 -0.76446563 -0.41953957
-0.010207489 -0.76446563 -0.41953957
0.013751419 -0.76446563 -0.41953957
0.037710328 -0.76446563 -0.41953957
-0.082300648 -0.79058892 -0.41251075
0.085793614 -0.79063094 -0.41237414
-0.082699202 -0.77046168 -0.39956737
0.086092211 -0.77049845 -0.39944494
-0.058174558 -0.76510584 -0.41740692
0.061702535 -0.7651149 -0.41737664
-0.058465838 -0.74482018 -0.40479422
-0.034359142 -0.74416894 -0.40702021
-0.010303861 -0.74416894 -0.40702021
0.013751419 -0.74416894 -0.40702021
0.037806697 -0.74416894 -0.40702021
0.061896957 -0.74483347 -0.40474832
-0.083101071 -0.75016683 -0.38651609
0.086393632 -0.75020301 -0.38639259
-0.058759838 -0.72437376 -0.39206338
-0.034553215 -0.72370386 -0.39441526
-0.010400897 -0.72370386 -0.39441526
0.013751419 -0.72370386 -0.39441526
0.037903734 -0.72370386 -0.39441526
0.062092967 -0.72438681 -0.39201748
-0.034749091 -0.70307738 -0.38169265
-0.010498835 -0.70307738 -0.38169265
0.013751419 -0.70307738 -0.38169265
0.038001671 -0.70307738 -0.38169265
-0.083505832 -0.72969782 -0.37337124
0.086697593 -0.7297377 -0.37323129
-0.059056245 -0.70376015 -0.37922871
0.062290341 -0.70376873 -0.37919772
-0.059354722 -0.68297321 -0.36630416
-0.034946561 -0.68228292 -0.36886632
-0.010597572 -0.68228292 -0.36886632
0.013751419 -0.68228292 -0.36886632
0.03810041 -0.68228292 -0.36886632
0.062489569 -0.68298584 -0.36625731
-0.083884023 -0.92846698 -0.36108899
-0.059475169 -0.92846698 -0.36108899
-0.035065092 -0.92843992 -0.36116743
-0.010656837 -0.92843992 -0.36116743
0.013751419 -0.92843992 -0.36116743
0.038159676 -0.92843992 -0.36116743
0.062568419 -0.92845052 -0.36113608
0.086978368 -0.92847234 -0.36107326
-0.083914474 -0.70906121 -0.36010027
0.08700373 -0.70909595 -0.35997474
-0.084326558 -0.68825048 -0.34671724
0.087312818 -0.68828464 -0.34659064
-0.059656031 -0.66201925 -0.35325754
-0.035145409 -0.66131425 -0.35595083
-0.010696994 -0.66131425 -0.35595083
0.013751419 -0.66131425 -0.35595083
0.038199835 -0.66131425 -0.35595083
0.062690444 -0.66203159 -0.35321021
-0.035346128 -0.64017779 -0.34291375
-0.010797353 -0.64017779 -0.34291375
0.013751419 -0.64017779 -0.34291375
0.038300194 -0.64017779 -0.34291375
-0.084741645 -0.66725922 -0.33323693
0.087624535 -0.66729689 -0.33309329
-0.059959821 -0.64089173 -0.34010279
0.062892981 -0.64090407 -0.34005487
-0.060265772 -0.61958492 -0.32685471
-0.035548501 -0.61886698 -0.32976913
-0.010898542 -0.61886698 -0.32976913
0.013751419 -0.61886698 -0.32976913
0.03840138 -0.61886698 -0.32976913
0.063096955 -0.61959678 -0.32680655
-0.085160755 -0.64609355 -0.31962597
0.087938525 -0.64612639 -0.31949711
-0.085590944 -0.62480706 -0.305655
0.088263817 -0.62486708 -0.30541158
-0.060574643 -0.59810418 -0.31348014
-0.035752304 -0.59737587 -0.3165319
-0.011000443 -0.59737587 -0.3165319
0.013751419 -0.59737587 -0.3165319
0.038503282 -0.59737587 -0.3165319
0.063302875 -0.59811586 -0.31343162
-0.086031459 -0.60338557 -0.29134905
0.08859425 -0.6034441 -0.29110324
-0.060886107 -0.57644343 -0.2999934
-0.035958052 -0.57571024 -0.3031683
-0.011103315 -0.57571024 -0.3031683
0.013751419 -0.57571024 -0.3031683
0.038606152 -0.57571024 -0.3031683
0.063510522 -0.57645476 -0.29994452
-0.061199807 -0.55459678 -0.28640985
-0.036165513 -0.55386364 -0.28969336
-0.011207046 -0.55386364 -0.28969336
0.013751419 -0.55386364 -0.28969336
0.038709886 -0.55386364 -0.28969336
0.06371966 -0.55460769 -0.28636038
-0.086475894 -0.58177298 -0.27691567
0.088927247 -0.58182651 -0.27668428
-0.061516546 -0.53256923 -0.27269459
-0.036374457 -0.53183049 -0.27612185
-0.011311518 -0.53183049 -0.27612185
0.013751419 -0.53183049 -0.27612185
0.038814358 -0.53183049 -0.27612185
0.063930824 -0.5325799 -0.272645
-0.086924307 -0.55996716 -0.26235294
0.089263603 -0.56001937 -0.26211941
-0.087376751 -0.53796536 -0.24765944
0.089602984 -0.5380162 -0.24742389
-0.061835967 -0.51035464 -0.25886333
-0.036585413 -0.50961554 -0.26241958
-0.011416998 -0.50961554 -0.26241958
0.013751419 -0.50961554 -0.26241958
0.038919836 -0.50961554 -0.26241958
0.064143784 -0.51036501 -0.25881314
-0.036798157 -0.48721266 -0.24860179
-0.01152337 -0.48721266 -0.24860179
0.013751419 -0.48721266 -0.24860179
0.039026208 -0.48721266 -0.24860179
-0.087833278 -0.51576495 -0.23283339
0.089945428 -0.51581424 -0.23259568
-0.062158115 -0.48795092 -0.24491382
0.064358294 -0.48795754 -0.24488032
-0.062482618 -0.46535182 -0.23086226
-0.037012443 -0.46461648 -0.23468339
-0.011630513 -0.46461648 -0.23468339
0.013751419 -0.46461648 -0.23468339
0.039133351 -0.46461648 -0.23468339
0.064574897 -0.46536171 -0.23081112
-0.08829394 -0.49336308 -0.21787274
0.090290979 -0.49341106 -0.21763277
-0.062810317 -0.44256204 -0.21667278
-0.037228823 -0.44183105 -0.22062933
-0.011738701 -0.44183105 -0.22062933
0.013751419 -0.44183105 -0.22062933
0.039241537 -0.44183105 -0.22062933
0.064793371 -0.44257146 -0.2166214
-0.088758804 -0.47075719 -0.20277596
0.090639673 -0.47080374 -0.20253372
-0.063140839 -0.41957557 -0.20236063
-0.03744705 -0.41885066 -0.20645499
-0.011847815 -0.41885066 -0.20645499
0.013751419 -0.41885066 -0.20645499
0.039350651 -0.41885066 -0.20645499
0.065013722 -0.41958475 -0.20230865
-0.03766688 -0.39566964 -0.19217634
-0.011957731 -0.39566964 -0.19217634
0.013751419 -0.39566964 -0.19217634
0.03946057 -0.39566964 -0.19217634
-0.089227386 -0.44794095 -0.18755817
0.090991572 -0.4479894 -0.18729639
-0.089700818 -0.42491853 -0.17218316
0.091346696 -0.42496532 -0.17191899
-0.063473821 -0.39638668 -0.18794215
0.065235719 -0.39639544 -0.1878897
-0.06381011 -0.37299889 -0.17338037
-0.037888885 -0.37229145 -0.17775691
-0.012068732 -0.37229145 -0.17775691
0.013751419 -0.37229145 -0.17775691
0.039571568 -0.37229145 -0.17775691
0.065459915 -0.37300742 -0.17332757
-0.090178072 -0.40168047 -0.1566838
0.091705106 -0.40172863 -0.15639949
-0.064149335 -0.34940666 -0.15869117
-0.038112812 -0.3487106 -0.16321242
-0.012180697 -0.3487106 -0.16321242
0.013751419 -0.3487106 -0.16321242
0.039683536 -0.3487106 -0.16321242
0.065686077 -0.34941477 -0.15863812
-0.090660855 -0.37823278 -0.14100492
0.092086315 -0.37841254 -0.13989246
-0.064491138 -0.32560456 -0.14389086
-0.038338415 -0.32492179 -0.14855897
-0.012293497 -0.32492179 -0.14855897
0.013751419 -0.32492179 -0.14855897
0.039796337 -0.32492179 -0.14855897
0.065913945 -0.32561219 -0.14383733
-0.038566269 -0.3009274 -0.13375974
-0.012407424 -0.3009274 -0.13375974
0.013751419 -0.3009274 -0.13375974
0.039910264 -0.3009274 -0.13375974
-0.091238551 -0.35501802 -0.12224388
0.092525743 -0.35523033 -0.12086475
-0.064836361 -0.30159491 -0.12894225
0.066144109 -0.30160248 -0.12888801
-0.065184645 -0.27737272 -0.11386096
-0.038796119 -0.27672231 -0.11883032
-0.012522349 -0.27672231 -0.11883032
0.013751419 -0.27672231 -0.11883032
0.04002519 -0.27672231 -0.11883032
0.066376306 -0.27737969 -0.11380625
-0.091823801 -0.33155054 -0.10323715
0.092964187 -0.3317492 -0.10187924
-0.06553562 -0.25293243 -0.098663926
-0.039027721 -0.25230128 -0.10378742
-0.01263815 -0.25230128 -0.10378742
0.013751419 -0.25230128 -0.10378742
0.040140986 -0.25230128 -0.10378742
0.066610292 -0.25293922 -0.098608732
-0.09242361 -0.30785596 -0.083757639
-0.065890141 -0.228276 -0.083312511
-0.039261654 -0.22766621 -0.088592887
-0.012755118 -0.22766621 -0.088592887
0.013751419 -0.22766621 -0.088592887
0.040257957 -0.22766621 -0.088592887
0.066846646 -0.22828247 -0.083256721
-0.066247851 -0.20339821 -0.067823172
-0.039497674 -0.20281191 -0.07326293
-0.012873126 -0.20281191 -0.07326293
0.013751419 -0.20281191 -0.07326293
0.040375963 -0.20281191 -0.07326293
0.067084841 -0.20340221 -0.06778574
-0.039735511 -0.17773335 -0.057814717
-0.012992047 -0.17773335 -0.057814717
0.013751419 -0.17773335 -0.057814717
0.040494885 -0.17773335 -0.057814717
-0.066608354 -0.17829396 -0.052212954
0.067325473 -0.1782995 -0.052156329
-0.039975777 -0.15243141 -0.042209148
-0.01311218 -0.15243141 -0.042209148
0.013751419 -0.15243141 -0.042209148
0.040615018 -0.15243141 -0.042209148
-0.066972554 -0.15296419 -0.03644228
0.06756828 -0.15296943 -0.036385059
-0.067340083 -0.12740378 -0.020528197
-0.040218212 -0.12690119 -0.026462555
-0.013233397 -0.12690119 -0.026462555
0.013751419 -0.12690119 -0.026462555
0.040736236 -0.12690119 -0.026462555
0.067813009 -0.12740691 -0.020489693
-0.067710519 -0.10160805 -0.0044878721
-0.040462844 -0.10113947 -0.010573268
-0.013355713 -0.10113947 -0.010573268
0.013751419 -0.10113947 -0.010573268
0.040858552 -0.10113947 -0.010573268
0.068060271 -0.10161249 -0.0044295788
-0.068084806 -0.075576961 0.011719465
-0.040709406 -0.075141951 0.005441308
-0.013478993 -0.075141951 0.005441308
0.013751419 -0.075141951 0.005441308
0.040981829 -0.075141951 0.005441308
0.068309806 -0.075581059 0.011778235
-0.068462551 -0.049305528 0.028076291
-0.040958524 -0.048908085 0.021621823
-0.013603553 -0.048908085 0.021621823
0.013751419 -0.048908085 0.021621823
0.041106392 -0.048908085 0.021621823
0.068561338 -0.049307972 0.02811563
-0.041209929 -0.022432923 0.037950873
-0.013729254 -0.022432923 0.037950873
0.013751419 -0.022432923 0.037950873
0.041232094 -0.022432923 0.037950873
-0.068843342 -0.022789329 0.044564843
0.068815514 -0.022792578 0.044624686
-0.041463345 0.0042874515 0.054411054
-0.013855964 0.0042874515 0.054411054
0.013751419 0.0042874515 0.054411054
0.041358802 0.0042874515 0.054411054
-0.069228135 0.0039726049 0.061226845
0.069072045 0.0039698184 0.061287284
-0.069616534 0.030985177 0.078045011
-0.041719422 0.031254664 0.07104373
-0.013984 0.031254664 0.07104373
0.013751419 0.031254664 0.07104373
0.041486837 0.031254664 0.07104373
0.069330677 0.030983642 0.078085542
-0.070008583 0.058251806 0.095021248
-0.041977882 0.058473125 0.087831259
-0.014113232 0.058473125 0.087831259
0.013751419 0.058473125 0.087831259
0.041616071 0.058473125 0.087831259
0.069592997 0.058248617 0.095123887
-0.070407689 0.085772641 0.11230302
-0.042238444 0.085946888 0.10475564
-0.014243513 0.085946888 0.10475564
0.013751419 0.085946888 0.10475564
0.041746352 0.085946888 0.10475564
0.06985876 0.085770763 0.11238599
-0.15445967 0.64652991 0.10998368
-0.12642449 0.64652991 0.10998368
-0.098389305 0.64652991 0.10998368
-0.070354126 0.64652991 0.10998368
-0.04231894 0.64652991 0.10998368
-0.014283761 0.64652991 0.10998368
0.013751419 0.64652991 0.10998368
0.0417866 0.64652991 0.10998368
0.069821782 0.64652991 0.10998368
0.097856961 0.64652991 0.10998368
0.12589215 0.64652991 0.10998368
0.15392733 0.64652991 0.10998368
-0.070810132 0.11355744 0.12972927
-0.042501785 0.11367857 0.12185967
-0.014375182 0.11367857 0.12185967
0.013751419 0.11367857 0.12185967
0.041878022 0.11367857 0.12185967
0.070127398 0.11355573 0.12983394
-0.042569526 0.62049931 0.12626004
-0.014409054 0.62049931 0.12626004
0.013751419 0.62049931 0.12626004
0.041911893 0.62049931 0.12626004
-0.155334 0.67718798 0.12891352
-0.1271531 0.67718798 0.12891352
-0.098972194 0.67718798 0.12891352
-0.070791289 0.67718798 0.12891352
-0.042610385 0.67718798 0.12891352
-0.014429484 0.67718798 0.12891352
0.013751419 0.67718798 0.12891352
0.041932322 0.67718798 0.12891352
0.070113227 0.67718798 0.12891352
0.098294124 0.67718798 0.12891352
0.12647504 0.67718798 0.12891352
0.15465593 0.67718798 0.12891352
-0.071216926 0.14160892 0.14734423
-0.042767607 0.14167216 0.13912535
-0.014508093 0.14167216 0.13912535
0.013751419 0.14167216 0.13912535
0.042010933 0.14167216 0.13912535
0.070398286 0.14160836 0.14742863
-0.042966098 0.59531319 0.15201795
-0.01460734 0.59531319 0.15201795
0.013751419 0.59531319 0.15201795
0.042110179 0.59531319 0.15201795
-0.15621454 0.62317419 0.14797795
-0.12747253 0.62184846 0.13721287
-0.099227741 0.62184846 0.13721287
-0.070982948 0.62184846 0.13721287
0.070240997 0.62184846 0.13721287
0.098485783 0.62184846 0.13721287
0.12673058 0.62184846 0.13721287
0.15539949 0.6232056 0.14823163
-0.15621552 0.7081604 0.14799893
-0.1278877 0.7081604 0.14799893
-0.099559873 0.7081604 0.14799893
-0.071232051 0.7081604 0.14799893
-0.042904228 0.7081604 0.14799893
-0.014576403 0.7081604 0.14799893
0.013751419 0.7081604 0.14799893
0.04207924 0.7081604 0.14799893
0.070407063 0.7081604 0.14799893
0.098734885 0.7081604 0.14799893
0.12706271 0.7081604 0.14799893
0.15539053 0.7081604 0.14799893
-0.07162717 0.16993175 0.16510808
0.070672117 0.16993165 0.16521466
-0.043035626 0.16993181 0.15653384
-0.014642101 0.16993181 0.15653384
0.013751419 0.16993181 0.15653384
0.042144939 0.16993181 0.15653384
-0.15710726 0.73946083 0.16730607
-0.12863082 0.73946083 0.16730607
-0.10015437 0.73946083 0.16730607
-0.071677923 0.73946083 0.16730607
-0.043201476 0.73946083 0.16730607
-0.014725028 0.73946083 0.16730607
0.013751419 0.73946083 0.16730607
0.042227864 0.73946083 0.16730607
0.070704311 0.73946083 0.16730607
0.099180758 0.73946083 0.16730607
0.1276572 0.73946083 0.16730607
0.15613365 0.73946083 0.16730607
-0.072041385 0.19852936 0.18304431
-0.04330653 0.19846083 0.17412961
-0.014777556 0.19846083 0.17412961
0.013751419 0.19846083 0.17412961
0.042280395 0.19846083 0.17412961
0.07094828 0.19853027 0.18315208
-0.043580033 0.22726318 0.19189405
-0.014914306 0.22726318 0.19189405
0.013751419 0.22726318 0.19189405
0.042417146 0.22726318 0.19189405
-0.043385498 0.56989014 0.17925823
-0.014817039 0.56989014 0.17925823
0.013751419 0.56989014 0.17925823
0.042319879 0.56989014 0.17925823
-0.158181 0.59976292 0.19055283
-0.12896195 0.59807175 0.17590916
-0.10041928 0.59807175 0.17590916
-0.071876608 0.59807175 0.17590916
0.070836768 0.59807175 0.17590916
0.099379443 0.59807175 0.17590916
0.12792212 0.59807175 0.17590916
0.15703924 0.59979522 0.19083416
-0.15800741 0.77108771 0.186795
-0.12938094 0.77108771 0.186795
-0.10075447 0.77108771 0.186795
-0.072127998 0.77108771 0.186795
-0.043501526 0.77108771 0.186795
-0.014875052 0.77108771 0.186795
0.013751419 0.77108771 0.186795
0.042377889 0.77108771 0.186795
0.071004361 0.77108771 0.186795
0.099630833 0.77108771 0.186795
0.1282573 0.77108771 0.186795
0.15688378 0.77108771 0.186795
-0.072460152 0.22740611 0.20117712
0.071227133 0.22740743 0.20126402
-0.043855831 0.25634271 0.20980775
-0.015052207 0.25634271 0.20980775
0.013751419 0.25634271 0.20980775
0.042555045 0.25634271 0.20980775
-0.043829612 0.54420841 0.20810461
-0.015039096 0.54420841 0.20810461
0.013751419 0.54420841 0.20810461
0.042541936 0.54420841 0.20810461
-0.15891711 0.80304956 0.20649016
-0.13013902 0.80304956 0.20649016
-0.10136093 0.80304956 0.20649016
-0.072582848 0.80304956 0.20649016
-0.043804757 0.80304956 0.20649016
-0.015026668 0.80304956 0.20649016
0.013751419 0.80304956 0.20649016
0.042529508 0.80304956 0.20649016
0.071307592 0.80304956 0.20649016
0.10008568 0.80304956 0.20649016
0.12886377 0.80304956 0.20649016
0.15764186 0.80304956 0.20649016
-0.072882503 0.25656557 0.21946597
0.071509056 0.25656813 0.21957564
-0.044134639 0.28570384 0.2279166
-0.015191609 0.28570384 0.2279166
0.013751419 0.28570384 0.2279166
0.042694449 0.28570384 0.2279166
-0.13048396 0.57379091 0.21545196
-0.10163689 0.57379091 0.21545196
-0.072789803 0.57379091 0.21545196
0.071445569 0.57379091 0.21545196
0.10029264 0.57379091 0.21545196
0.12913905 0.57378858 0.21543026
-0.15983751 0.83535594 0.2264173
-0.13090602 0.83535594 0.2264173
-0.10197452 0.83535594 0.2264173
-0.073043048 0.83535594 0.2264173
-0.04411155 0.83535594 0.2264173
-0.015180066 0.83535594 0.2264173
0.013751419 0.83535594 0.2264173
0.042682905 0.83535594 0.2264173
0.071614392 0.83535594 0.2264173
0.10054588 0.83535594 0.2264173
0.12947737 0.83535594 0.2264173
0.15840885 0.83535594 0.2264173
-0.073309541 0.2860131 0.23795688
0.071793422 0.28601581 0.23804569
-0.044416152 0.31535065 0.24620175
-0.015332367 0.31535065 0.24620175
0.013751419 0.31535065 0.24620175
0.042835206 0.31535065 0.24620175
-0.044304244 0.51826572 0.23893309
-0.015276412 0.51826572 0.23893309
0.013751419 0.51826572 0.23893309
0.042779252 0.51826572 0.23893309
-0.16019452 0.57580554 0.23414671
0.15871914 0.57584119 0.23447895
-0.13168123 0.86800849 0.24655807
-0.1025947 0.86800849 0.24655807
-0.073508173 0.86800849 0.24655807
-0.044421643 0.86800849 0.24655807
-0.015335111 0.86800849 0.24655807
0.013751419 0.86800849 0.24655807
0.042837948 0.86800849 0.24655807
0.071924478 0.86800849 0.24655807
0.10101101 0.86800849 0.24655807
0.13009754 0.86800849 0.24655807
-0.073740289 0.31575131 0.25660872
0.07208094 0.31575567 0.2567209
-0.044700079 0.34528619 0.26464283
-0.015474329 0.34528619 0.26464283
0.013751419 0.34528619 0.26464283
0.042977169 0.34528619 0.26464283
-0.13203792 0.54898411 0.2558254
-0.10288006 0.54898411 0.2558254
-0.073722184 0.54898411 0.2558254
0.072067156 0.54898411 0.2558254
0.10122502 0.54898411 0.2558254
0.1303829 0.54898411 0.2558254
-0.074175835 0.34578621 0.27546883
0.072370984 0.34579057 0.27555919
-0.044987135 0.3755168 0.28328788
-0.015617859 0.3755168 0.28328788
0.013751419 0.3755168 0.28328788
0.043120697 0.3755168 0.28328788
-0.044807956 0.49200845 0.2716502
-0.015528269 0.49200845 0.2716502
0.013751419 0.49200845 0.2716502
0.043031108 0.49200845 0.2716502
-0.16244955 0.55170047 0.28297019
0.16060567 0.55175269 0.28349245
-0.074615218 0.37612057 0.29449463
0.072664268 0.3761268 0.29460895
-0.045277022 0.40604559 0.30211699
-0.015762802 0.40604559 0.30211699
0.013751419 0.40604559 0.30211699
0.043265641 0.40604559 0.30211699
-0.045349501 0.46543634 0.30682468
-0.015799042 0.46543634 0.30682468
0.013751419 0.46543634 0.30682468
0.04330188 0.46543634 0.30682468
-0.13362661 0.52363914 0.29710066
-0.10415101 0.52363914 0.29710066
-0.074675404 0.52363914 0.29710066
0.072702631 0.52363914 0.29710066
0.10217824 0.52363914 0.29710066
0.13165385 0.52363914 0.29710066
-0.075059019 0.40675947 0.31371152
0.072960153 0.40676665 0.31382704
-0.045569435 0.4368757 0.32110977
-0.015909007 0.4368757 0.32110977
0.013751419 0.4368757 0.32110977
0.043411843 0.4368757 0.32110977
-0.075507827 0.43770951 0.33314598
0.073259376 0.43771762 0.33326232
-0.10548165 0.46801448 0.34031487
-0.075673386 0.46801448 0.34031487
0.073367953 0.46801448 0.34031487
0.10317622 0.46801448 0.34031487
-0.13525032 0.4977355 0.33928549
-0.10544925 0.49773371 0.33926225
-0.075649083 0.49773371 0.33926225
0.073351756 0.49773371 0.33926225
0.10315138 0.49773145 0.33923876
0.13295209 0.49773371 0.33926225
-0.10567286 0.43863642 0.34652424
0.10331962 0.43863642 0.34652424
-0.13690926 0.47125316 0.38238645
0.13427997 0.47125316 0.38238645
-0.10703384 0.41150227 0.39072347
0.10433981 0.41150087 0.39069939
-0.10842621 0.38374251 0.4359417
0.10538407 0.38374135 0.43591714
-0.13860652 0.44417608 0.42648244
0.13563776 0.44417608 0.42648244
-0.14034244 0.41648188 0.47158313
0.13702652 0.41648188 0.47158313
-0.10985027 0.35533425 0.48218942
0.10645268 0.35533425 0.48218942
-0.14212529 0.38815922 0.51790261
0.13845357 0.38816059 0.51792812
-0.14395691 0.35918182 0.56548977
0.13991807 0.35918182 0.56548977
-0.14583211 0.32951525 0.61420846
-0.1138832 0.32947505 0.61316276
0.10947738 0.32947505 0.61316276
0.14141823 0.32951525 0.61420846
-0.14775136 0.29913396 0.66407228
-0.11540768 0.2990908 0.66267204
0.11062074 0.2990908 0.66267204
0.14295618 0.29913658 0.66415477
-0.14975418 0.26803517 0.71610713
-0.11696815 0.26797143 0.71334982
0.1117911 0.26797143 0.71334982
0.14455937 0.26803768 0.71622014
-0.11856681 0.23609087 0.76526713
0.11299008 0.23609087 0.76526713
-0.15180843 0.23615566 0.76947784
0.14620195 0.23615713 0.76956439
0 0 0 1 0 0 0 1 0 0 0 1 0 0 0 0 0 589 1 0 0
