ply
format ascii 1.0
comment PCL generated
element vertex 270
property float x
property float y
property float z
element camera 1
property float view_px
property float view_py
property float view_pz
property float x_axisx
property float x_axisy
property float x_axisz
property float y_axisx
property float y_axisy
property float y_axisz
property float z_axisx
property float z_axisy
property float z_axisz
property float focal
property float scalex
property float scaley
property float centerx
property float centery
property int viewportx
property int viewporty
property float k1
property float k2
end_header
0.33458698 -0.050938629 -0.57939398
0.33289862 -0.031391025 -0.58892989
0.31427011 -0.01199008 -0.58436966
0.33289862 -0.01199008 -0.58892995
0.31428131 0.0074463431 -0.5843035
0.33289668 0.0074105579 -0.58894092
0.33289668 0.0268114 -0.58894098
0.33471841 0.046449818 -0.57865155
0.3548013 -0.051000223 -0.57538837
0.37695143 -0.051211864 -0.56164414
0.31575724 -0.031493742 -0.57558835
0.3548013 -0.031495176 -0.57538825
0.37695143 -0.031600997 -0.56164432
0.37695143 -0.011990132 -0.56164426
0.3548013 -0.01199008 -0.57538849
0.3548013 0.0075149648 -0.57538831
0.37695143 0.0076208115 -0.56164432
0.31579491 0.027020322 -0.57536608
0.3548013 0.027020013 -0.57538825
0.37695143 0.027231654 -0.5616442
0.3548013 0.046525083 -0.57538843
0.37695143 0.046842419 -0.56164414
0.31944326 -0.051332258 -0.55382341
0.3993386 -0.051425457 -0.54777282
0.30030829 -0.031686783 -0.55050701
0.3993386 -0.031707816 -0.54777282
0.3993386 -0.011990157 -0.54777282
0.29884779 -0.01199008 -0.55954158
0.29885873 0.0076374356 -0.55947405
0.3993386 0.0077275317 -0.54777288
0.3003431 0.027406352 -0.55029172
0.3993386 0.027445165 -0.54777288
0.31956968 0.047040284 -0.55307716
0.3993386 0.047162823 -0.54777282
0.3039903 -0.051733986 -0.52773064
0.42196858 -0.051641196 -0.5337612
0.42196858 -0.031815663 -0.53376108
0.28311744 -0.011990106 -0.53423196
0.42196858 -0.01199008 -0.53376126
0.28312978 0.0078323483 -0.53415149
0.42196858 0.0078354273 -0.5337612
0.42196858 0.027660882 -0.5337612
0.30411157 0.047643058 -0.52698052
0.42196858 0.047486469 -0.53376126
0.44484746 -0.051859252 -0.51959544
0.28454864 -0.031883594 -0.5249359
0.44484746 -0.031924769 -0.51959532
0.44484746 -0.011990183 -0.51959532
0.44484746 0.0079445057 -0.51959544
0.28458247 0.027800182 -0.52471626
0.44484746 0.027878987 -0.51959532
0.44484746 0.047813602 -0.51959532
0.28821668 -0.052143872 -0.50111121
0.46798462 -0.052080102 -0.50524938
0.26847079 -0.032084435 -0.49884838
0.46798462 -0.032035206 -0.50524938
0.26707333 -0.011990157 -0.50840288
0.46798462 -0.011990106 -0.50524938
0.26708531 0.0080312137 -0.50832093
0.46798462 0.0080548655 -0.50524926
0.26850358 0.02820191 -0.49862438
0.46798462 0.028099837 -0.50524938
0.2883364 0.048258379 -0.50033361
0.46798462 0.048144832 -0.50524926
0.25070408 -0.011990183 -0.4820506
0.25071403 0.0082339253 -0.48197877
0.27211615 -0.052562356 -0.47392505
0.25206667 -0.03228943 -0.47221684
0.25209671 0.028611774 -0.47200012
0.27223045 0.048886262 -0.47314334
0.25567469 -0.052989639 -0.44617838
0.23532283 -0.032498531 -0.44504839
0.23399973 -0.011990132 -0.45515865
0.2340093 0.0084410254 -0.4550854
0.23535177 0.029030127 -0.44482726
0.25578529 0.049527466 -0.44538015
0.21694833 -0.01199008 -0.42772305
0.21695906 0.0086523816 -0.42763585
0.23888496 -0.053426079 -0.41782862
0.21823031 -0.032712094 -0.41731441
0.21825814 0.029457128 -0.41708869
0.23899001 0.050182268 -0.41702598
0.19954216 -0.011990157 -0.39970148
0.19955245 0.0088680759 -0.39961249
0.22173393 -0.053871877 -0.38886899
0.20077822 -0.032930069 -0.38899708
0.20080486 0.029893206 -0.38876641
0.22183335 0.050851181 -0.38806164
0.20420823 -0.054327354 -0.35929215
0.18295503 -0.03315274 -0.36007738
0.18176836 -0.011990208 -0.37108803
0.18177816 0.0090883356 -0.37099731
0.18298042 0.030338651 -0.35984194
0.20430347 0.05153463 -0.35846734
0.16361517 -0.011990208 -0.34186399
0.16362315 0.0093131065 -0.34178436
0.18629873 -0.054792985 -0.32905185
0.16474879 -0.033380028 -0.33053625
0.16477287 0.030793587 -0.3302958
0.18638957 0.052233428 -0.32820857
0.14506906 -0.011990106 -0.31202269
0.14507779 0.0095430631 -0.31192791
0.16798955 -0.055268601 -0.2981528
0.14614701 -0.033612445 -0.30035329
0.14616972 0.031258218 -0.30010748
0.1680758 0.052947409 -0.29729068
0.12713671 -0.033849791 -0.26950753
0.12611973 -0.011990106 -0.28151703
0.12612794 0.0097779483 -0.28142023
0.12715797 0.031733163 -0.26925623
0.14927009 -0.055755243 -0.26654494
0.14935023 0.053677551 -0.26567757
0.13012367 -0.056252658 -0.2342329
0.10770418 -0.034092627 -0.23797655
0.10675254 -0.011990106 -0.25033879
0.10676019 0.01001801 -0.25023973
0.10772395 0.032218732 -0.23771966
0.086953506 -0.011990106 -0.21846521
0.086960539 0.010263305 -0.218364
0.13019884 0.054424219 -0.23334539
0.11053813 -0.056761928 -0.20116282
0.087835297 -0.034340795 -0.20573771
0.087864622 0.032717638 -0.2053144
0.11060688 0.055188172 -0.2002697
0.066708013 -0.011990106 -0.18587291
0.066713467 0.010514041 -0.1857841
0.090496734 -0.057282843 -0.16732335
0.067524344 -0.034595788 -0.17261744
0.067556515 0.033229165 -0.17209482
0.090559021 0.055969678 -0.16642416
0.046000764 -0.011990157 -0.15253723
0.046005651 0.010770727 -0.15244651
0.069982469 -0.057815917 -0.13270223
0.046749577 -0.034857247 -0.13864088
0.046777576 0.033752076 -0.13812137
0.070039153 0.056769647 -0.1317817
0.024815798 -0.011990055 -0.11843264
0.024820104 0.011033265 -0.11833978
0.04898046 -0.058361873 -0.097240806
0.025488466 -0.035124965 -0.10386896
0.025513023 0.034287773 -0.10333741
0.0031364113 -0.011990157 -0.083531857
0.0031400695 0.011302009 -0.083436728
0.049058363 0.057600766 -0.095795393
0.0037230924 -0.035398941 -0.068289399
0.0037440509 0.034835674 -0.067745209
0.027524024 -0.058938354 -0.059798002
-0.019054942 -0.011990208 -0.047806978
-0.019051939 0.011577012 -0.047709703
0.027608082 0.058474109 -0.057977796
-0.018563315 -0.035679489 -0.03184104
-0.018546142 0.035397016 -0.031283617
0.0055400953 -0.059534386 -0.021082282
-0.04177697 -0.011990157 -0.011245012
-0.041774668 0.011858482 -0.011145353
0.005612582 0.059369765 -0.019199133
-0.041390456 -0.035966806 0.0054917336
-0.041377656 0.035971753 0.0060460567
-0.017009228 -0.060145803 0.018629193
-0.016950794 0.060287125 0.020527124
-0.065048054 -0.011990106 0.026217699
-0.065046474 0.012146873 0.026319742
-0.064778253 -0.036261253 0.043741584
-0.064769506 0.03656096 0.044309497
-0.040145665 -0.060773388 0.059392691
-0.088888839 -0.011990208 0.064597845
-0.088888034 0.012442349 0.064702272
-0.040101893 0.061228395 0.061288238
-0.088747621 -0.036563087 0.082942367
-0.088743277 0.037164427 0.083506823
-0.063893393 -0.061417229 0.10121477
-0.11332053 -0.011990106 0.1039288
-0.11332053 0.012745161 0.10403621
-0.063863978 0.062194653 0.1031251
-0.11332053 -0.036872417 0.12313032
-0.11332053 0.037783034 0.12369096
-0.088276401 -0.062078372 0.14415562
-0.13836522 -0.011990106 0.14422882
-0.13836592 0.013055205 0.14432061
-0.08826144 0.063187182 0.14609909
-0.13851134 -0.037181027 0.1632117
-0.13851564 0.038400047 0.16376817
-0.11332053 -0.062708773 0.18510163
-0.16401663 -0.011990208 0.18363726
-0.16401809 0.013358736 0.18373084
-0.11332053 0.064127274 0.18681204
-0.16434003 -0.037499949 0.20464218
-0.16434969 0.039038964 0.20526946
-0.13902596 -0.063401051 0.23006165
-0.19039005 -0.011990106 0.22803605
-0.19039229 0.013700437 0.22813249
-0.13904276 0.065176487 0.23224425
-0.19096284 -0.037870843 0.25283873
-0.19097911 0.039782293 0.25354302
-0.21764934 -0.011990157 0.279006
-0.21765426 0.014093189 0.27916491
-0.21864268 -0.038320698 0.31126547
-0.218667 0.040683188 0.31205535
-0.24604833 -0.011990208 0.3391974
-0.24605308 0.014556386 0.33932114
-0.24839063 -0.039004155 0.40005207
-0.27610081 -0.011990259 0.4151243
-0.27612168 0.015143383 0.41557598
-0.30647624 -0.011990157 0.47535145
-0.30649662 0.015606271 0.47572947
-0.33756953 -0.011990157 0.53217828
-0.33758935 0.016043456 0.53249967
-0.36935303 -0.011990106 0.58633876
-0.36937761 0.016460732 0.58669341
-0.57227695 -0.069359802 0.61709011
-0.57227695 -0.040674902 0.61708987
-0.57227695 -0.011990208 0.61708987
-0.57227993 0.016694896 0.61711395
-0.57227993 0.045379587 0.61711395
-0.57227993 0.074064791 0.61711395
-0.40178528 -0.011990106 0.63809526
-0.40181708 0.016859589 0.63850844
-0.43481952 -0.011990106 0.68755019
-0.434847 0.017239463 0.68787491
-0.55341458 -0.07066945 0.70215452
-0.55341458 -0.041329779 0.70215452
-0.55341744 -0.011990208 0.70217931
-0.55341744 0.017349567 0.70217955
-0.55341744 0.046689443 0.70217955
-0.55341458 0.076028809 0.70215428
-0.46839917 -0.011990003 0.73466694
-0.46843225 0.017602406 0.73502529
-0.52945077 -0.071437202 0.75203526
-0.52945077 -0.041713759 0.75203526
-0.52945077 -0.011990106 0.7520355
-0.52945077 0.017733444 0.75203526
-0.52945077 0.047457196 0.75203526
-0.52945077 0.077180542 0.7520355
-0.5026443 -0.071886137 0.78118551
-0.5026443 -0.041938275 0.78118551
-0.50255257 -0.011990414 0.78026879
-0.50257879 0.017952727 0.78053057
-0.5026443 0.047905825 0.78118527
-0.5026443 0.077853888 0.78118527
-0.47292644 -0.071924619 0.78367627
-0.44305259 -0.071941338 0.784778
-0.41406828 -0.072139591 0.79765594
-0.47292644 -0.041957363 0.78367627
-0.44305259 -0.041965879 0.78477824
-0.41393816 -0.042051867 0.79596579
-0.47292644 0.047944099 0.78367627
-0.44305259 0.047961235 0.784778
-0.41393816 0.048133209 0.79596603
-0.47292644 0.07791125 0.78367579
-0.44305259 0.077936694 0.78477824
-0.41405404 0.078229964 0.79747117
-0.38469279 -0.042142782 0.80774915
-0.38467991 0.048311859 0.80756319
-0.38701999 -0.072812326 0.84133995
-0.38689092 0.07919997 0.83947647
-0.35726961 -0.042483769 0.85206735
-0.35723448 0.048988394 0.85149682
-0.32840872 -0.042716905 0.88236701
-0.32837155 0.04945302 0.88167799
-0.29804176 -0.042777136 0.8901602
-0.29802769 0.049578927 0.8898555
-0.26716435 0.049547322 0.88780797
-0.29985884 -0.074169584 0.92950094
-0.26898679 -0.074256912 0.93515623
-0.29980931 0.081254177 0.92842805
-0.26893121 0.081376292 0.93371236
-0.2384246 0.081837639 0.95370209
-0.2384695 -0.074564651 0.95515954
-0.20764816 -0.074875362 0.97533381
-0.20761481 0.082304016 0.97389019
0 0 0 1 0 0 0 1 0 0 0 1 0 0 0 0 0 270 1 0 0
