ply
format ascii 1.0
comment PCL generated
element vertex 239
property float x
property float y
property float z
element camera 1
property float view_px
property float view_py
property float view_pz
property float x_axisx
property float x_axisy
property float x_axisz
property float y_axisx
property float y_axisy
property float y_axisz
property float z_axisx
property float z_axisy
property float z_axisz
property float focal
property float scalex
property float scaley
property float centerx
property float centery
property int viewportx
property int viewporty
property float k1
property float k2
end_header
0.060601555 -0.56800085 -0.11551774
0.060877841 -0.59625977 -0.097572327
0.036481995 -0.57172859 -0.098223329
0.036525209 -0.54850948 -0.092609644
0.060754538 -0.54581338 -0.10558116
0.060986947 -0.52450562 -0.090485811
0.061157294 -0.62484223 -0.07942152
0.085504554 -0.62300938 -0.087358356
0.036621664 -0.60016489 -0.080079675
0.085504554 -0.59854001 -0.087358356
0.012096173 -0.57549745 -0.080737829
0.085504137 -0.57406652 -0.087376714
0.012096173 -0.55122781 -0.079531193
0.085504137 -0.54959726 -0.087376475
0.036642231 -0.52712303 -0.077408075
0.085504137 -0.52512783 -0.087376475
0.061221302 -0.50298965 -0.075263739
0.085503712 -0.50065506 -0.087394834
0.036762942 -0.62892848 -0.061727405
0.012096173 -0.6041134 -0.062392831
-0.012560491 -0.57931209 -0.063040018
-0.012535051 -0.55396873 -0.0663445
0.012096173 -0.52976584 -0.064203739
0.03676052 -0.50553435 -0.06204164
0.012096173 -0.63306487 -0.043816805
0.1112664 -0.63270223 -0.045387149
-0.012703287 -0.60810995 -0.04448998
0.11126582 -0.60790539 -0.045405865
-0.037492391 -0.58316529 -0.045163035
0.11126582 -0.58311313 -0.045405746
-0.037370987 -0.55673218 -0.053048253
0.11126525 -0.55831689 -0.045424342
-0.012654024 -0.53243071 -0.050889492
0.11126525 -0.53352439 -0.0454247
0.012096173 -0.50810003 -0.048709512
0.11126467 -0.50872868 -0.045443058
-0.012847749 -0.63724309 -0.025724053
-0.03778119 -0.61214721 -0.026404858
-0.062704161 -0.587062 -0.027085185
-0.087666705 -0.56232488 -0.026140094
-0.062413767 -0.55951494 -0.0396595
-0.062777109 -0.53782737 -0.023926139
-0.037610918 -0.53511769 -0.03746438
-0.012774152 -0.51068377 -0.035284519
-0.063142695 -0.61623454 -0.0080960989
-0.088200539 -0.59100252 -0.0088034868
-0.11324898 -0.56578946 -0.0094720125
-0.08815524 -0.54055995 -0.010274172
-0.063143574 -0.5159235 -0.0080577135
-0.037853185 -0.51329255 -0.021728516
-0.012895596 -0.48872802 -0.019508362
0.012096173 -0.48815683 -0.022600174
0.037079174 -0.48851749 -0.020647526
0.062091991 -0.4888753 -0.018710971
0.087134667 -0.4892334 -0.016772389
0.11220785 -0.48959574 -0.014812231
0.13771692 -0.61752588 -0.0023118258
-0.11398711 -0.59499192 0.0097053051
0.13771617 -0.59239769 -0.0023308992
-0.13917165 -0.56963068 0.0090097189
0.13771617 -0.56727356 -0.0023310184
-0.11374728 -0.54331136 0.0034737587
0.13771617 -0.54214954 -0.0023311377
-0.088647991 -0.5185765 0.005728364
0.13771544 -0.51702207 -0.0023500919
-0.063514091 -0.49380752 0.0079857111
-0.038098123 -0.4912571 -0.0058193207
-0.013014101 -0.46646175 -0.0041143894
0.012096173 -0.46753606 0.0019532442
-0.013018527 -0.44144902 -0.0035393238
0.012096173 -0.44242796 0.0022419691
-0.013022807 -0.41642419 -0.0029832125
0.012096173 -0.41731545 0.0025305748
-0.013027239 -0.39139369 -0.0024077892
0.012096173 -0.39220145 0.0028384924
-0.01303167 -0.36635453 -0.0018321276
0.012096173 -0.36707982 0.0031273365
-0.013036103 -0.34130648 -0.0012561083
0.012096173 -0.34195387 0.0034160614
-0.013040538 -0.31624964 -0.000680089
0.012096173 -0.31682348 0.0037049055
-0.013044973 -0.29118383 -0.00010383129
0.012096173 -0.29168859 0.0039938688
-0.013049413 -0.26610926 0.00047266483
0.012096173 -0.26654917 0.0042828321
-0.013053852 -0.24102584 0.0010496378
0.012096173 -0.24140546 0.0045719147
-0.013058293 -0.2159335 0.0016262531
0.012096173 -0.21625724 0.0048609972
-0.013062735 -0.19083235 0.0022034645
0.012096173 -0.19110638 0.0051691532
-0.013067179 -0.1657224 0.0027807951
0.012096173 -0.16595897 0.0055742264
-0.013071627 -0.14060345 0.0033583641
0.012096173 -0.14080521 0.0059789419
-0.013075924 -0.1154744 0.0039167404
0.012096173 -0.11564528 0.0063840151
-0.013080372 -0.09033782 0.0044947863
0.012096173 -0.090479232 0.0067892075
-0.013084824 -0.065192528 0.0050729513
0.012096173 -0.065305777 0.0071752071
-0.013090019 -0.040042706 0.0057475567
0.012096173 -0.040127315 0.0075805187
-0.013095067 -0.014881782 0.0064034462
0.012096173 -0.014942728 0.0079859495
-0.013100264 0.010288797 0.0070786476
0.012096173 0.010248318 0.0083913803
-0.013105466 0.035469539 0.0077543259
0.012096173 0.035445921 0.0087777376
-0.013110519 0.060661174 0.0084109306
0.012096173 0.060649145 0.0091834068
-0.013115724 0.085862622 0.0090869665
0.012096173 0.08585868 0.0095893145
-0.01312093 0.11107443 0.0097632408
-0.088791884 -0.62036395 0.010401249
-0.13955724 -0.54609042 0.017358184
-0.11436919 -0.52125239 0.019631743
-0.089145616 -0.49637637 0.021889091
-0.038379733 -0.46939835 0.012471557
-0.038394641 -0.44432458 0.013440013
-0.038409859 -0.41923895 0.014428377
-0.038425978 -0.39414707 0.015475392
-0.038447488 -0.36909032 0.016872644
-0.038469318 -0.34401488 0.018290401
-0.038491163 -0.31891787 0.019709349
-0.038512733 -0.29379675 0.021110296
-0.038534615 -0.26865643 0.022531748
-0.03855652 -0.24349439 0.023954511
-0.038578443 -0.21831053 0.025378466
0.012096173 0.11107443 0.0099952221
-0.013125991 0.13629659 0.010420561
0.012096173 0.13629635 0.010381937
-0.013131202 0.1615293 0.01109755
0.012096173 0.16152447 0.010788083
-0.013136267 0.18677178 0.011755466
0.012096173 0.18675876 0.011194348
-0.013141482 0.21202505 0.012432933
0.012096173 0.21199951 0.011600494
-0.013146699 0.23728883 0.013110757
0.012096173 0.23724562 0.011987567
-0.01315177 0.26256207 0.013769507
0.012096173 0.26249862 0.012394309
-0.013156991 0.2878466 0.01444757
0.012096173 0.28775778 0.012800813
-0.013162215 0.31314152 0.015126467
0.012096173 0.31302333 0.013207674
-0.013167291 0.33844563 0.015785813
0.012096173 0.33829382 0.013594985
-0.013172521 0.36376148 0.016465068
0.012096173 0.36357191 0.014002085
-0.01317775 0.38908774 0.017144442
0.012096173 0.38885602 0.014408946
-0.013182833 0.41442254 0.017804742
0.012096173 0.41414461 0.014796734
-0.013188069 0.4397696 0.018484712
0.012096173 0.43944138 0.015203953
-0.013193305 0.46512705 0.019165039
0.012096173 0.46474409 0.015611172
-0.013198395 0.49049285 0.019826293
0.012096173 0.49005777 0.016057491
-0.013203637 0.51587141 0.020507216
0.012096173 0.51538545 0.016561985
-0.013152963 0.54030991 0.013924599
0.012096173 0.53985125 0.010420561
0.037436187 0.54185462 0.025729775
-0.013158184 0.56565279 0.01460278
0.012096173 0.56514311 0.010923505
0.037437238 0.56721365 0.025866389
0.012096173 0.59043998 0.011407137
-0.013163409 0.59100646 0.015281439
0.037438292 0.59257466 0.026002884
-0.013168636 0.61637062 0.015960455
0.012096173 0.61574411 0.011890888
0.037439343 0.61793786 0.026139617
-0.013173868 0.64174509 0.016639709
0.012096173 0.64105886 0.01239419
0.037440244 0.64329982 0.0262568
-0.013179095 0.66713035 0.017319202
0.012096173 0.66637832 0.012878299
-0.01318433 0.69252616 0.017999053
0.012096173 0.69170851 0.01338172
-0.013189414 0.71792865 0.018659711
0.012096173 0.7170431 0.013866305
-0.013194651 0.74334502 0.019340158
0.012096173 0.74238861 0.014370203
-0.013199891 0.76877218 0.020020604
0.012096173 0.76773834 0.014854908
-0.013205134 0.79420972 0.020701528
0.012096173 0.79309529 0.015339732
-0.013210378 0.81965798 0.021382809
0.012096173 0.81846392 0.015844107
-0.013215625 0.84511662 0.022064209
0.012096173 0.84383625 0.016329169
-0.013221172 0.8705948 0.022785187
0.012096173 0.86922038 0.016833782
-0.013227324 0.89610279 0.023584127
0.012096173 0.89460784 0.017319441
-0.013233478 0.92162335 0.024383426
0.012096173 0.92000741 0.017824292
-0.013239632 0.94715595 0.025183201
0.012096173 0.94541001 0.018309951
0.012096173 0.97082007 0.018795848
-0.013245794 0.97270143 0.025983572
0.012096173 0.99624288 0.019301176
-0.11473475 -0.62454492 0.029129267
-0.14006752 -0.59902281 0.028406024
-0.16539021 -0.57351583 0.027702093
-0.16558737 -0.54889286 0.031360626
-0.14030991 -0.52395076 0.033653736
-0.11499652 -0.49897042 0.035930514
-0.038600385 -0.19310495 0.026803613
-0.038622044 -0.16787574 0.028210402
-0.038666628 -0.14273956 0.031106114
-0.038733043 -0.117657 0.035419941
0.037556659 0.44206074 0.04137969
0.037544683 0.46735355 0.039823651
0.037543166 0.49277931 0.039626718
0.037541501 0.51819968 0.039410233
0.037441295 0.66866714 0.026393652
0.037442349 0.69403648 0.026530027
0.03744325 0.71940434 0.026647568
0.037444305 0.74477774 0.026783943
0.037445206 0.77014923 0.026901364
0.037446257 0.79552668 0.027037978
0.037447158 0.82090211 0.027155161
0.037448213 0.84628367 0.027292132
0.037450466 0.87170339 0.02758503
0.037452877 0.89713228 0.027897716
0.03745513 0.92256111 0.02819097
0.037457388 0.94799459 0.028484225
0.037459649 0.97343248 0.02877748
-0.013251957 0.99825901 0.026784062
0.037461907 0.99887514 0.029070973
-0.140975 -0.62876934 0.048053026
-0.14106917 -0.50158679 0.050092101
0.037592202 0.36603478 0.045996904
0.037580494 0.3914021 0.044476151
0.037568495 0.41674238 0.042917252
-0.092324406 -0.48934397 0.12512338
0 0 0 1 0 0 0 1 0 0 0 1 0 0 0 0 0 239 1 0 0
