ply
format ascii 1.0
comment PCL generated
element vertex 379
property float x
property float y
property float z
element camera 1
property float view_px
property float view_py
property float view_pz
property float x_axisx
property float x_axisy
property float x_axisz
property float y_axisx
property float y_axisy
property float y_axisz
property float z_axisx
property float z_axisy
property float z_axisz
property float focal
property float scalex
property float scaley
property float centerx
property float centery
property int viewportx
property int viewporty
property float k1
property float k2
end_header
-0.13645634 0.66205639 -0.24968147
-0.13645634 0.68727493 -0.24968147
-0.11126168 0.68739039 -0.24905729
-0.13645551 0.7124902 -0.24969935
-0.11118688 0.71223986 -0.25100052
-0.13645634 0.73771226 -0.24968147
-0.16254117 0.63955975 -0.23360801
-0.16254117 0.66490215 -0.23360801
-0.11196591 0.66540635 -0.23076034
-0.16254117 0.69024473 -0.23360801
-0.16254117 0.71558696 -0.23360801
-0.16254213 0.74093324 -0.23359001
-0.11189376 0.74112409 -0.23263538
-0.16254117 0.76627189 -0.23360801
-0.18888433 0.64231187 -0.21735787
-0.13783768 0.64190251 -0.21977496
-0.1888832 0.66777611 -0.21737611
-0.1888832 0.6932435 -0.21737611
-0.087190405 0.69430357 -0.21163785
-0.1888832 0.7187109 -0.21737599
-0.087238193 0.72011381 -0.21008611
-0.18888433 0.74418187 -0.21735787
-0.11334291 0.64610082 -0.19498527
-0.21548758 0.67068183 -0.20096493
-0.087601677 0.671157 -0.19828129
-0.2154863 0.69627208 -0.20098317
-0.21548758 0.72186911 -0.20096493
-0.21548758 0.74746299 -0.20096481
-0.089598 0.65652233 -0.13344872
-0.063664675 0.6840167 -0.12564909
-0.063615903 0.70980012 -0.12776089
-0.063882634 0.73818022 -0.11621153
-0.064264044 0.66223854 -0.099695563
-0.038156923 0.69167274 -0.082408071
-0.038156923 0.71817905 -0.082408071
-0.038235284 0.66602844 -0.077318311
-0.038280651 0.74623209 -0.074371934
-0.011899604 0.6706453 -0.050056577
-0.011884008 0.69704211 -0.052082539
-0.011885399 0.72381526 -0.051902294
-0.011913672 0.75126314 -0.048229337
-0.038884033 -0.99277014 -0.035180926
-0.011997765 -0.99211603 -0.037305236
0.014855798 -0.99355 -0.032648563
-0.038907107 -0.96635038 -0.033682346
-0.012009444 -0.96571809 -0.035788178
0.014855798 -0.96714145 -0.031046391
0.014855798 -0.9407149 -0.029422283
-0.038930513 -0.93991345 -0.032161951
-0.012021132 -0.9392969 -0.03426981
-0.038953938 -0.91345358 -0.030640483
-0.012032831 -0.91285276 -0.03275013
-0.038977072 -0.88696522 -0.029137969
-0.012044696 -0.88639146 -0.031208634
-0.012055164 -0.85985732 -0.029848695
-0.012065329 -0.83329189 -0.028528571
-0.011990765 0.53841794 -0.038214684
-0.01199092 0.56526744 -0.038194418
-0.01199092 0.59211409 -0.038194537
-0.01199092 0.61896068 -0.038194537
-0.065788567 0.64653689 -0.033682108
-0.03879163 0.64532441 -0.041182518
-0.01199092 0.64580762 -0.038194418
-0.038782936 0.77933002 -0.041747451
-0.066117898 -0.99762279 -0.019421577
0.041850962 -0.99778014 -0.018911004
-0.06617029 -0.9713127 -0.017152667
0.041866384 -0.97138637 -0.016907454
-0.066223234 -0.94497448 -0.01486063
0.041882142 -0.94497448 -0.01486063
-0.066277653 -0.91861945 -0.012503862
0.014855798 -0.91428095 -0.027735829
0.041897759 -0.91852599 -0.012832046
-0.0663331 -0.89224035 -0.010102868
0.014855798 -0.88781595 -0.026067972
0.041913867 -0.89206392 -0.010739326
-0.038997721 -0.86041015 -0.027796745
0.014855798 -0.8612873 -0.024541259
-0.039017759 -0.83382398 -0.026495218
0.014855798 -0.83472484 -0.023053646
-0.039037183 -0.8072077 -0.025233507
-0.012075499 -0.80670643 -0.027207136
0.014855798 -0.80813974 -0.02156496
-0.039056938 -0.7805773 -0.023950338
-0.012085523 -0.78009582 -0.025905132
0.014855798 -0.78153193 -0.020075083
-0.039075453 -0.75390798 -0.022747874
-0.012095241 -0.7534557 -0.024642944
0.014855798 -0.75489187 -0.018624902
-0.039092094 -0.72719193 -0.021667004
-0.012103865 -0.72676337 -0.023522377
0.014855798 -0.72819662 -0.017316461
-0.039108746 -0.70045942 -0.020585418
-0.012112495 -0.70005399 -0.022401333
0.014855798 -0.70147693 -0.01602757
-0.039125405 -0.67371041 -0.019503474
-0.012121134 -0.67332762 -0.021279454
0.014855798 -0.6747244 -0.014799118
-0.03914208 -0.64694482 -0.018420458
-0.012129774 -0.64658391 -0.02015686
0.014855798 -0.64797443 -0.013467431
-0.039156243 -0.62013006 -0.017500401
-0.012137005 -0.6197865 -0.019217253
0.014855798 -0.6211589 -0.012360215
-0.039169472 -0.59328932 -0.016641378
-0.012144085 -0.59297055 -0.018297791
0.014855798 -0.5943225 -0.011273026
-0.039183017 -0.56643933 -0.015761375
-0.012151167 -0.56614071 -0.017377734
0.014855798 -0.56746197 -0.01022613
-0.039197519 -0.5395866 -0.014819622
-0.012158096 -0.53929317 -0.016477823
-0.039210763 -0.51270568 -0.013959289
-0.012164555 -0.51242125 -0.01563859
-0.039221808 -0.48578832 -0.013242006
-0.012169912 -0.48551354 -0.014942527
-0.039232537 -0.45885703 -0.012544751
-0.012175277 -0.45859513 -0.014245987
-0.039243277 -0.43191484 -0.011847377
-0.012180638 -0.43166593 -0.013549328
-0.03925433 -0.40496475 -0.011129379
-0.01218616 -0.4047288 -0.012832046
-0.039262231 -0.37797689 -0.010616183
-0.012190264 -0.37775666 -0.012298822
-0.03926919 -0.35097355 -0.010164499
-0.012194213 -0.35077372 -0.011785984
-0.012197845 -0.3237783 -0.011314034
-0.012201795 -0.29677996 -0.010800958
-0.012204798 -0.26976132 -0.010410905
-0.012207011 -0.24272719 -0.010123491
-0.012206696 0.1361514 -0.010164499
-0.039269503 0.16321436 -0.010143995
-0.012204167 0.1632064 -0.01049304
-0.039262552 0.19026297 -0.010595679
-0.012201481 0.19025566 -0.010841966
-0.039253701 0.21730012 -0.011170149
-0.012198161 0.21729627 -0.011272907
-0.039243277 0.24432367 -0.011847377
-0.012193896 0.24432462 -0.011826873
-0.039232858 0.27133659 -0.012524366
-0.012189632 0.27134448 -0.012380838
-0.039222438 0.29833955 -0.013200998
-0.012185372 0.29835576 -0.012934446
-0.039212026 0.32533163 -0.013877153
-0.012181269 0.32536006 -0.013467312
-0.039197832 0.35229462 -0.014799118
-0.012175431 0.35233882 -0.014225602
-0.039184593 0.37924862 -0.015658975
-0.0121696 0.37930572 -0.014983416
-0.039171357 0.40618941 -0.016518474
-0.012163609 0.40625945 -0.015761614
-0.039158132 0.43311697 -0.017377615
-0.012157779 0.43320292 -0.016518593
-0.039240751 0.46070224 -0.012011528
-0.012171963 0.46041507 -0.014676213
-0.012202743 0.48790443 -0.010677695
-0.039239172 0.51478612 -0.012114048
-0.01219216 0.51479369 -0.012052655
0.014855798 0.51477611 -0.012196302
-0.039094605 0.54060483 -0.021503687
0.014855798 0.54147685 -0.014840245
-0.039094921 0.56758302 -0.021483421
0.014855798 0.5685035 -0.014840126
-0.039094605 0.59455526 -0.021503568
0.014855798 0.59552991 -0.014840007
-0.039094921 0.62153375 -0.021483541
0.014855798 0.62255329 -0.014860511
0.014855798 0.64957964 -0.014860511
0.014855798 0.67660254 -0.014880896
0.014855798 0.70363241 -0.014860511
0.014855798 0.73066247 -0.014840007
0.014855798 0.75769299 -0.014819503
-0.066043437 0.78315306 -0.02264595
-0.01213339 0.78374535 -0.019687176
-0.066383407 -0.86576426 -0.0079246759
0.041928254 -0.86550951 -0.008870244
-0.066445649 -0.83938998 -0.0052293539
0.041942023 -0.83890516 -0.0070815086
-0.066513717 -0.81303817 -0.0022821426
0.041956283 -0.81228942 -0.0052293539
-0.066583797 -0.78666252 0.00075232983
0.041970398 -0.78564078 -0.0033956766
-0.066650182 -0.76020199 0.0036269426
0.041984368 -0.75895923 -0.0015807152
-0.066711396 -0.7336455 0.0062779188
0.041996449 -0.73219311 -1.180172e-05
0.042008854 -0.70541215 0.0015997887
0.042020954 -0.67859787 0.0031716824
0.042033061 -0.65175974 0.0047448874
0.042043909 -0.6248644 0.0061534643
0.04205412 -0.59793162 0.0074805021
0.014855798 -0.54058903 -0.0091580153
0.014855798 -0.5136928 -0.0081304312
0.014855798 -0.48674777 -0.0073077679
0.014855798 -0.45979628 -0.0064438581
0.014855798 -0.43282863 -0.0055998564
0.014855798 -0.40585071 -0.004734993
0.014855798 -0.37883538 -0.0040552616
0.014855798 -0.35180467 -0.0034161806
-0.039276458 -0.32396549 -0.0096920729
0.014855798 -0.32476395 -0.0027769804
-0.03928405 -0.29695252 -0.0091990232
0.014855798 -0.29770908 -0.0021790266
-0.039290376 -0.26992372 -0.008788228
0.014855798 -0.27064297 -0.0016013384
-0.039294489 -0.24287528 -0.00852108
0.014855798 -0.24355072 -0.0012093782
-0.039298605 -0.21582279 -0.0082536936
-0.012209224 -0.21568882 -0.0098359585
0.014855798 -0.21645084 -0.00083780289
-0.039302718 -0.18876615 -0.0079865456
-0.012211438 -0.18864599 -0.0095483065
0.014855798 -0.18934667 -0.00044548512
-0.039306518 -0.16170394 -0.0077397823
-0.012213651 -0.16159856 -0.0092608929
0.014855798 -0.16223657 -5.3048134e-05
-0.039306834 -0.13462409 -0.0077191591
-0.012214443 -0.1345354 -0.0091581345
0.014855798 -0.13510889 0.00015342236
-0.039306834 -0.10754286 -0.0077191591
-0.012215074 -0.10746969 -0.0090757608
0.014855798 -0.10797591 0.00031876564
-0.039306834 -0.080461361 -0.0077192783
-0.012215549 -0.080401652 -0.0090143681
0.014855798 -0.080840357 0.0004837513
-0.039306834 -0.053380124 -0.0077191591
-0.012216182 -0.053333513 -0.0089319944
0.014855798 -0.053702302 0.00064921379
-0.039305568 -0.026296273 -0.0078014135
-0.012216024 -0.026260838 -0.0089526176
0.014855798 -0.026558369 0.00071120262
-0.039301772 0.00079014152 -0.0080481768
-0.012215074 0.00081376731 -0.0090757608
0.014855798 0.00058968365 0.00062870979
-0.039298289 0.027872339 -0.0082743168
-0.012213968 0.027886879 -0.0092196465
0.014855798 0.02773656 0.00054585934
-0.039294489 0.054951377 -0.0085209608
-0.01221302 0.054957688 -0.0093429089
0.014855798 0.054882318 0.00044262409
-0.039290696 0.082026467 -0.008767724
-0.012211911 0.082026355 -0.0094865561
0.014855798 0.082026467 0.00033950806
-0.039283417 0.10909594 -0.0092401505
-0.012209382 0.10909156 -0.0098154545
0.014855798 0.10916741 2.9683113e-05
-0.039276458 0.13615862 -0.0096921921
0.014855798 0.13630301 -0.00032162666
0.014855798 0.16343406 -0.0006313324
0.014855798 0.19056112 -0.00092017651
0.014855798 0.2176773 -0.0013743639
0.014855798 0.24478161 -0.0019315481
0.014855798 0.27187744 -0.0024884939
0.014855798 0.29896221 -0.0030864477
0.014855798 0.32604063 -0.0036430359
0.014855798 0.35308987 -0.0044672489
0.014855798 0.38013166 -0.0052293539
0.014855798 0.40715992 -0.0060114861
0.014855798 0.4341763 -0.0067936182
0.014855798 0.46163958 -0.003313303
-0.039416596 0.48906946 -0.00058984756
0.014855798 0.48975483 0.0053454638
-0.066459447 0.51570785 -0.0046318769
-0.066459447 0.54281288 -0.0046319962
-0.066459447 0.56991804 -0.0046319962
-0.066459924 0.59702599 -0.0046113729
-0.066459924 0.62413126 -0.0046114922
0.014855798 0.78785288 0.00083529949
0.069304228 -0.97971791 0.010843754
0.06935066 -0.95337588 0.01385951
0.06941098 -0.92724437 0.017777324
0.069471106 -0.90104908 0.021682739
0.069529429 -0.87476206 0.025471091
-0.06677416 -0.70706302 0.0089951754
-0.066837966 -0.68044865 0.011758208
-0.066898033 -0.65375793 0.014359236
-0.066955298 -0.62700301 0.01683867
-0.067053169 -0.60054815 0.02107656
0.042065784 -0.57101315 0.0089951754
0.042078733 -0.54410106 0.010677457
0.042091213 -0.51715267 0.012298942
0.042101305 -0.49012926 0.013609648
0.04211124 -0.46308252 0.014900565
0.042121347 -0.43601909 0.016213298
0.042131782 -0.40894121 0.017568588
0.042140454 -0.38181278 0.018695354
0.042148009 -0.35464889 0.019676685
0.042155728 -0.32747251 0.020679593
0.04216329 -0.30027837 0.021661758
0.042170212 -0.27306104 0.022561073
0.042174883 -0.24580267 0.023167968
0.042179879 -0.21853849 0.023816824
0.042184874 -0.19126436 0.024465561
0.042189874 -0.16398019 0.025115013
0.042192776 -0.13666937 0.025492311
0.042194873 -0.10934705 0.025764465
0.042193905 0.10936445 0.025638819
0.042190358 0.13669564 0.025177717
0.042186648 0.16401897 0.024696231
0.042183265 0.19133621 0.024256349
0.04217859 0.2186403 0.023649096
0.042172469 0.24592632 0.02285409
0.042166352 0.2732003 0.022059321
0.042160071 0.30046052 0.021243691
0.042153798 0.32770833 0.020428777
0.042144954 0.354918 0.019280076
0.042136278 0.38211161 0.018152833
0.042127445 0.40928626 0.017005682
0.04211846 0.43644091 0.015838146
0.069581419 -0.8483091 0.028847694
0.069633827 -0.82181102 0.032251835
0.069686338 -0.79526216 0.035662413
0.069774725 -0.7692169 0.041403532
-0.067166746 -0.57415396 0.025995135
-0.067285016 -0.54771984 0.031116486
-0.067407534 -0.52123785 0.03642118
0.042197131 -0.082021631 0.026058078
0.042199232 -0.054690801 0.026330471
0.042200357 -0.027351812 0.026477218
0.042199552 -4.7981739e-06 0.026372433
0.042198904 0.027340081 0.026288509
0.042198263 0.054683995 0.026204586
0.042197455 0.082026467 0.02609992
0.042206008 0.46492934 0.027211308
0.042225398 0.51994008 0.029729724
0.042225234 0.5473069 0.029708624
0.042225234 0.57467651 0.029708624
0.042225074 0.60204279 0.029687762
0.042225074 0.629412 0.029687762
0.042224914 0.65677792 0.029666781
0.042225234 0.68415403 0.029708743
0.042225074 0.71151972 0.029687643
0.042224914 0.73888505 0.029666662
0.042224914 0.76625425 0.029666781
0.069866344 -0.7431317 0.047354221
0.069955975 -0.71692598 0.053175569
0.04237283 0.49478194 0.048882127
0.070298508 0.52556807 0.075423956
0.070298173 0.55328679 0.075402617
0.070298173 0.58100778 0.075402617
0.070297845 0.60872602 0.075380921
0.070297845 0.63644677 0.07538116
0.070297509 0.66416448 0.075359344
0.070297509 0.69188535 0.075359583
0.070297182 0.71960229 0.075338006
0.070297182 0.74732322 0.075338006
0.070297182 0.77504379 0.075338006
0.099102095 0.64366835 0.1222862
0.099102601 0.67175406 0.12230837
0.099103123 0.69984013 0.12233043
0.099103123 0.72792244 0.12233043
0.09910363 0.75600904 0.12235248
0.12889493 0.65222216 0.17784393
0.12866592 0.67952955 0.17040682
0.12866662 0.70798594 0.17042971
0.12866662 0.73643857 0.17042971
0.15902373 0.62986445 0.21990716
0.15905513 0.65882373 0.22072315
0.15902193 0.68752426 0.21986055
0.1597904 0.60379106 0.23982608
0.10182799 0.63285035 0.24032056
0.13035762 0.63066 0.22534621
0.13127108 0.60589516 0.25501156
0.16094109 0.57871628 0.26972175
0.18996601 0.57817203 0.26556146
0.10251859 0.60800326 0.27022433
0.19031195 0.60839486 0.2730515
0.190844 0.55132824 0.28457093
0.13248958 0.5819701 0.29458356
0.22112209 0.52402556 0.30213976
0.10321967 0.58275497 0.30058241
0.22264317 0.49760124 0.33036733
0.19225684 0.52552915 0.3151598
0.13313976 0.55516231 0.3156991
0.13409719 0.52918154 0.34679198
0.10393092 0.55709374 0.33138061
0.16459543 0.53124523 0.36466408
0.13506787 0.50276864 0.37831593
0.16481642 0.50191623 0.37040615
0 0 0 1 0 0 0 1 0 0 0 1 0 0 0 0 0 379 1 0 0
