ply
format ascii 1.0
comment PCL generated
element vertex 344
property float x
property float y
property float z
element camera 1
property float view_px
property float view_py
property float view_pz
property float x_axisx
property float x_axisy
property float x_axisz
property float y_axisx
property float y_axisy
property float y_axisz
property float z_axisx
property float z_axisy
property float z_axisz
property float focal
property float scalex
property float scaley
property float centerx
property float centery
property int viewportx
property int viewporty
property float k1
property float k2
end_header
-0.010924248 0.84464437 -0.23721838
0.012748046 0.84465533 -0.23718643
-0.010921674 0.86819822 -0.23755288
0.012748046 0.86822087 -0.23748899
-0.010939587 0.89270991 -0.23522556
0.012748046 0.89273864 -0.23514581
-0.011080898 0.78020674 -0.21686852
0.012748046 0.78021723 -0.21683621
-0.011028452 0.80178052 -0.22368169
0.012748046 0.80179113 -0.2236495
-0.010976236 0.82325953 -0.23046494
0.012748046 0.82327026 -0.23043287
-0.01095753 0.91725868 -0.23289502
0.012748046 0.91729409 -0.23279905
-0.010975868 0.94186276 -0.23051298
0.012748046 0.94188088 -0.23046482
-0.011062276 0.96990699 -0.21928811
0.012748046 0.9699195 -0.21925581
-0.011186492 0.73677272 -0.20315194
0.012748046 0.73678744 -0.20310318
-0.011133578 0.75853777 -0.21002555
0.012748046 0.7585479 -0.209993
-0.035174243 0.80972034 -0.19969571
0.036710449 0.80977434 -0.19953239
-0.035066932 0.83132058 -0.20666575
0.036656786 0.83137566 -0.20650303
-0.034960099 0.85282427 -0.21360457
0.036603365 0.85288054 -0.2134428
-0.034957111 0.87660986 -0.21379864
0.036600374 0.8765983 -0.21383107
-0.034991749 0.90127617 -0.21154881
0.036615949 0.90118259 -0.21180797
-0.035024188 0.92592484 -0.20944166
0.036633164 0.92587692 -0.20957136
-0.035054922 0.95056373 -0.20744538
0.036650531 0.95061284 -0.20731556
-0.083529681 -0.62978929 -0.18562841
-0.059460253 -0.62978929 -0.18562841
-0.035390817 -0.62978929 -0.18562841
0.036817476 -0.62978929 -0.18562841
0.060886912 -0.62978929 -0.18562841
0.084956348 -0.62978929 -0.18562841
-0.083227374 -0.60451049 -0.19544637
-0.059233516 -0.60451049 -0.19544637
-0.035239667 -0.60451049 -0.19544637
0.036741901 -0.60451049 -0.19544637
0.060735755 -0.60451049 -0.19544637
0.084729612 -0.60451049 -0.19544637
-0.011354014 0.67116708 -0.18139005
0.012748046 0.67117679 -0.18135703
-0.011293147 0.69295645 -0.18929684
0.012748046 0.69296604 -0.18926394
-0.011239763 0.71491551 -0.1962316
0.012748046 0.71492547 -0.19619882
-0.035390057 0.76622212 -0.18567777
0.036818366 0.76627421 -0.18551326
-0.035282031 0.7880227 -0.19269443
0.036764346 0.78807575 -0.19253039
-0.03531386 0.98093861 -0.1906271
0.036780387 0.98100823 -0.19044662
-0.083937615 -0.65569443 -0.17238045
-0.059766203 -0.65569443 -0.17238045
-0.035594784 -0.65569443 -0.17238045
0.03691946 -0.65569443 -0.17238045
0.061090879 -0.65569443 -0.17238045
0.085262299 -0.65569443 -0.17238045
-0.011486826 0.62761146 -0.16413736
0.012748046 0.62760264 -0.16417062
-0.011420302 0.64945155 -0.17277908
0.012748046 0.6494469 -0.17279577
-0.03571707 0.70022839 -0.16443777
0.036981888 0.70027709 -0.16427076
-0.035607576 0.72232562 -0.1715498
0.036927134 0.72237557 -0.17138362
-0.035498574 0.74432343 -0.17862976
0.036872633 0.74437433 -0.17846441
-0.084407337 -0.68209702 -0.15712571
-0.060118489 -0.68209702 -0.15712571
-0.035829648 -0.68209702 -0.15712571
0.037036892 -0.68209702 -0.15712571
0.061325736 -0.68209702 -0.15712571
0.085614584 -0.68209702 -0.15712571
-0.01162111 0.58357316 -0.14669335
0.012748046 0.58354753 -0.14679468
-0.011553718 0.60565102 -0.15544784
0.012748046 0.60563791 -0.15549803
-0.035972856 0.6563673 -0.14782405
0.037111614 0.6564796 -0.14741898
-0.03584075 0.67828393 -0.1564045
0.037044384 0.6783554 -0.15615273
-0.085025787 -0.70947814 -0.13704121
-0.060582325 -0.70947814 -0.13704121
-0.03613887 -0.70947814 -0.13704121
0.037191503 -0.70947814 -0.13704121
0.061634965 -0.70947814 -0.13704121
0.08607842 -0.70947814 -0.13704121
-0.011756497 0.53903186 -0.12910616
0.012748046 0.53900743 -0.12920856
-0.011688614 0.56136435 -0.13792419
0.012748046 0.56133926 -0.13802588
-0.036239758 0.61218375 -0.13048828
0.0372472 0.61236227 -0.12980592
-0.036105946 0.63433576 -0.13917994
0.037179217 0.6344822 -0.13863695
-0.08581984 -0.73809034 -0.11125362
-0.061177865 -0.73809034 -0.11125362
-0.036535896 -0.73809034 -0.11125362
0.037390016 -0.73809034 -0.11125362
0.062031992 -0.73809034 -0.11125362
0.08667396 -0.73809034 -0.11125362
-0.011893261 0.49398905 -0.11133981
0.012748046 0.49396586 -0.1114434
-0.011824755 0.51657498 -0.12023902
0.012748046 0.5165472 -0.1203593
-0.036509335 0.567509 -0.1129787
0.037384305 0.56775117 -0.11199558
-0.036374047 0.58990562 -0.12176621
0.037315562 0.59011889 -0.12092555
-0.012031563 0.44844055 -0.093374014
0.012748046 0.44841874 -0.09347868
-0.011962285 0.47128028 -0.10237348
0.012748046 0.47125787 -0.10247755
-0.03678216 0.52234423 -0.095257998
0.037522953 0.52263826 -0.093984842
-0.036645368 0.54498899 -0.1041429
0.037453435 0.54525799 -0.10301554
-0.08686953 -0.76850569 -0.077163696
-0.061965138 -0.76850569 -0.077163696
-0.037060745 -0.76850569 -0.077163696
0.03765244 -0.76850569 -0.077163696
0.062556833 -0.76850569 -0.077163696
0.087461233 -0.76850569 -0.077163696
-0.012171559 0.4023813 -0.075187564
0.012748046 0.4023608 -0.07529366
-0.012101363 0.42547578 -0.084306479
0.012748046 0.42545462 -0.08441186
-0.037057757 0.47667247 -0.07735765
0.037663169 0.47701448 -0.07577002
-0.036919445 0.49956977 -0.0863415
0.037592862 0.49989069 -0.08490324
-0.012242017 0.37915254 -0.066035032
0.012748046 0.37913299 -0.066141725
-0.037336439 0.43048936 -0.059256911
0.03780251 0.43080711 -0.05766952
-0.037196845 0.45364714 -0.068323612
0.03773278 0.45397896 -0.066727161
-0.012384273 0.33230215 -0.047555685
0.012748046 0.33228695 -0.04764545
-0.01231301 0.35579544 -0.056812763
0.012748046 0.35577643 -0.056919813
-0.037621304 0.38382334 -0.040754199
-0.037478194 0.40721911 -0.050049543
0.037872627 0.40750551 -0.048560739
-0.088435113 -0.80241221 -0.026319861
-0.063139327 -0.80241221 -0.026319861
-0.037843533 -0.80241221 -0.026319861
0.038043838 -0.80241221 -0.026319861
0.063339628 -0.80241221 -0.026319861
0.088635422 -0.80241221 -0.026319861
-0.012528155 0.28491497 -0.028864622
0.012748046 0.28490394 -0.028937101
-0.012456078 0.30867779 -0.038227797
0.012748046 0.30866319 -0.038318038
-0.037910558 0.33663571 -0.021966696
-0.037765518 0.36029708 -0.031387329
0.038014047 0.36050904 -0.030189872
0.037943136 0.3840732 -0.039401174
-0.012673838 0.23698501 -0.0099401474
0.012748046 0.23697986 -0.0099766254
-0.012600789 0.26101887 -0.019429445
0.012748046 0.26101077 -0.019484282
-0.038056433 0.31283808 -0.012491703
0.038157068 0.31298047 -0.011610985
0.038085356 0.33681178 -0.020926833
-0.012817346 0.18843727 0.0087022781
0.012748046 0.18843965 0.0087208748
-0.012747169 0.21280979 -0.00041413307
0.012748046 0.21281217 -0.00039553642
-0.038350433 0.26482654 0.0066039562
0.038301714 0.2649107 0.0071794987
-0.038202867 0.28890008 -0.0029805899
0.038229182 0.28901386 -0.0022423267
-0.012943259 -0.70874363 0.025058746
0.012748046 -0.70854074 0.023670912
-0.012877418 -0.68186736 0.016505837
0.012748046 -0.68171203 0.015385985
-0.012937482 0.13898836 0.024308443
0.012748046 0.13899247 0.024345994
-0.012877274 0.16377084 0.016487122
0.012748046 0.16377528 0.016524553
-0.038647853 0.21625628 0.025922179
0.038448021 0.21629067 0.026185155
-0.038498856 0.24061303 0.016244531
0.038374659 0.24067022 0.016654968
0.012748046 -0.78977919 0.048451066
-0.013068521 -0.76275676 0.041330814
0.012748046 -0.76252103 0.039872527
-0.013005665 -0.7356832 0.033165574
0.012748046 -0.73542213 0.031469584
-0.013119964 0.063939109 0.048013449
0.012748046 0.063940749 0.048032641
-0.013058754 0.089072511 0.040061951
0.012748046 0.089076146 0.040099859
-0.012997974 0.11408941 0.032166481
0.012748046 0.11409308 0.03220439
-0.038908727 0.16681691 0.042866588
0.038577601 0.16683446 0.043018222
-0.038785517 0.19165964 0.034863353
0.038516134 0.19168057 0.035033345
-0.013193391 -0.81726205 0.05755198
0.012748046 -0.81706566 0.056442738
-0.01313154 -0.78995979 0.049517155
-0.013246667 0.013343483 0.064472437
0.012748046 0.013346285 0.064510822
-0.013181321 0.038684711 0.05598402
0.012748046 0.03868635 0.056003094
-0.039156631 0.11677156 0.058968425
0.038701564 0.11678673 0.059121609
-0.039032236 0.14185308 0.050888538
0.038639508 0.14187153 0.0510602
-0.013384024 -0.0376845 0.082315803
0.012748046 -0.03768234 0.082354903
-0.013315164 -0.012103394 0.073370695
0.012748046 -0.012100965 0.073409438
-0.039532833 0.040795371 0.083403349
0.038889684 0.040807441 0.083558798
-0.039406635 0.066241786 0.07520628
0.038826726 0.066256508 0.075380206
-0.039281331 0.091567293 0.067067862
0.038764067 0.091583386 0.067240715
-0.013522843 -0.089254573 0.10034895
0.012748046 -0.089253053 0.10038805
-0.013453249 -0.063401163 0.091308594
0.012748046 -0.063399479 0.091347575
-0.039816998 -0.010348648 0.10186052
-0.039672881 0.015285134 0.092499375
0.038959861 0.015297517 0.092675209
-0.013663145 -0.14137527 0.11857462
0.012748046 -0.14137492 0.11859441
-0.013592806 -0.1152456 0.10943747
0.012748046 -0.11524422 0.10947692
-0.039961614 -0.036125138 0.11125326
0.039104246 -0.036115497 0.111431
0.03903193 -0.010337844 0.10203707
-0.013790609 -0.67176598 0.13513291
0.012748046 -0.67176598 0.13513291
-0.013804952 -0.19405594 0.13699591
0.012748046 -0.19405578 0.13701618
-0.013733856 -0.16764516 0.12776053
0.012748046 -0.16764489 0.12778056
-0.040253542 -0.088105083 0.13021457
0.039250225 -0.088098064 0.1303941
-0.040107325 -0.062042832 0.12071764
0.039176956 -0.062035397 0.12087643
-0.013876427 -0.22060898 0.146281
0.012748046 -0.22060893 0.14630127
-0.040548719 -0.1406638 0.14938724
0.039397828 -0.14065953 0.14956892
-0.040400878 -0.11431116 0.13978422
0.039323747 -0.11430614 0.13994503
-0.014020385 -0.27414575 0.16498148
0.012748046 -0.27414638 0.16502225
-0.013948133 -0.24730511 0.15559602
0.012748046 -0.24730553 0.15563643
-0.040847212 -0.19381136 0.1687746
0.039547086 -0.19380984 0.16895819
-0.040697709 -0.1671631 0.15906405
0.03947217 -0.16716063 0.15922642
-0.014166065 -0.3282654 0.18390596
0.012748046 -0.32826656 0.18394721
-0.014093028 -0.30113214 0.17441821
0.012748046 -0.3011331 0.17445898
-0.041156694 -0.24756128 0.18887591
0.039702799 -0.24756366 0.18918562
-0.04099787 -0.22060898 0.17856002
0.039623372 -0.22060904 0.17886817
-0.014339166 -0.65400434 0.20639265
0.012748046 -0.65400434 0.20639265
-0.068524189 -0.62697005 0.20685136
-0.041433446 -0.62697005 0.20685136
-0.014342699 -0.62697005 0.20685136
0.012748046 -0.62697005 0.20685136
0.039838791 -0.62697005 0.20685136
0.066929534 -0.62697005 0.20685136
-0.068534307 -0.59992653 0.2072897
-0.041440189 -0.59992653 0.2072897
-0.014346071 -0.59992653 0.2072897
0.012748046 -0.59992653 0.2072897
0.039842162 -0.59992653 0.2072897
0.066936284 -0.59992653 0.2072897
-0.068544917 -0.57287836 0.20774877
-0.041447259 -0.57287836 0.20774877
-0.014349606 -0.57287836 0.20774877
0.012748046 -0.57287836 0.20774877
0.039845698 -0.57287836 0.20774877
0.066943347 -0.57287836 0.20774877
-0.014313338 -0.38297728 0.2030375
0.012748046 -0.38297817 0.20305824
-0.014239501 -0.35554668 0.19344568
0.012748046 -0.3555482 0.19348717
-0.04131677 -0.2746737 0.19927335
0.039782852 -0.27467844 0.19958508
-0.068555035 -0.54582137 0.20818722
-0.04145401 -0.54582137 0.20818722
-0.014352983 -0.54582137 0.20818722
0.012748046 -0.54582137 0.20818722
0.039849073 -0.54582137 0.20818722
0.066950105 -0.54582137 0.20818722
-0.068565644 -0.51875919 0.20864666
-0.04146108 -0.51875919 0.20864666
-0.014356518 -0.51875919 0.20864666
0.012748046 -0.51875919 0.20864666
0.039852612 -0.51875919 0.20864666
0.066957176 -0.51875919 0.20864666
-0.041468158 -0.49168998 0.20910609
-0.014360055 -0.49168998 0.20910609
0.012748046 -0.49168998 0.20910609
0.039856147 -0.49168998 0.20910609
-0.041474909 -0.46461219 0.20954502
-0.014363432 -0.46461219 0.20954502
0.012748046 -0.46461219 0.20954502
0.039859526 -0.46461219 0.20954502
-0.014426958 -0.41083393 0.21779716
0.012748046 -0.41083515 0.21781814
-0.041639484 -0.32938394 0.22023404
0.039944239 -0.32939366 0.22054946
-0.041477486 -0.30194724 0.20971215
0.039863225 -0.30195445 0.21002543
-0.069258809 -0.49396509 0.23866153
0.067457244 -0.49415493 0.24112725
-0.01454398 -0.43894517 0.23299873
0.012748046 -0.43894768 0.23304117
-0.041984089 -0.38480526 0.24261689
0.040112309 -0.38479453 0.24238288
-0.041802123 -0.35698441 0.23079789
0.040025573 -0.35699654 0.2311151
-0.042196654 -0.41291535 0.25642347
0.040211812 -0.41285527 0.25530839
-0.042399898 -0.44120067 0.26962447
0.040318027 -0.4411687 0.26910567
-0.07163848 -0.47376847 0.34170449
0.069045939 -0.47394937 0.34431541
-0.074163146 -0.45237225 0.45102596
0.070731118 -0.4525412 0.45377123
0 0 0 1 0 0 0 1 0 0 0 1 0 0 0 0 0 344 1 0 0
