ply
format ascii 1.0
comment PCL generated
element vertex 442
property float x
property float y
property float z
element camera 1
property float view_px
property float view_py
property float view_pz
property float x_axisx
property float x_axisy
property float x_axisz
property float y_axisx
property float y_axisy
property float y_axisz
property float z_axisx
property float z_axisy
property float z_axisz
property float focal
property float scalex
property float scaley
property float centerx
property float centery
property int viewportx
property int viewporty
property float k1
property float k2
end_header
0.49770269 -0.061043382 -0.83164054
0.52131593 -0.061114237 -0.82704592
0.49660191 -0.038305834 -0.83736026
0.52096403 -0.038371649 -0.82880408
0.47524634 -0.015656244 -0.83035642
0.49605194 -0.015656214 -0.84021813
0.52083158 -0.015656153 -0.82946604
0.47466418 0.0070230197 -0.8335073
0.49591824 0.0069661625 -0.84091288
0.52079344 0.0070528146 -0.82965678
0.47630098 0.029838802 -0.82464772
0.49633166 0.029621402 -0.83876467
0.52096665 0.029775022 -0.82879138
0.49707249 0.052349046 -0.83491534
0.52125216 0.052523501 -0.82736474
0.52272236 -0.08400546 -0.82001859
0.5472728 -0.08420191 -0.81151569
0.47958764 -0.061425 -0.80685836
0.54678059 -0.061316818 -0.81388408
0.47707817 -0.038435977 -0.82044125
0.54634523 -0.038470358 -0.81597871
0.57156277 -0.015656183 -0.80482823
0.54606235 -0.015656153 -0.81733948
0.54601979 0.0071459338 -0.81754464
0.57145691 0.0072400253 -0.80531973
0.54623044 0.029963693 -0.81653082
0.47816375 0.052819021 -0.81456542
0.5467031 0.052826218 -0.81425673
0.50025249 0.075526319 -0.81839103
0.52198768 0.075363129 -0.82368982
0.5471791 0.075724162 -0.8119666
0.52467704 0.09863513 -0.81025279
0.54825163 0.098767765 -0.8068065
0.55036175 -0.1075081 -0.79665393
0.57477224 -0.10771472 -0.78993851
0.50309443 -0.084384136 -0.80362421
0.57337523 -0.084550545 -0.79641974
0.57272518 -0.061539292 -0.79943568
0.46045902 -0.038703885 -0.78564566
0.57207358 -0.038574472 -0.80245835
0.59860194 -0.038698904 -0.78628784
0.4586021 -0.015656153 -0.79613352
0.59790647 -0.015656153 -0.78940254
0.45787951 0.0072793569 -0.80021453
0.5976994 0.0073555298 -0.79033053
0.4597244 0.030375352 -0.78979474
0.57188928 0.030167302 -0.80331355
0.59837389 0.030413648 -0.78730917
0.57256842 0.053151712 -0.80016267
0.59914923 0.053528689 -0.78383571
0.57327151 0.076188028 -0.79690123
0.57397592 0.099274881 -0.79363251
0.60356081 -0.10851125 -0.7640748
0.48731515 -0.085275307 -0.76503187
0.60003805 -0.08493305 -0.77985436
0.46352121 -0.062017858 -0.76835036
0.59931922 -0.0617911 -0.7830745
0.62669456 -0.062078387 -0.76442063
0.62612414 -0.038848273 -0.76689112
0.62571669 -0.015656214 -0.76865506
0.44065717 0.0075390358 -0.76647961
0.62565863 0.0075203869 -0.76890695
0.62597394 0.030717945 -0.76754129
0.46155432 0.053629734 -0.7794596
0.62660253 0.053967893 -0.76481926
0.48425356 0.076659001 -0.78160328
0.59992647 0.076697573 -0.78035432
0.50769937 0.099811368 -0.77969646
0.60089982 0.099953867 -0.77599424
0.53462017 -0.10861898 -0.7605738
0.62726915 -0.085346952 -0.76193273
0.4432967 -0.038971432 -0.75089407
0.65429747 -0.039008878 -0.74601746
0.65409839 -0.015656214 -0.74685156
0.44162574 -0.015656153 -0.76076043
0.65403736 0.0076881927 -0.74710697
0.44275436 0.030924929 -0.75409627
0.65431345 0.031050453 -0.74595016
0.44454685 0.054460011 -0.74351257
0.65468299 0.054439358 -0.74440193
0.62723541 0.077260211 -0.76207906
0.47055194 -0.086115755 -0.72864091
0.44703314 -0.062626325 -0.72883141
0.65525234 -0.062423348 -0.74201566
0.42424205 -0.015656183 -0.72453868
0.42331719 0.0078179091 -0.73025978
0.46824118 0.077888086 -0.74169189
0.42548725 -0.039233632 -0.71683574
0.42537421 0.031487837 -0.71753526
0.42764524 0.055384278 -0.70348704
0.45119187 0.079040147 -0.70427549
0.4542093 -0.087089926 -0.68645799
0.43010876 -0.063251071 -0.6882478
0.40638661 -0.015656183 -0.68775856
0.40555525 0.0081035253 -0.69315851
0.49967405 0.10295047 -0.69813693
0.4077484 -0.039525472 -0.67891335
0.40734619 0.032042183 -0.68152595
0.41043428 0.056354597 -0.66146827
0.43432072 0.08033596 -0.66219306
0.41196248 -0.063816264 -0.65154219
0.38770676 -0.015656183 -0.65274334
0.38735366 0.0083959736 -0.6551578
0.38879246 0.032599628 -0.64532053
0.43893853 -0.088309959 -0.63362789
0.3895669 -0.03982494 -0.6400255
0.39174637 0.057194009 -0.62512445
0.39305675 -0.064360857 -0.6161654
0.37009358 -0.04008577 -0.60613978
0.36849764 -0.015656153 -0.6176573
0.36815155 0.0086654015 -0.62015522
0.36967364 0.033156216 -0.60917032
0.41721317 0.081714049 -0.61743796
0.42096737 -0.089246958 -0.59305406
0.37366658 -0.064912319 -0.58035374
0.34848502 -0.015656214 -0.58458328
0.34840497 0.0089344662 -0.58519518
0.37231866 0.058003239 -0.59008169
0.3982268 0.082841568 -0.58081758
0.35063493 -0.040378038 -0.56815529
0.34956214 0.033661544 -0.57635307
0.40309554 -0.09029837 -0.5475297
0.35383645 -0.065476656 -0.54369128
0.3281883 -0.015656214 -0.5496819
0.32827097 0.009213157 -0.54901063
0.32927158 0.034207478 -0.54088688
0.35245442 0.058830716 -0.55425167
0.37907577 0.084057927 -0.54131627
0.32998124 -0.040632311 -0.53512526
0.33352333 -0.066051349 -0.50636661
0.3089509 -0.040895391 -0.50095308
0.30742705 -0.015656153 -0.51414979
0.30725428 0.0094699804 -0.51564598
0.30849224 0.034761213 -0.50492477
0.33220208 0.059688844 -0.51709402
0.35962489 0.085346848 -0.49945903
0.28615755 -0.015656274 -0.47825754
0.28590181 0.009739561 -0.48063028
0.31116897 0.060505234 -0.48174393
0.38798353 -0.091926508 -0.47703004
0.31247717 -0.066604845 -0.4704144
0.28751609 -0.041167218 -0.46565199
0.28719795 0.035320356 -0.46860409
0.33933875 0.086588018 -0.45915163
0.36703259 -0.092715688 -0.44285417
0.26427189 -0.015656274 -0.44300067
0.26408628 0.01001491 -0.44485545
0.28970656 0.061346225 -0.44532692
0.29096356 -0.067170672 -0.43366349
0.26566395 -0.041448645 -0.42909002
0.26542598 0.035892196 -0.43146849
0.31832278 0.087800153 -0.41979027
0.24189988 -0.015656153 -0.40713227
0.24179235 0.010296397 -0.40829611
0.26778984 0.062211826 -0.40784729
0.26896837 -0.067749493 -0.39607024
0.24342668 -0.041744888 -0.39060438
0.24315077 0.036475278 -0.39359105
0.24647176 -0.068341196 -0.35763991
0.21909779 -0.015656214 -0.36982143
0.21900424 0.010583956 -0.37092602
0.22020468 0.037042558 -0.35674942
0.24543446 0.063111924 -0.36886907
0.29809326 0.089409918 -0.36750782
0.22067401 -0.042048179 -0.35120714
0.22345826 -0.068946384 -0.31832659
0.19578686 -0.015656153 -0.33165848
0.19574803 0.010882389 -0.33216262
0.19675246 0.03762199 -0.3191148
0.22255769 0.064033642 -0.32896197
0.19721019 -0.042341087 -0.31316853
0.27721193 0.091066942 -0.31369579
0.20016262 -0.069616385 -0.27481556
0.1731925 -0.042637452 -0.27467191
0.17194821 -0.015656153 -0.29263163
0.17198272 0.011190541 -0.29213357
0.17280608 0.038220257 -0.28024936
0.19913784 0.064976685 -0.28812778
0.25562796 0.092765756 -0.25852156
0.17594881 -0.07023105 -0.2348882
0.14863537 -0.042940322 -0.23531067
0.14756377 -0.015656274 -0.25271106
0.14762314 0.011501426 -0.25174665
0.14836423 0.038844392 -0.23971343
0.17520137 0.065956905 -0.24567628
0.15117696 -0.070859991 -0.19404018
0.1235214 -0.043250356 -0.19503641
0.1226135 -0.015656214 -0.2118845
0.12261051 0.011807816 -0.21194029
0.12334943 0.039483055 -0.19822752
0.15065955 0.06695547 -0.20244229
0.096979484 0.012113478 -0.17225325
0.12572287 -0.07147368 -0.15418208
0.097812369 -0.043564703 -0.15422046
0.097075343 -0.015656214 -0.17017782
0.097717464 0.040128939 -0.15627587
0.12535591 0.067912661 -0.16099191
0.070763588 -0.015656153 -0.13188696
0.070695475 0.012410393 -0.1336565
0.099584013 -0.072063558 -0.11586344
0.071464986 -0.043876864 -0.11366391
0.071365237 0.040745117 -0.11625588
0.099235728 0.06878069 -0.12340403
0.043907173 -0.015656153 -0.092138886
0.04390534 0.012729721 -0.092198372
0.07292071 -0.072679803 -0.075843334
0.044539414 -0.044200569 -0.071606398
0.044460222 0.041392893 -0.074177861
0.07263869 0.069709823 -0.083170176
0.016555347 -0.015656214 -0.047344089
0.01659064 0.013086651 -0.045815825
0.045737945 0.070875674 -0.032682896
0.045939937 -0.073445171 -0.026123047
0.017087787 -0.044564907 -0.024288535
0.017035909 0.042126425 -0.026534796
-0.011444431 -0.015656153 0.00016009808
-0.011419974 0.013452813 0.0017485619
0.018182419 -0.074203253 0.023110151
-0.011131756 -0.044909261 0.020468831
-0.011154179 0.042827837 0.01901269
0.018098995 0.072080947 0.019497991
-0.040164828 -0.015656214 0.049060702
-0.040165491 0.013816424 0.04897511
-0.010388725 -0.074905567 0.068730116
-0.040010743 -0.045283504 0.069076657
-0.040023744 0.043572485 0.067388177
-0.010447677 0.073129378 0.064901352
-0.069638103 -0.015656274 0.10333931
-0.069638103 0.014247762 0.10499346
-0.039528865 -0.075874612 0.13167489
-0.069638103 -0.045726079 0.12655938
-0.069638103 0.044463351 0.12524331
-0.039557252 0.074586369 0.12798738
-0.099981263 -0.015656153 0.16206217
-0.099987209 0.014692891 0.16283453
-0.10017379 -0.0461918 0.18707275
-0.10017096 0.045409374 0.18670475
-0.069638103 -0.077130176 0.21321881
-0.069638103 0.076403759 0.20667887
-0.13123141 -0.015656214 0.22097278
-0.1312325 0.015141118 0.22104323
-0.13168071 -0.046677507 0.25015545
-0.13168766 0.046393476 0.25060666
-0.10094831 -0.078276649 0.28768539
-0.16333079 -0.015656274 0.27738309
-0.16333804 0.015577195 0.27769566
-0.16397941 -0.047103196 0.3054688
-0.16400704 0.047256403 0.30666494
-0.19622193 -0.015656153 0.3313005
-0.19623868 0.015993958 0.33184433
-0.19712618 -0.047528222 0.36066723
-0.19718641 0.048117988 0.36262298
-0.2299991 -0.015656153 0.38667059
-0.23002352 0.016420921 0.38730526
-0.23113638 -0.047955975 0.41621852
-0.23121172 0.048973382 0.4181757
-0.52567464 -0.015656214 0.45186186
-0.26464316 -0.015656091 0.44235349
-0.52581578 0.016927889 0.45317125
-0.2646516 0.016845947 0.44253612
-0.52767253 -0.081089742 0.47040033
-0.52666998 -0.048301481 0.46109772
-0.49568653 -0.048429169 0.47770214
-0.26602888 -0.048387982 0.4723556
-0.4947471 -0.015656214 0.46831489
-0.49476823 0.017045973 0.46852589
-0.5268259 0.049656317 0.46254444
-0.49571308 0.049893767 0.47796726
-0.26617676 0.049856529 0.47555661
-0.52784336 0.082530655 0.47198558
-0.53015375 -0.11433826 0.49342227
-0.4966248 -0.081346445 0.48707771
-0.46445951 -0.048557885 0.49443698
-0.46320021 -0.015656274 0.48080492
-0.30020419 -0.015656274 0.49914312
-0.43165046 -0.015656153 0.49553251
-0.46349218 0.01716497 0.48396587
-0.43199024 0.017284879 0.49954486
-0.30020994 0.017282693 0.49925041
-0.46437314 0.050133094 0.49350262
-0.4965449 0.082860798 0.48627949
-0.53083658 0.11611465 0.4997592
-0.56528974 -0.14782999 0.51283908
-0.56440163 -0.11460893 0.50514793
-0.49889842 -0.11471626 0.5097971
-0.56437683 -0.081621431 0.50493312
-0.46533242 -0.081605211 0.5038867
-0.4337925 -0.081866227 0.52082849
-0.56434894 -0.048637092 0.5046916
-0.43298596 -0.048687816 0.51130414
-0.56432414 -0.015656214 0.50447702
-0.39992326 -0.015656214 0.5109005
-0.56429935 0.017321201 0.50426221
-0.4002572 0.017405516 0.51523829
-0.56427765 0.05029583 0.50407457
-0.43268988 0.05035311 0.50780702
-0.56425905 0.083268076 0.5039134
-0.46517634 0.083228171 0.50219703
-0.43362084 0.083611704 0.51880145
-0.56424046 0.11623784 0.50375271
-0.49951312 0.11661299 0.51593971
-0.56610614 0.14983313 0.51990938
-0.5340271 -0.14833872 0.52936339
-0.46717238 -0.11503985 0.52380538
-0.43545786 -0.1154252 0.54049587
-0.4020021 -0.082129002 0.53790498
-0.40107727 -0.048800185 0.5258913
-0.36874869 -0.048890635 0.53765965
-0.30189848 -0.048836328 0.53058553
-0.36797467 -0.015656214 0.52648735
-0.36826235 0.017524147 0.53063989
-0.40071252 0.050558724 0.52115321
-0.36864865 0.050790519 0.53621578
-0.30205816 0.050749458 0.53354859
-0.40182176 0.083998822 0.53556228
-0.46795186 0.11711504 0.53224301
-0.53476858 0.15046182 0.5362432
-0.50252563 -0.14885244 0.54604268
-0.4034985 -0.11581426 0.5573442
-0.36995822 -0.082394086 0.55511761
-0.33627328 -0.048985578 0.54998589
-0.33580655 -0.015656153 0.54240704
-0.33586544 0.017622249 0.54336333
-0.33635771 0.051023774 0.55135679
-0.36977181 0.084388308 0.55242682
-0.43614778 0.11762012 0.54864335
-0.5031206 0.15106793 0.55198789
-0.60563314 -0.14965485 0.57210803
-0.4707768 -0.149369 0.56282425
-0.43878067 -0.14988999 0.57973599
-0.60559571 -0.11614817 0.57180357
-0.37128699 -0.116206 0.57429647
-0.60556161 -0.08264678 0.57152653
-0.33765611 -0.08266075 0.57244015
-0.60553432 -0.049149707 0.57130504
-0.60550368 -0.015656395 0.57105589
-0.60547972 0.017833939 0.57086229
-0.60545588 0.051320992 0.5706687
-0.60543549 0.084805921 0.57050252
-0.33747202 0.084781505 0.56945133
-0.60541499 0.11828806 0.57033682
-0.40410301 0.11812983 0.56519651
-0.37181213 0.11864323 0.58187675
-0.60539794 0.15176867 0.5701983
-0.47119495 0.15165921 0.56735039
-0.60721695 -0.18364948 0.58496618
-0.57479811 -0.18404286 0.5951848
-0.40653431 -0.15041481 0.5967803
-0.33882263 -0.11660035 0.59138227
-0.3048318 -0.082854278 0.58502221
-0.3049159 0.085177124 0.58658218
-0.33921888 0.11913421 0.59781694
-0.439042 0.15225467 0.58282256
-0.40665939 0.1528544 0.59840512
-0.54223025 -0.18443915 0.605479
-0.50950873 -0.18483739 0.61582208
-0.37377107 -0.15082641 0.61015129
-0.306104 -0.1169987 0.60863066
-0.27204913 -0.083126657 0.60269713
-0.27216589 0.085607558 0.6052258
-0.30636677 0.11961725 0.61350679
-0.37404463 0.15345861 0.6140995
-0.61067319 0.18723202 0.61302733
-0.47662988 -0.18523623 0.62618589
-0.44387108 -0.18576226 0.63985133
-0.64815891 -0.15177856 0.64107943
-0.34081051 -0.15124245 0.62366104
-0.30785564 -0.15178052 0.64113665
-0.64811778 -0.11774099 0.64076543
-0.27323368 -0.11745404 0.62834358
-0.64808035 -0.083708271 0.6404798
-0.23921584 -0.083487414 0.62612891
-0.64804304 -0.049680181 0.64019394
-0.64800572 -0.015656153 0.63990855
-0.64797199 0.018363381 0.63965154
-0.64795327 0.052380845 0.63950849
-0.23924971 0.086110756 0.62700868
-0.64793086 0.086395398 0.6393373
-0.64790845 0.1204074 0.63916588
-0.27344516 0.12021508 0.63292241
-0.64788985 0.15441787 0.6390233
-0.34119514 0.15406671 0.62990665
-0.5783025 0.18780944 0.62553287
-0.54574698 0.18839033 0.63810968
-0.41101912 -0.18634674 0.65503955
-0.24026 -0.1180294 0.65325713
-0.20604014 -0.083857276 0.6501565
-0.20606931 0.086667165 0.65110326
-0.24042937 0.12097681 0.6576581
-0.30811 0.15468083 0.64585686
-0.51300502 0.18897468 0.65075898
-0.48007241 0.18956092 0.66345191
-0.37794054 -0.1869354 0.67033243
-0.27489394 -0.15249352 0.66428924
-0.2069124 -0.11861186 0.67848325
-0.17248321 -0.084219553 0.67369366
-0.17252339 0.087228924 0.67543387
-0.20704137 0.12174692 0.68267202
-0.275157 0.15560947 0.66998482
-0.446953 0.19015177 0.67624688
-0.34463122 -0.18752699 0.68570185
-0.24188441 -0.15345345 0.69546056
-0.17318237 -0.11920054 0.70396852
-0.13857362 -0.084591791 0.69786286
-0.13860703 0.08779712 0.70003343
-0.24221303 0.15691875 0.70399809
-0.41364229 0.19074631 0.68911552
-0.38013861 0.19134417 0.70205903
-0.311638 -0.18851352 0.71132898
-0.69200945 -0.11938483 0.71194839
-0.69196856 -0.084804028 0.71165371
-0.69193184 -0.050228089 0.71138835
-0.69189095 -0.015656153 0.71109295
-0.69185829 0.018911527 0.71085739
-0.69182563 0.053475693 0.7106216
-0.69180107 0.088037416 0.71044469
-0.69178057 0.12259757 0.71029711
-0.17327479 0.12252601 0.70796967
-0.34602615 0.19163476 0.70835257
-0.20834091 -0.15435877 0.72487617
-0.13906451 -0.11979582 0.72974706
-0.10431403 0.088371627 0.72490573
-0.13914838 0.1233644 0.73519468
-0.20850737 0.15793037 0.73028231
-0.31261766 0.19261189 0.72950935
-0.27867675 -0.1898551 0.74618936
-0.17427374 -0.15517031 0.75122643
-0.10458565 -0.12049887 0.76018882
-0.10461698 0.12425927 0.76426077
-0.17439312 0.15893543 0.7563951
-0.13980566 -0.15599144 0.77788663
-0.13988197 0.15995349 0.7828424
-0.24538492 -0.19140284 0.78640604
-0.10492977 -0.15682301 0.80489349
-0.069638103 -0.12111699 0.78695512
-0.069638103 0.12507553 0.79076958
-0.28091228 0.19561808 0.79459071
-0.10496601 0.16098334 0.80960011
-0.21179681 -0.19335465 0.8371098
-0.069638103 -0.15766335 0.83219075
-0.069638103 0.16202557 0.83667326
-0.2473065 0.19754584 0.83633065
0 0 0 1 0 0 0 1 0 0 0 1 0 0 0 0 0 442 1 0 0
