ply
format ascii 1.0
comment PCL generated
element vertex 697
property float x
property float y
property float z
element camera 1
property float view_px
property float view_py
property float view_pz
property float x_axisx
property float x_axisy
property float x_axisz
property float y_axisx
property float y_axisy
property float y_axisz
property float z_axisx
property float z_axisy
property float z_axisz
property float focal
property float scalex
property float scaley
property float centerx
property float centery
property int viewportx
property int viewporty
property float k1
property float k2
end_header
-0.23150094 0.33306512 -0.20102668
-0.23095474 0.35483447 -0.20747733
-0.23055063 0.37671158 -0.21224952
-0.20916355 0.37837702 -0.19872725
-0.23082389 0.39956179 -0.20902264
-0.23135477 0.42288336 -0.20275283
-0.23219793 0.31137431 -0.19279575
-0.20993342 0.33439061 -0.18872678
-0.20941673 0.35622463 -0.1954385
-0.18780813 0.357806 -0.1817435
-0.18757816 0.3800602 -0.185063
-0.20937267 0.40126449 -0.19601095
-0.18772918 0.40298262 -0.18288302
-0.25539091 0.42518586 -0.18613589
-0.20981783 0.42461884 -0.1902281
-0.25478747 0.44685963 -0.1926682
-0.23226273 0.44695267 -0.19203055
-0.25563216 0.47084603 -0.18352449
-0.23371431 0.29045078 -0.17488801
-0.21072339 0.31280857 -0.17846465
-0.18831998 0.33593938 -0.17435563
-0.25721294 0.35957643 -0.16641176
-0.16599561 0.35940039 -0.16793609
-0.25660288 0.3815439 -0.17301571
-0.16578926 0.38175678 -0.17128682
-0.25599554 0.40341356 -0.17959046
-0.1658919 0.40471825 -0.16962028
-0.18809664 0.42637151 -0.17757916
-0.21065034 0.44879821 -0.17941368
-0.18885124 0.4506596 -0.16668749
-0.2340001 0.47269529 -0.17151308
-0.21217819 0.29186618 -0.15956628
-0.2584413 0.3153452 -0.15311468
-0.18908863 0.31432998 -0.16326129
-0.25782573 0.33751044 -0.15977824
-0.166493 0.33750167 -0.15985966
-0.14397842 0.36101168 -0.15398192
-0.14379527 0.3834694 -0.1573807
-0.14385597 0.40646735 -0.15625405
-0.16618644 0.42813709 -0.16483736
-0.14408603 0.42991808 -0.15198481
-0.28152284 0.45293462 -0.1511327
-0.16686302 0.45253709 -0.15385115
-0.28085676 0.47480845 -0.15778875
-0.21219197 0.47456229 -0.15938699
-0.28108719 0.49802783 -0.15548623
-0.25968069 0.27071497 -0.13969743
-0.23598845 0.27000928 -0.14803159
-0.25905961 0.29308039 -0.14642119
-0.19041835 0.29329783 -0.14406812
-0.16723455 0.31587532 -0.14781809
-0.14445142 0.3390812 -0.14520395
-0.12175172 0.36263633 -0.13991225
-0.121594 0.38520062 -0.14332688
-0.2828657 0.40889364 -0.13771427
-0.12162065 0.4082346 -0.14275002
-0.28219357 0.4309648 -0.1444304
-0.12179292 0.43171456 -0.13902009
-0.14468408 0.45443329 -0.14088619
-0.19020295 0.47644198 -0.14717734
-0.16803215 0.47833729 -0.13486683
-0.25902012 0.49942401 -0.14684868
-0.23694478 0.50105846 -0.13673806
-0.26160118 0.249329 -0.11890769
-0.21437074 0.27144453 -0.13108408
-0.16842896 0.29474294 -0.12842381
-0.14515144 0.31743699 -0.13221323
-0.28490368 0.3420831 -0.11734962
-0.12219094 0.34067625 -0.13040292
-0.28422073 0.36445358 -0.124174
-0.099313565 0.3642762 -0.12570846
-0.28354251 0.38672474 -0.13095117
-0.099180885 0.38694602 -0.12915576
-0.099181518 0.41001588 -0.12913907
-0.099316768 0.43357044 -0.12562525
-0.12231003 0.45634377 -0.12782454
-0.14567731 0.48024848 -0.12245405
-0.30754092 0.50341088 -0.12218678
-0.21480636 0.50288737 -0.1254251
-0.19250552 0.2728959 -0.11394215
-0.28627729 0.29703397 -0.10362363
-0.14621025 0.29620805 -0.11256385
-0.28558975 0.3196106 -0.11049378
-0.12283646 0.31901687 -0.11642694
-0.099707626 0.34228548 -0.11547053
-0.076666601 0.36595351 -0.11118412
-0.076554261 0.38871005 -0.11483252
-0.076536685 0.41181326 -0.11540341
-0.053683676 0.41362974 -0.10152435
-0.076646388 0.43548054 -0.11184049
-0.30976045 0.43690062 -0.10159206
-0.30901721 0.45917183 -0.10848832
-0.099739283 0.458271 -0.11464775
-0.076969266 0.46021524 -0.10135496
-0.30827737 0.48134163 -0.11535299
-0.12313696 0.482178 -0.10992122
-0.19250087 0.50473279 -0.1140095
-0.17002502 0.50659221 -0.10250664
-0.28766519 0.2515732 -0.089754939
-0.24015923 0.25087851 -0.098777175
-0.28696963 0.27435556 -0.096705079
-0.17038752 0.27436259 -0.096620202
-0.12381648 0.29781121 -0.095209002
-0.1002842 0.32061175 -0.10049057
-0.07699953 0.34391284 -0.10037184
-0.054062501 0.34555641 -0.085120916
-0.053810284 0.36770189 -0.096042275
-0.31125525 0.39204925 -0.087721825
-0.053709902 0.39048904 -0.10038877
-0.030645574 0.39228749 -0.085788608
-0.31050521 0.41452518 -0.094681382
-0.030618707 0.41546059 -0.087533712
-0.053766333 0.43740597 -0.097945333
-0.053997301 0.46217662 -0.087944031
-0.10040702 0.48412126 -0.097300053
-0.14737682 0.50846618 -0.090915561
-0.14806646 0.27592951 -0.07811749
-0.10116323 0.29943299 -0.077652693
-0.077491827 0.32222351 -0.084384322
-0.31276572 0.34678653 -0.073706388
-0.030892773 0.34721476 -0.069732666
-0.31200874 0.36947003 -0.0807302
-0.030722925 0.3694661 -0.080764651
-0.0073574223 0.39410099 -0.071064115
-0.007339472 0.41731066 -0.073395848
-0.030674322 0.43934917 -0.083921552
-0.0073675383 0.44131285 -0.069749951
-0.030820968 0.46415815 -0.074396372
-0.33649749 0.48807001 -0.071651697
-0.077486016 0.48608065 -0.084572673
-0.05437196 0.48805925 -0.071720719
-0.12455427 0.51035434 -0.079235435
-0.21937224 0.25339311 -0.066112757
-0.12556198 0.27768224 -0.057417512
-0.3142902 0.30110413 -0.059561253
-0.07824599 0.3010737 -0.059892058
-0.31352618 0.32399818 -0.066650152
-0.054455847 0.32385433 -0.068088293
-0.0074874703 0.34889206 -0.05417037
-0.0074016824 0.37125006 -0.065314889
0.016157428 0.39593238 -0.056196332
0.016157428 0.41917598 -0.059143186
-0.33813104 0.4430095 -0.057504773
0.016157428 0.44329238 -0.055463195
-0.33731338 0.46559307 -0.064585924
-0.0074368604 0.46615496 -0.060745001
-0.031061439 0.49005213 -0.058777213
-0.10155537 0.51225722 -0.06746459
-0.078378059 0.51417482 -0.055603027
-0.31582505 0.25499374 -0.045319557
-0.31505585 0.27810246 -0.052456856
-0.055059701 0.30273193 -0.041940808
-0.031171417 0.32550088 -0.051634312
0.016157428 0.35058635 -0.03844893
0.016157428 0.37305233 -0.049707413
-0.33977774 0.39752752 -0.043243766
0.039902437 0.39778358 -0.04116559
-0.33895248 0.42032135 -0.050390959
0.039874926 0.42106095 -0.044739127
0.039903522 0.44529325 -0.041024685
0.016157428 0.46816948 -0.046970844
-0.0075524952 0.49206185 -0.045723557
-0.055019855 0.51610434 -0.043666363
-0.19818944 0.25602651 -0.031902432
-0.10274903 0.27945754 -0.036452413
-0.031600565 0.30441141 -0.0237602
-0.34228292 0.32851169 -0.02154839
-0.007635029 0.32716534 -0.035002112
-0.34144396 0.35162467 -0.028814077
0.04004823 0.35233459 -0.022226691
-0.34060889 0.37462974 -0.03604579
0.039957922 0.37487081 -0.033957839
0.063880868 0.39965093 -0.026004672
0.063823938 0.42302886 -0.029702067
0.063873746 0.44731027 -0.026467204
0.039964739 0.47020239 -0.033072233
0.016157428 0.49409154 -0.03254056
-0.031479575 0.51805204 -0.031618595
-0.34397271 0.28195882 -0.0069144964
-0.079622731 0.28125879 -0.015180945
-0.34312582 0.30528998 -0.01424861
-0.0078631826 0.30611071 -0.0053640604
0.016157428 0.32884794 -0.018189073
0.064200036 0.35416177 -0.0052739382
0.064003669 0.37671021 -0.01802814
0.088096589 0.40153894 -0.010675669
-0.36825901 0.42630577 -0.0046606064
0.088009939 0.42502761 -0.01442802
-0.36735213 0.4493117 -0.012023449
0.088071272 0.44934657 -0.011771917
-0.36644953 0.47220907 -0.019351482
0.063987978 0.47225365 -0.019047499
0.088230506 0.47432628 -0.0048770905
0.040071052 0.49613595 -0.019262195
0.064190872 0.49819776 -0.005869031
-0.0077545457 0.52001488 -0.019476652
0.016157428 0.5219931 -0.0072387457
-0.0079799592 -0.99590671 0.0098055601
0.016157428 -0.99511254 0.0073488951
-0.0079799592 -0.97176945 0.0098056793
0.016157428 -0.97099406 0.0073490143
-0.0079799592 -0.94763207 0.0098056793
0.016157428 -0.94687563 0.0073490143
-0.0079799592 -0.92349464 0.0098055601
0.016157428 -0.92275715 0.0073490143
-0.0079799592 -0.8993572 0.0098055601
0.016157428 -0.89863855 0.0073487759
-0.0079799592 -0.87521988 0.0098055601
0.016157428 -0.87452012 0.0073487759
-0.0079799592 -0.8510825 0.0098055601
0.016157428 -0.85040152 0.0073488951
-0.0079799592 -0.82694501 0.0098055601
0.016157428 -0.82628804 0.0073670149
-0.0079799592 -0.80280763 0.0098055601
0.016157428 -0.80216944 0.0073670149
-0.0079799592 -0.77867037 0.0098056793
0.016157428 -0.77805096 0.0073671341
-0.0079799592 -0.75453299 0.0098056793
0.016157428 -0.75393224 0.0073670149
-0.0079799592 -0.73039556 0.0098055601
0.016157428 -0.72981358 0.0073671341
-0.0079799592 -0.70625818 0.0098055601
0.016157428 -0.70569503 0.0073670149
-0.0079799592 -0.6821208 0.0098055601
0.016157428 -0.68157637 0.0073670149
-0.0079799592 -0.65798348 0.0098055601
0.016157428 -0.65745783 0.0073671341
-0.0079799592 -0.63384598 0.0098055601
0.016157428 -0.63333917 0.0073671341
-0.0079799592 -0.60970861 0.0098055601
0.016157428 -0.60922056 0.0073671341
-0.0079799592 -0.58557135 0.0098056793
0.016157428 -0.58510196 0.0073670149
-0.0079799592 -0.56143397 0.0098056793
0.016157428 -0.5609833 0.0073670149
-0.0079799592 -0.53729641 0.0098056793
0.016157428 -0.53686464 0.0073670149
-0.0079799592 -0.51315904 0.0098055601
0.016157428 -0.51274621 0.0073670149
-0.0079799592 -0.48902169 0.0098055601
0.016157428 -0.48862752 0.0073671341
-0.0079799592 -0.46488425 0.0098056793
0.016157428 -0.46450892 0.0073671341
-0.0079799592 -0.44074687 0.0098055601
0.016157428 -0.44039023 0.0073671341
-0.0079799592 -0.41660947 0.0098055601
0.016157428 -0.41627163 0.0073668957
-0.0079799592 -0.39247224 0.0098055601
0.016157428 -0.39215305 0.0073670149
-0.0079799592 -0.36833477 0.0098056793
0.016157428 -0.36803445 0.0073672533
-0.0079799592 -0.34419739 0.0098056793
0.016157428 -0.34391576 0.0073671341
-0.0079799592 -0.32006004 0.0098055601
0.016157428 -0.31979731 0.0073671341
-0.0079799592 -0.29592267 0.0098055601
0.016157428 -0.29567856 0.0073671341
-0.0079799592 -0.27178523 0.0098055601
0.016157428 -0.27155995 0.0073671341
-0.0079799592 -0.24764782 0.0098055601
0.016157428 -0.24744126 0.0073670149
-0.0079799592 -0.22351049 0.0098055601
0.016157428 -0.22332282 0.0073670149
-0.0079799592 -0.1993731 0.0098056793
0.016157428 -0.19920418 0.0073671341
-0.0079799592 -0.17523575 0.0098056793
0.016157428 -0.17508548 0.0073671341
-0.0079799592 -0.15109833 0.0098056793
0.016157428 -0.15096688 0.0073671341
-0.0079799592 -0.12696096 0.0098055601
0.016157428 -0.1268483 0.0073671341
-0.0079799592 -0.10282347 0.0098055601
0.016157428 -0.10272969 0.0073671341
-0.0079799592 -0.078686133 0.0098055601
0.016157428 -0.078611001 0.0073670149
-0.0079799592 -0.054548737 0.0098055601
0.016157428 -0.054492403 0.0073671341
-0.0079799592 -0.030411344 0.0098055601
0.016157428 -0.030373897 0.0073671341
-0.0079799592 -0.0062739048 0.0098055601
0.016157428 -0.0062551107 0.0073671341
-0.0079799592 0.017863294 0.0098055601
0.016157428 0.017863391 0.0073671341
-0.0079799592 0.042000733 0.0098056793
0.016157428 0.041981988 0.0073668957
0.016157428 0.066100679 0.0073671341
-0.0079799592 0.066138178 0.0098056793
-0.0079799592 0.090275511 0.0098055601
0.016157428 0.090219229 0.0073671341
0.016157428 0.11433782 0.0073670149
-0.0079799592 0.11441296 0.0098055601
-0.0079799592 0.13855045 0.0098056793
0.016157428 0.13845646 0.0073671341
0.016157428 0.16257507 0.0073671341
-0.0079799592 0.16268773 0.0098055601
-0.0079799592 0.18682513 0.0098055601
0.016157428 0.18669376 0.0073671341
0.016157428 0.2108124 0.0073668957
-0.0079799592 0.21096252 0.0098056793
-0.0079799592 0.23509982 0.0098056793
0.016157428 0.23493095 0.0073671341
0.016157428 0.25904956 0.0073672533
-0.0079799592 0.25923732 0.0098056793
-0.056175329 0.28308347 0.0063673258
-0.0079799592 0.28337461 0.0098055601
0.016157428 0.2831682 0.0073671341
0.016157428 0.30728665 0.0073671341
0.040210292 0.33055058 -0.0011740923
-0.37007666 0.37995777 0.010097027
0.088298067 0.37856656 -0.0019515753
-0.36916792 0.40318874 0.0027189255
0.11255244 0.40344337 0.0047870874
0.11243632 0.42704865 0.0010156631
0.11249993 0.45140463 0.0030814409
0.11269464 0.47641501 0.0094050169
0.08851999 0.50028062 0.007658124
0.040258419 0.52398419 0.0050777197
-0.032277703 -0.99927437 0.020220995
0.040311228 -0.99659622 0.011937857
-0.032277703 -0.97505671 0.020220995
0.040311228 -0.97244245 0.011937857
0.064666338 -0.97656929 0.025013328
-0.032277703 -0.9508391 0.020220876
0.040311228 -0.94828862 0.011937857
0.064666338 -0.95231473 0.025013328
-0.032277703 -0.92662168 0.020220995
0.040311228 -0.92413473 0.011937857
0.064666338 -0.92806035 0.025013208
-0.032277703 -0.90240401 0.020220995
0.040311228 -0.89998096 0.011937857
0.064666338 -0.90380585 0.025013208
-0.032277703 -0.87818646 0.020220876
0.040311228 -0.87582707 0.011937857
0.064666338 -0.87955141 0.025013328
-0.032277703 -0.85396898 0.020220995
0.040311228 -0.85167336 0.011937857
0.064666338 -0.85529691 0.025013328
-0.032277703 -0.82975125 0.020220876
0.040311228 -0.82751971 0.011937857
0.064666338 -0.83104253 0.025013208
-0.032277703 -0.80553377 0.020220876
0.040311228 -0.80336583 0.011937976
0.064666338 -0.80678809 0.025013328
-0.032277703 -0.78131628 0.020221114
0.040311228 -0.779212 0.011937857
0.064666338 -0.78253353 0.025013208
-0.032277703 -0.75709867 0.020220876
0.040311228 -0.75505823 0.011937857
0.064666338 -0.7582792 0.025013328
-0.032277703 -0.73288107 0.020220995
0.040311228 -0.73090434 0.011937857
0.064666338 -0.73402464 0.025013328
-0.032277703 -0.70866352 0.020220995
0.040311228 -0.70675057 0.011937857
0.064666338 -0.7097702 0.025013328
-0.032277703 -0.68444586 0.020220995
0.040311228 -0.68259674 0.011937857
0.064666338 -0.68551576 0.025013208
-0.032277703 -0.66022843 0.020220876
0.040311228 -0.65844297 0.011937857
0.064666338 -0.66126132 0.025013328
-0.032277703 -0.63601077 0.020221114
0.040311228 -0.63428926 0.011937857
0.064666338 -0.63700688 0.025013328
-0.032277703 -0.61179328 0.020220876
0.040311228 -0.6101355 0.011937857
0.064666338 -0.61275244 0.025013328
-0.032277703 -0.58757567 0.020220876
0.040311228 -0.58598161 0.011937857
0.064666338 -0.58849794 0.025013208
-0.032277703 -0.56335813 0.020221114
0.040311228 -0.56182784 0.011937857
0.064666338 -0.56424344 0.025013328
-0.032277703 -0.53914052 0.020220995
0.040311228 -0.53767395 0.011937857
0.064666338 -0.53998911 0.025013328
-0.032277703 -0.51492304 0.020220876
0.040311228 -0.51352012 0.011937857
0.064666338 -0.51573461 0.025013328
-0.032277703 -0.49070546 0.020220995
0.040311228 -0.48936638 0.011937857
0.064666338 -0.49148014 0.025013328
-0.032277703 -0.46648782 0.020220995
0.040311228 -0.46521258 0.011937857
0.064666338 -0.4672257 0.025013328
-0.032277703 -0.44227034 0.020220876
0.040311228 -0.4410589 0.011937976
0.064666338 -0.44297111 0.025013208
-0.032277703 -0.41805273 0.020220995
0.040311228 -0.41690502 0.011937857
0.064666338 -0.41871688 0.025013328
-0.032277703 -0.39383522 0.020220995
0.040311228 -0.39275122 0.011937857
0.064666338 -0.39446235 0.025013328
-0.032277703 -0.36961755 0.020220876
0.040311228 -0.36859745 0.011937857
0.064666338 -0.37020788 0.025013328
-0.032277703 -0.34540009 0.020220995
0.040311228 -0.34444359 0.011937857
0.064666338 -0.34595335 0.025013208
-0.032277703 -0.32118243 0.020221114
0.040311228 -0.32028976 0.011937857
0.064666338 -0.32169905 0.025013328
-0.032277703 -0.29696491 0.020220876
0.040311228 -0.29613596 0.011937857
0.064666338 -0.29744458 0.025013328
-0.032277703 -0.27274737 0.020221114
0.040311228 -0.27198219 0.011937857
0.064666338 -0.27319005 0.025013328
-0.032277703 -0.24852976 0.020220876
0.040311228 -0.24782845 0.011937857
0.064666338 -0.24893558 0.025013328
-0.032277703 -0.2243122 0.020220876
0.040311228 -0.22367461 0.011937976
0.064666338 -0.22468115 0.025013208
-0.032277703 -0.20009468 0.020220995
0.040311228 -0.19952081 0.011937857
0.064666338 -0.20042673 0.025013328
-0.032277703 -0.17587703 0.020220876
0.040311228 -0.17536703 0.011937857
0.064666338 -0.17617224 0.025013328
-0.032277703 -0.15165947 0.020220876
0.040311228 -0.15121318 0.011937857
0.064666338 -0.15191777 0.025013328
-0.032277703 -0.12744197 0.020221114
0.040311228 -0.12705936 0.011937857
0.064666338 -0.12766333 0.025013328
-0.032277703 -0.1032244 0.020220876
0.040311228 -0.10290556 0.011937857
0.064666338 -0.10340886 0.025013208
-0.032277703 -0.079006851 0.020221114
0.040311228 -0.078751862 0.011937976
0.064666338 -0.079154477 0.025013328
-0.032277703 -0.054789331 0.020221114
0.040311228 -0.05459803 0.011937857
0.064666338 -0.054899994 0.025013328
-0.032277703 -0.030571681 0.020220995
0.040311228 -0.030444238 0.011937857
0.064666338 -0.030645516 0.025013328
-0.032277703 -0.0063542165 0.020221114
0.040311228 -0.0062903985 0.011937857
0.064666338 -0.0063910391 0.025013208
-0.032277703 0.017863343 0.020221114
0.040311228 0.017863343 0.011937857
0.064666338 0.017863438 0.025013328
-0.032277703 0.042081043 0.020220995
0.040311228 0.042017277 0.011937857
0.064666338 0.042117868 0.025013328
-0.032277703 0.066298507 0.020221114
0.040311228 0.066170968 0.011937857
0.064666338 0.06637235 0.025013328
-0.032277703 0.090516061 0.020220876
0.040311228 0.090324908 0.011937857
0.064666338 0.090626821 0.025013328
-0.03227742 0.11473323 0.020202637
0.040311228 0.11447854 0.011937976
0.064666338 0.11488131 0.025013328
-0.03227742 0.13895051 0.020202637
0.040311228 0.13863243 0.011937976
0.064666338 0.13913554 0.025013328
-0.032277703 0.16316883 0.020220995
0.040311228 0.16278617 0.011937976
0.064666338 0.16339006 0.025013328
-0.03227742 0.18738525 0.020202637
0.040311228 0.18694006 0.011937976
0.064666338 0.18764459 0.025013328
-0.03227742 0.21160281 0.020202637
0.040311228 0.2110938 0.011937857
0.064666338 0.21189901 0.025013328
-0.03227742 0.23582031 0.020202637
0.040311228 0.23524758 0.011937857
0.064666338 0.23615354 0.025013328
-0.03227742 0.26003754 0.020202637
0.040311228 0.25940144 0.011937857
0.064666338 0.26040798 0.025013328
-0.03227742 0.284255 0.020202756
0.040311228 0.28355518 0.011937857
0.064666338 0.2846624 0.025013328
0.040311228 0.30770901 0.011937976
0.064666338 0.30891693 0.025013328
0.064527728 0.33227023 0.016010046
-0.37098745 0.3566153 0.017491698
0.088617146 0.35600883 0.01186502
0.11284568 0.38044444 0.01431036
0.13725302 0.40536922 0.020422697
0.1371057 0.42908761 0.016595125
0.13716204 0.45347998 0.018059254
0.13738371 0.47852325 0.023818493
0.11307456 0.50244904 0.021743536
0.064553358 0.52602065 0.017674685
-0.057018936 -0.9822135 0.042896509
-0.057018936 -0.95782143 0.042896509
-0.057018936 -0.93342924 0.042896628
-0.057018936 -0.90903717 0.042896628
-0.057018936 -0.8846451 0.042896748
-0.057018936 -0.8602528 0.042896509
-0.057018504 -0.83585584 0.042877913
-0.057018936 -0.81146872 0.042896509
-0.057018936 -0.78707665 0.042896509
-0.057018504 -0.76267987 0.042878032
-0.057018504 -0.73828787 0.042878032
-0.057018504 -0.71389586 0.042877913
-0.057018504 -0.68950397 0.042878032
-0.057018504 -0.6651119 0.042878032
-0.057018504 -0.64071989 0.042878032
-0.057018504 -0.61632794 0.042877913
-0.057018504 -0.59193593 0.042877913
-0.057018504 -0.56754398 0.042878032
-0.057018504 -0.54315203 0.042877913
-0.057018504 -0.51876003 0.042878032
-0.057018504 -0.49436799 0.042877913
-0.057018504 -0.46997625 0.042878032
-0.057018504 -0.44558421 0.042878032
-0.057018504 -0.42119223 0.042878032
-0.057018504 -0.39680025 0.042877913
-0.057018504 -0.3724083 0.042878032
-0.057018504 -0.34801632 0.042878032
-0.057018504 -0.32362437 0.042877913
-0.057018936 -0.29923415 0.042896628
-0.057018936 -0.27484205 0.042896628
-0.057018936 -0.25044993 0.042896748
-0.057018936 -0.2260578 0.042896509
-0.057018936 -0.20166571 0.042896509
-0.057018936 -0.17727359 0.042896509
-0.057018936 -0.15288149 0.042896628
-0.057018936 -0.12848936 0.042896748
-0.057018936 -0.10409728 0.042896748
-0.057018936 -0.079705045 0.042896509
-0.057018936 -0.055312958 0.042896509
-0.057018936 -0.03092083 0.042896628
-0.057018936 -0.0065286476 0.042896748
-0.057018936 0.017863391 0.042896628
-0.057018936 0.042255573 0.042896748
-0.057018936 0.066647708 0.042896509
-0.057018936 0.091039747 0.042896509
-0.057018936 0.11543192 0.042896509
-0.057018936 0.13982396 0.042896509
-0.057018936 0.16421613 0.042896628
-0.057018936 0.18860814 0.042896748
-0.057018936 0.2130004 0.042896748
-0.057018936 0.23739249 0.042896509
-0.057018936 0.26178467 0.042896509
0.089119233 0.33403122 0.033605933
0.11330453 0.3578783 0.02921164
0.13765024 0.3823418 0.030742526
0.1622007 0.40731215 0.036196828
0.16202299 0.43114913 0.03234911
0.16206226 0.45557794 0.03319931
0.16230085 0.48065087 0.038364887
0.13786301 0.5046857 0.036270738
0.089068025 0.5282377 0.031388879
-0.0082262475 0.55430448 0.041799664
0.089565165 -0.98537576 0.052915454
0.089565165 -0.96090662 0.052915692
0.089565165 -0.93643713 0.052915454
0.089565165 -0.91196793 0.052915573
0.089565165 -0.88749868 0.052915454
0.089565165 -0.86302948 0.052915573
0.089565165 -0.83856022 0.052915573
0.089565165 -0.81409103 0.052915692
0.089565165 -0.78962177 0.052915454
0.089565165 -0.76515245 0.052915454
0.089565165 -0.7406832 0.052915573
0.089565165 -0.71621394 0.052915454
0.089565165 -0.69174474 0.052915692
0.089565165 -0.66727555 0.052915573
0.089565165 -0.64280629 0.052915573
0.089565165 -0.61833704 0.052915573
0.089565165 -0.59386772 0.052915454
0.089565165 -0.56939846 0.052915692
0.089565165 -0.54492915 0.052915573
0.089565165 -0.52045995 0.052915692
0.089565165 -0.49599084 0.052915573
0.089565165 -0.47152153 0.052915454
0.089565165 -0.44705236 0.052915573
0.089565165 -0.42258307 0.052915454
0.089565165 -0.39811385 0.052915573
0.089565165 -0.37364447 0.052915692
0.089565165 -0.34917533 0.052915692
0.089565165 -0.32470605 0.052915573
0.089565165 -0.30023676 0.052915454
0.089565165 -0.27576759 0.052915573
0.089565165 -0.25129831 0.052915454
0.089565165 -0.22682913 0.052915692
0.089565165 -0.20235984 0.052915454
0.089565165 -0.17789063 0.052915692
0.089565165 -0.15342133 0.052915692
0.089565165 -0.128952 0.052915454
0.089565165 -0.10448286 0.052915692
0.089565165 -0.080013588 0.052915573
0.089565165 -0.055544402 0.052915692
0.089565165 -0.03107512 0.052915573
0.089565165 -0.0066057928 0.052915454
0.089565165 0.017863343 0.052915454
0.089565165 0.042332716 0.052915573
0.089565165 0.066801801 0.052915573
0.089565165 0.091271132 0.052915692
0.089565165 0.11574042 0.052915692
0.089565165 0.14020965 0.052915454
0.089565165 0.16467896 0.052915573
0.089565165 0.1891481 0.052915573
0.089565165 0.21361749 0.052915692
0.089565165 0.23808657 0.052915692
0.089565165 0.2625559 0.052915573
0.089565165 0.28702518 0.052915692
0.1140275 0.33594111 0.052690983
0.13826567 0.35976666 0.046732664
0.1627149 0.38425699 0.047329307
0.18740082 0.40927684 0.052148342
0.18719038 0.43322909 0.048243284
0.18720247 0.45769349 0.048467398
0.18744922 0.48279831 0.053046584
0.16288134 0.50694317 0.050933003
0.11379755 0.53047419 0.045223117
0.13874549 0.5327332 0.059197783
-0.032846279 0.5569042 0.057151198
0.016157428 0.55596501 0.051606178
0.090032779 0.31336486 0.073163748
0.13923852 0.33787417 0.072007895
0.16350563 0.36167583 0.064448953
0.18804538 0.38619471 0.064109921
0.21289726 0.41134292 0.068923354
0.21261357 0.43533272 0.064316988
0.21258686 0.45982957 0.063883662
0.21283323 0.48496836 0.067883849
0.18813275 0.50922161 0.065731406
0.1639134 0.53500932 0.073277712
0.040692694 0.55763942 0.061491966
0.065380827 0.55932087 0.071420789
0.164757 0.33982915 0.091541886
0.18902905 0.36360666 0.082364798
0.21364519 0.38815299 0.081068635
0.23866823 0.41343808 0.085933805
0.23829421 0.43745512 0.080535531
0.23822036 0.46198928 0.079469323
0.23849891 0.48725092 0.083489776
0.21362174 0.51152414 0.080687761
0.18930483 0.53730565 0.087482214
0.090222821 0.56100965 0.081392765
0.11522026 0.56270903 0.091426969
0.11535978 0.3154704 0.095957875
0.21484078 0.36555925 0.10048234
0.23951735 0.39012992 0.09818995
0.26471511 0.41555575 0.10312629
0.2642388 0.43960172 0.096938848
0.2641041 0.46416745 0.095189214
0.26441813 0.48955882 0.099268317
0.23934941 0.51384568 0.095765948
0.21492395 0.53962564 0.10183299
0.1403746 0.56441891 0.10152411
0.14105031 0.31760642 0.11907959
0.19059019 0.34180999 0.1113354
0.24094705 0.36753619 0.11882603
0.26566872 0.39213023 0.11551404
0.29104072 0.41769364 0.12048447
0.29044858 0.44176799 0.11349154
0.290243 0.46636701 0.1110636
0.29059184 0.49188662 0.11518347
0.26532015 0.51618898 0.11098611
0.24077156 0.54196298 0.11629272
0.16574746 0.56636018 0.11298609
0.21674199 0.3438133 0.13135433
0.26735038 0.3695336 0.13735926
0.29210269 0.39415249 0.13302565
0.31765273 0.4198572 0.1380496
0.3169308 0.44395906 0.13023472
0.31664264 0.46859127 0.12711525
0.31702518 0.49423739 0.13125622
0.29153749 0.51855451 0.126351
0.26685181 0.54432166 0.13088274
0.19139507 0.56861019 0.1262728
0.21725522 0.57088238 0.13968825
0.16711135 0.31977132 0.14251518
0.24322066 0.34584352 0.15164244
0.29405707 0.37155381 0.15610552
0.3189047 0.39629751 0.15160275
0.34455433 0.42204422 0.15580606
0.34368625 0.44617027 0.14713192
0.34330347 0.47083485 0.14330697
0.34372398 0.49661452 0.14750898
0.31800494 0.52094263 0.14186239
0.29316956 0.54670477 0.14562464
0.24332961 0.57317311 0.15321505
0.19355157 0.32196763 0.16629207
0.27003124 0.34789929 0.17218471
0.34602815 0.39848348 0.17053366
0.34472808 0.52335668 0.15754259
0.31972483 0.54910636 0.1604805
0.26962093 0.57548314 0.16685414
0.32107237 0.37359759 0.17506826
0.29613015 0.57780892 0.18058729
0.22082692 0.32486749 0.19768536
0.2971783 0.34997901 0.19296587
0.34844461 0.37571111 0.19468057
0.32286331 0.58015764 0.19445586
0.32479382 0.35221949 0.21535373
0.24924175 0.32864246 0.23854911
0 0 0 1 0 0 0 1 0 0 0 1 0 0 0 0 0 697 1 0 0
