ply
format ascii 1.0
comment PCL generated
element vertex 474
property float x
property float y
property float z
element camera 1
property float view_px
property float view_py
property float view_pz
property float x_axisx
property float x_axisy
property float x_axisz
property float y_axisx
property float y_axisy
property float y_axisz
property float z_axisx
property float z_axisy
property float z_axisz
property float focal
property float scalex
property float scaley
property float centerx
property float centery
property int viewportx
property int viewporty
property float k1
property float k2
end_header
-0.10147016 0.25240636 -0.35440052
-0.082773089 0.25240636 -0.35440052
-0.064076014 0.25240636 -0.35440052
-0.045378949 0.25240636 -0.35440052
-0.026681874 0.25240636 -0.35440052
-0.007984804 0.25240636 -0.35440052
0.010712266 0.25240636 -0.35440052
0.029409336 0.25240636 -0.35440052
0.048106406 0.25240636 -0.35440052
0.066803485 0.25240636 -0.35440052
0.085500546 0.25240636 -0.35440052
0.10419762 0.25240636 -0.35440052
-0.12044725 0.23414925 -0.34920418
-0.10171017 0.23414925 -0.34920418
-0.0829731 0.23414925 -0.34920418
-0.064236023 0.23414925 -0.34920418
-0.045498952 0.23414925 -0.34920418
-0.026761878 0.23414925 -0.34920418
-0.0080248062 0.23414925 -0.34920418
0.010712266 0.23414925 -0.34920418
0.029449338 0.23414925 -0.34920418
0.04818641 0.23414925 -0.34920418
0.066923484 0.23414925 -0.34920418
0.085660554 0.23414925 -0.34920418
0.10439763 0.23414925 -0.34920418
0.1231347 0.23414925 -0.34920418
-0.12164727 0.19821799 -0.32693422
-0.10273877 0.19821799 -0.32693422
-0.08383026 0.19821799 -0.32693422
-0.064921759 0.19821799 -0.32693422
-0.046013251 0.19821799 -0.32693422
-0.027104747 0.19821799 -0.32693422
-0.0081962403 0.19821799 -0.32693422
0.010712266 0.19821799 -0.32693422
0.029620772 0.19821799 -0.32693422
0.048529278 0.19821799 -0.32693422
0.067437783 0.19821799 -0.32693422
0.086346291 0.19821799 -0.32693422
0.10525479 0.19821799 -0.32693422
0.1241633 0.19821799 -0.32693422
-0.12104452 0.21626538 -0.33811986
-0.10222213 0.21626538 -0.33811986
-0.083399728 0.21626538 -0.33811986
-0.064577334 0.21626538 -0.33811986
-0.045754932 0.21626538 -0.33811986
-0.026932534 0.21626538 -0.33811986
-0.0081101339 0.21626538 -0.33811986
0.010712266 0.21626538 -0.33811986
0.029534666 0.21626538 -0.33811986
0.048357066 0.21626538 -0.33811986
0.067179464 0.21626538 -0.33811986
0.086001866 0.21626538 -0.33811986
0.10482426 0.21626538 -0.33811986
0.12364666 0.21626538 -0.33811986
-0.12164994 0.25494811 -0.32688475
0.12419128 0.25499949 -0.3263284
-0.026966885 0.27295583 -0.33588845
-0.0081273094 0.27295583 -0.33588845
0.010712266 0.27295583 -0.33588845
0.029551841 0.27295583 -0.33588845
-0.12225489 0.18000384 -0.31565821
-0.10325959 0.18000384 -0.31565821
-0.084264278 0.18000384 -0.31565821
-0.065268971 0.18000384 -0.31565821
-0.046273664 0.18000384 -0.31565821
-0.027278353 0.18000384 -0.31565821
-0.0082830433 0.18000384 -0.31565821
0.010712266 0.18000384 -0.31565821
0.029707575 0.18000384 -0.31565821
0.048702884 0.18000384 -0.31565821
0.067698196 0.18000384 -0.31565821
0.086693503 0.18000384 -0.31565821
0.10568881 0.18000384 -0.31565821
0.12468413 0.18000384 -0.31565821
-0.10312491 0.27468869 -0.31857395
-0.084152527 0.27468991 -0.31856155
-0.065179564 0.27468991 -0.31856155
-0.046206608 0.27468991 -0.31856155
0.048658181 0.27468991 -0.31856155
0.06763114 0.27468991 -0.31856155
0.086604096 0.27468991 -0.31856155
0.10557658 0.27468869 -0.31857395
-0.027305644 0.2941668 -0.31388545
-0.008296689 0.2941668 -0.31388545
0.010712266 0.2941668 -0.31388545
0.029721221 0.2941668 -0.31388545
-0.10378579 0.16162245 -0.30426574
-0.084702782 0.16162245 -0.30426574
-0.065619774 0.16162245 -0.30426574
-0.046536762 0.16162245 -0.30426574
-0.027453754 0.16162245 -0.30426574
-0.0083707441 0.16162245 -0.30426574
0.010712266 0.16162245 -0.30426574
0.029795276 0.16162245 -0.30426574
0.048878286 0.16162245 -0.30426574
0.06796129 0.16162245 -0.30426574
0.087044306 0.16162245 -0.30426574
0.10612731 0.16162245 -0.30426574
-0.10431629 0.14306997 -0.29278004
-0.085144863 0.14306997 -0.29278004
-0.065973431 0.14306997 -0.29278004
-0.04680201 0.14306997 -0.29278004
-0.027630582 0.14306997 -0.29278004
-0.0084591582 0.14306997 -0.29278004
0.010712266 0.14306997 -0.29278004
0.02988369 0.14306997 -0.29278004
0.049055114 0.14306997 -0.29278004
0.068226546 0.14306997 -0.29278004
0.087397963 0.14306997 -0.29278004
0.10656939 0.14306997 -0.29278004
-0.10482921 0.29763824 -0.28167486
-0.085574269 0.2976436 -0.2816236
-0.066316962 0.2976436 -0.2816236
-0.047059659 0.2976436 -0.2816236
0.04922688 0.2976436 -0.2816236
0.068484187 0.2976436 -0.2816236
0.087741494 0.2976436 -0.2816236
0.10699683 0.29763824 -0.28167486
-0.027671129 0.3159169 -0.29014683
-0.0084794313 0.3159169 -0.29014683
0.010712266 0.3159169 -0.29014683
0.029903963 0.3159169 -0.29014683
-0.10539336 0.10544513 -0.2694608
-0.086042412 0.10544513 -0.2694608
-0.066691481 0.10544513 -0.2694608
-0.047340546 0.10544513 -0.2694608
-0.027989607 0.10544513 -0.2694608
-0.0086386707 0.10544513 -0.2694608
0.010712266 0.10544513 -0.2694608
0.030063203 0.10544513 -0.2694608
0.049414139 0.10544513 -0.2694608
0.068765074 0.10544513 -0.2694608
0.088116013 0.10544513 -0.2694608
0.10746694 0.10544513 -0.2694608
-0.10485231 0.12434523 -0.28117478
-0.085591547 0.12434523 -0.28117478
-0.066330783 0.12434523 -0.28117478
-0.047070023 0.12434523 -0.28117478
-0.027809259 0.12434523 -0.28117478
-0.0085484963 0.12434523 -0.28117478
0.010712266 0.12434523 -0.28117478
0.029973028 0.12434523 -0.28117478
0.04923379 0.12434523 -0.28117478
0.068494558 0.12434523 -0.28117478
0.087755315 0.12434523 -0.28117478
0.10701608 0.12434523 -0.28117478
-0.10593889 0.086366996 -0.25764966
-0.086497024 0.086366996 -0.25764966
-0.067055166 0.086366996 -0.25764966
-0.047613312 0.086366996 -0.25764966
-0.02817145 0.086366996 -0.25764966
-0.008729592 0.086366996 -0.25764966
0.010712266 0.086366996 -0.25764966
0.030154124 0.086366996 -0.25764966
0.049595982 0.086366996 -0.25764966
0.06903784 0.086366996 -0.25764966
0.088479698 0.086366996 -0.25764966
0.10792156 0.086366996 -0.25764966
-0.028068502 0.3382875 -0.26433635
-0.0086781178 0.3382875 -0.26433635
0.010712266 0.3382875 -0.26433635
0.03010265 0.3382875 -0.26433635
-0.10660668 0.32133874 -0.2431916
-0.087038264 0.32129306 -0.24358797
-0.067488559 0.32129449 -0.24357498
-0.047938354 0.32129449 -0.24357498
0.049812678 0.32129449 -0.24357498
0.069362886 0.32129449 -0.24357498
0.088913091 0.32129449 -0.24357498
0.10847907 0.32134187 -0.24316502
-0.02850344 0.36137491 -0.23608637
-0.0088955872 0.36137491 -0.23608637
0.010712266 0.36137491 -0.23608637
0.030320119 0.36137491 -0.23608637
-0.10844347 0.34578997 -0.20342374
-0.08854641 0.34566903 -0.20440519
-0.068696767 0.34567758 -0.20433724
-0.048844513 0.34567758 -0.20433724
0.050416782 0.34567758 -0.20433724
0.070269048 0.34567758 -0.20433724
0.090120047 0.34567258 -0.20437801
0.11000976 0.34579346 -0.20339656
-0.028985329 0.38531983 -0.20478678
-0.0091365315 0.38531983 -0.20478678
0.010712266 0.38531983 -0.20478678
0.030561063 0.38531983 -0.20478678
-0.029494695 0.41000751 -0.1717025
-0.0093912147 0.41000751 -0.1717025
0.010712266 0.41000751 -0.1717025
0.030815747 0.41000751 -0.1717025
-0.11034584 0.37103942 -0.16223621
-0.090102367 0.3708111 -0.16398025
-0.069942467 0.37082407 -0.1638819
-0.049778782 0.37082407 -0.1638819
0.051039632 0.37082407 -0.1638819
0.071203314 0.37082407 -0.1638819
0.091364831 0.3708148 -0.16395235
0.11159727 0.37105039 -0.16215181
-0.091708429 0.39675596 -0.12225342
-0.07122653 0.39676589 -0.12218082
-0.050741829 0.39676589 -0.12218082
0.051681664 0.39676589 -0.12218082
0.072166361 0.39676589 -0.12218082
0.092649713 0.3967599 -0.12222433
-0.030069023 0.43585426 -0.13439882
-0.0096783787 0.43585426 -0.13439882
0.010712266 0.43585426 -0.13439882
0.031102911 0.43585426 -0.13439882
-0.11235697 0.39724904 -0.11869419
0.11327612 0.39727125 -0.11853421
-0.093365923 0.42353851 -0.079190493
-0.072551668 0.42354509 -0.079145432
-0.051736034 0.4235473 -0.07913053
0.052344464 0.4235473 -0.07913053
0.073160566 0.4235473 -0.07913053
0.093975745 0.42354298 -0.079160452
-0.030797128 0.46388993 -0.087107182
-0.010042431 0.46388993 -0.087107182
0.010712266 0.46388993 -0.087107182
0.031466961 0.46388993 -0.087107182
-0.1144395 0.42435533 -0.073605776
0.11500946 0.42437083 -0.073500633
-0.09507855 0.45120454 -0.034695268
-0.073921338 0.45120949 -0.034664273
-0.052762933 0.45120949 -0.034664273
0.053029068 0.45120949 -0.034664273
0.074187465 0.45120949 -0.034664273
0.09534587 0.45120949 -0.034664273
-0.11667143 0.45265368 -0.025283337
0.11687014 0.4526729 -0.025158644
-0.031724986 0.49485111 -0.026840925
-0.010506362 0.49485111 -0.026840925
0.010712266 0.49485111 -0.026840925
0.031930894 0.49485111 -0.026840925
-0.053992003 0.071177535 0.01855588
-0.032327801 0.071081474 0.012313247
-0.010807768 0.071081474 0.012313247
0.010712266 0.071081474 0.012313247
0.032232299 0.071081474 0.012313247
0.053849682 0.071178794 0.018636346
-0.096848473 0.47979656 0.011288762
-0.075336821 0.47979897 0.011304855
-0.053824544 0.47979897 0.011304855
0.05373681 0.47979897 0.011304855
0.075249076 0.47979897 0.011304855
0.096761353 0.47979897 0.011304855
-0.054304399 0.049713675 0.032082915
-0.032532148 0.049663696 0.025586009
-0.010909941 0.049663696 0.025586009
0.010712266 0.049663696 0.025586009
0.032334473 0.049663696 0.025586009
0.054057959 0.049714196 0.032164335
-0.11901052 0.48207119 0.025359631
0.11882704 0.48212349 0.025683045
-0.032946467 0.006212024 0.052496791
-0.011117101 0.006212024 0.052496791
0.010712266 0.006212024 0.052496791
0.032541633 0.006212024 0.052496791
-0.054620206 0.028041353 0.045757651
-0.032738194 0.028041353 0.038969159
-0.011012964 0.028041353 0.038969159
0.010712266 0.028041353 0.038969159
0.032437496 0.028041353 0.038969159
0.054268509 0.028041441 0.045839667
-0.032878086 0.52933049 0.048055291
-0.01108291 0.52933049 0.048055291
0.010712266 0.52933049 0.048055291
0.032507442 0.52933049 0.048055291
-0.033156749 -0.015827592 0.066154718
-0.011222241 -0.015827592 0.066154718
0.010712266 -0.015827592 0.066154718
0.032646775 -0.015827592 0.066154718
-0.054938711 0.0061576646 0.059549451
0.054480858 0.0061570574 0.059632182
-0.098677993 0.50935853 0.058821201
-0.076800451 0.50936133 0.058837652
-0.054922275 0.50936133 0.058837652
0.054468624 0.50936133 0.058837652
0.076346807 0.50936133 0.058837652
0.098224983 0.50936133 0.058837652
-0.033368804 -0.038080137 0.079928279
-0.011328269 -0.038080137 0.079928279
0.010712266 -0.038080137 0.079928279
0.032752801 -0.038080137 0.079928279
-0.055260725 -0.015940644 0.073493004
0.054695547 -0.015941814 0.07357657
-0.12158449 0.51312959 0.081087589
0.12097315 0.51318932 0.081440806
-0.033583179 -0.060549419 0.093852401
-0.011435457 -0.060549419 0.093852401
0.010712266 -0.060549419 0.093852401
0.032859989 -0.060549419 0.093852401
-0.055585518 -0.038256388 0.087557197
0.05491209 -0.03825834 0.087641716
-0.033799652 -0.083238393 0.10791278
-0.011543693 -0.083238393 0.10791278
0.010712266 -0.083238393 0.10791278
0.032968223 -0.083238393 0.10791278
-0.05591353 -0.060793038 0.10176051
0.05513078 -0.060795639 0.10184574
-0.10057148 0.53994668 0.10801554
-0.078314736 0.53994668 0.10801554
-0.05605799 0.53994668 0.10801554
0.055225767 0.53994668 0.10801554
0.077482522 0.53994668 0.10801554
0.099739268 0.53994668 0.10801554
-0.034017984 -0.10614932 0.12209392
-0.011652859 -0.10614932 0.12209392
0.010712266 -0.10614932 0.12209392
0.033077389 -0.10614932 0.12209392
-0.056245208 -0.083554313 0.11612225
0.055351906 -0.08355774 0.11620831
-0.034238741 -0.12928708 0.13643229
-0.011763237 -0.12928708 0.13643229
0.010712266 -0.12928708 0.13643229
0.033187769 -0.12928708 0.13643229
-0.056579791 -0.1065428 0.13061035
0.055574976 -0.10654682 0.13069749
-0.034461681 -0.15265442 0.15091276
-0.011874707 -0.15265442 0.15091276
0.010712266 -0.15265442 0.15091276
0.033299237 -0.15265442 0.15091276
-0.056918144 -0.12976292 0.14526153
0.055800561 -0.12976755 0.14534938
-0.034686849 -0.17625463 0.16553783
-0.011987293 -0.17625463 0.16553783
0.010712266 -0.17625463 0.16553783
0.033411823 -0.17625463 0.16553783
-0.057259515 -0.1532166 0.160043
0.05602815 -0.15322216 0.16013181
-0.034913991 -0.20008995 0.1802913
-0.012100862 -0.20008995 0.1802913
0.010712266 -0.20008995 0.1802913
0.033525392 -0.20008995 0.1802913
-0.057604335 -0.17690849 0.17497456
0.056258325 -0.17691591 0.17508221
-0.035143699 -0.22416644 0.19521117
-0.012215717 -0.22416644 0.19521117
0.010712266 -0.22416644 0.19521117
0.033640251 -0.22416644 0.19521117
-0.057953097 -0.20084326 0.19007647
0.056490574 -0.20085007 0.19016695
-0.035375737 -0.24848668 0.21028244
-0.012331735 -0.24848668 0.21028244
0.010712266 -0.24848668 0.21028244
0.033756267 -0.24848668 0.21028244
-0.058305018 -0.22502191 0.20531487
0.056725197 -0.22502975 0.20540655
-0.035609845 -0.2730523 0.22548807
-0.01244879 -0.2730523 0.22548807
0.010712266 -0.2730523 0.22548807
0.03387332 -0.2730523 0.22548807
-0.058660991 -0.24945156 0.22072887
0.056962527 -0.24946015 0.22082138
-0.035846628 -0.29787099 0.24086797
-0.012567181 -0.29787099 0.24086797
0.010712266 -0.29787099 0.24086797
0.033991713 -0.29787099 0.24086797
-0.059020221 -0.27413276 0.23628426
0.057202034 -0.274142 0.2363776
-0.036085848 -0.3229444 0.25640559
-0.012686791 -0.3229444 0.25640559
0.010712266 -0.3229444 0.25640559
0.034111321 -0.3229444 0.25640559
-0.059383631 -0.29907286 0.25202036
0.057444319 -0.29908282 0.25211442
-0.059750408 -0.32427207 0.26790202
0.057688847 -0.32428297 0.26799715
-0.060121484 -0.34973857 0.28397012
-0.036327545 -0.34827712 0.27210402
-0.012807639 -0.34827712 0.27210402
0.010712266 -0.34827712 0.27210402
0.034232169 -0.34827712 0.27210402
0.057936247 -0.34975052 0.28406668
-0.06049604 -0.37547225 0.3001889
-0.036571741 -0.37387258 0.28796506
-0.012929589 -0.3738701 0.28794587
0.010712266 -0.3738701 0.28794587
0.03435427 -0.37387258 0.28796506
0.058185969 -0.37548521 0.30028653
-0.036818791 -0.39973804 0.3040117
-0.013052963 -0.39973271 0.30397248
0.010712266 -0.39973271 0.30397248
0.034477949 -0.39974082 0.30403113
-0.037068442 -0.42587519 0.32022643
-0.01317763 -0.4258666 0.32016754
0.010712266 -0.4258666 0.32016754
0.034602769 -0.42587817 0.32024622
-0.060875036 -0.40148252 0.31659997
0.058438342 -0.40149322 0.31667852
-0.037321027 -0.45229155 0.33663285
-0.013303461 -0.45227304 0.33651304
0.010712266 -0.45227304 0.33651304
0.034728914 -0.45229155 0.33663285
-0.061257623 -0.4277679 0.33316636
0.058693726 -0.42778257 0.33326602
-0.037575994 -0.47898528 0.35319316
-0.013430778 -0.47896245 0.3530519
0.010712266 -0.47896245 0.3530519
0.03485655 -0.4789885 0.35321319
-0.061644323 -0.45433593 0.34991121
0.058951542 -0.45435148 0.35001194
-0.037833672 -0.50596404 0.36993027
-0.013559449 -0.50593638 0.36976731
0.010712266 -0.50593638 0.36976731
0.034985393 -0.50596744 0.36995077
-0.062038966 -0.48121724 0.36699951
0.059215903 -0.48124692 0.36718261
-0.038094442 -0.53323579 0.38686764
-0.013689503 -0.53319937 0.38666177
0.010712266 -0.53319937 0.38666177
0.035115622 -0.53323579 0.38686764
-0.062439822 -0.50840735 0.38435757
0.059483178 -0.50843865 0.38454235
-0.062845133 -0.5358988 0.4019078
0.059753414 -0.53593194 0.40209484
-0.038357701 -0.56079829 0.40396667
-0.013820795 -0.56075215 0.40371716
0.010712266 -0.56075215 0.40371716
0.035247408 -0.5608021 0.40398753
-0.038623821 -0.58865976 0.42125165
-0.013953671 -0.58860719 0.42097819
0.010712266 -0.58860719 0.42097819
0.035380471 -0.58866388 0.42127275
-0.063254468 -0.56369251 0.41963267
0.060026661 -0.56373131 0.41984248
-0.038893167 -0.61682922 0.43874621
-0.014087996 -0.6167655 0.43842721
0.010712266 -0.6167655 0.43842721
0.035514981 -0.61682922 0.43874621
-0.063668884 -0.59180158 0.43757689
0.060302641 -0.59183848 0.43776834
-0.039165139 -0.64530367 0.45641148
-0.014223624 -0.64522767 0.45604599
0.010712266 -0.64522767 0.45604599
0.035650969 -0.64530367 0.45641148
-0.064087957 -0.62022728 0.45572364
0.06058206 -0.62026602 0.455917
-0.039440118 -0.67409205 0.47427166
-0.014360912 -0.67400765 0.47388029
0.010712266 -0.67400765 0.47388029
0.035788622 -0.67409664 0.47429311
-0.064511284 -0.64897054 0.47405398
0.060864311 -0.64901125 0.47424972
-0.039718475 -0.70320439 0.49235141
-0.01449972 -0.70310634 0.49191189
0.010712266 -0.70310634 0.49191189
0.035927638 -0.70320439 0.49235141
-0.064939938 -0.67804593 0.49261534
0.061150115 -0.67808855 0.49281311
-0.0399996 -0.73263663 0.51061106
-0.014640072 -0.73252892 0.51014447
0.010712266 -0.73252892 0.51014447
0.036068201 -0.73263663 0.51061106
-0.065373503 -0.70745456 0.51138937
0.061438847 -0.70749408 0.51156712
-0.040283874 -0.76239884 0.52907526
-0.014781823 -0.76227546 0.52855825
0.010712266 -0.76227546 0.52855825
0.036210507 -0.76240414 0.52909768
-0.065811545 -0.7371968 0.53035712
0.061731257 -0.73724371 0.53055966
-0.014925346 -0.79236221 0.54720223
0.010712266 -0.79236221 0.54720223
-0.040571354 -0.79249662 0.54774773
0.036354251 -0.79250222 0.5477705
-0.066255182 -0.76728892 0.54956722
0.062026702 -0.76733243 0.54974937
-0.040862449 -0.82294142 0.5666548
-0.015070491 -0.82278973 0.56605732
0.010712266 -0.82278973 0.56605732
0.036499623 -0.82294142 0.5666548
-0.066704005 -0.79773223 0.56900191
0.062325951 -0.79777759 0.56918585
0 0 0 1 0 0 0 1 0 0 0 1 0 0 0 0 0 474 1 0 0
