ply
format ascii 1.0
comment PCL generated
element vertex 404
property float x
property float y
property float z
element camera 1
property float view_px
property float view_py
property float view_pz
property float x_axisx
property float x_axisy
property float x_axisz
property float y_axisx
property float y_axisy
property float y_axisz
property float z_axisx
property float z_axisy
property float z_axisz
property float focal
property float scalex
property float scaley
property float centerx
property float centery
property int viewportx
property int viewporty
property float k1
property float k2
end_header
-0.53041416 -0.033648789 -0.34308231
-0.53041416 -0.01117624 -0.34308231
-0.53041416 0.011296311 -0.34308219
-0.53178668 -0.056235794 -0.33565331
-0.50999087 -0.056299567 -0.33150804
-0.50860929 -0.033677764 -0.33931124
-0.48824593 -0.033775054 -0.32668531
-0.50853866 -0.01117619 -0.33971012
-0.48817781 -0.01117624 -0.32708788
-0.50857127 0.011323603 -0.33952606
-0.48820662 0.011420846 -0.32691753
-0.53098899 0.03381677 -0.33997095
-0.50882679 0.033845838 -0.33808255
-0.51070225 0.12437928 -0.32749021
-0.48794985 0.12433563 -0.32843375
-0.51070225 0.14697187 -0.32749009
-0.48794985 0.14692095 -0.32843375
-0.51070225 0.1695645 -0.32749021
-0.48794985 0.16950627 -0.32843375
-0.51070225 0.192157 -0.32749021
-0.48794985 0.1920916 -0.32843387
-0.53596383 -0.079287559 -0.31304383
-0.4896079 -0.056497566 -0.31864345
-0.46770597 -0.033872992 -0.31394994
-0.46764031 -0.01117624 -0.31435609
-0.46766809 0.011518734 -0.31418407
-0.48847419 0.03404206 -0.32533765
-0.46794084 0.034239661 -0.31249678
-0.53389585 0.056676622 -0.32423699
-0.51289505 0.056887474 -0.31510508
-0.53492934 0.12478794 -0.31864345
-0.46622604 0.12458178 -0.3231045
-0.44548813 0.12514834 -0.3108387
-0.53492934 0.14744855 -0.31864333
-0.46622604 0.14720818 -0.3231045
-0.44548813 0.14786913 -0.3108387
-0.53492934 0.17010917 -0.31864321
-0.46622604 0.16983443 -0.3231045
-0.44548813 0.1705898 -0.3108387
-0.53492934 0.19276997 -0.31864309
-0.46622604 0.19246089 -0.3231045
-0.44548813 0.19331063 -0.3108387
-0.51242858 0.21550015 -0.31774008
-0.48947087 0.21536826 -0.31945264
-0.46784484 0.21585803 -0.31309068
-0.51662111 -0.19397564 -0.29406071
-0.49292544 -0.19366819 -0.29905415
-0.51480567 -0.17057326 -0.3043139
-0.49146298 -0.17039128 -0.30768967
-0.46971393 -0.1707233 -0.30152881
-0.51617026 -0.14815815 -0.2966069
-0.49261042 -0.14795932 -0.30091441
-0.47081888 -0.1482466 -0.29469371
-0.49387303 -0.12544909 -0.29345894
-0.51566994 -0.079601884 -0.29943275
-0.49315801 -0.079642475 -0.29768097
-0.56247938 -0.056888819 -0.29323721
-0.46904272 -0.056697197 -0.30568087
-0.56247938 -0.034032479 -0.29323745
-0.44698456 -0.033971868 -0.30111921
-0.56247938 -0.01117624 -0.29323745
-0.44692147 -0.01117619 -0.30152881
-0.56247634 0.011679903 -0.29325318
-0.44694817 0.011617461 -0.30135548
-0.56247634 0.034536045 -0.29325318
-0.44722721 0.034439243 -0.29954302
-0.56250077 0.057395104 -0.29312646
-0.49237838 0.057183657 -0.3022846
-0.47061944 0.057330336 -0.29592729
-0.51646703 0.080196559 -0.29493093
-0.49284264 0.080054626 -0.29954302
-0.4710671 0.080251142 -0.29315817
-0.51464713 0.10264429 -0.30520976
-0.49134615 0.10252224 -0.30837953
-0.46956375 0.10275024 -0.30245769
-0.5379051 0.21667054 -0.30253649
-0.4476282 0.21710135 -0.29693878
-0.47120795 -0.1940849 -0.29228687
-0.54104888 -0.17158595 -0.28552032
-0.44950876 -0.17162886 -0.284724
-0.51779515 -0.1256811 -0.28742945
-0.47209862 -0.12570617 -0.2867775
-0.51809371 -0.10283212 -0.285743
-0.49406084 -0.10262863 -0.29235005
-0.47231731 -0.10284187 -0.28542483
-0.56473154 -0.080015287 -0.28153503
-0.47139508 -0.079793751 -0.29112935
-0.44829804 -0.056898855 -0.29258776
-0.4273665 -0.057101898 -0.27939439
-0.42608434 -0.034071535 -0.28816068
-0.42602387 -0.01117624 -0.28857374
-0.42604947 0.011717178 -0.28839898
-0.42633316 0.034640655 -0.28645921
-0.45070615 0.057768758 -0.27694654
-0.54052877 0.10329367 -0.28833532
-0.44920486 0.10335679 -0.28669786
-0.56258917 0.12598775 -0.29266703
-0.42605412 0.12618624 -0.28836715
-0.56259221 0.14884917 -0.29265118
-0.42605412 0.14908005 -0.28836715
-0.56259221 0.17170997 -0.29265118
-0.42605412 0.17197378 -0.28836715
-0.56259221 0.19457075 -0.29265106
-0.42605412 0.19486755 -0.28836715
-0.49877986 -0.21887462 -0.2644856
-0.45187515 -0.19549718 -0.26935375
-0.54411596 -0.14943711 -0.26891911
-0.45082456 -0.14910167 -0.27617788
-0.45312986 -0.12669052 -0.26120436
-0.45195693 -0.080308855 -0.26882267
-0.40624812 -0.057306819 -0.26608324
-0.40499815 -0.034172095 -0.27510428
-0.4049404 -0.01117624 -0.27552092
-0.40496704 0.011817884 -0.27532864
-0.40525153 0.034843646 -0.27327538
-0.42988977 0.058110666 -0.26214278
-0.45124918 0.080858991 -0.27341986
-0.45369107 -0.10369997 -0.25755918
-0.4325884 -0.080889151 -0.24369204
-0.38753858 -0.034497842 -0.23279893
-0.38686216 -0.01117624 -0.23796773
-0.38714623 0.012122124 -0.23579693
-0.3897126 -0.058075037 -0.21618652
-0.36601698 -0.034610312 -0.21818554
-0.36535582 -0.011176338 -0.22355366
-0.36563185 0.012233607 -0.22131228
-0.38859659 0.035591297 -0.2247144
-0.36822811 -0.058320645 -0.20023346
-0.34434691 -0.034727875 -0.20290935
-0.34370536 -0.01117619 -0.20846546
-0.32176957 -0.01117624 -0.19386959
-0.34398612 0.012351319 -0.20603406
-0.36706361 0.035822667 -0.20968795
-0.34535557 0.036061503 -0.19417393
-0.34652725 -0.058570258 -0.18402708
-0.32237956 -0.034840941 -0.18820941
-0.29959911 -0.01117624 -0.17937255
-0.32203773 0.012464138 -0.19138098
-0.32339451 0.036298312 -0.17879188
-0.3246066 -0.058823925 -0.16754508
-0.30016923 -0.034952916 -0.17367589
-0.27714977 -0.01117624 -0.16547883
-0.29985055 0.012575818 -0.17686033
-0.27738711 0.012683297 -0.16290951
-0.30113959 0.036526371 -0.16397905
-0.30231422 -0.059059545 -0.15224183
-0.27768555 -0.035060644 -0.15967882
-0.25497946 -0.035167824 -0.14576375
-0.25449127 -0.01117619 -0.15152919
-0.25470638 0.012790378 -0.14898872
-0.27859747 0.036744539 -0.14980698
-0.27972409 -0.059284832 -0.13761091
-0.23201457 -0.03527046 -0.13242757
-0.23156965 -0.011176289 -0.13820732
-0.23176147 0.012892716 -0.13571537
-0.2558006 0.036955986 -0.13606656
-0.25680503 -0.059491139 -0.12420464
-0.23361705 -0.059685182 -0.11161053
-0.20885228 -0.035373982 -0.11897671
-0.20845211 -0.01117624 -0.12475312
-0.18510821 -0.01117624 -0.11161053
-0.2086201 0.012995696 -0.12232828
-0.23273611 0.037156407 -0.12305415
-0.21023101 -0.059878089 -0.099076748
-0.1854592 -0.035474587 -0.10591102
-0.16155727 -0.01117624 -0.098555326
-0.18525329 0.013096202 -0.10925472
-0.16167946 0.013196116 -0.096287966
-0.20947884 0.037358362 -0.10993326
-0.18599086 0.037553295 -0.09727788
-0.1866269 -0.060064767 -0.086950183
-0.16186209 -0.035574697 -0.092898726
-0.13806961 -0.035675801 -0.079778671
-0.13780953 -0.011176338 -0.08540976
-0.13791093 0.013296872 -0.083214045
-0.16231744 0.037750803 -0.084448338
-0.16285488 -0.060256884 -0.074474573
-0.13888857 -0.06044811 -0.062047958
-0.11406521 -0.035774775 -0.066916585
-0.11385235 -0.01117619 -0.072446823
-0.11393192 0.013395501 -0.070379615
-0.13844964 0.037949491 -0.071550727
-0.11471967 -0.060634986 -0.049913287
-0.089864865 -0.035874292 -0.053986788
-0.089697167 -0.011176388 -0.059432864
-0.06534408 -0.01117619 -0.046312571
-0.089756794 0.013494773 -0.057496548
-0.065385297 0.013594588 -0.044527769
-0.11437099 0.038142893 -0.05897212
-0.090102889 0.038338769 -0.046256661
-0.090366222 -0.0608229 -0.037704945
-0.065468304 -0.035974652 -0.040933609
-0.040870972 -0.036075458 -0.027867556
-0.040789504 -0.011176141 -0.033158898
-0.040815186 0.013694897 -0.031490922
-0.065640926 0.038535729 -0.03345871
-0.06582652 -0.0610121 -0.025422335
-0.041097123 -0.061200507 -0.013178468
-0.016073294 -0.036176704 -0.01469481
-0.016033243 -0.01117624 -0.019897461
-0.016045608 0.013796592 -0.018291354
-0.040981755 0.038732741 -0.020671725
-0.11593608 0.063741714 -0.018310189
-0.091066569 0.063818976 -0.014960408
-0.016179789 -0.061390251 -0.00086092949
0.0089271897 -0.036278844 -0.0014150143
0.0089271897 -0.01117619 -0.0065267086
0.0089271897 0.013899472 -0.0049071312
-0.016126499 0.038931083 -0.0077831745
0.0089271897 0.039130863 0.0051891804
-0.066312626 0.064063549 -0.004373312
0.0089271897 -0.061589882 0.012109041
0.034133863 -0.03638301 0.012089849
0.034094922 -0.011176289 0.0070316792
0.059474044 -0.011176289 0.02076149
0.034107495 0.014003985 0.0086648464
0.034182739 0.039334893 0.018439531
-0.041397639 0.064311042 0.0063406229
-0.016317949 0.064559072 0.017086506
0.034237042 -0.061796039 0.025493383
0.059550781 -0.036488067 0.025745869
0.08506722 -0.01117619 0.034607291
0.059499696 0.01410993 0.022427678
0.085106477 0.014216963 0.036307096
0.059644554 0.039541099 0.031836629
0.0089271897 0.064811155 0.028000474
0.059754647 -0.06200368 0.038987398
0.085482575 -0.062213149 0.052592516
0.08518149 -0.03659426 0.039555311
0.11103327 -0.036702774 0.053639174
0.11088203 -0.01117624 0.04872787
0.11093421 0.014325479 0.050422311
0.085315622 0.039749332 0.045363188
0.034352832 0.065100759 0.040534973
0.05997749 0.065399125 0.053461552
0.0089271897 -0.087927699 0.061083555
0.034542214 -0.088021338 0.065136552
0.11143386 -0.062429637 0.06664896
0.13711651 -0.036814161 0.068102956
0.13692886 -0.011176289 0.063228011
0.13699466 0.01443716 0.064937711
0.1112057 0.039963003 0.059239149
0.085803516 0.065700144 0.066489697
0.06028188 -0.088208303 0.073232055
0.086235799 -0.088484868 0.085208178
0.13761391 -0.062650971 0.08102572
0.16342826 -0.036926534 0.082693338
0.16320576 -0.01117624 0.077875853
0.16328448 0.014550027 0.079580545
0.13732392 0.040182412 0.073492169
0.16367377 0.04040597 0.088008881
0.11185306 0.06601809 0.08026278
0.11240111 -0.088781744 0.098061204
0.16402198 -0.06287463 0.095547676
0.18997487 -0.037040241 0.097473145
0.18971406 -0.011176141 0.092633128
0.18980673 0.014663784 0.094352841
0.19026603 0.040634867 0.10287631
0.13812141 0.066340268 0.094211221
0.13876814 -0.089080885 0.11101365
0.19067369 -0.063103773 0.11044133
0.21679614 -0.037159882 0.11301827
0.21649784 -0.011176289 0.10817432
0.21660472 0.014783423 0.10991013
0.21713199 0.040874988 0.11847162
0.16461083 0.066665426 0.10829687
0.16533919 -0.089382157 0.12406623
0.21759586 -0.063343346 0.12600398
0.24386536 -0.037280507 0.12868726
0.24353234 -0.01117619 0.12388098
0.24365087 0.014904151 0.12559152
0.24424669 0.041117039 0.13419151
0.19135347 0.067006394 0.12305689
0.19218944 -0.089717254 0.13857019
0.21928614 -0.090060845 0.15345061
0.24476765 -0.063585252 0.14171088
0.27119029 -0.037402622 0.14454424
0.27081841 -0.011176141 0.13971353
0.27094972 0.015025867 0.14141941
0.27161634 0.041361555 0.15007937
0.2183595 0.067360923 0.13840425
0.2456115 0.067718402 0.15389085
0.246621 -0.090407461 0.1684618
0.27219737 -0.063830264 0.15762711
0.29883611 -0.037531555 0.16130829
0.29841411 -0.01117624 0.15632474
0.29856175 0.015154209 0.1580683
0.29931301 0.041621059 0.16693985
0.27314383 0.0680888 0.16992164
0.27429742 -0.090787336 0.18490744
0.29996926 -0.064092979 0.17469001
0.32676911 -0.037663061 0.17838681
0.3263022 -0.011176289 0.17333245
0.32646683 0.015285417 0.17511463
0.32729259 0.041884612 0.18405354
0.30102256 0.06848608 0.18712926
0.30233172 -0.091195598 0.20258927
0.32801965 -0.064358413 0.1919241
0.35498434 -0.037796147 0.19565809
0.35446915 -0.01117619 0.19051003
0.35464931 0.015417764 0.19230986
0.35555285 0.042150687 0.20133889
0.32918227 0.068887472 0.20451009
0.33065507 -0.091608316 0.22045386
0.35635275 -0.064626269 0.20933199
0.38356146 -0.037935764 0.21381986
0.38298213 -0.011176289 0.20844448
0.3831805 0.015556091 0.21028483
0.38418716 0.042432334 0.21962583
0.38510257 -0.06491553 0.22811949
0.41247833 -0.038079627 0.2325027
0.41184086 -0.011176289 0.22698176
0.41205311 0.015698818 0.22881985
0.35765558 0.069299579 0.2223506
0.35940209 -0.092055127 0.23980284
0.41417801 -0.065209635 0.24722207
0.44170773 -0.038225025 0.25138712
0.44100675 -0.01117619 0.24569583
0.4412356 0.015843129 0.24755418
0.41315344 0.042720512 0.23834896
0.38657317 0.069747835 0.2417649
0.38863122 -0.092541456 0.26086152
0.44357347 -0.065507203 0.26653504
0.47057202 -0.01117624 0.26526034
0.47082084 0.015993914 0.26716173
0.44243288 0.043011997 0.25727487
0.41581219 0.070200697 0.26137459
0.41821402 -0.093033656 0.28217518
0.47346005 -0.06582737 0.28732884
0.47136036 -0.038378134 0.27128422
0.50051904 -0.011176338 0.28540564
0.50078553 0.016149249 0.2873286
0.47217205 0.043323208 0.27748656
0.44543868 0.070669606 0.28167844
0.50139165 -0.038535446 0.2917031
0.50231147 0.043644208 0.29834163
0.47557294 0.071172982 0.30347407
0.44841033 -0.093579307 0.30580544
0.50370091 -0.066151232 0.30836904
0.53177196 -0.038694337 0.31235909
0.5308134 -0.01117624 0.30580544
0.53109455 0.016306166 0.30772793
0.53282845 0.043971095 0.31958222
0.47914848 -0.094156444 0.33079648
0.53434992 -0.066483952 0.3299849
0.56263626 -0.038861737 0.33409309
0.56156504 -0.011176437 0.32713556
0.56186813 0.016470892 0.32910419
0.50608647 0.071683586 0.32558513
0.56547707 -0.066831201 0.35254455
0.59269798 -0.011176338 0.34879231
0.59302008 0.016637696 0.35078466
0.56384093 0.044315182 0.34191775
0.53710759 0.072220683 0.3488394
0.59387815 -0.039031014 0.35609293
0.59524268 0.044663228 0.36453366
0.51280975 -0.095156774 0.37410617
0.59718984 -0.067201391 0.37657857
0.62551272 -0.039202858 0.37841129
0.62421286 -0.011176338 0.37073576
0.62455434 0.016806873 0.37275255
0.56889176 0.072818488 0.37472403
0.62937611 -0.067580581 0.40122354
0.6575442 -0.039376978 0.40103066
0.65611726 -0.01117624 0.39297152
0.65649152 0.01697872 0.3950851
0.62706119 0.045017797 0.38755453
0.60147029 0.073472753 0.40305722
0.68836081 -0.01117624 0.41518962
0.68878305 0.017151061 0.4174751
0.65928626 0.045376718 0.41086996
0.66201001 -0.067966104 0.42625344
0.68987697 -0.03954922 0.42339599
0.72077632 -0.011176338 0.4365238
0.69174427 0.045725256 0.43350303
0.63458115 0.074140057 0.4319576
0.69472224 -0.068325818 0.4496218
0.7223978 -0.039715134 0.44494927
0.72124493 0.017316382 0.43895876
0.75501132 -0.039871853 0.46530759
0.75343078 -0.011176437 0.45741093
0.75388879 0.017476067 0.45969927
0.72441357 0.046062522 0.45542324
0.72773582 -0.068680882 0.47268641
0.78734547 -0.040006623 0.48281419
0.78571481 -0.011176141 0.47496855
0.78616363 0.017610339 0.47712791
0.75694489 0.046363499 0.47496855
0.76001608 -0.068952397 0.49031293
0.81908113 -0.040110245 0.49629319
0.81772125 -0.011176338 0.48998415
0.84878647 -0.011176338 0.49974811
0.81805944 0.017721279 0.49155295
0.84913862 0.017796623 0.50132525
0.78929347 0.046628684 0.49218595
0.82054448 0.046796478 0.50308192
0.79232651 -0.069206014 0.50677931
0.82254791 -0.069292128 0.5123769
0.85005993 -0.04018094 0.50545228
0.85126305 0.046915822 0.51084149
0.76809251 0.076419652 0.53066504
0.79642719 0.076323837 0.52650821
0.82558274 0.076322451 0.52645671
0.83031267 -0.099181876 0.548401
0 0 0 1 0 0 0 1 0 0 0 1 0 0 0 0 0 404 1 0 0
