ply
format ascii 1.0
comment PCL generated
element vertex 492
property float x
property float y
property float z
element camera 1
property float view_px
property float view_py
property float view_pz
property float x_axisx
property float x_axisy
property float x_axisz
property float y_axisx
property float y_axisy
property float y_axisz
property float z_axisx
property float z_axisy
property float z_axisz
property float focal
property float scalex
property float scaley
property float centerx
property float centery
property int viewportx
property int viewporty
property float k1
property float k2
end_header
-0.098929472 0.62795246 -0.40428388
-0.076599561 0.62795246 -0.40428388
-0.054269642 0.62795246 -0.40428388
-0.031939734 0.62795246 -0.40428388
-0.0096098194 0.62795246 -0.40428388
0.012720094 0.62795246 -0.40428388
0.035050008 0.62795246 -0.40428388
0.05737992 0.62795246 -0.40428388
0.079709828 0.62795246 -0.40428388
0.10203975 0.62795246 -0.40428388
-0.098437756 0.64654553 -0.41705894
-0.076206185 0.64654553 -0.41705894
-0.053974614 0.64654553 -0.41705894
-0.031743046 0.64654553 -0.41705894
-0.0095114755 0.64654553 -0.41705894
0.012720094 0.64654553 -0.41705894
0.034951665 0.64654553 -0.41705894
0.057183232 0.64654553 -0.41705894
0.0794148 0.64654553 -0.41705894
0.10164637 0.64654553 -0.41705894
-0.099426098 0.60919821 -0.39138114
-0.076996863 0.60919821 -0.39138114
-0.05456762 0.60919821 -0.39138114
-0.032138385 0.60919821 -0.39138114
-0.0097091449 0.60919821 -0.39138114
0.012720094 0.60919821 -0.39138114
0.035149332 0.60919821 -0.39138114
0.057578571 0.60919821 -0.39138114
0.080007806 0.60919821 -0.39138114
0.10243705 0.60919821 -0.39138114
-0.07780128 0.57117736 -0.36525691
-0.055170938 0.57117736 -0.36525691
-0.032540593 0.57117736 -0.36525691
-0.0099102492 0.57117736 -0.36525691
0.012720094 0.57117736 -0.36525691
0.035350438 0.57117736 -0.36525691
0.05798078 0.57117736 -0.36525691
0.080611125 0.57117736 -0.36525691
-0.077397279 0.59027278 -0.37837732
-0.054867931 0.59027278 -0.37837732
-0.032338593 0.59027278 -0.37837732
-0.0098092491 0.59027278 -0.37837732
0.012720094 0.59027278 -0.37837732
0.035249438 0.59027278 -0.37837732
0.057778779 0.59027278 -0.37837732
0.080308117 0.59027278 -0.37837732
-0.10023302 0.68277985 -0.37041676
-0.077642396 0.68277985 -0.37041676
-0.055051774 0.68277985 -0.37041676
-0.032461151 0.68277985 -0.37041676
-0.0098705282 0.68277985 -0.37041676
0.012720094 0.68277985 -0.37041676
0.035310715 0.68277985 -0.37041676
0.057901338 0.68277985 -0.37041676
0.08049196 0.68277985 -0.37041676
0.10308258 0.68277985 -0.37041676
-0.078209363 0.55191386 -0.35200381
-0.055477001 0.55191386 -0.35200381
-0.032744635 0.55191386 -0.35200381
-0.01001227 0.55191386 -0.35200381
0.012720094 0.55191386 -0.35200381
0.035452459 0.55191386 -0.35200381
0.058184821 0.55191386 -0.35200381
0.080917187 0.55191386 -0.35200381
-0.078620702 0.53247207 -0.33864546
-0.0557855 0.53247207 -0.33864546
-0.032950304 0.53247207 -0.33864546
-0.010115105 0.53247207 -0.33864546
0.012720094 0.53247207 -0.33864546
0.035555292 0.53247207 -0.33864546
0.058390491 0.53247207 -0.33864546
0.081225686 0.53247207 -0.33864546
-0.079455093 0.49305952 -0.31154776
-0.056411296 0.49305952 -0.31154776
-0.0333675 0.49305952 -0.31154776
-0.010323702 0.49305952 -0.31154776
0.012720094 0.49305952 -0.31154776
0.03576389 0.49305952 -0.31154776
0.058807686 0.49305952 -0.31154776
0.081851482 0.49305952 -0.31154776
-0.079035774 0.51285362 -0.32516563
-0.056096807 0.51285362 -0.32516563
-0.03315784 0.51285362 -0.32516563
-0.010218873 0.51285362 -0.32516563
0.012720094 0.51285362 -0.32516563
0.03565906 0.51285362 -0.32516563
0.058598027 0.51285362 -0.32516563
0.081536993 0.51285362 -0.32516563
-0.079877801 0.4730804 -0.29781985
-0.056728326 0.4730804 -0.29781985
-0.033578854 0.4730804 -0.29781985
-0.01042938 0.4730804 -0.29781985
0.012720094 0.4730804 -0.29781985
0.035869569 0.4730804 -0.29781985
0.05901904 0.4730804 -0.29781985
0.082168512 0.4730804 -0.29781985
-0.079856187 0.7275086 -0.29852176
-0.056712113 0.7275086 -0.29852176
-0.033568047 0.7275086 -0.29852176
-0.010423976 0.7275086 -0.29852176
0.012720094 0.7275086 -0.29852176
0.035864163 0.7275086 -0.29852176
0.059008233 0.7275086 -0.29852176
0.0821523 0.7275086 -0.29852176
-0.080304399 0.4529171 -0.28396559
-0.057048276 0.4529171 -0.28396559
-0.033792153 0.4529171 -0.28396559
-0.010536029 0.4529171 -0.28396559
0.012720094 0.4529171 -0.28396559
0.035976216 0.4529171 -0.28396559
0.059232339 0.4529171 -0.28396559
0.082488462 0.4529171 -0.28396559
-0.080735423 0.43257046 -0.26996756
-0.057371542 0.43257046 -0.26996756
-0.034007665 0.43257046 -0.26996756
-0.010643785 0.43257046 -0.26996756
0.012720094 0.43257046 -0.26996756
0.036083974 0.43257046 -0.26996756
0.059447851 0.43257046 -0.26996756
0.082811728 0.43257046 -0.26996756
-0.081609085 0.39130318 -0.24159467
-0.058026791 0.39130318 -0.24159467
-0.034444496 0.39130318 -0.24159467
-0.010862201 0.39130318 -0.24159467
0.012720094 0.39130318 -0.24159467
0.036302388 0.39130318 -0.24159467
0.059884682 0.39130318 -0.24159467
0.083466977 0.39130318 -0.24159467
-0.081169985 0.41203129 -0.25585496
-0.057697468 0.41203129 -0.25585496
-0.034224946 0.41203129 -0.25585496
-0.010752426 0.41203129 -0.25585496
0.012720094 0.41203129 -0.25585496
0.036192615 0.41203129 -0.25585496
0.059665132 0.41203129 -0.25585496
0.083137654 0.41203129 -0.25585496
-0.082051836 0.37037712 -0.22721624
-0.058358848 0.37037712 -0.22721624
-0.034665871 0.37037712 -0.22721624
-0.010972888 0.37037712 -0.22721624
0.012720094 0.37037712 -0.22721624
0.036413077 0.37037712 -0.22721624
0.060106058 0.37037712 -0.22721624
0.083799034 0.37037712 -0.22721624
-0.082181163 0.77448338 -0.2230159
-0.058455855 0.77448338 -0.2230159
-0.034730535 0.77448338 -0.2230159
-0.011005222 0.77448338 -0.2230159
0.012720094 0.77448338 -0.2230159
0.036445409 0.77448338 -0.2230159
0.060170721 0.77448338 -0.2230159
0.083896041 0.77448338 -0.2230159
-0.082498744 0.34925407 -0.21270204
-0.058694042 0.34925407 -0.21270204
-0.034889325 0.34925407 -0.21270204
-0.011084615 0.34925407 -0.21270204
0.012720094 0.34925407 -0.21270204
0.036524802 0.34925407 -0.21270204
0.060329512 0.34925407 -0.21270204
0.084134229 0.34925407 -0.21270204
-0.082950398 0.32793349 -0.19803452
-0.059032768 0.32793349 -0.19803452
-0.035115153 0.32793349 -0.19803452
-0.011197529 0.32793349 -0.19803452
0.012720094 0.32793349 -0.19803452
0.036637716 0.32793349 -0.19803452
0.060555339 0.32793349 -0.19803452
0.084472954 0.32793349 -0.19803452
-0.083865657 0.28467447 -0.16831028
-0.05971922 0.28467447 -0.16831028
-0.035572782 0.28467447 -0.16831028
-0.011426344 0.28467447 -0.16831028
0.012720094 0.28467447 -0.16831028
0.036866531 0.28467447 -0.16831028
0.061012968 0.28467447 -0.16831028
0.085159406 0.28467447 -0.16831028
-0.083405852 0.30640703 -0.18324316
-0.059374362 0.30640703 -0.18324316
-0.03534288 0.30640703 -0.18324316
-0.011311392 0.30640703 -0.18324316
0.012720094 0.30640703 -0.18324316
0.036751579 0.30640703 -0.18324316
0.060783066 0.30640703 -0.18324316
0.084814548 0.30640703 -0.18324316
-0.084330402 0.26273549 -0.15321743
-0.060067773 0.26273549 -0.15321743
-0.035805155 0.26273549 -0.15321743
-0.01154253 0.26273549 -0.15321743
0.012720094 0.26273549 -0.15321743
0.036982719 0.26273549 -0.15321743
0.061245341 0.26273549 -0.15321743
0.085507959 0.26273549 -0.15321743
-0.084799118 0.24058206 -0.13799536
-0.060419321 0.24058206 -0.13799536
-0.036039513 0.24058206 -0.13799536
-0.011659709 0.24058206 -0.13799536
0.012720094 0.24058206 -0.13799536
0.037099898 0.24058206 -0.13799536
0.061479699 0.24058206 -0.13799536
0.085859507 0.24058206 -0.13799536
-0.085272387 0.21821369 -0.12262559
-0.060774267 0.21821369 -0.12262559
-0.036276147 0.21821369 -0.12262559
-0.011778026 0.21821369 -0.12262559
0.012720094 0.21821369 -0.12262559
0.037218213 0.21821369 -0.12262559
0.061716333 0.21821369 -0.12262559
0.086214453 0.21821369 -0.12262559
-0.085750796 0.19562913 -0.1070888
-0.061133072 0.19562913 -0.1070888
-0.036515351 0.19562913 -0.1070888
-0.011897628 0.19562913 -0.1070888
0.012720094 0.19562913 -0.1070888
0.037337817 0.19562913 -0.1070888
0.061955538 0.19562913 -0.1070888
0.086573258 0.19562913 -0.1070888
-0.08623337 0.17282127 -0.091416717
-0.061495006 0.17282127 -0.091416717
-0.036756638 0.17282127 -0.091416717
-0.012018272 0.17282127 -0.091416717
0.012720094 0.17282127 -0.091416717
0.037458461 0.17282127 -0.091416717
0.062196825 0.17282127 -0.091416717
0.086935192 0.17282127 -0.091416717
-0.08721339 0.12652965 -0.059589744
-0.062230021 0.12652965 -0.059589744
-0.037246648 0.12652965 -0.059589744
-0.012263277 0.12652965 -0.059589744
0.012720094 0.12652965 -0.059589744
0.037703466 0.12652965 -0.059589744
0.062686838 0.12652965 -0.059589744
0.087670207 0.12652965 -0.059589744
-0.086720705 0.14978848 -0.075590134
-0.061860502 0.14978848 -0.075590134
-0.037000306 0.14978848 -0.075590134
-0.012140105 0.14978848 -0.075590134
0.012720094 0.14978848 -0.075590134
0.037580293 0.14978848 -0.075590134
0.062440492 0.14978848 -0.075590134
0.087300688 0.14978848 -0.075590134
-0.087710448 0.10303725 -0.043447495
-0.062602811 0.10303725 -0.043447495
-0.037495177 0.10303725 -0.043447495
-0.012387541 0.10303725 -0.043447495
0.012720094 0.10303725 -0.043447495
0.03782773 0.10303725 -0.043447495
0.062935367 0.10303725 -0.043447495
0.088042997 0.10303725 -0.043447495
-0.088212468 0.079310194 -0.027143836
-0.062979326 0.079310194 -0.027143836
-0.037746187 0.079310194 -0.027143836
-0.012513046 0.079310194 -0.027143836
0.012720094 0.079310194 -0.027143836
0.037953235 0.079310194 -0.027143836
0.063186377 0.079310194 -0.027143836
0.088419512 0.079310194 -0.027143836
-0.063360043 0.055346146 -0.010658145
-0.037999995 0.055346146 -0.010658145
-0.01263995 0.055346146 -0.010658145
0.012720094 0.055346146 -0.010658145
0.038080137 0.055346146 -0.010658145
0.063440181 0.055346146 -0.010658145
-0.06374418 0.031138554 0.0059754848
-0.038256094 0.031138554 0.0059754848
-0.012767999 0.031138554 0.0059754848
0.012720094 0.031138554 0.0059754848
0.038208187 0.031138554 0.0059754848
0.06369628 0.031138554 0.0059754848
-0.064132646 0.0066863745 0.022796631
-0.038515069 0.0066863745 0.022796631
-0.012897487 0.0066863745 0.022796631
0.012720094 0.0066863745 0.022796631
0.038337674 0.0066863745 0.022796631
0.063955255 0.0066863745 0.022796631
-0.064524658 -0.018016681 0.03977108
-0.038776409 -0.018016681 0.03977108
-0.013028157 -0.018016681 0.03977108
0.012720094 -0.018016681 0.03977108
0.038468346 -0.018016681 0.03977108
0.064216599 -0.018016681 0.03977108
-0.064920679 -0.042972788 0.056919575
-0.039040424 -0.042972788 0.056919575
-0.013160164 -0.042972788 0.056919575
0.012720094 -0.042972788 0.056919575
0.038600352 -0.042972788 0.056919575
0.06448061 -0.042972788 0.056919575
-0.065321229 -0.068185404 0.074263453
-0.039307453 -0.068185404 0.074263453
-0.013293679 -0.068185404 0.074263453
0.012720094 -0.068185404 0.074263453
0.038733866 -0.068185404 0.074263453
0.064747639 -0.068185404 0.074263453
-0.065725483 -0.093660139 0.091768384
-0.039576955 -0.093660139 0.091768384
-0.01342843 -0.093660139 0.091768384
0.012720094 -0.093660139 0.091768384
0.038868617 -0.093660139 0.091768384
0.065017141 -0.093660139 0.091768384
-0.066133954 -0.11940023 0.10945559
-0.03984927 -0.11940023 0.10945559
-0.013564588 -0.11940023 0.10945559
0.012720094 -0.11940023 0.10945559
0.039004777 -0.11940023 0.10945559
0.06528946 -0.11940023 0.10945559
-0.066547148 -0.14540941 0.12734747
-0.040124733 -0.14540941 0.12734747
-0.013702319 -0.14540941 0.12734747
0.012720094 -0.14540941 0.12734747
0.039142508 -0.14540941 0.12734747
0.065564923 -0.14540941 0.12734747
-0.066964239 -0.17169298 0.14540803
-0.040402792 -0.17169298 0.14540803
-0.013841349 -0.17169298 0.14540803
0.012720094 -0.17169298 0.14540803
0.039281536 -0.17169298 0.14540803
0.065842979 -0.17169298 0.14540803
-0.067385741 -0.19825436 0.16365969
-0.040683795 -0.19825436 0.16365969
-0.01398185 -0.19825436 0.16365969
0.012720094 -0.19825436 0.16365969
0.039422039 -0.19825436 0.16365969
0.066123985 -0.19825436 0.16365969
-0.067812189 -0.22509839 0.18212557
-0.040968098 -0.22509839 0.18212557
-0.014124001 -0.22509839 0.18212557
0.012720094 -0.22509839 0.18212557
0.039564189 -0.22509839 0.18212557
0.066408284 -0.22509839 0.18212557
-0.068242744 -0.25222954 0.20076871
-0.041255128 -0.25222954 0.20076871
-0.014267516 -0.25222954 0.20076871
0.012720094 -0.25222954 0.20076871
0.039707705 -0.25222954 0.20076871
0.066695318 -0.25222954 0.20076871
-0.068677917 -0.2796523 0.2196126
-0.041545246 -0.2796523 0.2196126
-0.014412575 -0.2796523 0.2196126
0.012720094 -0.2796523 0.2196126
0.039852764 -0.2796523 0.2196126
0.066985436 -0.2796523 0.2196126
-0.014570546 -0.825939 0.2401334
0.012720094 -0.82602352 0.24061108
-0.069118269 -0.30737215 0.2386806
-0.041838817 -0.30737215 0.2386806
-0.014559361 -0.30737215 0.2386806
0.012720094 -0.30737215 0.2386806
0.039999548 -0.30737215 0.2386806
0.067279004 -0.30737215 0.2386806
-0.069471493 -0.85578704 0.25397527
-0.042042099 -0.8554005 0.25188375
-0.01466084 -0.85539669 0.25186288
0.012720094 -0.8554005 0.25188375
0.040101029 -0.85539669 0.25186288
0.067592897 -0.85672778 0.25906801
-0.042057548 -0.82819724 0.25288749
0.040120512 -0.82846397 0.25439394
-0.069562942 -0.33539271 0.25793517
-0.042135261 -0.33539271 0.25793517
-0.014707583 -0.33539271 0.25793517
0.012720094 -0.33539271 0.25793517
0.04014777 -0.33539271 0.25793517
0.067575447 -0.33539271 0.25793517
-0.069867276 -0.88648242 0.27111363
-0.042338483 -0.88648647 0.2711345
-0.01480903 -0.88648242 0.27111363
0.012720094 -0.88648647 0.2711345
0.040249381 -0.88648647 0.2711345
0.067778021 -0.88647825 0.2710923
-0.014836545 -0.80450046 0.27468789
0.012720094 -0.80457562 0.27513242
-0.070012458 -0.36371946 0.2773999
-0.042434942 -0.36371946 0.2773999
-0.014857423 -0.36371946 0.2773999
0.012720094 -0.36371946 0.2773999
0.040297613 -0.36371946 0.2773999
0.067875132 -0.36371946 0.2773999
-0.070317179 -0.9179107 0.2905947
-0.042638093 -0.9179107 0.2905947
-0.014958999 -0.9179107 0.2905947
0.012720094 -0.9179107 0.2905947
0.040399186 -0.9179107 0.2905947
0.068077952 -0.9179064 0.29057348
-0.070294991 -0.83470333 0.28963387
0.068141825 -0.83560419 0.29472208
-0.042594388 -0.80671358 0.28775609
0.040390801 -0.80700999 0.28950584
-0.07046742 -0.39235854 0.29710019
-0.042738248 -0.39235854 0.29710019
-0.015009076 -0.39235854 0.29710019
0.012720094 -0.39235854 0.29710019
0.040449265 -0.39235854 0.29710019
0.068178438 -0.39235854 0.29710019
-0.042940982 -0.94967884 0.31026793
-0.015110443 -0.94967884 0.31026793
0.012720094 -0.94967884 0.31026793
0.040550631 -0.94967884 0.31026793
-0.015107284 -0.78262925 0.30985796
0.012720094 -0.78271312 0.31037617
-0.070926905 -0.42131296 0.31699657
-0.043044571 -0.42131296 0.31699657
-0.015162238 -0.42131296 0.31699657
0.012720094 -0.42131296 0.31699657
0.040602427 -0.42131296 0.31699657
0.068484761 -0.42131296 0.31699657
-0.071131639 -0.81316698 0.32586169
0.068701513 -0.81404984 0.33107507
-0.071392 -0.45059049 0.33713579
-0.043354634 -0.45059049 0.33713579
-0.01531727 -0.45059049 0.33713579
0.012720094 -0.45059049 0.33713579
0.040757459 -0.45059049 0.33713579
0.068794824 -0.45059049 0.33713579
-0.043522164 -0.78879803 0.3480171
0.040841222 -0.78879803 0.3480171
-0.07198789 -0.79121017 0.36293817
0.069273308 -0.79206312 0.36821413
-0.071861789 -0.48019397 0.35747826
-0.043667831 -0.48019397 0.35747826
-0.015473868 -0.48019397 0.35747826
0.012720094 -0.48019397 0.35747826
0.040914055 -0.48019397 0.35747826
0.069108017 -0.48019397 0.35747826
-0.10079279 -0.79419684 0.38141418
0.097854748 -0.79419684 0.38141418
-0.10069745 -0.76534212 0.37831819
-0.072343066 -0.76534212 0.37831819
-0.043988679 -0.76534212 0.37831819
-0.015634291 -0.76534212 0.37831819
0.012720094 -0.76534212 0.37831819
0.041074481 -0.76534212 0.37831819
0.069428869 -0.76534212 0.37831819
0.097783253 -0.76534212 0.37831819
-0.07233686 -0.51012969 0.37804902
-0.043984536 -0.51012969 0.37804902
-0.01563222 -0.51012969 0.37804902
0.012720094 -0.51012969 0.37804902
0.04107241 -0.51012969 0.37804902
0.069424726 -0.51012969 0.37804902
-0.10139748 -0.82590097 0.40105212
0.098308273 -0.82590097 0.40105212
-0.072845034 -0.74016678 0.40005398
-0.044323325 -0.74016678 0.40005398
-0.015801616 -0.74016678 0.40005398
0.012720094 -0.74016678 0.40005398
0.041241802 -0.74016678 0.40005398
0.069763511 -0.74016678 0.40005398
-0.072817802 -0.54040587 0.398875
-0.044305176 -0.54040587 0.398875
-0.015792541 -0.54040587 0.398875
0.012720094 -0.54040587 0.398875
0.041232727 -0.54040587 0.398875
0.069745362 -0.54040587 0.398875
-0.10200796 -0.85794061 0.42087793
0.098766126 -0.85794061 0.42087793
-0.10215362 -0.74390447 0.42560887
0.098898761 -0.74405259 0.42662108
-0.07335297 -0.71469259 0.42204833
-0.044661947 -0.71469259 0.42204833
-0.015970927 -0.71469259 0.42204833
0.012720094 -0.71469259 0.42204833
0.041411113 -0.71469259 0.42204833
0.070102133 -0.71469259 0.42204833
-0.073266126 -0.57086128 0.41828787
-0.044604059 -0.57086128 0.41828787
-0.015941981 -0.57086128 0.41828787
0.012720094 -0.57086128 0.41828787
0.041382171 -0.57086128 0.41828787
0.070044249 -0.57086128 0.41828787
-0.073866963 -0.68891436 0.44430482
-0.045004614 -0.68891436 0.44430482
-0.01614226 -0.68891436 0.44430482
0.012720094 -0.68891436 0.44430482
0.041582447 -0.68891436 0.44430482
0.0704448 -0.68891436 0.44430482
-0.073704742 -0.60157025 0.43728054
-0.044896469 -0.60157025 0.43728054
-0.016088188 -0.60157025 0.43728054
0.012720094 -0.60157025 0.43728054
0.041528374 -0.60157025 0.43728054
0.070336655 -0.60157025 0.43728054
-0.074148402 -0.63259685 0.45649147
-0.045192238 -0.63259685 0.45649147
-0.016236071 -0.63259685 0.45649147
0.012720094 -0.63259685 0.45649147
0.041676261 -0.63259685 0.45649147
0.070632428 -0.63259685 0.45649147
-0.074387141 -0.6628263 0.46682894
-0.04535139 -0.6628263 0.46682894
-0.016315646 -0.6628263 0.46682894
0.012720094 -0.6628263 0.46682894
0.041755836 -0.6628263 0.46682894
0.07079158 -0.6628263 0.46682894
0 0 0 1 0 0 0 1 0 0 0 1 0 0 0 0 0 492 1 0 0
