ply
format ascii 1.0
comment PCL generated
element vertex 1315
property float x
property float y
property float z
element camera 0
property float view_px
property float view_py
property float view_pz
property float x_axisx
property float x_axisy
property float x_axisz
property float y_axisx
property float y_axisy
property float y_axisz
property float z_axisx
property float z_axisy
property float z_axisz
property float focal
property float scalex
property float scaley
property float centerx
property float centery
property int viewportx
property int viewporty
property float k1
property float k2
end_header
-0.23182376 -0.071689345 -0.18180335
-0.20852862 -0.071654543 -0.18330467
-0.18566161 -0.071793497 -0.17729032
-0.1627031 -0.071932927 -0.17125201
-0.25570455 -0.048622303 -0.17299414
-0.23180194 -0.048481859 -0.18211794
-0.20852159 -0.048461836 -0.18341911
-0.18565619 -0.048554562 -0.17739069
-0.16269845 -0.048647515 -0.17135274
-0.25568017 -0.025349302 -0.17331064
-0.23178017 -0.025279135 -0.18243277
-0.20851544 -0.02527073 -0.18351924
-0.18565002 -0.025317151 -0.17750549
-0.1626938 -0.025363628 -0.17145371
-0.25565583 -0.0020813791 -0.1736269
-0.23175836 -0.0020813225 -0.18274724
-0.20850839 -0.0020813225 -0.18363345
-0.1856446 -0.0020813225 -0.17760587
-0.16268846 -0.0020812661 -0.17156875
-0.25563148 0.021181863 -0.17394364
-0.23173657 0.021111697 -0.18306172
-0.20850223 0.021106452 -0.18373346
-0.18563841 0.021152815 -0.17772079
-0.16268381 0.021199347 -0.1716696
-0.2556071 0.044440139 -0.17425978
-0.2317148 0.044299752 -0.18337607
-0.20849606 0.044292811 -0.18383348
-0.18563302 0.04438537 -0.17782116
-0.1626785 0.044478156 -0.17178476
-0.25558278 0.067693621 -0.17457592
-0.23169301 0.067483179 -0.18369055
-0.20849167 0.067478158 -0.18390477
-0.18564151 0.067622274 -0.17766333
-0.16269578 0.067766778 -0.17141044
0.25643623 0.067777723 -0.17093503
-0.25591409 0.09108445 -0.17027199
-0.23201424 0.090814047 -0.17905426
-0.20859642 0.090717033 -0.18220377
-0.18573278 0.090909034 -0.17596972
-0.16277434 0.091101766 -0.16970956
0.25560942 0.090788446 -0.17988527
-0.23236433 0.11423238 -0.17400086
-0.2087004 0.11398154 -0.18051529
-0.18582414 0.11422186 -0.17427421
-0.16285299 0.11446304 -0.16800725
-0.23271459 0.1377286 -0.16894507
-0.20887163 0.13732269 -0.17773521
-0.18591638 0.13756156 -0.17256224
-0.2091831 0.16082914 -0.17267752
-0.18600796 0.16092692 -0.17086291
-0.18609963 0.18431853 -0.16916156
0.27926898 0.18393028 -0.17546701
0.27837598 0.20656344 -0.18439043
0.30299646 0.27734393 -0.17105019
0.30203503 0.29973662 -0.17997098
0.32576522 0.39318565 -0.17552435
0.32473654 0.41520223 -0.18443322
-0.16355196 -0.25976026 -0.15287411
-0.21041255 -0.2363472 -0.15271366
-0.18658851 -0.23577954 -0.16008937
-0.16338041 -0.23604901 -0.15658796
-0.14025974 -0.23660123 -0.1494143
-0.23401509 -0.2130966 -0.15017414
-0.21002716 -0.21248703 -0.15897167
-0.18625838 -0.21198514 -0.16621578
-0.16322941 -0.21242571 -0.15985727
-0.14011648 -0.21289137 -0.15313649
-0.23361409 -0.18929406 -0.15596223
-0.20967366 -0.18875529 -0.16471183
-0.1631403 -0.18893535 -0.16178632
-0.14002956 -0.18932894 -0.15539467
-0.11682079 -0.18972337 -0.14899063
-0.25724891 -0.16605569 -0.15293241
-0.23321559 -0.16558255 -0.16171396
-0.16305131 -0.16547485 -0.16371322
-0.13995452 -0.16581795 -0.1573441
-0.11676096 -0.16616347 -0.1509335
-0.28092965 -0.14277028 -0.14991117
-0.25680414 -0.14236389 -0.15871012
-0.23281761 -0.14195985 -0.16745842
-0.16296242 -0.14204386 -0.16563761
-0.13988015 -0.14233772 -0.15927672
-0.11670076 -0.14263271 -0.15288866
-0.28043944 -0.1190993 -0.15570033
-0.25636107 -0.11876193 -0.1644659
-0.16287299 -0.11864235 -0.16757381
-0.13980587 -0.11888737 -0.16120648
-0.11664108 -0.11913298 -0.15482688
-0.30412161 -0.095788598 -0.15268445
-0.2799511 -0.095518172 -0.16146743
-0.13973168 -0.095466875 -0.1631341
-0.11658148 -0.095663048 -0.15676248
-0.093334146 -0.095860489 -0.15034938
-0.30397621 -0.072325408 -0.15425885
-0.27977931 -0.072112061 -0.16349602
-0.13965702 -0.07207571 -0.16507339
-0.11652195 -0.072223008 -0.1586957
-0.093288988 -0.072370589 -0.15230525
-0.30394661 -0.048905786 -0.15457928
-0.27975234 -0.048763536 -0.16381466
-0.13964923 -0.048741031 -0.16527617
-0.11650675 -0.048834831 -0.15918934
-0.093271129 -0.048928857 -0.15307832
-0.30391702 -0.0254911 -0.1548996
-0.27972537 -0.025420088 -0.16413307
-0.13964477 -0.02541033 -0.1653918
-0.11650362 -0.025457315 -0.15929091
-0.093268774 -0.025504299 -0.15318036
-0.30388743 -0.0020813225 -0.15522003
-0.11650004 -0.0020813225 -0.15940714
-0.093266413 -0.0020813791 -0.15328228
-0.2796984 -0.0020812661 -0.16445136
-0.13964087 -0.0020812098 -0.16549301
-0.30385917 0.021323605 -0.15552568
-0.27967146 0.021252481 -0.16476977
-0.13963643 0.02124605 -0.16560864
-0.11649691 0.021293035 -0.15950882
-0.093263723 0.021340076 -0.15339899
-0.30382958 0.044723567 -0.15584576
-0.27964574 0.044581544 -0.16507351
-0.13963252 0.044571899 -0.16570985
-0.11649334 0.044665359 -0.15962481
-0.093261369 0.044759836 -0.15350103
-0.30380005 0.068118796 -0.15616596
-0.2796188 0.067905702 -0.1653918
-0.13965479 0.067911789 -0.16513145
-0.11651838 0.068057597 -0.15881169
-0.093284935 0.068203852 -0.15248024
-0.30413243 0.091629587 -0.15256786
-0.27995232 0.091356032 -0.16145301
-0.13972053 0.091295339 -0.16342378
-0.11657118 0.091490105 -0.15709686
-0.093324706 0.091685258 -0.15075815
-0.280384 0.11491156 -0.15635526
-0.25630423 0.11457094 -0.16520357
-0.13978688 0.11470574 -0.16169941
-0.11662404 0.11494912 -0.15538013
-0.093364522 0.11519324 -0.14903438
-0.28081837 0.13854708 -0.15122557
-0.25669572 0.13813616 -0.16011846
-0.16293237 0.13785127 -0.16628814
-0.13985276 0.13814238 -0.15998781
-0.11667697 0.1384346 -0.15366137
0.28106809 0.13825767 -0.15748942
-0.25708961 0.16178158 -0.1550014
-0.23306604 0.16130361 -0.16387248
-0.16301119 0.16126531 -0.16458166
-0.13991873 0.16160531 -0.15827429
-0.11673041 0.16194737 -0.15192604
0.28016585 0.16116178 -0.16650498
-0.25748372 0.18550588 -0.14988184
-0.23341867 0.18495773 -0.1587826
-0.20949472 0.18441372 -0.1676172
-0.16309077 0.18470676 -0.16285884
-0.13998531 0.18509567 -0.15654433
-0.11678345 0.18548609 -0.15020335
-0.2337735 0.20869245 -0.15366137
-0.2098074 0.20807725 -0.16253996
-0.1861922 0.20773757 -0.16744387
-0.16318384 0.20819485 -0.16084385
-0.14009066 0.2086824 -0.15380716
-0.21030125 0.23204562 -0.15452099
-0.18647987 0.23146173 -0.1621052
-0.16334549 0.23182827 -0.1573441
-0.14022599 0.23237121 -0.15029097
0.30493963 0.23216119 -0.15302002
-0.1870622 0.25573105 -0.1512984
-0.16350751 0.25551623 -0.15383625
0.30396512 0.25481969 -0.16206181
0.32783937 0.34875789 -0.15756202
0.32679838 0.37103671 -0.16657722
-0.16448346 -0.30862936 -0.13270605
-0.14069222 -0.30808163 -0.13817823
-0.1173773 -0.30880839 -0.13091731
-0.18783747 -0.28466022 -0.13691151
-0.16394502 -0.28397191 -0.14436376
-0.14054734 -0.28419551 -0.14194262
-0.11726129 -0.28486603 -0.1346848
-0.23516186 -0.26139048 -0.13362205
-0.21112745 -0.26075685 -0.14110529
-0.18721022 -0.26012629 -0.14855194
-0.14040336 -0.2603693 -0.14568293
-0.11714511 -0.26098105 -0.13845789
-0.09377677 -0.26159698 -0.13118362
-0.25859228 -0.23767379 -0.13548148
-0.23441765 -0.23699014 -0.14436388
-0.11702967 -0.23715611 -0.14220679
-0.093689777 -0.23771469 -0.1349504
-0.28241029 -0.21432635 -0.13242543
-0.25814241 -0.21370959 -0.14132559
-0.11691497 -0.21339051 -0.1459322
-0.093603 -0.21389101 -0.138708
-0.070180334 -0.21439385 -0.1314497
-0.28191444 -0.19038287 -0.13828123
-0.25769424 -0.18983686 -0.1471473
-0.093516767 -0.19012663 -0.14244175
-0.070122577 -0.19057268 -0.1352011
-0.30573395 -0.16700967 -0.13523066
-0.28142175 -0.16653165 -0.14409983
-0.093468994 -0.16650954 -0.14451063
-0.070078783 -0.16685787 -0.13804555
-0.046589136 -0.16720691 -0.13156807
-0.32960248 -0.14359023 -0.13215947
-0.30519536 -0.14317912 -0.14106107
-0.093423985 -0.14292979 -0.14645922
-0.070048429 -0.14322729 -0.14001751
-0.046574004 -0.14352682 -0.13353336
-0.32901636 -0.11977998 -0.13801622
-0.30465749 -0.11943866 -0.14688408
-0.093379043 -0.1193802 -0.14840543
-0.070018336 -0.11962772 -0.14197183
-0.046558894 -0.11987694 -0.13549626
-0.35288492 -0.096334167 -0.13496518
-0.3284325 -0.096060604 -0.14385068
-0.069988281 -0.096058354 -0.143924
-0.046543691 -0.096257001 -0.13747132
-0.022999758 -0.096478894 -0.13026655
-0.352815 -0.072755963 -0.1356144
-0.32832098 -0.07253997 -0.14496505
-0.069958262 -0.072519071 -0.14587355
-0.046528623 -0.072667859 -0.13942897
-0.022999758 -0.072839469 -0.13199687
-0.35278001 -0.049192768 -0.13593864
-0.32828873 -0.049048882 -0.14528751
-0.069942035 -0.049023502 -0.14692795
-0.046519566 -0.04912091 -0.14060545
-0.022999758 -0.049231179 -0.13344479
-0.35274667 -0.025634648 -0.13624823
-0.32825646 -0.02556262 -0.14560962
-0.069940232 -0.025551509 -0.1470449
-0.046518885 -0.025600467 -0.14069378
-0.022999758 -0.025655573 -0.13353324
-0.35271171 -0.0020813225 -0.1365726
-0.32822567 -0.0020813225 -0.14591753
-0.069938652 -0.0020813225 -0.1471473
-0.022999758 -0.0020813791 -0.13363671
-0.046518095 -0.0020812661 -0.14079642
-0.35267678 0.021467039 -0.13689661
-0.32819343 0.021395124 -0.14623964
-0.069937073 0.021387454 -0.14724982
-0.046517305 0.021436244 -0.14089942
-0.022999758 0.021491406 -0.1337254
-0.3526434 0.045010719 -0.1372062
-0.32816118 0.044866607 -0.14656174
-0.06993527 0.044854142 -0.147367
-0.046516623 0.04495234 -0.14098752
-0.022999758 0.045062725 -0.13382876
-0.3526085 0.068549097 -0.13753021
-0.32813039 0.068333469 -0.14686918
-0.069954433 0.068350725 -0.14612246
-0.046526581 0.068499178 -0.13969386
-0.022999758 0.068669409 -0.13232207
0.28380868 0.068720624 -0.13010335
-0.35291833 0.092181161 -0.13465536
-0.32845306 0.091904387 -0.14364529
-0.069981053 0.09188126 -0.14439309
-0.046539724 0.092078567 -0.13798666
-0.022999758 0.0923004 -0.13078427
0.28289017 0.092038803 -0.13928211
-0.32896924 0.11559929 -0.13848734
-0.30460611 0.11525466 -0.14744008
-0.070007712 0.11543865 -0.14266217
-0.046553105 0.11568553 -0.13624835
0.28197715 0.11521749 -0.14840555
-0.32948864 0.13937514 -0.1332972
-0.3050814 0.1389595 -0.142295
-0.093404382 0.13872796 -0.14730835
-0.070034623 0.13902335 -0.1409142
-0.046566505 0.13931912 -0.13450778
-0.30555826 0.16274442 -0.13713241
-0.28125295 0.16226158 -0.14609313
-0.093444623 0.16229014 -0.14556575
-0.070061333 0.16263419 -0.13917899
-0.046582308 0.16299659 -0.13245511
-0.30603814 0.18661098 -0.13193762
-0.28168902 0.18605639 -0.14094353
-0.093499824 0.1859189 -0.14317572
-0.070109405 0.1863573 -0.13605666
0.30690765 0.1864372 -0.13475859
-0.28212655 0.20993143 -0.1357764
-0.25787917 0.20931023 -0.14474511
-0.11689017 0.20917206 -0.14673746
-0.093581595 0.20966429 -0.13963509
-0.070164174 0.21015862 -0.13249946
0.30592149 0.20936806 -0.14390922
-0.28256682 0.23388873 -0.13057697
-0.25830197 0.23322091 -0.13925254
-0.23424204 0.2326324 -0.14689863
-0.11699893 0.23291658 -0.14320493
-0.093663543 0.2334646 -0.13608599
-0.23499829 0.25702795 -0.13598287
-0.21097012 0.25637788 -0.14365995
-0.14036165 0.25611484 -0.14676666
-0.11710841 0.25671756 -0.13964987
-0.093746036 0.25732172 -0.13251424
-0.21164377 0.28088474 -0.13272107
-0.18764871 0.28017399 -0.14041436
-0.16377386 0.2794669 -0.14806902
-0.14049818 0.27991495 -0.14321971
-0.11721769 0.28057247 -0.13610065
0.33099633 0.28111556 -0.13022196
-0.16427766 0.30402085 -0.13716197
-0.14063445 0.30376878 -0.13967907
-0.11732723 0.30448294 -0.13254368
0.32993829 0.30379829 -0.13938498
-0.14085679 0.32791829 -0.13390255
0.32888484 0.32634425 -0.14850807
-0.14151911 -0.35763934 -0.11669505
-0.11761293 -0.35688069 -0.12326527
-0.09415967 -0.35788092 -0.11460328
-0.18910566 -0.33429307 -0.11337674
-0.16502672 -0.3334775 -0.12094438
-0.14106572 -0.33266598 -0.12847459
-0.11749359 -0.33280978 -0.12714064
-0.09403903 -0.33359799 -0.11982715
-0.070488088 -0.33449975 -0.11146045
-0.21257281 -0.31013751 -0.11763537
-0.18846954 -0.30938232 -0.12518179
-0.093951397 -0.30953842 -0.12362206
-0.070413709 -0.31027195 -0.11629176
-0.26022249 -0.28674859 -0.1143043
-0.23597524 -0.28604862 -0.12188208
-0.070355147 -0.28621367 -0.12009537
-0.046734013 -0.28689238 -0.11274815
-0.21184692 -0.28535196 -0.12942255
-0.093863972 -0.28553823 -0.12740743
-0.28358439 -0.26266593 -0.11856019
-0.25931317 -0.26202607 -0.12611699
-0.070296735 -0.26221469 -0.12388945
-0.046704665 -0.26283532 -0.11656058
-0.30736625 -0.2390534 -0.11756063
-0.28290805 -0.23836154 -0.12654734
-0.070238464 -0.23827481 -0.12767422
-0.046675388 -0.23883763 -0.12036335
-0.022999758 -0.23940432 -0.11300266
-0.33137286 -0.21557039 -0.11446869
-0.30682006 -0.21494655 -0.12347329
-0.046646301 -0.21490011 -0.12414217
-0.022999758 -0.21540774 -0.11681449
-0.35542777 -0.19204016 -0.11137056
-0.33077997 -0.19148451 -0.1203934
-0.022999758 -0.19147076 -0.12061667
0.00073345564 -0.19194695 -0.11288309
-0.30627596 -0.19093208 -0.12936318
-0.046617173 -0.19102055 -0.12792623
-0.35478801 -0.16797534 -0.11730695
-0.33018938 -0.16749111 -0.12629485
-0.022999758 -0.16759348 -0.12439477
0.00070767663 -0.16803326 -0.11623204
-0.37884423 -0.14441916 -0.11421442
-0.35415065 -0.14400306 -0.12322068
-0.022999758 -0.14383924 -0.12676966
0.00068413094 -0.14418466 -0.11929059
0.024490422 -0.14455184 -0.11134064
-0.40294886 -0.12081533 -0.11111593
-0.37816173 -0.1204687 -0.12012517
-0.35351738 -0.12012329 -0.12909675
-0.022999758 -0.12014562 -0.12851906
0.00067060068 -0.12043317 -0.12104845
0.024456764 -0.12072258 -0.11352646
-0.40229845 -0.096905984 -0.11639631
0.024429599 -0.096940055 -0.11529088
-0.37749898 -0.096614406 -0.12586474
0.00065719709 -0.09670914 -0.12278938
-0.40225804 -0.073192306 -0.11672485
-0.37746128 -0.072973624 -0.12619114
0.00064369664 -0.073011644 -0.12454319
0.024402695 -0.073184974 -0.11703825
-0.40221757 -0.049483474 -0.11705327
-0.37742361 -0.049337838 -0.12651742
0.00063055381 -0.049341958 -0.12625051
0.024375593 -0.049456682 -0.11879861
0.048236892 -0.049572423 -0.11128068
-0.40217894 -0.02578 -0.11736679
-0.37738591 -0.025707014 -0.12684405
0.00062986836 -0.025710905 -0.12633955
0.024370773 -0.02576652 -0.11911178
0.048223749 -0.025822358 -0.1118499
-0.37734997 -0.0020813225 -0.12715542
0.024369394 -0.0020813225 -0.11920118
-0.40213853 -0.0020812661 -0.11769497
0.00062906928 -0.0020812098 -0.12644351
0.04822167 -0.0020812098 -0.11193979
-0.40209809 0.021612393 -0.11802328
-0.3773123 0.021539632 -0.12748158
0.00062838383 0.021546794 -0.12653244
0.024367793 0.021602465 -0.11930573
0.048219249 0.021658361 -0.11204445
-0.40205953 0.045301139 -0.11833644
-0.37727463 0.045155339 -0.12780762
0.00062884018 0.045175813 -0.12647319
0.02437192 0.04529037 -0.11903715
0.048229977 0.045405149 -0.11158025
0.28473425 0.045262393 -0.12085497
-0.40201908 0.068984874 -0.1186645
-0.37723869 0.068766475 -0.12811911
0.00064072385 0.06884025 -0.12492943
0.024395803 0.069012061 -0.11748612
-0.37752643 0.09245912 -0.12562716
0.00065273419 0.092528664 -0.12336934
-0.40228191 0.092739336 -0.1165309
0.024419708 0.092757665 -0.1159333
-0.40292856 0.11664648 -0.11128056
-0.37812907 0.11629508 -0.12040818
-0.35347748 0.11594651 -0.12946701
-0.022999758 0.11595497 -0.12924469
0.00066464022 0.11624077 -0.12182248
0.024443639 0.11652724 -0.11437905
-0.37873548 0.14021295 -0.11515641
-0.35403857 0.13979258 -0.12426114
-0.022999758 0.1396334 -0.12770391
0.00067656115 0.13997668 -0.12027419
0.024477502 0.14035052 -0.1121794
0.30889949 0.14016129 -0.11627686
-0.35460153 0.16371964 -0.11903715
-0.3300083 0.16323102 -0.12810421
-0.022999758 0.16338533 -0.12524116
0.00070066564 0.16382161 -0.1171428
0.30789977 0.16336846 -0.12555301
-0.33052975 0.18716793 -0.12289357
-0.046609756 0.18679869 -0.12888932
-0.35516641 0.18772826 -0.11379588
-0.022999758 0.18724126 -0.12170339
0.00072504953 0.18771718 -0.11397529
-0.33105299 0.21118636 -0.11766517
-0.30651826 0.21055755 -0.1267401
-0.046637155 0.21065521 -0.12533033
-0.022999758 0.21115528 -0.11811268
-0.33157799 0.23528658 -0.11241901
-0.30700004 0.23458563 -0.12152481
-0.07021907 0.23401529 -0.12893391
-0.04666473 0.23456851 -0.12174809
-0.022999758 0.23512417 -0.11452854
0.33313677 0.2353431 -0.11168528
-0.30781218 0.25899673 -0.11273336
-0.28341785 0.25833672 -0.12052715
-0.25914651 0.25768003 -0.12828195
-0.070274316 0.25792879 -0.12534523
-0.046692483 0.25853869 -0.11814237
0.33206248 0.25829771 -0.12098897
-0.23575895 0.2815977 -0.1250037
-0.09382838 0.2812331 -0.12894857
-0.25999707 0.28231549 -0.11723244
-0.070329472 0.28189692 -0.12176287
-0.046720192 0.28256398 -0.11454356
-0.23652615 0.30634564 -0.11393046
-0.21232228 0.3055678 -0.12170339
-0.18823943 0.30479234 -0.12945223
-0.09391091 0.3052004 -0.12537479
-0.07038521 0.30592412 -0.1181426
-0.18883438 0.329588 -0.11841106
-0.16478506 0.32875118 -0.12617636
-0.11743747 0.32845056 -0.12896347
-0.094005324 0.32927796 -0.12128675
-0.070467107 0.33019015 -0.11282325
-0.16529612 0.35365954 -0.11511159
-0.14128511 0.35277477 -0.12277448
-0.11757723 0.35258424 -0.12442446
-0.094127916 0.35355961 -0.11597812
-0.070745267 -0.4079181 -0.094756484
-0.16619363 -0.38393167 -0.095679641
-0.14213663 -0.38331932 -0.10065103
-0.11815713 -0.38271081 -0.10559154
-0.094287306 -0.38228157 -0.1090765
-0.070659153 -0.38335645 -0.10034943
-0.21404056 -0.36028287 -0.093801975
-0.18974751 -0.35939795 -0.1014657
-0.16557418 -0.35851729 -0.10909164
-0.070573583 -0.35888508 -0.10590732
-0.046853989 -0.35989487 -0.097162247
-0.23762187 -0.33593798 -0.09811461
-0.21330433 -0.33511427 -0.105757
-0.046811119 -0.33544034 -0.10273182
-0.022999758 -0.33638486 -0.09396863
-0.28560135 -0.31242859 -0.094741225
-0.26113769 -0.31166068 -0.10241544
-0.23679487 -0.31089643 -0.11005151
-0.046768285 -0.31107217 -0.10829616
-0.022999758 -0.31194592 -0.099564672
-0.30907607 -0.28815764 -0.099051237
-0.28458837 -0.28745061 -0.10670424
-0.022999758 -0.28759655 -0.10512531
0.00086052902 -0.28840482 -0.096375942
-0.35736036 -0.26479319 -0.093438148
-0.33256403 -0.26402032 -0.102566
-0.30797544 -0.26330894 -0.11096609
-0.022999758 -0.26345879 -0.10919678
0.00081891008 -0.26408663 -0.10178232
0.024770008 -0.264815 -0.093180656
-0.35671315 -0.24044801 -0.099443793
-0.33196807 -0.23974919 -0.10852146
0.00078935362 -0.23997247 -0.1056217
0.024697999 -0.24057017 -0.097857594
-0.38091278 -0.21682912 -0.096300364
-0.35607001 -0.21619792 -0.10541117
0.00075987354 -0.21591789 -0.10945165
0.024645938 -0.21648686 -0.10123944
0.048661202 -0.21706411 -0.092907667
-0.38022059 -0.19259906 -0.10229492
0.024593985 -0.19245631 -0.1046139
0.048582852 -0.19296819 -0.096300364
-0.40456694 -0.16901691 -0.09797883
-0.37953109 -0.1684626 -0.10826612
0.024542147 -0.16847792 -0.10798097
0.048504673 -0.16892494 -0.099685311
-0.40368298 -0.1448375 -0.10515547
0.048426665 -0.14493418 -0.10306311
0.072492197 -0.14531922 -0.094726086
-0.42896545 -0.12148301 -0.093771696
0.048359245 -0.12101297 -0.10598254
0.072387382 -0.12131521 -0.098129869
-0.42789346 -0.097350501 -0.10196316
0.048318647 -0.097172551 -0.10774064
0.072324611 -0.097405665 -0.10016847
0.096449181 -0.097640418 -0.09254384
-0.42782444 -0.073520914 -0.10249066
0.048277751 -0.073358752 -0.10951173
0.072270274 -0.073533773 -0.10193312
0.096380338 -0.073709302 -0.094332337
-0.42775542 -0.049699612 -0.10301805
0.072215535 -0.049688894 -0.10371077
0.096311569 -0.049805764 -0.096118689
-0.42768642 -0.025886489 -0.10354507
0.072189584 -0.025878593 -0.1045537
0.096269086 -0.025935054 -0.097222924
0.33439693 -0.025907697 -0.1007719
0.072186798 -0.0020813225 -0.10464406
0.096265584 -0.0020813225 -0.097313523
-0.42761549 -0.0020812661 -0.10408711
0.33369112 -0.0020812661 -0.10688448
-0.42754659 0.021715611 -0.1046139
0.072183557 0.021714538 -0.1047492
0.09626209 0.021770999 -0.097404122
0.33419499 0.021731742 -0.10252082
-0.42747766 0.04550425 -0.10514033
0.072204411 0.045520775 -0.10407197
0.096295267 0.045636799 -0.096542358
-0.42740875 0.069284998 -0.10566688
0.048265971 0.069184482 -0.11002159
0.072252646 0.069358036 -0.1025058
0.096356437 0.06953238 -0.094953179
-0.42779681 0.09316507 -0.10270154
0.048302345 0.092988126 -0.10844624
0.072300918 0.093219325 -0.10093772
0.096417084 0.093452103 -0.09337759
0.31091386 0.093322605 -0.097585678
-0.4289377 0.11731227 -0.093983889
0.048338421 0.11681575 -0.10688448
0.072359942 0.11711835 -0.099020958
0.30990362 0.11681276 -0.10695946
-0.40357742 0.1406353 -0.1060127
0.048404761 0.1407277 -0.10401177
0.072459094 0.14110695 -0.095800877
-0.40425262 0.1647168 -0.10053051
-0.37934226 0.16421187 -0.10990167
0.02452643 0.16426037 -0.10900164
0.048478536 0.1647014 -0.10081708
0.072557993 0.16514479 -0.092589259
-0.37995109 0.18829279 -0.10462892
0.024575455 0.18821952 -0.10581708
0.048552468 0.18872455 -0.097615719
0.33530152 0.1890126 -0.092937946
-0.38056201 0.21245602 -0.099338174
-0.35573485 0.21181983 -0.10852134
0.00074959919 0.21166292 -0.11078608
0.024624584 0.21222825 -0.10262632
0.04862655 0.21279769 -0.094408035
0.33421585 0.2122481 -0.10233998
-0.38117504 0.23670226 -0.094029307
-0.35630357 0.23599286 -0.10324383
0.00077662617 0.23568259 -0.10727501
0.024674045 0.23628777 -0.099413633
-0.35697207 0.26032552 -0.097041488
-0.33233047 0.25966004 -0.10489976
-0.022999758 0.25915149 -0.110906
0.00080707856 0.25979388 -0.10331917
0.02474598 0.26052028 -0.094741225
-0.33345169 0.28448975 -0.093695998
-0.30884328 0.28376222 -0.1015712
-0.28435823 0.28303695 -0.10942173
-0.022999758 0.28330758 -0.10649371
0.00084853917 0.28409821 -0.097933173
-0.28530544 0.30791628 -0.098235488
-0.26085386 0.30712897 -0.10610271
-0.046757769 0.30677286 -0.10966158
-0.022999758 0.30762783 -0.10111892
0.00089002773 0.30848595 -0.092543602
-0.26171681 0.3321225 -0.094892621
-0.23729888 0.33127284 -0.10277689
-0.21300477 0.3304275 -0.11062133
-0.046799064 0.33110884 -0.10429776
-0.022999758 0.33203107 -0.095740199
-0.21369311 0.35546878 -0.099443674
-0.18943284 0.35456109 -0.10730505
-0.070549287 0.35454017 -0.10748529
-0.046840265 0.35552636 -0.098945498
-0.1901221 0.3799127 -0.094514012
-0.16600026 0.37925324 -0.099866509
-0.14196153 0.37859645 -0.10520065
-0.11800595 0.3779434 -0.11050129
-0.094250597 0.37792313 -0.11066639
-0.070631757 0.37897471 -0.10212886
-0.046881724 0.38003016 -0.093559504
-0.11855143 0.40401334 -0.092786551
-0.094539762 0.40331215 -0.098144889
-0.070714273 0.40349212 -0.096769214
-0.071002178 -0.43410307 -0.078069329
-0.046983659 -0.43379152 -0.080317855
-0.16706219 -0.41025829 -0.076874852
-0.1428587 -0.40960178 -0.081891418
-0.11873247 -0.40894532 -0.086907029
-0.094684176 -0.40829304 -0.091891646
-0.046940319 -0.40907079 -0.08594799
-0.022999758 -0.41023013 -0.07708931
-0.23929419 -0.38660476 -0.073976755
-0.21478346 -0.38564882 -0.08173871
-0.19039433 -0.3846975 -0.089462161
-0.046897136 -0.38443941 -0.091557741
-0.022999758 -0.3855266 -0.082731128
0.0010339003 -0.38661993 -0.073854208
-0.26299065 -0.36206764 -0.078344941
0.0009903796 -0.36193335 -0.079507589
-0.23845531 -0.3611739 -0.086085081
-0.022999758 -0.36091214 -0.088352442
-0.31130445 -0.33843675 -0.074928164
-0.28662091 -0.33759925 -0.082700491
-0.26206118 -0.33676729 -0.090419173
0.00094690174 -0.33733457 -0.085155725
0.025030253 -0.33829135 -0.076277375
-0.33489302 -0.31397456 -0.07929337
-0.31018665 -0.31320044 -0.087028861
0.00090369582 -0.31282625 -0.090768218
0.024943111 -0.31370988 -0.081937313
-0.35841727 -0.28958204 -0.083631277
-0.3336854 -0.28886816 -0.091360331
0.024856286 -0.28921762 -0.087576747
0.048989035 -0.29003647 -0.078712106
-0.38252723 -0.26573482 -0.082319021
0.048870146 -0.26560432 -0.08386004
0.073124014 -0.26642171 -0.074207067
-0.38160592 -0.24115203 -0.090297699
0.048756212 -0.24126792 -0.088793278
0.072971165 -0.24200854 -0.079171181
-0.40701914 -0.21809219 -0.078069329
0.072818793 -0.21767305 -0.08411932
0.097144924 -0.21834175 -0.074467897
-0.40579006 -0.19347653 -0.0880481
0.072701558 -0.19348395 -0.087926507
0.096953884 -0.19400708 -0.079431057
-0.43157601 -0.17031865 -0.073823333
0.072596759 -0.16937524 -0.091330051
0.096818641 -0.16982712 -0.082944632
0.12117172 -0.17028137 -0.074514031
-0.43026653 -0.14582248 -0.083829522
0.09668722 -0.14570564 -0.086359024
0.12101316 -0.14609426 -0.077946782
0.096555501 -0.12163654 -0.089781284
0.12085495 -0.12196019 -0.081372261
-0.45508519 -0.098100223 -0.077610016
0.12069639 -0.097878665 -0.084805369
0.14509949 -0.098138124 -0.076384544
-0.45501095 -0.074083142 -0.078145742
0.12060916 -0.073885731 -0.086694121
0.14495842 -0.074063405 -0.079002738
-0.45493674 -0.050074358 -0.07868135
0.12052693 -0.049923591 -0.088474035
0.14486119 -0.050041646 -0.080806851
-0.45486253 -0.026073636 -0.079216957
0.12046305 -0.025991796 -0.089857101
0.14485872 -0.02606106 -0.080852866
-0.45478624 -0.0020813225 -0.079767466
0.12045883 -0.0020813225 -0.089948297
0.14486942 -0.0020813225 -0.080654144
0.31288362 -0.0020812661 -0.079308629
0.38523525 -0.0020812661 -0.076430678
-0.45471212 0.021902815 -0.080302715
0.12045463 0.021827741 -0.090039253
0.14488013 0.021901572 -0.080455422
-0.454638 0.045878433 -0.080837488
0.12050446 0.045753498 -0.088960648
0.14483155 0.045870479 -0.081357002
0.31295449 0.045912161 -0.078650832
-0.4545618 0.069845818 -0.08138752
0.12057751 0.069707289 -0.087378979
0.14491802 0.069883436 -0.079752207
0.31193191 0.069689751 -0.088139534
-0.45494947 0.093907453 -0.078589678
0.12065346 0.093687475 -0.085734844
0.14504336 0.093943268 -0.077426314
0.096516922 0.1174354 -0.090783715
0.12080277 0.11775413 -0.082502127
0.14521848 0.11807462 -0.074176431
-0.430085 0.14159591 -0.085216761
0.096641533 0.1414883 -0.087546229
0.12095309 0.14187156 -0.079247475
0.33749449 0.14211652 -0.073946357
-0.43123883 0.16601713 -0.076400042
0.096765801 0.16559048 -0.084317446
0.12110301 0.16603862 -0.076001525
0.33639556 0.16563651 -0.08346343
-0.40532792 0.18908279 -0.09180057
0.072657086 0.18923235 -0.089370966
0.096900344 0.18975884 -0.08082211
-0.40640926 0.21358657 -0.083021045
0.072776087 0.2134143 -0.085506201
0.09708412 0.21406972 -0.076047421
-0.40749675 0.23822927 -0.074191689
0.048724636 0.23699996 -0.090160966
0.072922677 0.2377248 -0.080745935
-0.38179016 0.26103163 -0.088702083
0.048834242 0.26130992 -0.085414767
0.073070176 0.26211101 -0.07595551
-0.35818732 0.28522232 -0.085765123
0.024829132 0.28489199 -0.089340448
0.04894454 0.28569597 -0.080638885
-0.35941145 0.31030101 -0.074406624
-0.3345826 0.30950147 -0.082395077
-0.3098805 0.30870619 -0.090343237
0.024912572 0.30934882 -0.083920956
0.04906933 0.31021807 -0.07523489
-0.31092665 0.33383346 -0.079018116
-0.28625828 0.33297503 -0.086983204
0.00093166344 0.33295861 -0.087135553
0.024996301 0.33389103 -0.078482509
-0.26258489 0.35729638 -0.083615899
-0.23807721 0.35638097 -0.091542482
-0.022999758 0.35651952 -0.090343237
-0.28721935 0.3582181 -0.075633407
0.00097344071 0.35751674 -0.081708312
-0.23886016 0.38167059 -0.080241442
-0.21438648 0.38069209 -0.088185191
-0.022999758 0.38109139 -0.08494246
0.0010152478 0.38215885 -0.076277375
-0.19108663 0.40612954 -0.07661438
-0.16682485 0.40542296 -0.082013488
-0.14264633 0.40471706 -0.087409258
-0.046923213 0.40461746 -0.088169932
-0.022999758 0.40575096 -0.079507589
-0.11910321 0.43038431 -0.074866652
-0.094952166 0.42963317 -0.080287218
-0.070884869 0.42888477 -0.085688949
-0.046964966 0.42929244 -0.082746387
-0.022999758 0.43049476 -0.074069023
-0.071295246 -0.46088845 -0.05903399
-0.047108322 -0.46014404 -0.064123511
-0.022999758 -0.45994088 -0.065512896
0.0011819098 -0.46153304 -0.054627299
-0.16794135 -0.43690613 -0.057840466
-0.14358898 -0.43620247 -0.062918425
-0.11931527 -0.43550116 -0.067979813
-0.095119886 -0.43480203 -0.073025227
-0.022999758 -0.43502563 -0.071411848
0.0011258218 -0.43634179 -0.061913371
-0.24014391 -0.41224244 -0.061712384
-0.21570389 -0.41157752 -0.066793203
-0.1913438 -0.41091684 -0.071842074
0.0010776985 -0.41139802 -0.068164825
0.025306949 -0.41268834 -0.058305502
-0.28868532 -0.388533 -0.058321118
-0.26392859 -0.38756737 -0.066160798
0.025205249 -0.3877213 -0.064911127
0.049543455 -0.38897842 -0.054705024
-0.31243244 -0.36387223 -0.062717438
-0.28764975 -0.36296761 -0.07055068
0.025117474 -0.36296055 -0.070612073
0.049383059 -0.36399534 -0.061650395
-0.33611155 -0.33927864 -0.067116976
0.049251117 -0.33925197 -0.067363501
0.073611267 -0.34021989 -0.058383107
-0.3598668 -0.31488639 -0.070181608
0.049120009 -0.31460023 -0.073040485
0.073434986 -0.31549424 -0.064108014
-0.38422567 -0.29106206 -0.067610025
0.073277347 -0.29091269 -0.069227338
0.097721674 -0.29181275 -0.05948329
-0.40950114 -0.26780096 -0.057917953
0.0975288 -0.26724413 -0.064494133
0.12208522 -0.26807043 -0.054736018
-0.40825614 -0.24286649 -0.068026066
0.097336553 -0.24275391 -0.069489002
0.12185308 -0.24350272 -0.05976212
0.12162169 -0.21901339 -0.06477201
0.14625183 -0.21969038 -0.055000305
-0.4328959 -0.1949736 -0.063737512
0.12139102 -0.1946023 -0.069765925
0.14598103 -0.19520223 -0.060025334
0.14571111 -0.17079222 -0.06503427
0.17041434 -0.17131867 -0.055264235
-0.45760337 -0.14694926 -0.059436798
0.14547107 -0.14648484 -0.069489121
0.17010494 -0.14690994 -0.060288548
-0.45620406 -0.12241584 -0.069535255
0.14528549 -0.12228516 -0.072932839
0.16984878 -0.12261167 -0.064447761
0.16987638 -0.098519355 -0.06400001
0.17020987 -0.074534938 -0.058584571
0.17040861 -0.050433479 -0.055357337
-0.48246962 -0.026263887 -0.054503083
-0.48238781 -0.0020814354 -0.055062294
-0.4823083 0.022092838 -0.055605888
-0.48222655 0.046258312 -0.056164861
0.17047654 0.046287753 -0.054254174
-0.4821471 0.070415661 -0.056707978
0.17031111 0.070410304 -0.056940794
0.16999152 0.094414353 -0.062129974
-0.45617634 0.11824541 -0.069735169
0.16976516 0.11839674 -0.065805912
0.33860019 0.11845201 -0.064370632
-0.45741028 0.14272219 -0.060830474
0.1453948 0.14225686 -0.070904374
0.17000678 0.14267363 -0.061882377
0.14562549 0.16654393 -0.066623569
-0.43239918 0.19057725 -0.067533016
0.12131786 0.19034226 -0.071350336
0.14588512 0.19092993 -0.06180501
-0.43356618 0.21527731 -0.058615446
0.12154043 0.21472897 -0.066531181
0.097268462 0.23845512 -0.071257949
0.12176301 0.23918994 -0.061712384
-0.40859041 0.26301223 -0.065312266
0.097453967 0.26291686 -0.066438556
0.12198698 0.26372766 -0.056863189
-0.38382751 0.28658083 -0.071058154
0.07321813 0.28657231 -0.071150422
0.097639456 0.28745279 -0.061619639
0.073366076 0.31110761 -0.06634593
0.097855382 0.31214207 -0.056009769
-0.36144102 0.33635998 -0.055574775
-0.33572176 0.3346962 -0.07101202
0.049195632 0.33483052 -0.069765925
0.073548302 0.33583689 -0.060427785
-0.33686772 0.36007419 -0.059560657
-0.31198049 0.35914451 -0.067610145
0.025080325 0.35851929 -0.073024869
0.049329869 0.35956684 -0.063953519
-0.31304061 0.38463971 -0.056133747
-0.28818744 0.38364613 -0.06420064
-0.26346046 0.3826558 -0.072241664
0.025166066 0.38324532 -0.067456007
0.049493611 0.38454998 -0.05686307
-0.26438299 0.40827024 -0.060257554
-0.23986563 0.40755418 -0.065728903
-0.21543366 0.40684062 -0.071181059
0.0010573193 0.40688899 -0.070812345
0.025274748 0.40825212 -0.060397029
-0.1920632 0.43265319 -0.058491707
-0.1676583 0.43189418 -0.063968897
-0.14333844 0.43113786 -0.06942749
0.0011104736 0.43190271 -0.063907266
-0.1196614 0.45706147 -0.056739092
-0.095369346 0.45625937 -0.062222719
-0.071162023 0.45546013 -0.067687273
-0.047039092 0.45466602 -0.073117018
-0.022999758 0.45549843 -0.067425132
0.0011650547 0.4570502 -0.056816578
-0.071591914 -0.48800293 -0.039764643
-0.047285095 -0.48778808 -0.041160226
-0.022999758 -0.48772767 -0.041551948
0.0012794286 -0.48766497 -0.041959286
0.025645589 -0.48853481 -0.036310315
-0.16883205 -0.46388355 -0.038556457
-0.1443288 -0.46313164 -0.043697
-0.11990474 -0.46237996 -0.048836589
-0.095560551 -0.46163297 -0.053943515
0.025532102 -0.46313402 -0.043681383
-0.26614663 -0.43974578 -0.037347317
-0.24147555 -0.43903294 -0.042491794
-0.21688467 -0.43832231 -0.047619581
-0.19237365 -0.43761405 -0.05273068
0.025419382 -0.43785354 -0.051002502
0.049882323 -0.43937379 -0.040031314
-0.28973037 -0.41430134 -0.045979738
-0.26487267 -0.41326529 -0.053896785
0.049712494 -0.41411734 -0.047385335
0.074289002 -0.41555861 -0.0363729
-0.31356785 -0.38950536 -0.050426483
0.074062034 -0.39032847 -0.043743968
-0.33766183 -0.36515296 -0.051625609
0.073836125 -0.36521593 -0.051080465
0.098467968 -0.36648437 -0.040094137
-0.36214703 -0.34122866 -0.049023509
0.098184921 -0.34139848 -0.047447801
0.1229421 -0.34261224 -0.036184549
-0.38667279 -0.31726459 -0.046417236
0.097927719 -0.31649286 -0.054129958
0.12264571 -0.31764641 -0.042601466
-0.41123536 -0.29325807 -0.043837786
0.12234981 -0.29278043 -0.049007893
0.14719798 -0.2938489 -0.037441611
0.14685246 -0.26899195 -0.043853402
-0.43555743 -0.24476224 -0.043399811
0.14652348 -0.24425735 -0.049958944
0.17143457 -0.24512435 -0.03869772
-0.43422237 -0.21978731 -0.053601503
0.17104001 -0.22037603 -0.045104504
-0.46042919 -0.19649443 -0.039043069
0.17072476 -0.19580579 -0.050223827
0.1956519 -0.19643834 -0.039953232
-0.4590117 -0.17164142 -0.049273133
0.19527118 -0.17184761 -0.045448303
0.194922 -0.1473625 -0.050488591
-0.4838717 -0.12336342 -0.044916868
0.1953795 -0.12340313 -0.043884873
-0.48270839 -0.098862067 -0.052870393
0.1958368 -0.099342003 -0.037284493
-0.48262879 -0.074654289 -0.053414941
-0.48254919 -0.050454859 -0.053959131
0.17059051 -0.026280075 -0.052403688
0.36428049 -0.026286336 -0.051594377
0.17062983 -0.0020813225 -0.05176568
0.3657375 -0.0020813791 -0.039764762
0.17064036 0.022123691 -0.051594496
0.36477005 0.022154318 -0.047619343
-0.48252645 0.094661228 -0.05411458
-0.48384199 0.11919294 -0.04512012
-0.48516503 0.1438656 -0.0360744
-0.45865121 0.16733877 -0.051874518
-0.45989928 0.1920962 -0.042867422
-0.43473986 0.2401188 -0.049647212
-0.43592024 0.26510251 -0.040627241
-0.4108119 0.28877771 -0.04727602
0.1222591 0.28843641 -0.050971508
-0.38609296 0.31259954 -0.051438808
0.12254741 0.3132709 -0.044729233
0.098094873 0.33698359 -0.049787521
0.12283615 0.33820254 -0.038478136
-0.3635765 0.36282235 -0.035759926
0.073767126 0.36079454 -0.053321242
0.098370247 0.3620286 -0.04263258
-0.33883154 0.38663468 -0.039937258
0.073986456 0.38586342 -0.046198487
0.098646894 0.3871879 -0.035445452
-0.31415188 0.4103843 -0.044103861
-0.28916135 0.40925935 -0.052699327
0.049658105 0.40964648 -0.049740672
0.074207269 0.41104844 -0.039027452
-0.29054117 0.43571371 -0.03640449
-0.26579162 0.43494394 -0.041959286
-0.24113002 0.43417928 -0.047478914
-0.21655363 0.43341494 -0.052994847
0.02538416 0.43337405 -0.053290367
0.049823336 0.43485722 -0.04258585
-0.19305035 0.45948458 -0.040172458
-0.16850145 0.45867407 -0.045714021
-0.14403862 0.45786643 -0.051236272
0.025494067 0.45861009 -0.046151757
0.049989328 0.46018285 -0.035398126
-0.12022659 0.48405287 -0.03838408
-0.095791765 0.48319873 -0.043931723
-0.071471229 0.48263344 -0.047603846
-0.047227085 0.48246533 -0.048695922
-0.022999758 0.48229954 -0.049771905
0.0012198873 0.48231152 -0.049693823
0.025604477 0.48396099 -0.038980246
-0.16973448 -0.49119708 -0.019018173
-0.14507776 -0.49039331 -0.024238467
-0.12050244 -0.48959476 -0.029425383
-0.096007369 -0.48879868 -0.034595728
0.050224371 -0.49024221 -0.025220275
-0.26765186 -0.4669202 -0.017794132
-0.2428247 -0.46615618 -0.023018241
-0.21808003 -0.46539691 -0.028209329
-0.19341618 -0.46464014 -0.033383489
0.050052948 -0.46474844 -0.032643199
0.074746132 -0.46637431 -0.02152741
-0.29089972 -0.44046301 -0.032170534
0.074517034 -0.44090679 -0.028967619
0.099324457 -0.4424485 -0.017841816
-0.31519166 -0.4160198 -0.032848001
0.099038027 -0.41700977 -0.025283456
-0.3398045 -0.3919948 -0.030214906
0.098752327 -0.39168802 -0.032706141
0.12361541 -0.39305496 -0.021606803
-0.36445835 -0.36792973 -0.027577162
0.12327177 -0.36776015 -0.029046535
0.14825071 -0.36904666 -0.017905354
-0.38915333 -0.34382463 -0.024935126
0.14789408 -0.34386909 -0.024523377
-0.41388562 -0.31967607 -0.022320509
0.14754575 -0.31880873 -0.030987859
0.17262989 -0.31997949 -0.019288421
-0.43866077 -0.29548916 -0.019685626
0.1722295 -0.29492518 -0.025789857
-0.43690118 -0.2698999 -0.033131599
0.17183074 -0.26997316 -0.032265067
0.19699445 -0.27096325 -0.020574927
-0.463292 -0.24668808 -0.018382549
0.19654548 -0.24602047 -0.027055502
-0.46185595 -0.22150944 -0.028746605
0.19609724 -0.22117832 -0.033525229
0.22134052 -0.22198762 -0.021844625
0.22084206 -0.19715481 -0.028319955
0.24621725 -0.19787553 -0.016616702
-0.48687997 -0.17298451 -0.024349213
0.22034441 -0.17242217 -0.034784555
-0.4853698 -0.1480929 -0.034674525
0.220954 -0.14845349 -0.026865721
-0.51197606 -0.12432539 -0.019923806
0.22152629 -0.12434439 -0.019431353
-0.51077342 -0.099635921 -0.027735353
-0.51068825 -0.07523451 -0.028288484
0.19621952 -0.075154364 -0.031760573
-0.51060313 -0.050841618 -0.028841257
0.19657178 -0.050875008 -0.02667582
-0.51051801 -0.026457183 -0.029393911
0.19678128 -0.02650146 -0.023652077
-0.51043051 -0.0020812661 -0.029962301
0.19687352 -0.0020812661 -0.022320628
-0.51034307 0.02228591 -0.030530453
0.19684716 0.022346204 -0.022701144
-0.51025808 0.046644509 -0.031082511
0.19665948 0.046731878 -0.025410056
-0.5101707 0.070994362 -0.031650066
0.19635393 0.071036614 -0.029820204
-0.51053989 0.095426686 -0.029251814
0.19598818 0.095246702 -0.035099268
-0.51194668 0.12015541 -0.020114422
-0.4864957 0.16868034 -0.026976347
-0.4878341 0.19363844 -0.017825961
-0.46115232 0.21699491 -0.033824444
-0.46241477 0.24203804 -0.024713516
-0.43821013 0.29100838 -0.023129106
-0.41326544 0.31500947 -0.02735579
-0.38838887 0.33894861 -0.031555533
-0.34083435 0.41354856 -0.019923806
0.098924808 0.41246217 -0.028225303
-0.31651178 0.43818668 -0.01855731
0.074429087 0.43634844 -0.031823635
0.099203981 0.43785208 -0.020971894
-0.26721799 0.46193343 -0.023430228
-0.24240816 0.46111426 -0.029030681
-0.21768577 0.46029791 -0.034611464
0.074651919 0.46176416 -0.024586797
-0.19404908 0.48663118 -0.021638513
-0.1693545 0.48576787 -0.027245164
-0.1447476 0.48491013 -0.03281641
0.050156079 0.4856241 -0.028177619
0.074875779 0.48729622 -0.017316818
-0.12082829 0.51151848 -0.018843532
-0.096345827 0.51134109 -0.01993978
-0.071880028 0.51116151 -0.021051168
-0.047431469 0.51098454 -0.022146106
-0.022999758 0.51080519 -0.023255944
0.001414869 0.51062578 -0.024365067
0.02581243 0.51044673 -0.025473475
0.050323591 0.51118201 -0.020924211
-0.1706474 -0.51884812 0.00074720383
-0.14583665 -0.51799625 -0.004521966
-0.12110707 -0.51714468 -0.0097898245
-0.096519008 -0.51671606 -0.012441039
-0.072006449 -0.51665157 -0.012839913
-0.04749991 -0.51658452 -0.013254762
-0.022999758 -0.51651746 -0.013669372
0.0014940128 -0.51645046 -0.014083862
0.025981402 -0.51638347 -0.014498472
0.050462417 -0.51631653 -0.014912724
0.075207084 -0.51766717 -0.0065574646
-0.24419177 -0.49361914 -0.0032866001
-0.2192902 -0.49280739 -0.0085582733
-0.19447163 -0.49200082 -0.013797045
0.07497631 -0.49196163 -0.014051914
0.099902608 -0.49369073 -0.0028210878
0.099612847 -0.46800923 -0.010349154
0.12468728 -0.46975693 0.0016001463
-0.31722426 -0.44341815 -0.01084435
0.12430755 -0.44400325 -0.0066215992
-0.34197494 -0.41920272 -0.0085263252
0.12396067 -0.41846916 -0.014131665
0.14909209 -0.42001867 -0.0022912025
-0.36679965 -0.39499545 -0.0058525801
0.14865445 -0.39443383 -0.010413051
-0.39166605 -0.37074766 -0.0031740665
0.17346324 -0.37044948 -0.005756259
-0.41657227 -0.34645733 -0.00050735474
0.17303093 -0.34513509 -0.012776136
0.19846502 -0.34658214 0.0006506443
-0.44152012 -0.32212633 0.002163887
0.19793455 -0.32120863 -0.0070059299
0.19744639 -0.29600954 -0.014051914
0.22297688 -0.29725325 -0.00058782101
-0.46473753 -0.2720322 -0.0079504251
0.22238791 -0.2720077 -0.008238554
0.22184227 -0.24692327 -0.015326858
0.24746975 -0.24796264 -0.0018252134
-0.48993012 -0.22325881 -0.0034953356
0.24682242 -0.22284497 -0.009469986
-0.48840007 -0.19803937 -0.013956428
0.27194366 -0.19871032 -0.0030617714
-0.51519573 -0.17434984 0.00098848343
0.24644926 -0.1735488 -0.013876796
-0.51358056 -0.14925554 -0.0095019341
0.24718168 -0.14945292 -0.0052274466
-0.53929353 -0.10042304 -0.0021787882
0.22210127 -0.10012173 -0.011962295
-0.53920007 -0.075824209 -0.0027567148
0.22267772 -0.075784616 -0.0044736862
-0.53910923 -0.051234581 -0.0033186674
0.22311062 -0.051303394 0.0011495352
-0.53901589 -0.026653523 -0.0038962364
-0.53892249 -0.0020812661 -0.0044738054
-0.53883177 0.022482136 -0.0050350428
-0.53873849 0.047036681 -0.0056120157
-0.53864527 0.071582377 -0.0061888695
0.22285071 0.071673863 -0.0022269487
-0.53900033 0.096204489 -0.0039925575
-0.51336163 0.14502718 -0.010924101
-0.51478481 0.1700435 -0.0016807318
-0.48918021 0.21874103 -0.0086225271
-0.49053416 0.2439895 0.00063455105
-0.4636845 0.2672261 -0.015550017
-0.46602967 0.29327184 0.0013749599
-0.44085729 0.3174569 -0.0029011965
-0.41575214 0.34157702 -0.0071659088
-0.39071217 0.36563098 -0.01143527
-0.36574084 0.38962278 -0.015677214
-0.29306179 0.4643895 -0.006637454
0.099484444 0.46335858 -0.013685346
-0.24370137 0.48836666 -0.01036489
-0.21883121 0.48749736 -0.016011715
0.099785924 0.48906127 -0.0058524609
-0.19506048 0.51410073 -0.0028691292
-0.17021835 0.51318371 -0.0085421801
-0.14546432 0.51226979 -0.014195442
0.075101152 0.51294851 -0.0099974871
0.026227275 0.53941602 0.0014716387
0.050814778 0.53922522 0.00034499168
-0.17157252 -0.54684818 0.02077651
-0.14665757 -0.54617572 0.016805887
-0.12191299 -0.54610407 0.01638341
-0.097175293 -0.54603523 0.015977025
-0.072443619 -0.54596376 0.015554905
-0.047718562 -0.54589504 0.015148878
-0.022999758 -0.54582357 0.014726758
0.0017125495 -0.54575211 0.014304638
0.02641836 -0.54568064 0.013882875
0.051117681 -0.54560918 0.013461113
0.07584098 -0.54570538 0.014029026
-0.2205165 -0.52056277 0.011354089
-0.1955411 -0.51970536 0.0060499907
0.10022292 -0.51961666 0.0055011511
0.1255113 -0.52187008 0.019441009
-0.27043679 -0.49695534 0.018383145
0.12509815 -0.49574101 0.010495782
-0.2939367 -0.47006321 0.0036945343
0.15005112 -0.47179091 0.015506148
-0.34417698 -0.44678819 0.013477325
0.14957027 -0.44583294 0.006582737
0.17508118 -0.44776344 0.0205158
-0.36917505 -0.42243704 0.016188383
0.17452994 -0.42183194 0.011564732
-0.39421543 -0.39804471 0.018903852
0.17398176 -0.39604431 0.0026631355
0.19956851 -0.39775816 0.016578197
0.19899803 -0.37207764 0.0083441734
0.22416328 -0.34810969 0.014824271
0.24943054 -0.32404444 0.021330595
0.22356865 -0.32262033 0.0070997477
-0.46650752 -0.29775324 0.0048234463
0.24877381 -0.2985616 0.013574719
-0.49302065 -0.27419868 0.017635107
0.24812019 -0.2732012 0.0058560371
0.27408102 -0.27440533 0.020076156
-0.49147034 -0.24864475 0.0070351362
0.27336517 -0.24905208 0.012326241
0.27265269 -0.22382063 0.0046137571
0.29875144 -0.22483212 0.01921308
-0.5168215 -0.19961001 0.011548519
0.29839507 -0.19986264 0.015652299
0.27278388 -0.17462172 0.0060337782
-0.54224432 -0.15043695 0.016074657
0.27362889 -0.1503956 0.015181422
-0.54053241 -0.12530325 0.0054849386
0.24791804 -0.12522575 0.0034688711
0.24865845 -0.10086615 0.012212873
0.24936983 -0.076363884 0.020613551
0.22345428 -0.026726736 0.0056140423
0.22361219 -0.0020813791 0.0076652765
0.29717746 -0.0020813791 0.0034850836
-0.56787974 -0.0020812661 0.021444678
-0.56778032 0.022681411 0.020858049
0.22354129 0.022572778 0.0067442656
-0.56768376 0.047435343 0.020287871
0.22326559 0.047171768 0.0031627417
-0.56758451 0.072180249 0.019701481
-0.54050112 0.12113339 0.0052912235
-0.54201066 0.14620759 0.014629483
-0.51621622 0.19520535 0.0076166391
-0.51765597 0.22051395 0.016968489
-0.491896 0.26938495 0.0099455118
-0.4435384 0.34424463 0.017586231
-0.4182688 0.36848328 0.013266563
-0.39306518 0.39265516 0.0089426041
-0.36793113 0.41676387 0.0046460629
-0.34325281 0.44134599 0.0042427778
-0.31973496 0.46774936 0.016334653
-0.2694352 0.49078965 0.0053720474
-0.24562998 0.5173893 0.017472267
-0.21999122 0.51502132 0.0028243065
0.10012051 0.51502383 0.0028403997
-0.19608304 0.54189456 0.016107082
-0.17109618 0.54093903 0.010463595
-0.14636984 0.54074687 0.0093305111
-0.12166146 0.5405581 0.0082147121
-0.09696991 0.54036647 0.007083416
-0.072295785 0.54017502 0.0059530735
-0.047639199 0.53998661 0.0048395395
-0.022999758 0.53979516 0.0037107468
0.0016223118 0.53960407 0.0025826693
0.075497948 0.53965604 0.0028887987
0.10045756 0.54113096 0.011597037
-0.1966231 -0.54775459 0.026129484
0.10085793 -0.54705513 0.021998763
0.12599941 -0.54841173 0.030008674
-0.24672015 -0.52409559 0.033207178
0.1510209 -0.52414316 0.033502698
0.15053464 -0.49789393 0.024479389
0.176194 -0.50006562 0.038585186
-0.32069114 -0.47342595 0.026685476
0.17563654 -0.47384253 0.029533386
-0.37158352 -0.45026037 0.038535953
0.2008162 -0.44971326 0.034587026
0.2001906 -0.42366311 0.025557399
0.22607616 -0.42551041 0.039672852
0.22537886 -0.39948717 0.030615091
-0.41929618 -0.3736091 0.021607637
0.22476079 -0.37372214 0.022585869
0.25075361 -0.37538141 0.036955237
-0.44441912 -0.34913254 0.024316072
0.25009048 -0.34965074 0.029123902
-0.46958214 -0.32461303 0.027012587
0.2755658 -0.32552728 0.036148906
-0.49478975 -0.30005386 0.029730082
0.27480039 -0.29988149 0.027863264
0.30045122 -0.27577055 0.036198258
-0.52010304 -0.25063297 0.032862663
0.29959908 -0.25023431 0.027683377
-0.51845807 -0.22503759 0.022178411
0.32533383 -0.22601005 0.036214948
-0.54570228 -0.20120615 0.037465572
0.32482931 -0.20084079 0.03153336
-0.54396755 -0.17573723 0.026734591
0.29929477 -0.17562449 0.024642587
0.30019459 -0.15124792 0.033634186
-0.56981057 -0.12635648 0.032846093
0.27448025 -0.12603131 0.024397731
-0.56827474 -0.10122228 0.023777246
0.27533498 -0.10152612 0.033650517
-0.5681752 -0.076423444 0.023189664
-0.56807578 -0.051633693 0.022602439
0.25001839 -0.051720951 0.02827251
-0.5679791 -0.026853079 0.022031784
0.25056836 -0.026951166 0.034767866
0.25086236 -0.0020813791 0.038239479
0.27593702 -0.0020813791 0.040167689
0.25073549 0.022803638 0.036741376
0.25025699 0.047601789 0.031090379
0.24962252 0.072270215 0.023597717
-0.56791836 0.096994765 0.021672964
-0.56975222 0.12218064 0.03250134
-0.54352909 0.17142844 0.024022222
-0.5450564 0.19679751 0.033469915
-0.51910418 0.24597096 0.026374817
-0.52056092 0.27157718 0.035836458
-0.49428463 0.29557234 0.026276708
-0.46887839 0.31994203 0.021933794
-0.44625416 0.37137836 0.038338304
-0.42081791 0.39573672 0.033962607
-0.39544851 0.42002732 0.029582739
-0.3703804 0.44455096 0.027372479
-0.3467935 0.47115564 0.03962338
-0.29603869 0.494353 0.0285182
-0.22164413 0.5441907 0.029664636
0.12577873 0.54343987 0.025230646
-0.17236845 0.57049876 0.038008928
-0.14742932 0.57029468 0.036856413
-0.12250844 0.57009357 0.035721421
-0.097604699 0.56989002 0.034570694
-0.072718933 0.56968933 0.033437252
-0.047850501 0.56948584 0.032287955
-0.022999758 0.56928235 0.031139851
0.001833437 0.5690822 0.030008793
0.026648978 0.56887913 0.02886188
0.051599115 0.56984323 0.034307718
-0.17295261 -0.5769006 0.050656438
-0.14777166 -0.5760321 0.045751095
-0.12280403 -0.57595587 0.045320749
-0.097843409 -0.57588279 0.044907331
-0.072888911 -0.57580662 0.044477224
-0.047941152 -0.57573336 0.044064045
-0.022999758 -0.57565731 0.043634295
0.0019350201 -0.57558131 0.043204665
0.026863186 -0.5755052 0.042775154
0.051872939 -0.57610536 0.046164632
0.077080861 -0.57754481 0.054295182
-0.2227837 -0.55148709 0.048168659
0.17731936 -0.55295891 0.056859136
0.15151076 -0.55054295 0.042593598
-0.27337942 -0.52787864 0.056609273
0.17675458 -0.52643651 0.047688127
-0.29714391 -0.50052512 0.041569948
0.2020791 -0.50225657 0.052815676
-0.34783283 -0.47683743 0.05000937
0.2014453 -0.47590977 0.043667436
0.22748253 -0.47799772 0.057942271
0.22677736 -0.45168015 0.048781991
-0.39680028 -0.42572191 0.04128921
0.2522487 -0.42746535 0.054611325
-0.42206001 -0.40114158 0.044047475
0.25141996 -0.40123728 0.0448246
-0.44735852 -0.37651548 0.046777129
0.27715147 -0.37727037 0.05331409
-0.4726997 -0.35184795 0.049511671
0.27635652 -0.3513304 0.044708967
-0.49808604 -0.32714036 0.052267075
0.30216905 -0.32725009 0.053364038
