ply
format ascii 1.0
comment PCL generated
element vertex 1342
property float x
property float y
property float z
element camera 0
property float view_px
property float view_py
property float view_pz
property float x_axisx
property float x_axisy
property float x_axisz
property float y_axisx
property float y_axisy
property float y_axisz
property float z_axisx
property float z_axisy
property float z_axisz
property float focal
property float scalex
property float scaley
property float centerx
property float centery
property int viewportx
property int viewporty
property float k1
property float k2
end_header
-0.14211456 -0.067626491 -0.14494789
-0.11382179 -0.067381784 -0.16084182
0.41013646 -0.067430943 -0.15765309
0.43929487 -0.06764093 -0.14401138
-0.14211048 -0.039944861 -0.1450361
-0.11380495 -0.039819807 -0.1612792
0.40975511 -0.039820392 -0.16119182
0.43888316 -0.039925419 -0.14757717
-0.11378744 -0.012264466 -0.16173434
0.43847227 -0.012264466 -0.15113592
-0.14210723 -0.012264401 -0.14510679
-0.14210804 0.01541541 -0.14508891
-0.1137915 0.01528821 -0.1616292
0.43856373 0.01537496 -0.15034354
-0.1421113 0.04309639 -0.14501834
-0.113809 0.042847648 -0.1611743
0.40984002 0.042859614 -0.16040421
0.43897277 0.043069012 -0.14680123
-0.14211538 0.070778862 -0.14493001
-0.11382584 0.070413977 -0.16073656
0.41021964 0.070503004 -0.15688145
0.43938467 0.070818208 -0.14323401
-0.14212516 0.098466672 -0.14471817
-0.1138629 0.098003007 -0.15977359
0.41060191 0.098201349 -0.15333426
-0.14213414 0.12615696 -0.14452386
-0.11391214 0.12561914 -0.15849459
0.41098496 0.12595458 -0.14978015
-0.14218393 0.15389094 -0.14344597
-0.11396274 0.15325668 -0.15717971
0.38233227 0.15313281 -0.15986133
0.41136876 0.15376282 -0.14621878
-0.14227542 0.1816902 -0.14146543
-0.11401814 0.18092109 -0.15574086
0.3826867 0.18088993 -0.15631998
0.41175336 0.18162647 -0.14265072
-0.11415069 0.2087311 -0.15229678
0.35461891 0.20816721 -0.16145432
0.38343456 0.20894355 -0.14884639
-0.11429502 0.23661534 -0.14854658
-0.086286314 0.23581563 -0.1600889
0.32709017 0.2357416 -0.16115654
0.3556225 0.23647369 -0.15059006
-0.11444035 0.26455939 -0.14477122
-0.086450472 0.26379046 -0.15475762
0.29961747 0.26338148 -0.16007149
0.32786572 0.26400304 -0.1519978
-0.086614586 0.29184726 -0.14942765
-0.058764748 0.29110187 -0.15823162
0.27212691 0.29103652 -0.1590029
0.30032161 0.29172057 -0.15092468
0.32876205 0.29252604 -0.14141238
-0.086779185 0.3199876 -0.14408219
-0.058923326 0.31931496 -0.15136445
-0.031184636 0.31867239 -0.15831912
0.24462102 0.31870973 -0.15791607
0.27276224 0.31945646 -0.14983296
0.30102932 0.32020488 -0.1417309
-0.059084982 0.34764701 -0.14436495
-0.031302281 0.34701526 -0.15067792
-0.0036293771 0.34654728 -0.15535438
0.023971528 0.34611046 -0.15972102
0.051520631 0.34587368 -0.1620841
0.1893599 0.34607702 -0.16005397
0.21718448 0.34655946 -0.15523148
0.245185 0.34720743 -0.14875841
0.27339959 0.34802061 -0.1406337
-0.03144303 0.37563735 -0.14153636
-0.0036944058 0.37505862 -0.14690685
0.023971528 0.37475473 -0.14972723
0.051597323 0.37449664 -0.15212095
0.079209313 0.37439996 -0.15301788
0.10682902 0.37440386 -0.15298271
0.13448554 0.37453464 -0.15176928
0.16221231 0.37480959 -0.14921618
0.19003886 0.37522602 -0.14535391
0.051680304 0.4033671 -0.14134181
0.079389349 0.40336931 -0.1413238
0.10710849 0.40342024 -0.1408813
0.079737797 -0.45839462 -0.1186918
-0.031787023 -0.43045363 -0.11919343
-0.0038660262 -0.42982778 -0.12461305
0.023971528 -0.42920378 -0.13001657
0.051750638 -0.42895108 -0.13220549
0.079530016 -0.42895326 -0.13218749
0.10735117 -0.42916283 -0.13037252
0.13522339 -0.42945901 -0.12780714
0.16321912 -0.43000719 -0.12305856
-0.059532054 -0.40194792 -0.12500596
-0.031583399 -0.40114897 -0.13241875
-0.0037567411 -0.40046015 -0.13880944
0.16261356 -0.40046209 -0.13879168
0.19060676 -0.40107998 -0.13305891
0.21869975 -0.40172088 -0.12711167
0.24688554 -0.40236405 -0.12114465
-0.08728417 -0.37384549 -0.12768233
-0.059259139 -0.37293071 -0.13682377
0.24590249 -0.3729023 -0.13710749
0.27405497 -0.37349612 -0.13117361
0.30243781 -0.37427062 -0.12343383
-0.11511046 -0.34606114 -0.12736154
-0.086990684 -0.34515116 -0.13721395
0.30158335 -0.3453986 -0.13453388
0.33041921 -0.34657106 -0.12184262
-0.14310825 -0.31857747 -0.12343383
0.32948449 -0.31777737 -0.13288116
0.3584401 -0.31886065 -0.12008882
-0.11482891 -0.31762546 -0.13467586
-0.14284123 -0.2902858 -0.129215
0.35741943 -0.29013771 -0.13113821
-0.17110331 -0.26307508 -0.12067938
-0.14262758 -0.26216319 -0.13384092
0.38538137 -0.26247129 -0.1293931
-0.17096162 -0.2350453 -0.12330854
-0.14245296 -0.23416385 -0.13762176
0.38428307 -0.23399468 -0.14036798
0.41337416 -0.23478036 -0.12761092
-0.17084709 -0.20708311 -0.1254344
-0.14235063 -0.20630702 -0.13983667
0.41218829 -0.20637284 -0.13861454
0.4413926 -0.20706102 -0.12584496
-0.17076632 -0.1791826 -0.12693334
0.44094995 -0.17905593 -0.12967813
-0.17074805 -0.15134984 -0.12727225
0.44053498 -0.15111886 -0.13327229
-0.17073365 -0.1235245 -0.12753963
0.44012076 -0.12323771 -0.13685906
0.46989873 -0.12374638 -0.12033927
-0.17072211 -0.095704675 -0.1277535
0.4693746 -0.095777579 -0.12459505
-0.17074613 -0.067898057 -0.12730777
0.46884945 -0.067874193 -0.1288588
-0.17076632 -0.04008422 -0.12693334
0.46832556 -0.040036619 -0.13311231
-0.17078553 -0.012264531 -0.12657642
0.46780288 -0.012264466 -0.13735569
-0.1707817 0.015557436 -0.12664783
0.46792087 0.015482455 -0.13639784
-0.17076246 0.043373808 -0.12700462
0.46844381 0.043294538 -0.13215196
-0.17073365 0.071180627 -0.12753963
0.468968 0.071172297 -0.12789619
-0.17072499 0.098990627 -0.12770009
0.43979943 0.098623008 -0.13964212
0.46949118 0.099115416 -0.12364829
-0.17073652 0.12681273 -0.12748635
0.44021297 0.12648262 -0.1360606
0.47001785 0.12712494 -0.11937237
-0.17075095 0.15464041 -0.1272186
0.44062734 0.1543979 -0.13247216
-0.17077015 0.18247707 -0.12686181
0.44104254 0.18236867 -0.12887645
-0.17087308 0.21041499 -0.1249522
-0.14237273 0.20952782 -0.13935864
0.41245207 0.20972431 -0.13616717
0.44167513 0.21051073 -0.12339807
-0.17098764 0.23839727 -0.1228261
-0.14249226 0.23743115 -0.13677037
0.38452771 0.23735124 -0.13792312
0.41363955 0.23823631 -0.12514865
-0.17114286 0.26647037 -0.11994541
-0.1426678 0.26546767 -0.13296986
0.35663223 0.26495275 -0.13965964
0.3856293 0.26593387 -0.12691534
-0.11462142 0.29263997 -0.14006722
-0.14289473 0.29365698 -0.12805665
0.35764644 0.29360411 -0.12868047
-0.14318341 0.32204545 -0.12180674
-0.11489116 0.32100591 -0.13305891
0.32969239 0.32124913 -0.13042581
-0.11517295 0.34951106 -0.12573779
-0.087055705 0.34857407 -0.13510191
0.30176398 0.34886575 -0.13218749
0.33062685 0.35014644 -0.11939001
-0.0873501 0.37736121 -0.12554157
-0.059319817 0.37642846 -0.13419616
0.21803409 0.37586072 -0.13946474
0.24612118 0.37649739 -0.1335566
0.27430058 0.37713626 -0.1276288
0.30276704 0.37804919 -0.11915731
-0.059593551 0.40556094 -0.12234318
-0.031624775 0.40470773 -0.12973166
-0.0037813168 0.40402818 -0.13561702
0.023971528 0.40355742 -0.13969517
0.13489988 0.40371695 -0.13831317
0.16274327 0.40405062 -0.13542175
0.19077031 0.40473247 -0.12951791
0.21889025 0.40541855 -0.12357676
-0.00389052 0.43352833 -0.12143123
0.023971528 0.43291867 -0.12638009
0.051770777 0.43252349 -0.12958908
0.079570569 0.43252784 -0.12955356
0.10742113 0.43280008 -0.12734354
0.13531679 0.43311664 -0.12477374
0.16335618 0.43376639 -0.11949778
0.052014895 -0.48900181 -0.097876668
0.080041811 -0.48886183 -0.098945737
0.10807025 -0.48882398 -0.099235535
0.13617739 -0.48913935 -0.096825004
-0.060124271 -0.46077549 -0.099362135
-0.032007985 -0.46010065 -0.10484135
-0.003979085 -0.4594743 -0.1099261
0.023971528 -0.45906442 -0.11325383
0.05187095 -0.45865533 -0.11657596
0.10766565 -0.45863307 -0.11675537
0.13567981 -0.45909759 -0.11298466
0.16383766 -0.45983613 -0.10698879
0.19208954 -0.46057928 -0.10095513
-0.11623555 -0.43288583 -0.098130226
-0.087963037 -0.43201914 -0.10563576
-0.059806779 -0.43115592 -0.1131103
0.19134487 -0.43069786 -0.11707807
0.21956375 -0.43139055 -0.11107814
0.24787623 -0.43208584 -0.10505807
-0.14422593 -0.40472525 -0.099235415
-0.11582936 -0.40370703 -0.10868311
-0.087595239 -0.40274814 -0.11758029
0.27519816 -0.40306142 -0.11467338
0.30392748 -0.40420282 -0.10408294
-0.17236429 -0.37688825 -0.097278357
-0.14378956 -0.37574679 -0.10868347
-0.11545865 -0.37478301 -0.11831522
0.33135968 -0.37554136 -0.11073613
0.36049867 -0.37683555 -0.097804189
-0.17196357 -0.34815317 -0.10471499
-0.14344822 -0.34710395 -0.11607361
0.35946542 -0.34775838 -0.10898948
-0.20040111 -0.32077697 -0.097459674
-0.17163427 -0.31964508 -0.11082613
0.38760179 -0.31995168 -0.10720527
-0.20009117 -0.29234281 -0.10249269
-0.17135632 -0.29130429 -0.11598396
0.38648817 -0.29112345 -0.11833322
0.4157775 -0.29212579 -0.10531092
-0.19991648 -0.26413849 -0.10532904
0.41456535 -0.26336053 -0.11655784
0.44436896 -0.26450294 -0.10006833
-0.19974099 -0.23597702 -0.10817873
0.4428319 -0.23565674 -0.11337984
-0.19967107 -0.20795171 -0.10931385
0.47148535 -0.2080517 -0.10745788
-0.19965002 -0.17998061 -0.10965598
0.47095522 -0.17988335 -0.11176181
-0.19962893 -0.15201478 -0.10999811
0.47042638 -0.15178156 -0.11605573
-0.19971657 -0.12410861 -0.10857522
0.50031304 -0.12434492 -0.10090089
-0.19978428 -0.096172966 -0.10747564
0.49974775 -0.096225053 -0.10522068
-0.19984759 -0.068219379 -0.1064477
0.4991838 -0.06817171 -0.10953009
-0.19988646 -0.0402468 -0.10581625
0.49862352 -0.040185153 -0.11381125
-0.19991092 -0.012264531 -0.10541916
0.49806225 -0.012264466 -0.11810029
0.52864671 -0.012264466 -0.0986377
-0.19990537 0.015720207 -0.1055094
0.49818894 0.015630661 -0.11713195
0.52877986 0.015780361 -0.097677231
-0.19988205 0.043698896 -0.10588837
0.49874818 0.043591533 -0.11285865
-0.19983315 0.07166224 -0.1066823
0.49931109 0.071618997 -0.10855722
-0.19976874 0.09960562 -0.10772812
0.49987534 0.099712856 -0.10424542
-0.19969438 0.12752676 -0.10893559
0.50044096 0.12787363 -0.099923611
-0.19963336 0.15543932 -0.1099261
0.47054577 0.15520084 -0.11508644
-0.19965445 0.18340819 -0.10958409
0.47107491 0.18334328 -0.11079013
-0.19967662 0.21138375 -0.10922384
0.4717609 0.21163028 -0.10522068
-0.19977985 0.23945576 -0.10754776
0.44317251 0.23925617 -0.11043012
-0.19995429 0.26764268 -0.10471499
0.41483238 0.26692182 -0.11408055
0.44470999 0.26822788 -0.097115278
-0.2001524 0.29590589 -0.10149789
-0.17141823 0.29477656 -0.1148349
0.38673586 0.29468992 -0.11585808
0.41609487 0.29583246 -0.10236621
-0.17169538 0.32316455 -0.10969186
0.35866851 0.32243237 -0.11761606
0.387851 0.32362425 -0.10471499
-0.17205216 0.35177949 -0.10307097
-0.14352366 0.35064185 -0.11443996
0.3596952 0.3514362 -0.10650206
-0.14387865 0.37938592 -0.1067543
-0.11554077 0.37836999 -0.11618125
0.33156708 0.37922063 -0.10828698
-0.14432554 0.40847814 -0.097078919
-0.11591195 0.40738592 -0.10653794
-0.087677009 0.40641737 -0.11492467
0.24710284 0.40610686 -0.11761618
0.27549335 0.4069387 -0.11041224
0.30425742 0.40816438 -0.099796891
-0.088045336 0.43580297 -0.10296261
-0.059868671 0.43488324 -0.11043012
-0.031836431 0.43419906 -0.11598384
0.19150904 0.43450221 -0.11352348
0.21975493 0.43524039 -0.10752976
0.24809435 0.43598104 -0.10151601
-0.032057229 0.46397999 -0.10164285
-0.004007807 0.46338421 -0.10619509
0.023971528 0.46295014 -0.10951185
0.051899705 0.46251458 -0.11284053
0.07980492 0.46231928 -0.11433196
0.10773572 0.46239921 -0.11372125
0.13578951 0.46296173 -0.10942185
0.16397522 0.4637481 -0.10341442
0.19225435 0.46453691 -0.097387195
-0.0042423997 -0.52011526 -0.075720429
0.023971528 -0.51996279 -0.076821089
0.05216866 -0.51981282 -0.077902436
0.080373123 -0.51987886 -0.077426076
0.10862306 -0.52017367 -0.075298548
-0.08877413 -0.49143362 -0.079294562
-0.060459785 -0.49070868 -0.084834218
-0.032243595 -0.49009296 -0.089538097
-0.004110124 -0.48965248 -0.092903614
0.023971528 -0.48921308 -0.096262693
0.16446239 -0.4899334 -0.090757728
0.1928409 -0.49072772 -0.084688306
0.22137712 -0.49167818 -0.077425957
-0.11670026 -0.46241426 -0.086056948
-0.088333264 -0.46148369 -0.093612194
0.22043544 -0.46132478 -0.0949018
0.24902841 -0.46237817 -0.08634901
0.27790576 -0.46370319 -0.075592041
-0.17348939 -0.43539494 -0.076399207
-0.1446915 -0.43392196 -0.089155674
0.27654532 -0.43322089 -0.095228314
0.30543169 -0.4344548 -0.084542155
-0.1728334 -0.40587428 -0.08857286
0.33282354 -0.40534893 -0.093448758
0.36189079 -0.40650368 -0.08273375
-0.20122248 -0.37820476 -0.084122181
0.3899447 -0.37823761 -0.08379364
-0.22986868 -0.35071811 -0.076949358
-0.20072311 -0.34930643 -0.092231035
0.38872227 -0.34895745 -0.096008658
0.41866618 -0.35057417 -0.078507185
-0.22943249 -0.32198057 -0.083245397
0.41721657 -0.32124278 -0.091958284
-0.22917324 -0.29353639 -0.086987257
0.44591528 -0.2935603 -0.086677194
-0.22897506 -0.26521105 -0.089847565
0.4746927 -0.26579517 -0.081417441
-0.22887671 -0.23701853 -0.091267228
0.47303858 -0.236798 -0.094847202
0.50355303 -0.23794989 -0.07614255
-0.22884524 -0.20889983 -0.091721773
0.50201464 -0.20910561 -0.087898731
-0.22886917 -0.180825 -0.091376185
0.50144529 -0.1807847 -0.092249155
-0.22899023 -0.15279886 -0.089629173
0.50087726 -0.1525308 -0.096589327
0.5316596 -0.15328893 -0.076894283
-0.22910631 -0.1247435 -0.08795321
0.53105307 -0.12494938 -0.081271052
-0.22930595 -0.096690215 -0.085071683
0.53045058 -0.096677668 -0.085619092
-0.22948059 -0.068587124 -0.082551003
0.52984703 -0.068472862 -0.089975119
-0.22963011 -0.040442474 -0.080392718
0.5292474 -0.040335372 -0.094302535
-0.22969222 -0.012264466 -0.079496145
0.55982161 -0.012264466 -0.077187657
-0.2296783 0.015918745 -0.079697371
0.55998778 0.015946904 -0.076050758
-0.22961619 0.044088367 -0.080594063
0.5293808 0.043892168 -0.093339682
-0.22944134 0.072206482 -0.083117366
0.52998328 0.07207083 -0.088991761
-0.22925919 0.10028252 -0.085746884
0.53058469 0.10031627 -0.084651709
-0.22908106 0.12832026 -0.088317633
0.53119004 0.12862948 -0.080283046
-0.22896498 0.15635988 -0.089993238
0.50100791 0.1561012 -0.095591187
0.53179681 0.15701064 -0.075904131
-0.22883639 0.18436387 -0.091849208
0.50157619 0.18439619 -0.09124887
-0.22885278 0.21246822 -0.091612577
0.50218397 0.21277671 -0.086604238
-0.22888428 0.24059132 -0.091157794
0.4734056 0.24054223 -0.091867328
-0.22901797 0.26883501 -0.08922863
0.47506243 0.26966721 -0.078415394
-0.22921619 0.29718703 -0.086367249
0.44625667 0.29741141 -0.083720565
-0.22952747 0.32573405 -0.081874609
-0.20047148 0.32440007 -0.096317053
0.41753626 0.32507664 -0.088991642
-0.22996527 0.35453302 -0.075555563
-0.20080712 0.35300085 -0.090866685
0.38897118 0.35273513 -0.093521357
0.41898826 0.35453665 -0.075518727
-0.20134851 0.38204551 -0.082075715
-0.17245325 0.38058504 -0.095627904
0.3607282 0.38061842 -0.095319152
0.39024106 0.38217968 -0.080832124
-0.17297782 0.4097698 -0.085892916
0.33319017 0.40939727 -0.089119315
0.36229309 0.41063741 -0.078378916
-0.14481524 0.43783346 -0.086476564
-0.11633816 0.43672645 -0.09546423
0.27684247 0.43728393 -0.090939522
0.30576521 0.43860546 -0.080209851
-0.11681902 0.46642339 -0.082971334
-0.088425085 0.46542105 -0.090630174
-0.060198367 0.4646982 -0.096153975
0.22062735 0.46532816 -0.091339707
0.24929382 0.46654537 -0.082039118
-0.088872887 0.4955354 -0.076087475
-0.060533628 0.49476627 -0.081636906
-0.0323014 0.4941918 -0.085783243
-0.004139116 0.49372706 -0.089137554
0.023971528 0.4932709 -0.092430949
0.052048706 0.49312487 -0.093484998
0.08010938 0.49297622 -0.094556689
0.10819215 0.49305931 -0.093957424
0.13633004 0.49334881 -0.091867328
0.16459979 0.49399719 -0.087187886
0.19300634 0.49484 -0.081106544
-0.032783896 -0.55144095 -0.054444551
-0.0043977555 -0.55128098 -0.055539131
0.023971528 -0.55112088 -0.056633472
0.052342094 -0.55130529 -0.055372238
0.080745816 -0.55162024 -0.053218961
-0.089326546 -0.52210569 -0.061354399
-0.060827732 -0.52105999 -0.068901658
-0.032508913 -0.5205884 -0.072304964
0.13690582 -0.52046883 -0.073168635
0.16522147 -0.52076423 -0.071036339
0.19359897 -0.52114689 -0.068275213
0.22244662 -0.52262902 -0.057578325
-0.14606103 -0.49402335 -0.05950439
-0.11731027 -0.49262264 -0.070208311
0.25024474 -0.4930951 -0.066598058
0.27928224 -0.49451798 -0.055724621
-0.17418759 -0.46519953 -0.063442469
-0.14534849 -0.46378461 -0.074931383
0.30695364 -0.46503592 -0.064771891
0.33622381 -0.46644956 -0.053293347
-0.20248806 -0.43687621 -0.063571811
0.33448946 -0.43569809 -0.073774815
0.36392212 -0.43720269 -0.060744047
-0.23099014 -0.40887159 -0.060762525
-0.20178962 -0.40734649 -0.074913263
0.39151055 -0.40807566 -0.068146348
-0.25975272 -0.38110602 -0.055131078
-0.23034719 -0.37961376 -0.070042729
0.42012855 -0.38012454 -0.064937949
-0.25926086 -0.35214326 -0.061520815
0.44904438 -0.35232276 -0.0595783
-0.25883451 -0.32335103 -0.067059159
0.44747299 -0.3228322 -0.073186994
0.47804004 -0.32443658 -0.054240346
-0.28824615 -0.29609871 -0.053701878
-0.25857082 -0.29480684 -0.0704844
0.4763613 -0.29500818 -0.067869782
-0.28814715 -0.26763442 -0.05487144
-0.25837833 -0.2663793 -0.072985053
0.5053311 -0.26710197 -0.06255579
-0.28810316 -0.23922785 -0.055390835
-0.25834015 -0.23811384 -0.073481083
0.534814 -0.23930569 -0.054128885
-0.28827763 -0.21096858 -0.053330421
-0.25835004 -0.20988956 -0.073352337
0.53297901 -0.21021189 -0.067372322
-0.25851417 -0.18175603 -0.07122016
0.53226745 -0.18169649 -0.072507143
-0.25869268 -0.15359665 -0.0689013
-0.25904328 -0.1254704 -0.064347386
0.56290376 -0.12572396 -0.056113958
-0.25935054 -0.097261123 -0.060355663
0.56212926 -0.097236864 -0.061409831
-0.25942746 -0.068944275 -0.059356332
0.5613569 -0.06883131 -0.066690326
-0.25956005 -0.040617667 -0.057633877
0.56058955 -0.040507637 -0.071937203
-0.25981417 -0.012264531 -0.054333091
-0.25975987 0.016108636 -0.055038333
-0.25950873 0.044431467 -0.058300853
0.56075621 0.044239238 -0.070797086
-0.25944456 0.072760284 -0.059134126
0.56152689 0.072612725 -0.065528631
-0.2592822 0.10103707 -0.061243534
0.56229973 0.10106777 -0.060244679
-0.25897506 0.12920877 -0.065233231
0.56307471 0.12960482 -0.054945707
-0.25864592 0.15730602 -0.069509029
-0.25847879 0.18545066 -0.071679831
0.53241777 0.18546465 -0.071422458
-0.28823045 0.2147914 -0.053887606
-0.2583133 0.21356331 -0.073829889
0.53314757 0.21403596 -0.066155672
-0.28811258 0.24307719 -0.055279493
-0.25834864 0.24182364 -0.073370695
0.50394946 0.24184141 -0.073113561
-0.25838682 0.27009389 -0.072874665
0.50572801 0.27112168 -0.059522867
-0.28815657 0.27148819 -0.054759741
-0.2586275 0.29859444 -0.069748163
0.47673154 0.29900795 -0.064864278
-0.25889269 0.32717264 -0.066303134
0.44781694 0.32681179 -0.07020843
-0.25936764 0.35607645 -0.060133696
0.44939086 0.35643232 -0.056577563
-0.25986132 0.38510144 -0.053720593
-0.23048881 0.38356268 -0.067998886
0.42045102 0.384215 -0.061945915
-0.2311312 0.41290656 -0.058726788
-0.20191516 0.41127303 -0.072874665
0.39204413 0.41243461 -0.062814474
-0.2026531 0.44098464 -0.060891867
-0.17363279 0.43940258 -0.073738098
0.33485696 0.43993244 -0.069435358
0.36441493 0.4416602 -0.055409312
-0.17437087 0.46942422 -0.060040832
-0.14550546 0.46792036 -0.071532726
0.27820486 0.46795392 -0.071275234
0.3072879 0.46937335 -0.060429573
-0.14622705 0.49833116 -0.05591011
-0.11747123 0.49692938 -0.066026449
0.2216095 0.49594745 -0.073113561
0.25051075 0.49744877 -0.062278628
-0.08946792 0.52657282 -0.056763053
-0.060914584 0.52534735 -0.065140963
-0.032566987 0.52485132 -0.068533063
-0.0042760521 0.52443945 -0.071348786
0.023971528 0.52428353 -0.072415233
0.052202694 0.5241276 -0.073480964
0.080454513 0.52432382 -0.072139621
0.10874528 0.52463603 -0.070006132
0.13706841 0.52494574 -0.067888141
0.16542423 0.5252558 -0.065768123
0.19385462 0.52569866 -0.062740564
0.22268054 0.52708864 -0.053237557
-0.0045549776 -0.58279467 -0.0351156
0.023971528 -0.58311248 -0.033051252
-0.090020262 -0.55372548 -0.038825393
-0.061322212 -0.55245817 -0.047489882
0.10918275 -0.55193555 -0.051063418
0.13765293 -0.5522511 -0.048905253
0.16618946 -0.55269253 -0.045887113
0.19494192 -0.55367076 -0.03919971
0.22379865 -0.55465245 -0.032487988
-0.14691333 -0.52491915 -0.041051388
-0.11804071 -0.52350867 -0.051230669
0.25147316 -0.52414298 -0.046651483
0.2806724 -0.52566624 -0.035659313
-0.20417008 -0.49706537 -0.036259294
-0.17502412 -0.49553958 -0.04791832
0.30849066 -0.49594706 -0.044805169
-0.2325502 -0.46830302 -0.038245201
-0.20324694 -0.46670142 -0.051249504
0.36617011 -0.46852928 -0.036409259
-0.26114056 -0.43993258 -0.03710258
-0.23169175 -0.43836984 -0.050635815
0.39393792 -0.43914881 -0.043890834
-0.26041698 -0.41040847 -0.046502233
0.42159981 -0.40989271 -0.051286697
0.4522202 -0.41196319 -0.032074809
-0.28947419 -0.38270035 -0.039199829
0.4506253 -0.38203114 -0.045886993
-0.2889016 -0.35358068 -0.045961738
0.47973129 -0.35408425 -0.040509105
-0.31857711 -0.32626742 -0.032619357
-0.28854045 -0.32477653 -0.050226569
-0.31826511 -0.29746166 -0.035996795
0.50731003 -0.29658133 -0.047433972
-0.31821319 -0.2689029 -0.036559224
0.53711879 -0.26883811 -0.037495852
-0.31825474 -0.2404153 -0.036109447
-0.31848866 -0.2120329 -0.033576965
0.56523824 -0.21167852 -0.04015398
-0.2884869 -0.1826964 -0.050858855
0.56445694 -0.1829441 -0.04549551
-0.28891107 -0.15448399 -0.045849681
0.56368065 -0.15429325 -0.050803065
-0.28934428 -0.12619746 -0.040733576
-0.28950429 -0.097757891 -0.038843989
0.59465468 -0.097866945 -0.034121275
0.59382963 -0.069250241 -0.039480329
0.59300399 -0.040716119 -0.044842601
0.59218371 -0.012264466 -0.050170779
0.59236431 0.016155131 -0.048998356
0.59318507 0.044656929 -0.04366684
0.59400547 0.07324066 -0.038338661
-0.28939974 0.10168874 -0.040078878
0.59483385 0.10190803 -0.032957554
-0.28925091 0.13010938 -0.041836381
-0.28881636 0.15834709 -0.046968222
0.56385207 0.15822418 -0.049631238
-0.28844124 0.1865437 -0.051398277
0.56463158 0.18692601 -0.044301391
-0.31843662 0.21600775 -0.034139991
0.56541336 0.21571095 -0.038956165
-0.31820107 0.24436492 -0.036690116
0.53532898 0.24341422 -0.050412536
-0.31822357 0.27289805 -0.03644681
0.5376358 0.27310452 -0.033764601
-0.31829628 0.30148101 -0.035659432
-0.28830907 0.30001593 -0.052958965
0.50779569 0.30079812 -0.043722987
-0.31865346 0.33036044 -0.031793118
-0.28860506 0.32872817 -0.049463749
0.47841299 0.32856664 -0.051212072
-0.28902006 0.3576346 -0.044562697
0.48016241 0.35839051 -0.037008762
-0.28960738 0.38683593 -0.037626863
0.45097438 0.38627151 -0.042863727
-0.26057491 0.41455534 -0.04445076
0.42216969 0.41437638 -0.045998931
-0.26131228 0.44418952 -0.034871578
-0.23187742 0.44257799 -0.047955513
0.3944748 0.4437395 -0.03852582
-0.23273844 0.47263214 -0.035528183
-0.20341766 0.4709374 -0.048477054
0.33667579 0.47100568 -0.047955632
-0.20438384 0.50153494 -0.032788515
-0.17520995 0.49991646 -0.044469476
0.27958328 0.49895903 -0.051379561
0.30882856 0.50047815 -0.040415645
-0.14710611 0.52948153 -0.036877632
-0.11819977 0.52798641 -0.047098637
0.25174206 0.52869058 -0.042284846
-0.090173773 0.55846214 -0.033839703
-0.061437242 0.55712736 -0.04250896
-0.032854848 0.55599928 -0.049835682
-0.0044319239 0.55580461 -0.051100492
0.023971528 0.55563855 -0.052178621
0.05238314 0.55596781 -0.050040364
0.080827713 0.5562973 -0.047899842
0.10930573 0.55663025 -0.045737982
0.13781653 0.55696046 -0.043592095
0.16644181 0.55761659 -0.039330482
0.19524585 0.5586499 -0.032619476
-0.090771548 -0.58597994 -0.014426231
-0.061923169 -0.58489585 -0.021467924
-0.033183888 -0.58381855 -0.028464556
0.052530698 -0.58344793 -0.030871987
0.081123464 -0.58378386 -0.0286901
0.10974988 -0.58412015 -0.026505709
0.13847393 -0.58477652 -0.022242546
0.16736025 -0.58581936 -0.015469074
-0.17699149 -0.55773556 -0.011408567
-0.14782222 -0.55627799 -0.02137351
-0.11885327 -0.55499876 -0.030119896
0.25276023 -0.5556376 -0.025751948
0.28219604 -0.55740511 -0.013667464
-0.20514151 -0.52776885 -0.020485163
-0.17594571 -0.52633727 -0.030815721
0.31030172 -0.52765882 -0.021279216
-0.23350066 -0.4986009 -0.024526358
0.33829281 -0.49803382 -0.028859496
0.36844975 -0.50027537 -0.011731386
0.39639562 -0.47063264 -0.019331813
-0.26218709 -0.47011837 -0.023507357
-0.29112455 -0.44194099 -0.019710064
0.42422989 -0.4411127 -0.026882768
-0.32040671 -0.41403905 -0.012813687
-0.29021117 -0.41213349 -0.03049612
-0.31962642 -0.38449559 -0.021260262
0.48177189 -0.38422734 -0.023941278
-0.34935009 -0.35686901 -0.01036346
-0.31895575 -0.3551918 -0.028520703
0.51169914 -0.35654277 -0.013895154
-0.34895867 -0.32782081 -0.014274716
0.50949466 -0.32642651 -0.030740499
-0.34865522 -0.29890049 -0.017306685
0.53944445 -0.29863831 -0.020712137
-0.34859648 -0.27019626 -0.017893553
0.56956482 -0.27070352 -0.010572433
-0.34869692 -0.24159895 -0.016890168
0.56709385 -0.24094765 -0.027466297
-0.34896818 -0.21307811 -0.014179826
0.59797907 -0.21316713 -0.012528896
-0.3188549 -0.18367766 -0.029612184
0.59714437 -0.18421642 -0.017950416
-0.31939271 -0.15533291 -0.023790359
0.59631205 -0.15534969 -0.023356557
-0.31963342 -0.12679957 -0.021184683
0.59548223 -0.12656662 -0.028746486
0.62700188 -0.06969583 -0.010534406
0.62592232 -0.040928841 -0.017212152
0.6250298 -0.012264531 -0.02273345
0.62521911 0.016366284 -0.021562457
0.62615812 0.045086585 -0.015753388
-0.29177284 0.073847525 -0.012054205
-0.31950256 0.13084969 -0.022601366
0.59566188 0.13065805 -0.027579546
-0.3192777 0.15936007 -0.025035381
0.59649229 0.15949176 -0.022185683
-0.34934628 0.18875279 -0.010401368
-0.31873679 0.1876487 -0.030890703
0.59732509 0.1884093 -0.016776562
-0.34890935 0.21720067 -0.014767766
0.59816325 0.21741214 -0.011332393
-0.34863627 0.24569476 -0.01749599
0.56763983 0.24526253 -0.023733735
-0.34860787 0.27433503 -0.017780304
-0.34866852 0.30304623 -0.017174244
0.53996611 0.30306542 -0.01694715
-0.34904411 0.33205774 -0.013420939
0.50998229 0.33080199 -0.027014256
-0.31910184 0.35939842 -0.026938915
0.51218867 0.36107796 -0.010154247
-0.31977138 0.38876894 -0.01969111
0.48222786 0.38870963 -0.020239472
-0.32062426 0.41848025 -0.01045835
-0.29040876 0.41643596 -0.028163075
0.45257193 0.41633594 -0.029028773
0.42481139 0.44583809 -0.021486878
-0.29132003 0.44634143 -0.017401457
-0.26242995 0.47461811 -0.02035284
0.36666772 0.47322181 -0.03102231
0.39693591 0.47545815 -0.013933182
-0.23374265 0.50316393 -0.021033406
0.33874923 0.50282621 -0.023469567
-0.20540139 0.53249633 -0.016265035
-0.17617288 0.53098476 -0.026600003
0.28097671 0.53030205 -0.03126657
0.31071395 0.53254604 -0.015924096
-0.14805292 0.56115043 -0.01637876
-0.11904536 0.55980301 -0.025129676
0.2241535 0.55968404 -0.025902748
0.25316724 0.56072485 -0.019142509
-0.062062137 0.58997118 -0.01545012
-0.033276185 0.58883667 -0.022469044
-0.004607629 0.58789766 -0.028276205
0.023971528 0.58799505 -0.027673483
0.052571997 0.58834541 -0.025506735
0.081205875 0.588696 -0.023337603
0.10987321 0.58904719 -0.02116549
0.13867784 0.58994353 -0.015620708
-0.062594198 -0.6182245 0.007588625
-0.033668429 -0.61748409 0.0030078888
-0.0048132762 -0.61674535 -0.0015617609
0.023971528 -0.61601138 -0.0061011314
0.052721828 -0.6160208 -0.006043911
0.081506163 -0.61637819 -0.0038329363
0.11040185 -0.61727679 0.0017257929
0.13942322 -0.61838603 0.0085868835
-0.17819318 -0.58987808 0.010892153
-0.14890149 -0.58850789 0.0019935369
-0.11974844 -0.58714449 -0.006862998
0.19635198 -0.58686602 -0.0086711645
0.22545074 -0.58791935 -0.0018290281
0.25483239 -0.58941662 0.0078957081
-0.20636337 -0.55930984 -0.00064492226
0.31221554 -0.55992806 0.0035822392
-0.26483965 -0.53212452 0.01094985
-0.23476005 -0.52972758 -0.0063487291
0.34038943 -0.53003919 -0.0040999651
-0.29357755 -0.50302219 0.0092588663
-0.26337901 -0.50076056 -0.0080240965
0.39888814 -0.50254011 0.0055748224
-0.32265338 -0.47443113 0.011507392
-0.29227853 -0.47226459 -0.0060819387
0.42701846 -0.47288963 -0.0010076761
-0.32141083 -0.44399241 -0.001943469
0.45517322 -0.4434661 -0.0065010786
-0.35089138 -0.41596305 0.0050382614
0.48385432 -0.41466203 -0.0070343018
-0.35007235 -0.38630834 -0.0031460524
0.5139237 -0.38693392 0.0031036139
-0.38008666 -0.35860011 0.0083756447
-0.37965265 -0.32939786 0.0043485165
0.5417912 -0.32870981 -0.0037755966
-0.37935349 -0.30035383 0.0015728474
0.57205558 -0.30072975 0.006456852
-0.37928757 -0.27150238 0.00096058846
-0.37943599 -0.24278307 0.0023379326
0.59989703 -0.2426347 -7.1644783e-05
-0.37972492 -0.21411274 0.0050190687
-0.3802999 -0.18552361 0.010354042
-0.34947947 -0.18462652 -0.0090706348
-0.35009146 -0.15613486 -0.0029553175
0.63026381 -0.15661979 0.0096430779
-0.35067287 -0.12753968 0.0028547049
0.62917256 -0.12754086 0.0028932095
-0.32236585 -0.098848842 0.0083950758
0.62808526 -0.098566346 -0.0038328171
-0.29209474 -0.069731072 -0.0082525015
0.62723851 0.073916525 -0.0090703964
-0.32153788 0.10290533 -0.0005685091
0.62832284 0.10285 -0.0023633242
-0.35029018 0.13168241 -0.00096964836
0.62941086 0.13188764 0.00436759
-0.34995976 0.16031921 -0.0042713881
0.63050604 0.16103096 0.011142135
-0.38016322 0.1898029 0.0090860128
-0.37966505 0.21838494 0.004463315
-0.37937206 0.24702784 0.0017447472
0.6006099 0.24722302 0.0045590401
-0.37930197 0.27578795 0.0010946989
0.5701102 0.27517679 -0.0068438053
-0.37936795 0.30464527 0.001706481
0.57260025 0.30536282 0.010181069
-0.37974557 0.33377877 0.005210638
0.54231238 0.33329612 -1.4066696e-05
-0.38023156 0.36306685 0.0097200871
-0.34949851 0.36120555 -0.008880496
-0.3502309 0.39072272 -0.0015615225
0.51441276 0.39162821 0.006840229
-0.35112932 0.42054412 0.0074158907
0.48430973 0.41930264 -0.0033367872
-0.32162791 0.44853479 0.00040638447
0.45594433 0.4485065 0.00017702579
-0.29254815 0.47690231 -0.0028978586
0.42773822 0.47802362 0.0056707859
-0.26369581 0.50553679 -0.0039088726
0.36894873 0.5052011 -0.0063295364
0.3994472 0.50762498 0.011161327
-0.23504803 0.5345546 -0.0021916628
0.34084547 0.53506315 0.0012859106
-0.20667912 0.56436193 0.0044825077
-0.17721693 0.56255972 -0.007224679
0.28256592 0.56238973 -0.0083284378
0.31262887 0.56505024 0.008951664
-0.14913511 0.59360886 0.0070514679
-0.11996056 0.59225035 -0.0013514757
-0.090956382 0.59110713 -0.008423686
0.16761677 0.59104574 -0.0088042021
0.19666006 0.59214544 -0.0020008087
0.22580943 0.59324932 0.0048273802
-0.033783015 0.62303555 0.010450125
-0.0048705731 0.62226164 0.0058815479
0.023971528 0.62148678 0.0013051033
0.052763388 0.62115645 -0.00064468384
0.081589103 0.62152874 0.0015535355
0.11055632 0.62269056 0.0084141493
-0.0050809346 -0.65141869 0.03320837
0.023971528 -0.65063226 0.028564692
0.052963018 -0.65007722 0.025288105
0.081965551 -0.65019882 0.02600491
0.11112308 -0.65137589 0.032955527
-0.15009652 -0.62150276 0.027866364
-0.12080869 -0.62034142 0.020683289
-0.091631725 -0.61918151 0.013508558
0.16855121 -0.61949921 0.015473127
0.19778638 -0.62061644 0.022384524
0.22738385 -0.62250149 0.0340451
-0.20798187 -0.59214795 0.025636911
0.28459468 -0.59142709 0.020953894
0.31456506 -0.59345162 0.034103394
-0.26657706 -0.56430686 0.033519626
-0.23633334 -0.56179702 0.016359687
0.34251422 -0.56247461 0.020992637
-0.29519758 -0.53454113 0.028389931
0.37075818 -0.53244448 0.013258457
-0.32405707 -0.50530493 0.026702762
0.43038133 -0.5057621 0.030195475
-0.35331959 -0.47662282 0.029302239
0.45876563 -0.47604489 0.024610162
-0.35198966 -0.44606584 0.016012669
0.48706129 -0.44641113 0.019002795
-0.38183215 -0.41806811 0.024571538
0.51616871 -0.41760331 0.020258188
-0.38088274 -0.38820067 0.01576221
0.54654956 -0.38968185 0.030564427
-0.41132852 -0.36050457 0.028991818
0.54415953 -0.35905647 0.013315916
-0.41079575 -0.33109391 0.024377942
0.57489777 -0.33122173 0.025888801
-0.41038701 -0.30183682 0.020837903
-0.4103156 -0.27283677 0.020219684
0.60319066 -0.27291307 0.021321058
-0.41039145 -0.24392474 0.020876646
-0.41070634 -0.21511415 0.023603559
0.63245487 -0.21509236 0.023197293
-0.41125458 -0.18635483 0.028351307
0.63135576 -0.18580279 0.016398191
-0.38092637 -0.15687095 0.016166925
-0.38157979 -0.12813634 0.022230029
0.66220784 -0.070285916 0.027788758
0.66105354 -0.041222841 0.020973206
0.65990674 -0.012264595 0.014201522
0.66015482 0.016652942 0.01566577
0.66130579 0.045674983 0.02246201
0.66246092 0.074802175 0.029283047
-0.353306 0.1038209 0.029166579
-0.38120079 0.13243994 0.018713355
-0.41179746 0.16204309 0.033052683
-0.38080382 0.16121072 0.015029788
-0.41110227 0.1907699 0.027032375
0.63159895 0.19027808 0.017902613
-0.41063932 0.21952793 0.023023009
0.63269579 0.21963052 0.024687648
-0.41032451 0.24831328 0.020296931
-0.41033122 0.2772707 0.020354986
0.6039058 0.27770266 0.025966048
-0.41043165 0.30629796 0.021224499
-0.41089863 0.33563164 0.025268912
0.57557881 0.33611909 0.030545115
-0.41152135 0.36516273 0.030661821
0.54468012 0.36380273 0.017073274
-0.38106143 0.39276847 0.017420411
-0.38210362 0.42281604 0.027090669
0.51665461 0.42245597 0.023971438
-0.35222706 0.45074907 0.018385291
0.48788792 0.45165184 0.025714397
-0.35363847 0.48153326 0.032488823
-0.3229503 0.47920808 0.014721632
0.45953619 0.48137549 0.031283498
-0.32443535 0.51034582 0.030797839
-0.29392436 0.50792873 0.013354421
-0.29555121 0.53963828 0.032566547
-0.26515964 0.53708482 0.015106916
0.37125671 0.53760386 0.0186553
-0.23669046 0.56698442 0.021514535
0.34296981 0.56773257 0.026373148
-0.20837151 0.5976361 0.031963944
-0.17846599 0.59504795 0.015954971
0.25534648 0.59509468 0.016243935
0.28517309 0.59720588 0.029302478
-0.15037829 0.62701821 0.033967137
-0.12104337 0.62580109 0.026780486
-0.091822311 0.6246016 0.019698024
-0.062766939 0.62381756 0.015068293
0.13962993 0.62385678 0.015299678
0.16881053 0.62502706 0.022210598
0.19810769 0.62623465 0.029341102
0.082090229 0.65610075 0.034103394
-0.12200937 -0.65458035 0.051877737
-0.092668794 -0.6537863 0.047188163
-0.063400678 -0.65299392 0.042510152
-0.034204766 -0.65220368 0.037843823
0.1403878 -0.65255392 0.039912105
0.16977344 -0.65379286 0.047227502
-0.17975169 -0.62343407 0.039814472
0.25725821 -0.62464213 0.047286391
-0.23814645 -0.59474885 0.042529702
0.344832 -0.59564722 0.048364401
-0.29709831 -0.56683958 0.05083704
0.37335747 -0.56545889 0.041396499
-0.32583904 -0.53698039 0.045993209
0.40191263 -0.53556752 0.035797358
-0.35486257 -0.50766301 0.04472065
-0.3847369 -0.47935987 0.051524401
0.49094352 -0.47923648 0.050522923
0.5193879 -0.44939652 0.044857502
-0.38310495 -0.44841796 0.036381841
-0.41336858 -0.4204486 0.046658993
0.5495491 -0.42104703 0.052211881
-0.41222909 -0.39030513 0.036791205
-0.44295451 -0.362459 0.050149918
0.5780704 -0.36222163 0.047580123
-0.44227618 -0.33280981 0.044642568
-0.44177532 -0.30335626 0.040575862
0.60652208 -0.30353981 0.042960048
-0.44166228 -0.27418357 0.039658308
-0.44163346 -0.24506702 0.0394243
0.6348983 -0.2449985 0.038311958
-0.44194618 -0.21610358 0.041962981
-0.4423292 -0.18712726 0.045072913
0.666857 -0.18759698 0.055240512
-0.44300291 -0.15819405 0.050542474
-0.41193223 -0.15756579 0.034220219
0.66568911 -0.15810938 0.048344851
-0.44347975 -0.12912726 0.054414034
-0.41222012 -0.12858231 0.036713123
0.66452229 -0.12872824 0.04145503
-0.38454434 -0.099803619 0.049737811
-0.35387993 -0.099460974 0.0349015
0.66336298 -0.099454209 0.034609556
0.69569242 -0.012264595 0.053056955
0.69595361 0.016952017 0.05453217
-0.32587704 0.075197563 0.0464046
-0.41383511 0.10448395 0.050699472
-0.38415349 0.10434264 0.046110749
0.66361701 0.10403465 0.036108971
-0.4435088 0.13382302 0.054650068
-0.41207615 0.13308479 0.035466194
0.66477728 0.13337314 0.042959809
-0.44286269 0.1627983 0.049404144
0.66594172 0.16281827 0.049835801
-0.44219425 0.19168307 0.043977141
-0.44187877 0.22066063 0.041416049
-0.44160461 0.24962205 0.039190173
0.635656 0.24988586 0.042999148
-0.44168153 0.27876869 0.039814472
-0.44188359 0.30801073 0.04145503
0.6072365 0.30853137 0.047599912
-0.44238469 0.33750281 0.045523286
-0.4431625 0.36728206 0.051838636
0.57875073 0.36732116 0.052231669
-0.41242048 0.39503473 0.038448572
0.5471828 0.39467776 0.035135269
-0.41366288 0.42536998 0.049207926
-0.38337815 0.45327798 0.038916707
0.52043521 0.45499536 0.052860618
-0.38511619 0.484485 0.055043697
0.43110052 0.51118708 0.036869049
-0.35532147 0.5129106 0.049306035
-0.32622665 0.54221594 0.050189137
0.40257856 0.54108417 0.042451501
-0.26697603 0.5696305 0.03870213
0.37397578 0.57107604 0.0480901
-0.23858738 0.60037315 0.048894167
0.31520921 0.5993346 0.04247129
-0.18017438 0.62933683 0.047658801
0.22783895 0.62846184 0.04249084
0.25777835 0.63070428 0.055732608
-0.092900373 0.65974891 0.054709077
-0.06357348 0.65891385 0.049993038
-0.034319982 0.65808785 0.045327425
-0.0051382519 0.65726042 0.040654063
0.023971528 0.65643835 0.036011696
0.053037025 0.65624189 0.034901619
0.11127922 0.65709436 0.03971684
0.14059797 0.65833759 0.04673779
0.1701023 0.65993726 0.055771947
-0.034751482 -0.68757915 0.073354125
-0.0053834002 -0.68742788 0.072499871
0.023971528 -0.6872766 0.071645975
0.053313315 -0.68712568 0.070792675
0.082641967 -0.68697453 0.069939613
0.1119575 -0.68682361 0.069087029
0.1414353 -0.6876812 0.073930383
-0.18177873 -0.65890825 0.077431679
-0.15163216 -0.65614474 0.061114311
0.19954969 -0.65605104 0.060561538
0.2295374 -0.65832865 0.074010015
-0.24027511 -0.62883997 0.073254704
-0.20988016 -0.62612522 0.056460977
0.28734291 -0.62679768 0.060620785
-0.29929465 -0.60002124 0.076774597
-0.26858279 -0.59737325 0.0595752
0.37630594 -0.5994885 0.073314428
-0.3278991 -0.56939304 0.068294168
0.40509731 -0.56929457 0.067620516
-0.35704526 -0.53982615 0.066531301
0.43380073 -0.53918791 0.061923862
-0.38667667 -0.51090872 0.069523096
0.46241617 -0.50916851 0.056224585
-0.41664845 -0.48225912 0.075063586
-0.4147507 -0.45098668 0.058628321
-0.44527966 -0.42285931 0.069027424
-0.44392842 -0.39243323 0.058056831
0.58127975 -0.39358065 0.069523096
-0.47513765 -0.36457691 0.073075891
-0.4742164 -0.33462143 0.066036463
0.60988915 -0.33451909 0.06482935
-0.4737041 -0.30501479 0.062121391
-0.47336566 -0.27556065 0.059535742
0.63842499 -0.27560166 0.060127378
-0.47328568 -0.24626787 0.058924198
-0.47343281 -0.217078 0.060048461
0.66803229 -0.21719298 0.062180638
-0.47375578 -0.18793286 0.062516451
-0.47420606 -0.15878727 0.065957189
-0.47481287 -0.12962547 0.070594192
-0.47530931 -0.10037284 0.07438755
-0.44404739 -0.10001796 0.059022784
-0.41453677 -0.099966198 0.056776047
-0.47540557 -0.071014717 0.075123191
-0.44563884 -0.070965745 0.071943879
-0.41645789 -0.070988372 0.07341361
-0.38718593 -0.071001254 0.074248433
0.6987834 -0.070943892 0.070514917
0.69719946 -0.041535378 0.061568499
0.69753182 0.046305973 0.06344521
-0.47529888 0.075842142 0.074307919
-0.4452821 0.075720541 0.069047213
-0.41607738 0.075745381 0.070118189
-0.38658053 0.075710982 0.068630934
-0.35708687 0.07567209 0.066947103
0.6991173 0.07579799 0.072400451
-0.47522348 0.10519305 0.073731542
-0.44374883 0.10466552 0.056598902
-0.47468311 0.13439861 0.069602609
-0.47407916 0.16351819 0.06498754
-0.47369632 0.19265755 0.062062144
0.66711366 0.19237167 0.056756496
-0.4733631 0.22177523 0.059516072
0.66828668 0.22203191 0.063682318
-0.47330117 0.25099754 0.059042692
-0.47338375 0.28029749 0.059673786
0.63918507 0.28069437 0.064829469
-0.47381267 0.30983114 0.062951326
-0.47434339 0.33948717 0.067006588
0.61060882 0.33971789 0.069503546
-0.47535354 0.36957225 0.074725628
-0.44413 0.39732423 0.059693217
0.58196211 0.39888647 0.07418859
-0.44558993 0.42794937 0.071546793
0.5501951 0.42625526 0.056874514
-0.41513348 0.45611429 0.06194365
0.49178165 0.48478374 0.057327509
-0.3871752 0.51635289 0.074149013
0.46319744 0.51480663 0.062990904
-0.35751539 0.54529333 0.071229458
0.43452999 0.54492211 0.068690658
-0.32838488 0.57499611 0.073552847
-0.29753953 0.57230115 0.05604744
0.4057765 0.57512784 0.074407578
-0.26907563 0.60313451 0.065977216
0.3457579 0.60205483 0.059298873
-0.21036632 0.6321646 0.064354777
0.28792804 0.6329627 0.06906724
-0.15210395 0.66269135 0.071328521
-0.12230109 0.66058958 0.059456825
0.19994347 0.66229451 0.069087029
-0.12358855 -0.69104075 0.092905641
-0.093767047 -0.68926144 0.082855344
0.17132251 -0.69007897 0.087473512
-0.064222328 -0.68841732 0.07808888
-0.2121864 -0.66169882 0.093909502
0.25973678 -0.66061902 0.087533593
-0.27094012 -0.63157892 0.090197563
0.31794339 -0.62960529 0.077989101
-0.33050856 -0.60306454 0.096542478
-0.35969269 -0.57300448 0.092985868
0.43727821 -0.57318068 0.094190836
-0.38906038 -0.54330564 0.091641307
0.46637607 -0.54314995 0.090518355
-0.41891041 -0.51419735 0.094652891
0.49556372 -0.51333117 0.088033795
-0.44895861 -0.48519465 0.098896742
0.52471089 -0.48354867 0.085533023
-0.44688442 -0.45369196 0.082056761
0.55382276 -0.45380718 0.083054781
-0.47782204 -0.42550617 0.093588233
0.58452654 -0.42530507 0.091721654
-0.47623721 -0.39477709 0.081478
-0.50788236 -0.36683381 0.097507834
0.61329842 -0.36586058 0.086973071
-0.50680006 -0.33662483 0.089696527
-0.50603473 -0.30671242 0.084173441
0.64199579 -0.30656177 0.082216144
-0.50548434 -0.27699238 0.080201149
-0.50532138 -0.24750581 0.079025149
0.67098641 -0.24754268 0.079623103
-0.5376389 -0.21917361 0.098937154
-0.50524962 -0.21807271 0.078507185
-0.53756821 -0.18959276 0.09845376
-0.50546229 -0.18874237 0.080041766
-0.53771842 -0.16007766 0.099480867
-0.50576913 -0.15941468 0.082256198
0.70357692 -0.16000476 0.097588539
-0.50612891 -0.13006456 0.084853053
0.70197034 -0.13017738 0.088514805
-0.50661409 -0.10069539 0.088354349
0.70037138 -0.1004906 0.079483628
-0.5069834 -0.071259424 0.091019511
-0.35829756 -0.071075127 0.079045057
-0.50727808 -0.041778333 0.093146563
-0.47596055 -0.041672267 0.079363823
-0.44712055 -0.041707776 0.083973885
-0.41796818 -0.041727088 0.086492896
-0.47630766 -0.012264466 0.082016826
-0.44756147 -0.012264531 0.087553501
-0.41881993 -0.012264466 0.093869448
-0.50738382 -0.012264401 0.093909502
-0.50736153 0.017254148 0.093748808
-0.47625545 0.017160699 0.081617355
-0.44751215 0.017203294 0.087153316
-0.41874111 0.017249661 0.093186736
-0.50721967 0.0467567 0.092724919
-0.47581714 0.046534166 0.078268051
-0.44697294 0.04660349 0.082775474
-0.41768423 0.046622869 0.084033608
-0.38943258 0.046793118 0.095094919
-0.50691676 0.076216981 0.090538263
-0.50651145 0.10562062 0.087613583
0.7007103 0.10542924 0.081398129
-0.50602639 0.13495721 0.084113598
0.70231092 0.13520056 0.090438247
-0.53766835 0.16509551 0.099138498
-0.50570548 0.16429447 0.081797242
0.70391917 0.16511314 0.099521041
-0.53758585 0.19462517 0.098574519
-0.50539875 0.19360179 0.079583287
-0.53765357 0.22420923 0.099038005
-0.50526333 0.22295099 0.078606725
-0.50533521 0.25238892 0.079124928
0.6720413 0.25285506 0.085852742
-0.50560045 0.28194213 0.081038833
-0.50615108 0.31169933 0.085013032
0.64275825 0.31186178 0.086933136
-0.50702786 0.34173495 0.091340661
-0.50811112 0.37201753 0.099158764
0.61402023 0.3712672 0.091661453
-0.47656903 0.39994538 0.084013581
-0.478156 0.43078911 0.096140265
0.58521104 0.43081927 0.096401691
-0.44731995 0.45902687 0.085592866
0.55504596 0.45980179 0.09188211
-0.41705754 0.48756847 0.078606725
0.5258702 0.48963419 0.094391704
-0.4194493 0.5198406 0.099319935
0.49665627 0.51950574 0.096904278
-0.38966879 0.54910445 0.09728682
0.46740398 0.54941654 0.099420428
-0.36030033 0.57892299 0.099057913
-0.29984 0.60592103 0.083214521
0.37710795 0.60572433 0.081996799
-0.27155244 0.63788843 0.098151922
-0.24082413 0.6350137 0.081178665
0.31879216 0.63634098 0.089015365
-0.1823317 0.66558886 0.087693572
0.22999574 0.66467214 0.082515836
0.26026434 0.6670773 0.096099973
-0.093999311 0.69556034 0.090398192
-0.064395629 0.69467282 0.085592866
-0.034900222 0.69419646 0.083014846
-0.0054580439 0.69404519 0.082196474
0.023971528 0.69389784 0.081398249
0.053388659 0.69374657 0.080579996
0.082793504 0.69359922 0.079782486
0.11218563 0.69344831 0.078965425
0.14171565 0.69420016 0.083034873
0.17165378 0.69661009 0.096079946
-0.065211251 -0.7257266 0.12091029
-0.035470173 -0.72556508 0.12003469
-0.0057425871 -0.72540331 0.11915958
0.023971528 -0.72524166 0.11828458
0.053672493 -0.72508752 0.11745083
-0.15386596 -0.69397485 0.10947728
0.20142177 -0.69249034 0.10109305
0.2317578 -0.69499087 0.11521578
-0.24288714 -0.66458559 0.11095572
0.290631 -0.66409874 0.10808074
-0.30189076 -0.6343652 0.10743332
0.34928158 -0.63331091 0.10091138
0.40833813 -0.60359752 0.10000455
-0.39213136 -0.57697558 0.1201365
-0.42164621 -0.54700577 0.11834586
-0.45157465 -0.51753223 0.12013626
-0.4798272 -0.4567928 0.10891044
-0.50941753 -0.39748991 0.10858655
0.61701882 -0.39774534 0.11113822
-0.53990102 -0.3387171 0.11440361
0.6465075 -0.33835465 0.11012506
-0.53887272 -0.30849829 0.10737264
-0.53829348 -0.27860051 0.10341263
0.67597711 -0.27899405 0.10909259
-0.53777444 -0.248789 0.099863648
-0.57047689 -0.22032154 0.1202383
0.70681298 -0.22008574 0.11586559
-0.57032013 -0.1905521 0.1192205
0.70519114 -0.18997391 0.10670531
-0.57026374 -0.16082337 0.1188544
-0.57020736 -0.1311003 0.11848807
-0.53796601 -0.13056718 0.10117364
-0.5703609 -0.10141423 0.1194849
-0.5381813 -0.10102548 0.10264587
-0.57052386 -0.071714059 0.1205436
-0.53840864 -0.071462318 0.10419977
-0.57062423 -0.041994169 0.12119544
-0.53865981 -0.041876592 0.10591698
-0.38997039 -0.041831724 0.10008514
-0.30183429 -0.041883226 0.1067661
0.73684716 -0.041967701 0.11773562
-0.53876328 -0.012264531 0.1066246
-0.30191305 -0.012264531 0.10769641
0.7351532 -0.012264466 0.10856628
-0.53873956 0.01735202 0.10646272
-0.30193877 0.017363723 0.10799992
0.73551226 0.017383104 0.11051011
-0.57060862 0.047193445 0.12109375
-0.53863311 0.046957124 0.10573518
-0.30194047 0.046992242 0.10802007
0.73720801 0.04717179 0.11968863
-0.57048941 0.076904617 0.12031972
-0.53833783 0.076521322 0.1037153
-0.57032955 0.10659582 0.11928153
-0.53815174 0.10607733 0.10244405
-0.57021999 0.13628332 0.11856949
-0.53791296 0.13559985 0.10081077
-0.57027626 0.16600984 0.11893582
-0.57033265 0.19574201 0.1193018
0.70553493 0.19516779 0.10864723
-0.57057095 0.22555242 0.12084901
0.70715487 0.22536446 0.11779666
-0.53788638 0.25387868 0.10062921
-0.5384028 0.28372207 0.10415959
0.67703128 0.2845808 0.11531723
-0.53908873 0.31371781 0.10884964
-0.54013574 0.34401375 0.11600792
0.64750767 0.34404182 0.11631274
-0.50977671 0.40287292 0.11117876
0.61797202 0.40353578 0.117329
-0.48030177 0.46234578 0.11253703
-0.44940048 0.49069342 0.10248435
0.43811333 0.57936656 0.1019398
-0.3312234 0.6093266 0.10428071
0.40902689 0.60974813 0.10688746
-0.30255666 0.64079201 0.11529696
0.35022652 0.64024544 0.11207068
-0.24356833 0.67144847 0.12078822
-0.21281761 0.66850424 0.10415971
0.29140139 0.67116725 0.11920011
-0.15434135 0.70098698 0.11977005
-0.1239813 0.69790912 0.10310996
0.20181836 0.69912279 0.10967982
-0.095253251 -0.72761321 0.13112104
0.08344993 -0.72600532 0.12241805
0.11330414 -0.72692537 0.12739813
0.14323477 -0.727844 0.13237047
0.17324327 -0.72876883 0.13737619
-0.21521291 -0.69991982 0.14305401
-0.18440628 -0.69693446 0.12619269
0.26288348 -0.69913638 0.13862944
-0.2738699 -0.66751564 0.12825656
0.32205242 -0.66804218 0.13136673
-0.33410424 -0.63889718 0.13546669
0.38099638 -0.6370579 0.12409019
-0.36298513 -0.60758245 0.12588632
0.44173989 -0.60907638 0.13558996
0.47128445 -0.57886076 0.13302624
0.5007925 -0.54868805 0.13048625
0.53026187 -0.51855493 0.12795007
-0.48228136 -0.48873779 0.12766385
0.55969262 -0.48846099 0.12541676
-0.51371431 -0.46033609 0.13959587
0.58921909 -0.45851263 0.12380469
-0.51127481 -0.42856714 0.12199008
0.6216346 -0.43062866 0.14111841
-0.54307485 -0.40024364 0.13610303
-0.54126704 -0.36925736 0.12374353
0.65134811 -0.37076542 0.14006889
-0.57274878 -0.31062469 0.13499486
0.68104565 -0.31093463 0.13902032
-0.57165468 -0.28029644 0.12788868
-0.57101023 -0.25025725 0.12370253
0.71072698 -0.25113595 0.13797188
-0.60382438 -0.19163467 0.14266253
-0.60336852 -0.16163118 0.13984287
-0.60332525 -0.13174963 0.13957536
-0.60329199 -0.10187348 0.13936961
0.74025965 -0.10180038 0.13620555
-0.6032455 -0.071999535 0.13908195
-0.33291206 -0.071745068 0.12256074
0.73854935 -0.071812704 0.1269486
-0.60322893 -0.042131189 0.13897908
-0.36466196 -0.042159282 0.14264178
