ply
format ascii 1.0
comment PCL generated
element vertex 1366
property float x
property float y
property float z
element camera 0
property float view_px
property float view_py
property float view_pz
property float x_axisx
property float x_axisy
property float x_axisz
property float y_axisx
property float y_axisy
property float y_axisz
property float z_axisx
property float z_axisy
property float z_axisz
property float focal
property float scalex
property float scaley
property float centerx
property float centery
property int viewportx
property int viewporty
property float k1
property float k2
end_header
-0.33127356 -0.35402152 -0.0063939095
-0.30990607 -0.35265559 -0.016830921
0.3098793 -0.35235569 -0.019122541
0.33093116 -0.35349041 -0.010452211
-0.35087559 -0.33351299 -0.0098573565
-0.32945803 -0.33223084 -0.020266891
0.35036674 -0.33286074 -0.015152812
-0.3709363 -0.31346199 -0.0098201632
-0.34948945 -0.31230259 -0.019860744
0.37081981 -0.31321159 -0.011987984
-0.39139122 -0.29368591 -0.0072264075
-0.36984599 -0.29260293 -0.017274797
0.3696011 -0.29222491 -0.020783246
-0.39024124 -0.27286291 -0.014695823
0.39075553 -0.2730633 -0.012693226
-0.41082913 -0.25317043 -0.011170864
-0.40947405 -0.23241548 -0.019553244
0.41068047 -0.23293665 -0.01339823
-0.43099597 -0.21313535 -0.01045233
0.43202379 -0.21353492 -0.0052620173
-0.42939842 -0.19243117 -0.01988548
0.43059459 -0.19283172 -0.014102757
-0.4518005 -0.17329612 -0.0061948895
0.42974532 -0.17248559 -0.01935643
-0.45117179 -0.1530214 -0.009745717
0.45197967 -0.1532201 -0.0060581565
-0.45054263 -0.13280107 -0.013299286
0.4514139 -0.13298126 -0.00939852
-0.44991738 -0.1126363 -0.016830921
0.45085177 -0.11279457 -0.012718022
-0.44929379 -0.092526257 -0.020352721
0.45029101 -0.092659421 -0.016029
-0.47216439 -0.072913773 -0.0046772361
0.44973168 -0.072575249 -0.019331813
-0.47150528 -0.052763615 -0.0082447529
0.47206858 -0.052797724 -0.0060333014
-0.47090521 -0.032670934 -0.011492789
0.47152987 -0.032689508 -0.0090760589
0.47180018 -0.012628262 -0.0075492263
-0.47120509 -0.012628214 -0.0098698139
-0.47150758 0.0074395007 -0.0082321763
0.47207081 0.0074565178 -0.0060207248
-0.47181052 0.027532645 -0.0065926313
-0.47211379 0.047650978 -0.0049510598
0.44969624 0.047314007 -0.019540906
0.44995272 0.067341357 -0.018026352
-0.44920671 0.087225318 -0.020844638
0.45020953 0.087392129 -0.016510189
-0.44949418 0.10727101 -0.019220948
0.45046869 0.10746689 -0.014979899
-0.45014673 0.12745294 -0.015535474
0.45106345 0.127672 -0.011467993
-0.45140904 0.14790347 -0.0084059834
0.45219454 0.14812627 -0.0047892332
-0.42926723 0.16712096 -0.020660341
0.43046284 0.16751879 -0.014918208
-0.43046987 0.18763976 -0.013558984
0.43153962 0.18804786 -0.0082569718
-0.4316791 0.20827116 -0.0064185858
0.40991673 0.20726009 -0.018359005
-0.40971488 0.22727725 -0.018063307
0.41094145 0.2278648 -0.011703253
-0.41076306 0.24791829 -0.011579454
0.41196951 0.24857412 -0.0050257444
-0.39003214 0.26747805 -0.016053736
0.39052588 0.26767102 -0.014263451
-0.39175686 0.2887792 -0.0048515201
-0.37016359 0.28759539 -0.0151034
0.36994556 0.28722653 -0.018297374
-0.35028046 0.30772755 -0.014152288
0.34983921 0.30710763 -0.019183993
0.37178627 0.30885312 -0.0050133467
-0.33038279 0.32787418 -0.013200283
0.33013186 0.32738465 -0.016941726
0.3512513 0.32850331 -0.0083935261
-0.31047055 0.34803581 -0.01224792
0.31039044 0.34769663 -0.014695704
0.33146322 0.34888318 -0.0061327815
-0.29054374 0.36821204 -0.011294603
0.2906149 0.36804372 -0.012445748
-0.27060229 0.38840327 -0.01034075
-0.24952908 0.38683137 -0.020549595
0.24996381 0.38711181 -0.018728495
0.27080506 0.3884261 -0.010191977
-0.23024525 0.40801045 -0.013089061
0.2099642 0.4070451 -0.019060969
0.23071435 0.40850687 -0.010018408
-0.16996913 0.42758891 -0.015757561
-0.14972778 0.42695254 -0.019516408
0.17007951 0.42726111 -0.017693758
-0.19026919 0.42822739 -0.011987865
0.19070248 0.42879626 -0.0086292624
-0.13051358 0.44945267 -0.0052869916
-0.1102481 0.44878176 -0.0090760589
-0.0900409 0.44811082 -0.012866437
-0.069892779 0.44744378 -0.01663363
-0.049802616 0.44677654 -0.020402074
0.03009605 0.44682655 -0.020119131
0.050108172 0.44723868 -0.017792225
0.0701565 0.44765344 -0.015448987
0.090241037 0.44806907 -0.013101399
0.1103614 0.44848323 -0.010761976
0.13051856 0.44890049 -0.0084059834
0.15071221 0.44931838 -0.0060455203
-0.03004761 0.46938005 -0.0061700344
-0.0099575194 0.46922621 -0.0070027709
0.01011975 0.46966052 -0.0046523213
-0.01009562 -0.49779719 0.010937035
-0.13127187 -0.47720069 0.0087847114
-0.11088921 -0.47649595 0.0048043728
-0.090568304 -0.47579333 0.00083607435
-0.070308492 -0.47509053 -0.0031328797
0.05031316 -0.47485238 -0.0044782758
0.070466548 -0.47528705 -0.0020232797
0.09065827 -0.47572482 0.00044852495
0.11088774 -0.47616091 0.0029124618
0.13115536 -0.47659811 0.0053812265
0.15146801 -0.4770582 0.0079800487
-0.21196914 -0.45680609 0.0076283216
-0.19100843 -0.45511025 -0.0023849607
0.19144143 -0.45585909 0.0020365119
0.21232584 -0.45748165 0.011617362
-0.25234771 -0.4366141 0.0076156259
-0.23118453 -0.43491071 -0.0029211044
0.23153932 -0.43533838 -0.00027608871
0.25248098 -0.43676046 0.0085208416
-0.27215752 -0.41588148 0.0040899515
0.27220047 -0.41582936 0.0037515163
-0.31335256 -0.39675158 0.011151075
-0.29191414 -0.39520451 0.00057351589
0.29184842 -0.39497435 -0.0010002255
0.31298852 -0.39626199 0.0078040957
-0.33310854 -0.37604642 0.0076282024
-0.31161931 -0.37458462 -0.0029211044
0.3325927 -0.37541035 0.0030376911
-0.35281336 -0.35539848 0.0041275024
0.35224169 -0.35475028 -0.00082546473
-0.39426526 -0.33613622 0.011440992
-0.37246564 -0.33480546 0.00063592196
0.37252748 -0.33476856 0.00033611059
-0.39254785 -0.3146289 0.00028610229
0.39335147 -0.31517962 0.0050551295
-0.41390878 -0.29531389 0.0078796148
0.39205 -0.2940506 -0.0038431287
-0.41236436 -0.27416599 -0.0016741753
0.41341347 -0.27476928 0.0043532252
-0.4342241 -0.25499752 0.0086086988
0.41204232 -0.25378177 -0.004552722
-0.43260309 -0.23398967 -0.00096279383
0.43346268 -0.23437938 0.0036389232
-0.45455068 -0.21465886 0.0093383193
-0.45285508 -0.19379227 -0.00023853779
0.45350099 -0.19401149 0.0029250979
0.45254469 -0.17351 -0.0027215481
-0.47481188 -0.15406658 0.0096527338
0.47503981 -0.15412565 0.010748088
-0.47414786 -0.1336951 0.0060585737
0.47444293 -0.13375612 0.0073770285
-0.47348335 -0.1133789 0.0024619102
0.47384542 -0.11343815 0.0040022135
-0.47282296 -0.093118727 -0.0011125207
0.47325161 -0.093172848 0.00064837933
0.47265938 -0.072959527 -0.0026966333
-0.49531054 -0.05306273 0.011176348
0.49525836 -0.05305646 0.010773242
-0.49466401 -0.032819629 0.0078168511
0.49467966 -0.032818217 0.0076409578
0.49496534 -0.01262831 0.0091872811
-0.49498343 -0.012628165 0.0094766021
-0.49530089 0.007588583 0.011126101
0.49525139 0.0075855209 0.010735452
0.47234175 0.027564932 -0.0044904947
0.47261298 0.047696926 -0.0029584169
-0.47241744 0.067794643 -0.0033073425
0.4728846 0.067852557 -0.0014244318
-0.47271922 0.087963201 -0.0016739368
0.47315869 0.088032447 0.00012373924
-0.47302365 0.10815766 -2.6226044e-05
0.4734309 0.10823546 0.0016612411
-0.47376096 0.12850365 0.0039646029
0.47409624 0.12858203 0.0054187775
-0.47509798 0.149111 0.01120162
-0.45267823 0.16846661 -0.0012372732
0.45333359 0.16868643 0.0019364357
-0.45395449 0.1891432 0.0059707761
0.45447636 0.18935198 0.0086842179
0.43262401 0.20868352 -0.0015493631
-0.43289503 0.2290162 0.0007609129
0.43371189 0.2294244 0.0051805377
-0.43411765 0.24987565 0.0079802275
-0.41213456 0.26887468 -0.003095448
0.41322637 0.26954636 0.0031378865
-0.41446617 0.29064742 0.011327565
0.39247492 0.28923106 -0.00093770027
-0.39349842 0.31026626 0.0064604282
-0.37180325 0.3089911 -0.0038930178
-0.35183668 0.32921952 -0.002920866
-0.37345895 0.33057377 0.0074273944
0.3736459 0.33070195 0.0084075332
-0.35340467 0.35089609 0.0083951354
-0.33185363 0.3494612 -0.0019610524
0.35291284 0.35032916 0.0043030381
-0.33333564 0.37123358 0.0093633533
-0.31185588 0.36971778 -0.0010002255
0.31164074 0.36929837 -0.0038679838
0.33280569 0.37056124 0.0047668219
-0.31325793 0.3915939 0.010382891
-0.29184344 0.38998929 -3.8802624e-05
0.29178387 0.38974899 -0.0015991926
0.31290153 0.3910808 0.0070505142
-0.27267027 0.41155687 0.0088477135
-0.25136811 0.40977514 -0.0021730661
0.2516107 0.40998089 -0.00090020895
0.27265257 0.41146317 0.0082692504
-0.23213004 0.43149626 0.0073142648
-0.21101043 0.42963207 -0.0036934614
0.21146892 0.4303399 0.00048607588
0.23238221 0.43189663 0.0096779466
-0.19166614 0.45147926 0.0061591268
-0.17122273 0.45080245 0.0023368001
-0.15083809 0.45012546 -0.0014868379
0.17128456 0.45072061 0.0018739104
0.19206767 0.45234975 0.011075497
-0.11108759 0.47220099 0.0090991855
-0.090738907 0.4714933 0.0052683353
-0.070449561 0.47078755 0.0014486313
-0.050219279 0.47008395 -0.0023599267
0.030233238 0.47009552 -0.0022976995
0.05038324 0.47053367 7.3611736e-05
0.07056956 0.47097018 0.0024369955
0.090792783 0.47140995 0.0048168898
0.11105233 0.47184801 0.0071886182
0.13134916 0.47228938 0.0095772743
-0.091462873 -0.50022477 0.024077415
-0.071022354 -0.49948087 0.020050526
-0.050643817 -0.4987368 0.016023099
-0.030327674 -0.49799737 0.012020707
0.01011975 -0.498256 0.013420701
0.030373398 -0.49871585 0.015909433
0.050665233 -0.49917409 0.018389821
0.070995666 -0.49963564 0.020887971
0.091364704 -0.50009799 0.023390412
0.11177245 -0.50056118 0.025898099
-0.19291043 -0.4795976 0.022322774
-0.17222354 -0.47861671 0.016782165
-0.15171655 -0.47790769 0.012777507
0.17225489 -0.4787668 0.017629981
0.1931944 -0.48048568 0.027338266
-0.23322923 -0.45876807 0.019213557
0.23336367 -0.45911607 0.021268606
-0.27368227 -0.43833131 0.018237829
0.27356526 -0.43819413 0.017389536
0.29479262 -0.4396376 0.026318431
-0.31510457 -0.41915867 0.025375605
-0.29354343 -0.41751248 0.014683366
0.29331285 -0.4171899 0.012588263
0.31456822 -0.41855946 0.021484494
-0.33496508 -0.39831132 0.021814823
0.33427155 -0.3975586 0.0166682
-0.35477385 -0.37752181 0.018275857
0.35443833 -0.37720087 0.015959859
-0.37452766 -0.35678643 0.01473403
0.37485716 -0.35710242 0.017148972
0.39529258 -0.33698434 0.018326521
-0.41546658 -0.31661853 0.017516136
0.4161801 -0.31717351 0.022322774
-0.43749976 -0.29747707 0.027950764
0.41479206 -0.29589885 0.013307214
-0.43585482 -0.27615875 0.018237829
0.43636814 -0.27649629 0.021611333
0.43491146 -0.25536627 0.01260066
-0.45625654 -0.23567781 0.018972754
0.45654526 -0.23584102 0.020900488
0.45501795 -0.21485473 0.011882126
-0.47666961 -0.19517425 0.019708037
0.47670928 -0.19520678 0.020177364
-0.4754777 -0.17449403 0.013256729
0.47563818 -0.17454778 0.014127791
0.49839893 -0.15504302 0.027772188
-0.49810457 -0.13460204 0.025694132
0.49776801 -0.13454039 0.024357438
-0.49740434 -0.11413305 0.022055984
0.49713644 -0.11409002 0.020938635
-0.49670368 -0.093720049 0.018415213
0.49650878 -0.09369304 0.017541409
-0.49600738 -0.073363483 0.014797091
0.49588278 -0.073348649 0.014153004
0.51874882 -0.053318549 0.02779758
-0.51877791 -0.03297051 0.027414918
0.5181284 -0.032948535 0.024573565
0.51842982 -0.012628214 0.026139975
0.51873159 0.0077162245 0.027708292
-0.49562114 0.027831007 0.012789905
0.49553776 0.027823228 0.012285471
-0.49594176 0.04809925 0.014456034
0.49582443 0.048084859 0.013837397
-0.49626285 0.068393022 0.016124129
0.49611151 0.068370312 0.015391052
-0.49658179 0.088712029 0.017781973
0.49640122 0.088680424 0.016959071
-0.49690372 0.10905744 0.01945436
0.49668893 0.10901406 0.01851666
-0.49773216 0.12957032 0.023759484
0.49743208 0.12950452 0.0225389
0.47529635 0.14917243 0.012197196
-0.47644246 0.16983253 0.018478632
0.47650048 0.16986848 0.018998146
-0.47779438 0.19066925 0.025796175
0.47771087 0.19067226 0.025834322
-0.45523781 0.20993409 0.01321882
0.45562503 0.21012451 0.015466809
-0.45652822 0.23084019 0.020507216
0.45677966 0.23100443 0.022284746
-0.45782354 0.25186148 0.027823091
0.43480548 0.25027239 0.011945128
-0.43569404 0.27107137 0.017288208
0.43623471 0.27144837 0.020786285
0.41530561 0.2912612 0.016642928
-0.41682366 0.31266204 0.025910735
0.3944422 0.31101173 0.012512445
-0.39556929 0.33220738 0.019911051
0.39643168 0.33301929 0.026114583
-0.37512907 0.35234436 0.018845916
0.37552303 0.35277492 0.021954417
-0.35498807 0.37276325 0.019822121
0.35468009 0.37246853 0.017807364
-0.33492517 0.39330703 0.021509886
0.33420143 0.39247397 0.016099036
-0.29415289 0.41335341 0.019961834
0.29384395 0.41295809 0.017516017
0.31518525 0.41446343 0.026828408
-0.25342843 0.43337649 0.018415213
0.25344181 0.4334622 0.018922091
-0.2340446 0.4553535 0.028040171
-0.21275069 0.4533737 0.016857982
0.21299647 0.45398816 0.020329475
-0.19323076 0.47541291 0.026484251
-0.17249304 0.47433922 0.020672083
-0.15196472 0.47362521 0.016807437
-0.13149653 0.47291324 0.012953818
0.1517102 0.47282478 0.012474537
0.1725087 0.47453862 0.021751165
-0.01010736 0.49304941 0.01246208
-0.091580532 0.49587318 0.027134538
-0.071102105 0.49500844 0.022640467
-0.050693505 0.49414882 0.018174529
-0.030353699 0.49328992 0.013711154
0.01011975 0.49357906 0.015214145
0.030389275 0.4941099 0.017971873
0.05070135 0.49464169 0.020735502
0.071056105 0.49517474 0.023504972
0.091453679 0.49570879 0.026280165
-0.071748205 -0.5243029 0.043623209
-0.051186834 -0.52351648 0.039536595
-0.030688576 -0.52273232 0.035462141
-0.010273851 -0.52246821 0.034089804
0.01011975 -0.52295226 0.036604762
0.030552208 -0.52343965 0.039137363
0.051023733 -0.52392805 0.041674852
0.071534432 -0.52441722 0.044217348
-0.17385262 -0.50322121 0.040296078
-0.15316021 -0.50246811 0.036219716
0.17383102 -0.50376207 0.043223023
-0.13253121 -0.50171733 0.032155514
-0.11196538 -0.50096875 0.028103948
0.13221961 -0.50102776 0.028423071
0.15283698 -0.50194436 0.033385038
-0.21420659 -0.48167422 0.034051299
0.2142899 -0.48221964 0.037131548
-0.27631792 -0.46274456 0.042693853
-0.25467801 -0.46074745 0.03090167
0.25455672 -0.46076271 0.030991197
0.2759079 -0.46242365 0.040798545
-0.31687567 -0.44180974 0.039755225
-0.29519182 -0.44006449 0.028959155
0.31616443 -0.44109085 0.035308242
-0.33684009 -0.42081633 0.036142588
0.33613181 -0.42014334 0.031771541
-0.35675383 -0.39988363 0.032565236
0.35666338 -0.3999418 0.032962322
-0.37661386 -0.37900755 0.02899754
0.37721521 -0.37972376 0.034166813
-0.39706856 -0.35873833 0.029649019
0.39778572 -0.35948732 0.035372376
0.41837302 -0.33923087 0.036566138
-0.41789526 -0.33873492 0.032539487
-0.43915471 -0.31895176 0.037722826
0.43931159 -0.31919384 0.039819717
0.4378348 -0.29777157 0.030684352
-0.45970833 -0.27818325 0.038468599
0.45962724 -0.27824631 0.039098978
-0.45797494 -0.25685158 0.028678298
0.45808098 -0.2569707 0.0299685
-0.48027349 -0.23739177 0.039214611
0.47993416 -0.23732215 0.038391352
-0.47846609 -0.21620561 0.029431701
0.47831616 -0.21619187 0.029252887
-0.50085026 -0.19657741 0.039961457
0.50022542 -0.1964179 0.037658453
-0.49951065 -0.17570999 0.033000469
0.49903145 -0.17559883 0.031195879
-0.49880666 -0.15512763 0.029342294
0.52139717 -0.13533489 0.041558981
-0.52168363 -0.11489809 0.04193294
0.52073312 -0.114751 0.038108468
-0.52094394 -0.094330363 0.038236976
0.52006829 -0.094220012 0.034653902
-0.52020884 -0.07381995 0.034564137
0.51940775 -0.073742829 0.03122139
-0.5194732 -0.053366102 0.030888796
0.5418818 -0.033080649 0.041726589
0.54219943 -0.012628262 0.043313265
-0.51911509 -0.012628214 0.029099584
-0.51945019 0.0077398075 0.03077364
-0.51978821 0.028133892 0.032462716
0.51903379 0.028084829 0.029278398
-0.5201267 0.04855404 0.034153938
0.51933634 0.04847765 0.030850649
0.5196417 0.068895221 0.032437205
-0.52046561 0.069000199 0.035847306
-0.52080238 0.08947213 0.037530065
0.51994497 0.089336812 0.034012914
-0.52114218 0.10997071 0.039227486
0.52024853 0.10980266 0.035590649
-0.5220685 0.13065314 0.043855786
0.52107239 0.13043842 0.039871216
-0.4991461 0.15033682 0.031106234
0.49869847 0.1502313 0.029393554
-0.50056791 0.17121936 0.03849411
0.49997148 0.17106616 0.036283851
0.50125116 0.19200987 0.043210149
-0.47915384 0.21162213 0.033154368
0.47892755 0.21158418 0.032706022
-0.48052087 0.23269215 0.040553689
0.48015058 0.2326052 0.039613724
0.45794031 0.25199306 0.029137969
-0.45962408 0.27330273 0.037992597
0.45955318 0.27337483 0.038661361
-0.43817502 0.29302728 0.031937838
0.43844754 0.29332012 0.034474373
0.41740638 0.31320101 0.030287981
-0.41920748 0.33492237 0.040656924
0.41952911 0.33536971 0.044075251
-0.39782923 0.35452577 0.034590006
0.39844185 0.35525581 0.039858222
-0.37681195 0.37430346 0.030351877
0.37742138 0.3750791 0.035654783
-0.35677686 0.39503464 0.032731652
0.35668519 0.39509588 0.033128619
-0.33766708 0.41699085 0.042461753
-0.31581828 0.41516536 0.031170249
0.33702955 0.4164409 0.039060235
-0.29656932 0.43718246 0.040888786
-0.27490655 0.43527022 0.029597878
0.27465284 0.43504295 0.028257012
0.29601336 0.4366332 0.037645698
-0.25552022 0.45735013 0.039317727
0.23407547 0.45564282 0.02967453
0.25530446 0.45730922 0.039085865
0.19345456 0.47626463 0.031093597
-0.21451856 0.47749177 0.037735581
0.21455036 0.47800529 0.040514946
-0.15343665 0.49848542 0.040708423
-0.13274746 0.49761179 0.036168337
-0.11212887 0.49674103 0.031643629
0.1118947 0.49624655 0.029074192
0.13237841 0.49678293 0.031861067
0.15307765 0.49793574 0.037851334
-0.15462986 -0.52747083 0.060083866
-0.13381322 -0.52667457 0.05594635
-0.11306085 -0.52588075 0.051821709
-0.092372976 -0.52509183 0.047722459
0.092084035 -0.52490491 0.046751499
0.11267333 -0.52539611 0.049303532
0.13330215 -0.52588814 0.051860452
0.15423341 -0.52731979 0.059299588
-0.19496745 -0.50483751 0.049044371
0.19498159 -0.50559318 0.053134322
-0.25737357 -0.48588562 0.057837248
-0.23569301 -0.48376942 0.045884728
0.23554015 -0.48396188 0.04697156
0.25694868 -0.48571703 0.056884885
-0.29815161 -0.46475965 0.054591656
0.29741657 -0.4640947 0.050665855
-0.33883077 -0.44368476 0.051354051
0.33833274 -0.44340777 0.049640775
-0.35875538 -0.42248943 0.047010303
0.35891902 -0.42298034 0.050198674
-0.37898171 -0.40172973 0.04518652
0.37960395 -0.40263942 0.051406026
-0.39991301 -0.38165763 0.048124075
0.40030947 -0.38228172 0.052627325
-0.42088845 -0.36153969 0.051055312
0.42103401 -0.36190528 0.053849816
-0.44191021 -0.34137726 0.053992987
0.44177541 -0.34150881 0.055060387
-0.46321163 -0.32132262 0.058254838
0.46275207 -0.32124123 0.057550073
-0.4614546 -0.2996735 0.04833138
0.46118426 -0.29966927 0.048292518
-0.48393115 -0.28023919 0.059012294
0.48319697 -0.28001976 0.056819677
-0.48209435 -0.25873527 0.049070239
0.48156103 -0.25859767 0.047580123
-0.50466245 -0.23913242 0.059770107
0.50363308 -0.23882189 0.056102753
-0.50274801 -0.21777536 0.04982245
0.50192457 -0.21754688 0.046855092
-0.52540547 -0.19800237 0.060528398
0.52405572 -0.19764519 0.055373192
-0.52390999 -0.176945 0.053056359
0.52273047 -0.17666365 0.048486948
-0.52316409 -0.15620472 0.049329519
0.52206296 -0.15597229 0.045018435
-0.52242279 -0.13552266 0.045626044
0.54533631 -0.13613971 0.058986187
0.54463661 -0.11541995 0.055490255
-0.54555178 -0.094949946 0.058359385
0.54393876 -0.094754279 0.052003503
-0.54477412 -0.074283153 0.054617763
0.54324007 -0.074142188 0.048512936
-0.54400128 -0.05367424 0.050899386
0.54254586 -0.053584184 0.045044303
-0.54325485 -0.033123583 0.047308087
-0.54361033 -0.012628214 0.049018383
-0.54396623 0.0078935111 0.050730705
0.54251736 0.0078485822 0.044902086
-0.54431987 0.028441347 0.052432418
0.54283577 0.028349835 0.046492815
-0.54467672 0.04901588 0.054149032
0.5431571 0.048876084 0.048098207
-0.54503399 0.069616765 0.05586803
0.54347622 0.069426641 0.04969275
-0.54538906 0.090243667 0.057576299
0.5437957 0.090001807 0.051289082
-0.54574722 0.11089785 0.059299588
0.54411823 0.11060211 0.052900314
0.54502797 0.13138554 0.057445765
-0.52356148 0.15158138 0.051315069
0.52240896 0.1513043 0.04681623
-0.52506286 0.17262731 0.058816314
0.52375507 0.17228043 0.053810835
-0.50199765 0.19221878 0.045923471
-0.50343543 0.21333607 0.053394437
0.50253987 0.21306431 0.05018568
0.50383306 0.2342284 0.057185054
-0.48189324 0.25387877 0.04798162
0.48138228 0.25373748 0.04657042
-0.48393357 0.27556953 0.059025407
0.48319235 0.27532899 0.05679369
-0.46225896 0.29544473 0.052874327
0.46190301 0.29540581 0.052536368
-0.44068381 0.31522885 0.046751618
0.44068131 0.31541866 0.048292518
-0.42161807 0.35743263 0.055568457
0.42167401 0.35777059 0.058006883
-0.40011457 0.3770943 0.049433351
0.40047306 0.37772512 0.053745747
-0.37912163 0.39709958 0.046143413
0.37976596 0.39808974 0.05257535
-0.35970488 0.41883382 0.053862929
0.36001605 0.41959655 0.058581471
-0.31841788 0.43911088 0.052276373
0.31752765 0.43823674 0.047114134
-0.2771799 0.45936391 0.050691843
0.27668381 0.45898515 0.048551679
0.29821759 0.46067527 0.058098316
-0.25764549 0.48170745 0.060554504
-0.23598967 0.47959051 0.049096227
0.23579694 0.47975838 0.050004125
0.25719467 0.48152158 0.059547901
-0.19549675 0.50141317 0.055920243
-0.17419682 0.49936232 0.045264125
0.17418393 0.50007236 0.048953533
0.1954685 0.50222945 0.060162187
-0.051590189 0.52219123 0.057002187
-0.030949451 0.52127147 0.052406311
-0.010401054 0.52091265 0.050613999
0.01011975 0.52147961 0.05344677
0.030684311 0.52205032 0.056298256
0.05129287 0.52262235 0.059155822
-0.1755102 -0.52826697 0.064221025
0.17543808 -0.529248 0.069318295
-0.23820719 -0.50928211 0.073101401
-0.2164907 -0.50705105 0.061025262
0.21628949 -0.50743556 0.063106894
0.23775838 -0.50929427 0.073167324
-0.2792469 -0.48801643 0.069871306
0.27851856 -0.48748773 0.066885471
0.30024907 -0.48926929 0.076947927
-0.32018167 -0.4667927 0.066596508
0.31923372 -0.4659954 0.061888933
-0.36101666 -0.44562066 0.063329577
0.36156076 -0.44676125 0.070384979
-0.38171586 -0.42508677 0.063880205
0.3820276 -0.42585915 0.068897247
-0.40279546 -0.40489769 0.066846251
0.40286821 -0.40537673 0.070121527
-0.42392173 -0.38466382 0.069818497
0.42372787 -0.3848756 0.071346879
-0.44509488 -0.3643851 0.072797894
0.44460866 -0.36435744 0.072586894
-0.46631512 -0.34406123 0.07578361
0.46550652 -0.34381866 0.073814392
0.48650774 -0.3233161 0.075519085
-0.48577929 -0.30190268 0.069015741
0.48484659 -0.30159244 0.066136956
0.50708598 -0.2818183 0.074792027
-0.5065887 -0.26064825 0.069779158
0.50535351 -0.26024505 0.065414667
0.52765048 -0.24034181 0.074052215
-0.52740991 -0.21937038 0.070543051
0.52584684 -0.21891907 0.064680099
0.54881477 -0.19909957 0.076365829
-0.54867899 -0.17819822 0.073405027
0.54674387 -0.17774336 0.066018581
-0.54789531 -0.15729883 0.069634318
0.54603785 -0.15691389 0.062491298
-0.54711103 -0.13645728 0.065861106
-0.54633164 -0.11567475 0.062111497
-0.56971693 -0.074753545 0.074990153
0.56904197 -0.074730694 0.073999166
-0.56890321 -0.053987093 0.071215153
0.56796241 -0.053949941 0.068805099
-0.56810313 -0.033279087 0.067503214
0.56691152 -0.033250157 0.063748956
-0.56847733 -0.01262831 0.069239497
0.56740505 -0.012628262 0.066123724
-0.56884927 0.0080492562 0.070964575
0.56789953 0.0080302926 0.068502545
-0.56922442 0.028753471 0.072705507
0.5683921 0.028725222 0.070872545
-0.56960016 0.049484625 0.074448466
0.56888825 0.049457103 0.07325983
-0.56997633 0.070242569 0.07619369
0.56938535 0.070226036 0.075651407
-0.54677832 0.13175274 0.064260364
-0.5483526 0.15284508 0.071834803
0.54643655 0.15239224 0.064483285
0.54828298 0.173659 0.073708773
-0.5265727 0.19379191 0.066359997
0.52510571 0.19336616 0.060829163
-0.52808845 0.21507521 0.073933244
0.52646351 0.214563 0.067884564
-0.50487882 0.23457099 0.060894608
0.52782851 0.23587193 0.07497704
-0.50633287 0.25592712 0.068449855
0.50513297 0.25550377 0.064221025
0.50715435 0.2773087 0.075162172
-0.48672688 0.29790086 0.074144483
0.48568273 0.29752156 0.070859313
-0.4649235 0.31783652 0.067923903
0.46427751 0.31766835 0.066557169
-0.44322082 0.33768046 0.061731935
0.4429428 0.33775234 0.062281847
-0.44578657 0.36038607 0.076881886
0.44522598 0.36031994 0.076405525
-0.42405587 0.38019723 0.070648551
0.42384157 0.38040739 0.072085381
-0.40313348 0.40062496 0.069042087
0.40318632 0.401126 0.0722965
-0.38317466 0.42206565 0.07385397
-0.34045458 0.44105607 0.063762069
0.34017861 0.44120276 0.064627647
-0.32106093 0.46344402 0.073735237
-0.29902598 0.4613952 0.062163949
0.32025126 0.46290681 0.070701122
-0.27948838 0.48384273 0.072111845
0.27874753 0.48329982 0.069173694
-0.21720967 0.50402957 0.069515944
0.21693192 0.50440222 0.071452498
-0.11394077 0.52496743 0.070872545
-0.093085282 0.52403796 0.066228867
-0.072302178 0.52311438 0.061614156
0.071945265 0.52319288 0.062006712
0.092641741 0.52376467 0.064863682
0.11338244 0.52433771 0.067726731
0.1341681 0.52491462 0.070608974
-0.13486862 0.52590001 0.075532317
-0.05234538 -0.55399275 0.089703083
-0.031440921 -0.55291694 0.084328175
-0.010640933 -0.55240601 0.081775069
0.01011975 -0.55306888 0.08508718
0.030931588 -0.55373615 0.088420749
0.051794674 -0.55440229 0.091749072
-0.19713281 -0.53075969 0.077173114
0.19692634 -0.53153533 0.081204057
-0.26012057 -0.5115335 0.085286975
0.25938791 -0.51116449 0.083290458
-0.30131811 -0.49016628 0.082014203
0.34241831 -0.46953875 0.082811713
-0.34241071 -0.46884418 0.078709841
-0.38519004 -0.44954962 0.087633252
0.38515511 -0.45016953 0.091467977
-0.40571868 -0.42846671 0.085833192
0.40546268 -0.42877868 0.087860107
-0.42699799 -0.40811571 0.088847876
0.42646137 -0.40815279 0.089101791
-0.44832709 -0.38772112 0.091882944
0.44747937 -0.387508 0.090344548
0.46851671 -0.36684409 0.091588497
0.48957336 -0.34616125 0.092833638
-0.48764375 -0.32373044 0.079107404
-0.51048732 -0.30416822 0.090037227
0.50883061 -0.30354288 0.084235072
-0.50853199 -0.28232718 0.079876781
-0.53146678 -0.26259124 0.090812564
0.52946681 -0.26191482 0.083489895
-0.52943212 -0.24090013 0.080646396
-0.55245835 -0.22099046 0.091588497
0.55162066 -0.22089782 0.090384722
-0.55034411 -0.19944949 0.081416368
-0.57300341 -0.15840901 0.090237737
-0.57217759 -0.13740629 0.086406231
0.57230312 -0.13755788 0.089689612
-0.57135409 -0.11646282 0.082585692
0.57121098 -0.11653398 0.084434748
-0.57053578 -0.095578983 0.078789234
0.57012576 -0.095592111 0.0792135
-0.59450746 -0.054326687 0.093275666
-0.59333122 -0.033436872 0.088006854
-0.59378147 -0.012628165 0.090023637
-0.59439677 0.0082171103 0.092779994
-0.57035017 0.091027111 0.077928066
0.56988329 0.091031633 0.078047276
-0.57072729 0.11183898 0.079677701
0.57038218 0.11187453 0.080447316
-0.57187033 0.13286923 0.084980607
0.57190627 0.1330201 0.08777988
-0.57352829 0.15412836 0.092672825
-0.54993588 0.17405695 0.079452157
-0.55152535 0.19538842 0.087099671
0.5503872 0.19516698 0.08422184
-0.52961546 0.23648037 0.081562638
-0.53114843 0.25800577 0.089222074
0.52920073 0.25729382 0.082107186
-0.50863159 0.27787241 0.080394268
0.50979143 0.29966646 0.089435816
-0.48955196 0.32048625 0.089435816
0.48819947 0.31994897 0.085073948
-0.46761835 0.34048241 0.083144307
0.46667933 0.34016776 0.08073926
-0.44838148 0.3833501 0.092204213
0.4475334 0.38312694 0.090678811
-0.42756218 0.40421173 0.092338085
0.42695761 0.40420952 0.092324734
0.38334504 0.42280111 0.078405023
-0.3631441 0.44358307 0.078683376
0.3634133 0.44457519 0.084541202
-0.34328711 0.4655104 0.08540678
0.34338894 0.46644643 0.090692282
-0.30152076 0.48599645 0.083769441
0.30045605 0.48509118 0.078868866
-0.23914473 0.5066728 0.083250642
0.23857841 0.50659609 0.082851648
-0.17715257 0.52838063 0.087926984
-0.1558684 0.52683312 0.080195189
0.15541518 0.52704042 0.081230521
0.17687881 0.52933866 0.092713118
-0.031563003 0.55008894 0.092257738
-0.010703296 0.54959404 0.089876771
0.01011975 0.55020297 0.092806816
-0.11556122 -0.55724579 0.10595632
-0.094404511 -0.55615437 0.10050333
-0.073332831 -0.55506998 0.09508574
0.072709501 -0.55507267 0.095099092
0.093675748 -0.55574226 0.098444104
0.11469381 -0.55641329 0.10179722
0.13593455 -0.55782574 0.1088537
0.24070792 -0.5366922 0.10800004
-0.21923181 -0.53388178 0.093396306
0.21870889 -0.53410101 0.094535828
-0.28223497 -0.51380771 0.097596765
0.28118095 -0.51304895 0.093490124
0.3036029 -0.51574224 0.10806775
-0.32358986 -0.49233583 0.094267607
0.32310101 -0.49253291 0.095381021
-0.36601648 -0.47235033 0.099412799
0.36596996 -0.47314033 0.10407758
-0.43012035 -0.43190458 0.10816264
0.42923132 -0.43173981 0.10709274
0.45039046 -0.41096842 0.10835218
0.47157153 -0.39017972 0.10962629
-0.4697018 -0.36727899 0.094911337
-0.49112433 -0.34679094 0.097946525
-0.51259494 -0.32625702 0.10098827
0.51065189 -0.32546085 0.094093323
-0.53351969 -0.284448 0.10106921
0.53202134 -0.28401715 0.096763849
-0.55459136 -0.24269575 0.10185111
0.55445319 -0.24292307 0.10453701
-0.57567519 -0.20091949 0.10263324
-0.5738287 -0.17947067 0.094066501
0.57449758 -0.17985138 0.1002475
0.5733996 -0.15866376 0.094964981
-0.59720546 -0.096397288 0.10536134
-0.59585345 -0.075315163 0.099305153
0.59726715 -0.075536892 0.10890782
0.59612417 -0.054485694 0.10360515
0.59498274 -0.03351618 0.098309398
0.59549916 -0.012628214 0.1007055
0.59602523 0.0082969042 0.10314608
-0.59501338 0.02910503 0.095542073
0.59654933 0.02925951 0.10557771
-0.59563124 0.050035544 0.098309517
0.59707731 0.05026 0.1080271
-0.5962503 0.071008995 0.1010828
-0.59687066 0.092025332 0.10386157
-0.59749532 0.11308524 0.10665977
0.57411432 0.15448122 0.098403692
-0.57519287 0.17550796 0.10039568
0.57633984 0.1761118 0.10911107
-0.57718253 0.19712248 0.10962641
-0.55312669 0.21684247 0.094803929
0.55250788 0.21684369 0.0948174
-0.55473435 0.23841809 0.10253882
0.5546453 0.23869123 0.10549664
-0.53372478 0.28021112 0.10209382
0.53228003 0.27978146 0.098107934
-0.51158804 0.30039641 0.09575665
0.51248157 0.32227951 0.10399663
-0.49240685 0.34332803 0.1048882
0.49074537 0.34261674 0.099453092
-0.47034153 0.36338487 0.098524809
0.46910444 0.36290458 0.095058918
0.47155544 0.38588437 0.1095314
-0.40747395 0.42584512 0.097234011
0.40702251 0.42605385 0.09852469
-0.38731295 0.44755697 0.10214782
0.38699406 0.44799602 0.10473967
-0.36707878 0.46934769 0.10707927
-0.32374516 0.48816922 0.095528483
0.32327467 0.48841962 0.096884727
-0.26130542 0.50934321 0.097126603
0.2604081 0.50880587 0.094334602
0.28242579 0.51103717 0.10592926
-0.19903252 0.53116763 0.10185122
0.19852509 0.53165376 0.10428035
-0.094635211 0.55304867 0.10649729
-0.073537417 0.55205768 0.10172975
-0.052513406 0.55107009 0.096978664
0.030987959 0.55081344 0.095743418
0.051901475 0.55142498 0.098686099
0.072860137 0.55203521 0.10162175
0.093864605 0.55264962 0.10457742
0.11491483 0.55326515 0.10753965
-0.15812972 -0.55943906 0.11691439
-0.13680306 -0.5583415 0.11143112
0.15763618 -0.56054646 0.12244713
-0.24159752 -0.53703922 0.1098026
0.26292667 -0.53930932 0.12159872
-0.32716355 -0.51855308 0.12328231
-0.30455032 -0.51610035 0.11000597
-0.34667507 -0.49535063 0.11129522
0.34660861 -0.49633104 0.11683261
-0.39060259 -0.47662258 0.12463915
0.38989586 -0.47679913 0.12568152
-0.40984589 -0.45359218 0.11264014
0.40912086 -0.45362949 0.11287129
-0.4516032 -0.41138899 0.11122751
-0.47313446 -0.39082718 0.11429918
-0.49471432 -0.37021914 0.117378
0.49276996 -0.36936972 0.110888
-0.51634294 -0.34956446 0.12046373
0.51480263 -0.34908357 0.11655998
-0.53802043 -0.32886297 0.12355638
-0.53558546 -0.30646947 0.11139047
0.53476048 -0.30642703 0.1109966
-0.55895472 -0.28662708 0.12284422
-0.55673784 -0.26456496 0.11217821
0.55731827 -0.26518136 0.11885166
-0.57882982 -0.22296742 0.11726904
0.57701117 -0.20159209 0.11234128
-0.60129797 -0.16021188 0.12369359
-0.59992766 -0.13884491 0.11755526
0.60073769 -0.13918921 0.1250093
-0.59856355 -0.1175736 0.11144471
0.59957534 -0.11788816 0.11961651
0.59842044 -0.096671246 0.11425841
0.59760618 0.071298316 0.1104809
0.59813607 0.092374653 0.11293912
0.59866691 0.11348897 0.11540186
-0.59952295 0.13452685 0.11574244
0.60042453 0.13494805 0.12355626
0.57858294 0.19791371 0.11990345
-0.57984567 0.21914394 0.12198186
-0.55635405 0.26011848 0.11033165
0.55679685 0.2607103 0.11624646
-0.55947602 0.28271762 0.12535238
-0.53684932 0.30293077 0.11770535
0.53647196 0.30318311 0.11988974
-0.51457584 0.32317689 0.11128187
0.51652086 0.34607249 0.12585986
-0.49529701 0.36643431 0.12053204
0.49331611 0.36552539 0.11397266
-0.47309834 0.38655192 0.11409509
-0.4524186 0.40786102 0.11604214
0.45108584 0.40733942 0.11265385
-0.43219954 0.42969111 0.12102437
0.43105429 0.42935306 0.1189338
0.41093034 0.45146817 0.12524259
0.36687365 0.47003889 0.11098301
-0.34677103 0.49121752 0.11202884
0.3467766 0.49235693 0.11819673
-0.3063176 0.51476735 0.12531114
-0.28369516 0.51204121 0.11114609
-0.22113903 0.53398347 0.11591947
0.22035711 0.53398883 0.11594677
-0.15837356 0.55603677 0.12087393
-0.137053 0.55503809 0.11606944
-0.11580656 0.55404019 0.11126816
0.13618669 0.5546729 0.11431289
-0.18025725 -0.56260622 0.13273859
0.17955549 -0.56329441 0.13617706
-0.26423582 -0.54023504 0.12640882
0.28594768 -0.54306662 0.1411221
0.32706633 -0.51974273 0.1297214
-0.37118927 -0.49985641 0.13674402
0.37049127 -0.50018972 0.13862658
-0.43496221 -0.45771033 0.13811421
0.43346867 -0.45714468 0.13461566
-0.45492646 -0.43539751 0.13085032
0.45334277 -0.43474546 0.12661493
-0.47661665 -0.41471481 0.13396657
0.47466499 -0.41382644 0.12789237
-0.49835616 -0.39398518 0.13708985
0.49664116 -0.3933841 0.13275242
-0.52014774 -0.37321022 0.14023423
0.53805703 -0.32939065 0.12812614
-0.56241643 -0.30949891 0.13949931
0.56021363 -0.2876752 0.13331783
-0.58240813 -0.24540699 0.13387001
0.5830307 -0.24603641 0.14130235
0.58000642 -0.22369735 0.12675214
-0.60267442 -0.18167487 0.12985909
0.60307336 -0.18204358 0.13584518
0.60190469 -0.16057442 0.13042355
-0.62660182 -0.076300502 0.14196885
-0.62516534 -0.054980598 0.13574851
0.62502581 -0.055035543 0.13931918
-0.62373215 -0.033756584 0.12954259
0.62381238 -0.033790085 0.13388371
-0.6243397 -0.01262836 0.1321733
0.62432742 -0.012628214 0.13619089
-0.62499624 0.0085423617 0.13501608
0.62488353 0.0085704671 0.13868213
-0.6256541 0.029756702 0.13786483
0.62544376 0.029807951 0.14119136
-0.62631339 0.051015094 0.14071965
-0.60229367 0.1563134 0.12815356
0.60277551 0.15670197 0.13446367
-0.60508966 0.17829873 0.14067817
0.58084399 0.21988899 0.13078165
-0.58253008 0.24136452 0.13443601
0.58312011 0.24203865 0.14173269
0.5607416 0.28386039 0.13595581
-0.54001009 0.32591325 0.13349736
0.54072905 0.3269617 0.14201021
-0.51760072 0.34622172 0.1269995
-0.49822068 0.38980791 0.13635695
0.49648249 0.38914979 0.1318562
-0.47771412 0.41157505 0.14016497
0.47557682 0.41051459 0.13327658
0.45545033 0.43270224 0.13965189
-0.41190654 0.45160064 0.1260246
-0.39153928 0.47359055 0.13104331
0.39071327 0.47368559 0.13158059
-0.37189204 0.49672076 0.1418159
0.30562839 0.51506579 0.12686205
-0.24347569 0.53682852 0.13013434
0.2423784 0.53634679 0.12772751
0.26458922 0.53872234 0.13959646
0.15783116 0.55711579 0.12606585
-0.2027092 -0.56598347 0.14961255
0.20169581 -0.56607014 0.15004539
-0.28714725 -0.5434621 0.14317727
-0.35160545 -0.52329904 0.14897048
0.3509059 -0.52380753 0.15172243
-0.41564995 -0.48097494 0.15033865
0.41420498 -0.48051637 0.14763129
0.45820779 -0.46071634 0.15670943
-0.48015186 -0.4389514 0.15393364
0.47826067 -0.43821099 0.14912391
-0.5020535 -0.41809878 0.15710247
0.51995397 -0.37376091 0.14444244
-0.54254895 -0.35273203 0.14618206
0.54346877 -0.35397166 0.15624642
0.56313986 -0.31040829 0.14793813
-0.58602715 -0.26811972 0.15066004
0.58608717 -0.26861376 0.15600789
-0.60605425 -0.20385462 0.14499891
0.60597157 -0.20415209 0.14929152
-0.62949437 -0.11923055 0.15449369
0.62869191 -0.11927859 0.15574133
-0.62804484 -0.097716823 0.14821708
0.62746394 -0.097779118 0.1502409
0.62624401 -0.07636527 0.14477634
0.62600499 0.051084042 0.14370537
-0.62697399 0.072317593 0.14358032
0.62656724 0.072399035 0.14622402
-0.62764245 0.093665406 0.14647484
0.62713361 0.093753368 0.14876115
-0.62830907 0.11505751 0.14936113
0.62769794 0.1151465 0.15128899
0.60514534 0.17862998 0.14545834
-0.60790813 0.2004849 0.15330327
0.60753417 0.20073415 0.15654099
-0.58523911 0.26378834 0.14700425
0.58541155 0.26436406 0.15275753
-0.56480002 0.30677161 0.1509676
0.56522143 0.30762276 0.15833831
-0.54449308 0.35000327 0.15589571
-0.52066064 0.36953375 0.14289927
0.52062565 0.37025127 0.14807761
-0.45736268 0.43360484 0.14523554
-0.43693843 0.45571849 0.15033877
0.4352302 0.45499325 0.14605701
-0.4164364 0.47791129 0.15544701
0.41491586 0.47738805 0.15249169
0.37113771 0.49704418 0.14356649
-0.3300733 0.5189234 0.14690673
0.32968107 0.51997399 0.15236592
-0.26604605 0.53970337 0.14449787
-0.2254326 -0.56938839 0.16662431
0.22406043 -0.56887388 0.16405427
-0.31093633 -0.54772168 0.1653105
0.3105655 -0.54913861 0.17267275
0.37513077 -0.52793789 0.17407882
-0.39616543 -0.5044471 0.1626724
0.39475995 -0.50411302 0.16078508
0.43890873 -0.48429611 0.16994977
-0.46055451 -0.46190828 0.16408253
0.50163436 -0.41866204 0.160954
-0.52453923 -0.39758271 0.16305292
0.52521163 -0.39894718 0.17289984
-0.5671128 -0.33331305 0.16209471
0.56718552 -0.3340123 0.16815162
-0.58969367 -0.29111296 0.16767061
0.58917636 -0.29143336 0.17087102
-0.609833 -0.22640508 0.16192544
0.60916275 -0.22657223 0.16409671
-0.63388282 -0.18436231 0.17349637
0.63241148 -0.18429491 0.17240298
-0.63241333 -0.16255258 0.16713321
0.63116556 -0.16253594 0.1668222
-0.63095057 -0.1408423 0.16079915
0.62992471 -0.14086379 0.1612637
-0.65526825 -0.034092337 0.17315555
0.65341127 -0.034071285 0.17041743
0.65391898 -0.012628262 0.172616
-0.63068086 0.13689187 0.15963137
0.62971109 0.13692829 0.16030669
-0.63364017 0.15904102 0.17244577
0.63221192 0.15898341 0.17150915
-0.6107558 0.22287625 0.16605914
0.60993916 0.22301513 0.16769898
-0.59063721 0.2877503 0.17204821
0.59000558 0.28805327 0.17486072
0.54505563 0.35112819 0.16449177
-0.52435756 0.39357451 0.16210866
0.52521944 0.39515895 0.1729424
-0.50346041 0.41535521 0.16471756
0.50364643 0.4165253 0.17231786
-0.48297763 0.43759111 0.16989315
0.48208061 0.43787983 0.1716795
0.46052694 0.45922679 0.17105544
0.43948758 0.48114482 0.17370951
-0.39760733 0.50239533 0.17253089
0.39595526 0.50181925 0.16941154
-0.28885236 0.5426057 0.15899885
0.28796756 0.54306751 0.16130602
-0.1821253 0.56410682 0.15970182
0.18142012 0.56551057 0.16645455
-0.24843608 -0.57283258 0.18383253
0.24665402 -0.57170928 0.17822003
-0.37650827 -0.52813226 0.17513072
-0.42161894 -0.50912768 0.18910825
0.41942239 -0.50809997 0.18330312
-0.44117397 -0.48541215 0.1765393
-0.48664439 -0.46619549 0.1906029
-0.50659567 -0.44322446 0.18168771
-0.54915243 -0.3783063 0.17917538
0.54899263 -0.37906188 0.18494916
-0.59340554 -0.31439087 0.1848917
0.59229898 -0.31449905 0.18589461
-0.61365837 -0.24923381 0.17906129
0.61238825 -0.24923381 0.17906129
-0.6378268 -0.2070123 0.19057417
0.63572741 -0.20678234 0.18725669
0.65728688 -0.098917231 0.18719935
-0.65832877 -0.077316813 0.18598056
0.6559909 -0.077215381 0.18158758
-0.65679669 -0.055655122 0.17956054
0.65469688 -0.055600077 0.17598426
-0.65586859 -0.012628165 0.17567122
-0.65656871 0.0088778744 0.17860496
0.6545096 0.0088513745 0.1751734
-0.65727025 0.030429184 0.1815449
0.65510786 0.030370981 0.17776406
-0.65797669 0.052026346 0.18450511
0.65570402 0.051930122 0.18034542
-0.65868467 0.073669024 0.18747187
0.6563012 0.073529273 0.18293118
-0.65939754 0.095358424 0.19045925
0.65689951 0.0951683 0.18552196
0.6574989 0.11684754 0.18811762
-0.63662368 0.18139465 0.18536448
0.63472986 0.18121623 0.18278825
-0.61362338 0.24547233 0.17890429
0.6123606 0.24547498 0.17893291
-0.5702216 0.3312777 0.17705178
0.56977755 0.3317765 0.18110204
-0.54973543 0.37496361 0.18208778
0.54945332 0.37569192 0.18734276
-0.46241596 0.45990753 0.17507386
-0.44178003 0.48230952 0.1802882
-0.35537544 0.52486455 0.17777836
0.35418889 0.52497995 0.17837691
-0.31296772 0.54738998 0.18290257
0.31215888 0.54830158 0.18745744
-0.27172741 -0.57632244 0.20126915
0.27084967 -0.57754308 0.20736766
-0.33715492 -0.55524486 0.20440233
0.33575514 -0.55535394 0.20496869
0.4005504 -0.53320247 0.2025739
-0.4671838 -0.48993176 0.20322657
0.4873054 -0.46812364 0.20253038
0.50726861 -0.44493151 0.19277573
-0.53096426 -0.42385215 0.19643855
0.53057337 -0.42465413 0.20192134
-0.57405001 -0.358803 0.19547141
0.57298011 -0.35900387 0.19710279
-0.61753446 -0.27234727 0.19642401
0.61564559 -0.27213934 0.19417334
0.63912421 -0.22952634 0.20247233
0.6612128 -0.16454993 0.20419896
-0.66297448 -0.14290458 0.20544815
0.65990108 -0.14258449 0.19851923
-0.66142106 -0.12094132 0.19893861
0.65859133 -0.12070685 0.19284785
-0.65987134 -0.099078663 0.19244468
-0.66010851 0.11709334 0.19343829
-0.66285312 0.13933338 0.20493972
0.65979087 0.13896164 0.19804215
-0.63963491 0.20395662 0.1984036
0.6372683 0.20362987 0.19415903
0.63982421 0.22622524 0.20560801
-0.6168744 0.2684381 0.19346738
0.61508685 0.26824936 0.19158101
-0.59634906 0.31226572 0.1985482
0.59479374 0.31219056 0.19789767
-0.57575238 0.3562541 0.20366192
0.57440621 0.35632831 0.20422828
-0.48957139 0.46533713 0.20713484
-0.46758217 0.48678744 0.20557904
-0.42389986 0.50819522 0.20392311
0.42124227 0.50668448 0.19574571
0.37916178 0.53008062 0.20488155
-0.40317351 -0.53468293 0.21058714
-0.44755921 -0.51389563 0.21603763
0.44697586 -0.51501274 0.22234702
0.46721244 -0.49148735 0.2124114
-0.55591273 -0.40449691 0.21295178
0.55462646 -0.40467301 0.21422327
-0.59923971 -0.3390708 0.21195877
0.59717667 -0.33877102 0.20936251
-0.62145585 -0.29574841 0.21398938
0.61894149 -0.29529551 0.20946443
0.6425581 -0.25251865 0.21785414
-0.64186639 -0.22995694 0.20806623
-0.66640764 -0.18721597 0.21983457
0.66274196 -0.18666087 0.21082044
-0.66453511 -0.16496971 0.21198785
0.68654209 -0.078088485 0.21939433
0.6851685 -0.056179833 0.21363866
-0.68782276 -0.034438986 0.21817672
0.68380398 -0.034359969 0.20792067
0.68430465 -0.012628262 0.21001852
-0.68840837 -0.012628214 0.22055411
-0.68915445 0.0092240842 0.22358286
0.68493491 0.0091399634 0.2126596
0.68556637 0.030949034 0.21530581
0.68619901 0.0527988 0.21795678
0.68683642 0.074690051 0.22062767
-0.66601205 0.16185725 0.21817672
0.6624456 0.16132528 0.20953739
0.66512215 0.18387254 0.22112703
-0.64267099 0.22672836 0.21155012
0.64240432 0.24900676 0.21716535
-0.62288201 0.29295871 0.22037792
0.62011224 0.29236805 0.21489596
0.59965855 0.33672807 0.22130334
-0.55670917 0.40159294 0.21693099
0.55529982 0.40170866 0.2177223
-0.53427726 0.42288926 0.21365321
0.53337353 0.4234165 0.21707749
-0.51189989 0.44413888 0.2103976
0.51145452 0.44511217 0.21641839
0.48954579 0.46679792 0.2157594
0.46764725 0.48847321 0.215101
-0.38124752 0.53093755 0.20933342
-0.3384096 0.55373204 0.214589
0.33681026 0.55363536 0.21410644
0.20576705 0.57431358 0.20880902
-0.20793425 0.57611752 0.21748769
0.3615334 -0.56171209 0.23800683
-0.58115602 -0.38491303 0.22966027
0.5788905 -0.38451684 0.22663319
0.60337144 -0.36418477 0.23916698
-0.62542975 -0.31944531 0.23179042
0.62227035 -0.31870359 0.22490835
0.64602637 -0.27576208 0.23339021
-0.64595675 -0.25318959 0.22577786
-0.67066973 -0.21027684 0.23769474
0.66631192 -0.20948593 0.22627914
-0.69272959 -0.10048446 0.23809612
0.68872744 -0.10019057 0.22855198
-0.6910888 -0.078366525 0.23143506
-0.68945193 -0.056351431 0.22479057
-0.68990946 0.031123597 0.22664785
-0.69066244 0.053070083 0.22970462
-0.69142067 0.075064264 0.23278272
-0.69218057 0.097106151 0.23586726
0.68765759 0.096651994 0.22406876
-0.69293845 0.11919516 0.23894405
0.68916827 0.11880057 0.23039949
-0.66919363 0.18459174 0.23150909
0.66781729 0.20660435 0.2327975
-0.6457321 0.24971245 0.22480524
0.6457386 0.27230442 0.23210144
0.62521863 0.31688893 0.2385869
-0.60217065 0.33725199 0.22555673
-0.58139265 0.38171345 0.23079884
0.57911205 0.38128939 0.22773969
-0.36411738 -0.56297696 0.2445792
-0.51966232 -0.47618753 0.2524128
0.51779294 -0.47615597 0.25221753
-0.53993589 -0.45267278 0.2430563
0.53799677 -0.45252585 0.24210167
-0.56284148 -0.43133071 0.24756968
0.56037933 -0.4308255 0.24411619
-0.60669607 -0.36509442 0.24655211
0.62806606 -0.34367099 0.2517972
0.65042728 -0.29966271 0.25310385
-0.65010214 -0.27671701 0.24372804
-0.67498589 -0.23363002 0.25578105
0.67246181 -0.23340894 0.25290859
-0.69604182 -0.14503348 0.25154185
0.69537622 -0.14525856 0.25641358
-0.69438177 -0.1227066 0.24480331
0.69203562 -0.12261475 0.24241483
-0.69609356 0.1418559 0.25175214
-0.67240536 0.20754115 0.24496758
-0.64982641 0.27334845 0.24253416
-0.62900585 0.31795391 0.24780929
0.60460812 0.36167923 0.24511707
-0.60811478 0.36272848 0.25313389
-0.45251387 0.51609594 0.24668682
-0.40770444 0.53714043 0.24156487
0.40597585 0.5371719 0.2417289
-0.43302485 -0.54440171 0.26319206
-0.47869882 -0.52366585 0.27121937
0.47696048 -0.52393007 0.27271163
-0.49924755 -0.4998492 0.26178551
0.49744555 -0.49995413 0.2624054
-0.58843702 -0.41166607 0.26469088
0.58492643 -0.4105714 0.25679016
0.60969204 -0.39013675 0.26957703
-0.6325379 -0.3450374 0.26363099
-0.65429676 -0.30054203 0.26189125
-0.70008034 -0.19017835 0.26793647
-0.69770592 -0.16746509 0.25829744
0.69874978 -0.16812538 0.27055013
0.69553441 0.14214283 0.2570765
-0.69945627 0.16476583 0.26540303
-0.67564756 0.23070852 0.25855386
0.67387348 0.23074815 0.2590214
-0.67891705 0.25409555 0.27225471
-0.65626484 0.29835117 0.27041328
0.65458363 0.29849231 0.27172172
0.6318984 0.34267384 0.26957703
0.60963833 0.3870509 0.26931858
0.58636218 0.408472 0.26396418
-0.56744099 0.43164927 0.27055013
0.56406796 0.43053031 0.2632829
-0.54456925 0.45331058 0.26713192
0.54178429 0.45257825 0.26260209
-0.52175444 0.47492296 0.26373696
0.51951104 0.4746156 0.26192153
0.49908006 0.4985576 0.2720567
0.45230651 0.51799583 0.25697088
0.433227 -0.54707956 0.277686
-0.61433393 -0.39176089 0.28198767
-0.65869361 -0.32474113 0.28093004
-0.67935705 -0.2572813 0.2740984
-0.72354132 -0.034860369 0.2729249
-0.72531039 -0.01262831 0.27988875
0.70249778 0.16604997 0.28625584
0.68061781 0.25557092 0.28822529
-0.63525617 0.34344128 0.27580702
-0.61417204 0.38870212 0.28123653
-0.5903638 0.40993431 0.27396131
-0.50131422 0.49880567 0.27345812
-0.39312002 -0.57268345 0.29501581
0.54937512 -0.48447663 0.30368865
0.56982684 -0.460394 0.29320705
-0.5958963 -0.43908399 0.30057979
0.59281564 -0.43844455 0.29620743
-0.64054734 -0.37161702 0.29950857
0.66019499 -0.32645774 0.29685771
0.68164343 -0.25885361 0.29266644
0.7039907 -0.1916917 0.29251194
-0.72909814 -0.057429351 0.29479921
0.72740597 -0.035043489 0.29670286
0.72849113 -0.012628262 0.30110776
-0.7278586 0.0097347433 0.28991973
-0.73042065 0.032253057 0.3000052
-0.70723522 0.18912776 0.29698145
0.39281863 -0.57542074 0.30923903
0.52877259 -0.50873095 0.31423044
-0.55415869 -0.48662215 0.31696022
-0.57477206 -0.46254501 0.3071785
-0.68996048 -0.28362712 0.31853151
-0.73474377 -0.080343179 0.31702316
0.7309947 -0.057682976 0.31127119
0.73013645 0.0098723518 0.30778706
0.73179322 0.032476343 0.31451261
-0.73300451 0.054928526 0.31017661
0.73345375 0.055184297 0.32125354
-0.73560649 0.077762857 0.32041907
0.70960027 0.19044676 0.31601834
-0.6667788 0.32582095 0.31594002
-0.64214116 0.36973149 0.30664837
0.55139512 0.48354071 0.3146224
-0.43977541 0.54974067 0.30703819
0.43767074 0.54993892 0.30806804
-0.53340691 -0.51086104 0.32680786
-0.62493318 -0.42087653 0.3311615
0.64397532 -0.3748315 0.32560682
0.69108325 -0.28501362 0.33354187
-0.71368402 -0.21619804 0.32316041
0.7137441 -0.21690631 0.33338296
0.73461562 -0.080549739 0.32597017
0.73511803 0.077996545 0.32800961
-0.73819852 0.10075327 0.33062279
0.73679394 0.10091466 0.33481288
-0.69157732 0.28163186 0.32530665
0.66910851 0.328228 0.33678532
0.64590138 0.373382 0.33454275
-0.57857114 0.46285278 0.32615972
-0.5552457 0.48489335 0.32260859
-0.48947415 0.53238326 0.33484483
0.48522815 0.53035277 0.32385457
-0.74048042 -0.10361012 0.33960521
0.73827308 -0.10364746 0.34081769
-0.74193347 0.12410866 0.34532511
0.73918235 0.12407097 0.34450889
-0.71872616 0.21513613 0.34362912
0.7168538 0.21535042 0.34641397
0.69235092 0.28300533 0.33903122
-0.60663724 0.44422886 0.35225701
0.57979232 0.46589676 0.34498906
0.62744218 -0.4241766 0.35497749
-0.74630195 -0.12723757 0.36252129
0.74197161 -0.12698016 0.35583174
0.68002039 -0.35912865 0.38566434
