ply
format ascii 1.0
comment PCL generated
element vertex 1342
property float x
property float y
property float z
element camera 0
property float view_px
property float view_py
property float view_pz
property float x_axisx
property float x_axisy
property float x_axisz
property float y_axisx
property float y_axisy
property float y_axisz
property float z_axisx
property float z_axisy
property float z_axisz
property float focal
property float scalex
property float scaley
property float centerx
property float centery
property int viewportx
property int viewporty
property float k1
property float k2
end_header
-0.23914608 -0.12592053 -0.074868679
0.22020161 -0.12553373 -0.08324486
0.24001071 -0.12588587 -0.075618088
-0.25869441 -0.10688699 -0.071349442
-0.23858418 -0.10653543 -0.080483675
0.23950928 -0.1065137 -0.081046283
0.25939661 -0.10680831 -0.073393285
-0.25824234 -0.087561704 -0.075544357
0.25898978 -0.087502725 -0.077458739
0.27906975 -0.087768734 -0.068820894
-0.25805053 -0.068356723 -0.077323735
0.25881812 -0.068314053 -0.079174221
0.27884507 -0.068504989 -0.070905805
-0.27804571 -0.049319319 -0.070005655
-0.25786036 -0.049179524 -0.07908833
0.25864667 -0.049151823 -0.080887198
0.27862209 -0.049273513 -0.072975039
-0.27784076 -0.030099094 -0.07178092
-0.25767046 -0.030029312 -0.080850601
0.25847548 -0.030015863 -0.082597911
0.27840212 -0.030074175 -0.07501626
-0.27763608 -0.010906392 -0.073553205
0.27821687 -0.010906347 -0.07673502
-0.25748083 -0.010906302 -0.08261019
-0.2774303 0.0082591074 -0.075335443
0.27803186 0.008235083 -0.078451395
-0.27722618 0.027397308 -0.077102959
0.27784714 0.027350157 -0.080165565
-0.27725452 0.046554919 -0.076857686
0.27787086 0.046483655 -0.079945326
-0.27746007 0.065763354 -0.075077653
0.27805698 0.06566672 -0.078218699
-0.27766591 0.08499936 -0.073294878
-0.25750583 0.084649801 -0.082378209
0.27824199 0.084875964 -0.076501787
-0.27787063 0.10426248 -0.071521997
-0.25769553 0.10384237 -0.080618143
0.25849745 0.10376106 -0.082378209
0.27842993 0.10411304 -0.074758112
-0.27807707 0.12355366 -0.069734216
-0.25788677 0.12306272 -0.078843534
0.25866994 0.12296515 -0.08065474
0.27865392 0.12339485 -0.072679579
-0.25807831 0.14231068 -0.077066183
0.2588414 0.14219518 -0.078941524
0.2788783 0.14270906 -0.070597708
-0.25827011 0.16158605 -0.075286329
0.25901434 0.16145261 -0.077213407
0.27910304 0.16205546 -0.068512201
-0.25878739 0.18112136 -0.070486665
-0.23866133 0.18041113 -0.079712749
0.23957592 0.18036407 -0.08032465
0.25947544 0.18095821 -0.072605669
-0.21920215 0.19924276 -0.083257198
0.22026053 0.19930273 -0.082549155
-0.23922727 0.20002174 -0.07405746
0.2400822 0.19995518 -0.074844062
-0.21972419 0.21886928 -0.077605844
0.22072378 0.21891801 -0.077078462
0.24059069 0.21963285 -0.069339514
-0.22024864 0.23858541 -0.07192862
-0.20027663 0.23766316 -0.081143975
0.20140006 0.23784681 -0.079308867
0.22118905 0.23861992 -0.071583748
-0.200756 0.25739402 -0.075482845
0.18211094 0.25674185 -0.08153522
0.2018223 0.2575728 -0.07382381
-0.20123756 0.27721503 -0.069796026
-0.18131977 0.27615049 -0.079014838
0.18249027 0.27649182 -0.076060057
-0.18192883 0.29626212 -0.071103096
-0.16207328 0.29509318 -0.080593586
0.16331679 0.29562441 -0.076280951
-0.16282308 0.31563449 -0.06977123
-0.14326987 0.31490138 -0.075372338
-0.12392426 0.31446326 -0.078720808
-0.10463119 0.3140277 -0.082048297
0.12475044 0.3140741 -0.081694067
0.14429434 0.31511211 -0.073762357
-0.12445041 0.33495551 -0.068956792
-0.10508041 0.33448926 -0.072322488
-0.085763037 0.33402574 -0.075667143
-0.06649705 0.33356184 -0.079015017
-0.047283106 0.33310089 -0.082341552
0.029159665 0.3330417 -0.082768857
0.048299685 0.33332777 -0.080703855
0.067471579 0.33361447 -0.078635275
0.08667542 0.33390149 -0.07656312
0.1059113 0.33418915 -0.074487746
0.12523335 0.3346394 -0.071238577
-0.066797644 0.35412684 -0.069252968
-0.047507945 0.35363638 -0.072605789
-0.028270002 0.35314745 -0.07594949
-0.0090988921 0.35294995 -0.077299237
0.01005144 0.3532533 -0.075224936
0.029233731 0.35355729 -0.073147237
0.048448067 0.35386166 -0.071066082
0.067694522 0.35416651 -0.068981528
-0.047922544 -0.32010099 -0.05465281
-0.028546426 -0.31968918 -0.0579952
-0.009235709 -0.31950071 -0.059526205
0.01005144 -0.31975675 -0.057447076
0.029370528 -0.32001168 -0.055377007
-0.1059098 -0.30080944 -0.054365754
-0.08645425 -0.30042344 -0.05770874
-0.06705007 -0.300037 -0.061055183
-0.047697894 -0.29965302 -0.064380407
-0.028397057 -0.29927012 -0.06769681
0.01005144 -0.29934433 -0.067054152
0.029296547 -0.2995829 -0.064987481
0.048573334 -0.29982054 -0.062929809
0.067882158 -0.30006 -0.060856462
0.087223016 -0.30029973 -0.058779478
0.10659599 -0.30054 -0.056699276
-0.14437456 -0.28115177 -0.057434559
-0.1248916 -0.28079242 -0.060769558
-0.10546041 -0.28043395 -0.064095557
-0.086080745 -0.2800765 -0.067412615
0.086927511 -0.27997261 -0.068376303
0.10622599 -0.28019506 -0.066312015
0.12564062 -0.28061441 -0.062421024
0.14533283 -0.28146908 -0.054490566
-0.16345106 -0.26152104 -0.060707211
-0.14377682 -0.26087725 -0.067140698
0.14477119 -0.26110017 -0.064913273
0.16450427 -0.26189226 -0.056998491
-0.18262774 -0.24212132 -0.062023997
0.16386294 -0.2416236 -0.067412615
0.18363664 -0.24235332 -0.059513807
-0.2219172 -0.22354421 -0.053866029
-0.20178536 -0.22274312 -0.063326836
0.20273063 -0.22285344 -0.062023997
0.22267033 -0.22352521 -0.054090977
-0.22121635 -0.20362949 -0.061452806
0.22204798 -0.20363049 -0.061440349
0.24203855 -0.20422892 -0.053665996
-0.24084468 -0.18460365 -0.057895541
-0.22069208 -0.18396403 -0.067128181
0.22158308 -0.18397768 -0.066930532
0.24152824 -0.18451397 -0.059190273
-0.26053017 -0.16552439 -0.054315805
-0.24027632 -0.1649542 -0.063574731
0.24102019 -0.16488551 -0.064690113
0.2610423 -0.16536225 -0.056948543
-0.25991637 -0.1458903 -0.060011029
0.26049089 -0.14575833 -0.062458336
-0.27961099 -0.12677132 -0.05644989
-0.25930402 -0.12634441 -0.0656932
0.25994319 -0.12624092 -0.067931592
0.28031972 -0.12673561 -0.057222843
-0.27895448 -0.10724162 -0.062135577
0.27960712 -0.10717631 -0.063835025
-0.2988205 -0.088124253 -0.057272553
-0.27845651 -0.087841794 -0.066448033
0.30004108 -0.088236891 -0.053615928
-0.29859963 -0.068778396 -0.059065819
-0.27825096 -0.068566889 -0.068228185
0.29980028 -0.068856075 -0.055701375
-0.29837906 -0.049460147 -0.060856462
0.299557 -0.049507029 -0.057808399
-0.29815885 -0.030169465 -0.062644422
0.29931557 -0.030190576 -0.059899211
0.2990731 -0.010906392 -0.061999083
-0.29793742 -0.010906302 -0.064442456
-0.31850216 0.0084203715 -0.054390669
-0.29771781 0.0083292956 -0.06622535
0.29883245 0.0083457446 -0.064083159
-0.31821144 0.027712759 -0.056611896
-0.29749852 0.027537376 -0.068005741
0.29859221 0.027565703 -0.066163421
-0.3182604 0.047031008 -0.056237817
-0.29753199 0.046765577 -0.067733943
0.29862937 0.046809234 -0.065841675
-0.31855282 0.066412367 -0.054003477
-0.29775286 0.06604474 -0.065940738
0.29887113 0.066112243 -0.063748419
-0.2979725 0.085351117 -0.064157486
0.29911324 0.085447617 -0.061651349
-0.29819402 0.10468577 -0.062359154
0.29935578 0.10481539 -0.059551001
-0.29841584 0.12404812 -0.0605582
0.29959872 0.1242157 -0.057447076
-0.29863641 0.14343756 -0.0587672
-0.27828377 0.14287244 -0.067943931
0.29984063 0.14364792 -0.055352092
-0.29885888 0.16285568 -0.05696106
-0.27848935 0.16221817 -0.066163421
-0.27906346 0.18183689 -0.061191857
0.27972072 0.18171456 -0.062780857
-0.27972624 0.20159733 -0.05545187
-0.25940141 0.20080665 -0.064789355
0.26002729 0.20061168 -0.067091167
0.28044066 0.2015423 -0.056100726
-0.26001826 0.22058198 -0.0590657
-0.23979703 0.21972299 -0.068364084
0.26058036 0.22035107 -0.061564505
-0.24036817 0.23951328 -0.062656879
0.24110031 0.23939672 -0.063822687
0.26113713 0.24017939 -0.056000948
-0.24094318 0.25939551 -0.05691123
-0.22077549 0.25839183 -0.06622535
0.22165537 0.25840777 -0.066076815
0.24161333 0.25924924 -0.058269024
-0.22130474 0.27828899 -0.060495973
0.20224543 0.2773847 -0.06832701
0.22212479 0.27828461 -0.060533285
-0.20193668 0.29744005 -0.06153959
0.18302689 0.29660565 -0.068314612
0.20286357 0.29759318 -0.060297132
-0.18276834 0.31688735 -0.060197592
0.1639635 0.31615674 -0.065779924
0.18375823 0.31720653 -0.05775857
-0.16357858 0.33635366 -0.058866739
-0.14387204 0.33542159 -0.065594137
0.14486068 0.33574599 -0.06325233
0.16461492 0.33686146 -0.055202127
-0.14447896 0.35610342 -0.055738807
-0.12498005 0.35560775 -0.059127927
-0.10553373 0.35511345 -0.062507987
-0.086139306 0.35461855 -0.065891147
0.086973183 0.35447195 -0.06689328
0.10628412 0.3547779 -0.064801753
0.12571977 0.35537678 -0.060707211
-0.086519033 0.37537548 -0.056025743
-0.067100599 0.37485385 -0.059414029
-0.047734547 0.37433356 -0.062793374
-0.028420668 0.37381476 -0.066163599
-0.0091732861 0.37358823 -0.067635119
0.01005144 0.37391192 -0.065532327
0.029308472 0.37423432 -0.063438296
0.048597798 0.37455714 -0.061340928
0.067919485 0.37488073 -0.059240103
0.087273642 0.37520462 -0.057135582
0.10666033 0.37552926 -0.055027485
-0.028589811 0.3948268 -0.055177212
-0.0092561254 0.39455253 -0.056873798
0.01005144 0.39491355 -0.054640412
-0.028811507 -0.34124136 -0.040777802
-0.0093660476 -0.34100363 -0.042594552
0.01005144 -0.34129089 -0.040398836
-0.12597704 -0.32182854 -0.040626287
-0.10638132 -0.32139364 -0.044157147
-0.086839862 -0.32095852 -0.047690511
-0.0673531 -0.32052448 -0.05121398
0.048721731 -0.32026872 -0.053291202
0.068107449 -0.32053834 -0.051101446
0.087526597 -0.32080704 -0.048920393
0.10697996 -0.32107762 -0.046723127
0.12663735 -0.32180211 -0.040840983
-0.16495612 -0.30258557 -0.038983583
-0.14497694 -0.3015846 -0.047652721
-0.12541729 -0.30119649 -0.051013827
0.12612355 -0.30108666 -0.051965117
0.14589985 -0.30201006 -0.043968201
-0.18429829 -0.28299597 -0.040323138
-0.16420077 -0.28196535 -0.049886107
0.16515024 -0.28232926 -0.046509624
0.18509406 -0.28319481 -0.038477778
-0.20361994 -0.26342702 -0.041661263
-0.18345989 -0.26247108 -0.051214218
0.18436186 -0.26268807 -0.04904592
0.20434675 -0.26349017 -0.041030288
-0.22292113 -0.24387893 -0.042998075
-0.20269869 -0.24299733 -0.052540779
0.2035358 -0.24308753 -0.051564574
0.22356056 -0.24382542 -0.043577552
-0.24220316 -0.22435249 -0.044320703
0.24273679 -0.22420122 -0.046107292
-0.26176757 -0.20506273 -0.042834163
-0.24141683 -0.20434344 -0.052178025
0.2621524 -0.20483017 -0.04585588
-0.28160155 -0.18589815 -0.039211154
-0.26114815 -0.1852489 -0.048581839
0.26159611 -0.18505275 -0.051414371
-0.28093451 -0.16609888 -0.044987798
0.28175637 -0.16616632 -0.043892622
-0.30080083 -0.14690425 -0.04119432
-0.28027198 -0.14639056 -0.050725579
0.28103614 -0.14639865 -0.050575376
-0.3000688 -0.12720141 -0.047137737
0.30141276 -0.12745084 -0.04173696
-0.29936326 -0.10759839 -0.052865982
0.30063835 -0.10776866 -0.048443675
-0.31996664 -0.088557631 -0.043199658
-0.31967172 -0.069092728 -0.04545331
0.32100943 -0.069210924 -0.040335894
-0.31937897 -0.049662828 -0.047690511
0.3207483 -0.049743418 -0.042455912
-0.3190867 -0.030267309 -0.049923658
0.32048762 -0.030308634 -0.044572473
-0.31879336 -0.010906347 -0.052165389
0.32022735 -0.010906302 -0.046685576
0.31996599 0.0084633557 -0.048807621
-0.33997071 0.027985048 -0.03893292
0.31970659 0.027800519 -0.050913453
-0.34003201 0.047440898 -0.038490415
0.31975287 0.047162693 -0.050537825
0.32001388 0.066584252 -0.048418641
-0.31884575 0.08582814 -0.051764965
0.32027534 0.086038619 -0.046296
-0.31913921 0.10527857 -0.0495224
0.32053721 0.1055258 -0.044169545
-0.31943318 0.12476378 -0.047276139
0.32079956 0.12504604 -0.042039871
-0.31972772 0.14428389 -0.045025587
0.32105923 0.14459763 -0.039931536
-0.32002276 0.16383879 -0.042771101
0.30008295 0.16311261 -0.053253531
-0.29948962 0.18255684 -0.051840186
0.30078042 0.18291295 -0.047213316
-0.30020344 0.2023938 -0.046044469
0.30156288 0.20286873 -0.040436745
-0.30097657 0.22236465 -0.039767265
-0.28039208 0.22144856 -0.049685597
0.28116581 0.22147737 -0.049371958
-0.28106245 0.24139231 -0.043879867
-0.26063928 0.24044934 -0.05330348
0.28189352 0.24151835 -0.042619824
-0.26126179 0.26040691 -0.047527313
0.26169515 0.26009458 -0.050424933
-0.26188853 0.28045788 -0.041711688
-0.24152081 0.27936944 -0.051138997
0.24212748 0.27918866 -0.052703261
0.26225942 0.28010288 -0.044786453
-0.24241628 0.29982319 -0.042191029
-0.22209856 0.29862696 -0.051902652
0.222827 0.29858539 -0.052240491
0.24292044 0.2995857 -0.04411912
-0.22312039 0.3194204 -0.040840983
-0.20286724 0.31814981 -0.050550222
0.20368142 0.31826454 -0.04967308
0.22373353 0.31932962 -0.04153502
-0.20380494 0.33904052 -0.039476395
-0.18361425 0.33769193 -0.049208879
0.18449669 0.33798406 -0.047100186
0.2045072 0.33911413 -0.038945556
-0.1643407 0.35725495 -0.047866344
0.1454325 0.35655662 -0.052640796
0.16527264 0.35774401 -0.044522047
-0.14509147 0.37695101 -0.045792937
-0.12551387 0.37642303 -0.049221635
-0.10599005 0.37589866 -0.052628279
0.1262109 0.37629187 -0.050073981
0.14600851 0.37754247 -0.041951418
-0.10654031 0.39716473 -0.040714622
-0.086968586 0.39657786 -0.044345975
-0.067453094 0.39599246 -0.047966719
-0.047993574 0.39540869 -0.05157721
0.02939342 0.39527524 -0.052402973
0.04876991 0.39563757 -0.050161839
0.068180703 0.39599851 -0.047928929
0.087626383 0.3963621 -0.045679808
0.10710686 0.3967264 -0.043426394
-0.0093925791 0.4168621 -0.039147973
-0.0095004244 -0.36283979 -0.025138736
-0.10719541 -0.34310573 -0.026531219
-0.087516859 -0.34263861 -0.030101538
-0.067893177 -0.34217098 -0.033674598
0.048988201 -0.34186882 -0.035983324
0.06850785 -0.34215933 -0.033763409
0.0880614 -0.34244862 -0.031552434
0.10764962 -0.34274024 -0.02932477
-0.048324741 -0.34170461 -0.037237525
0.029502861 -0.34158045 -0.038186789
-0.16580999 -0.32354885 -0.026659131
-0.14564331 -0.32229584 -0.036832213
0.14652503 -0.322846 -0.032366037
0.16654669 -0.32389683 -0.023834109
-0.18514398 -0.30369943 -0.029337406
0.1658016 -0.3029379 -0.03593266
0.18583153 -0.30387315 -0.027832985
-0.2045503 -0.28403577 -0.030674458
0.20516451 -0.28406462 -0.03040719
-0.22393496 -0.2643916 -0.032022834
0.22445935 -0.26429757 -0.032963276
0.24470095 -0.26510996 -0.024844646
-0.26383176 -0.24566337 -0.023680687
-0.24329905 -0.24476834 -0.033369899
0.24371415 -0.24456906 -0.03552711
0.26436386 -0.24565627 -0.023757339
-0.28323832 -0.22598553 -0.025036454
-0.26264253 -0.22516586 -0.034715295
0.26307443 -0.22500275 -0.036642194
-0.28227019 -0.20578742 -0.033420563
0.28320971 -0.20601948 -0.03040719
-0.30257383 -0.1867581 -0.02679944
0.28248042 -0.18603934 -0.037174106
-0.3016848 -0.16677451 -0.034017324
0.30297112 -0.16713014 -0.028241158
0.30218986 -0.14723763 -0.035007119
-0.32164744 -0.12797652 -0.030356288
0.32276788 -0.12817504 -0.026058793
-0.32070547 -0.1081877 -0.037554026
0.32193157 -0.10836887 -0.032849073
-0.34185553 -0.089107938 -0.025330424
0.32126945 -0.08871083 -0.038224697
-0.34153879 -0.069504634 -0.027616262
0.34247994 -0.069570206 -0.02478075
-0.34122443 -0.049937088 -0.029885054
0.34220073 -0.049982671 -0.026914358
-0.34091058 -0.03040424 -0.032149911
0.34192032 -0.030428037 -0.029057026
-0.34059557 -0.010906347 -0.03442347
0.34164038 -0.010906347 -0.031196117
-0.34028286 0.0085567171 -0.036680222
0.3413609 0.0085825352 -0.033331752
0.34108025 0.028038204 -0.035476327
0.34113669 0.0475205 -0.035045147
-0.34034604 0.066959761 -0.036224246
0.3414174 0.067062132 -0.032899857
-0.34066063 0.086513683 -0.033953905
0.34169865 0.086637028 -0.030750871
-0.34097576 0.10610273 -0.031679511
0.34198037 0.10624509 -0.028598309
-0.34129149 0.12572706 -0.029401064
0.34226087 0.12588577 -0.026454806
-0.34160775 0.14538667 -0.027118564
0.34254017 0.14555895 -0.024320364
-0.34192461 0.16508174 -0.02483201
0.32132086 0.16418271 -0.037806988
-0.32089776 0.1837697 -0.036084771
0.32210538 0.18412738 -0.031437874
-0.32185081 0.20385398 -0.028802156
0.32294896 0.2042108 -0.024588823
0.30234814 0.22293101 -0.033636451
-0.30187097 0.24253064 -0.032505751
0.30313909 0.24310291 -0.026786685
-0.3027705 0.26281282 -0.025202632
-0.28173447 0.26142713 -0.038060188
0.28262651 0.26166883 -0.035818577
-0.28241104 0.28155604 -0.032200813
0.28336346 0.281928 -0.028980494
-0.26289025 0.30102697 -0.03241694
0.26333585 0.30082828 -0.03403008
-0.24353184 0.32070264 -0.03104341
0.24391578 0.32040149 -0.033344388
-0.22415246 0.34039953 -0.02966857
0.22464778 0.34025124 -0.030738115
-0.20475094 0.36011595 -0.028305054
-0.1844676 0.35867995 -0.038123488
0.18524054 0.35893729 -0.036363482
0.20533907 0.36014012 -0.028139234
-0.18532853 0.37985364 -0.026939869
-0.16510954 0.37834033 -0.036768913
0.1659352 0.3788031 -0.033763409
0.18599164 0.38007194 -0.025522113
-0.14589489 0.39845276 -0.032747269
-0.1261685 0.39775351 -0.037072778
0.12681258 0.39775756 -0.037047625
0.14674386 0.39917094 -0.028304935
-0.087666065 0.41905075 -0.026224732
-0.068009079 0.41842648 -0.029910445
-0.048409369 0.41780624 -0.033573031
-0.028866012 0.41718566 -0.037237525
0.01005144 0.41724554 -0.036882877
0.029530264 0.41762775 -0.034626484
0.049044088 0.41801286 -0.032353401
0.068593003 0.41839841 -0.030076265
0.0881771 0.41878474 -0.027794719
0.10779648 0.41917184 -0.025509477
-0.10802218 -0.36512718 -0.0086314678
-0.088202879 -0.36462191 -0.01227808
-0.068440445 -0.36411986 -0.015901446
-0.04873433 -0.36362094 -0.019501686
-0.029083602 -0.36312169 -0.023104548
0.01005144 -0.36314836 -0.022912502
0.029637706 -0.36345911 -0.020669699
0.049258564 -0.36377048 -0.018422723
0.06891381 -0.36408052 -0.016184568
0.088604033 -0.36439306 -0.013929844
0.10834852 -0.3647759 -0.011167049
-0.14686099 -0.34434527 -0.017059803
-0.12693018 -0.34357595 -0.022938251
0.12751633 -0.34372348 -0.021810651
0.14755741 -0.34484944 -0.013207436
-0.18614061 -0.32481372 -0.016390681
0.18670368 -0.32495478 -0.015244603
-0.22598696 -0.30595431 -0.0098093748
-0.20548768 -0.30482334 -0.019604325
0.20599017 -0.30481443 -0.019681573
0.22627875 -0.30576178 -0.011477113
-0.24551968 -0.28613678 -0.011179924
-0.22495648 -0.28508219 -0.020964622
0.22536467 -0.28494138 -0.022271991
0.2457009 -0.28583071 -0.014020085
-0.26503283 -0.26634175 -0.012536287
-0.24440451 -0.26536232 -0.02232337
0.26566783 -0.26652274 -0.010727644
-0.28456992 -0.24660349 -0.013504148
-0.30481791 -0.22737904 -0.0085794926
0.28427988 -0.22637153 -0.020477176
-0.30346793 -0.20685586 -0.019540191
0.30454922 -0.20723817 -0.014574528
-0.32450572 -0.18802483 -0.0085150003
0.30375803 -0.18713041 -0.021426082
-0.32354748 -0.16789408 -0.015837193
0.32445094 -0.16810606 -0.012394309
-0.32259476 -0.14787832 -0.023117423
0.32360718 -0.14808701 -0.019244909
-0.34368378 -0.12881804 -0.012136102
0.34439006 -0.12890817 -0.010184526
-0.34267208 -0.10888511 -0.019437432
0.34349033 -0.10897668 -0.017059684
0.34276128 -0.089191042 -0.022630692
-0.36371958 -0.069922857 -0.00951159
0.36421666 -0.069933794 -0.0090328455
-0.36338109 -0.050215025 -0.011826038
0.36391732 -0.050224751 -0.011193037
-0.3630451 -0.030542959 -0.014123321
0.36361673 -0.030548919 -0.013362288
-0.3627097 -0.010906392 -0.016416311
0.36331844 -0.010906347 -0.015515089
-0.36237302 0.0086949458 -0.018718362
0.36301887 0.0087029235 -0.017677069
-0.36203885 0.02826101 -0.021003127
0.36271802 0.028278805 -0.019848228
-0.36211389 0.047856566 -0.020489931
0.3627874 0.047883011 -0.019347668
-0.36245009 0.067515008 -0.018191338
0.36308837 0.067546248 -0.017175436
-0.36278689 0.087209031 -0.015888572
0.36338806 0.087242782 -0.015012741
-0.36312431 0.10693865 -0.013581514
0.36368826 0.10697258 -0.012846112
-0.36346236 0.12670398 -0.011270404
0.36398897 0.12673603 -0.010675907
-0.363801 0.14650528 -0.0089552402
0.36428842 0.1465323 -0.0085147619
0.34282166 0.16526611 -0.02216959
-0.3429071 0.18518174 -0.017741442
0.34369755 0.18535601 -0.015476465
-0.34392911 0.20541519 -0.010365605
0.34460688 0.2055708 -0.0085278749
-0.32280937 0.22405417 -0.02147758
0.32379866 0.2244041 -0.017689943
-0.32377347 0.24437147 -0.014110327
0.32465303 0.24470747 -0.010753512
0.30393431 0.26338431 -0.019899726
-0.30367523 0.2832123 -0.017857075
0.30473539 0.28377765 -0.012962341
-0.28352499 0.30224186 -0.022553802
0.28459966 0.30286315 -0.017510056
-0.28495926 0.32343906 -0.010132909
-0.26410237 0.32199472 -0.021169782
0.26465362 0.32203504 -0.020861983
-0.26532534 0.34314948 -0.0098221302
-0.24465863 0.34176913 -0.019784212
0.24491848 0.34139419 -0.022489786
-0.24579544 0.3630237 -0.0084241629
-0.22519368 0.36156508 -0.018397093
0.22556883 0.36135104 -0.019861221
0.24598712 0.36265847 -0.010921478
-0.20570643 0.38138068 -0.017021179
0.20617911 0.38134903 -0.017227054
0.22649889 0.3826344 -0.0088775158
-0.1865079 0.40186834 -0.011619449
-0.16611747 0.40015447 -0.02222085
0.16681348 0.40059406 -0.019501567
0.18702291 0.4020271 -0.010637045
-0.14715387 0.42140833 -0.012303948
-0.12715065 0.42030028 -0.018846631
-0.10737971 0.41967458 -0.022541046
0.12771973 0.420544 -0.01740706
0.14780958 0.42204779 -0.0085278749
-0.029146388 0.43986866 -0.019026637
-0.0095308768 0.43948686 -0.021182537
0.01005144 0.43989372 -0.018885374
-0.068573095 0.4411847 -0.011593461
-0.048831154 0.44052681 -0.015308976
0.029669158 0.44030118 -0.016583562
0.049322374 0.4407095 -0.014277935
0.069011189 0.44111839 -0.011968017
0.088735685 0.44152802 -0.0096540451
-0.088899627 -0.38692039 0.0058239698
-0.068995856 -0.38638094 0.0021361113
-0.049149405 -0.38584501 -0.0015282631
-0.029359534 -0.38531056 -0.0051822662
-0.0096366713 -0.3849805 -0.0074394941
0.01005144 -0.38531256 -0.0051691532
0.029774435 -0.38564324 -0.002907753
0.04953251 -0.38597643 -0.00062954426
0.069325753 -0.38631034 0.001652956
0.089153863 -0.38664284 0.0039263964
-0.14809786 -0.36674231 0.0030244589
-0.12789747 -0.36563218 -0.004987359
0.12840864 -0.36597797 -0.0024915934
0.14860553 -0.3671883 0.0062432289
-0.1876875 -0.34706259 0.003704071
-0.16719186 -0.34569931 -0.0067135096
0.16773455 -0.34598291 -0.0045456886
0.18804912 -0.34712419 0.0041749477
-0.22729811 -0.32737246 0.00438416
0.2274304 -0.32709387 0.0021229982
-0.20663528 -0.32608703 -0.006051898
0.20699744 -0.32601985 -0.0065968037
-0.24664594 -0.30709562 7.4267387e-05
0.24691258 -0.30698282 -0.00090301037
-0.26624307 -0.28720081 -0.0013070107
0.26698521 -0.28760421 0.0024363995
-0.28618756 -0.26764682 0.00050473213
0.28710878 -0.26817387 0.005771637
-0.30655006 -0.24835747 0.0054836273
0.28568637 -0.24716491 -0.0074266195
0.30575824 -0.22775804 -0.004103899
-0.32546946 -0.20827159 -0.0011506081
0.326157 -0.20847236 0.0014570951
0.32530245 -0.18823498 -0.0054808855
-0.34572473 -0.16902906 0.0025932789
0.34620249 -0.16909508 0.0036648512
-0.34470135 -0.1488658 -0.0047925711
0.34529299 -0.14894703 -0.0032849312
-0.36604118 -0.12967247 0.0063610077
0.36628434 -0.12965068 0.005889535
-0.36495775 -0.10959292 -0.0010464191
0.36531967 -0.10959194 -0.001072526
-0.3640568 -0.089666054 -0.0072060823
0.36451825 -0.089676768 -0.0068560839
-0.3858557 -0.050497036 0.0064921379
0.38590464 -0.050469831 0.0047242641
-0.38549694 -0.030683741 0.0041619539
0.38558531 -0.030671235 0.002540946
-0.38513878 -0.010906347 0.0018358231
0.38526461 -0.010906347 0.00034821033
-0.38477933 0.0088351918 -0.0004992485
0.38494632 0.0088249268 -0.0018277168
-0.38442251 0.028541051 -0.0028166771
0.38462672 0.028522629 -0.0040129423
-0.38451263 0.048278332 -0.0022313595
0.38470656 0.048249692 -0.0034669638
-0.38487166 0.068078361 0.00010037422
0.38502631 0.068035781 -0.0012809038
-0.38523129 0.087914377 0.0024365187
0.38534662 0.087855577 0.00090909004
-0.38559163 0.10778657 0.0047768354
0.38566747 0.10770926 0.0031027794
0.38598889 0.1275969 0.0053002834
-0.36414784 0.16634598 -0.0065838099
0.36459553 0.16636571 -0.0062984228
-0.36523804 0.18661444 0.0008699894
0.36556351 0.18660046 0.00068724155
-0.34495887 0.22576724 -0.0029338598
0.34552118 0.22589587 -0.0015413761
-0.34599468 0.24623799 0.0045411587
0.34644049 0.24633241 0.0054835081
-0.32474315 0.2648069 -0.0067005157
0.32551366 0.26512301 -0.0037660599
-0.32571679 0.28535965 0.00073945522
0.32637739 0.28564927 0.003246665
-0.30524758 0.3043927 -0.0050913095
0.30614141 0.30492294 -0.00078594685
0.28603745 0.3242195 -0.0041689873
-0.28661439 0.34509262 0.0042009354
0.26598519 0.34346354 -0.0075560808
-0.26655781 0.364492 0.0016138554
0.26733077 0.36511734 0.005889535
-0.24694116 0.38446692 0.0030245781
-0.226243 0.38291764 -0.0070376396
0.24722591 0.3843843 0.0024887323
-0.20706905 0.40359637 -0.0009291172
0.20737357 0.40347007 -0.0017104149
-0.16754478 0.42321783 -0.001619339
0.16803995 0.42356196 0.00041341782
-0.12814635 0.44317216 -0.00036883354
-0.10823069 0.44250852 -0.004117012
-0.088373154 0.44184679 -0.0078542233
0.10853142 0.44210154 -0.0064151287
0.12864108 0.44368732 0.002540946
-0.049258769 0.46357527 0.0032074451
-0.029430632 0.46287867 -0.00056433678
-0.009671255 0.46243834 -0.0029468536
0.01005144 0.4628689 -0.00061643124
0.029810049 0.46330026 0.0017184019
0.049604665 0.46373242 0.004057169
0.069435388 0.46416521 0.006400466
-0.029747549 -0.40889633 0.020020247
-0.0098254522 -0.4084442 0.017083764
0.01005144 -0.40884531 0.019689202
-0.12887782 -0.38799995 0.013205528
-0.10886008 -0.38745943 0.0095094442
0.10909787 -0.38728282 0.0083017349
0.12931401 -0.38857117 0.017110348
-0.1685947 -0.36819863 0.013534784
0.16894056 -0.36840686 0.015037656
-0.20835075 -0.34843701 0.014206886
0.20850255 -0.34827319 0.012955189
-0.24812888 -0.32866669 0.014892459
0.24852169 -0.32886672 0.016515851
-0.26746395 -0.30824429 0.010021687
0.2683149 -0.30890268 0.015723705
-0.2878215 -0.28892112 0.014655232
0.28854451 -0.28939947 0.019093513
-0.30829972 -0.26956666 0.019689202
0.30728468 -0.24869293 0.0091154575
-0.32699174 -0.2289931 0.010481715
0.3275148 -0.22916237 0.012481093
-0.34778938 -0.20970678 0.017493367
0.34803814 -0.20972207 0.017691851
-0.34675407 -0.18930909 0.010021806
0.34711868 -0.18935378 0.010665894
-0.36822695 -0.17018145 0.021305084
0.36822951 -0.17009656 0.019927382
-0.36713088 -0.14986818 0.013811469
0.36725426 -0.14981851 0.012889266
-0.38756576 -0.11031055 0.017599106
0.38742661 -0.11021562 0.015129924
-0.38657722 -0.090232097 0.011178613
0.38654691 -0.090168588 0.0091154575
-0.38621715 -0.070346639 0.0088397264
0.38622648 -0.070302404 0.0069246292
0.4078396 -0.010906392 0.018710017
-0.40789148 -0.010906302 0.020351171
-0.40751073 0.0089775426 0.017995715
0.4073616 0.0089592123 0.015604854
-0.40712851 0.028825082 0.015631318
0.40688267 0.028776854 0.012494326
-0.40723518 0.048706014 0.016291499
0.40701446 0.048638109 0.013350487
-0.4076176 0.068649694 0.018656969
0.40749574 0.068582505 0.016476154
-0.40800071 0.088629901 0.021026969
0.40797612 0.088574864 0.019596457
-0.38595256 0.12769505 0.0071212053
-0.38631418 0.1476399 0.009469986
0.38630891 0.14751782 0.0074883699
-0.38673118 0.1676458 0.01217854
0.38667369 0.16749376 0.0099824667
-0.38789567 0.18806709 0.019742131
0.38771045 0.18786159 0.017070651
-0.36633271 0.2070002 0.008354187
0.36654043 0.20694798 0.0077373981
-0.36743566 0.22750661 0.015895367
0.3675209 0.22740665 0.014813542
-0.34703648 0.26682878 0.012059927
0.3473666 0.2668826 0.012560368
-0.34808445 0.28754023 0.019623041
0.3482978 0.28754634 0.019675851
-0.32750684 0.30679551 0.014417768
0.32796782 0.30701005 0.016159296
-0.30702004 0.32598215 0.0092993975
0.30770221 0.32643127 0.012731433
0.28749037 0.34580076 0.0093125105
-0.28828666 0.36698851 0.018683434
-0.26784399 0.386087 0.013548017
0.26869187 0.38700199 0.0194906
-0.24871357 0.40709868 0.020735502
-0.22780432 0.40534121 0.0098640919
0.22786696 0.40492326 0.0072785616
-0.1881071 0.42504251 0.0091549158
0.18841234 0.42508689 0.0094175339
-0.20884301 0.42688262 0.020020247
0.20892924 0.42662477 0.018498302
-0.16899541 0.44665778 0.019318461
-0.14843255 0.44473511 0.0084592104
0.14889203 0.4452841 0.011560082
0.16928574 0.44689238 0.020642638
-0.12917015 0.46642491 0.018630505
-0.10909469 0.4656781 0.01458919
-0.089090548 0.46497521 0.010784149
-0.069145322 0.46427441 0.0069901943
0.089302324 0.46459904 0.0087479353
0.10930538 0.46551254 0.013692856
-0.089938253 -0.41086504 0.032808304
-0.069808766 -0.41020742 0.028535962
-0.04974537 -0.40955174 0.024277806
0.029968686 -0.4092513 0.02232635
0.049926415 -0.40965602 0.024955392
0.069925047 -0.41006371 0.027603269
0.089964204 -0.41047022 0.030243278
-0.17001806 -0.39105317 0.034079432
-0.14935435 -0.38949519 0.023427725
0.14966902 -0.38986838 0.02597928
0.17016436 -0.39117455 0.034909606
-0.21009247 -0.37114188 0.034775853
-0.18925899 -0.36966512 0.024118304
0.18941519 -0.36963379 0.023892522
0.21003082 -0.37086922 0.032808423
-0.25018704 -0.35121813 0.035458922
-0.22918366 -0.34982276 0.024796009
0.22918724 -0.34957081 0.022870302
-0.26952392 -0.33042103 0.029135942
0.27018264 -0.33106783 0.03438735
-0.28947359 -0.31043136 0.028962612
0.28999376 -0.31084457 0.032540798
-0.31006885 -0.29101157 0.03405261
0.31038538 -0.29121804 0.035968184
0.30882853 -0.2698465 0.022485495
-0.32885978 -0.25013778 0.024756193
0.32916424 -0.25024101 0.025872946
-0.34949872 -0.23063143 0.029829621
0.34955502 -0.2305851 0.029282689
-0.37043828 -0.2111641 0.036424041
0.37019786 -0.2109877 0.034132838
-0.36932939 -0.19061303 0.028842568
0.36921191 -0.19048654 0.027017236
-0.38988677 -0.15088472 0.032674551
0.38951221 -0.15070763 0.029389262
-0.3887229 -0.13053863 0.025115013
0.3884578 -0.13040318 0.022180438
-0.41050497 -0.11103885 0.036517978
-0.40942374 -0.090806343 0.029829621
0.40976948 -0.090849951 0.031244755
-0.40904015 -0.070776515 0.02745676
0.40928474 -0.070791401 0.028096199
-0.40865731 -0.050783355 0.025088429
0.40880322 -0.05078147 0.024968743
-0.40827295 -0.030826543 0.022711039
0.40832084 -0.030819774 0.021835566
-0.4305701 0.0091219107 0.036745906
-0.43016386 0.029113192 0.034347177
-0.43028858 0.049140058 0.035083771
-0.40838456 0.10864673 0.02340126
0.40845969 0.10861612 0.022737622
-0.4087691 0.12870052 0.025779843
0.40894243 0.1287055 0.025872827
-0.40915433 0.14879103 0.028162956
0.40942839 0.14884447 0.02902925
-0.40965036 0.16896592 0.031231403
0.41005757 0.16909647 0.033115864
-0.38906702 0.20860873 0.027350187
0.38875484 0.20834307 0.024211287
-0.39024529 0.22927174 0.035003304
0.38995361 0.22903191 0.032407165
-0.36854517 0.24813348 0.023480892
0.36850858 0.2479794 0.021941543
-0.36966115 0.26888183 0.031111121
0.36949995 0.26866481 0.029096007
-0.350108 0.30923533 0.034226656
0.35008639 0.30912665 0.033343434
-0.32941723 0.32856238 0.029015899
0.32965651 0.32867402 0.029869556
-0.30881092 0.34781384 0.023839474
0.30927959 0.34816757 0.026391745
0.2889587 0.36761063 0.022936583
-0.28997946 0.38913488 0.033343315
0.29044405 0.38965464 0.036719203
0.24916509 0.4075425 0.023480892
-0.2297547 0.42873827 0.030977488
0.22979912 0.42858896 0.030096531
-0.18973254 0.44859678 0.03026998
0.18982467 0.44851407 0.029802799
-0.14973301 0.468447 0.029576063
0.12957698 0.46719584 0.022803903
0.14999236 0.46889114 0.031979561
-0.050023712 0.48971996 0.036330223
-0.029928796 0.4888466 0.031792283
-0.0099133039 0.48821223 0.028496027
0.01005144 0.48875132 0.031298041
0.030059367 0.48929194 0.034106135
-0.13057406 -0.41269356 0.044684052
-0.11013418 -0.41152507 0.037094712
0.11024383 -0.41167593 0.038074613
0.13076176 -0.41327399 0.048454762
-0.19085252 -0.39262384 0.044818997
0.19080146 -0.39248967 0.043901682
-0.23109816 -0.37263083 0.04552114
0.23125631 -0.37287799 0.047304749
0.25076771 -0.35192105 0.040830016
-0.29190731 -0.33299571 0.050039411
-0.31185606 -0.31269464 0.048563242
0.31195855 -0.31281349 0.049592137
-0.33074686 -0.27151677 0.039175987
0.33082923 -0.27153832 0.03939116
-0.35150468 -0.25194374 0.044306278
0.35132876 -0.25180796 0.042836547
-0.37234643 -0.23229457 0.049470305
0.37188256 -0.23202537 0.046291232
-0.39223504 -0.19193523 0.047927141
0.39247704 -0.19205533 0.049659967
-0.39105743 -0.17134984 0.040278435
0.39098886 -0.17130104 0.039485216
-0.4129802 -0.15191694 0.051829219
-0.41174003 -0.13141815 0.044157863
0.41271317 -0.13170487 0.050364614
0.41114584 -0.11117995 0.040184379
-0.43284893 -0.071301863 0.050201893
-0.43224153 -0.05111476 0.046615362
-0.43163583 -0.030983057 0.043038845
-0.43102944 -0.010906347 0.039458275
0.43267101 -0.010906347 0.049280643
0.43215716 0.009193982 0.046101928
0.43164238 0.02924519 0.042917371
0.43180799 0.049344532 0.043942094
-0.43069506 0.069229364 0.037483931
0.43232539 0.069526799 0.047142506
-0.43121848 0.089382313 0.040574431
0.43284407 0.089758538 0.050351143
-0.43182763 0.10960617 0.044171333
-0.43243846 0.12988596 0.04777813
-0.43305099 0.15022177 0.051395297
-0.41089123 0.18954241 0.038907409
0.41163921 0.18988758 0.043389082
-0.41213948 0.21024129 0.046628952
-0.39143053 0.25005701 0.042701721
0.39145336 0.25005296 0.042661309
-0.39262283 0.27096561 0.050445795
-0.37088007 0.28982899 0.039444923
0.37057111 0.2895267 0.036826611
-0.35216203 0.33118418 0.04905057
0.35190466 0.33094689 0.047237277
-0.33134937 0.35057679 0.043780208
0.33136153 0.35056749 0.043712974
-0.31062376 0.3698954 0.038558125
0.31087533 0.37013724 0.04021132
-0.27039611 0.40976501 0.037228942
0.2709581 0.41055834 0.042135954
-0.25091723 0.43073288 0.042755723
0.25150833 0.43176466 0.048847437
-0.21064617 0.45055237 0.041314602
0.21050966 0.45014754 0.039028287
-0.17047086 0.47048649 0.040614843
0.17055216 0.47059587 0.041207075
0.19127271 0.47235033 0.050703526
-0.11073268 0.4923608 0.050053
-0.090425491 0.49147841 0.045467019
-0.070189394 0.49059895 0.040897489
0.050110627 0.48983344 0.036920428
0.07020504 0.49037376 0.039727211
0.090343267 0.49091759 0.042553663
-0.05065868 -0.4358772 0.06382525
-0.030354615 -0.43516985 0.059450269
-0.010124519 -0.43460146 0.055933595
0.01005144 -0.43503761 0.058631659
0.030268874 -0.43547252 0.061321616
0.05052802 -0.43591037 0.064030766
0.070828997 -0.43634927 0.066745281
-0.15143423 -0.41462049 0.057200193
0.15144397 -0.41488498 0.058918118
-0.23304358 -0.39580676 0.066580534
-0.2118599 -0.39420769 0.05564785
0.2116477 -0.39393929 0.053811908
-0.25272596 -0.37475199 0.06082952
0.25305775 -0.37541583 0.065620422
-0.27235627 -0.35382992 0.055416346
0.2726512 -0.35430601 0.059054613
0.2921471 -0.33330137 0.052521467
0.33421361 -0.31480837 0.06686902
-0.33265331 -0.29313371 0.053743958
0.33251339 -0.29306054 0.053064704
-0.35353124 -0.27349383 0.058931828
0.35312113 -0.27325377 0.056532621
-0.37449408 -0.25377712 0.06415379
0.37454 -0.25389871 0.065469623
-0.39341956 -0.21264189 0.05562067
0.39397487 -0.21297134 0.05990088
-0.41459644 -0.172677 0.061827421
0.41429281 -0.15239079 0.060624599
-0.43524194 -0.1121094 0.064332008
-0.433458 -0.091544412 0.053798318
0.43475017 -0.091801323 0.062141895
0.43422681 -0.071502842 0.058904409
0.43370697 -0.051254511 0.05568862
0.43318835 -0.031055756 0.052480817
0.433364 0.11004008 0.05356741
0.43388301 0.13037091 0.056777835
0.43440554 0.15075245 0.060009956
-0.43394646 0.17072918 0.056682467
0.4351972 0.17129906 0.064907551
0.41323134 0.21084256 0.053730369
-0.4133952 0.23106319 0.05439651
0.41483828 0.23196571 0.064167619
-0.41525173 0.2523765 0.065881014
0.39296708 0.27124217 0.053010345
-0.39403859 0.2921612 0.059641361
0.39480942 0.29284996 0.065606594
-0.37305698 0.31171128 0.054328561
0.37270826 0.31145522 0.052250028
-0.35423964 0.35338473 0.064044476
0.35374066 0.35299999 0.061267018
-0.33330542 0.37284538 0.058727145
0.33308655 0.37269783 0.057718039
-0.31246072 0.39223376 0.053472281
0.31250075 0.39235935 0.054287672
-0.29295304 0.41329998 0.059095621
0.29306751 0.41361776 0.061061859
-0.27335992 0.43445441 0.064729452
-0.23173857 0.45252445 0.052453518
0.23195818 0.45308036 0.055593491
-0.21270783 0.47511387 0.06566155
-0.19142142 0.47262859 0.052209377
0.21255037 0.47509104 0.065538049
-0.13140434 0.49429289 0.060092092
0.11079049 0.492789 0.052277088
0.13145398 0.49493763 0.063441873
-0.11199121 -0.43805569 0.077300549
-0.091468446 -0.43728986 0.072563648
-0.071029708 -0.43658233 0.068187118
0.091217287 -0.43702704 0.070937991
0.11191846 -0.43874785 0.081582546
0.19330828 -0.41814369 0.080084324
-0.17249638 -0.41656819 0.069850802
0.17229246 -0.41650879 0.069465518
0.233366 -0.39663151 0.072219133
-0.29499289 -0.3566232 0.076761007
0.29484296 -0.35672459 0.077535868
-0.31465605 -0.33561382 0.071295977
0.31442016 -0.33556628 0.070910335
-0.3345812 -0.31499392 0.068475842
-0.35558066 -0.29528686 0.073722243
0.35517573 -0.29512635 0.072232842
-0.37666601 -0.27550241 0.079003334
-0.39553842 -0.23398077 0.069383144
0.3967081 -0.23476018 0.07858777
-0.41647696 -0.1937042 0.073460102
0.4174853 -0.19425152 0.081360459
0.41588277 -0.17323887 0.0709517
-0.43721581 -0.13288832 0.075986862
0.43629014 -0.11239177 0.07166791
-0.45821756 -0.031265832 0.079779387
-0.45756811 -0.010906392 0.076111317
0.45809945 -0.010906258 0.080597401
-0.45691803 0.0093967086 0.072439551
0.45754582 0.0094343582 0.077328205
-0.45627221 0.029643558 0.068791866
0.45699352 0.029724773 0.074067235
-0.45649865 0.049948048 0.070070863
0.45719463 0.050067764 0.07525456
-0.45714757 0.070345633 0.073735952
0.45775208 0.07049381 0.078546405
-0.45780075 0.090800673 0.077425122
0.45830861 0.090970367 0.08183229
-0.45845574 0.111313 0.081124425
-0.4359414 0.19181763 0.068462014
0.43689674 0.19235332 0.07542038
-0.43795431 0.21309651 0.080347776
0.41645807 0.25325796 0.074688435
-0.41716939 0.2739076 0.077743292
-0.39662963 0.31443861 0.076470733
-0.37525889 0.33384496 0.069383144
0.37552872 0.33426666 0.072605133
-0.35634124 0.37584144 0.079211116
0.35614336 0.37590235 0.079626918
-0.33551532 0.39564285 0.075613856
0.33501697 0.39530051 0.073391199
-0.31589225 0.4168947 0.081332803
0.31550029 0.41672212 0.080264568
0.27353352 0.43498653 0.067871213
-0.25368109 0.45569727 0.070373654
0.25389796 0.45646608 0.074715972
-0.15244576 0.49689755 0.073625565
0.15229526 0.49710724 0.074716091
-0.051000889 0.51821387 0.078643322
-0.03057817 0.51727873 0.073970437
-0.010233029 0.5164898 0.070029616
0.01005144 0.5170688 0.072921991
0.030380595 0.51765174 0.07583487
0.050754488 0.51823324 0.078740358
0.071173571 0.5188188 0.081665754
-0.1330231 -0.44012997 0.090132356
0.1327875 -0.44048256 0.092313409
-0.21524106 -0.42052907 0.095577598
-0.19376275 -0.4185347 0.082623839
-0.25542375 -0.3989085 0.087787509
0.25539306 -0.39936396 0.090900898
-0.27524805 -0.37771994 0.082248926
0.27516708 -0.37798953 0.084194541
0.31734949 -0.35917747 0.096279144
-0.33777764 -0.33827496 0.09290123
0.33727178 -0.33812666 0.091697693
-0.35765332 -0.31732696 0.088680267
0.35780174 -0.31774485 0.092299461
-0.37928724 -0.29778746 0.096924901
0.37730426 -0.27614453 0.08541894
-0.39885342 -0.25624919 0.090914845
-0.41837648 -0.21491967 0.085210204
0.41910052 -0.21543087 0.091851592
-0.43920958 -0.15385312 0.087759614
0.43967509 -0.1541142 0.09260726
0.43797594 -0.13317047 0.082096219
-0.46017432 -0.092684746 0.090831041
0.46033022 -0.092775151 0.093769312
-0.45952192 -0.072154939 0.087146044
0.45977104 -0.07223177 0.090467691
-0.45886883 -0.051682103 0.083457708
0.45921087 -0.051738981 0.08716011
0.45865449 -0.031297386 0.083874822
0.45886889 0.11149847 0.085140467
-0.45911014 0.13188197 0.084820628
0.45942578 0.13207626 0.088429213
-0.45976883 0.15250929 0.088540673
0.45998651 0.15270634 0.091739893
-0.46090302 0.17338026 0.094946504
0.43861213 0.21357785 0.086031675
-0.43998551 0.23456833 0.092341185
0.44033909 0.23497225 0.096714258
0.41808867 0.27471977 0.085279703
-0.41976014 0.29610193 0.093769312
0.39781719 0.3156333 0.086170912
-0.37748834 0.35623661 0.084625721
0.37839147 0.35743368 0.093265176
-0.296184 0.43823889 0.087076545
0.29588166 0.43825552 0.087174058
-0.27638698 0.45967114 0.092817187
0.2761603 0.45990166 0.094119668
-0.23458205 0.47836059 0.083235383
0.23483555 0.47953168 0.089573622
-0.17370623 0.49953154 0.087313533
0.17331609 0.49929562 0.086087346
-0.11282697 0.52156681 0.095395327
-0.092065148 0.5201 0.088066459
-0.071496487 0.51915526 0.083346486
0.091735683 0.52004135 0.087773561
-0.15426458 -0.44223586 0.10315967
0.1538257 -0.44222915 0.10311759
0.21535532 -0.42151409 0.10197532
-0.29814541 -0.38074255 0.10406291
0.29759234 -0.38060173 0.10304689
-0.31800306 -0.35946426 0.09847033
0.3801147 -0.29873329 0.10570157
0.39965519 -0.25697187 0.098737478
-0.42203891 -0.23723938 0.10786569
-0.44324848 -0.19634719 0.11160827
-0.44121879 -0.17500457 0.09962368
0.44138333 -0.17522323 0.10317385
-0.46218741 -0.11356698 0.10220087
0.46205199 -0.11363371 0.10393596
-0.48416662 0.0096860724 0.11003351
0.48354906 0.0096804677 0.10931051
-0.48347074 0.030220494 0.10626698
0.4829601 0.030216102 0.10598421
-0.48375043 0.050818831 0.10778081
0.48320055 0.050808791 0.107342
-0.48444709 0.071510077 0.11155164
0.48379508 0.071483903 0.11070001
0.46095735 0.17355521 0.097472787
-0.46305007 0.19478993 0.10707319
0.46278468 0.1948815 0.10826218
-0.44203517 0.25623572 0.10444415
0.44208232 0.25654122 0.10749781
0.4203361 0.29680711 0.099877
-0.40025055 0.3378503 0.099989414
0.40087232 0.33877563 0.107059
-0.38065153 0.37979662 0.10625291
-0.35896313 0.39910981 0.098133087
0.35960928 0.4003382 0.10611141
-0.33922356 0.42055103 0.10395002
0.33916202 0.42105132 0.10704494
-0.3193976 0.44208607 0.10979247
0.31870374 0.44178376 0.10800743
-0.19519059 0.5021987 0.10117209
0.19482785 0.50236136 0.10201764
0.11259823 0.52233714 0.09924376
-0.17571557 -0.4443627 0.11631572
0.17503655 -0.44399223 0.11402392
-0.23814297 -0.42456377 0.12178338
0.2378116 -0.42501575 0.12471902
-0.27856985 -0.40260667 0.11307156
0.27804837 -0.40259421 0.11298633
-0.32142153 -0.38381347 0.12622499
-0.34139454 -0.36235231 0.12053931
-0.36202824 -0.34164381 0.12025368
-0.38284358 -0.32108667 0.1212399
-0.40240037 -0.27900007 0.11395299
0.40265176 -0.27952754 0.11922514
0.42223409 -0.23760678 0.11220479
-0.44552225 -0.21798527 0.12503445
0.44504014 -0.21804385 0.12579465
0.44310746 -0.19650172 0.11383915
-0.4664537 -0.15592963 0.12629676
0.46568099 -0.15587933 0.12536418
-0.46431094 -0.13465311 0.11419475
0.4638592 -0.13467206 0.11460721
0.4865337 -0.093772821 0.12616765
-0.4869566 -0.073032312 0.12513471
0.48593476 -0.072978079 0.12278509
-0.48625553 -0.052265272 0.1213398
0.48533481 -0.052235328 0.11939669
-0.48555899 -0.031556766 0.11757004
0.48473892 -0.031544887 0.11603081
0.48414448 -0.010906347 0.11267352
-0.48486182 -0.010906302 0.11379647
-0.48514572 0.092259817 0.11533296
0.48439369 0.092211552 0.11408079
-0.48584634 0.11306814 0.11912537
0.48499122 0.11299101 0.11745596
-0.48655155 0.13393611 0.12294245
0.48559031 0.1338229 0.12083948
-0.48725882 0.15486366 0.12677073
0.48619342 0.15470822 0.124246
-0.46521932 0.21639709 0.11932516
0.4646244 0.21638019 0.11912537
-0.44410363 0.27810138 0.11665761
0.4438397 0.27828586 0.11836874
-0.42361459 0.31950593 0.11761284
0.42358547 0.31992093 0.12098253
-0.40393877 0.3616848 0.123945
0.3813014 0.38096872 0.1142658
-0.29948294 0.46371314 0.11564636
0.29875237 0.46338803 0.11381078
-0.25785023 0.48368138 0.11203444
0.25753039 0.48405167 0.11403835
-0.21744195 0.50612414 0.1215688
0.21725963 0.50711429 0.12671316
0.19722068 -0.44763455 0.13655496
-0.19745448 -0.44666874 0.13058078
-0.30230194 -0.40655398 0.14005935
0.32131365 -0.38442102 0.13060963
0.34195453 -0.36355332 0.12971711
0.36257988 -0.34269786 0.128811
0.38319135 -0.32185626 0.12790525
-0.40600938 -0.30214894 0.13739407
0.40569904 -0.30243623 0.14005947
-0.42581111 -0.25997064 0.13119996
0.42541826 -0.26012644 0.13288665
-0.46861845 -0.17740023 0.13852334
0.46751499 -0.17725679 0.13619363
-0.48991767 -0.11506651 0.14116192
0.48844707 -0.11490547 0.13697457
-0.48765701 -0.093857802 0.12892604
-0.48865536 0.17610885 0.13432968
0.48736602 0.17586888 0.13086879
-0.467406 0.23820187 0.1316756
0.46648154 0.23805557 0.13009131
0.46835151 0.25990742 0.14113295
-0.44728974 0.30091718 0.13547075
0.4465366 0.30086887 0.13505185
-0.42753887 0.34333345 0.14188778
0.40397599 0.36228523 0.12827897
-0.3857553 0.40573233 0.14114749
-0.36477664 0.42639306 0.14008844
-0.34381628 0.44704014 0.13904488
-0.32297912 0.46782508 0.13887107
-0.28162849 0.4891164 0.14145219
0.28064746 0.48865551 0.13895786
-0.26154289 -0.42874378 0.14893341
0.26065549 -0.42857978 0.14786839
0.30194426 -0.40704665 0.14342761
-0.42965212 -0.28310376 0.15496004
0.42865878 -0.28300112 0.15393436
-0.44952527 -0.2406947 0.14867079
0.44841766 -0.24052675 0.14668775
-0.47080293 -0.19906668 0.15086138
0.46936628 -0.19880785 0.14712477
-0.49220163 -0.13646966 0.15352428
0.49180025 -0.13657996 0.15591335
-0.51369029 -0.031856082 0.15644169
-0.51294285 -0.010906302 0.15255797
-0.51220042 0.0099836392 0.1487
0.51274318 0.010039127 0.15589881
-0.51145726 0.030814372 0.14483845
0.51144558 0.03087645 0.14887512
-0.51179355 0.051715113 0.1465857
0.51204753 0.051843166 0.1521337
-0.5125404 0.072708324 0.15046704
-0.51328951 0.093761906 0.1543591
-0.49096549 0.19785075 0.14683342
0.48962051 0.1976019 0.14360201
-0.4696129 0.26020831 0.14414012
-0.47184032 0.282419 0.15672052
0.4702889 0.28197199 0.15257263
0.45003957 0.32432261 0.15672052
0.42688683 0.34340367 0.14242506
-0.40769386 0.38595167 0.14833534
0.40712723 0.38616943 0.14982414
0.38565063 0.40642601 0.14565361
0.36490598 0.42744339 0.1465857
0.34415066 0.4484801 0.14754772
0.32338402 0.46953693 0.14853954
-0.24085476 0.51181495 0.15113914
0.24011071 0.51195562 0.15187049
-0.34705198 -0.38901588 0.16376984
0.34676597 -0.38971019 0.16878128
-0.3682012 -0.36814493 0.16480327
0.36769244 -0.36854738 0.16787815
-0.38936433 -0.34725648 0.16582251
0.38860509 -0.34739846 0.16697574
-0.41054329 -0.32635236 0.16684258
0.40950179 -0.32626194 0.16605902
0.47333005 -0.22148754 0.17052984
-0.47354871 -0.2211673 0.16636944
-0.49450654 -0.15806912 0.16599989
-0.51661283 -0.095172577 0.17162752
-0.51518869 -0.073935144 0.16422749
-0.51443696 -0.052865334 0.16032159
0.51535594 -0.031960692 0.17004049
0.51404476 -0.010906302 0.16294396
0.51335919 0.072978325 0.15923297
0.51468039 0.094224729 0.1663841
-0.51404077 0.11487577 0.15826273
-0.51479411 0.1360504 0.16217744
-0.51554966 0.15728596 0.16610324
-0.49329436 0.2197939 0.15943873
0.49375889 0.22043206 0.16697562
-0.49564499 0.24194187 0.17216194
-0.45145601 0.32473546 0.16007137
-0.43153474 0.36759606 0.16660595
0.43024123 0.36726454 0.1642127
-0.28547353 -0.43308493 0.17712963
-0.43356141 -0.30664825 0.17914271
0.43195254 -0.30623713 0.17532778
-0.45360169 -0.26380804 0.17274117
0.4526366 -0.26381221 0.17278576
-0.4972657 -0.18001203 0.18093443
0.49585235 -0.15875873 0.17879939
0.51799875 -0.074399754 0.18434536
0.51667386 -0.053124845 0.17717433
0.51600581 0.11558237 0.17355824
0.51733822 0.13705234 0.18077016
-0.47569403 0.30588415 0.17848623
-0.45569634 0.34898967 0.18510938
0.41247234 0.41269472 0.18636894
-0.30734992 0.49693581 0.18377626
-0.26478124 0.517618 0.18129313
0.26428965 0.51875669 0.18720925
0.28562945 -0.4348726 0.18874109
-0.32916597 -0.41372705 0.18910182
0.32863453 -0.41444498 0.1940105
-0.45775113 -0.28733513 0.19724238
-0.47884893 -0.24472825 0.19630504
0.49997586 -0.18131484 0.20208907
0.5196256 -0.095835395 0.193151
0.51868045 0.15863664 0.18803501
-0.51971555 0.17980985 0.18774974
0.49796933 0.2436595 0.19075608
-0.5003373 0.26555428 0.19755983
0.47741908 0.30775332 0.19467449
0.4565658 0.3505576 0.19709122
-0.4356043 0.39230594 0.19177997
0.43591624 0.39366525 0.20107281
-0.41415548 0.41330066 0.19030476
-0.39278018 0.43432865 0.18917704
0.3914254 0.43403006 0.18732941
-0.37142658 0.4553445 0.18808019
0.37036568 0.45538259 0.18830538
-0.35153329 0.47829646 0.19801366
0.35051745 0.47851363 0.19923961
0.30731115 0.49868175 0.19322622
-0.37456557 -0.39552331 0.21073389
0.37294751 -0.39514926 0.20803428
-0.39609179 -0.37429771 0.21181846
-0.41763249 -0.35305351 0.21288836
0.4812274 -0.24649429 0.2171613
-0.50316924 -0.20336418 0.21288836
-0.52272636 -0.11746192 0.20339453
0.52397084 -0.11797293 0.21667051
0.52193934 0.18105167 0.20567441
0.50225371 0.26729491 0.21495426
0.39562491 -0.3750591 0.21763682
-0.4411976 -0.3332271 0.22637928
0.46018502 -0.2895605 0.21947908
0.50416726 -0.20425597 0.22576177
-0.54852968 0.032061383 0.22583914
0.54814857 0.032141477 0.23103452
