ply
format ascii 1.0
comment PCL generated
element vertex 1335
property float x
property float y
property float z
element camera 0
property float view_px
property float view_py
property float view_pz
property float x_axisx
property float x_axisy
property float x_axisz
property float y_axisx
property float y_axisy
property float y_axisz
property float z_axisx
property float z_axisy
property float z_axisz
property float focal
property float scalex
property float scaley
property float centerx
property float centery
property int viewportx
property int viewporty
property float k1
property float k2
end_header
-0.060485289 -0.013629583 -0.25567043
0.013309009 -0.013629583 -0.25926566
0.037892491 -0.013629583 -0.25756919
0.062502116 -0.013629583 -0.25587118
0.087138288 -0.013629583 -0.25415587
0.11180044 -0.013629583 -0.25245428
0.18623888 -0.013629583 -0.24187899
-0.035861045 -0.013629524 -0.2573688
-0.011262959 -0.013629465 -0.25906515
0.13648887 -0.013629524 -0.2507509
0.16128674 -0.013629524 -0.24724531
-0.18422058 0.011061553 -0.24357641
-0.15924135 0.011020396 -0.24892139
-0.13439456 0.010987695 -0.2531817
-0.10971182 0.010974543 -0.25488245
-0.085055329 0.010961629 -0.25658166
-0.060425051 0.010948595 -0.25827897
0.062461726 0.010946834 -0.25849473
0.087077633 0.010959927 -0.25678217
0.11171949 0.010973077 -0.25508344
0.13638756 0.010986228 -0.2533828
0.16117996 0.011015641 -0.24955726
0.18611386 0.011056855 -0.2441988
-0.20912334 0.035799831 -0.24052286
-0.18407884 0.035717405 -0.2458781
-0.15911692 0.035634972 -0.25123096
-0.13427317 0.035564527 -0.25580955
-0.10961077 0.035538279 -0.25750744
-0.084974594 0.035512157 -0.25920379
0.087017082 0.035509162 -0.25940418
0.11163866 0.035535283 -0.25770807
0.13628703 0.035561644 -0.25599492
0.16107404 0.035625465 -0.25185049
0.18598989 0.035707831 -0.24649978
0.21098825 0.035790257 -0.24114668
-0.20896357 0.060461313 -0.24282908
-0.18393633 0.060337439 -0.24819207
-0.15899345 0.060214445 -0.25352192
-0.134152 0.060100898 -0.25843298
0.13618606 0.060096733 -0.258618
0.16096756 0.060199767 -0.25415611
0.18586522 0.060323052 -0.24881279
0.21084628 0.060446814 -0.24345183
-0.15886936 0.084758043 -0.25582492
0.16086122 0.084738553 -0.25645816
-0.20880294 0.085086815 -0.24514759
-0.18379498 0.084922425 -0.25048733
0.18574077 0.084902816 -0.25112259
0.21070355 0.085067675 -0.24576938
0.23574999 0.085233055 -0.24039817
-0.23371685 0.10988333 -0.24209714
-0.20864362 0.10967738 -0.24744701
-0.18365288 0.10947166 -0.25279462
-0.15874544 0.10926636 -0.25812447
0.16075578 0.10924281 -0.2587415
0.18561733 0.10944782 -0.25341368
0.21056199 0.10965354 -0.24806798
0.23558915 0.10985938 -0.24272013
-0.23353949 0.13447954 -0.24440098
-0.20848346 0.13423213 -0.24975884
-0.18351099 0.13398549 -0.25509882
0.1854932 0.13395691 -0.25571668
0.21041968 0.13420348 -0.25037897
0.23542956 0.13445076 -0.24502313
-0.20892689 0.15922062 -0.24335861
-0.18398798 0.1590054 -0.24735391
-0.15911108 0.15879059 -0.25133944
-0.134296 0.15857624 -0.25531518
-0.1096084 0.15845482 -0.25756919
-0.084985502 0.15838596 -0.25884938
0.087026685 0.15837833 -0.25898802
0.11163866 0.15844731 -0.25770807
0.13629535 0.15855129 -0.25577855
0.1610769 0.15876633 -0.2517885
0.18591958 0.15898098 -0.24780416
0.21082422 0.1591962 -0.24380982
-0.035931703 0.18333325 -0.25277925
-0.011301463 0.18325423 -0.25406325
0.037928171 0.18332362 -0.25293398
-0.15960741 0.18398912 -0.24212825
-0.13472039 0.1837429 -0.24612677
-0.10994066 0.18356989 -0.24893701
-0.085251093 0.18349065 -0.25022388
-0.060581729 0.18341245 -0.25149441
0.062567115 0.18340293 -0.25164938
0.087225862 0.18348201 -0.25036335
0.11190444 0.18356128 -0.24907649
0.13664889 0.18371421 -0.246593
0.1615015 0.18396056 -0.24259555
-0.11027472 0.20882116 -0.24025786
-0.085518129 0.20873149 -0.24155176
-0.060781844 0.20864305 -0.2428292
0.06270051 0.20863223 -0.24298489
0.087426119 0.20872179 -0.24169195
0.11217119 0.20881025 -0.24041367
-0.18346915 0.30613497 -0.25577855
0.16113916 0.30666909 -0.25044084
-0.13423893 0.3306489 -0.25655067
0.11188343 0.33138087 -0.24975896
-0.085555092 0.35711071 -0.24035144
-0.060723275 0.35653195 -0.24536526
-0.036065485 0.35667911 -0.24409008
-0.011388062 0.35682657 -0.24281347
0.013309009 0.35697943 -0.24148941
0.038026355 0.35713059 -0.2401799
-0.086166315 -0.11310495 -0.22050154
-0.061251201 -0.11304321 -0.22250545
-0.036366984 -0.11298154 -0.22450697
-0.011513477 -0.1129196 -0.22652149
0.013309009 -0.11291232 -0.22675753
0.038145185 -0.11297426 -0.22474313
0.063012175 -0.1130359 -0.22274196
0.087910034 -0.11309761 -0.22073829
-0.16071326 -0.088210531 -0.22160637
-0.13566226 -0.088115305 -0.22573483
-0.11075683 -0.088069037 -0.2277323
-0.085882232 -0.088022895 -0.22972739
-0.061038405 -0.087976925 -0.23171973
-0.036225054 -0.087930664 -0.23372543
-0.011442723 -0.087884814 -0.23571301
0.013309009 -0.087879412 -0.23594761
0.038074233 -0.087925144 -0.23396027
0.062870093 -0.087971114 -0.23197067
0.087696999 -0.088017493 -0.22996283
0.11255442 -0.088063642 -0.2279681
0.13744265 -0.088109665 -0.22597098
0.16243744 -0.088193797 -0.222332
-0.18540078 -0.063307039 -0.22441244
-0.16022322 -0.063210174 -0.23070037
-0.13523751 -0.063145064 -0.23493087
-0.11040331 -0.063114531 -0.23691678
-0.085599296 -0.063083716 -0.23891604
0.087485194 -0.063080303 -0.23913455
0.11227165 -0.063110955 -0.23715115
0.13708875 -0.06314142 -0.23516548
0.16201761 -0.063199133 -0.23142183
0.1871402 -0.063295595 -0.22515249
-0.23534647 -0.038495086 -0.22092783
-0.21004432 -0.03844665 -0.22722924
-0.18484172 -0.038398448 -0.23349047
-0.15973595 -0.038350247 -0.23974311
0.18665123 -0.038392693 -0.23422647
0.21180081 -0.03844101 -0.22795236
0.23704866 -0.038489565 -0.22165382
-0.25997299 -0.013629583 -0.22375071
-0.20944467 -0.013629583 -0.23588502
0.23641863 -0.013629583 -0.23074734
0.26169139 -0.013629583 -0.22447538
-0.23464492 -0.013629524 -0.23004127
0.21127376 -0.013629524 -0.23651052
-0.28497994 0.011227757 -0.22198486
-0.25966379 0.011186132 -0.22740209
-0.23443124 0.01114439 -0.23281682
-0.20928442 0.011103 -0.2381978
0.21113139 0.011098245 -0.23882246
0.23623183 0.011139577 -0.23344338
0.26141769 0.011181377 -0.22803104
0.28668845 0.011223121 -0.22260022
-0.28476298 0.036049165 -0.22433376
-0.25946558 0.0359658 -0.22974288
-0.23425287 0.035882786 -0.23513412
0.23607132 0.0358731 -0.23575997
0.26123878 0.035956465 -0.23035514
0.28648964 0.036039658 -0.22494769
-0.28456664 0.06083928 -0.22645855
-0.259269 0.060709886 -0.2320646
-0.23407355 0.060585193 -0.23746371
0.23591 0.060570806 -0.23808849
0.26105893 0.060695447 -0.23269165
0.28629243 0.060820498 -0.22727633
-0.28442433 0.085614905 -0.22799957
-0.25907135 0.085417755 -0.2343986
-0.23389569 0.085252315 -0.23977423
0.2608805 0.085398972 -0.23500896
0.28613678 0.085580558 -0.22911477
-0.28428212 0.11036668 -0.2295388
-0.25887531 0.11009058 -0.23671353
0.26070118 0.11006656 -0.23733878
0.28600651 0.11032388 -0.23065317
0.31169704 0.1106988 -0.22091198
-0.30990365 0.13554546 -0.22132218
-0.28414008 0.13509499 -0.23107672
-0.25867826 0.13472711 -0.23904085
0.26052329 0.13469899 -0.23964953
0.28587636 0.13504355 -0.23219013
0.31155422 0.13549303 -0.22245812
-0.30989257 0.16040203 -0.22143281
-0.28437209 0.16001773 -0.22856498
-0.25899187 0.15965278 -0.23533762
-0.23392811 0.15943645 -0.23935306
0.23579106 0.15941197 -0.23980546
0.2608203 0.15962824 -0.23579109
0.28611416 0.15997364 -0.2293818
0.31157169 0.16035706 -0.22226894
-0.25985697 0.18503657 -0.2251209
-0.23464251 0.18473168 -0.23007262
-0.20956823 0.18448347 -0.23410106
-0.18455663 0.18423608 -0.23811972
0.18641621 0.18420713 -0.23858809
0.21139321 0.18445465 -0.23457086
0.23643276 0.18470263 -0.23054326
0.26157871 0.18498608 -0.22593927
-0.23536107 0.21017343 -0.22073829
-0.21021333 0.20989287 -0.22479033
-0.18512765 0.2096117 -0.22884786
-0.16010579 0.20933236 -0.23287964
-0.1351465 0.20905373 -0.23690116
0.1370039 0.20902131 -0.23737001
0.16192928 0.20930095 -0.23333383
0.18691653 0.20958005 -0.22930336
0.21196643 0.20986 -0.22526264
0.23707926 0.21014066 -0.22121179
-0.1606079 0.23482323 -0.22356164
-0.1355758 0.23451187 -0.22760665
-0.1106106 0.23420966 -0.23153162
-0.085786611 0.23410945 -0.23283243
0.11243986 0.23419766 -0.23168838
0.13736153 0.23447546 -0.22807801
0.16235882 0.23478676 -0.22403419
-0.16007626 0.33314091 -0.23342776
0.1375002 0.33410585 -0.2244755
0.062942848 0.3586241 -0.22724473
-0.086739376 -0.16370218 -0.20189059
-0.061680473 -0.16360854 -0.20391762
-0.036652803 -0.16351503 -0.20594227
-0.011656333 -0.16342163 -0.20796442
0.013309009 -0.16341053 -0.20820296
0.038288079 -0.16350408 -0.20618117
0.063298315 -0.16359746 -0.20415699
0.088339768 -0.16369101 -0.20213032
-0.16170168 -0.13863726 -0.20326352
-0.13651907 -0.13848627 -0.20718443
-0.11146995 -0.13840847 -0.20920503
-0.086452022 -0.13833083 -0.21122277
-0.061465219 -0.13825324 -0.21323824
-0.036509484 -0.13817583 -0.21525121
-0.01158464 -0.13809787 -0.21727741
0.013309009 -0.13808924 -0.2174989
0.038216427 -0.13816662 -0.21548879
0.063154832 -0.13824417 -0.21347606
0.088124283 -0.1383217 -0.21146095
0.11312483 -0.13839932 -0.20944333
0.13815716 -0.13847777 -0.20740736
0.16328427 -0.13860896 -0.20399749
-0.18652844 -0.11354829 -0.20610154
-0.16120607 -0.11335249 -0.21246088
-0.13608944 -0.11322844 -0.21648633
-0.11111237 -0.11316667 -0.21849513
0.1128388 -0.11315934 -0.21873224
0.13779856 -0.11322116 -0.21672368
0.16285965 -0.11333001 -0.21319079
0.18812644 -0.11352527 -0.20685005
-0.2367591 -0.088650085 -0.20257723
-0.21131074 -0.088502899 -0.20895028
-0.185963 -0.08835648 -0.21528292
0.18763193 -0.088339396 -0.21602714
0.21292597 -0.088485934 -0.20968175
0.23831946 -0.088632941 -0.20331156
-0.26152417 -0.063599177 -0.20543242
-0.23605081 -0.063501604 -0.21177852
-0.21067575 -0.063403912 -0.21811569
0.21236178 -0.063392758 -0.21884286
0.23768225 -0.063490272 -0.21250868
0.26310092 -0.063587904 -0.20616543
-0.2862457 -0.03859254 -0.20828247
-0.26074639 -0.038543694 -0.21461749
0.26239416 -0.038538061 -0.2153461
0.28784022 -0.038586963 -0.20899808
0.31356338 -0.038650841 -0.20070839
-0.28539869 -0.013629641 -0.21745133
0.28706414 -0.013629583 -0.21816313
0.31274179 -0.013629583 -0.20960236
-0.31120703 -0.013629524 -0.20829844
-0.3366608 0.011368249 -0.20374227
-0.31067774 0.011292513 -0.21358716
0.31227118 0.011284003 -0.21469676
0.33816922 0.011359677 -0.20485854
-0.33649242 0.03634201 -0.20530486
-0.31052232 0.036190659 -0.21514022
0.31212783 0.036173634 -0.21624875
0.33801296 0.036324926 -0.20642018
-0.33632416 0.061291933 -0.20686603
-0.31036705 0.061064906 -0.21669197
0.31198457 0.061039366 -0.21779954
0.33785683 0.061266102 -0.20798016
-0.33615777 0.086218081 -0.20840967
-0.3102119 0.085915431 -0.21824217
0.31184 0.085880794 -0.2193644
0.33769929 0.086182795 -0.20955455
-0.33598986 0.11111998 -0.20996773
-0.31005847 0.11074254 -0.21977508
0.33754349 0.11107595 -0.21111178
0.36354721 0.1114555 -0.20125175
-0.36189827 0.13645327 -0.20166695
-0.33582211 0.1359981 -0.21152461
0.3373878 0.13594526 -0.21266735
0.36337855 0.13640027 -0.20281672
-0.36171758 0.16138288 -0.20323169
-0.33565447 0.16085215 -0.21307969
0.33723229 0.16079068 -0.21422136
0.36321005 0.16132101 -0.20438039
-0.336678 0.18636298 -0.20358276
-0.31095725 0.18591891 -0.21079397
-0.2853505 0.18547678 -0.21797335
0.28700924 0.18542516 -0.21881127
0.31255394 0.18586707 -0.21163571
0.33821231 0.18631086 -0.20442808
-0.28633538 0.21110374 -0.20731187
-0.26075578 0.21060523 -0.21450639
0.26239538 0.21054816 -0.21533048
0.28791162 0.21104527 -0.20815516
0.31354269 0.21154569 -0.20093203
-0.26166052 0.2363428 -0.20382214
-0.23610947 0.23578888 -0.21101642
-0.21086103 0.23544836 -0.21544135
-0.18570289 0.23513533 -0.21950662
0.18741891 0.23509881 -0.2199806
0.21254203 0.23541179 -0.2159164
0.23772952 0.23572658 -0.21182621
0.26321623 0.23627768 -0.20466733
-0.21182752 0.26153719 -0.20149124
-0.18676808 0.26147655 -0.20221007
-0.16171888 0.2614142 -0.2029444
-0.13668174 0.26135337 -0.2036624
0.13829821 0.26134661 -0.20374227
0.16332921 0.26140749 -0.20302403
0.1883713 0.26146832 -0.20230567
0.2134245 0.26152909 -0.20158708
0.23850423 0.26160899 -0.20064437
-0.21072945 0.3099815 -0.21734059
0.18799698 0.31079099 -0.2092526
-0.11142529 0.36057326 -0.21036518
0.088259086 0.36112088 -0.20562351
-0.087367363 -0.21498221 -0.18149626
-0.062146015 -0.214843 -0.18375862
-0.036959309 -0.21470284 -0.18603396
-0.011807781 -0.21456395 -0.18829036
0.013309009 -0.21454805 -0.18854821
0.038441181 -0.21468693 -0.18629229
0.06360814 -0.21482617 -0.18403316
0.088810317 -0.21496639 -0.18175483
-0.1627014 -0.18963991 -0.18471134
-0.13738653 -0.18944094 -0.18840325
-0.11219192 -0.18933092 -0.19044721
-0.087028392 -0.18922001 -0.19250464
-0.061896957 -0.18911014 -0.19454348
-0.036796954 -0.18900041 -0.19657946
-0.011728317 -0.18889086 -0.19861329
0.013309009 -0.18887784 -0.19885337
0.038360141 -0.18898752 -0.1968199
0.063442618 -0.18909729 -0.19478405
0.088556871 -0.18920802 -0.19272947
0.11370233 -0.18931791 -0.19068849
0.13887933 -0.18942794 -0.18864477
0.16414079 -0.18959999 -0.18545353
-0.21323749 -0.1646606 -0.1811403
-0.18766898 -0.16436312 -0.18758178
-0.16220012 -0.16406608 -0.19401371
-0.13695192 -0.16389051 -0.19781303
-0.11182959 -0.16379596 -0.19986105
0.11341251 -0.16378477 -0.2001009
0.1385172 -0.16387941 -0.198053
0.16371131 -0.16403182 -0.19475186
0.18912396 -0.16432807 -0.18833876
0.21463785 -0.1646262 -0.18188417
-0.23818788 -0.13937803 -0.18401694
-0.21259159 -0.13912983 -0.1904633
-0.18709707 -0.13888334 -0.19686818
0.18862379 -0.13885443 -0.19762075
0.21406397 -0.13910133 -0.191203
0.23960474 -0.13934946 -0.18475974
-0.26309302 -0.11413937 -0.18690503
-0.23747146 -0.11394164 -0.19332373
-0.21194935 -0.11374438 -0.19973326
0.21349335 -0.11372171 -0.20046866
0.23896024 -0.11391909 -0.19406188
0.26452652 -0.11411659 -0.18764615
0.29019505 -0.11431549 -0.18118882
-0.3138957 -0.089138366 -0.18143141
-0.28795421 -0.088945337 -0.18978763
-0.26230636 -0.088797383 -0.19619501
0.26381168 -0.088780239 -0.19693208
0.28940564 -0.088928662 -0.19051135
0.31522164 -0.089107662 -0.18275714
-0.31299508 -0.063830197 -0.190431
-0.28709751 -0.063697338 -0.19906127
0.28862071 -0.063686244 -0.19978106
0.31439096 -0.063809946 -0.19174933
-0.33838683 -0.038750701 -0.18772674
-0.31209937 -0.038661055 -0.19938123
0.33975154 -0.038740549 -0.18904722
-0.33742064 -0.013629641 -0.19669187
-0.36382076 -0.013629524 -0.18501794
0.33885351 -0.013629524 -0.19802105
0.36515421 -0.013629524 -0.18634057
-0.38929692 0.011533339 -0.18230474
-0.36280051 0.011444336 -0.19385338
0.36422351 0.011435766 -0.19497645
0.39059722 0.011522947 -0.18364549
-0.3889071 0.036647476 -0.18546975
-0.36262083 0.036494419 -0.19540942
0.36405417 0.036476925 -0.19654763
0.39025623 0.036629975 -0.18659854
-0.38871244 0.061749391 -0.18704987
-0.36243948 0.061520137 -0.19698012
0.36388505 0.061493888 -0.19811714
0.3900739 0.061723441 -0.1881777
-0.38852 0.086827658 -0.18861246
-0.36225826 0.086521663 -0.19854915
0.36371607 0.086486675 -0.1996851
0.38989171 0.086792491 -0.18975532
-0.38832572 0.1118812 -0.19018972
-0.36207911 0.11149977 -0.20010066
0.38970971 0.1118374 -0.19133162
0.41603044 0.1122209 -0.1813668
-0.38813362 0.13691138 -0.19174945
0.38952789 0.13685796 -0.19290602
0.41589901 0.13734166 -0.18243372
-0.38793975 0.16191679 -0.19332361
0.38934624 0.16185443 -0.19447911
0.41589302 0.16250089 -0.18248236
-0.38846248 0.18725617 -0.18907952
-0.36251348 0.186809 -0.19633925
0.36398512 0.18675676 -0.19718838
0.38987127 0.18720371 -0.18993247
-0.36375925 0.21261126 -0.18555021
-0.33783728 0.2121073 -0.19282579
-0.31202897 0.21160446 -0.20008504
0.33928826 0.21204831 -0.19367659
0.36514899 0.21255326 -0.18638897
-0.33900255 0.23802158 -0.18201363
-0.31310779 0.23746037 -0.18930483
-0.28732678 0.23690018 -0.19657958
0.28881991 0.23683479 -0.19742846
0.314538 0.23739469 -0.19015765
0.34037131 0.23795688 -0.18285406
-0.23693252 0.26163605 -0.20032477
-0.28832325 0.26286665 -0.18579233
-0.26257128 0.26225069 -0.19306672
0.26404372 0.26217869 -0.19391763
0.28973424 0.26279563 -0.18663085
-0.18704778 0.33699483 -0.19766891
0.16389602 0.33774015 -0.19075286
-0.13765851 0.36378923 -0.18251479
0.038464788 0.38886288 -0.18322587
-0.13857928 -0.24146201 -0.16257918
-0.11317585 -0.24130234 -0.16488409
-0.087808505 -0.24114393 -0.16716981
-0.062476411 -0.24098587 -0.16945219
-0.037179265 -0.24082686 -0.17174768
-0.011917608 -0.24066909 -0.17402375
0.013309009 -0.24065 -0.17429996
0.038551144 -0.24080878 -0.1720078
0.063828364 -0.24096671 -0.16972911
0.089141116 -0.24112584 -0.167431
0.11448885 -0.24128427 -0.16514552
0.13987252 -0.24144389 -0.16284072
-0.18901849 -0.21595696 -0.16566825
-0.16333947 -0.21551353 -0.1728698
-0.13791573 -0.21526258 -0.17694533
-0.1126243 -0.21512285 -0.17921424
0.11404717 -0.21510592 -0.17948949
0.13931966 -0.21524653 -0.17720497
0.16468298 -0.21546149 -0.17371511
0.1903007 -0.21590583 -0.16650081
-0.23963305 -0.19068904 -0.16524351
-0.21388713 -0.1903376 -0.1717639
-0.1882441 -0.18998855 -0.17824221
0.18962696 -0.18994749 -0.17900372
0.21521503 -0.19029737 -0.17251205
0.24090481 -0.19064853 -0.16599464
-0.29055527 -0.16556172 -0.16162992
-0.26467991 -0.16525981 -0.16816461
-0.23890838 -0.16496004 -0.17465723
0.24025291 -0.16492549 -0.17540407
0.26596847 -0.1652253 -0.16891444
0.29178753 -0.16552694 -0.16238284
-0.31571355 -0.14017676 -0.16326594
-0.28968227 -0.13987599 -0.17108047
-0.26388422 -0.13962646 -0.17756152
0.26524544 -0.13959771 -0.17830706
0.29098898 -0.13984764 -0.17181277
0.31689832 -0.14012516 -0.16460645
-0.31480291 -0.1145872 -0.17236578
-0.28881577 -0.11433787 -0.18046081
0.31605843 -0.11454605 -0.1736989
0.34247237 -0.11491069 -0.16185904
-0.34033701 -0.089410782 -0.16963136
0.34155932 -0.08937972 -0.17098284
-0.36591372 -0.064192496 -0.16689253
-0.33935836 -0.064010613 -0.17871213
0.34065294 -0.063990124 -0.18004012
0.36710426 -0.064171828 -0.16824615
-0.39153114 -0.038932115 -0.16416514
-0.3648634 -0.038840998 -0.17598844
0.36612657 -0.038830843 -0.17731833
0.39269194 -0.038921721 -0.16550493
-0.41719326 -0.013629583 -0.16141701
-0.39041093 -0.013629583 -0.17325997
0.3916426 -0.013629583 -0.17459226
0.41832232 -0.013629641 -0.16275895
-0.41600108 0.011623986 -0.17052698
0.41720119 0.011613652 -0.17186165
-0.4420501 0.036965914 -0.16478622
-0.41535434 0.036801405 -0.17546892
0.41661695 0.036783852 -0.17660487
0.4431417 0.036939025 -0.16653347
-0.44204327 0.062262394 -0.16483521
-0.41514838 0.061980531 -0.1770426
0.41642126 0.061953992 -0.17819381
0.44313103 0.062221356 -0.16661501
-0.44203877 0.087558821 -0.164868
-0.41494054 0.087135054 -0.17863131
0.41622576 0.087099597 -0.17978108
0.44312462 0.087503575 -0.166664
-0.44203198 0.11285408 -0.16491687
-0.41473496 0.11226581 -0.18020201
0.44311607 0.11278433 -0.16672933
-0.44202518 0.13814838 -0.16496587
-0.41467991 0.13742538 -0.1806227
0.44310969 0.13806491 -0.16677821
-0.44201839 0.16344216 -0.16501498
-0.41467354 0.16259852 -0.1806711
0.44310325 0.16334447 -0.1668272
-0.44201159 0.18873517 -0.16506374
-0.41495961 0.1879085 -0.17848527
0.41622776 0.18782978 -0.17976487
0.44309685 0.18862358 -0.1668762
-0.41668823 0.21401601 -0.16527629
-0.39003089 0.21324918 -0.17634535
0.39129224 0.21316031 -0.17762637
0.41785541 0.21392776 -0.16654956
-0.39166 0.23947611 -0.16311884
-0.36506963 0.23862287 -0.17420244
0.36632589 0.23852524 -0.17546892
0.39282018 0.23937783 -0.16439402
-0.34017733 0.26410964 -0.17111313
-0.31419215 0.2634868 -0.17846894
0.31553993 0.26341558 -0.17931139
0.3414616 0.26403803 -0.17195904
0.36775383 0.26486284 -0.16221893
-0.1892702 0.29023939 -0.16158092
-0.16390723 0.29016972 -0.16233373
0.19056052 0.29023018 -0.16167903
0.1142435 0.36487475 -0.17311358
-0.062480174 0.39057946 -0.16928923
-0.037249245 0.39083657 -0.16720247
-0.01198595 0.39108977 -0.16514552
0.013309009 0.39134547 -0.16306984
-0.03762475 -0.29376534 -0.14281285
-0.012140037 -0.29356909 -0.14512908
0.013309009 -0.29354671 -0.14539349
0.03877385 -0.29374281 -0.14307773
-0.16490385 -0.26821938 -0.14383888
-0.13924792 -0.26789114 -0.14810252
-0.1137329 -0.2677134 -0.15041149
-0.08825352 -0.26753595 -0.15271723
-0.062809341 -0.26735747 -0.15503633
-0.037401155 -0.26718041 -0.15733552
-0.012028271 -0.26700231 -0.15964794
0.013309009 -0.26698217 -0.1599102
0.038662069 -0.26716018 -0.15759814
0.064050525 -0.26733711 -0.15529919
0.089474447 -0.26751432 -0.15299702
0.11493442 -0.2676931 -0.15067518
0.14042965 -0.26787078 -0.14836657
0.16602468 -0.26815566 -0.14466596
-0.21582064 -0.24275918 -0.14385545
-0.18991238 -0.24225365 -0.15115309
-0.1641182 -0.24175027 -0.15841842
0.16535085 -0.24169235 -0.15925467
0.19108248 -0.2421954 -0.15199304
0.2169289 -0.24270186 -0.14468277
-0.26673698 -0.21729946 -0.14387202
-0.24071649 -0.21684989 -0.15116942
-0.21481055 -0.21640252 -0.15843499
0.21603048 -0.21635108 -0.15927112
0.24187374 -0.2167982 -0.15200949
0.26783258 -0.21724844 -0.1446991
-0.31774384 -0.19188879 -0.14297831
-0.29152006 -0.19144647 -0.15118611
-0.26550242 -0.191055 -0.15845132
0.26670957 -0.19100997 -0.15928757
0.2926645 -0.1914013 -0.15202594
0.3187556 -0.19180675 -0.14450085
-0.34330225 -0.16646291 -0.14211726
-0.31663096 -0.16590951 -0.15409911
0.31774291 -0.1658465 -0.15546346
0.34431216 -0.1664003 -0.14347506
-0.34230715 -0.14063528 -0.15135074
0.34338889 -0.14058338 -0.15270078
-0.36802807 -0.11531954 -0.14858103
-0.34131932 -0.11495196 -0.16051626
0.36907786 -0.11527786 -0.14993346
-0.39379227 -0.089961059 -0.14580679
-0.36696795 -0.089685008 -0.15776229
0.3680892 -0.089654014 -0.15910709
0.39481002 -0.089929827 -0.14716148
-0.41959977 -0.064559951 -0.14302814
-0.39265954 -0.064375609 -0.15500343
0.39374897 -0.064355001 -0.15635037
0.42058542 -0.064539112 -0.14438486
-0.41839424 -0.039023876 -0.1522398
0.41944969 -0.039013427 -0.15360582
0.44640416 -0.039105717 -0.14160359
-0.44417211 -0.013629583 -0.14947188
0.44519544 -0.013629524 -0.15083992
-0.44289836 0.011715338 -0.15866435
0.44399557 0.011704946 -0.16000855
0.47182527 0.011843558 -0.14200115
-0.46974212 0.037217952 -0.14841628
0.47063476 0.037184365 -0.1505928
-0.46965525 0.062627979 -0.14901018
0.47060508 0.062586412 -0.15080714
-0.469648 0.088045634 -0.14905965
0.47059825 0.087990277 -0.15085638
-0.46964079 0.11346248 -0.14910901
0.47058913 0.11339267 -0.1509223
-0.46963352 0.13887861 -0.1491586
0.47058225 0.13879478 -0.15097177
-0.46962631 0.16429392 -0.14920783
0.47057542 0.16419628 -0.15102124
-0.46961907 0.18970865 -0.14925754
0.47056857 0.18959698 -0.15107083
-0.47054717 0.21556552 -0.14291215
-0.44352636 0.2147882 -0.15413213
0.44459683 0.21469919 -0.1554141
0.47152019 0.21547592 -0.14420283
-0.41843086 0.24033508 -0.15196002
0.41949427 0.24023616 -0.15324378
0.44635212 0.24110171 -0.14200127
-0.39330226 0.26591572 -0.14978516
-0.36659887 0.26496944 -0.16095865
0.39436054 0.26580828 -0.15105414
-0.36814055 0.2915301 -0.14760733
-0.34200385 0.29092434 -0.15416503
-0.31647304 0.29078457 -0.15567696
-0.2909914 0.29067072 -0.15690875
-0.2655302 0.29055861 -0.15812325
-0.24008778 0.2904467 -0.15933657
-0.21466294 0.29033303 -0.1605655
0.21594268 0.29032099 -0.16069674
0.2413559 0.2904329 -0.15948403
0.26678908 0.29054663 -0.15825427
0.2922399 0.29065868 -0.15704012
0.31770954 0.29077083 -0.1558249
0.34322262 0.29090604 -0.15436232
0.36919162 0.29141262 -0.14887786
-0.16437134 0.3671141 -0.15372097
-0.089154907 -0.32102141 -0.12344408
-0.063484423 -0.32080328 -0.12580431
-0.037850577 -0.32058713 -0.1281445
-0.012252666 -0.3203696 -0.13049829
0.013309009 -0.32034647 -0.13074851
0.038886748 -0.32056236 -0.12841189
0.064500764 -0.32078013 -0.12605536
0.090150759 -0.32099646 -0.12371206
-0.16569737 -0.29492527 -0.12911308
-0.13992324 -0.29455549 -0.13348138
-0.11429424 -0.29435676 -0.13582742
-0.088701971 -0.29415983 -0.13815367
-0.063145578 -0.29396307 -0.14047658
0.064274654 -0.29394054 -0.14074183
0.089811109 -0.29413718 -0.13841927
0.11538394 -0.29433554 -0.13607681
0.14099231 -0.29453281 -0.13374782
0.16670448 -0.29485458 -0.12994766
0.19266871 -0.29548052 -0.12255597
0.24391317 -0.2698563 -0.12257278
-0.21684086 -0.26935181 -0.12912977
-0.19081527 -0.26878491 -0.13649249
0.19187206 -0.26871967 -0.13733983
0.21783528 -0.2692875 -0.12996435
-0.26798248 -0.24377711 -0.12916315
-0.24184376 -0.24326712 -0.13652563
0.24288896 -0.24320941 -0.13735664
0.26896557 -0.24372046 -0.12998104
0.29515713 -0.24423249 -0.12258947
-0.31923333 -0.21827102 -0.12809467
-0.29287279 -0.21775074 -0.13654232
0.29390529 -0.21769957 -0.13737309
0.32012925 -0.21817635 -0.12963057
-0.34466416 -0.19261619 -0.12948048
0.34555903 -0.19253342 -0.13101542
-0.37017006 -0.16702129 -0.13003111
0.3710736 -0.1669573 -0.13141549
-0.39607882 -0.1415633 -0.12724233
-0.3690961 -0.14109796 -0.13933206
0.37007385 -0.14104566 -0.140692
0.39695188 -0.14151052 -0.12861228
-0.42203331 -0.11606292 -0.12443221
-0.39493337 -0.11569017 -0.13654232
0.39587891 -0.1156482 -0.13790476
0.42287394 -0.1160207 -0.12580442
-0.42081422 -0.090239517 -0.13374782
0.42172751 -0.090207994 -0.13511252
0.44883984 -0.090487972 -0.12299168
-0.44673875 -0.064746059 -0.13094866
0.44761968 -0.06472493 -0.1323154
-0.47353676 -0.039253138 -0.12247217
-0.44545069 -0.039116167 -0.14024436
0.47422493 -0.039235935 -0.12468326
-0.47226527 -0.013629583 -0.13116527
0.47302195 -0.013629583 -0.13336468
-0.4710004 0.011860467 -0.13981307
0.50012535 0.011992268 -0.12267315
-0.49813002 0.037514314 -0.12916315
0.49885401 0.037480377 -0.1313653
-0.49753702 0.062997319 -0.13301516
0.49834734 0.062955394 -0.13482964
-0.49752671 0.088537619 -0.13308191
0.4983376 0.088481784 -0.13489604
-0.49751902 0.11407745 -0.13313162
0.4983303 0.11400771 -0.13494599
-0.49751133 0.13961658 -0.13318181
0.49832299 0.1395328 -0.13499606
-0.49750364 0.16515483 -0.1332314
0.49831325 0.1650562 -0.13506234
-0.49749345 0.19069144 -0.1332984
0.49830598 0.19057964 -0.1351124
-0.49775255 0.21634804 -0.1316154
0.49862975 0.21625927 -0.13289857
-0.47252145 0.2420707 -0.12941372
-0.44538406 0.24119985 -0.14072526
0.47339141 0.2419717 -0.13069844
-0.44725695 0.26782739 -0.12720883
-0.42018768 0.26686844 -0.1385355
0.42114848 0.26676008 -0.1398133
0.44811961 0.26771843 -0.12849522
-0.42195886 0.29361841 -0.12500119
-0.39495796 0.29257062 -0.13634276
0.39591154 0.29245254 -0.13762224
0.42281422 0.29349944 -0.12628949
0.14111352 0.36978397 -0.13059831
-0.1412912 -0.34859675 -0.10386431
0.14213273 -0.34857127 -0.10411847
-0.11543325 -0.3483595 -0.1062355
-0.089611359 -0.34812075 -0.10862017
-0.063826665 -0.34788412 -0.1109848
-0.03807842 -0.34764791 -0.11334586
-0.012366425 -0.34741017 -0.11572039
0.013309009 -0.34738323 -0.11598992
0.039000649 -0.34762093 -0.11361539
0.064728633 -0.34785715 -0.11125457
0.090493433 -0.34809539 -0.10887372
0.11629447 -0.34833235 -0.10650635
-0.19264317 -0.32255778 -0.10681093
-0.16649705 -0.32186866 -0.11427248
-0.14060459 -0.32145679 -0.11873007
-0.11486121 -0.32123807 -0.12109721
0.11583693 -0.32121325 -0.12136567
0.14155999 -0.32143191 -0.11899912
0.16739038 -0.3217923 -0.11509776
0.1934725 -0.3224813 -0.10763955
-0.24412993 -0.29681236 -0.10682786
-0.21786907 -0.29618055 -0.11428928
-0.19172513 -0.29555145 -0.12171793
0.21874979 -0.29611072 -0.11511457
0.24494663 -0.29674217 -0.1076566
-0.29561612 -0.27106711 -0.10684466
-0.26924053 -0.27049282 -0.11430621
-0.24298239 -0.26992095 -0.12173462
0.27010742 -0.27042794 -0.11514819
0.29641879 -0.27100205 -0.10769033
-0.32073629 -0.24489167 -0.11307609
-0.2942391 -0.24429068 -0.12175119
0.32151529 -0.24478425 -0.11462629
-0.34628135 -0.21910979 -0.11447465
0.34705934 -0.21901444 -0.1160233
0.3742128 -0.2198603 -0.10228729
-0.37180695 -0.19335036 -0.1158551
0.37258381 -0.19326702 -0.11740255
0.39982915 -0.19400561 -0.10369468
-0.42476934 -0.16824549 -0.10352516
-0.39730942 -0.16761144 -0.11725116
0.39808524 -0.16754004 -0.11879742
0.42542601 -0.16817346 -0.10508406
-0.45064437 -0.14250547 -0.1027621
-0.42326152 -0.14203262 -0.1150471
0.4240289 -0.14197955 -0.1164273
0.45130304 -0.14245139 -0.10416925
-0.44933438 -0.11643925 -0.11221635
0.45006907 -0.11639668 -0.11359859
-0.47609979 -0.090904519 -0.10494864
-0.44803175 -0.090519674 -0.1216172
0.47664982 -0.090853028 -0.10718298
-0.47481489 -0.065011017 -0.11373329
0.47543418 -0.064976729 -0.11595619
-0.50217128 -0.039403666 -0.10291481
0.50269055 -0.039386407 -0.10513496
-0.50081712 -0.013629583 -0.11171031
0.50140333 -0.013629583 -0.11393559
-0.49947006 0.012009412 -0.12045968
0.52876055 0.012143092 -0.10310125
-0.52685088 0.03781414 -0.10968459
0.52740395 0.037779912 -0.11191261
-0.52568746 0.063369825 -0.11688113
0.52635688 0.06332761 -0.11871326
-0.52567929 0.089034945 -0.11693192
0.52634913 0.088978469 -0.11876392
0.55463183 0.089479491 -0.10249066
-0.52567118 0.11469901 -0.11698222
0.52633882 0.11462797 -0.11883104
0.5546236 0.1152548 -0.10254157
-0.52566028 0.14036173 -0.11704957
0.52633107 0.14027706 -0.11888134
-0.52565211 0.16602413 -0.11709988
0.52632332 0.16592544 -0.11893177
-0.52567661 0.19169824 -0.1169486
0.52631289 0.19157201 -0.11899912
-0.52613097 0.21755898 -0.11413777
0.52663898 0.21736893 -0.11688137
-0.49997181 0.24301094 -0.11720085
0.50065786 0.24286979 -0.1190325
0.52879971 0.24411571 -0.10284686
-0.47451687 0.26879594 -0.11577106
0.4752757 0.26868355 -0.11709988
-0.44914517 0.29467329 -0.11358178
0.44990155 0.2945534 -0.11487889
-0.42447892 0.32114941 -0.10574448
-0.39851201 0.32097492 -0.10748744
-0.37257022 0.32079896 -0.10924542
-0.34665748 0.32062501 -0.1109848
-0.32077169 0.32045117 -0.11272216
-0.2949113 0.32027563 -0.11447453
-0.26910937 0.32013756 -0.11585522
-0.24333784 0.32001144 -0.11711669
0.21854058 0.31987184 -0.1185118
0.24428186 0.31999794 -0.11725116
0.27004135 0.32012236 -0.11600637
0.29582861 0.32025716 -0.11465991
0.32167253 0.32043093 -0.11292422
0.34754333 0.32060471 -0.11118734
0.37344289 0.32078055 -0.10943127
0.39936775 0.32095468 -0.10769033
0.42531967 0.3211292 -0.10594761
-0.21811086 0.3463569 -0.11079895
-0.08922562 0.39650908 -0.12114751
0.064582258 0.3965565 -0.12076163
-0.089741103 0.86229646 -0.1044066
-0.038540248 -0.40249893 -0.083349347
-0.012596879 -0.40221786 -0.085783839
0.013309009 -0.40218824 -0.086040854
0.03923139 -0.40246543 -0.083640814
-0.16811901 -0.37648571 -0.084172487
-0.14198479 -0.37598169 -0.088847876
-0.11600973 -0.37572214 -0.091257334
-0.090072431 -0.37546465 -0.093646646
-0.064171977 -0.37520754 -0.096032262
-0.038308039 -0.37494892 -0.098431587
-0.012481203 -0.37469256 -0.10081041
0.013309009 -0.37466329 -0.10108221
0.03911557 -0.37492141 -0.098686695
0.064958803 -0.37517813 -0.096304774
0.09083879 -0.37543517 -0.093919396
0.11675613 -0.37569448 -0.091513515
0.14270997 -0.37595224 -0.089121461
0.16877994 -0.37639508 -0.085012674
-0.2199544 -0.35056567 -0.084189773
-0.19357049 -0.34980884 -0.091752529
-0.16730395 -0.34905362 -0.099298596
0.16808167 -0.34897035 -0.10013115
0.19428352 -0.34972507 -0.092588902
0.22060254 -0.35048157 -0.08502984
-0.27178928 -0.32464588 -0.084206939
-0.24528909 -0.32394725 -0.091769934
-0.21890646 -0.32325017 -0.099315643
0.21967149 -0.32317322 -0.1001482
0.24598816 -0.32386845 -0.092622995
0.27242327 -0.32456678 -0.085064173
-0.32378331 -0.29886153 -0.082628489
-0.29700711 -0.29808605 -0.091786623
-0.27050993 -0.29744852 -0.099315524
0.2712608 -0.29737654 -0.10016513
0.29769316 -0.29801381 -0.092640162
0.32432532 -0.29872787 -0.084206939
-0.34956187 -0.27282301 -0.084035397
-0.32225287 -0.27175415 -0.097921371
0.32291394 -0.27163371 -0.099485636
0.35010269 -0.27270156 -0.085612535
-0.37531689 -0.24680501 -0.085458398
-0.34791505 -0.245845 -0.099315643
0.34857497 -0.24573673 -0.10087848
0.37585667 -0.24669598 -0.087033987
-0.40105018 -0.22080913 -0.086879969
-0.37355396 -0.21995652 -0.10072565
0.40158892 -0.22071218 -0.088454485
-0.42676395 -0.19483605 -0.08828342
-0.39917129 -0.19408965 -0.10213459
0.42730156 -0.19475125 -0.089856505
-0.45245394 -0.1688839 -0.089702606
0.45299056 -0.16881128 -0.091274619
-0.47868994 -0.14310288 -0.087239504
0.47910038 -0.143016 -0.089497566
-0.47739145 -0.11693493 -0.096117377
0.47787187 -0.11686576 -0.098363519
-0.50490105 -0.091360979 -0.085184097
0.50528044 -0.091309316 -0.087427855
-0.50353253 -0.065313779 -0.094072938
0.50398207 -0.065279432 -0.096304536
-0.53114426 -0.0395559 -0.083126187
0.53149009 -0.039538577 -0.085372686
-0.52970558 -0.013629524 -0.092025876
0.53012168 -0.013629524 -0.094260335
-0.52827448 0.012160059 -0.10087836
0.55773175 0.012295384 -0.083315015
-0.55591053 0.03811761 -0.089976072
0.55629319 0.038083322 -0.092213511
-0.55440944 0.063786663 -0.098839641
0.55486232 0.063735232 -0.1010654
-0.55410439 0.089536555 -0.10064077
-0.55409575 0.11532602 -0.10069156
-0.55451888 0.14123261 -0.098193645
0.55487871 0.14110462 -0.10096323
-0.55500317 0.16719697 -0.095333934
0.55533749 0.1670465 -0.098125458
-0.55548537 0.19320473 -0.09248662
0.55579978 0.19303358 -0.095265865
-0.5559684 0.21925667 -0.089634418
0.55626011 0.21906364 -0.092418313
-0.55681205 0.24551633 -0.084652781
-0.52825254 0.24425691 -0.10101449
0.55721354 0.2453725 -0.086520314
-0.53113312 0.27155438 -0.083194733
-0.50268614 0.27016768 -0.099570632
0.50323611 0.2700125 -0.10140467
0.53153753 0.27139616 -0.085064173
-0.47709772 0.29610109 -0.098125458
0.47765049 0.29593155 -0.099961162
0.50583935 0.29744229 -0.083606482
-0.45148727 0.32205665 -0.096679091
0.45204279 0.32187271 -0.098516703
-0.038257301 0.83721459 -0.10172713
-0.012755182 -0.43065661 -0.065219402
0.013309009 -0.43062031 -0.065514207
0.039391771 -0.4309538 -0.062806964
-0.16903293 -0.40436232 -0.067212939
-0.14273486 -0.40373915 -0.072608709
-0.11662395 -0.40342835 -0.075300336
-0.090554602 -0.40311813 -0.077987552
-0.064526744 -0.40280828 -0.080670476
0.065195009 -0.4027746 -0.080962777
0.091199964 -0.4030844 -0.078280091
0.11724634 -0.40339455 -0.075593233
0.14333424 -0.40370533 -0.072902322
0.16955972 -0.40425622 -0.068130612
-0.22101188 -0.37812871 -0.068926811
-0.19450518 -0.37730443 -0.076575518
0.19510096 -0.37721342 -0.077419519
0.22154096 -0.37803552 -0.069791794
-0.27308172 -0.35209134 -0.068944216
-0.2464574 -0.35132596 -0.076592684
0.2470403 -0.35124141 -0.077436566
0.2735976 -0.35200471 -0.069809079
-0.32532775 -0.32621735 -0.067195415
-0.2984091 -0.32534769 -0.07660985
0.29897913 -0.32526967 -0.077453971
0.32574964 -0.32607022 -0.06878829
-0.35122371 -0.30004814 -0.068615079
0.3516444 -0.29991341 -0.070206761
-0.37709594 -0.2738995 -0.070051193
0.37751558 -0.2737771 -0.071641445
-0.40294835 -0.24777439 -0.071468711
0.40336481 -0.24766311 -0.073074818
-0.42877686 -0.22166997 -0.072902203
0.42919427 -0.22157215 -0.074489832
-0.45458344 -0.19558769 -0.074334621
0.45500207 -0.19550316 -0.075903654
-0.48092842 -0.1697046 -0.071935058
0.48117992 -0.16958658 -0.074489832
-0.50803089 -0.14396456 -0.064855218
0.50820422 -0.14386517 -0.067438006
-0.50627685 -0.11754673 -0.076248169
0.50658315 -0.11747681 -0.078520894
-0.53404462 -0.091822959 -0.065184832
0.53424591 -0.091770127 -0.067472458
-0.53259057 -0.065620005 -0.074179411
0.5328657 -0.065585248 -0.076437593
-0.56046176 -0.039710127 -0.063102245
0.56062901 -0.039692458 -0.065392852
0.55917794 -0.013629583 -0.074368954
-0.5589366 -0.013629524 -0.072107792
-0.5574196 0.012312643 -0.081065774
0.5870651 0.01245014 -0.06318903
-0.58578998 0.038465992 -0.067351341
0.58575946 0.038411386 -0.070898294
-0.58442533 0.064335763 -0.075058937
0.58445686 0.064254336 -0.078589916
-0.58368742 0.090195857 -0.079226255
0.58387464 0.090109617 -0.082027555
-0.58419639 0.11626284 -0.076351404
0.58436364 0.11615558 -0.079140306
-0.58470935 0.14237522 -0.073454499
0.58485055 0.14224534 -0.076265335
-0.58522004 0.16853155 -0.070569992
0.58533823 0.16837978 -0.073385477
-0.58573174 0.19473244 -0.067680359
0.58582681 0.1945588 -0.070500851
-0.58624417 0.22097826 -0.064785719
0.58631623 0.22078246 -0.067610979
0.58680642 0.24705106 -0.064716458
-0.55985659 0.2729533 -0.066675425
0.56011647 0.2727935 -0.068563223
-0.53404182 0.29914221 -0.065202117
-0.50542933 0.2976135 -0.081752896
0.5343073 0.29896933 -0.067073941
-0.50820458 0.32535434 -0.06372726
-0.47970855 0.32369834 -0.080275297
0.48012117 0.3235127 -0.082130671
0.50847536 0.3251684 -0.065583467
-0.37771797 0.35132885 -0.064664364
-0.35144207 0.35112154 -0.066588998
-0.32520819 0.35092759 -0.06839025
-0.29900217 0.35073349 -0.070189595
0.29957667 0.35071105 -0.070397139
0.32576722 0.35090491 -0.068597913
0.35198563 0.35109925 -0.066796899
0.37823945 0.3513009 -0.064924479
-0.038606901 0.81702501 -0.079019904
-0.064650759 0.84392792 -0.075300217
-0.064827934 0.87192255 -0.067628384
-0.012713728 0.87114358 -0.070604444
-0.012917193 -0.45947489 -0.044173837
0.013309009 -0.45943597 -0.044472337
-0.17018551 -0.4330456 -0.045823574
-0.14370266 -0.43232733 -0.051655173
-0.11742916 -0.43199173 -0.054380298
-0.091197744 -0.43165669 -0.057100773
-0.06500873 -0.43132415 -0.05979979
-0.038861062 -0.43099016 -0.062511683
0.065516278 -0.43128774 -0.060095549
0.091682635 -0.4316223 -0.057379723
0.11789041 -0.43195507 -0.05467701
0.14414129 -0.43229291 -0.051934719
0.17054626 -0.43292886 -0.046770692
-0.22232237 -0.40634859 -0.050011039
-0.19561011 -0.40535286 -0.058633566
0.19606259 -0.40524438 -0.05957377
0.22270098 -0.40623954 -0.050955772
-0.30127734 -0.380647 -0.045560479
-0.27438444 -0.37978485 -0.05355978
-0.24763769 -0.37895495 -0.061260581
0.24810201 -0.37886319 -0.062112093
0.27478263 -0.37969264 -0.054415107
0.30159813 -0.38054293 -0.046525359
-0.32688642 -0.353825 -0.051620126
-0.2998254 -0.35285854 -0.061277866
0.3002753 -0.35277152 -0.062147021
0.32718703 -0.35366413 -0.053227901
-0.35290089 -0.32752377 -0.05305326
0.35320029 -0.32737547 -0.054659367
-0.37889138 -0.30124319 -0.054502487
0.37918973 -0.30110732 -0.056107283
-0.40485972 -0.2749851 -0.055950403
0.40515903 -0.27486295 -0.057536602
0.43303421 -0.27595785 -0.043313265
-0.45889649 -0.24973242 -0.043207765
-0.43080595 -0.24874923 -0.057397127
0.43110433 -0.24863948 -0.058981895
0.45907632 -0.24962403 -0.044770718
-0.45673007 -0.22253585 -0.05884254
0.45702982 -0.22243936 -0.060408592
-0.48324597 -0.1965709 -0.056089878
0.4833746 -0.19643275 -0.05865109
-0.5104807 -0.17076647 -0.048943162
0.51053309 -0.1706477 -0.051515222
0.53780329 -0.14475314 -0.044367075
-0.53550643 -0.11816576 -0.056142092
0.53563631 -0.11809502 -0.058442116
-0.56353658 -0.092290401 -0.044946194
0.56356007 -0.092236921 -0.047261357
-0.56199509 -0.065929934 -0.054048538
0.56209064 -0.06589447 -0.056351304
0.59011894 -0.039848156 -0.045156837
-0.58853495 -0.013629583 -0.051847458
0.58857763 -0.013629583 -0.054257989
-0.58716089 0.012477852 -0.059608579
-0.6162464 0.065064877 -0.04348886
0.6160022 0.064982504 -0.047051072
-0.61480224 0.091055654 -0.051305413
0.6146242 0.090947047 -0.054833889
-0.61479902 0.11722632 -0.051323056
0.61474782 0.11711788 -0.054135799
-0.6153422 0.14353319 -0.048382759
0.61526752 0.14340314 -0.051200628
-0.61588311 0.1698848 -0.045455217
0.615785 0.16973279 -0.048277736
0.61630338 0.19610766 -0.045349956
-0.58675754 0.24726892 -0.061886191
-0.58886319 0.2743659 -0.049993515
0.58897996 0.27420592 -0.051882386
-0.56293386 0.30068463 -0.048505425
0.56305623 0.30051163 -0.050378561
-0.53698456 0.32702842 -0.046998382
0.53710955 0.32684067 -0.048873186
-0.51100963 0.35339338 -0.045507789
-0.48331481 0.35230377 -0.055619121
-0.45686278 0.3520596 -0.057884932
-0.430446 0.35181567 -0.060147643
-0.40406442 0.35157228 -0.062407494
-0.27487323 0.35314783 -0.04778707
0.40456849 0.3515459 -0.062650681
0.43093076 0.35178953 -0.060391188
0.45732823 0.35203332 -0.058128595
0.48376089 0.35227737 -0.055863142
0.51113987 0.35319304 -0.047366738
-0.038961008 0.79655582 -0.056020141
-0.065213777 0.82394683 -0.050920725
-0.038937125 0.87455481 -0.057571292
-0.039012603 0.90199864 -0.052668929
-0.17135179 -0.46209145 -0.024180293
-0.14468336 -0.46127459 -0.030422449
-0.11824509 -0.46091351 -0.033181667
-0.091849446 -0.46055302 -0.035936236
-0.065496318 -0.4601931 -0.038686514
-0.039185602 -0.45983374 -0.041432381
0.039554015 -0.45979452 -0.041731477
0.065841287 -0.46015388 -0.038986087
0.092170924 -0.46051383 -0.036236167
0.11854304 -0.46087417 -0.033481956
0.14495772 -0.4612352 -0.030723333
0.17154619 -0.46196833 -0.02512145
-0.22381943 -0.43519115 -0.028403282
-0.19693404 -0.43411571 -0.037135601
0.19722039 -0.43399835 -0.038087606
0.22403094 -0.43507341 -0.029359937
-0.3032786 -0.4093641 -0.023895741
-0.27615491 -0.40835321 -0.032651305
0.27638456 -0.40824285 -0.033605695
0.30343157 -0.40925124 -0.024872899
-0.24917081 -0.40734923 -0.041344404
0.24947381 -0.40723768 -0.042311668
-0.3286185 -0.38185918 -0.034312129
0.32876483 -0.3816613 -0.036148071
-0.35459161 -0.35525164 -0.037364841
0.35477054 -0.35509109 -0.038968444
0.38258657 -0.35653016 -0.024588704
-0.40873778 -0.33016467 -0.02446425
-0.38070136 -0.32883787 -0.038827658
0.40879336 -0.330017 -0.026062369
0.38087934 -0.32868987 -0.040429711
-0.43492284 -0.30366203 -0.025938153
-0.40678874 -0.30244663 -0.040289044
0.40696779 -0.30231276 -0.041871905
0.43497983 -0.30352819 -0.02751708
-0.46108541 -0.27718195 -0.027410507
-0.43285373 -0.27607822 -0.041749001
0.46114174 -0.27706048 -0.028988004
-0.48794949 -0.25106779 -0.023931503
0.48783121 -0.25089073 -0.026488066
-0.48558792 -0.22369133 -0.040077686
0.4855924 -0.22353333 -0.042645454
-0.51295638 -0.19782235 -0.032863498
0.5128814 -0.19768256 -0.035459757
-0.54044086 -0.17184372 -0.025618672
0.54028833 -0.17172337 -0.028226018
-0.53783321 -0.14485395 -0.041749001
-0.56529862 -0.11883093 -0.034541845
0.56518847 -0.11874945 -0.037188411
-0.59338325 -0.092763245 -0.024464369
0.59322649 -0.092709236 -0.026807666
-0.59175223 -0.066243671 -0.033676386
0.59166855 -0.066207625 -0.036006927
-0.59012997 -0.03986612 -0.042838693
0.62018061 -0.013629583 -0.023451686
-0.61915469 0.012723021 -0.027747273
0.61878341 0.012695368 -0.031342506
-0.61769718 0.038954213 -0.035636187
0.61738962 0.038899206 -0.039214849
-0.64585894 0.118204 -0.02592051
0.64558923 0.11809556 -0.028739929
0.64613974 0.14457816 -0.025760651
-0.61642492 0.19628182 -0.04252243
-0.6169709 0.22272539 -0.039566994
0.61682266 0.22252813 -0.042417049
-0.61751461 0.24921373 -0.036624193
0.61734289 0.24899381 -0.039479136
-0.61897784 0.27616856 -0.028704524
0.61854237 0.27582982 -0.032704473
-0.59269214 0.30254495 -0.028367758
0.59252441 0.302306 -0.030953526
-0.56663853 0.32906675 -0.026630163
0.5664798 0.32880956 -0.029200435
-0.5405556 0.3556135 -0.024908304
0.27572384 0.35375118 -0.042188525
0.54040569 0.35533816 -0.027463913
-0.039320249 0.77580941 -0.032686591
-0.065785401 0.80367923 -0.026168823
-0.14567554 -0.49058321 -0.0089406967
-0.11907058 -0.49019608 -0.011734724
-0.092508771 -0.4898096 -0.014523864
-0.065990016 -0.48942372 -0.01730895
-0.039514475 -0.48904094 -0.020071268
-0.013081364 -0.48865637 -0.022847176
0.013309009 -0.48861438 -0.02314949
0.039718423 -0.48899895 -0.020374179
0.066170633 -0.48938414 -0.017594218
0.092665337 -0.48976755 -0.014827609
0.11920332 -0.490154 -0.012038708
0.14578441 -0.49054098 -0.0092455149
-0.22533435 -0.46440035 -0.0065370798
-0.19827375 -0.46324295 -0.015381336
0.19839296 -0.46311918 -0.016327381
0.22537786 -0.4642759 -0.0074881315
-0.27800339 -0.43735668 -0.0108217
-0.25084132 -0.43627018 -0.019643784
0.25097892 -0.43615383 -0.020587802
0.27806407 -0.43723765 -0.011788249
-0.33088869 -0.41078067 -0.011627316
0.33086142 -0.41057014 -0.013451576
-0.35667431 -0.38361281 -0.018039942
0.35668126 -0.3834151 -0.019875288
-0.41075361 -0.35818046 -0.0080981255
-0.38252813 -0.35668838 -0.023007274
0.41066071 -0.35800102 -0.0098903179
-0.43700889 -0.33150104 -0.0099978447
0.43694353 -0.33135551 -0.011573434
-0.46329224 -0.30488586 -0.011483908
0.46322873 -0.30475405 -0.013040423
-0.49033356 -0.27870464 -0.0076317787
0.49009135 -0.27850866 -0.010176778
-0.5154528 -0.22513425 -0.01664865
0.51525456 -0.22497505 -0.0192343
-0.54307324 -0.19909035 -0.0093349218
0.54279435 -0.1989495 -0.011949301
0.57045418 -0.17281389 -0.0046154261
-0.56804198 -0.14575478 -0.018343091
0.56780881 -0.14565328 -0.020979285
-0.5957607 -0.11955476 -0.011036515
0.59544605 -0.11947269 -0.013701797
-0.62356448 -0.066702306 -0.0038787127
0.62299746 -0.06664589 -0.0075420141
-0.62208658 -0.040104419 -0.011877775
0.62158734 -0.040076412 -0.015506387
-0.6206156 -0.013629524 -0.019839883
0.64961833 0.039396174 -0.0069320202
-0.64866817 0.065807723 -0.011322975
0.64814639 0.065725118 -0.014899135
-0.64713538 0.0920415 -0.019287586
0.64667797 0.091931887 -0.022847176
-0.64643323 0.14470854 -0.022936225
-0.64700514 0.17125842 -0.019964576
0.64668781 0.17110595 -0.022794008
-0.6478219 0.19793221 -0.015720487
0.64723361 0.1976786 -0.019839883
-0.64952016 0.22498894 -0.0068961382
0.64881039 0.22468343 -0.011304975
-0.62337852 0.3047142 -0.0048849583
0.62301016 0.30447537 -0.0074702501
0.59680235 0.33116198 -0.0056933165
0.57056451 0.35787421 -0.003932476
-0.51720035 0.38425249 -0.0052981377
-0.49027586 0.38393739 -0.0080264807
-0.46339145 0.38362089 -0.010767937
-0.43658265 0.38333368 -0.013255
-0.40983236 0.38306531 -0.015577674
-0.38311815 0.38279754 -0.017897367
-0.35732687 0.38348028 -0.011985064
0.3579281 0.3840079 -0.0074163675
0.38328078 0.38276884 -0.018146992
0.40997514 0.38303655 -0.015827656
0.43670559 0.3833048 -0.01350522
0.46348628 0.38358566 -0.011072278
0.49034712 0.3839021 -0.0083311796
0.51725078 0.38421914 -0.0055855513
-0.039722849 0.70230061 -0.0065370798
-0.039595481 0.72703326 -0.014809847
-0.039468452 0.7516436 -0.02306056
-0.066274859 0.78220916 -0.0049747229
-0.1466803 -0.5202623 0.012812614
-0.11990651 -0.51984841 0.0099833012
-0.093176983 -0.51943809 0.0071767569
-0.06649036 -0.5190255 0.0043565035
-0.039847221 -0.51861364 0.0015410185
-0.013247464 -0.51820266 -0.0012699366
0.013309009 -0.51815778 -0.0015759468
0.039884761 -0.51856887 0.0012345314
0.06650386 -0.51898056 0.0040494204
0.093166403 -0.51939297 0.0068691969
0.1198725 -0.51980609 0.0096933842
0.14662224 -0.52021986 0.012522101
-0.22686875 -0.49398515 0.015610099
-0.19963068 -0.49274388 0.0066519976
-0.17253298 -0.49150902 -0.0022597313
0.17255893 -0.49137929 -0.0031952858
0.19958055 -0.49261349 0.0057116747
0.22674215 -0.49385414 0.014665008
-0.27987567 -0.46673304 0.011288524
-0.25253463 -0.46556371 0.0023527145
0.25250202 -0.4654386 0.0013967752
0.27976653 -0.46660736 0.010327578
-0.33319104 -0.44009119 0.011379123
-0.30530551 -0.43844903 -0.0019539595
0.30529004 -0.43832922 -0.0029255152
0.33298773 -0.43986785 0.0095664263
-0.35914448 -0.41268685 0.0048804283
0.35897613 -0.4124763 0.003056407
-0.41359535 -0.38717085 0.014973998
-0.38499865 -0.38538337 -0.001611948
0.38486695 -0.38518751 -0.0034292936
0.41332206 -0.38697508 0.013157487
-0.4394199 -0.3598339 0.0084254742
0.43918836 -0.35965651 0.0066519976
-0.46552223 -0.33285037 0.0046094656
0.46533293 -0.33270523 0.0030384064
-0.49274039 -0.30660555 0.0088237524
0.49237067 -0.30638951 0.006272316
0.52006924 -0.28034544 0.013684273
-0.51797301 -0.2527065 -0.00027942657
0.51765037 -0.25252807 -0.0028535128
-0.54573369 -0.22659823 0.0071223974
0.54532701 -0.22643676 0.0045009851
-0.5736106 -0.20037678 0.01453793
0.57312483 -0.20023483 0.011905313
-0.57081157 -0.17293513 -0.0019899607
-0.59867167 -0.14666876 0.0054044724
0.59822917 -0.14656602 0.0027315617
-0.62533295 -0.093459718 0.0056936741
0.62456411 -0.093358442 0.001306653
-0.65330958 -0.013629583 0.012794495
0.6525895 -0.013629583 0.009149909
-0.65175521 0.012973007 0.0047178268
0.65110046 0.012945177 0.001090169
-0.65020812 0.03945183 -0.00332129
-0.68008697 0.093046717 0.013357162
0.6793412 0.092935525 0.0097477436
-0.67846632 0.11940414 0.0052598715
0.67779309 0.11926717 0.0017033815
-0.6786617 0.14605592 0.0062361956
0.67782784 0.14585491 0.001883626
-0.68045056 0.17315178 0.015173793
0.67954355 0.17291601 0.01079905
-0.65122718 0.25218475 0.0019738674
0.65044826 0.25184506 -0.0024396181
-0.65294302 0.27952126 0.010889649
