ply
format ascii 1.0
comment PCL generated
element vertex 1372
property float x
property float y
property float z
element camera 0
property float view_px
property float view_py
property float view_pz
property float x_axisx
property float x_axisy
property float x_axisz
property float y_axisx
property float y_axisy
property float y_axisz
property float z_axisx
property float z_axisy
property float z_axisz
property float focal
property float scalex
property float scaley
property float centerx
property float centery
property int viewportx
property int viewporty
property float k1
property float k2
end_header
-0.075525999 0.019461811 -0.29673356
-0.023277521 0.02543509 -0.29349172
0.037575603 0.021536112 -0.29006389
0.091280401 0.02652806 -0.29073781
0.14883471 0.027604938 -0.28383765
0.21115053 0.024104714 -0.27725238
0.27092373 0.027085364 -0.27354205
0.32779968 0.030518234 -0.26848954
0.3895539 0.024089932 -0.26380163
0.44882429 0.024855137 -0.25988007
0.51481068 0.030359626 -0.25409824
0.57020116 0.02651459 -0.24959719
0.62811351 0.028453648 -0.24482542
-0.59957218 0.09178865 -0.26232445
-0.58700234 0.085700572 -0.2741757
-0.13562614 0.063309073 -0.29897767
-0.095538199 0.069229126 -0.29793534
-0.028940737 0.085272193 -0.29479218
0.038556576 0.087539196 -0.28953317
0.091228008 0.087155223 -0.28862819
0.14701551 0.088493407 -0.28490666
0.21063018 0.086804926 -0.27828109
0.27147281 0.086571276 -0.27580202
0.32879961 0.089862287 -0.27252084
0.39042747 0.085908294 -0.26643956
0.45347261 0.084449351 -0.26141286
0.51473737 0.088996351 -0.25421709
0.57244337 0.086800694 -0.24719089
0.62426424 0.087157249 -0.2465651
-0.59980059 0.14603329 -0.26649731
-0.58764625 0.14806688 -0.27595955
-0.022965252 0.14283556 -0.29644537
0.038613975 0.14071363 -0.29027519
0.093592823 0.14716506 -0.28846511
0.15186536 0.14800054 -0.28388509
0.21343231 0.15078771 -0.27831948
0.27291548 0.15014094 -0.27540541
0.33092773 0.147237 -0.27075392
0.39117026 0.14514619 -0.26836783
0.45116997 0.14488912 -0.26441199
0.51337516 0.14494646 -0.25675851
0.56636047 0.1483869 -0.24781168
0.6271559 0.14680475 -0.24736893
-0.60046166 0.2052958 -0.25970876
-0.58739901 0.20940709 -0.27062058
-0.022502363 0.20616496 -0.29656401
0.033459485 0.20211887 -0.29216045
0.094353497 0.20622885 -0.29045886
0.1557017 0.20481932 -0.2888566
0.22006547 0.20583737 -0.28631476
0.270594 0.20655477 -0.2792311
0.3288188 0.20752323 -0.273166
0.39060616 0.20645547 -0.27046502
0.44859064 0.20889282 -0.2663433
0.51121652 0.20596635 -0.2573604
0.56368351 0.20328009 -0.25131518
0.62947404 0.20702994 -0.24740016
-0.59836334 0.26625574 -0.26267433
-0.58594346 0.26367545 -0.27209383
-0.080352068 0.24520457 -0.29914597
-0.022176564 0.26889181 -0.2969223
0.030765235 0.26915681 -0.29314327
0.092037082 0.2705729 -0.28929767
0.15900642 0.26755786 -0.28813076
0.2199223 0.26492131 -0.28527263
0.27460527 0.26360404 -0.27910823
0.33155394 0.2734201 -0.27714509
0.39137995 0.26624906 -0.27314252
0.45236242 0.26735842 -0.26569986
0.51087832 0.26660526 -0.25870824
0.57224035 0.26527977 -0.25091696
0.63305783 0.26333368 -0.24692005
-0.59909999 0.32503808 -0.26482582
-0.5863601 0.32999563 -0.27664971
-0.022334874 0.32616174 -0.29765835
0.031814456 0.32957697 -0.29569709
0.093822062 0.32836318 -0.29085094
0.16053629 0.32334757 -0.28807688
0.21554232 0.32214749 -0.28586325
0.27219033 0.32556272 -0.27954462
0.33462846 0.3237201 -0.27825332
0.39192355 0.32551241 -0.27163762
0.44998264 0.32670927 -0.26819825
0.51013315 0.32668948 -0.26028264
0.57041883 0.32608652 -0.24921787
0.62420166 0.32885516 -0.24787796
-0.60087955 0.37952137 -0.26064444
-0.58960599 0.38613558 -0.2669636
-0.019405127 0.39004588 -0.29831824
0.031739235 0.38972521 -0.29575264
0.094578385 0.39220655 -0.29097718
0.16098875 0.38331378 -0.28885153
0.21744251 0.38661003 -0.28650579
0.2736851 0.3851279 -0.28607762
0.3347944 0.38343549 -0.27743417
0.3896867 0.38547766 -0.27315438
0.45281863 0.38617313 -0.26650566
0.5112505 0.38652503 -0.2613191
0.56743062 0.3862462 -0.25004095
0.62120187 0.39016187 -0.24890924
-0.60115016 0.44348109 -0.26004022
-0.58874595 0.44495344 -0.27068359
-0.065235436 0.42245781 -0.29957166
-0.018110394 0.43875515 -0.29696944
0.034217 0.4450084 -0.29561532
0.091539621 0.44943523 -0.29096469
0.15665865 0.43819189 -0.28969654
0.21060097 0.44757843 -0.29005492
0.27540648 0.44172072 -0.28455994
0.32961547 0.44413424 -0.27692729
0.39372742 0.44549835 -0.27106607
0.44889939 0.44747269 -0.26690739
0.510607 0.45007336 -0.26148701
0.5645051 0.44464028 -0.25290388
0.63046575 0.4450736 -0.24828488
-0.60030138 0.50760984 -0.26136786
-0.58871001 0.50454462 -0.27153444
-0.0023729801 0.50598264 -0.29846039
0.040990353 0.50255454 -0.2975032
0.092987657 0.50861549 -0.29481918
0.15486324 0.50717628 -0.29148999
0.21243668 0.50735927 -0.2879729
0.27521777 0.50130606 -0.28235644
0.33395457 0.50491357 -0.2754637
0.38870084 0.50600708 -0.26871359
0.45041621 0.50857604 -0.26734561
0.5102874 0.50913215 -0.25907087
0.57068515 0.50244582 -0.25150865
0.63253605 0.50824869 -0.24615347
-0.60013169 0.56456935 -0.25673193
-0.58877563 0.56558466 -0.27293813
-0.0022252798 0.56663501 -0.29853228
0.043643713 0.56873608 -0.29558843
0.095339 0.56770444 -0.29328674
0.15541518 0.57062781 -0.28754175
0.21534383 0.56645489 -0.28287527
0.27145398 0.56491768 -0.27786201
0.3291589 0.56873918 -0.27306277
0.38762569 0.57060146 -0.26833874
0.45105302 0.56957948 -0.26092255
0.5135498 0.5661453 -0.25410992
0.5692085 0.56421876 -0.25020051
0.62686348 0.55998874 -0.24512565
-0.59955722 0.62670207 -0.26220369
-0.58776361 0.62506223 -0.27507693
-0.01666683 0.63757026 -0.29580754
0.036672115 0.62800002 -0.29240155
0.092474043 0.62502897 -0.2892617
0.1519832 0.62809861 -0.28417203
0.21472633 0.62484431 -0.27865028
0.27646422 0.62847984 -0.27332789
0.33577406 0.62689793 -0.26939023
0.39123082 0.62851083 -0.26344895
0.45669329 0.62540615 -0.25615561
0.50975335 0.62686896 -0.24939615
0.56661558 0.62338841 -0.2478376
0.61668301 0.63870692 -0.24841267
-0.5998314 0.68455374 -0.2645728
-0.5875302 0.68473506 -0.27260184
-0.14414197 0.69922054 -0.29955769
-0.079078674 0.69235086 -0.29663247
-0.025332093 0.68459618 -0.29302543
0.035282612 0.67969751 -0.29090074
0.092603803 0.67924535 -0.2902571
0.15529513 0.68135703 -0.28901055
0.21535563 0.68158627 -0.28412873
0.27402616 0.68274736 -0.2784681
0.33036935 0.68659532 -0.27456039
0.39216459 0.68410921 -0.26849818
0.45225215 0.6884042 -0.26377249
0.51481009 0.68390989 -0.25699019
0.5756402 0.68646395 -0.25108194
0.6196543 0.68543184 -0.24688429
-0.59976327 0.73582315 -0.26059788
-0.58708513 0.73702514 -0.2721715
-0.14393371 0.72031093 -0.29965323
-0.073439181 0.7371223 -0.29753017
-0.024135292 0.73279595 -0.2968246
0.037972152 0.73166239 -0.29545289
0.09686327 0.73550248 -0.29118934
0.1570695 0.73596382 -0.29056755
0.21696687 0.73601151 -0.28803441
0.27248991 0.73716044 -0.28202209
0.33646262 0.73776937 -0.27644312
0.39046848 0.73932934 -0.27277642
0.45212555 0.73625517 -0.26720917
0.51083314 0.73785698 -0.26254618
0.57446039 0.73528409 -0.25467622
0.6179316 0.73015535 -0.24707776
-0.56575501 -0.6184963 -0.21017927
-0.50295866 -0.62479103 -0.21013564
-0.44073343 -0.62671191 -0.20938432
-0.3815161 -0.62784499 -0.21069312
-0.32402372 -0.62729138 -0.21237803
-0.26151514 -0.62692851 -0.21147054
-0.20223176 -0.62641108 -0.20992494
-0.14396447 -0.62570071 -0.21283811
-0.084676027 -0.62511861 -0.21500248
-0.025370955 -0.62404037 -0.21369201
0.029944658 -0.62388951 -0.21104485
0.091553092 -0.62320971 -0.20948642
0.15292501 -0.62170619 -0.2125833
0.21349835 -0.62134802 -0.20905191
0.27253306 -0.62000161 -0.2128011
0.33361804 -0.61827207 -0.21153182
0.39408374 -0.61741418 -0.20707595
0.45449984 -0.61570376 -0.20388615
0.51214337 -0.61429828 -0.20507997
0.56950462 -0.61535609 -0.20187634
0.62779498 -0.61082804 -0.20339441
0.66766226 -0.60177863 -0.19400328
-0.59899962 -0.56810349 -0.20509207
-0.58623946 -0.57124376 -0.21793199
0.35659111 -0.60054439 -0.23251283
0.39766467 -0.58250535 -0.23656851
0.45176995 -0.58170879 -0.23503184
0.51851189 -0.57551003 -0.23331612
0.57512224 -0.57088941 -0.22898263
0.63673282 -0.57242751 -0.21917361
0.66790736 -0.56788409 -0.19521499
-0.598382 -0.51203799 -0.21082789
-0.5872702 -0.51166278 -0.21296871
0.51592433 -0.50559741 -0.23795819
0.57169735 -0.50497043 -0.23396796
0.63829243 -0.51040292 -0.22218287
0.6663295 -0.50804591 -0.19383514
-0.59932506 -0.45418933 -0.21113235
-0.58714342 -0.45371303 -0.21615607
0.51649594 -0.45018092 -0.23697191
0.56789744 -0.44897446 -0.23180008
0.63611674 -0.44885406 -0.22213179
0.66662204 -0.45247099 -0.19969511
-0.60061914 -0.39253652 -0.2095021
-0.58780682 -0.3910287 -0.21595395
0.51377714 -0.38983703 -0.23785424
0.56725764 -0.39116415 -0.23246455
0.63854909 -0.39117414 -0.22244912
0.66513741 -0.3854526 -0.19248199
-0.60159636 -0.3328768 -0.20555079
-0.58845615 -0.32963568 -0.214935
0.51794362 -0.33223653 -0.23769045
0.56854141 -0.33109719 -0.2331562
0.63697898 -0.33458805 -0.22004837
0.6646899 -0.33470875 -0.19759965
-0.60053015 -0.27251917 -0.21031022
-0.58873427 -0.27267468 -0.21675551
0.51745188 -0.27805376 -0.23850089
0.57241511 -0.27504647 -0.23413515
0.63716173 -0.27320516 -0.22269171
0.66463125 -0.27206379 -0.20207053
-0.60038495 -0.21192312 -0.2015422
-0.58988714 -0.2086851 -0.21441251
0.52938592 -0.21531814 -0.23808503
0.56888771 -0.21235186 -0.23507297
0.63985157 -0.20907021 -0.2210896
0.66464734 -0.20977169 -0.19679224
-0.60186994 -0.15205771 -0.20307291
-0.59008551 -0.1478802 -0.21956646
0.5302459 -0.15579247 -0.23865384
0.57046378 -0.15113056 -0.23491067
0.64043629 -0.15310109 -0.21907353
0.66500103 -0.15383393 -0.20062566
-0.6019249 -0.093429387 -0.201689
-0.590882 -0.092449307 -0.21736276
0.53184605 -0.11325604 -0.23971218
0.57500887 -0.097077191 -0.2362358
0.64273763 -0.092620313 -0.21771491
0.66546273 -0.1020537 -0.19875377
-0.60252166 -0.03291136 -0.20134807
-0.59129423 -0.028131127 -0.21670043
0.57875311 -0.035493255 -0.23738343
0.64196813 -0.029455602 -0.2180599
0.66513526 -0.045006812 -0.20095247
-0.60220033 0.029456496 -0.2024188
-0.59144711 0.02969867 -0.22040188
0.59136307 0.031285346 -0.23742753
0.6427505 0.028533518 -0.21786255
0.66411054 0.021892607 -0.2042982
-0.60340291 0.089576423 -0.2015534
-0.59270757 0.089962661 -0.2249862
0.59071887 0.086192906 -0.23815858
0.64247739 0.086450934 -0.21430618
0.66245222 0.067924261 -0.19232088
-0.6027813 0.14635545 -0.20377868
-0.59150422 0.14819986 -0.22118378
0.5896821 0.14600635 -0.23819232
0.6397419 0.14807343 -0.21582747
0.66235828 0.13839126 -0.21212786
-0.60356367 0.20776546 -0.20368153
-0.59255743 0.19338977 -0.217843
0.59133232 0.20388567 -0.23932064
0.64225078 0.20633626 -0.21668655
0.66295421 0.19423223 -0.19510967
-0.60273486 0.26628292 -0.20094103
-0.5914858 0.27301705 -0.22750133
0.59185231 0.27288449 -0.23967624
0.64211607 0.26314414 -0.2167905
0.66226268 0.26632392 -0.19112968
-0.60300243 0.32813561 -0.20325041
-0.59126174 0.32407451 -0.22189808
0.59192801 0.31982589 -0.23972797
0.64364016 0.32572246 -0.21746713
0.66251731 0.3151933 -0.19226742
-0.60373175 0.38961899 -0.20482242
-0.59307712 0.37789214 -0.22096097
0.59129441 0.39455211 -0.23929483
0.64216959 0.38388038 -0.2169925
-0.60283142 0.44904053 -0.20284921
-0.59251601 0.45095897 -0.22849166
0.59442341 0.44891179 -0.2397998
0.63966691 0.44536436 -0.21420342
-0.60317755 0.50588262 -0.20479935
-0.593027 0.5077498 -0.23076797
0.59018743 0.50265443 -0.23853791
0.6404624 0.50702262 -0.21593225
-0.60437518 0.56414831 -0.20520258
0.59313762 0.57666183 -0.23278421
0.63346648 0.56676471 -0.21548557
-0.60428816 0.62514722 -0.20894819
-0.59329271 0.61251187 -0.2351917
0.53426862 0.62072039 -0.23950481
0.57918227 0.62003326 -0.23804551
0.63606429 0.6265502 -0.21411753
-0.6033802 0.68445277 -0.20188457
-0.59280109 0.68874598 -0.22702104
0.64137363 0.68361259 -0.21297711
-0.60371435 0.73373294 -0.20197809
-0.59139347 0.73661792 -0.22881299
0.64124072 0.73555827 -0.21065736
-0.59673965 -0.60880023 -0.15704918
-0.56555581 -0.61924171 -0.15272057
-0.50425923 -0.62468052 -0.1519469
-0.44169492 -0.62639922 -0.15113366
-0.38076106 -0.62727982 -0.15256238
-0.32304668 -0.62755078 -0.1525417
-0.26338643 -0.62699866 -0.15245008
-0.20356786 -0.62608606 -0.15174764
-0.14390832 -0.62584257 -0.15152723
-0.085680068 -0.625646 -0.15531206
-0.024113536 -0.62551105 -0.15345353
0.030505061 -0.62526762 -0.15206897
0.095037282 -0.62483776 -0.15336907
0.15458244 -0.62429035 -0.15356678
0.21507061 -0.62445313 -0.1498118
0.27527738 -0.62388611 -0.15398192
0.33320284 -0.62318933 -0.15359211
0.38986039 -0.6224727 -0.15362197
0.45322657 -0.62272799 -0.15009046
0.51654088 -0.62248409 -0.15077704
0.57244956 -0.62295389 -0.15358704
0.63417339 -0.61819321 -0.15306652
0.66841674 -0.60282898 -0.166278
-0.60259718 -0.57037389 -0.14714622
-0.59249771 -0.57315493 -0.16412717
0.65519583 -0.56819844 -0.14404953
0.6658498 -0.57257789 -0.151788
-0.60300428 -0.50918961 -0.14486009
-0.59187496 -0.51414347 -0.16615766
0.6549598 -0.51646638 -0.14670473
0.66498601 -0.50955117 -0.14824855
-0.60336089 -0.44920594 -0.14619946
-0.59211397 -0.44694498 -0.1720975
0.65384459 -0.45770755 -0.14514345
0.6657424 -0.45392144 -0.14988482
-0.60400146 -0.39161038 -0.14799815
-0.59288901 -0.38893381 -0.17732596
0.65368938 -0.39417705 -0.14520586
0.66432893 -0.3913804 -0.15064758
-0.60375357 -0.33082473 -0.14490008
-0.59362382 -0.33396828 -0.17313719
0.65378642 -0.33358771 -0.14457798
0.66524732 -0.3313579 -0.14970529
-0.60521698 -0.27145529 -0.14684874
-0.59312189 -0.28527343 -0.17499292
0.65486693 -0.26652998 -0.14642197
0.66560698 -0.27734601 -0.15182257
-0.60633391 -0.21285504 -0.14763308
0.65607679 -0.21185523 -0.14892805
0.66529334 -0.20981818 -0.14921117
-0.60788584 -0.15346605 -0.14843792
-0.59261644 -0.17217863 -0.17835057
0.65424144 -0.15243363 -0.14880091
0.664747 -0.15443957 -0.14942938
-0.60795081 -0.093373775 -0.14566946
-0.59394586 -0.10917705 -0.17458916
0.65496504 -0.09318471 -0.14727575
0.66418469 -0.099051118 -0.14926016
-0.60631585 -0.034124553 -0.14761889
0.65439653 -0.032813609 -0.14773166
0.66380203 -0.045858324 -0.14851695
-0.60810417 0.022943974 -0.1479941
0.65205312 0.025753379 -0.14791656
0.66322112 0.018626392 -0.15058839
-0.6073972 0.085689008 -0.14891666
0.65262663 0.085410058 -0.14625317
0.66253972 0.083129525 -0.15094692
-0.60511512 0.1464771 -0.14508438
-0.59237713 0.15452003 -0.1718443
0.65037739 0.1461705 -0.14930713
0.66314232 0.12676597 -0.16664678
-0.6105085 0.20890272 -0.15015316
-0.59297889 0.17958963 -0.17923814
0.65085137 0.20486605 -0.1480974
0.66214967 0.2027905 -0.1696955
-0.61134964 0.26633859 -0.14758408
0.65378773 0.26502156 -0.14857078
-0.60851419 0.32556486 -0.14796305
0.65123212 0.32680738 -0.14956868
-0.60897589 0.38850474 -0.14707845
0.65195918 0.38763416 -0.14833492
-0.61072642 0.44632041 -0.14827162
0.65034044 0.44494689 -0.14884108
-0.61002529 0.5046699 -0.14446926
0.6485666 0.50634396 -0.14739692
-0.60902184 0.56500733 -0.15129
0.64304078 0.56534266 -0.15634894
-0.61024463 0.62622583 -0.14910173
0.59011245 0.62937069 -0.17675704
0.64159596 0.62542975 -0.15267634
-0.60911244 0.68898273 -0.14907426
0.58644736 0.65970683 -0.17620635
0.64510238 0.68222594 -0.15104419
-0.60859442 0.73744822 -0.14423996
0.64722908 0.73415923 -0.15225518
-0.60174543 -0.60972679 -0.096787274
-0.56456125 -0.62178487 -0.096679688
-0.50263679 -0.62426674 -0.096398771
-0.44063836 -0.62657535 -0.089646041
-0.38060698 -0.62723416 -0.090920269
-0.32347113 -0.62710786 -0.090573728
-0.26265991 -0.62694633 -0.092190266
-0.20251548 -0.62626123 -0.091457427
-0.14531738 -0.62592351 -0.09159708
-0.085950136 -0.6256243 -0.091359198
-0.024365127 -0.62560123 -0.091272473
0.031096637 -0.62506789 -0.091290891
0.094062805 -0.62470353 -0.095178306
0.15436184 -0.62429595 -0.094720244
0.214867 -0.62400967 -0.094127059
0.27435184 -0.62371051 -0.094306469
0.33225644 -0.6234318 -0.094635725
0.38981867 -0.62344688 -0.093929172
0.45272923 -0.62334728 -0.092992365
0.51447928 -0.62294543 -0.093907535
0.57374561 -0.62363052 -0.098058879
0.63409281 -0.61785018 -0.09699738
-0.60704786 -0.57117534 -0.087061167
-0.59376776 -0.57936627 -0.11217427
0.65325105 -0.57034391 -0.090859652
0.66407275 -0.58037293 -0.10049295
-0.60972136 -0.51218092 -0.088848531
0.65497625 -0.51321036 -0.086424232
0.66416955 -0.50743127 -0.099221408
-0.61104769 -0.45277742 -0.088269353
0.65524244 -0.44731694 -0.086231232
0.66437399 -0.45170289 -0.10070938
-0.60994965 -0.39324251 -0.090439916
0.65563643 -0.39078224 -0.091527581
0.66432071 -0.3925584 -0.096458435
-0.61102819 -0.3322041 -0.088854074
0.6543721 -0.33869272 -0.085672796
0.66469932 -0.32414705 -0.10350907
-0.6120888 -0.27166969 -0.08969903
0.6535362 -0.27182168 -0.088667035
0.66315675 -0.27505839 -0.096797228
-0.61283189 -0.21230954 -0.08990258
0.65370297 -0.21262074 -0.090641975
0.6624912 -0.20698994 -0.10022402
-0.61422992 -0.15228176 -0.090097964
0.65326262 -0.15209037 -0.091586113
-0.61586821 -0.091736615 -0.090439439
0.65225208 -0.093162417 -0.089200675
-0.61500627 -0.026659369 -0.091579258
0.65172815 -0.035459816 -0.087661088
0.66212964 -0.020445824 -0.11928761
-0.61544096 0.030814409 -0.091710091
0.65078545 0.026139259 -0.088376641
-0.61668473 0.087941051 -0.091189206
0.65009558 0.086457908 -0.08946538
-0.61344165 0.14939708 -0.090774179
0.65001917 0.14535385 -0.088408768
-0.61771923 0.20578623 -0.090153277
0.64975584 0.20588684 -0.087518871
-0.61998451 0.26782143 -0.089211345
0.64807236 0.2666831 -0.085729122
-0.61679864 0.3278296 -0.088731647
0.64805353 0.32749045 -0.088732958
-0.61685979 0.38550031 -0.089039624
0.64625168 0.38566101 -0.085821033
-0.61771679 0.4427731 -0.08801651
0.64560294 0.44219124 -0.0871225
-0.61711287 0.50499403 -0.08850652
0.64708388 0.50521839 -0.090178013
-0.61570442 0.56844521 -0.093038619
0.64620495 0.56772363 -0.091313362
-0.61603272 0.62530029 -0.092359304
0.64415824 0.62325263 -0.095948756
-0.61646616 0.68377006 -0.092250943
0.64426625 0.68293011 -0.092825592
-0.61477625 0.73638618 -0.090933144
0.64201117 0.73549378 -0.091164172
-0.60481733 -0.60870218 -0.037073851
-0.56373882 -0.62247181 -0.037378192
-0.50476944 -0.62439841 -0.036539018
-0.4403623 -0.62660313 -0.032625914
-0.38024914 -0.62712204 -0.032987356
-0.32362646 -0.62703472 -0.033048749
-0.26363736 -0.62702799 -0.033155143
-0.20312518 -0.62634599 -0.033264697
-0.14351147 -0.62567586 -0.032291591
-0.08359015 -0.62416834 -0.032486618
-0.025139928 -0.62477005 -0.032693684
0.032291532 -0.62497878 -0.037768543
0.093737364 -0.62445742 -0.039114237
0.15410244 -0.62376064 -0.038846016
0.21465385 -0.62346566 -0.03474474
0.27586734 -0.62321484 -0.036293685
0.33369005 -0.62330496 -0.035689175
0.39071202 -0.62294722 -0.037583411
0.45490229 -0.62295997 -0.036218226
0.51579702 -0.62289178 -0.039487243
0.57253456 -0.62298405 -0.037759244
0.63180029 -0.61577272 -0.037738502
-0.61553562 -0.57041585 -0.028759897
0.65286994 -0.57196838 -0.038143575
-0.6177507 -0.51011145 -0.026948094
0.65089285 -0.51090682 -0.033987403
-0.61724639 -0.45183796 -0.031984985
0.65216827 -0.4502286 -0.036576569
0.66258001 -0.45709941 -0.053142905
-0.61961901 -0.3908163 -0.029668748
0.6517874 -0.38902429 -0.034146011
0.66245449 -0.41303524 -0.052564919
-0.62045652 -0.33159328 -0.032907426
0.65197968 -0.33045036 -0.035590053
-0.62022531 -0.27197278 -0.029964209
0.65019798 -0.2733568 -0.036269486
-0.62012303 -0.21169573 -0.031956196
0.65022945 -0.21435398 -0.036738396
-0.62203377 -0.15012556 -0.031128883
0.64816308 -0.15077841 -0.035943151
-0.62324965 -0.092569351 -0.031760871
0.64752913 -0.091462135 -0.034988105
-0.62408733 -0.032529593 -0.030517042
0.64773488 -0.028780699 -0.034072995
-0.6245175 0.027996421 -0.033053935
0.64709055 0.031113505 -0.033340096
-0.62506497 0.086335063 -0.030872345
0.64703131 0.088168979 -0.03338784
-0.62176955 0.14579183 -0.031090736
0.6453383 0.14684194 -0.031890213
-0.62437427 0.20725822 -0.031442761
0.64452267 0.20903993 -0.032814205
-0.62749231 0.26502442 -0.032636464
0.64228463 0.26825881 -0.027673841
-0.6245867 0.32567406 -0.030745506
0.6427635 0.32603633 -0.028261185
-0.62599778 0.38701725 -0.031899869
0.64085281 0.38629854 -0.027861416
-0.62478036 0.44741058 -0.030072689
0.64214993 0.44602549 -0.028416991
-0.62548566 0.50648177 -0.02993232
0.64012492 0.50617111 -0.028528333
-0.62378138 0.56363857 -0.033367574
0.63879395 0.56672156 -0.032051265
-0.62349153 0.62627888 -0.031758308
0.63850546 0.62497973 -0.029860377
-0.62238777 0.68621433 -0.032255769
0.63725722 0.6878413 -0.032777607
-0.62373853 0.7343756 -0.030156851
0.63606524 0.73638475 -0.036191106
-0.60719806 -0.61354518 0.024076283
-0.56338751 -0.62277561 0.026941478
-0.50401646 -0.62416458 0.026744962
-0.44026661 -0.62634611 0.026537895
-0.37992102 -0.62698513 0.026811957
-0.32318962 -0.62692118 0.02668798
-0.26310056 -0.62657714 0.026776969
-0.20252174 -0.62635392 0.027160764
-0.14079785 -0.62349659 0.026421845
-0.088295102 -0.61754739 0.027364254
-0.027708054 -0.61597526 0.025860369
0.035482228 -0.61686206 0.024748445
0.093982756 -0.61770302 0.023200929
0.15010536 -0.62009948 0.024811208
0.21555591 -0.6234405 0.028104365
0.27598214 -0.62369722 0.030108452
0.33456075 -0.62385988 0.027565658
0.3918277 -0.62284219 0.029127598
0.45373619 -0.62283474 0.028059006
0.51416898 -0.62221211 0.026776791
0.57254338 -0.62232488 0.025484264
0.62851501 -0.6159088 0.024980724
-0.62378144 -0.57398868 0.03021729
0.64657974 -0.57225162 0.025297284
-0.62472284 -0.51258129 0.027500451
0.64691818 -0.51180303 0.022897959
-0.62679023 -0.4517186 0.029496253
0.64591789 -0.45133796 0.02628392
-0.6275264 -0.39282089 0.028462827
0.64677119 -0.39288917 0.02427721
-0.62876737 -0.33378142 0.031107843
0.64609993 -0.33160633 0.026229024
-0.6288169 -0.27313858 0.029025555
0.64440155 -0.26904982 0.023814738
-0.62888998 -0.21254492 0.028216362
0.64443266 -0.21073747 0.025244296
-0.63023895 -0.15093249 0.030578494
0.64236271 -0.15081233 0.024369001
-0.63246506 -0.090689778 0.031136036
0.64329243 -0.090117693 0.024917364
-0.63233674 -0.030220687 0.028247714
0.64271474 -0.027014792 0.024887621
-0.63280129 0.029957354 0.0300529
0.64154243 0.030638456 0.026075244
-0.63350046 0.089114189 0.029553413
0.64135039 0.085579693 0.025879085
-0.628874 0.14705068 0.028490424
0.640414 0.14723647 0.024298847
-0.63316751 0.20830238 0.027211964
0.6389854 0.20715439 0.022643745
-0.63182831 0.26413226 0.026391625
0.63908672 0.26559293 0.027965486
-0.63336164 0.3243947 0.027619541
0.6381973 0.3260535 0.027185977
-0.63275999 0.38625073 0.025067925
0.6374197 0.38667893 0.026008427
-0.63285935 0.44811022 0.0279091
0.63574469 0.44992709 0.028074443
-0.63014686 0.50644863 0.02795428
0.63440025 0.50511456 0.028922737
-0.63139915 0.56558752 0.026492238
0.63404167 0.56293666 0.029969513
-0.6303823 0.62389517 0.026452243
0.63300824 0.62592471 0.029957652
-0.62915099 0.68542635 0.031185329
0.633389 0.68659115 0.027658403
-0.6283201 0.73217785 0.027658761
0.63179874 0.73460555 0.029187202
-0.61394608 -0.61361074 0.089895129
-0.56519157 -0.62408429 0.089768171
-0.50446057 -0.62428504 0.09270221
-0.44120103 -0.62668645 0.090099692
-0.37885654 -0.62707257 0.089241803
-0.32255483 -0.62688136 0.09214735
-0.26169521 -0.6266917 0.092095017
-0.20250601 -0.62631571 0.092372894
-0.14563298 -0.6269564 0.090030611
-0.08690691 -0.62344563 0.090558767
-0.027618408 -0.6144926 0.087674499
0.035046697 -0.61208659 0.086363375
0.096529186 -0.61643434 0.090759039
0.1528337 -0.62177587 0.093354166
0.21385705 -0.62385851 0.093816698
0.27432775 -0.62416863 0.095316887
0.33147597 -0.62380779 0.093188226
0.38983023 -0.62321377 0.09477824
0.45269144 -0.6231854 0.09388268
0.51456881 -0.62247062 0.094862461
0.57280111 -0.62218845 0.089924335
0.62695193 -0.61353731 0.08789283
-0.62966526 -0.56992257 0.085184991
0.63917375 -0.56774604 0.084978104
-0.63302624 -0.50838178 0.088596821
0.64106095 -0.51108193 0.088167608
-0.63423496 -0.45253143 0.089243591
0.64077353 -0.45274577 0.087634146
-0.63424373 -0.39364833 0.091928184
0.64102471 -0.39225915 0.086988628
-0.63521135 -0.33335984 0.089955091
0.63985288 -0.33238035 0.087235451
-0.63589072 -0.27245486 0.091685355
0.63923335 -0.27113992 0.085678935
-0.63783723 -0.21003604 0.09130913
0.63817894 -0.21160609 0.085898995
-0.63828599 -0.15016973 0.09062165
0.63735902 -0.15247381 0.086195052
-0.63971686 -0.090659559 0.092104733
0.63641238 -0.094099581 0.087446153
-0.63970155 -0.032820582 0.092741549
0.63497365 -0.034691989 0.08748126
-0.63946033 0.025478482 0.091845512
0.63587654 0.02361834 0.088917613
-0.64186376 0.087134182 0.093842447
0.63446319 0.086243629 0.089356124
-0.64008391 0.14795196 0.090191782
0.63576889 0.14814395 0.086858988
-0.6416496 0.20777714 0.090946674
0.63496566 0.20889628 0.086194873
-0.63893867 0.26932406 0.09197861
0.6340152 0.26824367 0.086801946
-0.639979 0.3286649 0.091149271
0.6325742 0.32830477 0.087207973
-0.64060241 0.38703847 0.09030354
0.63182425 0.39030647 0.084346592
-0.63902265 0.44441366 0.089701891
0.6294961 0.44608712 0.086615145
-0.63894105 0.50427651 0.089076579
0.62857699 0.50606024 0.088916898
-0.63950235 0.56556869 0.089560568
0.62849009 0.56607592 0.088309109
-0.63678259 0.62485695 0.090713143
0.62737787 0.62618995 0.091693282
-0.63824528 0.68509638 0.093757629
0.62560225 0.68443048 0.092817008
-0.63504857 0.73586726 0.089627683
0.62506366 0.73460686 0.090716779
-0.61242849 -0.61326051 0.13973153
-0.56301081 -0.62508297 0.15016162
-0.50392556 -0.62568498 0.15262222
-0.4410111 -0.62646872 0.15123409
-0.38140756 -0.62622386 0.15148884
-0.32297719 -0.62608773 0.15380251
-0.26384896 -0.62609267 0.15110135
-0.20141929 -0.62545061 0.15114772
-0.14590758 -0.62584895 0.14822036
-0.085532725 -0.62692195 0.15148705
-0.022459328 -0.6270172 0.15199953
0.033430636 -0.62512743 0.14729363
0.094262123 -0.6287123 0.15122396
0.15544683 -0.62771797 0.15047652
0.21513379 -0.6245234 0.15068126
0.27559423 -0.62396288 0.15165842
0.33325183 -0.62403482 0.15401483
0.38992906 -0.62371421 0.15359443
0.45364237 -0.62289798 0.15306014
0.51587462 -0.62210596 0.15322685
0.57340884 -0.62117857 0.14870465
0.62190437 -0.61168414 0.14410496
-0.63483083 -0.57136953 0.14744729
0.63404095 -0.57366049 0.14787024
-0.63951242 -0.51426625 0.14789027
0.63404977 -0.51166129 0.14809513
-0.639956 -0.45222756 0.14766735
0.63565922 -0.44993913 0.14727151
-0.64213073 -0.38864794 0.1467644
0.63394666 -0.39357555 0.1484291
-0.64348495 -0.32958925 0.14638901
0.63299906 -0.33188212 0.14584202
-0.65443677 -0.25752872 0.17117429
-0.64431751 -0.27198321 0.14749897
0.63328588 -0.27371824 0.14653742
-0.65590417 -0.21278971 0.17654234
-0.64543653 -0.2108103 0.1475212
0.63290215 -0.21435416 0.14630139
-0.65587372 -0.15958208 0.17071545
-0.64378726 -0.15286791 0.15048546
0.63249004 -0.15466726 0.14854097
-0.6560688 -0.10238957 0.1693368
-0.64612919 -0.092739463 0.14838731
0.63051856 -0.093960702 0.14653629
-0.65618747 -0.030250728 0.16213596
-0.64643031 -0.03392309 0.1492548
0.62939131 -0.033690989 0.14858109
-0.65698761 0.020310998 0.16475409
-0.64581978 0.024901867 0.15038067
0.62974036 0.027220845 0.147645
-0.65653348 0.092392743 0.16351962
-0.64648527 0.081480622 0.14916253
0.62937641 0.090554297 0.14758694
-0.65547132 0.13864022 0.15250307
-0.64549804 0.1476227 0.14849204
0.62977421 0.14765745 0.1461544
-0.65583014 0.19646144 0.15436047
-0.64590585 0.2083391 0.15006721
0.62750518 0.20572913 0.14806491
-0.65655529 0.25960636 0.16014373
-0.64684784 0.26705861 0.1504029
0.62718797 0.26507342 0.14895397
-0.65580964 0.32821584 0.16315544
-0.64543432 0.32588565 0.15022576
0.62561274 0.32423019 0.150554
-0.65634686 0.38698888 0.15732843
-0.64592284 0.38656473 0.15168256
0.62374532 0.3854419 0.15006918
-0.65637934 0.44865191 0.17095429
-0.645859 0.44571888 0.14889163
0.62424743 0.44509971 0.15145123
-0.65448689 0.50599301 0.15887862
-0.64548451 0.50480235 0.14861959
0.62276423 0.50604868 0.14836836
-0.65552688 0.55593252 0.14925534
-0.64487702 0.5683465 0.14487308
0.62191284 0.56776834 0.14883882
-0.65532941 0.64487505 0.16130877
-0.64346784 0.62871122 0.14803398
0.61970782 0.62634623 0.15404886
-0.64356172 0.68394387 0.15046936
0.57691014 0.69645941 0.16829008
0.62032735 0.68688679 0.14852548
-0.64238656 0.73670745 0.15090525
0.56487417 0.71517646 0.17502195
0.61974967 0.73548412 0.15012604
-0.60576105 -0.61170948 0.20197153
-0.56600112 -0.62400377 0.20721477
-0.50767732 -0.62750745 0.21023661
-0.44524083 -0.62720799 0.21145457
-0.38144878 -0.62720042 0.21168464
-0.32417476 -0.62630028 0.20867342
-0.26210386 -0.62548304 0.20835596
-0.20471048 -0.62522137 0.21006089
-0.14597982 -0.62473881 0.20993209
-0.082952082 -0.6231792 0.21207863
-0.024838626 -0.62287104 0.21145654
0.033049762 -0.62288189 0.21204925
0.095396519 -0.62331462 0.21053612
0.15386814 -0.62346411 0.21093088
0.21602595 -0.62438774 0.21046633
0.27659762 -0.62408453 0.20860684
0.33365393 -0.62350821 0.20942527
0.39072967 -0.6226753 0.21038789
0.45269799 -0.62225842 0.21161449
0.5147028 -0.62123901 0.20915842
0.57403553 -0.62035209 0.20377058
0.61923647 -0.61253941 0.20410764
-0.62579298 -0.57567257 0.21040773
-0.57914782 -0.5712558 0.23537749
0.62790167 -0.5737415 0.20416522
-0.65427935 -0.48349905 0.21705312
-0.63651228 -0.51274782 0.2111755
-0.58709776 -0.50610727 0.23625189
0.6287241 -0.50995767 0.20343322
-0.65677059 -0.4424381 0.21498263
-0.63714492 -0.44823167 0.20974416
-0.58711463 -0.45549917 0.236803
0.6293354 -0.45180246 0.20605332
-0.65821886 -0.40087512 0.21285188
-0.63620448 -0.39035854 0.21205813
-0.56784332 -0.38913143 0.23564142
-0.52000856 -0.38380149 0.23716015
0.62839234 -0.39026466 0.20504135
-0.65562856 -0.32867593 0.19396842
-0.63709444 -0.33497089 0.21025765
-0.5656513 -0.33117998 0.23437935
-0.52459002 -0.32809561 0.23656851
0.62697208 -0.32910246 0.20868331
-0.65655434 -0.26967508 0.19158292
-0.6361447 -0.27182609 0.21356809
-0.56927931 -0.27622545 0.23363334
-0.51365113 -0.27404416 0.23545331
-0.46843776 -0.25225019 0.23802239
0.62568915 -0.27209097 0.20843613
-0.65685612 -0.21471936 0.21081394
-0.63467824 -0.21207726 0.21373534
-0.5646928 -0.21216798 0.23438162
-0.50755721 -0.21389872 0.23515791
-0.46749368 -0.20932603 0.23740834
0.62426972 -0.21032065 0.20846856
-0.65732139 -0.15942591 0.20674402
-0.63435125 -0.15389305 0.21483153
-0.56202006 -0.15321738 0.23186761
-0.50758684 -0.14918286 0.23441643
-0.46240655 -0.14278841 0.23696381
0.62433457 -0.14957058 0.20808387
-0.6568169 -0.10365647 0.2029286
-0.63205308 -0.093919337 0.21543324
-0.56815088 -0.091691256 0.23048359
-0.50979847 -0.09162575 0.23366743
-0.46720687 -0.10171306 0.23688632
0.62324107 -0.090827584 0.209714
-0.65776926 -0.038456082 0.2015543
-0.63244277 -0.031876385 0.21443987
-0.56343615 -0.030967832 0.22698361
-0.50324547 -0.02782613 0.23247713
-0.44961745 -0.020540118 0.23703426
0.62345099 -0.028646052 0.20884609
-0.65814912 0.030213475 0.19660842
-0.62987375 0.02567488 0.21871704
-0.56325102 0.029080093 0.2289719
-0.50254583 0.031071126 0.23143333
-0.44448173 0.027004778 0.23463112
-0.39426407 0.020582318 0.23593384
0.62341952 0.031445265 0.2090323
-0.6570791 0.085672081 0.19095016
-0.63492978 0.087080538 0.21599001
-0.56878591 0.086307704 0.22670227
-0.50458467 0.089708984 0.22974247
-0.44706905 0.085783362 0.2356177
-0.40307054 0.085896254 0.23757821
0.62126088 0.089141905 0.20779079
-0.657179 0.14158839 0.19132513
-0.63086909 0.14908743 0.21850532
-0.56235266 0.14649731 0.22645992
-0.50305152 0.14939439 0.22965175
-0.44417614 0.14626628 0.23339623
-0.39014721 0.15077078 0.23708218
0.62105656 0.14542949 0.21036363
-0.65717202 0.20027733 0.19008362
-0.63331264 0.20818818 0.2167787
-0.56476223 0.20778072 0.22427255
-0.5006423 0.20927143 0.22793299
-0.43903452 0.21009326 0.23162025
-0.38521931 0.21092093 0.23689657
0.61988735 0.20625186 0.20612276
-0.65671468 0.25631189 0.19717467
-0.63178903 0.26805115 0.21451032
-0.56765616 0.27001524 0.22600812
-0.50553584 0.26754928 0.22720927
-0.44640118 0.26867545 0.22950524
-0.3845894 0.26622164 0.23531741
0.61825705 0.26775992 0.20977879
-0.65670675 0.32403684 0.2036069
-0.63196492 0.3284744 0.21353871
-0.56512892 0.3288424 0.22211844
-0.50647968 0.32843697 0.22450191
-0.44419277 0.32481444 0.23181671
-0.39039692 0.32287991 0.23570043
-0.33643693 0.30535412 0.23837608
0.61727226 0.32471216 0.21460354
-0.6570676 0.38848746 0.1993171
-0.63075864 0.38751364 0.21529371
-0.5666312 0.38862157 0.21708387
-0.50325668 0.38531411 0.22496682
-0.44057867 0.38233685 0.23018581
-0.38411865 0.38855684 0.23513323
-0.33348399 0.40537763 0.23658234
0.61687481 0.38378656 0.21230221
-0.65743232 0.4333483 0.19556344
-0.62821627 0.44624531 0.21490836
-0.56792247 0.44666183 0.22031027
-0.50536621 0.4451766 0.22410089
-0.44353801 0.44248343 0.22994214
-0.38184771 0.44327664 0.23453432
-0.33095241 0.45214355 0.23641032
-0.27198243 0.47515082 0.23751122
0.61564791 0.44605243 0.21323752
-0.65578151 0.50351059 0.19631237
-0.63101238 0.50513685 0.20905459
-0.56641847 0.50718415 0.21580875
-0.50733614 0.50749552 0.22352678
-0.4516134 0.50647211 0.2285977
-0.38047698 0.49853051 0.23332435
-0.3219651 0.50058484 0.23607451
0.61631918 0.50801265 0.21006912
-0.6557771 0.56379247 0.19314098
-0.62836295 0.56738281 0.20787072
-0.56594026 0.56834066 0.2141313
-0.50581217 0.56597102 0.22340161
-0.4439072 0.56903303 0.22731358
-0.38335785 0.56568086 0.23032945
-0.32575482 0.5687604 0.23578507
-0.26404208 0.5921495 0.23780257
0.61403394 0.56561887 0.20981526
-0.6544314 0.62846315 0.19191325
-0.62781602 0.62265098 0.20821059
-0.56355274 0.62383389 0.21645296
-0.50770736 0.62164247 0.2236765
-0.4477157 0.62370002 0.22788602
-0.39108405 0.62419748 0.23031074
-0.32757664 0.62685168 0.23305279
-0.28029233 0.62680805 0.23583466
0.61407197 0.62128794 0.21379548
-0.65415239 0.67668712 0.19521606
-0.6264565 0.68679678 0.20721394
-0.56297195 0.68481576 0.21438336
-0.50483578 0.68524635 0.22419816
-0.4445703 0.68294251 0.22949737
-0.38253456 0.68051362 0.2334705
-0.32108694 0.67994368 0.23505765
0.57196045 0.7056334 0.18666118
0.61428905 0.68343019 0.21013778
-0.62378573 0.73587537 0.20604831
-0.55819142 0.73827481 0.20727593
-0.50306022 0.73517752 0.22063279
-0.44599476 0.73511672 0.22907466
-0.3841939 0.73421979 0.23478061
-0.32734495 0.73816836 0.23694676
0.58263707 0.73752344 0.21823293
0.61281323 0.7360605 0.21185625
-0.60577613 -0.60214621 0.24934918
-0.55579281 -0.61233461 0.24913436
-0.50238055 -0.61588454 0.25173992
-0.44075429 -0.61664772 0.25615782
-0.37958327 -0.61821264 0.25907332
-0.3224768 -0.62196624 0.25978547
-0.26298112 -0.62149113 0.26338953
-0.20449561 -0.61891866 0.27090412
-0.14683104 -0.62000191 0.27188903
-0.080874562 -0.6215843 0.26867133
-0.024271309 -0.62197739 0.2703014
0.030753851 -0.6226669 0.26971453
0.091177106 -0.62316203 0.26852459
0.15247685 -0.62296146 0.27162617
0.21419477 -0.62376261 0.27190655
0.27524364 -0.6239959 0.27219647
0.33317769 -0.62346667 0.26740676
0.39105356 -0.62216866 0.26887089
0.45439529 -0.62343949 0.27005821
0.51605594 -0.62114465 0.26789182
0.57013881 -0.61946857 0.26353627
0.61427963 -0.61073899 0.26556462
-0.61616641 -0.56207192 0.24380058
-0.56109357 -0.57644695 0.24676079
-0.50409567 -0.56884521 0.25360781
-0.44136211 -0.5716691 0.26072747
-0.38285354 -0.57041574 0.26523334
-0.32587659 -0.57421005 0.2729817
-0.26832813 -0.57486993 0.27929682
-0.20626873 -0.56756711 0.28345424
-0.14619607 -0.5685581 0.28614825
-0.090724289 -0.56643665 0.28997761
-0.028218627 -0.57160068 0.29425865
0.024349391 -0.54574239 0.29725951
0.62251103 -0.56865418 0.26438719
-0.61527139 -0.5089491 0.24643844
-0.56157708 -0.51001912 0.24623066
-0.50346541 -0.51447225 0.25428015
-0.44150954 -0.51150078 0.25862855
-0.38368538 -0.5111028 0.2644915
-0.32642382 -0.51393163 0.27139276
-0.2659052 -0.5095107 0.2755
-0.20719779 -0.50876963 0.27912325
-0.15098912 -0.51191974 0.2853263
-0.093897879 -0.50829983 0.28951854
-0.022248685 -0.50944889 0.29186207
0.028576314 -0.50524938 0.29568213
0.621189 -0.51528931 0.26771563
-0.61921227 -0.4460358 0.24552852
-0.56195402 -0.45089313 0.24579722
-0.50667048 -0.45178717 0.25138885
-0.4428528 -0.4540405 0.25735241
-0.38263819 -0.45397568 0.26149946
-0.32352531 -0.4525933 0.26578909
-0.26439971 -0.44666064 0.27197403
-0.20607001 -0.44772398 0.27763051
-0.15108937 -0.45079932 0.28639287
-0.095106959 -0.45121059 0.28950983
-0.025735915 -0.45059493 0.29210418
0.032910347 -0.44655815 0.2943005
0.086678088 -0.44688445 0.295044
0.62142813 -0.45279238 0.26468188
-0.61225557 -0.38775644 0.24490708
-0.56359637 -0.38566098 0.24608022
-0.50010204 -0.39137772 0.24900979
-0.44307598 -0.3929562 0.25567955
-0.38212815 -0.39555556 0.2609604
-0.32289469 -0.39395797 0.26575238
-0.26295036 -0.39313483 0.27035874
-0.20283324 -0.38910282 0.27310604
-0.15076762 -0.3883515 0.27967769
-0.093753219 -0.39010933 0.28844231
-0.023942888 -0.39553949 0.29211706
0.03532058 -0.38654929 0.29521257
0.079907656 -0.36939049 0.2981295
0.6203953 -0.38945031 0.26730746
-0.61287224 -0.332955 0.24520987
-0.55794704 -0.32640254 0.24676996
-0.50314879 -0.33146018 0.24738079
-0.44210297 -0.33071142 0.25256354
-0.38144994 -0.33282274 0.25934511
-0.31990379 -0.33379561 0.26728445
-0.25985652 -0.33651227 0.27010041
-0.20597988 -0.3328892 0.27347058
-0.15347141 -0.32713592 0.28047711
-0.0921911 -0.32988912 0.28812104
-0.02485615 -0.33689159 0.29114515
0.027384579 -0.33695555 0.29386204
0.08011657 -0.34886265 0.29802984
0.61843872 -0.33357561 0.26976687
-0.61599183 -0.28068358 0.24201077
-0.56025672 -0.27312332 0.24797446
-0.50367063 -0.27448869 0.2450828
-0.44415018 -0.27195084 0.24836618
-0.38287121 -0.27050442 0.25562459
-0.32250446 -0.27302468 0.26035327
-0.2660715 -0.27102011 0.26440042
-0.21375006 -0.27258331 0.27046686
-0.15258098 -0.27103817 0.27956015
-0.085645318 -0.27152884 0.28405434
-0.026474595 -0.27229434 0.28970093
0.030304372 -0.26508451 0.29108673
0.092399538 -0.2490654 0.29472882
0.13334477 -0.25001436 0.29561907
0.61913228 -0.27298647 0.26871663
-0.61419559 -0.21170354 0.24395305
-0.56171334 -0.21468186 0.24664348
-0.49940953 -0.21910286 0.24664742
-0.44474545 -0.21293944 0.24762601
-0.38594136 -0.21490169 0.25300926
-0.32896376 -0.21293223 0.25689322
-0.27021849 -0.20954955 0.26070803
-0.20626718 -0.21015143 0.26568824
-0.14378971 -0.21293986 0.27632517
-0.082149267 -0.21554267 0.28020483
-0.027848661 -0.21260554 0.28645915
0.03554368 -0.21020174 0.28892142
0.096269786 -0.20713198 0.2909779
0.13737726 -0.20686781 0.29420334
0.61789393 -0.20905751 0.26820546
-0.61022317 -0.1565721 0.24348944
-0.55827165 -0.1479975 0.24435502
-0.50421941 -0.14923537 0.24634701
-0.44716021 -0.15341461 0.24678689
-0.39080718 -0.15488106 0.24993879
-0.33173454 -0.15263653 0.25602812
-0.26970518 -0.15278286 0.26071709
-0.20531136 -0.15298826 0.26410156
-0.14028603 -0.1517489 0.27588087
-0.080244362 -0.15242916 0.28392249
-0.02560997 -0.15596586 0.28665489
0.028841317 -0.15810108 0.29002148
0.09625864 -0.15275514 0.29057676
0.15414345 -0.14677054 0.29446381
0.61814642 -0.14959538 0.27012402
-0.62008369 -0.091636598 0.24186879
-0.54681206 -0.090814054 0.24537069
-0.51080585 -0.091070592 0.24505728
-0.44856134 -0.088766992 0.24899715
-0.39177999 -0.091522694 0.25246483
-0.32962662 -0.088927865 0.25744647
-0.26437247 -0.093463421 0.26153809
-0.20149523 -0.094775796 0.26324934
-0.14191538 -0.09357518 0.27144116
-0.082731783 -0.093123138 0.28244168
-0.025257707 -0.093160093 0.28732497
0.03205663 -0.095908701 0.28986436
0.094667912 -0.094354153 0.29135603
0.15101242 -0.091257691 0.29349452
0.19218314 -0.083070874 0.29480439
0.61669576 -0.094199896 0.27164727
-0.63193929 -0.035817385 0.24094051
-0.55351919 -0.032259285 0.24077779
-0.49855083 -0.032523751 0.24428087
-0.44705522 -0.037889004 0.24683517
-0.38407406 -0.032868087 0.25008637
-0.32311034 -0.030630708 0.25589722
-0.26475066 -0.035252154 0.26016206
-0.20193648 -0.036094666 0.26405483
-0.13910294 -0.034632981 0.27175337
-0.083663225 -0.034895062 0.28010052
-0.025403082 -0.033626378 0.28229946
0.034711063 -0.031017661 0.28736001
0.093149781 -0.035923004 0.29236299
0.1441083 -0.033838153 0.29424888
0.18591046 -0.035494566 0.29547209
0.6163193 -0.03436619 0.26872736
-0.6286571 0.022421062 0.24052626
-0.55334938 0.025913656 0.24197847
-0.49664623 0.028726041 0.24483854
-0.44372612 0.025910437 0.24835151
-0.38353667 0.026176631 0.24583989
-0.32381481 0.028406262 0.25059921
-0.26493174 0.02490586 0.25778478
-0.2018829 0.02500087 0.26195914
-0.139624 0.027797818 0.26975793
-0.082570791 0.027691483 0.27583891
-0.025812566 0.024018764 0.27739412
0.03353101 0.026675403 0.28596038
0.088435948 0.025479913 0.28851682
0.15074044 0.022989333 0.29297894
0.18770897 0.036399484 0.29495114
0.61587036 0.025021374 0.26777631
-0.62606096 0.0905599 0.23985559
-0.559708 0.088558495 0.24114507
-0.49906781 0.08660239 0.24443883
-0.45191589 0.085213423 0.24753565
-0.38942328 0.08442384 0.24611908
-0.32973117 0.087793946 0.250359
-0.26606345 0.090297639 0.25607497
-0.20308781 0.090611398 0.26249963
-0.14035428 0.08675462 0.26989692
-0.082663476 0.088282526 0.27422768
-0.023640037 0.083921671 0.27853483
0.030972719 0.083974957 0.28289932
0.08964777 0.088833869 0.287036
0.14772683 0.090780079 0.2901178
0.19827425 0.090060115 0.29439908
0.28246379 0.11137015 0.29770774
0.61358368 0.084066689 0.271887
-0.62754536 0.15201032 0.23925275
-0.5653131 0.12502086 0.2388193
-0.49192116 0.14458454 0.24393862
-0.43365377 0.15513611 0.24653274
-0.38514754 0.14414018 0.24538881
-0.33133018 0.14819318 0.24888867
-0.2671088 0.14564526 0.2543903
-0.20287538 0.14530933 0.2617783
-0.14507729 0.14803344 0.2649582
-0.085088134 0.14877468 0.2713533
-0.025730908 0.14491659 0.27785784
0.032529235 0.14679611 0.28368944
0.090042353 0.14828283 0.28883237
0.15270585 0.14853388 0.29005212
0.21108091 0.14732331 0.29427642
0.61408532 0.14615017 0.2702902
-0.62901318 0.20125914 0.23865634
-0.49551758 0.2101624 0.24142188
-0.43462679 0.20842075 0.24474663
-0.37907091 0.20608258 0.24757558
-0.32672781 0.20663273 0.25071877
-0.26912802 0.20130289 0.25458068
-0.20907694 0.20489335 0.25890404
-0.14694941 0.20912528 0.26375812
-0.084224641 0.20924282 0.26991624
-0.024539709 0.20598102 0.27707177
0.03450942 0.20611393 0.2832219
0.089180946 0.20586205 0.2876572
0.15227622 0.2058717 0.28976303
0.21242106 0.20987809 0.29434937
0.61398458 0.2035737 0.26843745
-0.62919933 0.27500892 0.23858136
-0.51960152 0.25207603 0.23928398
-0.43208519 0.26339078 0.24400312
-0.37525472 0.26360703 0.24719733
-0.32344562 0.26831472 0.24774605
-0.26410758 0.26812172 0.25329298
-0.20813203 0.2654773 0.25806302
-0.15089422 0.26801908 0.26317471
-0.0902794 0.26881206 0.26913065
-0.024969876 0.265293 0.27693754
0.031419754 0.26419365 0.2826001
0.090891659 0.2674042 0.28766292
0.15414321 0.26167631 0.28832918
0.21621561 0.26385581 0.29270989
0.60154784 0.24208009 0.29351193
0.61202776 0.26733661 0.26780039
-0.62864238 0.3241024 0.2388075
-0.43501487 0.32932401 0.24599189
-0.38435644 0.32503569 0.24482781
-0.325481 0.32736349 0.24681193
-0.26237375 0.32654798 0.25365311
-0.20705497 0.32532239 0.25612253
-0.15051425 0.32722068 0.26263171
-0.089253604 0.32654941 0.26911813
-0.021225631 0.32515156 0.27492124
0.032777131 0.32253861 0.27966172
0.094564736 0.32856965 0.28538483
0.15466863 0.32759774 0.28979129
0.21373701 0.32662821 0.29325181
0.27007234 0.32730305 0.29716367
0.57712221 0.35615313 0.29652995
0.61189723 0.32928443 0.27081734
-0.43559867 0.39779544 0.24346596
-0.37851572 0.38682282 0.24669534
-0.3250131 0.3840282 0.24627119
-0.26602352 0.38492429 0.25226706
-0.20164508 0.3889575 0.25671607
-0.1494472 0.38704622 0.26203448
-0.089868605 0.38713014 0.26630813
-0.02585572 0.38383687 0.27579445
0.032259166 0.3840183 0.28006405
0.094020247 0.38708544 0.28514069
0.15113944 0.38403738 0.28954607
0.21335113 0.39031613 0.29334384
0.26081765 0.38750577 0.29712528
0.59494984 0.38131034 0.29027683
0.60978508 0.38770223 0.26717323
-0.62903422 0.447034 0.23864847
-0.44013113 0.44741952 0.24371046
-0.37762681 0.4500109 0.24738652
-0.31682342 0.44500387 0.24575227
-0.26602924 0.44291484 0.2494399
-0.20080936 0.44768667 0.25885695
-0.14692605 0.45164442 0.2631883
-0.085080981 0.44944704 0.26818687
-0.024063408 0.44337547 0.27366513
0.034626484 0.44424868 0.2803039
0.092577159 0.44320273 0.28476661
0.14938724 0.44691908 0.28863651
0.2131393 0.44905305 0.29156858
0.26630783 0.456738 0.29493648
0.58831871 0.45064306 0.28296095
0.60916436 0.44434559 0.26323026
-0.62773675 0.4959656 0.23917478
-0.4749521 0.50966406 0.23858279
-0.43344864 0.5018177 0.24518448
-0.3725473 0.50944316 0.24701971
-0.31846178 0.50039065 0.24610716
-0.26570123 0.50403762 0.2474106
-0.20945156 0.50413883 0.2568962
-0.14699715 0.51079643 0.25954503
-0.088770092 0.50903046 0.26615208
-0.028619409 0.50619042 0.27089471
0.027610421 0.50509751 0.27677947
0.094940662 0.50243902 0.28490847
0.15175545 0.50337136 0.28785747
0.20985365 0.50753343 0.29146403
0.27034032 0.50739789 0.29357702
0.32101619 0.5202682 0.29770786
0.53717268 0.53027546 0.29814738
0.59790528 0.50481439 0.28155464
0.61057079 0.50284791 0.2641378
-0.43631211 0.53925467 0.24253958
-0.37507704 0.57080758 0.24356741
-0.31730962 0.56651199 0.24531728
-0.26199573 0.56390405 0.24814111
-0.20781547 0.56429243 0.25480539
-0.14567417 0.5690012 0.25949293
-0.089901686 0.57025564 0.26486653
-0.028253078 0.56803918 0.27214414
0.030214608 0.56742799 0.27750736
0.094685018 0.56456268 0.28369778
0.15085542 0.5683217 0.28479272
0.20689821 0.56341374 0.28993958
0.26703858 0.56447673 0.29378146
0.58942664 0.56858301 0.28589886
0.60975778 0.56615293 0.26514465
-0.38127372 0.62841225 0.24202448
-0.3243745 0.62471032 0.24458939
-0.26358247 0.62534165 0.24698442
-0.21068239 0.62357295 0.25013572
-0.14846104 0.62681913 0.25727874
-0.086237788 0.62873495 0.26111752
-0.027893007 0.62730789 0.26967174
0.035026908 0.62733793 0.27591377
0.092499256 0.62526858 0.28270262
0.15284312 0.62697947 0.28848308
0.21003878 0.62451625 0.29090649
0.26598477 0.63117683 0.29401284
0.33477509 0.62902904 0.29513437
0.59076452 0.62740529 0.28444463
0.60940588 0.62732303 0.26821321
-0.43180463 0.68489933 0.24165958
-0.3793608 0.68585801 0.24506849
-0.32031077 0.68545043 0.24772733
-0.26528001 0.68242157 0.2477842
-0.20973867 0.68260765 0.25583774
-0.14801896 0.6872884 0.25895852
-0.086595237 0.6884675 0.2646082
-0.029457688 0.68672228 0.27086669
0.030133188 0.68725419 0.27783996
0.093984127 0.68531704 0.28468198
0.15162504 0.6816206 0.28796738
0.21240449 0.67927086 0.29062408
0.26645541 0.67826951 0.29524249
0.59154189 0.69861865 0.27725691
0.61003888 0.68116987 0.26308423
-0.43952063 0.73082793 0.24080926
-0.37734115 0.73360455 0.24650782
-0.32311893 0.73136377 0.24609584
-0.26332587 0.73380923 0.25066668
-0.20797849 0.7351259 0.25618428
-0.14748615 0.73777509 0.25827748
-0.088687241 0.73759902 0.26466137
-0.02737993 0.73542333 0.27099699
0.036803961 0.73644507 0.2800445
0.093489766 0.73597991 0.28824991
0.15139973 0.73646855 0.29031807
0.21275842 0.74130607 0.29257005
0.27587998 0.74812651 0.29602486
0.32023835 0.75043476 0.29815942
0.58221853 0.73649418 0.27196985
0.61008251 0.73478103 0.26325351
-0.19938362 -0.60100365 0.29864544
-0.12197322 -0.60441834 0.29915959
-0.08633852 -0.60700154 0.30229384
-0.032835782 -0.61072332 0.3042689
0.041123152 -0.61163807 0.30823225
0.09292078 -0.61273783 0.30980188
0.15557253 -0.61473763 0.3111828
0.20994365 -0.61609674 0.31615692
0.27491713 -0.61270845 0.32269233
0.33327627 -0.61545205 0.32033616
0.39067638 -0.61582285 0.32290965
0.45370567 -0.61593127 0.32377034
0.51461005 -0.61739904 0.32583135
0.56845248 -0.61620331 0.3278262
0.60724151 -0.60811245 0.32110506
-0.19967777 -0.57954657 0.29851311
-0.1320138 -0.58718425 0.30170888
-0.084756136 -0.57385051 0.30309623
-0.026915133 -0.57216871 0.30687481
0.034170449 -0.57740539 0.30991942
0.093133748 -0.57420129 0.31556505
0.1534192 -0.57438135 0.321881
0.21047306 -0.56862211 0.3251223
0.27411234 -0.56539428 0.33374566
0.33251476 -0.57108402 0.33676404
0.39378679 -0.57258308 0.34519035
0.45466113 -0.57460952 0.35004371
0.50347352 -0.56991422 0.35147709
0.56617308 -0.56754041 0.35192877
