# .PCD v0.7 - Point Cloud Data file format
VERSION 0.7
FIELDS x y z normal_x normal_y normal_z curvature
SIZE 4 4 4 4 4 4 4
TYPE F F F F F F F
COUNT 1 1 1 1 1 1 1
WIDTH 572
HEIGHT 1
VIEWPOINT 0 0 0 1 0 0 0
POINTS 572
DATA ascii
-0.0034508836 -0.0017822793 0.15633143 0.039908353 -0.00038447775 -0.99920321 0
0.0019430806 -0.0076823025 0.15653755 0.038518198 0.00011501717 -0.99925792 0
0.018647209 -0.0068546124 0.15717587 0.038170934 8.4171574e-05 -0.99927121 0
0.029331258 -0.0070761535 0.15758413 0.038204256 9.5805524e-05 -0.99926996 1.834347e-06
0.037259698 -0.0050171609 0.15788709 0.038183324 -9.6484223e-07 -0.99927074 0
0.043848738 -0.0056055496 0.15813887 0.03817476 8.8354107e-05 -0.99927104 0
0.053362768 -0.0041144011 0.15850241 0.12483498 0.0029823883 -0.99217302 0.0097245658
0.062154438 -0.0072105573 0.15883838 0.11333049 0.011104631 -0.99349529 0.011965924
0.07482855 -0.0048123389 0.15932268 0.084660783 0.044316776 -0.99542379 0.021222197
0.085762784 -0.0061747925 0.15972215 -0.014659092 0.048490174 -0.99871612 0.020217892
0.09630423 -0.0060649407 0.15993701 -0.077844359 0.024147324 -0.99667311 0.013202177
0.23564979 -0.0020505218 0.15994003 -0.028965639 -6.7309243e-06 -0.99958038 0
0.24401763 -0.0057030004 0.15969808 -0.028928813 -4.8237566e-06 -0.99958146 0
0.25936836 -0.0061942735 0.15925422 -0.030862695 0.00038786119 -0.99952358 0
0.26540187 -0.0058219465 0.15907979 -0.037222728 0.0009031237 -0.99930656 1.1893685e-06
0.27236795 -0.0042547127 0.15887836 -0.040750913 0.00048255053 -0.99916923 1.6888756e-05
0.29328358 -0.0065437057 0.15775028 0.0010074514 0.0016284625 -0.99999815 0.0087358104
0.30554983 -0.0063382997 0.15697801 0.048474297 -0.001820302 -0.99882275 0.018702418
0.31441024 -0.0055937092 0.15642016 -0.054623529 0.001603948 -0.99850571 0.024813768
0.32235479 -0.0032485372 0.15591997 -0.11653075 0.00011977767 -0.99318707 0.02149445
0.34180504 -0.0098897284 0.15404487 -0.17949975 -0.010668684 -0.98370022 0.0090035135
0.36379656 -0.0061410489 0.15183671 -0.17643259 -0.0054845973 -0.98429745 0.0012671065
0.37104109 -0.0014979168 0.15110926 -0.26810089 0.0075872997 -0.96336097 0.0038661545
-0.075115852 0.0055428916 0.15073831 0.15679964 0.0037006678 -0.98762357 0.00036331243
-0.064203329 0.0064741857 0.15217158 0.10486736 0.00055976247 -0.99448609 0.00018907887
-0.053451445 0.0056706993 0.15304743 0.087382503 -0.0031408211 -0.99616987 2.4276153e-05
-0.042046517 0.0058207335 0.15397644 0.079114772 8.7832705e-05 -0.99686551 1.7420376e-05
-0.033976708 0.0071000629 0.15463379 0.075855747 0.00080723583 -0.99711853 2.2131806e-05
-0.025198685 0.0063497764 0.15534383 0.064791024 0.00040367438 -0.99789876 6.2890293e-05
-0.019662317 0.0060594613 0.15571196 0.056981083 0.0012035155 -0.99837452 7.4934564e-05
-0.0035943424 0.007015503 0.15632595 0.041982006 -0.0011203806 -0.99911773 1.3533628e-05
0.0054455884 0.0044530067 0.15667139 0.038185179 -3.4303065e-07 -0.99927068 2.8917329e-06
0.016609913 0.0040756688 0.157098 0.038183372 -4.6694321e-08 -0.99927074 0
0.034136686 0.0049671507 0.15776774 0.038182616 1.3666387e-07 -0.99927074 0
0.044279411 0.0050850827 0.15815532 0.038188782 1.5298357e-07 -0.99927056 1.0663153e-05
0.052617081 0.0067385156 0.15847392 0.12080954 -0.0027096956 -0.99267203 0.01025904
0.065307438 0.0051485957 0.15895885 0.1349628 0.010639926 -0.99079353 0.01662478
0.078966573 0.0048612314 0.15948081 0.037071444 -0.0078841196 -0.99928153 0.025909064
0.082060583 0.0050728954 0.15959902 0.021612216 0.0087006353 -0.99972856 0.026225341
0.095392466 0.0031731157 0.15992191 -0.11372136 0.024937881 -0.99319965 0.016987823
0.23630811 0.0025372617 0.15992101 -0.028924314 -3.0366077e-06 -0.99958163 0
0.25625029 0.0047182292 0.15934439 -0.030205023 -0.000192986 -0.99954373 2.0773783e-05
0.26490623 0.0041602952 0.15909411 -0.034115426 -0.0012338028 -0.99941713 4.0789346e-05
0.27547097 0.0029653879 0.15877247 -0.044081904 -5.8496767e-05 -0.99902791 2.1682394e-05
0.28555074 0.0045139622 0.15823714 -0.0041282824 0.0037733985 -0.99998432 0.0047688279
0.29624113 0.0043197996 0.15756409 0.040135417 0.018820312 -0.99901694 0.012019366
0.30763409 0.0062153353 0.15684676 -0.006687785 -0.030270752 -0.99951941 0.020250246
0.31490257 0.00397324 0.15638916 -0.03767556 -0.0082536256 -0.99925596 0.02200312
0.32644123 0.0072213844 0.15558752 -0.17342874 -0.0080754776 -0.98481333 0.018859806
0.33534384 0.0079622176 0.15469363 -0.17864218 -0.0048754164 -0.98390204 0.012242999
0.34894398 0.0013236161 0.15332805 -0.14807566 0.00020715954 -0.98897606 0.0037996485
0.35572496 0.0045061763 0.15264718 -0.14133854 1.5843278e-05 -0.98996127 0.00078784116
0.3635017 0.0066184811 0.15186632 -0.15996245 0.0075754849 -0.98709404 0.0010624072
-0.073462263 0.014937752 0.15101177 0.14397535 0.0081701353 -0.98954755 0.00033127688
-0.066903248 0.016567944 0.15192705 0.1254687 0.0045445277 -0.99208719 0.00036407646
-0.044968933 0.013880275 0.15373838 0.081041366 -0.0004158013 -0.9967106 2.6945669e-05
-0.032286242 0.015308779 0.15477149 0.06764444 -0.002088336 -0.99770737 5.1163152e-05
-0.025770713 0.015025342 0.15530224 0.065100603 0.00017220408 -0.99787867 4.8389658e-05
-0.015626393 0.011709776 0.15586618 0.053920675 -0.0014010317 -0.99854428 5.5068722e-05
-0.0034596659 0.014299776 0.15633111 0.042283352 -0.0014668173 -0.99910456 2.5939613e-05
0.0057523842 0.013855119 0.1566831 0.038259592 -0.0014699808 -0.99926674 0
0.017570686 0.01145787 0.15713471 0.038183108 -1.1741212e-06 -0.9992708 0
0.023552854 0.016952526 0.15736331 0.037942369 -0.0041128034 -0.99927145 2.7968041e-05
0.039998267 0.011601936 0.15799174 0.038187549 -5.8844529e-07 -0.99927056 0
0.044929992 0.01055862 0.15818018 0.038184576 -1.7581281e-06 -0.99927074 0
0.053648811 0.014590043 0.15851335 0.10756804 0.0095219444 -0.99415213 0.013056012
0.066823676 0.015183225 0.15901679 0.13900822 0.011568119 -0.99022365 0.017668657
0.075504526 0.016835351 0.15934852 0.061288916 -0.024051385 -0.99783015 0.025360243
0.082873911 0.014431464 0.15963012 -0.0088322861 -0.02031705 -0.99975449 0.023162432
0.2375111 0.012929825 0.15988621 -0.02933014 -0.0039225998 -0.99956208 8.9756613e-06
0.24551506 0.014304627 0.1596548 -0.029089004 -0.0031463352 -0.99957186 0
0.25580731 0.015795819 0.15935721 -0.029040704 -0.0046873991 -0.99956727 2.0937516e-05
0.26889303 0.014765595 0.15897883 -0.039636072 -0.0029867389 -0.9992097 2.8923883e-05
0.27384469 0.01587378 0.15883565 -0.041969456 -0.0049526421 -0.99910659 4.6458445e-05
0.28703809 0.014733204 0.15814351 -0.0056281118 -0.0128917 -0.999901 0.0065076579
0.29323879 0.013023194 0.15775311 0.017383704 -0.008424635 -0.99981338 0.008510394
0.30517614 0.017264135 0.15700154 0.0092709968 0.013360928 -0.99986774 0.019545175
0.31639093 0.011659384 0.15629546 -0.059449799 0.01091906 -0.99817169 0.023476113
0.32568264 0.013962046 0.15565579 -0.15169619 0.0088878749 -0.98838717 0.021956749
0.33546022 0.013791547 0.15468195 -0.17692322 -0.0034533862 -0.9842186 0.014200578
0.34257787 0.012725677 0.15396726 -0.15336682 -0.0069210296 -0.98814511 0.0078898231
0.3573927 0.015681131 0.15247971 -0.13769828 0.0023194917 -0.99047154 0.00066846504
0.36511797 0.010019745 0.15170403 -0.18896389 -0.0038752856 -0.98197645 0.0022168043
-0.074849457 0.025455192 0.15078236 0.14819956 -0.0055204714 -0.98894203 0.00028263789
-0.065154523 0.026808631 0.15207256 0.11353759 -0.0086455327 -0.99349612 0.0002263193
-0.044609725 0.025258573 0.15376765 0.080109812 -0.0068075201 -0.99676281 4.227765e-05
-0.03489241 0.023207629 0.1545592 0.074160382 -0.0062202197 -0.99722695 6.7011002e-05
-0.027244398 0.024060443 0.15518221 0.063630685 -0.0056091221 -0.99795771 6.8531503e-05
-0.016987734 0.024324311 0.15581417 0.053538676 -0.0069258953 -0.99854177 7.5455282e-05
-0.0052122721 0.026177853 0.15626414 0.043290004 -0.0085540311 -0.99902594 6.473055e-05
0.0072450289 0.022752436 0.15674016 0.038310811 -0.0059511131 -0.99924821 7.2711855e-06
0.013534837 0.023912748 0.1569805 0.03823249 -0.0074864733 -0.99924082 2.8939576e-05
0.027421523 0.02437387 0.15751114 0.037103135 -0.011212838 -0.9992485 4.3730521e-05
0.041850518 0.027561214 0.15806252 0.03795547 -0.014273881 -0.99917746 5.3273612e-05
0.053444728 0.027657563 0.15850556 0.11826111 -0.036286108 -0.99231929 0.0091175074
0.065984987 0.026484564 0.15898475 0.12933315 -0.024007041 -0.9913106 0.01912275
0.071764797 0.024901381 0.15920562 0.13348731 0.0052811271 -0.99103647 0.024240937
0.08709009 0.025280869 0.15976526 -0.028098356 -0.0036894623 -0.99959838 0.024417797
0.095283121 0.025177257 0.1599201 -0.061526485 0.027932264 -0.99771452 0.019363312
0.24396963 0.029092362 0.15969948 -0.030293047 -0.018542491 -0.99936908 8.7662702e-05
0.25303158 0.028129498 0.15943746 -0.031580225 -0.020849474 -0.99928367 8.4063831e-05
0.26700026 0.024290387 0.15903357 -0.0381133 -0.010852893 -0.99921447 6.1778912e-05
0.27738824 0.025579132 0.15870056 -0.044261634 -0.011729455 -0.99895114 6.1505052e-05
0.28640708 0.024208851 0.15818322 0.0051609743 0.0016531716 -0.99998534 0.0076473244
0.29376966 0.025545701 0.15771969 0.024898438 -0.017721582 -0.99953288 0.01251393
0.30847114 0.024691574 0.15679409 -0.0084721874 0.024202636 -0.99967116 0.023888052
0.3178992 0.02565915 0.1562005 -0.10857967 0.018143032 -0.99392223 0.024622776
0.32667103 0.025553951 0.15554009 -0.1891011 0.019844096 -0.9817571 0.020964356
0.33544362 0.026566578 0.15468362 -0.18665648 -0.011287953 -0.98236042 0.013486195
0.34552464 0.026409376 0.15367138 -0.16880064 -0.0013490173 -0.98564929 0.0066242078
0.35555246 0.025214385 0.1526645 -0.13316129 -0.0090570487 -0.99105299 0.00066666841
0.36438888 0.02666088 0.15177724 -0.18292966 -0.013256297 -0.98303664 0.0021614737
-0.065252788 0.035536226 0.15208212 0.11205857 -0.020605912 -0.99348795 0.00024575455
-0.057071082 0.035925325 0.15275256 0.093189076 -0.022731936 -0.99538887 0.00014595456
-0.047237307 0.037250236 0.15355361 0.08097773 -0.025067393 -0.99640065 6.2708663e-05
-0.036321405 0.032089125 0.1544428 0.076097652 -0.015479282 -0.99698019 7.7097e-05
-0.025350971 0.032937177 0.15532199 0.064407237 -0.015891187 -0.99779713 9.2405804e-05
-0.017535029 0.034671851 0.15579325 0.05508801 -0.017226353 -0.99833292 9.9813929e-05
-0.00097803632 0.036224462 0.15642592 0.039706022 -0.021978782 -0.99896967 9.555772e-05
0.0041413624 0.033105619 0.15662156 0.036329586 -0.013993717 -0.99924195 3.6425867e-05
0.018181182 0.030984975 0.15715805 0.037071776 -0.016898708 -0.99916971 6.8524932e-05
0.025695603 0.031155523 0.15744519 0.035927646 -0.01635764 -0.99922055 6.0749935e-05
0.044305675 0.032714292 0.15815634 0.039837766 -0.018802727 -0.99902922 5.9145492e-05
0.063571103 0.037589841 0.15879971 0.15490048 -0.049526166 -0.98668796 0.020382401
0.07095328 0.035791475 0.15911989 0.10593399 -0.028688859 -0.99395925 0.026254166
0.084968776 0.036400557 0.15961862 -0.028373012 -0.033641882 -0.99903113 0.027226079
0.095452912 0.034505431 0.15984567 -0.093035765 -0.023237394 -0.99539155 0.022321479
0.10019504 0.037769377 0.15985632 -0.096076183 -0.044806127 -0.99436504 0.01471913
0.22964163 0.03700614 0.15993929 -0.0281472 -0.028869728 -0.99918681 0.00010422238
0.23266961 0.036671069 0.15982348 -0.028890049 -0.02942962 -0.9991492 8.8483044e-05
0.24822225 0.037488095 0.15938041 -0.028858446 -0.031542841 -0.99908566 9.0785274e-05
0.25591165 0.036841229 0.15919259 -0.031698786 -0.031916067 -0.99898779 4.6684589e-05
0.26375899 0.034974124 0.15900286 -0.031404704 -0.031069612 -0.99902374 5.3444768e-05
0.27604589 0.034659944 0.15865345 -0.043692589 -0.029886421 -0.99859786 9.2611655e-05
0.28273612 0.037923947 0.1581946 0.022847105 -0.0053626676 -0.99972463 0.0084174089
0.29372913 0.035171289 0.15766633 0.046072744 0.0046021785 -0.99892753 0.016592847
0.30326745 0.033737101 0.15708327 0.033313252 0.027071577 -0.99907827 0.020201251
0.31320864 0.036547974 0.15636417 -0.035450038 -0.0067920545 -0.99934834 0.030227317
0.32105163 0.032076247 0.15600203 -0.12348706 0.012784305 -0.99226391 0.022787083
0.33036369 0.030844402 0.15519369 -0.19452105 0.0026815152 -0.98089463 0.016668402
0.34532934 0.032261696 0.15369099 -0.15880971 -0.017657889 -0.98715132 0.0055917748
0.35569134 0.033524703 0.1526399 -0.13004212 -0.018944839 -0.99132752 0.00053776713
0.36468339 0.035278756 0.15166917 -0.1836368 -0.030232945 -0.98252916 0.0014453923
-0.070724018 0.042945094 0.15132371 0.1279688 -0.031505536 -0.99127769 0.00029274222
-0.065211423 0.048809092 0.15165484 0.11176611 -0.041118708 -0.9928835 0.00027341885
-0.05595319 0.048219509 0.15241987 0.099232301 -0.037344266 -0.99436331 0.00016501133
-0.045983449 0.049999245 0.15312704 0.080412075 -0.038494017 -0.99601811 3.9358863e-05
-0.037223026 0.044289872 0.15409985 0.075948022 -0.03004605 -0.99665904 6.5094981e-05
-0.025012583 0.044353034 0.15506059 0.063741788 -0.030250363 -0.99750781 0.00011128627
-0.018861283 0.041442446 0.1555782 0.057102062 -0.030550281 -0.99790084 0.00010499611
-0.00494132 0.04585769 0.15587896 0.037740678 -0.035409655 -0.99865997 5.2478605e-05
0.0057638194 0.043513924 0.15638584 0.036192756 -0.03039326 -0.99888253 5.71856e-05
0.014695519 0.045222227 0.15663284 0.036915429 -0.033084232 -0.99877059 5.2182746e-05
0.028968168 0.049706414 0.15694329 0.036867838 -0.040308736 -0.9985069 2.5884581e-05
0.032951009 0.04409926 0.15735923 0.037759703 -0.033273809 -0.99873275 5.2979845e-05
0.044773873 0.046376865 0.15768538 0.03855405 -0.039410777 -0.99847907 1.4340024e-05
0.056419447 0.046626333 0.15810238 0.14164454 -0.046468373 -0.98882633 0.012760475
0.06490954 0.045151457 0.15848595 0.14894006 -0.052095335 -0.98747301 0.017155848
0.078176081 0.043913007 0.1590341 0.024294939 -0.043008085 -0.99877936 0.025278313
0.084607072 0.045288496 0.15920497 0.0036144401 -0.046249598 -0.99892336 0.027666923
0.10783285 0.045030653 0.15962411 -0.04205735 -0.031712163 -0.99861181 0.0087458277
0.11669464 0.048051354 0.15961744 0.016316 -0.042648502 -0.99895698 2.0732819e-05
0.12327492 0.047581024 0.1597444 0.016778648 -0.042897906 -0.99893856 4.152281e-05
0.2173828 0.047247771 0.1597659 -0.02840519 -0.044581939 -0.99860179 1.9449355e-05
0.22501448 0.044671413 0.15967877 -0.02790961 -0.043750357 -0.99865258 3.9563663e-05
0.23436433 0.042248663 0.15953438 -0.028745899 -0.03639558 -0.99892396 7.5871583e-05
0.24298072 0.045364752 0.15912674 -0.028195947 -0.044961192 -0.99859071 2.77733e-05
0.25400642 0.043980919 0.15888083 -0.030691521 -0.040200766 -0.99872017 5.7060755e-05
0.26351666 0.046213061 0.15849286 -0.034197737 -0.04560253 -0.99837416 3.6943431e-05
0.27303797 0.045317888 0.15826513 -0.042382043 -0.0418275 -0.99822557 8.2745355e-05
0.28553876 0.04191415 0.15780488 0.052539296 -0.0090467427 -0.99857789 0.01141826
0.2974433 0.043185677 0.15700167 0.070800163 0.025954923 -0.99715275 0.018363187
0.30377904 0.045237478 0.15649946 0.034527984 -0.0059129884 -0.99938631 0.024810359
0.31590146 0.042860638 0.15588115 -0.093407452 0.002157924 -0.99562562 0.030514965
0.3230356 0.043885794 0.1582163 -0.18517755 -0.030529544 -0.98223078 0.02619203
0.3340289 0.043889482 0.1543268 -0.23577589 -0.057871766 -0.97008276 0.013399853
0.34334946 0.045777258 0.15330623 -0.16185372 -0.048703987 -0.98561221 0.0064421883
0.35532859 0.04658521 0.15208873 -0.12454427 -0.048125844 -0.99104625 0.00057667127
0.36909208 0.040687405 0.15108725 -0.22232327 -0.030489026 -0.97449619 0.0029592686
0.37045318 0.04897444 0.15026784 -0.24681619 -0.05976801 -0.96721745 0.0040987618
-0.074857704 0.055886593 0.15000984 0.13741256 -0.047400832 -0.98937905 0.00047809517
-0.065227099 0.05689818 0.1512419 0.11169369 -0.045953799 -0.9926796 0.00026432204
-0.055175081 0.053854331 0.15220954 0.092461556 -0.044739418 -0.99471062 0.00010670672
-0.044036388 0.055455502 0.15301834 0.078617416 -0.04299181 -0.9959774 1.1989026e-05
-0.035930242 0.054508109 0.15370899 0.07563135 -0.044175301 -0.99615687 3.2607866e-05
-0.026304772 0.053274758 0.15453435 0.062334772 -0.043553997 -0.99710453 8.1458391e-05
-0.017871853 0.053778317 0.15502235 0.056987502 -0.0432784 -0.9974364 6.5820335e-05
0.0025825957 0.053528905 0.15578781 0.037850868 -0.042108119 -0.99839586 2.7130216e-05
0.014571325 0.054669395 0.15617467 0.03692833 -0.044427201 -0.99832988 2.0024454e-05
0.027373586 0.054636557 0.15664783 0.036839779 -0.043655276 -0.99836719 1.0540273e-05
0.03622197 0.053584404 0.15702429 0.037334241 -0.042225868 -0.99841034 2.7391739e-05
0.04049778 0.050332509 0.15733793 0.037847556 -0.039630983 -0.99849737 3.7738668e-05
0.054543715 0.057544082 0.15750909 0.10889018 -0.061315265 -0.99216098 0.008320285
0.066978127 0.053591471 0.15815692 0.13776486 -0.047763199 -0.98931259 0.018280091
0.074997097 0.054110553 0.15842739 0.080231257 -0.036289588 -0.99611551 0.024212658
0.086273283 0.054515507 0.15879571 -0.030734405 -0.038908392 -0.99877 0.02482602
0.097203292 0.056729175 0.15888721 -0.066750593 -0.072346307 -0.99514335 0.014799026
0.10338068 0.054951906 0.15907134 -0.07882975 -0.053727943 -0.99543923 0.013601787
0.11840586 0.05940954 0.15909231 0.015852794 -0.048340689 -0.99870509 0
0.12659988 0.05300355 0.15953337 0.016549779 -0.044471662 -0.99887359 1.6358763e-05
0.13744356 0.056620955 0.15952903 0.015457707 -0.047418077 -0.99875557 2.5833529e-05
0.14131989 0.057889834 0.15952867 0.015401233 -0.047261555 -0.99876386 2.5139754e-05
0.15180862 0.056956444 0.15973996 0.016013859 -0.047117494 -0.99876094 1.235248e-05
0.19652188 0.056642905 0.15988322 -0.022562036 -0.049006157 -0.99854356 1.7318262e-05
0.20351371 0.055855669 0.15972266 -0.025557779 -0.048457511 -0.99849826 0
0.21494022 0.054314271 0.15947333 -0.028137321 -0.049068414 -0.99839902 1.5303765e-05
0.2200385 0.059999384 0.15903491 -0.028699083 -0.050605405 -0.99830627 1.2823436e-05
0.23462269 0.053683586 0.15893993 -0.028275317 -0.048221327 -0.99843639 1.9056473e-05
0.24468261 0.055090163 0.15857853 -0.028811131 -0.048900809 -0.99838799 1.845623e-06
0.25532991 0.055748153 0.15823869 -0.028719988 -0.048997622 -0.99838591 3.3154054e-05
0.26413202 0.054620817 0.15804355 -0.034870341 -0.049779687 -0.9981513 9.6019985e-06
0.27264631 0.05612148 0.15772177 -0.040956192 -0.050775807 -0.99786991 2.5355432e-05
0.2860789 0.055165261 0.15705134 0.061501816 -0.068973675 -0.99572092 0.015261537
0.29118213 0.054243427 0.15678674 0.05948573 -0.0321059 -0.99771273 0.015429346
0.30559528 0.055633552 0.1558224 0.035605028 -0.044723853 -0.99836469 0.029693473
0.31266338 0.056084931 0.15649423 -0.052464157 -0.049397346 -0.99740028 0.034231987
0.32504705 0.05659778 0.15597035 -0.22761865 -0.074044943 -0.97093111 0.024377286
0.33119857 0.056862932 0.15384816 -0.21505685 -0.05926124 -0.97480184 0.017395975
0.34479392 0.054299779 0.15266898 -0.15081786 -0.06157285 -0.98664218 0.0042056977
0.35532308 0.057563663 0.15145022 -0.13745689 -0.066101462 -0.98829961 0.00079310942
0.36552104 0.053095669 0.15071388 -0.17824265 -0.057334054 -0.98231477 0.0013029915
-0.063489154 0.064071804 0.15105447 0.10611849 -0.04744925 -0.99322069 0.00016829361
-0.054543115 0.065884359 0.15167862 0.093160689 -0.045589723 -0.99460679 9.073205e-05
-0.046267834 0.063027337 0.152475 0.081593826 -0.046100624 -0.99559891 4.2196893e-06
-0.036804721 0.064658321 0.15314904 0.076241404 -0.047484513 -0.99595809 8.773196e-06
-0.028460903 0.066285923 0.15373421 0.065728098 -0.048045203 -0.99668026 7.1698727e-05
-0.01228482 0.067682274 0.15456057 0.046242096 -0.047153536 -0.99781668 5.7716192e-05
-0.0027436696 0.064698875 0.15505528 0.039932519 -0.047943726 -0.99805152 1.0095223e-05
0.001241493 0.063673504 0.15525132 0.03975274 -0.048214532 -0.99804562 0
0.015188586 0.062724225 0.15581065 0.036773473 -0.0479118 -0.99817437 6.4689789e-06
0.023559373 0.066333599 0.15594572 0.036667816 -0.048648834 -0.99814272 2.8552993e-06
0.041671153 0.061718874 0.15683447 0.036739741 -0.046895802 -0.9982239 2.2937107e-05
0.058037087 0.06664443 0.15720083 0.14206412 -0.069290929 -0.98742926 0.011576488
0.068362504 0.064637102 0.15767756 0.10916205 -0.056612782 -0.99241054 0.016686236
0.071433462 0.065980613 0.15772617 0.099623948 -0.055031229 -0.9935022 0.019761018
0.088828042 0.064102791 0.15839624 -0.04170981 -0.072909243 -0.99646604 0.018770413
0.096511811 0.066902958 0.15838164 -0.069100998 -0.062634394 -0.99564147 0.014597121
0.11428642 0.066568643 0.15867907 0.015727032 -0.048723105 -0.99868846 0
0.12913014 0.064075351 0.15903512 0.015837712 -0.048673946 -0.99868912 8.8973202e-06
0.13919947 0.062350798 0.15927823 0.01578822 -0.048549622 -0.99869597 8.6154823e-06
0.14686061 0.064557798 0.15929212 0.015820039 -0.048554264 -0.99869525 9.8738592e-06
0.15452115 0.063930951 0.15944378 0.0157991 -0.048242867 -0.99871063 0
0.16722251 0.065491356 0.15956883 0.012155063 -0.050046358 -0.9986729 4.2295665e-05
0.17557769 0.064504653 0.15974899 0.0011071331 -0.049478222 -0.99877465 7.6769895e-05
0.18265499 0.061759535 0.15999439 -0.006453231 -0.049798753 -0.99873847 7.290033e-05
0.19826719 0.063446566 0.15948376 -0.024758561 -0.051199123 -0.99838156 7.2811422e-06
0.20443721 0.065519445 0.15919998 -0.026618492 -0.05146303 -0.9983201 0
0.21779433 0.068376794 0.15866935 -0.03200018 -0.035968285 -0.99884051 0.0014885395
0.22101554 0.066412747 0.15867759 -0.028960308 -0.054425061 -0.99809778 1.6550895e-05
0.2318211 0.065428905 0.15841748 -0.028750384 -0.051269665 -0.99827087 2.0673729e-06
0.24773292 0.066583991 0.1579008 -0.033080038 -0.040141948 -0.9986462 0.0010064058
0.25703061 0.063620776 0.15778565 -0.031671338 -0.051915742 -0.9981491 2.916725e-05
0.26550621 0.062252916 0.15761223 -0.037464071 -0.051950715 -0.99794668 3.6323676e-05
0.27480268 0.065723732 0.15716308 -0.043384179 -0.054519437 -0.9975698 5.3612879e-05
0.28492448 0.068424478 0.15640183 0.0062807836 -0.032648757 -0.99944711 0.0085805776
0.29386178 0.066534482 0.15595342 0.10115343 -0.0662314 -0.9926638 0.016854057
0.30546516 0.068065643 0.15629734 -0.0030250023 -0.059372127 -0.99823129 0.029031996
0.31566992 0.067500658 0.15912059 -0.11447636 -0.10072812 -0.98830611 0.032707956
0.32437557 0.064812869 0.15405205 -0.22153138 -0.069715135 -0.97265804 0.025335036
0.33523381 0.064843237 0.15298934 -0.23501572 -0.070423186 -0.96943706 0.012660838
0.34401411 0.065332338 0.15210298 -0.17828886 -0.065666012 -0.98178464 0.0075246636
0.35422409 0.066781603 0.15102102 -0.14055783 -0.065466575 -0.98790562 0.00089542504
0.3667132 0.06126219 0.15012202 -0.19598091 -0.077053972 -0.97757566 0.0019645544
-0.053881079 0.072863683 0.15139408 0.090690702 -0.047643542 -0.99473888 9.7812059e-05
-0.044156332 0.074463874 0.15209042 0.079121523 -0.050683122 -0.99557579 1.7758814e-05
-0.032412566 0.074425206 0.15302658 0.071692146 -0.053311065 -0.99600106 8.0907441e-05
-0.025670722 0.075830862 0.15349503 0.063953303 -0.050915163 -0.9966532 8.6908716e-05
-0.0041661318 0.074792877 0.15451825 0.041693781 -0.048447944 -0.9979552 8.6749651e-06
0.0043933918 0.074849188 0.15483084 0.032947224 -0.058436614 -0.99774724 0.00010514976
0.014572163 0.074586384 0.15521841 0.036594275 -0.052292451 -0.99796104 3.4000539e-05
0.023709539 0.075170673 0.15552695 0.036344156 -0.05751022 -0.99768317 9.5735762e-05
0.035005368 0.074610911 0.1559699 0.038873825 -0.044283535 -0.99826235 4.9970658e-05
0.043640535 0.071727723 0.15642644 0.037805803 -0.044513065 -0.99829322 3.8267721e-05
0.056963813 0.072408691 0.15688454 0.12243295 -0.051407896 -0.99114448 0.0092631187
0.063270546 0.074392907 0.15702157 0.12231998 -0.048584692 -0.99130082 0.011758552
0.075451978 0.074362472 0.15747176 0.058628596 -0.090089858 -0.99420649 0.021808449
0.08398369 0.074933581 0.15775862 0.010153454 -0.082869329 -0.99650872 0.021477435
0.096850395 0.077037297 0.1578943 -0.045854192 -0.04153328 -0.99808431 0.011409689
0.10727123 0.070692949 0.15836759 -0.030526724 -0.019614918 -0.99934149 0.0059060655
0.11456385 0.075781077 0.15823556 0.017622715 -0.0032657355 -0.99983937 0.0029509799
0.12343056 0.076222576 0.15835437 0.013115706 -0.0019666171 -0.99991202 0.0035691848
0.13493009 0.07231351 0.15872633 0.014638793 0.00041526512 -0.99989277 0.0027711666
0.14447488 0.074366502 0.15877751 0.0038032243 -0.013405762 -0.99990284 0.0031583158
0.15246078 0.075567827 0.15884544 0.01409057 -0.0015352219 -0.99989957 0.0034330923
0.16445507 0.075219184 0.15905212 0.018477501 -0.023814706 -0.99954557 0.0016600294
0.17565002 0.074709453 0.15925398 0.013771075 -0.0042741662 -0.99989605 0.002963094
0.18247719 0.076737046 0.15924484 -0.0085856365 -0.0055620745 -0.99994767 0.0036634391
0.19392842 0.073060378 0.15911494 -0.022614935 -0.013854804 -0.99964821 0.0027684381
0.20516635 0.072853707 0.15880252 -0.028478654 -0.011269668 -0.99953085 0.003108646
0.21614775 0.074418396 0.15840654 -0.031559188 -0.0058608125 -0.99948472 0.0036233799
0.22582854 0.072475642 0.15822798 -0.023526248 -0.0061199656 -0.99970448 0.0033243124
0.23591174 0.076672293 0.1577227 -0.019777825 -0.010967172 -0.99974424 0.0041597141
0.24312443 0.073593266 0.15767345 -0.027549883 -0.0067528738 -0.99959755 0.0031945463
0.25658232 0.072936505 0.15732029 -0.034488834 -0.018437734 -0.99923497 0.0031321417
0.26109993 0.073536873 0.15715961 -0.033136453 -0.023579663 -0.99917269 0.0030270338
0.27454603 0.074193932 0.15669243 -0.044966124 -0.034159578 -0.99840426 0.0017970008
0.2810764 0.076240204 0.15621431 -0.017608032 -0.0357663 -0.99920505 0.0064262063
0.29419553 0.078499503 0.15528251 0.073685005 -0.050456923 -0.99600434 0.014381839
0.30587569 0.077128537 0.15463677 -0.016025612 -0.10406414 -0.99444145 0.023945892
0.31506571 0.073746569 0.15654176 -0.14845447 -0.11658043 -0.9820236 0.034749825
0.3249211 0.071770057 0.15359375 -0.21506429 -0.089444973 -0.9724952 0.017736556
0.3342112 0.073212482 0.15260208 -0.2126762 -0.048727997 -0.97590703 0.012386733
0.34433031 0.076255828 0.15143621 -0.14765611 -0.039095815 -0.98826581 0.0056181652
0.35460162 0.072979301 0.15062335 -0.13704428 -0.052983742 -0.98914695 0.0012449755
-0.06390664 0.08438465 0.15003984 0.1099922 -0.064465165 -0.99183971 0.00025048607
-0.056173366 0.085090965 0.15062095 0.092256598 -0.064031675 -0.99367428 0.00019125149
-0.042794973 0.087105624 0.15158796 0.0763117 -0.080275133 -0.99384731 0.00042066336
-0.027360996 0.08950305 0.15270001 0.063105516 -0.079694964 -0.99481982 0.00032910093
-0.014418746 0.086273082 0.15358935 0.04317601 -0.078924946 -0.9959451 0.00037123004
0.014578938 0.08443632 0.15474571 0.036535859 -0.068302892 -0.99699545 0.00019085762
0.034164675 0.08609347 0.15538761 0.053845961 -0.067267261 -0.99628097 0.0010078804
0.045268167 0.082277983 0.15597984 0.045702286 -0.048873279 -0.99775887 0.0003707553
0.05437167 0.08268135 0.15629582 0.11385593 -0.060958609 -0.99162537 0.007378811
0.066715017 0.084223583 0.15667644 0.094346911 -0.072501227 -0.9928959 0.012558507
0.077090308 0.08397799 0.15707043 0.051871207 -0.069038726 -0.99626452 0.014494747
0.086725704 0.084988162 0.15733667 0.010956635 -0.083724022 -0.99642867 0.013895363
0.094690822 0.08614774 0.15741721 -0.01925361 -0.080190502 -0.99659365 0.012041032
0.10701305 0.085087948 0.15766364 0.0020746964 -0.039886583 -0.99920195 0.0098655494
0.11360685 0.084093966 0.15781629 0.038832877 0.0013593761 -0.99924481 0.0074286177
0.12496605 0.083432049 0.15802816 0.015357769 -0.0046534631 -0.99987125 0.0063664815
0.13403928 0.085929386 0.15805027 -0.0025040158 -0.034052208 -0.99941689 0.0079818787
0.14690012 0.082770005 0.15840732 -0.0073949262 -0.010670805 -0.99991566 0.0047784122
0.15660572 0.086984217 0.15835595 0.003025739 -0.044897258 -0.99898708 0.0074960724
0.16707337 0.085323848 0.15860227 0.022250604 -0.016164571 -0.99962175 0.0053079794
0.18200727 0.087176599 0.15870699 0.011422381 -0.043419953 -0.99899161 0.0083946073
0.19616659 0.082781561 0.15855154 -0.023210483 -0.012436785 -0.99965322 0.0049681971
0.20361489 0.089043036 0.158016 -0.038288735 -0.068831675 -0.99689323 0.011228871
0.21643439 0.085128047 0.15784848 -0.026332742 -0.011089302 -0.99959171 0.0074155577
0.22392456 0.08499705 0.15763991 -0.032184906 -0.03559915 -0.99884766 0.0081874346
0.23540092 0.087360322 0.1571887 -0.037208442 -0.058986593 -0.99756509 0.0093333255
0.24710496 0.08590436 0.15692699 -0.029549681 -0.027209267 -0.99919289 0.007029559
0.2533904 0.084670156 0.15680967 -0.043657918 -0.032097101 -0.99853081 0.0048316843
0.26618108 0.084039398 0.1564744 -0.057787385 -0.03901121 -0.9975664 0.0039420878
0.27841142 0.086335026 0.15582995 -0.050300762 -0.042756934 -0.99781847 0.0058616935
0.28410521 0.087116547 0.15543637 -0.023961009 -0.087154657 -0.99590659 0.010766404
0.29661465 0.084565312 0.15480363 0.047528759 -0.13494609 -0.98971236 0.016710674
0.30347919 0.085080475 0.15435232 0.0019906494 -0.11390451 -0.99348968 0.022066934
0.31514654 0.085723169 0.15624706 -0.1055454 -0.10724714 -0.98861432 0.025405217
0.32508951 0.084832594 0.15281691 -0.16826876 -0.11179797 -0.97938085 0.01621297
0.33410391 0.084419928 0.15196018 -0.19275074 -0.057904616 -0.97953779 0.012081405
0.34501812 0.084486812 0.15088989 -0.1213216 -0.052530739 -0.99122226 0.0037130616
0.35118949 0.081026986 0.15048829 -0.14401843 -0.050397601 -0.98829091 0.0030792521
-0.054525126 0.094615981 0.15029189 0.091910578 -0.10405358 -0.99031579 0.00072424987
-0.046102412 0.095407791 0.15089725 0.080602415 -0.1014912 -0.99156582 0.00050628826
-0.036099534 0.094849251 0.15171488 0.071866848 -0.10109364 -0.9922778 0.00067044416
-0.024032602 0.095942669 0.15257624 0.051142953 -0.12798612 -0.99045646 0.0010611131
-0.018705383 0.09277191 0.1531194 0.044149432 -0.11114208 -0.99282336 0.00081303465
-0.0076071024 0.092578381 0.15353753 0.031600378 -0.10619425 -0.99384314 0.0006688764
0.0048280912 0.094184287 0.15384491 0.03096607 -0.11908462 -0.99240112 0.00067449542
0.02601123 0.095412023 0.15453596 0.062303748 -0.10542849 -0.99247319 0.0012292146
0.033727076 0.092914201 0.15499879 0.053558737 -0.10939372 -0.99255455 0.0018915848
0.046062928 0.095569551 0.15605791 0.068908118 -0.10693409 -0.99187535 0.0045287064
0.054079432 0.097500101 0.15592839 0.07910607 -0.14126065 -0.98680681 0.0066524278
0.067247219 0.094546355 0.15660068 0.063467175 -0.12629054 -0.98996097 0.01042321
0.076221764 0.094209149 0.15637368 0.065201283 -0.15129653 -0.98633575 0.011462229
0.084635451 0.097442821 0.15626565 0.040122252 -0.19193186 -0.98058784 0.011685122
0.095577642 0.095066056 0.15686344 0.0022282072 -0.14771339 -0.98902768 0.011831029
0.10618116 0.096498035 0.15703093 0.019852715 -0.15386683 -0.98789215 0.012908177
0.11396391 0.096866407 0.15680163 0.045491081 -0.13651833 -0.98959249 0.011783286
0.12330929 0.093370445 0.15749331 0.019923232 -0.089145139 -0.99581939 0.012408693
0.136182 0.094538368 0.15780482 -0.015067242 -0.12374203 -0.99220002 0.014112202
0.14294824 0.095641516 0.15746441 -0.013118871 -0.1273724 -0.99176818 0.012688345
0.15555242 0.094422586 0.15808731 -0.012355717 -0.13421056 -0.99087584 0.012435026
0.16312735 0.093912102 0.15785135 0.0010134283 -0.080015905 -0.99679303 0.011786564
0.17579915 0.094915532 0.15807448 0.018147888 -0.13451278 -0.99074566 0.013121587
0.18209863 0.095445797 0.15795355 0.024397207 -0.14298628 -0.98942393 0.012670886
0.19610317 0.095700063 0.15744168 -0.026368719 -0.12648042 -0.99161851 0.01498506
0.20208792 0.096465923 0.15713219 -0.045940883 -0.15158534 -0.98737597 0.016005944
0.21365421 0.095113657 0.15711115 -0.050567944 -0.12028945 -0.99145013 0.014528558
0.22383881 0.096057482 0.15663113 -0.026464965 -0.12530144 -0.99176568 0.013152144
0.23567371 0.09280023 0.1568469 -0.041537285 -0.097798973 -0.99433899 0.012651427
0.24477978 0.095884375 0.15609553 -0.032979392 -0.13524646 -0.99026293 0.012272716
0.25649944 0.094107583 0.15605953 -0.05512495 -0.11910811 -0.99134982 0.0087125422
0.26485959 0.097238675 0.15526181 -0.052822702 -0.16780555 -0.98440385 0.0095215803
0.27515236 0.097242236 0.15626313 -0.045916595 -0.15306599 -0.9871487 0.0090391599
0.28486225 0.095171608 0.15560697 -0.009390126 -0.15246907 -0.98826361 0.011463324
0.29482034 0.096856155 0.15638006 0.022083567 -0.18446045 -0.98259187 0.013404762
0.30454588 0.096361943 0.15821572 -0.026398093 -0.21704721 -0.97580415 0.016861727
0.31441519 0.096642539 0.15650731 -0.079498053 -0.20749792 -0.97499985 0.01860173
0.32530233 0.095347509 0.15303349 -0.14818028 -0.15006317 -0.9775089 0.016280213
0.3340297 0.096741319 0.15233031 -0.14099149 -0.18070301 -0.97337955 0.013459733
0.34418696 0.094635807 0.1502254 -0.11980368 -0.11447193 -0.98617613 0.0073625213
0.35999602 0.097540222 0.15055549 -0.21653399 -0.15848142 -0.96332586 0.0076321908
-0.042865478 0.10217361 0.15033807 0.074740939 -0.14419901 -0.98672205 0.00114117
-0.034538947 0.10376222 0.15066047 0.059521269 -0.18288697 -0.98133051 0.0031795187
-0.024736775 0.10670029 0.15084173 0.054819096 -0.2308362 -0.97144717 0.0033956636
-0.01772806 0.10586654 0.1513792 0.046946287 -0.24228287 -0.96906918 0.0035883207
-0.0048456718 0.10590196 0.15179679 0.03718878 -0.23669052 -0.97087312 0.0044667399
0.005939967 0.10419443 0.15246709 0.040488996 -0.19501144 -0.97996491 0.003435543
0.01672733 0.10148592 0.15332219 0.043313745 -0.16435391 -0.98545009 0.0033624179
0.02798214 0.10370263 0.15328354 0.046798818 -0.20076355 -0.97852123 0.0039267396
0.032970857 0.10611603 0.153247 0.048021328 -0.21965501 -0.97439504 0.0039470885
0.044096436 0.10404884 0.15572935 0.036274828 -0.2164844 -0.97561193 0.0040928423
0.055294894 0.10523903 0.15578432 0.063242532 -0.26219198 -0.96294117 0.0082436511
0.063502125 0.10416847 0.15521507 0.077658713 -0.22707692 -0.97077554 0.010188841
0.074447103 0.10495753 0.15605892 0.050159186 -0.25342676 -0.96605331 0.0086830789
0.084387973 0.10575823 0.1565748 0.038576074 -0.29906377 -0.95345312 0.011775819
0.093394674 0.10684763 0.15581062 0.035359599 -0.2846081 -0.9579916 0.010600787
0.105143 0.10502422 0.15615702 0.034995459 -0.26373196 -0.96396095 0.014256039
0.11693147 0.10573599 0.15519908 0.045608155 -0.27306557 -0.96091372 0.01322417
0.12316813 0.10566176 0.15588546 0.03763533 -0.30058965 -0.95301074 0.018963892
0.13466135 0.10606173 0.15682074 -0.006052352 -0.31244671 -0.94991595 0.019355703
0.14628874 0.10355771 0.15600689 0.016263328 -0.19885023 -0.979895 0.01460904
0.15447278 0.10686888 0.15595955 -0.013907832 -0.3261224 -0.94522518 0.017866993
0.16585115 0.10506956 0.15618905 0.012921376 -0.29087523 -0.95667368 0.015109859
0.17364869 0.10677051 0.15578088 0.015071772 -0.32628664 -0.94515067 0.015389458
0.18603282 0.10775787 0.15679443 0.01808596 -0.35259581 -0.93560094 0.020662518
0.1954667 0.10422159 0.1565925 -0.037044242 -0.30513728 -0.95158756 0.014888502
0.20601262 0.10597903 0.15571025 -0.03813595 -0.32974213 -0.94330043 0.016656868
0.2161317 0.10490689 0.15628064 -0.036624592 -0.27546436 -0.96061337 0.015017483
0.22500339 0.1050383 0.15484473 -0.043575983 -0.29512262 -0.95446521 0.013075053
0.23377793 0.10389154 0.15583314 -0.05394401 -0.27707306 -0.95933336 0.013563338
0.24634896 0.10491266 0.15627582 -0.040248267 -0.30422768 -0.95174867 0.010728932
0.25422958 0.10579906 0.15458237 -0.026058163 -0.32239026 -0.94624811 0.012196954
0.26543513 0.10396039 0.15493833 -0.06272351 -0.27233654 -0.96015549 0.01169473
0.27559701 0.10423046 0.15380463 -0.062281605 -0.23404597 -0.97022861 0.0087839272
0.28411305 0.1049856 0.154608 -0.054663803 -0.23808905 -0.96970385 0.0084992992
0.29593489 0.10355924 0.15492709 -0.0062822481 -0.25527599 -0.96684778 0.012314615
0.30521864 0.10468563 0.15201996 -0.032486342 -0.27865261 -0.95984232 0.013390905
0.31401271 0.10697281 0.15197644 -0.059736662 -0.34227711 -0.93769819 0.012206173
0.32332394 0.10482467 0.1528959 -0.09200082 -0.29053938 -0.95242983 0.011439593
0.33438522 0.10449989 0.15351623 -0.125699 -0.24200065 -0.96209949 0.010180451
0.34534475 0.1043215 0.15258014 -0.12817563 -0.21732557 -0.9676469 0.0097888485
0.35137391 0.10369456 0.15222038 -0.15777291 -0.21159934 -0.96453786 0.0079616429
-0.0043586926 0.11377067 0.15023257 0.065741271 -0.32963631 -0.94181621 0.012090995
0.003439134 0.11401509 0.15041083 0.01546256 -0.35047475 -0.93644452 0.0094272578
0.015112348 0.1160164 0.1502365 0.0015360673 -0.36603186 -0.93060106 0.0096822567
0.021061718 0.11486781 0.15072364 0.0052698534 -0.38128969 -0.92444056 0.011831874
0.036235914 0.11352861 0.15154369 0.035529092 -0.3856917 -0.92194337 0.01425729
0.048136588 0.11779144 0.15077566 0.035245314 -0.45127127 -0.89169055 0.013364058
0.053775549 0.11206339 0.15246961 0.029703885 -0.3844305 -0.92267591 0.016122015
0.063818045 0.11696568 0.15147486 0.0013028695 -0.45257682 -0.89172447 0.012691407
0.073899403 0.11496059 0.15231593 0.039120197 -0.41959912 -0.90686607 0.011235327
0.085826285 0.1145005 0.15274076 0.052252788 -0.41202134 -0.9096747 0.016758827
0.094747946 0.11608154 0.15243089 0.02293854 -0.45109016 -0.8921836 0.015234961
0.10359956 0.11407853 0.15307832 0.027718188 -0.40620771 -0.9133603 0.018130964
0.11419602 0.11495309 0.15297475 0.017283503 -0.48645347 -0.87353551 0.013578387
0.12729563 0.11558074 0.15296851 0.032246076 -0.49442914 -0.86861962 0.014366668
0.1346873 0.11381425 0.15353435 0.030157005 -0.46336159 -0.885656 0.021044802
0.14511462 0.11279514 0.15393713 0.018975174 -0.45469663 -0.89044428 0.019837087
0.1565817 0.11406393 0.15373853 0.0054679336 -0.46429792 -0.88566214 0.020188726
0.16613854 0.11850469 0.1526646 -0.00028906701 -0.50063312 -0.86565948 0.018660704
0.17342959 0.11572071 0.15348449 0.028261524 -0.49551925 -0.86813712 0.015473421
0.18734127 0.11335936 0.15385202 -0.0038208491 -0.44061062 -0.89769018 0.018833654
0.19376831 0.11385349 0.15353282 -0.031541456 -0.46503699 -0.88472921 0.019479217
0.20526063 0.1137488 0.15324071 0.00040747976 -0.48009351 -0.87721717 0.018351682
0.21616511 0.11525425 0.15251096 -0.0037578016 -0.46814182 -0.88364536 0.018944314
0.22653586 0.11402877 0.15256636 -0.0616505 -0.44920689 -0.89129817 0.02151271
0.23456839 0.11554626 0.15191357 -0.043789037 -0.47202277 -0.88049817 0.017958259
0.24699503 0.11846417 0.15074286 -0.029255828 -0.51527923 -0.8565228 0.018252186
0.25981829 0.11707239 0.15077652 -0.015394952 -0.4755547 -0.87955141 0.013805433
0.26171365 0.11340658 0.15175734 -0.023935508 -0.44956398 -0.89292735 0.012492331
0.27375749 0.11633745 0.15029845 -0.013303156 -0.47236562 -0.88130224 0.014861689
0.28289211 0.11346507 0.1506383 -0.045221124 -0.38077527 -0.92356116 0.014469883
0.29959995 0.1121579 0.15009132 -0.051416177 -0.39688057 -0.91642904 0.015701456
0.067899227 0.12110684 0.15049984 0.020165611 -0.48267895 -0.87556523 0.014708123
0.093513787 0.12161091 0.15093105 0.01146399 -0.54008406 -0.84153301 0.020641433
0.10268683 0.1219752 0.15094686 -0.0062643243 -0.55098605 -0.8344909 0.018409697
0.12702624 0.12146315 0.15138583 0.033005189 -0.51468891 -0.85674149 0.015334297
0.13752894 0.12076557 0.15170321 0.010571142 -0.53340137 -0.84579623 0.014212449
0.14391895 0.12107114 0.15170032 0.001371782 -0.57029319 -0.8214401 0.020073291
0.15470594 0.12245601 0.15146212 0.0083291251 -0.57075757 -0.82107639 0.016451336
0.17321743 0.12166223 0.15189394 -0.0099110492 -0.56640899 -0.82406467 0.017938225
0.18370587 0.12203092 0.15150809 -0.010970648 -0.55685395 -0.83053797 0.018160334
0.19629437 0.12408093 0.15019749 -0.012443583 -0.60851204 -0.79344714 0.020071823
0.20566528 0.1238165 0.15038997 -0.010207953 -0.60469913 -0.79638857 0.018823516
0.21254401 0.12306348 0.15040983 -0.053158224 -0.56945634 -0.82030088 0.019888703
0.22458401 0.12147319 0.15052141 -0.059521265 -0.56727719 -0.82137311 0.018879896
0.23008442 0.12033512 0.15068844 -0.055342667 -0.54875755 -0.83414769 0.018952355
0.074306004 -0.10078231 0.16001429 0.060171325 0.24139336 -0.9685601 0.018561631
0.082161255 -0.10116724 0.16046348 0.011805538 0.26780853 -0.96339989 0.015168025
0.094459489 -0.10153814 0.16040555 -0.039113253 0.23115791 -0.9721297 0.015154447
0.13425094 -0.10138376 0.16098765 0.079332471 0.15824412 -0.98420787 0.014693339
0.14875774 -0.10300575 0.1607821 0.032997031 0.26805672 -0.96283787 0.014122655
0.15328261 -0.10206062 0.1610792 0.011671677 0.22923127 -0.97330201 0.015623774
0.16147108 -0.10359573 0.16080892 -0.013735558 0.25868994 -0.96586275 0.018098205
0.17289516 -0.10467115 0.1606973 -0.010797136 0.25961289 -0.96565235 0.019312439
0.1836739 -0.10212043 0.1613303 -0.039729584 0.20447373 -0.97806549 0.016407754
0.1959914 -0.10488878 0.16025679 -0.010248346 0.24443065 -0.9696126 0.014515665
0.20247799 -0.10286185 0.16060451 -0.025275027 0.20257953 -0.97893953 0.014843502
0.21719003 -0.10147592 0.16055176 -0.025760556 0.21850066 -0.97549677 0.014682715
0.23108841 -0.10136656 0.16018753 -0.027573681 0.21305932 -0.97665012 0.017015247
0.24959643 -0.10003518 0.1600132 -0.037658118 0.17785296 -0.98333621 0.014832699
0.056977823 -0.098380506 0.16003488 0.093590036 0.1626 -0.98224348 0.011781593
0.075672708 -0.095070176 0.16171165 0.066448592 0.18574078 -0.98034942 0.020149818
0.083474554 -0.097470053 0.16116379 0.00047239155 0.20199037 -0.9793874 0.018520966
0.095237523 -0.097964682 0.16130574 -0.084119797 0.16661492 -0.9824273 0.017228261
0.12570928 -0.097046614 0.16159761 0.048822474 0.13857388 -0.98914796 0.0082783438
0.14675966 -0.098012507 0.1619978 0.05305266 0.12618369 -0.99058723 0.013124858
0.15638761 -0.098938227 0.16189891 0.028362773 0.15697816 -0.98719478 0.016606111
0.16640244 -0.098211192 0.16221672 -0.017221114 0.17511652 -0.98439711 0.015929973
0.17633639 -0.097274899 0.16258554 -0.034310125 0.11954505 -0.99223584 0.013167566
0.21647917 -0.096297465 0.16156299 -0.021009609 0.13386963 -0.99077618 0.012822378
0.22318262 -0.098513663 0.16115849 -0.018762698 0.15187046 -0.9882223 0.014542684
0.23524152 -0.09849868 0.16082156 -0.011917928 0.16078763 -0.98691708 0.016482405
0.2496751 -0.096453927 0.16094929 -0.050633512 0.15419146 -0.98674268 0.013419055
0.25447869 -0.097222567 0.16061212 -0.052306991 0.1434321 -0.98827684 0.014791904
0.26658121 -0.096230738 0.16019522 -0.058851909 0.12484019 -0.99042988 0.010009717
0.31555223 -0.09341687 0.16014294 -0.068347439 0.2165993 -0.97386515 0.013651414
0.076881975 -0.086632214 0.16584513 0.040610075 0.078613184 -0.99607766 0.020208845
0.083593689 -0.084509425 0.16382265 0.022462664 0.083440699 -0.99625951 0.021192214
0.074237786 -0.074428469 0.16641998 0.094278552 0.046186972 -0.99447393 0.020181807
0.081654012 -0.071763575 0.16458552 0.018872216 0.038235325 -0.99909049 0.019354653
0.30623794 -0.07564193 0.16204442 0.016517561 0.088384494 -0.99594951 0.027394166
0.31733572 -0.07620129 0.16257058 -0.10730883 0.086954944 -0.99041593 0.030929031
0.074764468 -0.06529969 0.16328536 0.10611442 0.015731415 -0.9942295 0.024044862
0.083433665 -0.063716754 0.16389844 0.01360688 0.025299754 -0.9995873 0.02200114
0.18136248 -0.060313873 0.16004425 -0.003806663 0.048759077 -0.99880326 8.2090053e-05
0.30840424 -0.069036432 0.16388781 0.025816839 0.073537327 -0.9969582 0.024296977
0.31542093 -0.065182358 0.16364992 -0.11106172 0.082862511 -0.99035305 0.032576952
0.32033366 -0.063278735 0.1621989 -0.16197956 0.085862018 -0.9830516 0.028017079
0.074254178 -0.054719135 0.16501124 0.058870435 0.02104992 -0.99804366 0.020873439
0.084643982 -0.055293802 0.1646532 -0.015624445 0.011797246 -0.99980825 0.021345517
0.1668005 -0.052157633 0.16021043 0.010002343 0.045122787 -0.99893135 4.190371e-05
0.17827845 -0.057151865 0.16014919 -0.0017078914 0.046782665 -0.99890363 6.4674765e-05
0.18267503 -0.055511087 0.16028987 -0.0039236923 0.047948122 -0.99884212 6.8161069e-05
0.1959039 -0.051040776 0.16018859 -0.020043364 0.045256149 -0.99877435 3.9240465e-05
0.3130047 -0.05371451 0.1621801 -0.049181879 0.0329387 -0.99824655 0.032206606
0.32029313 -0.051723301 0.16402972 -0.1426349 0.035751373 -0.98912948 0.030614132
0.075960889 -0.044636864 0.16417553 0.031034678 0.0069625895 -0.99949402 0.018143952
0.080710471 -0.045092039 0.16352007 0.0028554196 0.029138194 -0.99957126 0.016926004
0.12434812 -0.040606305 0.16010047 0.014234684 0.031611372 -0.99939889 7.6131633e-05
0.13516016 -0.043819401 0.16011529 0.015298179 0.033857733 -0.9993096 4.3498494e-05
0.1455494 -0.045123413 0.16021624 0.015370576 0.040239327 -0.99907184 4.3908964e-05
0.15728556 -0.044232659 0.16044521 0.015721383 0.035619039 -0.99924177 5.9894392e-05
0.16610727 -0.045145046 0.16054039 0.012893834 0.037829939 -0.999201 4.5664252e-05
0.17420374 -0.042813249 0.16078183 0.0051694498 0.036146693 -0.99933314 8.3195548e-05
0.18678939 -0.049679205 0.16052048 -0.01063033 0.045841832 -0.99889213 0.00010183005
0.19369407 -0.043497015 0.16063939 -0.018600581 0.040555686 -0.99900413 8.9344976e-05
0.2022084 -0.042747743 0.1604331 -0.024472963 0.038730226 -0.99895 8.1995306e-05
0.30954206 -0.044328131 0.16506644 0.021266591 0.0366932 -0.99910033 0.02556028
0.31462482 -0.043442897 0.16215967 -0.061855067 0.028329855 -0.99768293 0.029984916
0.32170069 -0.042729102 0.16090651 -0.15251289 0.036972675 -0.98760968 0.027432526
0.074847244 -0.034968268 0.1654072 0.042627666 0.036348682 -0.99842966 0.017791975
0.081180334 -0.036169641 0.16386378 -0.019826896 0.016968384 -0.99965948 0.01834981
0.10236804 -0.031130495 0.16003755 -0.046693392 0.0098062539 -0.99886113 0.0066717826
0.11545026 -0.034045413 0.16021085 0.015039604 0.023535844 -0.99960989 3.9330404e-05
0.12319824 -0.033935677 0.16033192 0.01497833 0.022048378 -0.9996447 5.9439113e-05
0.13267782 -0.031182475 0.16054001 0.017164947 0.020111173 -0.99965042 5.3013566e-05
0.14520197 -0.033148475 0.16071983 0.014919518 0.024561835 -0.99958694 7.5835924e-05
0.15888184 -0.036631554 0.16084 0.015757933 0.030937837 -0.99939704 7.2810326e-05
0.1620328 -0.034421135 0.16093245 0.014858679 0.028737644 -0.99947655 4.8328038e-05
0.17538343 -0.032721348 0.1612273 0.0035926038 0.02366836 -0.99971336 9.4022515e-05
0.18222164 -0.034283131 0.16130495 -0.0024057205 0.027373418 -0.9996224 0.00011574077
0.19442789 -0.035771124 0.16101094 -0.017975913 0.028607406 -0.99942911 0.00011007125
0.20495656 -0.0395099 0.16052032 -0.027648086 0.035336956 -0.99899292 9.7595119e-05
0.21491444 -0.034464266 0.16045646 -0.030490469 0.024454813 -0.99923587 8.0076192e-05
0.22466183 -0.033827111 0.16020338 -0.028571138 0.026762592 -0.99923342 5.6303594e-05
0.31604236 -0.035957433 0.16318513 -0.080768973 -0.013864059 -0.99663645 0.026901508
0.32268375 -0.032826744 0.16020635 -0.14377442 0.022276685 -0.98935974 0.023992324
0.076146789 -0.024475386 0.16502534 0.017240658 0.043204986 -0.99891746 0.020449284
0.081673145 -0.028485525 0.16389132 0.0036327713 0.0086243171 -0.99995625 0.017068572
0.10573272 -0.028008739 0.16009332 -0.019111186 0.020570712 -0.99960572 0.0041544829
0.11200134 -0.024918446 0.16019724 0.015245153 0.01320501 -0.99979669 5.386175e-05
0.12237152 -0.022938646 0.16036916 0.016420739 0.0084571037 -0.99982941 2.3444789e-05
0.13466895 -0.022422742 0.16057302 0.016767055 0.0093034366 -0.99981612 4.5474138e-05
0.14256166 -0.027238339 0.16070387 0.015948793 0.014568543 -0.99976671 5.4619621e-05
0.15464348 -0.022820774 0.16090417 0.017183224 0.0099566076 -0.99980277 2.9332399e-05
0.16373225 -0.024003468 0.16105482 0.015213362 0.010924996 -0.99982458 2.8802215e-05
0.18868342 -0.028616264 0.16129805 -0.010232504 0.015848897 -0.99982202 7.9248457e-05
0.19485021 -0.02403051 0.16111974 -0.019798195 0.01227305 -0.99972868 6.4617328e-05
0.20623648 -0.025595775 0.16079052 -0.027996024 0.014713576 -0.99949974 6.7153152e-05
0.21520932 -0.026044084 0.16053106 -0.029949725 0.016238796 -0.99941945 5.7952646e-05
0.22855684 -0.020842513 0.16014513 -0.029062267 0.010056117 -0.99952698 6.8309237e-05
0.23047772 -0.023124767 0.1600896 -0.028725345 0.010723705 -0.99952984 5.8820551e-05
0.31413406 -0.025540859 0.16251953 -0.023642778 -0.0073224357 -0.99969363 0.024688065
0.32117742 -0.025544476 0.16336331 -0.1188475 -0.010156597 -0.99286056 0.025755182
0.075661413 -0.015680751 0.16637053 0.035135183 -0.0016886523 -0.99938118 0.020769315
0.083685592 -0.014120806 0.16632232 -0.0086379759 0.029969865 -0.99951345 0.018458731
0.10193672 -0.014644134 0.16003038 -0.057432175 0.023604026 -0.99807036 0.009722162
0.1123595 -0.013381819 0.16020317 -0.006977845 0.0082216496 -0.99994177 0.0029572318
0.12117286 -0.012775317 0.16034929 0.016124249 0.0018708785 -0.99986827 1.0380345e-05
