# .PCD v0.7 - Point Cloud Data file format
VERSION 0.7
FIELDS x y z normal_x normal_y normal_z curvature
SIZE 4 4 4 4 4 4 4
TYPE F F F F F F F
COUNT 1 1 1 1 1 1 1
WIDTH 583
HEIGHT 1
VIEWPOINT 0 0 0 1 0 0 0
POINTS 583
DATA ascii
0.33366537 -0.14240649 0.098661244 -0.32016164 0.37043619 -0.87193662 0.052631255
0.34446406 -0.14643261 0.093468569 -0.34699312 0.35127932 -0.86959678 0.045705982
-0.16822727 -0.13496992 0.090940073 0.50415027 0.11909354 -0.85536498 0.013693642
-0.15881583 -0.13353729 0.096752107 0.50994056 0.10084826 -0.85427755 0.0084108934
0.33346072 -0.13818002 0.098759644 -0.3834818 0.25031012 -0.88898069 0.037916645
0.34414932 -0.13500179 0.093619905 -0.42617479 0.1119882 -0.89768243 0.014474757
0.35035813 -0.1357948 0.090634346 -0.42735496 0.089622252 -0.89963084 0.012109813
-0.16511555 -0.12324476 0.092861712 0.52542216 -2.2924265e-05 -0.8508417 2.197605e-05
-0.15653881 -0.12657905 0.098158278 0.52297282 0.016796075 -0.85218382 0.00058830722
0.33694312 -0.12497833 0.097085088 -0.43163884 0.0037978205 -0.90203851 7.1896029e-05
0.34368953 -0.12275429 0.093841016 -0.4334071 2.7378908e-05 -0.90119827 0
0.35085043 -0.12754431 0.090397611 -0.43341845 1.6914186e-05 -0.90119278 0
-0.16441076 -0.11577534 0.093296967 0.52543074 4.7862864e-06 -0.85083634 3.6273279e-06
-0.15803194 -0.11735503 0.097236186 0.52537411 -2.4013629e-05 -0.85087138 9.2738583e-06
0.33793125 -0.11587716 0.096609928 -0.43218479 -3.6269063e-05 -0.90178514 2.953156e-05
0.34514236 -0.114435 0.09314239 -0.43325597 -4.2034862e-05 -0.90127093 3.541488e-05
-0.16518494 -0.10533672 0.092818864 0.52541357 -1.1244078e-05 -0.85084701 2.2056744e-05
0.33504346 -0.1034807 0.097998567 -0.43177196 3.4779656e-05 -0.90198278 0
0.34648666 -0.10485289 0.092496 -0.43331975 6.8746948e-07 -0.90124023 1.5003608e-05
0.35006249 -0.10840208 0.090776503 -0.43300474 8.2268649e-05 -0.90139169 0
-0.16407354 -0.096296661 0.093505234 0.52543223 -1.3456463e-05 -0.85083544 1.2448869e-05
0.33490133 -0.094212525 0.098066911 -0.43128958 -0.00017273531 -0.90221357 0
0.34683251 -0.094502486 0.092329673 -0.43335924 -1.001721e-05 -0.90122133 0
-0.16326642 -0.087340988 0.09400364 0.525424 -2.1902154e-06 -0.85084051 5.3509611e-06
-0.15407629 -0.081642479 0.099679008 0.52453601 0.00039192603 -0.85138822 1.1198803e-05
0.3363322 -0.081978485 0.097378865 -0.43043736 -0.00043350121 -0.90262026 0
0.34460831 -0.084697962 0.093399204 -0.43341759 -6.7720321e-06 -0.9011932 0
-0.16245839 -0.07654506 0.094502643 0.52542818 -1.2144264e-06 -0.85083795 0
-0.15762755 -0.074560635 0.097485937 0.52512842 6.2738633e-05 -0.85102296 0
0.33561984 -0.074786611 0.097721405 -0.43050301 0.00014611673 -0.90258914 2.3855798e-06
0.34837395 -0.075311229 0.091588467 -0.43331128 -9.9236786e-06 -0.90124434 1.5279627e-05
0.3505016 -0.07197725 0.090565354 -0.43330508 -7.5198559e-06 -0.90124732 3.214418e-05
-0.16523229 -0.064999633 0.09278962 0.52544892 4.8339175e-06 -0.85082507 0
-0.15607633 -0.066667259 0.098443896 0.52470583 8.0671729e-05 -0.85128361 0
0.3362374 -0.065670177 0.097424433 -0.43194166 4.5346103e-05 -0.9019016 1.5216378e-05
0.34511718 -0.06451188 0.093154512 -0.4332504 -3.0808565e-05 -0.90127367 3.6893663e-05
-0.16621563 -0.055494316 0.092182361 0.52544743 -5.8396963e-06 -0.85082603 3.2324137e-06
-0.15676442 -0.05485661 0.098018959 0.52432352 -0.00021185902 -0.85151917 0
0.33812222 -0.054554533 0.096518137 -0.43201563 0.00011031896 -0.90186614 0
0.34384641 -0.055413127 0.093765564 -0.43333933 -7.4892438e-07 -0.90123087 0
0.35098106 -0.050429001 0.090334803 -0.43147218 8.4584908e-06 -0.90212631 1.5111031e-05
-0.16351591 -0.043657254 0.09384957 0.52543962 3.3580204e-06 -0.85083085 5.1064007e-06
0.33672491 -0.045279838 0.097190037 -0.43191993 -0.0002927621 -0.90191191 0
0.34517738 -0.044489175 0.093125567 -0.43330598 -1.0571048e-05 -0.90124685 1.9364919e-05
0.35165066 -0.048278049 0.090012819 -0.43149257 -6.5842003e-05 -0.90211654 1.400873e-05
-0.16560021 -0.035345953 0.092562422 0.52546209 8.110942e-06 -0.85081702 0
-0.15742031 -0.036288828 0.097613908 0.52462262 7.0344046e-05 -0.85133493 1.2919982e-05
0.33487892 -0.038095269 0.0980777 -0.42995694 -5.3016829e-05 -0.90284944 2.4635256e-05
0.34725305 -0.033328813 0.092127465 -0.43336681 -5.062131e-08 -0.90121764 0
-0.16399005 -0.024111476 0.093556777 0.52543145 -9.505398e-07 -0.85083592 0
-0.15814668 -0.025780126 0.097165346 0.52503043 -7.5644872e-05 -0.85108346 1.3282624e-05
0.33667767 -0.029564474 0.097212747 -0.43172935 4.4934193e-05 -0.90200323 1.7053566e-05
0.3475289 -0.024325496 0.091994815 -0.4333289 2.1207245e-06 -0.90123588 5.2075766e-06
0.35041139 -0.024753934 0.090608753 -0.43338484 3.9192319e-06 -0.90120894 0
-0.16565216 -0.015129061 0.092530333 0.52544504 2.0417767e-06 -0.85082763 0
-0.15690775 -0.017091269 0.097930431 0.5249787 0.00015804957 -0.85111535 0
0.33410847 -0.01272961 0.09844818 -0.42985764 -0.00012139774 -0.90289664 3.1457297e-05
0.34540895 -0.016141091 0.09301421 -0.4334684 1.8796873e-05 -0.90116882 0
0.3505882 -0.014387596 0.09052372 -0.43346971 1.4979931e-05 -0.90116817 0
-0.16465692 -0.004955159 0.093144946 0.52543968 3.1784964e-09 -0.85083085 9.0915482e-06
-0.15795188 -0.0069778617 0.097285651 0.52541536 3.6451179e-06 -0.85084587 1.3429948e-05
0.33831948 -0.0041088876 0.096423253 -0.4315317 -0.00030712027 -0.90209764 1.8957171e-05
0.34289169 -0.0056467159 0.094224669 -0.43337396 4.3238515e-07 -0.90121424 0
-0.16478832 0.0033434059 0.093063809 0.52544218 1.5996955e-06 -0.8508293 6.2937575e-06
-0.15692475 0.0023591658 0.097919941 0.52458453 -6.3041887e-05 -0.85135829 4.3813152e-06
0.33338308 0.004623869 0.098796964 -0.42956296 0.00047842061 -0.90303683 3.8150565e-06
0.34700382 0.0044918503 0.092247307 -0.43333921 -2.438504e-06 -0.90123087 1.0137233e-05
-0.16608812 0.012778347 0.092261121 0.5254572 -8.2237864e-07 -0.85082 0
0.33728039 0.013659403 0.096922919 -0.43185306 0.00014977665 -0.90194398 0
0.34489468 0.013945453 0.09326151 -0.43332624 6.1250375e-06 -0.90123713 9.0873009e-06
0.35049683 0.013692886 0.090567656 -0.43256062 0.00010421147 -0.90160483 3.6546931e-05
-0.16377895 0.023864439 0.093687147 0.52542967 3.6624065e-06 -0.85083711 9.4231827e-06
-0.15534641 0.024116693 0.098894648 0.52432477 -0.00030390828 -0.85151833 1.9803094e-06
0.33756432 0.025924688 0.09678641 -0.43122035 -0.00040359181 -0.90224659 5.95117e-07
0.34347415 0.024548551 0.093944587 -0.43339604 -5.7016118e-06 -0.90120357 0
-0.16419448 0.037268128 0.093430519 0.52543753 -7.4942154e-06 -0.85083222 0
-0.15650636 0.035923693 0.098178312 0.52468753 0.00021082813 -0.85129488 0
0.33561277 0.035525084 0.097724825 -0.42968601 0.0005139237 -0.90297824 0
0.34579435 0.036653999 0.092828892 -0.43340549 -1.2936018e-06 -0.90119898 0
-0.15686756 0.044066172 0.097955257 0.52478939 -0.00012619131 -0.85123211 5.923926e-06
0.33758682 0.04581419 0.096775576 -0.43134391 0.00014453234 -0.90218759 0
0.34478784 0.046917349 0.093312882 -0.43344623 2.6250327e-06 -0.90117943 0
-0.16105014 0.057673365 0.095372312 0.52543747 -1.3719557e-06 -0.85083216 0
-0.15641941 0.056237269 0.098232016 0.52453017 0.00017384982 -0.85139185 0
0.33721063 0.052632611 0.096956469 -0.43157953 -0.00010267606 -0.90207493 0
0.34346566 0.056316286 0.09394864 -0.43344244 -3.8468929e-06 -0.90118122 0
-0.16379881 0.067271486 0.093674868 0.52542394 1.7225673e-05 -0.85084063 1.3628565e-05
-0.15480165 0.066174582 0.099231064 0.52460653 -0.00033159202 -0.8513447 7.2823796e-06
0.33653241 0.064418137 0.097282603 -0.4321194 4.9783022e-05 -0.90181637 0
0.34419239 0.066309623 0.0935992 -0.43336853 -8.3280511e-06 -0.9012168 7.2697835e-06
0.35054657 0.066196203 0.090543732 -0.43333304 2.960066e-06 -0.90123385 1.6274776e-05
-0.16597973 0.074297965 0.092328049 0.52544641 -3.834152e-07 -0.85082662 0
-0.15527377 0.075353868 0.098939516 0.52432656 5.5308374e-05 -0.85151726 0
0.33374229 0.077962831 0.098624244 -0.43174621 0.00010136159 -0.90199518 0
0.34450963 0.073647447 0.093446657 -0.43335864 -6.1070529e-07 -0.90122157 0
-0.15659516 0.08699616 0.098123476 0.52436578 -0.00023479997 -0.85149306 0
0.33588934 0.084985875 0.09759181 -0.43185672 4.4255703e-05 -0.90194219 0
0.34552956 0.086144865 0.092956223 -0.43339947 -8.8176075e-06 -0.9012019 0
-0.16684844 0.092903234 0.09179157 0.52543116 9.1775319e-06 -0.8508361 0
-0.15538423 0.098680109 0.098871291 0.52434081 -4.7833841e-05 -0.85150844 4.8854231e-06
0.33532509 0.093765348 0.097863145 -0.43123111 -4.1611569e-05 -0.90224153 7.816845e-06
0.34533113 0.09517578 0.093051635 -0.43345639 -7.1847048e-06 -0.90117455 0
-0.16690686 0.10547939 0.091755502 0.52544498 -2.456351e-06 -0.85082763 0
-0.15964469 0.1016679 0.096240237 0.52543736 2.4828439e-06 -0.85083228 4.4831863e-06
0.33805895 0.10451771 0.096548565 -0.4314256 1.3628281e-05 -0.90214854 3.7852096e-05
0.34508318 0.10237306 0.093170851 -0.43331948 6.3944663e-06 -0.90124035 1.7706956e-05
0.35010836 0.10914618 0.090754449 -0.43334764 -1.5004716e-05 -0.90122688 0
-0.16433847 0.11357027 0.093341596 0.52543092 1.5330312e-06 -0.85083622 0
-0.1593018 0.11750181 0.096451998 0.52542269 8.0103955e-06 -0.85084134 6.674266e-07
0.33419758 0.11597037 0.098405316 -0.4300794 -0.00093993085 -0.90279055 0
0.34423921 0.11419284 0.093576714 -0.43335003 -7.914311e-06 -0.90122569 0
0.35042581 0.11295858 0.090601802 -0.43301076 9.7229284e-05 -0.90138876 4.151178e-06
-0.16378467 0.12264874 0.0936836 0.52544659 2.7924993e-06 -0.85082656 0
-0.15665814 0.12705885 0.098084591 0.51597059 -0.043469898 -0.85550261 0.004435786
0.33365795 0.1220533 0.098664798 -0.43070626 -0.00026525196 -0.90249211 4.4235907e-07
0.3442249 0.12430646 0.093583576 -0.43307906 -0.0025004062 -0.90135241 4.1493804e-05
0.35157853 0.12473961 0.090047508 -0.43165964 -0.0038799257 -0.90202826 4.5315584e-05
-0.16074033 0.13984749 0.095563643 0.46879491 -0.21178959 -0.85754097 0.03059601
-0.15788232 0.1341556 0.097328596 0.51880878 -0.10561313 -0.84834152 0.010477011
0.33589405 0.13433844 0.097589552 -0.41587403 -0.12376101 -0.9009617 0.019447597
0.34790254 0.13332577 0.091815136 -0.41803327 -0.066922419 -0.90596336 0.0091260904
0.35117587 0.13571489 0.090241134 -0.43185735 -0.10825788 -0.89542145 0.014073589
-0.16349302 0.1444881 0.093863718 0.43578202 -0.32973614 -0.83747715 0.040491953
-0.15573479 0.14436582 0.098654807 0.47536674 -0.26179665 -0.83993393 0.035000667
0.33310804 0.14740567 0.098929241 -0.32880184 -0.4877325 -0.80870658 0.065864637
0.34603763 0.14474912 0.092711918 -0.3777515 -0.32069328 -0.86859643 0.044796091
-0.16582491 0.1530097 0.092423655 0.34412169 -0.56250447 -0.75177723 0.049368683
-0.15391578 0.15436794 0.095602959 0.31420982 -0.59381694 -0.74071151 0.047853615
-0.1465987 0.15502147 0.094731048 0.22615768 -0.63667506 -0.73722291 0.051318746
-0.1366633 0.15544282 0.093574733 0.10568654 -0.76115394 -0.63990247 0.047422569
-0.12644371 0.15366668 0.098449036 0.10182282 -0.85295272 -0.51196063 0.029858429
-0.11507669 0.15504889 0.09465576 0.008709874 -0.93361747 -0.3581655 0.00051620009
-0.10544226 0.15517335 0.094314247 -4.7558387e-06 -0.93956745 -0.34236389 9.1126622e-06
-0.095511459 0.15478475 0.095380686 -6.1749761e-06 -0.93956661 -0.34236595 0
-0.083885677 0.15489177 0.095086955 -8.8640343e-07 -0.93956858 -0.34236073 7.7352806e-06
-0.072409593 0.15564187 0.093028486 -1.0454401e-05 -0.93956435 -0.34237239 7.3494607e-06
-0.066789217 0.1543798 0.096492037 3.5062719e-06 -0.93955922 -0.34238648 0
-0.056561906 0.15525737 0.09408363 -1.4128034e-05 -0.93956035 -0.34238347 2.3784644e-06
-0.044198129 0.15587728 0.092382386 2.4766573e-06 -0.93956101 -0.34238169 0
-0.034271091 0.15511802 0.094466075 5.4437046e-06 -0.93956184 -0.34237927 0
-0.025385171 0.15434617 0.096584268 1.3791804e-06 -0.93956429 -0.34237242 0
-0.015302932 0.15466231 0.095716693 -9.6947758e-07 -0.93957043 -0.34235588 5.032136e-06
-0.0032955713 0.15399079 0.097559601 3.5829444e-07 -0.93956465 -0.34237143 3.2968649e-06
0.0039090496 0.15475766 0.095454954 3.7486504e-07 -0.93956685 -0.34236553 0
0.013757011 0.15522036 0.094185196 1.3092907e-06 -0.93956208 -0.34237844 4.0439409e-06
0.027539477 0.15485942 0.095175765 -4.1738563e-06 -0.93956488 -0.34237084 0
0.037597157 0.15517077 0.09432134 6.8354802e-07 -0.93956614 -0.34236738 1.6761966e-05
0.043567955 0.15547697 0.093481004 3.5244599e-07 -0.93956304 -0.34237599 0
0.055522487 0.15405047 0.097395793 -6.2769004e-06 -0.93956286 -0.34237644 0
0.063350432 0.15493748 0.094961569 -1.0622148e-05 -0.93956143 -0.34238049 0
0.074066199 0.15381068 0.098053873 4.3874908e-07 -0.9395662 -0.34236726 0
0.084135376 0.1540464 0.097406946 -1.5159747e-05 -0.93955475 -0.34239864 0
0.090951987 0.15553671 0.093317062 -1.4811098e-05 -0.93956691 -0.34236556 0
0.10418366 0.15453215 0.096073888 -4.1227327e-06 -0.93956405 -0.34237316 0
0.11837579 0.15605235 0.091902003 -1.4639724e-05 -0.93956858 -0.34236088 1.952217e-06
0.12460832 0.15552354 0.093353234 1.8871015e-05 -0.939569 -0.34235963 1.9126051e-05
0.13573456 0.15510394 0.094504721 -1.6061773e-05 -0.93956536 -0.34236959 0
0.14305474 0.15505134 0.094649076 2.4079705e-05 -0.93956286 -0.34237641 4.6809746e-06
0.15143545 0.1543299 0.096628956 -2.451764e-06 -0.93957031 -0.34235594 0
0.16691545 0.15553129 0.093331918 7.3935771e-06 -0.93956733 -0.34236443 1.801502e-05
0.17399496 0.15538868 0.093723342 1.5775322e-05 -0.9395656 -0.34236872 6.8970617e-06
0.18597077 0.15482685 0.095265143 -8.1836943e-06 -0.93956548 -0.3423692 0
0.1956296 0.15532753 0.093891129 -1.1237543e-05 -0.93956941 -0.34235838 0
0.20684312 0.1562227 0.091434523 -1.5312753e-06 -0.93956721 -0.34236428 0
0.21258739 0.15446933 0.096246347 -2.653351e-06 -0.93956047 -0.34238315 0
0.22610494 0.15601739 0.091997899 2.0997575e-05 -0.93956673 -0.34236586 0
0.23566644 0.15565868 0.092982329 1.4385329e-05 -0.93957078 -0.34235471 2.4883957e-06
0.24623029 0.15521459 0.094201088 -1.2188733e-06 -0.93957096 -0.34235412 0
0.25538674 0.15479051 0.095364906 4.869335e-06 -0.93956816 -0.34236208 0
0.26725775 0.15453556 0.096064523 -3.8271714e-06 -0.93956238 -0.34237775 0
0.27280095 0.15424618 0.096858658 -0.0098035643 -0.93188661 -0.36261719 0.00072216219
0.28707898 0.1554032 0.093683422 -0.010328765 -0.93466616 -0.35537675 0.00046334931
0.30248865 0.15492666 0.094991244 -0.054022126 -0.89166176 -0.4494673 0.016271921
0.31376472 0.15603265 0.091956057 -0.056665532 -0.84318179 -0.53463393 0.028156057
0.32557651 0.15630825 0.091199726 -0.070606925 -0.81321156 -0.5776692 0.041436706
0.33377165 0.15548864 0.093278676 -0.16248372 -0.72676587 -0.66739076 0.06185171
0.3428292 0.15314253 0.093482636 -0.323302 -0.44376493 -0.83579212 0.053822123
0.35036099 0.15653579 0.09057527 -0.27930355 -0.6045897 -0.74596304 0.055104721
-0.14611426 -0.15222594 0.10340983 0.35983312 0.55744421 -0.74818182 0.054151941
-0.13672438 -0.15201119 0.10501 0.24993777 0.6505844 -0.71712703 0.051545084
-0.12636481 -0.15135209 0.10681876 0.21880639 0.71018952 -0.66914469 0.049085256
-0.11526729 -0.15203352 0.10494874 0.1126943 0.83759439 -0.5345425 0.034442358
-0.10860439 -0.15230851 0.10419407 0.073309332 0.89255577 -0.44493809 0.017275408
-0.094372503 -0.1528184 0.10279472 0.0020562033 0.93755752 -0.34782416 6.2662235e-05
-0.084386349 -0.15197855 0.10509951 0.0040202765 0.93777704 -0.34721467 7.7951066e-05
-0.073991694 -0.15129057 0.1069876 1.6504493e-05 0.93957263 -0.34234956 0
-0.065019809 -0.15185101 0.10544954 8.747752e-06 0.93957192 -0.34235159 6.1154201e-06
-0.052764617 -0.15213706 0.10466457 7.7782024e-06 0.93956494 -0.34237075 4.791671e-06
-0.042525224 -0.152086 0.10480466 -8.3207315e-06 0.93957299 -0.34234872 1.7573608e-05
-0.033833966 -0.15170266 0.10585668 1.7372955e-05 0.93955958 -0.34238535 0
-0.02690131 -0.15147564 0.10647969 1.2148696e-06 0.93956625 -0.34236708 0
-0.013629307 -0.15193242 0.10522613 -3.0735092e-07 0.93956357 -0.34237438 3.27764e-06
-0.0042020539 -0.15181279 0.10555443 -2.8494847e-07 0.93956643 -0.34236646 0
0.0055851005 -0.15167299 0.10593809 9.9843544e-07 0.93956792 -0.34236258 1.9140296e-05
0.016327126 -0.15182431 0.1055228 1.8789555e-06 0.93956649 -0.34236631 1.3542031e-05
0.022983139 -0.15200794 0.10501885 -9.0199796e-07 0.93956745 -0.34236377 3.9449978e-06
0.03548288 -0.152123 0.10470305 -1.2204532e-06 0.93956447 -0.34237218 1.5393185e-05
0.046238434 -0.15262024 0.10333851 5.1861398e-06 0.9395628 -0.34237641 7.7272425e-06
0.055496119 -0.15150706 0.1063934 -9.5629039e-06 0.93956286 -0.34237644 0
0.067797877 -0.1516681 0.1059515 -1.887673e-06 0.93956131 -0.34238073 0
0.071270086 -0.15316889 0.10183284 3.8495755e-06 0.93956184 -0.34237912 1.5620459e-05
0.08328063 -0.15144102 0.10657468 -7.3311376e-06 0.93956649 -0.34236658 0
0.09605252 -0.15209152 0.10478951 -7.1129566e-06 0.93956262 -0.34237719 0
0.10399618 -0.1513972 0.10669493 -6.6763246e-06 0.93956375 -0.34237415 0
0.11644724 -0.15262607 0.10332251 1.6740991e-05 0.93956584 -0.34236825 3.9522315e-06
0.12694336 -0.15191026 0.10528692 7.9093206e-06 0.93955755 -0.34239087 0
0.13472182 -0.15202615 0.10496888 -2.8084301e-05 0.9395659 -0.34236801 3.4402963e-06
0.14559828 -0.15188418 0.10535846 4.1495518e-05 0.9395622 -0.34237829 2.8362272e-06
0.15661052 -0.15326308 0.10157435 1.7574735e-05 0.93956912 -0.34235924 0
0.16539147 -0.1523338 0.10412461 1.932319e-05 0.9395622 -0.34237817 1.2792017e-05
0.17165056 -0.15074407 0.10848737 2.8806691e-05 0.93957138 -0.34235322 6.8512641e-06
0.19549219 -0.15331756 0.10142484 -4.6777263e-06 0.93956029 -0.34238341 0
0.20510662 -0.15259714 0.10340187 -2.3647824e-05 0.93956715 -0.34236467 0
0.21206915 -0.1519739 0.1051123 -6.2119225e-06 0.9395625 -0.34237733 0
0.22689243 -0.15237986 0.10399824 2.3363671e-05 0.9395656 -0.34236899 0
0.23530915 -0.15203102 0.10495556 -4.7037705e-05 0.93956131 -0.34238061 0
0.24171358 -0.15283176 0.10275799 -4.8507074e-05 0.93956614 -0.34236741 0
0.2544508 -0.15277633 0.10291013 -0.0033785403 0.93789428 -0.34690464 0.00012206083
0.26325268 -0.15297778 0.10235734 -0.0019297055 0.93773025 -0.34735888 0.00011377383
0.27582273 -0.15153304 0.10632215 -0.095520116 0.87578326 -0.4731591 0.020670854
0.28606322 -0.15141873 0.10663588 -0.067121252 0.84014982 -0.538185 0.033201616
0.29266283 -0.15153067 0.10632867 -0.095598906 0.84570837 -0.52501255 0.023377499
0.30062824 -0.1520582 0.10488097 -0.14580584 0.74464822 -0.65133685 0.047277845
0.31313595 -0.15282522 0.10277605 -0.17180073 0.75692898 -0.63051003 0.045943007
0.32503718 -0.15226765 0.10194588 -0.22159845 0.63642573 -0.73882097 0.051030125
-0.15093899 -0.14460632 0.10161646 0.47919813 0.38502181 -0.78875053 0.040703349
-0.14560956 -0.14385062 0.10490763 0.45290503 0.37835756 -0.80729342 0.041230869
0.31375316 -0.14275612 0.10804614 -0.31716269 0.42086843 -0.84986919 0.053179458
0.32605481 -0.14502846 0.10232085 -0.34274331 0.3842113 -0.85726815 0.051067181
0.33061883 -0.14787401 0.10012619 -0.32341385 0.47007167 -0.82124066 0.054528009
-0.15159747 -0.13768689 0.1012098 0.48417708 0.267809 -0.83297706 0.032792781
-0.14532286 -0.13420923 0.10508469 0.4850271 0.13216789 -0.86445373 0.012888166
-0.13816684 -0.13282555 0.10950387 0.47079763 0.14193495 -0.87074918 0.012326569
0.31322858 -0.13566615 0.10827208 -0.35139272 0.24023961 -0.90488011 0.032536499
0.32314891 -0.13479991 0.10371821 -0.38007477 0.19010586 -0.90520883 0.030331766
-0.15209687 -0.12547787 0.1009014 0.52211922 0.015404952 -0.85273337 0.00046581321
-0.14437249 -0.1257823 0.10567157 0.50542724 0.025874196 -0.86248124 0.001317668
-0.13816261 -0.12533005 0.10950649 0.47429165 0.057095286 -0.87851441 0.0039209477
0.31489402 -0.12682179 0.10754833 -0.3951689 0.050557915 -0.91721618 0.0044928156
0.32675251 -0.12576674 0.10198536 -0.42469347 0.0039708256 -0.90532851 5.2065534e-05
-0.15199789 -0.11522295 0.10096252 0.52486449 -0.00049357564 -0.85118568 7.3889551e-06
-0.14740273 -0.11852144 0.10380026 0.51656157 -0.0011323491 -0.85624933 0.00010650729
-0.13885958 -0.11071417 0.10907607 0.49345744 -0.0018492684 -0.86976796 0.00028531833
0.31677827 -0.11741388 0.10670467 -0.41283652 -0.00015270288 -0.91080517 6.078669e-05
0.32537892 -0.11652895 0.10264586 -0.42482907 -0.00090009585 -0.90527314 6.5758759e-05
-0.14604503 -0.10153069 0.1046387 0.51376021 0.00040489112 -0.85793376 8.8271088e-05
-0.13876945 -0.10778514 0.10913173 0.4934589 -0.0018392822 -0.86976719 0.00027500404
0.31486061 -0.10397291 0.10756918 -0.41273996 0.0012231492 -0.91084808 4.996491e-05
0.32229984 -0.10571364 0.10412648 -0.421336 -0.00023130911 -0.90690458 2.9809238e-05
-0.15228903 -0.098670036 0.10078274 0.52475411 -3.7961163e-05 -0.85125387 0
-0.14725043 -0.093633525 0.10389432 0.51576984 0.00096569292 -0.85672665 7.9020552e-05
0.31520694 -0.09495493 0.10739455 -0.41069883 -2.4242841e-05 -0.91177106 4.0986124e-05
0.32439917 -0.096624404 0.10311697 -0.42189091 0.00074613013 -0.90664637 2.7288956e-05
-0.14675766 -0.084248744 0.10419862 0.515037 -0.0010025441 -0.85716742 7.456704e-05
0.3147344 -0.085363567 0.10760844 -0.41200617 -0.00037270848 -0.91118097 1.7203847e-05
0.32534036 -0.084006302 0.1026644 -0.42364171 -0.00078780152 -0.90582949 1.9130341e-05
0.3307566 -0.084752627 0.10005996 -0.42792392 -0.00052002753 -0.90381461 2.9398054e-05
-0.15151754 -0.07388334 0.10125917 0.52174443 0.00094509037 -0.85310131 3.6353653e-05
-0.14530663 -0.073765337 0.1050947 0.51373607 0.00090510264 -0.85794777 7.0885144e-05
-0.13788845 -0.077053919 0.10967579 0.49504101 -0.0011769229 -0.86886883 0.00022313437
0.30946031 -0.079441108 0.10989504 -0.4069089 -0.00093949586 -0.91346824 3.7387625e-05
0.31446207 -0.075636312 0.10773031 -0.41157407 -0.0011677016 -0.91137558 4.6287871e-05
0.32597464 -0.075256839 0.10235939 -0.42439783 -0.00049719354 -0.90547568 1.4115619e-05
-0.15201703 -0.064191565 0.1009507 0.52371806 -0.00034934934 -0.85189152 3.6365589e-06
-0.14789785 -0.066219576 0.10349449 0.51622623 0.0019019125 -0.8564502 8.1934704e-05
-0.13894954 -0.068488702 0.10902052 0.49846146 0.0035223772 -0.86690474 0.00020076628
0.31455782 -0.065463476 0.10767693 -0.4112345 0.0011043967 -0.91152894 7.1257491e-05
0.32571617 -0.063208155 0.1024837 -0.42359322 0.00011618777 -0.9058525 4.5580632e-07
0.33027601 -0.060500801 0.10029106 -0.42672297 -4.3033077e-05 -0.90438241 6.1594683e-06
-0.15101869 -0.055840898 0.10156722 0.52355194 -0.00024853961 -0.85199374 3.7978546e-06
-0.14703602 -0.055127282 0.10402673 0.51504099 0.0005625317 -0.85716534 9.6341217e-05
0.31660101 -0.05399771 0.10677021 -0.41392261 0.0015439712 -0.91031075 2.9691148e-05
0.32738948 -0.052914985 0.10167906 -0.42454693 -0.0006483125 -0.9054057 5.7082903e-05
-0.15144521 -0.046649545 0.10130383 0.52372408 8.6104112e-05 -0.85188794 0
-0.14516728 -0.04494283 0.10518076 0.51278812 0.00052778027 -0.85851502 0.00012015017
-0.13987163 -0.046627168 0.10845109 0.49617374 -0.0019798474 -0.86822098 0.00026252877
0.30950174 -0.048440181 0.10987718 -0.40564972 0.00042974646 -0.91402853 3.6713584e-05
0.31496152 -0.04406118 0.10752571 -0.41307774 0.0009742023 -0.91069525 3.1898257e-05
0.32300112 -0.04491654 0.10378925 -0.42102653 2.2968541e-06 -0.90704829 5.4720698e-05
-0.14364401 -0.036045905 0.10612145 0.50945091 -0.00011223221 -0.86049968 0.00018607665
-0.13827261 -0.0385461 0.10943855 0.49300423 0.00081881351 -0.87002653 0.00026361918
0.30981365 -0.035582885 0.10974288 -0.40488586 -0.0010681038 -0.91436654 3.3087475e-05
0.31431735 -0.035586867 0.1078028 -0.41198373 -0.00013792355 -0.91119123 3.7983787e-05
0.32505029 -0.033989258 0.1028039 -0.42337132 -0.00054355303 -0.90595609 4.3637196e-05
-0.15115435 -0.020721029 0.10148345 0.52370638 -0.00056359917 -0.85189873 0
-0.14508085 -0.026742328 0.10523413 0.51337606 -0.0014176035 -0.85816258 0.00011507748
-0.1391328 -0.028155699 0.10890735 0.49999845 0.00082389911 -0.86602592 0.00024919145
0.31490803 -0.024284219 0.1075297 -0.41261479 -0.00070567825 -0.91090536 7.90142e-05
0.32321382 -0.025983669 0.10368698 -0.41990182 -0.00089994736 -0.90756911 5.8208465e-05
-0.15069908 -0.013632091 0.1017646 0.51944292 -0.00066305196 -0.85450494 5.1575698e-05
-0.14558138 -0.016225463 0.10492502 0.51453674 -0.00066876155 -0.85746813 0.00011735757
0.31519201 -0.013287975 0.10741098 -0.41137046 -0.00076552399 -0.91146791 3.7616781e-05
0.32551178 -0.015720883 0.10258196 -0.42447403 0.0005793827 -0.90543991 4.3121472e-05
0.33015233 -0.015638562 0.10035053 -0.42856959 0.00054565497 -0.9035086 1.8223844e-05
-0.15210071 -0.0024432074 0.10089902 0.52232009 0.0003005912 -0.85274941 1.7513055e-05
-0.14659545 -0.0041168956 0.10429879 0.51619267 0.00062607817 -0.85647219 8.7039269e-05
0.3133387 -0.004627266 0.10819575 -0.40922976 0.0012219989 -0.91243047 3.7128426e-05
0.32712606 -0.0062551866 0.10180574 -0.42584443 -0.0012180965 -0.90479553 3.2217475e-05
-0.15121177 0.0041996958 0.101448 0.52187699 0.0013899492 -0.8530196 4.8217214e-05
-0.14527652 0.0036352412 0.10511331 0.51440698 0.0020812878 -0.85754371 0.00010864755
0.31371161 0.0054782038 0.10806403 -0.41053656 -0.00042986948 -0.91184402 5.4767639e-05
0.32282197 0.0033957157 0.1038754 -0.42289582 -0.0007132485 -0.906178 2.8879069e-05
-0.15087774 0.015622122 0.10165426 0.51957905 -0.00048225676 -0.85442221 6.2807463e-05
-0.14422219 0.013816373 0.10576441 0.50857335 0.00053545053 -0.86101854 0.00016997737
-0.13801877 0.014210756 0.10959532 0.49259394 -0.0026754967 -0.87025517 0.0002569627
0.32445315 0.014054473 0.10309102 -0.42344573 9.2934606e-05 -0.90592146 1.372325e-05
-0.15157329 0.028450912 0.10122473 0.5213846 0.0005262167 -0.85332167 2.7705897e-05
-0.14511201 0.024959194 0.10521488 0.5102101 0.00041335521 -0.86004972 0.00015342663
-0.13825853 0.025438219 0.10944726 0.49067724 0.00051263487 -0.87134123 0.00028460621
0.30925062 0.020152703 0.10998534 -0.40316007 -0.0010406128 -0.91512889 2.304929e-05
0.31413004 0.022787564 0.10788383 -0.41125259 0.0007561213 -0.91152114 4.843541e-05
0.32691985 0.029316634 0.1019049 -0.42383134 -0.00014961674 -0.90574116 3.7121568e-05
-0.15295257 0.038459368 0.10037296 0.52422279 4.4453678e-05 -0.85158116 3.9757151e-06
-0.1460128 0.034665357 0.1046586 0.51509339 -0.00023229636 -0.8571341 9.192375e-05
0.3094117 0.033044904 0.10991596 -0.40453857 -0.00037942562 -0.91452086 1.2188344e-05
0.31203741 0.035923105 0.10878509 -0.40988767 0.001078265 -0.9121353 3.5273082e-05
0.32646355 0.032525804 0.10212431 -0.4225015 -0.00043201927 -0.90636212 2.4263674e-05
0.33075336 0.030359151 0.10006148 -0.42774749 0.00048570285 -0.90389806 1.978555e-05
-0.14505264 0.045651358 0.10525155 0.50817692 0.001225888 -0.86125177 0.00014625228
-0.13852592 0.049240589 0.10928214 0.4967615 0.0016916441 -0.86788547 0.00026572245
0.31340346 0.044950038 0.10819677 -0.40974063 0.00030471224 -0.91220194 3.1047352e-05
0.32405394 0.043121185 0.10328299 -0.42023686 -0.00043679963 -0.90741432 3.0231929e-05
-0.15138811 0.054667935 0.1013391 0.52188402 0.00096240285 -0.85301596 3.4219283e-05
-0.1450333 0.055983309 0.10526349 0.51489627 0.0004129156 -0.85725236 9.1261041e-05
-0.13830252 0.051201172 0.10942009 0.49583408 0.00065660058 -0.86841702 0.00026404587
0.31526357 0.052206334 0.10739563 -0.41240174 -0.00039071048 -0.91100204 1.3739083e-05
0.32511759 0.057322588 0.10277153 -0.42369035 -0.0005038032 -0.90580696 4.5596043e-05
-0.14589542 0.066847205 0.10473111 0.51393282 -0.00053044624 -0.85783029 8.7394234e-05
-0.13940161 0.068977773 0.10874134 0.50230145 -0.00090638764 -0.86469203 0.00026378655
0.31542385 0.064444177 0.10729356 -0.41131246 0.00061648578 -0.91149414 5.3624728e-05
0.32427403 0.063818745 0.10317717 -0.4232322 -0.00065733859 -0.906021 2.0274556e-05
-0.15167204 0.07728371 0.10116376 0.52176338 0.00016765342 -0.85309029 1.823632e-05
-0.14631845 0.072654776 0.10446986 0.51566815 -0.0011901163 -0.85678762 9.6447147e-05
-0.13905932 0.077487528 0.10895273 0.49363858 -0.0024782431 -0.86966354 0.00024714135
0.31654876 0.072319031 0.1068278 -0.41239703 -0.0029211796 -0.91099966 6.1371946e-05
0.3241829 0.075467385 0.10322098 -0.42125651 0.0014750425 -0.90694028 2.6882979e-05
-0.15195167 0.084373772 0.10099106 0.52145255 -0.00045188962 -0.85328019 2.7666678e-05
-0.14448181 0.084098242 0.10560407 0.5108937 -0.0010265759 -0.85964328 0.00014824148
0.31335348 0.084703311 0.10821828 -0.40910527 -0.0016928259 -0.9124856 5.3210464e-05
0.32706121 0.088001095 0.10183692 -0.42377776 -0.00031966166 -0.90576619 5.0436804e-05
-0.14872307 0.09759748 0.10298488 0.51713449 0.00049473986 -0.85590398 8.2266248e-05
-0.13934107 0.090352803 0.10877873 0.49625069 0.00071063265 -0.8681789 0.00022276099
0.31613481 0.092451505 0.10699324 -0.41230515 -0.00088539481 -0.91104531 4.0871419e-05
0.32590604 0.093850754 0.10239239 -0.42342085 3.6575562e-05 -0.90593308 4.5760935e-05
-0.14505728 0.10603412 0.1052487 0.51599848 -0.00077957188 -0.8565892 8.1036495e-05
0.31226337 0.10210461 0.10868777 -0.41093904 0.0015694007 -0.91166145 3.4727265e-05
0.32708219 0.10354979 0.10182682 -0.42440996 -0.00016677327 -0.90547019 4.4810989e-05
0.33058926 0.10011975 0.10014043 -0.42897147 -0.00036354564 -0.90331793 1.9318055e-05
-0.15054587 0.11541031 0.10185922 0.52026528 0.0014029158 -0.85400355 4.0951054e-05
-0.14524858 0.11465214 0.10513057 0.51714844 0.0010288625 -0.85589516 9.1693168e-05
-0.13906272 0.11165006 0.10895062 0.49895328 0.0022563841 -0.86662596 0.00029336929
0.31526592 0.11467632 0.10736585 -0.41048089 0.0012435112 -0.91186839 7.1445211e-05
0.32428205 0.11728899 0.1031733 -0.42223898 0.0002795457 -0.90648454 3.3664819e-05
-0.15231901 0.12362742 0.10076421 0.5242604 0.00016253718 -0.85155797 2.0842256e-06
-0.14403099 0.1253252 0.10588247 0.50618964 -0.029401999 -0.86192083 0.0027689324
-0.1377954 0.12429792 0.10973326 0.49403089 -0.025840424 -0.86906028 0.0025168022
0.30954054 0.12643394 0.10986048 -0.38890111 -0.078983702 -0.91788751 0.0082821026
0.3152014 0.12444552 0.10740324 -0.40399876 -0.033666246 -0.91413981 0.0023144698
0.32447445 0.12623103 0.10308079 -0.41963571 -0.014586133 -0.90757549 0.00060989248
-0.14398992 0.13556999 0.10590784 0.44959313 -0.17400928 -0.87612033 0.026415914
-0.13832925 0.13131081 0.10940358 0.47174269 -0.15891477 -0.86729741 0.022068754
0.31518486 0.13528909 0.10739232 -0.37461835 -0.20692374 -0.90379405 0.027640952
0.32772416 0.13265155 0.10151815 -0.40545204 -0.12099338 -0.90607357 0.01631701
-0.15300065 0.14720751 0.10034327 0.36383796 -0.46433961 -0.80747181 0.05117419
-0.14486629 0.14471962 0.10536664 0.31143376 -0.4965452 -0.81021714 0.053488612
-0.13759959 0.1408897 0.10985418 0.41641876 -0.285678 -0.86312425 0.041552104
-0.10885745 0.14999676 0.10852049 0.10479961 -0.86651409 -0.48802704 0.02654966
-0.095186993 0.14946853 0.10997014 0.046107467 -0.9075579 -0.41738793 0.012126355
-0.083945297 0.14964454 0.10948708 0.0056784032 -0.93379813 -0.35775536 0.00070693501
-0.030189486 0.14948198 0.10993318 6.1946116e-06 -0.93956482 -0.34237108 0
-0.020909945 0.14976534 0.10915557 1.8399894e-06 -0.93956494 -0.34237051 0
-0.00011848193 0.14994957 0.10864998 -8.1408751e-07 -0.93956989 -0.34235716 2.7602598e-06
0.0090603046 0.14954236 0.1097675 7.8390639e-07 -0.93956602 -0.34236774 9.3537693e-07
0.015468784 0.14987512 0.10885428 2.2346239e-06 -0.93957335 -0.34234768 1.018438e-05
0.046289176 0.14958227 0.10965801 -6.3165035e-06 -0.93956947 -0.34235829 8.069811e-06
0.061288778 0.14986384 0.10888526 -1.0339069e-05 -0.93955982 -0.34238485 0
0.089735262 0.14953497 0.10978781 -8.7385542e-06 -0.93956453 -0.34237191 0
0.1059965 0.14965908 0.1094472 -1.7537219e-05 -0.93956304 -0.34237599 0
0.12523603 0.14965336 0.1094629 1.5201706e-05 -0.93956655 -0.3423664 4.902106e-06
0.14106205 0.14949083 0.10990892 3.7319827e-09 -0.93956321 -0.34237555 5.68107e-07
0.17162444 0.14971864 0.10928377 -1.4878732e-06 -0.93956614 -0.34236762 0
0.18531206 0.1498692 0.10887057 3.0844829e-05 -0.93957072 -0.34235492 8.4627873e-06
0.19645025 0.14955413 0.1097352 -4.9512884e-05 -0.9395628 -0.34237665 0
0.2083265 0.14984176 0.10894588 -3.5215089e-05 -0.93956554 -0.3423692 0
0.21518061 0.14951023 0.1098557 1.2814623e-05 -0.93956226 -0.34237817 1.9339455e-05
0.22606935 0.14971444 0.10929528 1.6447567e-06 -0.93956304 -0.34237611 0
0.23486163 0.14976338 0.10916097 3.8117196e-05 -0.93956852 -0.34236085 3.5220378e-06
0.24947172 0.14992058 0.10872953 -0.012067274 -0.93387812 -0.35738802 0.0016196314
0.25842845 0.14946869 0.10996972 -0.044421859 -0.918616 -0.39264664 0.0080993539
0.26523775 0.14967497 0.10940363 -0.086535789 -0.88062495 -0.46584472 0.021800704
0.27333087 0.14979818 0.1090655 -0.10202005 -0.85541195 -0.50780141 0.025233731
0.31434196 0.14966819 0.10779256 -0.22726515 -0.60444415 -0.76354295 0.068372369
0.32727486 0.14530951 0.10173418 -0.33096892 -0.37508702 -0.86589217 0.053671889
0.33077633 0.14575043 0.10005046 -0.34017903 -0.38737118 -0.85686743 0.055749219
-0.15285251 0.15097959 0.10043477 0.31934661 -0.55807525 -0.76587838 0.052893572
-0.14417626 0.15300183 0.10027362 0.24260661 -0.68754238 -0.68441767 0.054687083
-0.13567767 0.1517684 0.10365853 0.25717905 -0.63923275 -0.72473472 0.055856716
-0.12518218 0.15222754 0.10239854 0.099894308 -0.83259082 -0.54480612 0.03196808
-0.11579616 0.15160206 0.10411504 0.07974048 -0.87483197 -0.47781837 0.017151583
-0.10186616 0.15264735 0.10124639 0.0097432174 -0.93637556 -0.35086453 0.00024758876
-0.092490353 0.15180458 0.10355923 0.0044309301 -0.93690675 -0.34955114 0.00012166009
-0.087331265 0.15107097 0.10557251 0.0018566798 -0.9377287 -0.34736368 8.1953411e-05
-0.074750036 0.15234908 0.10206486 -2.2524751e-05 -0.93956548 -0.34236917 1.6687594e-05
-0.063741423 0.15067579 0.10665702 -3.5040969e-06 -0.9395628 -0.34237656 0
-0.055984993 0.15171941 0.10379297 4.5016282e-07 -0.93956745 -0.34236386 0
-0.040815607 0.15187454 0.10336719 6.9007237e-06 -0.93955982 -0.34238479 0
-0.024459772 0.15158547 0.10416052 -8.2815467e-07 -0.93956512 -0.34237015 0
-0.016258731 0.1519019 0.10329213 7.7736519e-07 -0.93956596 -0.3423681 0
-0.0068401443 0.15148591 0.10443379 -8.9721306e-07 -0.93956894 -0.34235972 0
0.0028437683 0.15188944 0.10332632 7.4535514e-08 -0.93956196 -0.342379 0
0.018305441 0.15078245 0.10636428 -1.6953991e-06 -0.93956488 -0.34237081 0
0.026019847 0.15130135 0.10494027 8.7395682e-07 -0.93956757 -0.34236354 9.7490974e-06
0.033100836 0.15196636 0.10311528 -5.3577344e-07 -0.93956763 -0.34236342 3.1838059e-05
0.04687671 0.15113895 0.10538598 4.3369742e-08 -0.93956459 -0.34237158 1.962014e-05
0.055262573 0.15003863 0.10840558 3.9865163e-06 -0.93956977 -0.34235764 0
0.064644217 0.15198623 0.10306074 1.0502001e-06 -0.93957454 -0.34234437 5.6585786e-06
0.073749401 0.15209445 0.10276374 3.7508869e-06 -0.939565 -0.34237072 0
0.08572682 0.15194143 0.10318368 -1.0063067e-06 -0.93955982 -0.34238487 0
0.095762558 0.15140219 0.10466348 1.2025432e-05 -0.93956292 -0.34237629 0
0.10627641 0.15153711 0.10429324 7.3701149e-06 -0.93956774 -0.34236321 9.5694395e-06
0.1139226 0.15205625 0.10286859 3.7182763e-05 -0.9395625 -0.34237733 3.6668243e-05
0.12500441 0.15230052 0.10219824 2.2161916e-05 -0.93956327 -0.34237549 2.3320566e-05
0.13666236 0.1505101 0.10711171 1.9027219e-05 -0.93956143 -0.34238037 6.7155684e-06
0.14410962 0.15146638 0.10448733 -1.4319872e-05 -0.93956357 -0.34237465 0
0.153317 0.15166348 0.10394643 2.6932744e-06 -0.9395594 -0.34238589 9.1884513e-06
0.16463171 0.15104587 0.10564136 -9.4917823e-06 -0.93956476 -0.34237114 0
0.17404765 0.15127939 0.10500053 -1.6436505e-05 -0.93955946 -0.34238589 0
0.18482503 0.15143777 0.1045659 1.6657063e-05 -0.93956476 -0.34237111 0
0.19611068 0.15147407 0.10446627 -1.0528273e-05 -0.93957341 -0.34234756 3.9985252e-06
0.21830642 0.15018883 0.10799336 -2.942213e-05 -0.93956608 -0.34236768 0
0.22596125 0.15196787 0.1031111 2.5897503e-05 -0.93956709 -0.34236476 1.127573e-05
0.23603624 0.15089162 0.10606471 2.8026468e-05 -0.93956494 -0.34237075 4.5596857e-06
0.24536979 0.15105534 0.1056154 -1.1331642e-05 -0.93956512 -0.3423703 0
0.25226888 0.15178998 0.10359931 1.2617947e-05 -0.93956429 -0.34237263 0
0.26441953 0.15134051 0.10483278 -0.03587167 -0.91993803 -0.39041924 0.0047313403
0.27936196 0.15137067 0.10475006 -0.064417332 -0.87485403 -0.48008412 0.016881591
0.28162405 0.15187688 0.10336082 -0.060950294 -0.88270247 -0.46596286 0.017221564
0.29490203 0.1516179 0.10407157 -0.12805094 -0.80350083 -0.58136851 0.041832644
0.30629599 0.15135175 0.10480203 -0.18942051 -0.7160393 -0.67186868 0.050406486
0.31579143 0.1516909 0.10387123 -0.19272889 -0.6645472 -0.72196442 0.066879198
0.32438648 0.15185753 0.10186974 -0.14742588 -0.69011277 -0.70852661 0.058695517
-0.12590252 -0.15003105 0.11044419 0.23419492 0.66190678 -0.71206188 0.052283306
-0.047778197 -0.15005785 0.11037057 -1.7296287e-06 0.93956947 -0.34235826 5.6407316e-07
-0.018349132 -0.15012965 0.11017349 2.7641863e-06 0.93956327 -0.34237537 0
-0.0041811503 -0.15017252 0.11005585 1.3178074e-07 0.93956715 -0.3423644 3.8614326e-06
0.0082763331 -0.15001047 0.1105006 5.0785388e-07 0.93957245 -0.34235018 6.0395582e-06
0.065986022 -0.15006961 0.11033829 -1.0348441e-05 0.9395563 -0.34239426 0
0.090565369 -0.15011053 0.11022598 -7.249067e-06 0.93956906 -0.34235951 0
0.13977155 -0.15015119 0.11011443 1.8418777e-05 0.93956673 -0.34236586 0
0.1540063 -0.15000276 0.11052173 4.4425201e-06 0.93956947 -0.34235835 1.3515478e-05
0.16882238 -0.15010619 0.11023787 -4.6108385e-06 0.93956971 -0.34235767 1.0286466e-05
0.21030551 -0.15017411 0.11005148 -3.0032759e-05 0.93956238 -0.3423779 0
0.22857694 -0.15006927 0.11033925 -2.1808131e-05 0.93955487 -0.34239823 0
0.3057932 -0.15013659 0.11015446 -0.22555935 0.60041839 -0.76721615 0.044882655
-0.13145851 -0.14220607 0.11339171 0.35009372 0.39349344 -0.85005724 0.04427829
-0.12504649 -0.14525254 0.11502782 0.35601997 0.49734291 -0.79113829 0.041601662
-0.11452993 -0.14841889 0.1148684 0.22656611 0.69079703 -0.68663478 0.047029272
-0.10696824 -0.14795145 0.11615121 0.19702691 0.72114956 -0.66417146 0.04692211
-0.093558758 -0.14761727 0.11706835 0.13848463 0.82906502 -0.54173172 0.032859672
-0.084848106 -0.14723015 0.11813071 0.083315514 0.85999817 -0.5034498 0.024619801
-0.076137848 -0.14882576 0.11375181 0.032992933 0.91617435 -0.39941955 0.006396086
-0.064816959 -0.1477516 0.1166997 0.0087861428 0.93080986 -0.36539799 0.0010431871
-0.055308793 -0.14790834 0.11626951 7.3214287e-06 0.93957031 -0.34235606 0
-0.047820762 -0.14748566 0.11742951 -8.0771737e-05 0.93854576 -0.34515464 2.3310102e-05
-0.037454698 -0.14892329 0.11348417 -1.8267308e-06 0.9395687 -0.34236047 1.3803921e-05
-0.023319729 -0.14789224 0.1163137 -0.00015420403 0.93899262 -0.34393743 4.172789e-06
-0.017777294 -0.14750244 0.11738344 -0.00014771557 0.93817782 -0.34615359 1.7788558e-05
-0.0019586764 -0.14815529 0.11559182 1.6038908e-07 0.93956709 -0.34236485 3.3613858e-05
0.0087876264 -0.14893697 0.11344662 -5.8396893e-07 0.93957055 -0.34235525 0
0.016047211 -0.14843276 0.11483033 1.10401e-06 0.93956858 -0.34236068 1.4785258e-05
0.023262486 -0.14737053 0.11774543 -1.4271415e-06 0.93956149 -0.34238034 0
0.03428942 -0.14823444 0.11537459 -3.7438033e-06 0.93956298 -0.3423762 0
0.046471905 -0.14842518 0.11485113 3.035289e-06 0.9395619 -0.34237921 5.1436364e-06
0.057927378 -0.14835621 0.11504041 2.6527609e-06 0.9395563 -0.34239447 0
0.066098213 -0.14818916 0.11549886 -2.5804154e-06 0.93955952 -0.34238559 0
0.071646437 -0.14948404 0.11194529 9.2994069e-06 0.93955976 -0.34238502 1.683009e-05
0.083580077 -0.14833832 0.11508951 5.139857e-06 0.93956828 -0.34236142 3.1210344e-05
0.094288543 -0.14810684 0.11572473 5.410845e-06 0.93957108 -0.34235385 4.6456171e-06
0.10448925 -0.1478903 0.11631906 -2.4099122e-06 0.93956691 -0.34236526 0
0.11160085 -0.14824298 0.11535116 -1.2149576e-05 0.93957061 -0.34235525 7.4707145e-06
0.12276928 -0.14952001 0.11184657 7.4870093e-07 0.93956351 -0.34237447 0
0.1357978 -0.14880446 0.11381033 1.2611322e-06 0.93956459 -0.34237158 1.2222689e-05
0.14457178 -0.14905699 0.11311729 1.0630908e-05 0.93956876 -0.34236023 1.5484802e-05
0.15560679 -0.14756256 0.11721843 5.0336916e-05 0.93812138 -0.34630659 3.6911999e-05
0.16371325 -0.14856061 0.11447946 2.1796512e-05 0.93956757 -0.34236351 0
0.17329244 -0.14839096 0.11494502 1.1078251e-05 0.93956703 -0.34236497 5.2471305e-06
0.1860681 -0.14822929 0.11538879 1.6034035e-06 0.93956918 -0.34235904 0
0.19425625 -0.14863935 0.11426342 -1.3809918e-06 0.93956828 -0.34236151 1.1238793e-06
0.2011463 -0.14796901 0.11610306 -7.604272e-06 0.93957138 -0.34235296 0
0.21421912 -0.1490535 0.11312681 6.508136e-07 0.93956435 -0.34237236 1.5137597e-06
0.22599106 -0.14866962 0.11418032 -2.6636759e-05 0.93956202 -0.3423788 3.1651871e-07
0.23973604 -0.14921629 0.11268009 -0.002444949 0.93451732 -0.35590947 0.00083983561
0.24663158 -0.14840484 0.114907 -0.014955721 0.92432249 -0.38131914 0.0048231408
0.25392261 -0.14866042 0.11420557 -0.056334525 0.89469421 -0.44311237 0.016894385
0.26453668 -0.14832677 0.11512122 -0.12634638 0.81967789 -0.55871695 0.039483499
0.27115843 -0.14802706 0.1159437 -0.18707387 0.73885745 -0.64737397 0.048291128
0.28081056 -0.14927347 0.11252318 -0.13348769 0.73288822 -0.66712505 0.054035015
0.29176542 -0.14595658 0.11608117 -0.21927844 0.53839689 -0.81366199 0.0476055
0.30534351 -0.14938568 0.11163323 -0.22074437 0.57090223 -0.79078603 0.04503857
-0.13182662 -0.13648604 0.11320823 0.38222045 0.27022555 -0.88367742 0.030867733
-0.12359472 -0.13654591 0.11727262 0.41493022 0.24655372 -0.87581056 0.025664074
0.28896427 -0.13504995 0.11872247 -0.29179847 0.25345761 -0.92228687 0.024669491
0.29370919 -0.13440786 0.11667889 -0.33639386 0.23594616 -0.91168445 0.035209551
0.30456612 -0.13711008 0.11200291 -0.31238344 0.30760041 -0.89877611 0.041379899
-0.13388988 -0.12849921 0.11211407 0.45964801 0.081099436 -0.88439047 0.0049607554
-0.12662864 -0.12762906 0.11577532 0.43765521 0.13314016 -0.88923091 0.012816545
-0.11936601 -0.12524639 0.11935955 0.45509803 0.097303912 -0.88510883 0.0065830145
0.28827593 -0.12442844 0.11901893 -0.37442532 0.11724029 -0.91981542 0.012897265
0.29187086 -0.12368291 0.11747062 -0.3800655 0.046951946 -0.92376721 0.0047996351
0.30317694 -0.12374993 0.11260122 -0.40067083 0.038774468 -0.91540122 0.0036394217
-0.13332494 -0.11383544 0.1124706 0.48521429 -0.0042111948 -0.87438512 0.00034089724
-0.1255714 -0.11294296 0.11629709 0.46084455 -0.0020440854 -0.88747847 0.00017826798
-0.11886182 -0.11395872 0.11960836 0.45001209 0.00030160401 -0.89302236 3.8964474e-05
0.28798226 -0.1146764 0.11914542 -0.39552495 2.2314523e-05 -0.9184553 1.5929456e-05
0.29435796 -0.11603105 0.11639948 -0.39573136 3.5403231e-05 -0.91836637 1.0502098e-05
0.30695009 -0.11180438 0.11097617 -0.40109038 0.00090039591 -0.91603798 0
-0.13617623 -0.10287333 0.11073318 0.4861995 -0.00087971974 -0.87384737 0.00028117944
-0.12401694 -0.10574118 0.11706424 0.46196309 -0.0016924248 -0.8868975 0.00019962758
-0.11950331 -0.10497815 0.11929178 0.44850561 0.0007446474 -0.8937797 3.5697733e-05
0.29874042 -0.10602523 0.11451198 -0.39772579 -0.00011963076 -0.91750431 0
0.30374086 -0.10755835 0.11235835 -0.39888135 2.9101308e-05 -0.9170025 1.6736049e-05
-0.13349564 -0.097515263 0.11219359 0.48160306 -0.0002827342 -0.87638944 0.00023916323
-0.12568627 -0.096005209 0.1162404 0.46353871 0.0011257695 -0.88607597 0.00021188447
-0.11947984 -0.094824374 0.11930336 0.44859907 0.0010360277 -0.89373249 4.3893913e-05
0.28825936 -0.096059576 0.11902606 -0.39562911 1.2626307e-05 -0.91841036 2.2639e-05
0.294052 -0.096238405 0.11653122 -0.39568019 -1.7403923e-05 -0.91838837 4.1859266e-06
0.30389127 -0.095213078 0.11229358 -0.39907876 -0.00035448567 -0.91691661 1.4508264e-05
-0.12733808 -0.084579095 0.1154252 0.4696492 5.8629448e-05 -0.88285315 0.00023573823
-0.1184676 -0.084843472 0.11980292 0.44759846 -0.00071067968 -0.89423436 1.9027661e-05
0.29382792 -0.082207017 0.11662775 -0.3959122 9.4898387e-06 -0.91828835 0
0.30519241 -0.086374432 0.1117332 -0.40178379 -0.00033001509 -0.91573453 3.2822758e-05
-0.13421395 -0.075606152 0.11184429 0.4888781 -0.0008282598 -0.87235171 0.0002407594
-0.1249151 -0.07472486 0.11662099 0.4613032 0.00016925625 -0.8872425 0.00023497902
-0.11873145 -0.075312242 0.11967271 0.44699657 0.00029100638 -0.8945356 2.0786038e-05
0.28690779 -0.075652137 0.11960818 -0.39557895 -1.6006157e-05 -0.918432 0
0.29433167 -0.07483016 0.11641078 -0.39579675 -7.7176755e-06 -0.91833818 0
0.3027637 -0.075612299 0.11277919 -0.39985785 0.00040462901 -0.91657704 1.1593608e-05
-0.13225816 -0.065689839 0.11299706 0.48672596 0.0017788056 -0.87355298 0.00023287396
-0.12461498 -0.066615552 0.11676909 0.46294117 -0.0016361709 -0.88638753 0.00019302659
0.28875744 -0.069414273 0.11881156 -0.39569899 -2.3790684e-05 -0.91838032 0
0.2960394 -0.065060139 0.11567529 -0.39585492 1.2396024e-06 -0.91831309 0
0.30572101 -0.061254751 0.11150551 -0.40232924 0.00068187172 -0.9154948 5.4940407e-05
-0.13149744 -0.054165736 0.11337249 0.47990581 0.0005868295 -0.87731981 0.00028673612
-0.12156183 -0.056241535 0.11827588 0.45704553 -0.0019906037 -0.88944113 0.00012994269
-0.11981481 -0.056974687 0.11913805 0.44948304 -0.0005357085 -0.89328873 4.7137924e-05
0.29395106 -0.055780966 0.11657471 -0.39578581 4.6012581e-05 -0.91834289 0
0.3039124 -0.053767733 0.11228447 -0.40151313 0.00073286227 -0.91585302 3.7432128e-05
-0.133838 -0.043846197 0.11199899 0.48693323 0.0018001097 -0.87343729 0.00031721074
-0.12485596 -0.044134349 0.11665017 0.46111473 0.00060755963 -0.88734037 0.00018805453
-0.11849354 -0.046826515 0.11979012 0.44884416 -0.0022838379 -0.89360708 6.1895291e-05
0.29433563 -0.046483576 0.11640908 -0.39576897 0.00010087571 -0.9183501 0
0.30488357 -0.046679806 0.1118662 -0.40103844 0.00019851833 -0.91606122 0
-0.13358796 -0.034435242 0.1122282 0.48579437 0.0037910896 -0.87406492 0.00027821533
-0.12502305 -0.032113295 0.11656771 0.46181163 0.00039937641 -0.88697791 0.00019214871
-0.11864088 -0.034291178 0.11971741 0.45218402 0.0016114933 -0.89192319 7.8254365e-05
0.28613758 -0.03113099 0.11993989 -0.3955259 -7.7137393e-06 -0.91845483 1.646987e-05
0.29979354 -0.031560287 0.11405842 -0.39819968 0.00012610025 -0.91729873 8.8163333e-06
0.30606627 -0.03629804 0.11135682 -0.40101522 -0.00039004895 -0.9160713 9.2005757e-06
-0.13331196 -0.023175569 0.11237867 0.48658323 -0.00056824263 -0.87363398 0.00029486112
-0.12380271 -0.025516234 0.11716997 0.45948687 -0.00010735949 -0.88818455 0.00016143432
0.28706324 -0.025155086 0.11954121 -0.39561981 3.1683146e-06 -0.91841441 0
0.29801291 -0.02746376 0.1148253 -0.39666581 -0.00026225855 -0.91796303 1.6328226e-05
0.30395219 -0.025082044 0.11226735 -0.39995724 -0.00024731189 -0.91653377 8.3459472e-06
-0.13463224 -0.013270914 0.11168247 0.4880226 -0.00015493609 -0.87283099 0.00026979981
-0.12508394 -0.014517508 0.11653767 0.46726754 -0.0013269699 -0.88411498 0.00024484014
0.28832012 -0.015289872 0.1189999 -0.39572883 -4.6545647e-05 -0.91836745 0
0.29675856 -0.018221689 0.11536555 -0.39696953 -1.0412256e-05 -0.91783178 0
0.30813342 -0.01477604 0.11046651 -0.40373099 -0.00020519736 -0.91487771 5.4045729e-05
-0.13042432 -0.0093380623 0.11390211 0.47800723 -0.00022075008 -0.8783558 0.00027172099
-0.128555 -0.0052451985 0.11482464 0.47654599 -0.0014068806 -0.87914842 0.00027156054
-0.11848826 -0.0018141195 0.11979273 0.44593236 -0.00067084335 -0.89506638 2.5887668e-05
0.28752938 -0.0059934389 0.11934046 -0.39566949 -1.2988427e-05 -0.91839302 1.1829901e-05
0.29613405 -0.0041675474 0.11563453 -0.39579973 3.5879028e-05 -0.91833687 0
0.30427355 -0.0032316793 0.11212891 -0.40079877 0.00048426806 -0.91616595 0
-0.13361299 0.0062645674 0.11216402 0.48674214 0.001425204 -0.87354451 0.00028573279
-0.12502958 0.0052104816 0.11656449 0.46013179 0.00063165696 -0.8878504 0.0002008322
-0.11890315 0.0079873744 0.11958798 0.45072594 -0.0013147687 -0.89266139 9.1486094e-05
0.28640121 0.0025992747 0.11982636 -0.39549869 4.0850196e-06 -0.91846651 1.4877185e-05
0.29332542 0.003926062 0.11684417 -0.39577472 7.1728435e-05 -0.91834766 0
0.30713123 0.0035072574 0.11089814 -0.40255126 0.00018798266 -0.91539747 2.354951e-05
-0.13446848 0.016170129 0.11168007 0.48836792 -0.0025482036 -0.87263411 0.00028138031
-0.12610479 0.014670581 0.11603385 0.46572495 -0.0010514446 -0.88492888 0.00023630861
-0.11969626 0.015588194 0.11919656 0.45120028 0.00053982151 -0.89242262 0.00010086054
