# .PCD v0.7 - Point Cloud Data file format
VERSION 0.7
FIELDS x y z normal_x normal_y normal_z curvature
SIZE 4 4 4 4 4 4 4
TYPE F F F F F F F
COUNT 1 1 1 1 1 1 1
WIDTH 580
HEIGHT 1
VIEWPOINT 0 0 0 1 0 0 0
POINTS 580
DATA ascii
-0.15666083 -0.24306238 0.035587031 0.3121177 0.083162718 -0.94639653 0.012636434
-0.14533125 -0.24506088 0.03809502 0.15891789 0.11026429 -0.9811151 0.017060578
-0.12096725 -0.24070805 0.03906377 0.15456586 0.14144839 -0.97780454 0.034985896
-0.11854422 -0.24143824 0.0394077 0.18065017 0.093048543 -0.97913611 0.029691812
0.1109751 -0.24086744 0.039461322 -0.092386305 0.10448685 -0.99022591 0.039065201
0.12891577 -0.24332169 0.039441131 -0.14722845 0.11234765 -0.9827013 0.030877786
0.1439852 -0.24734819 0.038076703 -0.21089385 0.1272352 -0.96919304 0.0088111702
0.15638182 -0.24524859 0.035378046 -0.37750405 0.088093802 -0.92180812 0.013246996
0.16261259 -0.2471559 0.033247463 -0.45870671 0.054012768 -0.88694465 0.014987474
-0.16418889 -0.23804498 0.03373595 0.47238818 0.083941482 -0.87738425 0.028421735
-0.15860425 -0.23041631 0.036715109 0.35243434 0.10653997 -0.92975223 0.0634536
-0.14392082 -0.23402101 0.039052404 0.19195102 0.17891106 -0.96495885 0.029577993
-0.13481006 -0.23580176 0.037123866 0.18514022 0.14709683 -0.97164071 0.037286047
-0.12305482 -0.23328015 0.039004426 0.13987523 0.15078293 -0.97862118 0.05286942
0.11458974 -0.23631296 0.039362937 -0.11372148 0.17577831 -0.97783923 0.059519567
0.13651542 -0.23338003 0.037371077 -0.15596713 0.15397957 -0.97568673 0.038963053
0.15466368 -0.23454893 0.037288498 -0.37384278 0.067154862 -0.92505771 0.045396619
0.16372214 -0.23210558 0.034165099 -0.53302824 0.05236664 -0.84447539 0.043466497
-0.16821274 -0.22217302 0.033306159 0.6235522 0.09241651 -0.77630007 0.05564693
-0.1541283 -0.22495066 0.038571931 0.35454902 0.13490233 -0.9252547 0.067184336
-0.13178544 -0.22466664 0.037973378 0.18338434 0.19534585 -0.96343666 0.073390186
-0.12611261 -0.22398049 0.038862392 0.18547943 0.2438606 -0.95190829 0.073765978
0.11500044 -0.22722195 0.039639734 -0.099308304 0.13018829 -0.98650348 0.07550247
0.1319744 -0.22500379 0.038145233 -0.10737836 0.18726662 -0.97642261 0.06598755
0.14688596 -0.22608025 0.036478952 -0.47071514 0.088545859 -0.8778308 0.11380541
0.15326433 -0.22379616 0.039799329 -0.42397094 0.087369904 -0.90145165 0.07606227
0.16691114 -0.22861102 0.032881383 -0.59778684 -0.010302629 -0.80158883 0.091284424
-0.16161251 -0.21610931 0.037608385 0.48688847 0.11260452 -0.86617541 0.084456146
-0.15527338 -0.21664216 0.032088719 0.40657085 0.069280691 -0.91098869 0.081314303
-0.14242372 -0.21844998 0.036271736 0.29465362 0.04375295 -0.95460206 0.098426282
-0.13415995 -0.21683483 0.037876315 0.2645711 0.14126278 -0.95396382 0.10706457
0.11738662 -0.21668726 0.039796181 -0.086996667 0.18514395 -0.97885305 0.12036422
0.13018531 -0.21696386 0.038610257 -0.12722453 0.063956723 -0.98980981 0.11240143
0.14413092 -0.21815395 0.037089191 -0.54131442 0.089947753 -0.83599532 0.14440958
0.16334954 -0.2174927 0.034477565 -0.55525553 0.026955986 -0.8312428 0.12204164
-0.16704538 -0.20671292 0.035124518 0.59636545 0.11918059 -0.79381621 0.11853407
-0.1501753 -0.20104712 0.035542715 0.55471838 -0.072726533 -0.82885367 0.21326366
-0.12549722 -0.20189643 0.039661426 0.28569108 -0.12893941 -0.94960791 0.16857076
0.12408704 -0.20726624 0.039689444 -0.070220463 0.12443809 -0.98973948 0.14871733
0.13789369 -0.20339611 0.038401227 -0.43717235 -0.018772935 -0.89918184 0.16683595
0.14645205 -0.20255518 0.037484076 -0.57998943 0.19685374 -0.79048127 0.18719265
0.15818068 -0.20697336 0.032101072 -0.6647352 0.10874314 -0.73912239 0.17235613
0.16505276 -0.2071365 0.035956901 -0.60690349 0.190143 -0.77169544 0.13317615
0.17218557 -0.20824364 0.031333007 -0.68194956 0.097436488 -0.72487986 0.11434659
-0.17240945 -0.19279224 0.033369925 0.77189732 0.087693244 -0.62967008 0.19508436
-0.16477999 -0.19805542 0.033511918 0.82680714 0.11193406 -0.55123562 0.18700416
-0.15516725 -0.19244651 0.0337134 0.83059329 0.14467582 -0.53775805 0.25399852
-0.14621758 -0.19987944 0.036320034 0.60615569 -0.068059474 -0.79242867 0.21642123
-0.1324331 -0.19023564 0.039145257 -0.200415 0.43731764 0.87669104 0.19677834
-0.12613563 -0.19707029 0.039783038 0.21438304 -0.15254408 -0.96476436 0.17337839
0.14370304 -0.19561745 0.038224533 -0.44468421 -0.079744518 -0.89213043 0.20831452
0.15808967 -0.19420139 0.03252434 -0.67210728 -0.0025189721 -0.74044955 0.23224634
0.16856606 -0.19381286 0.036456555 -0.72906023 0.24236466 -0.64010197 0.15446386
0.17074481 -0.19821568 0.033636928 -0.68075484 0.1970664 -0.70550525 0.17462786
-0.17419137 -0.18427387 0.031414822 0.80235285 0.14933044 -0.57786709 0.16520415
-0.16899616 -0.18375611 0.038108908 0.84329736 0.29147452 -0.4515442 0.17411625
-0.15208532 -0.18704697 0.035906561 0.4072412 -0.099522278 -0.90788215 0.26551068
-0.14589722 -0.18743676 0.036984771 -0.30529693 0.66812545 0.67852944 0.256686
-0.13729578 -0.1865135 0.038525488 -0.28206679 0.66799492 0.6886372 0.22501786
0.13400111 -0.1897054 0.039763592 -0.41761839 -0.24885677 -0.87387937 0.22499479
0.15053466 -0.18997981 0.03797498 -0.76010853 0.21801566 -0.61213082 0.24269524
0.16586161 -0.18541464 0.036832746 -0.82764643 0.26745135 -0.49342793 0.19006842
0.17371124 -0.18417986 0.032053612 -0.79423845 0.085092075 -0.60161841 0.14122947
-0.17246084 -0.17138961 0.034132764 0.88692158 0.20871525 -0.41207772 0.14166626
-0.16774479 -0.17282088 0.035841804 0.89999765 0.21653745 -0.37830648 0.20906334
-0.14783871 -0.17253561 0.037232768 0.24150984 0.57117516 0.78449476 0.25482213
-0.1360824 -0.17477675 0.039218754 0.66894299 -0.55418557 -0.49537227 0.20156386
0.1440559 -0.1748223 0.039950371 0.03950011 0.39854947 0.91629583 0.26701412
0.15666106 -0.17715371 0.032259334 -0.97563857 -0.062586159 0.21026732 0.2335297
0.16772477 -0.17704068 0.037777614 -0.81565869 0.082026869 -0.57268888 0.1469112
-0.17166659 -0.16834193 0.035189662 0.89725965 0.087422267 -0.43276143 0.18307655
-0.16910346 -0.16360867 0.03956103 0.92925066 0.19890171 -0.31133783 0.17737144
-0.15668774 -0.16411932 0.031904902 0.40699381 -0.14898595 0.9011988 0.24300142
-0.13904637 -0.1680838 0.039000221 -0.080258444 0.6579091 0.74880862 0.22034077
-0.079225704 -0.16024104 0.032128118 -0.49996021 0.79358482 -0.34678933 0.27208829
-0.019861771 -0.16012067 0.030283324 -0.051303975 0.99732029 -0.052154701 0.12396112
0.16589786 -0.16463722 0.03664827 -0.92648268 0.14301065 -0.34810618 0.20029475
0.17310317 -0.16503802 0.033478316 -0.87857711 0.17824222 -0.44309384 0.15369833
-0.17035568 -0.15460728 0.037479829 0.93747759 0.17428656 -0.30126384 0.20287056
-0.16780142 -0.15741538 0.035888169 0.97112834 0.0028956588 -0.23853992 0.22203813
-0.14387804 -0.15749714 0.038087435 0.28379405 0.65411812 0.70113504 0.19892564
-0.13793218 -0.15191792 0.039315216 0.23033501 -0.25680685 -0.93861383 0.17677657
-0.11475897 -0.15075399 0.035512201 0.30994204 0.7487402 -0.58593857 0.16403462
-0.10673106 -0.1511174 0.037725408 0.13084528 0.34176314 -0.93063283 0.17037773
-0.095488727 -0.15552406 0.034826752 -0.26629612 0.82932109 -0.49123609 0.23792624
-0.082295291 -0.15310076 0.038008481 -0.22927506 0.79904979 0.55583483 0.22405688
-0.064756431 -0.15147674 0.03853225 0.2986798 0.81023586 0.50428981 0.22243437
-0.052010298 -0.15407282 0.034240898 0.53526676 0.83983916 0.090331286 0.20406209
-0.043527856 -0.15402798 0.034101658 0.24438517 0.930484 -0.27290171 0.15014382
-0.036034215 -0.1552491 0.035213772 0.096823141 0.96517229 -0.24303851 0.14284736
-0.027217424 -0.156868 0.034563631 0.10410465 0.98355937 -0.14755687 0.13194777
-0.016319688 -0.15684484 0.034600735 -0.062176034 0.99766243 -0.028350573 0.11730116
-0.0098746773 -0.15985477 0.031001115 -0.15673275 0.9856208 -0.063139357 0.11474597
0.0035903454 -0.15629737 0.034542244 -0.081373133 0.99660408 0.01259876 0.11574191
0.015370068 -0.15428554 0.035979688 -0.040204946 0.99899483 -0.019820707 0.12457489
0.025505995 -0.15568848 0.033365998 0.058742844 0.97298723 -0.22326013 0.13299571
0.031755343 -0.15159392 0.037847929 0.027401334 0.97395378 -0.22508481 0.12847257
0.045337126 -0.15610531 0.031112593 -0.09179654 0.92957348 -0.35702452 0.12927707
0.053849272 -0.15351674 0.033596076 -0.14424162 0.90571117 -0.39859959 0.12322455
0.067213677 -0.15205567 0.034570891 -0.069027796 0.98937154 -0.12798108 0.17526156
0.072059907 -0.15348431 0.032746024 -0.084491067 0.94863528 -0.30488107 0.17481172
0.084393568 -0.15077743 0.032628447 -0.10329277 0.94815063 -0.30056781 0.16934292
0.15416324 -0.15106851 0.030585729 0.35889143 0.24190594 -0.90148687 0.24647197
0.16632669 -0.15116605 0.037237369 -0.90300703 0.36512753 -0.22640729 0.23589204
0.17160171 -0.15369925 0.035985433 -0.89596665 0.3865087 -0.2187573 0.19733405
-0.17281774 -0.14790709 0.034190357 0.99139524 0.12150173 0.048711348 0.22193243
-0.16871868 -0.14359465 0.038260091 0.9162454 0.24371628 0.31795728 0.24735948
-0.14237833 -0.14301109 0.035859868 0.10447927 0.2753326 0.9556548 0.17004649
-0.13585372 -0.14499545 0.038747352 0.37403974 0.053008988 -0.92589653 0.11744305
-0.12561612 -0.14825976 0.037117872 0.38376948 -0.0030562168 -0.92342389 0.18229586
0.055712596 -0.14986484 0.037868723 -0.098803736 0.9619289 -0.25481471 0.13430507
0.078053281 -0.14802861 0.037239306 -0.09608344 0.97627497 -0.19404934 0.14827943
0.081978828 -0.14601916 0.038463511 0.0035798328 0.99969304 0.024515027 0.17340276
0.097140566 -0.14941052 0.030934552 -0.077080317 0.94269401 -0.32463315 0.17241104
0.10626657 -0.1449815 0.034330629 -0.16219817 0.84846687 -0.5037815 0.13469034
0.11534973 -0.14316283 0.033774842 -0.20686968 0.88321257 -0.42088059 0.14533408
0.16623372 -0.14316018 0.036064763 -0.88679266 0.45958754 0.048765477 0.28486851
0.17185824 -0.14623408 0.035854496 -0.87998736 0.43069908 -0.20030107 0.22666435
-0.1724015 -0.13460599 0.035159159 0.88408768 -0.096994348 0.4571445 0.27363968
-0.16991645 -0.13266501 0.038879879 0.91401374 0.05104186 0.40245953 0.26827556
-0.15559267 -0.13251272 0.032395698 0.78199595 0.18571067 0.59497386 0.1849182
-0.14641035 -0.13934574 0.03229522 0.53429753 0.54605281 0.64525384 0.20490912
0.12911507 -0.13783345 0.039071165 -0.28138837 0.53129834 -0.79908866 0.18718317
0.13488711 -0.13759102 0.032023896 -0.50147921 0.31091991 -0.80737066 0.17671137
0.15368205 -0.13602209 0.030566748 0.26431581 0.24324787 -0.93325645 0.25657329
0.16810495 -0.13662277 0.038152222 -0.92893678 0.19298159 0.31596595 0.24747488
0.17296374 -0.13385385 0.03429687 -0.89750564 0.12468311 0.42301038 0.2398476
0.18640821 -0.13306677 0.03982193 -0.44262201 0.82196099 0.35842147 0.20400085
-0.17187521 -0.12576044 0.035821471 0.94961405 -0.310258 -0.044419508 0.25927776
-0.16643965 -0.12596083 0.038125873 0.75749427 -0.011103621 0.65274733 0.20855854
-0.15421818 -0.12404971 0.030726328 0.77579379 0.23485228 0.58565217 0.16171896
0.15613329 -0.12174509 0.034867708 -0.68434304 0.091538213 0.72339159 0.17051812
0.16600379 -0.12616985 0.037509613 -0.98201406 -0.014186835 0.18827385 0.22445269
0.17339973 -0.12318247 0.033850577 -0.80566412 -0.3881464 -0.44749048 0.21881756
-0.17420179 -0.11825746 0.032846436 0.96250403 -0.26494974 -0.058202859 0.23906785
-0.16690485 -0.11611155 0.037651617 0.98497087 -0.11306057 0.13057443 0.17115879
-0.15601864 -0.11323415 0.033927046 0.86596 -0.055441801 0.49703062 0.11001813
0.1585906 -0.11159161 0.036830589 -0.970945 -0.12705243 0.20278952 0.1940883
0.16619125 -0.11221549 0.038030863 -0.98079085 -0.17733781 -0.081244141 0.20554517
0.174043 -0.11406775 0.033058621 -0.81507361 -0.27493629 -0.50996578 0.19201767
-0.17496078 -0.10707368 0.031617437 0.8417567 -0.050981019 -0.53744453 0.11010857
-0.16605097 -0.10195795 0.038799495 0.98350012 -0.088786401 -0.15762135 0.14464211
-0.15748298 -0.10504723 0.036545146 0.94475484 -0.054202843 0.32326505 0.12744625
-0.10604619 -0.10229312 0.034987304 0.053541467 0.91914606 0.3902612 0.024395294
-0.081531465 -0.10122171 0.031458374 0.23361549 0.88979566 0.39203003 0.20190421
-0.073515974 -0.10340586 0.033102527 0.023630317 0.98579293 0.16629452 0.17645983
-0.037149847 -0.10457016 0.03619938 -0.15563877 0.93881255 0.3072581 0.083110385
0.15630241 -0.10687405 0.03580071 -0.93705988 -0.15309276 0.31381738 0.2066932
0.16182441 -0.10571697 0.038126301 -0.97441137 -0.21747454 0.056809463 0.20298362
0.1741221 -0.10435869 0.033067852 -0.82280147 -0.0627326 -0.56485593 0.15637723
-0.17342667 -0.094953619 0.034351252 0.87054706 -0.034775577 -0.49085489 0.19267736
-0.16852248 -0.096931472 0.038836263 0.97570509 -0.06234353 -0.21003054 0.15542248
-0.15220246 -0.09010151 0.030646814 0.85630018 -0.084488913 0.50952089 0.12352256
-0.10334373 -0.098442614 0.032016844 0.025134522 0.9173544 0.39727721 0.026861817
-0.081488937 -0.098515645 0.032358199 0.10707767 0.94607085 0.30575207 0.15162037
-0.074974485 -0.097911134 0.034653991 0.062107429 0.97518182 0.2125162 0.1249387
-0.065735459 -0.098122783 0.03345133 -0.11798849 0.95708144 0.26471493 0.12406622
-0.041299537 -0.099251673 0.037229229 -0.15563443 0.93881297 0.30725905 0.083110936
-0.038072448 -0.098720968 0.036099732 -0.011709378 0.93372625 0.35779631 0.025160003
0.15622646 -0.094186053 0.036526725 -0.90047687 -0.12259957 0.41726574 0.14415495
0.16544193 -0.094438374 0.039005049 -0.98047495 -0.080315448 0.17949477 0.21078971
0.17126127 -0.096813828 0.037674502 -0.8157475 0.015211858 -0.57820815 0.14740393
-0.17208487 -0.080100402 0.036871903 0.91845608 0.060598049 -0.39085329 0.18866199
-0.16553274 -0.087967217 0.039385114 0.99101472 -0.037157282 0.12848827 0.16113277
-0.15327184 -0.085252784 0.032913197 0.82662207 -0.03548158 0.56163788 0.12536208
0.16245398 -0.08758837 0.039512441 -0.92088217 -0.13466048 0.36584499 0.14678282
0.17308214 -0.085968383 0.034930862 -0.79980981 -0.089229479 -0.59358436 0.15516417
-0.16830549 -0.073424615 0.039961137 0.98099804 -0.0005355351 -0.19401711 0.17565025
-0.15320064 -0.075510979 0.033771016 0.85269022 -0.074162148 0.51712602 0.098048069
0.15305874 -0.07721208 0.034867853 -0.87089056 -0.030323727 0.49054074 0.096848935
0.17269014 -0.072770849 0.035860021 -0.88535869 0.025385812 -0.46421501 0.17564002
-0.1724401 -0.064545475 0.036543693 0.92307574 0.047487676 -0.38167524 0.17030071
-0.15677458 -0.060458183 0.039574157 0.96674979 -0.067962065 0.24652775 0.13459574
0.15347426 -0.066559456 0.035203923 -0.89329505 0.0086869672 0.44938666 0.15603034
0.17360288 -0.064273007 0.034318749 -0.78997892 0.10751167 -0.60363442 0.20814618
-0.17289601 -0.055204611 0.035790902 0.87496036 -0.0041628489 -0.48417667 0.12797071
-0.15460016 -0.055352926 0.037503883 0.95463711 -0.0049634539 0.29773018 0.14358401
0.15470794 -0.054889418 0.03871081 -0.96423787 0.030897064 0.26323137 0.16634373
0.1713082 -0.055601195 0.038516112 -0.89167595 0.16404687 -0.42190352 0.17732489
-0.17356002 -0.044060964 0.034963001 0.79261667 0.036814209 -0.60860777 0.16169266
-0.15202786 -0.045718882 0.033662695 0.86013442 -0.045835774 0.50800395 0.15048037
0.15131751 -0.041868456 0.034943335 -0.85992819 -0.03101534 0.50947177 0.128049
0.17358372 -0.048411526 0.034609023 -0.78151625 0.035479516 -0.62287515 0.15649763
-0.17362531 -0.035651848 0.034802355 0.84344572 -0.14997458 -0.51585543 0.1550141
-0.15384606 -0.032036331 0.038385771 0.92836666 0.090999939 0.3603532 0.14817005
0.17473507 -0.034849815 0.032603115 -0.80001646 -0.092090972 -0.59286839 0.15913343
-0.17134002 -0.021750271 0.039088115 0.93625325 -0.093998179 -0.33851784 0.18566287
-0.15348788 -0.025014283 0.038335361 0.90126556 -0.15550441 0.40439928 0.15648513
0.14943588 -0.023667295 0.031227486 -0.79487276 -0.19139367 0.57580018 0.14000665
0.15133892 -0.026170645 0.036045261 -0.86663646 -0.035269916 0.49769193 0.12529397
0.17291802 -0.027523953 0.035938375 -0.85337603 -0.054790944 -0.51840854 0.16000649
-0.15042034 -0.017730515 0.031338595 0.90948743 -0.17393877 0.37759489 0.16377161
0.14899108 -0.010542631 0.030665264 -0.77781755 -0.24674495 0.57802832 0.15571977
0.15241736 -0.013319824 0.03844326 -0.91217119 -0.035217162 0.40829325 0.13484183
0.17349054 -0.017333984 0.035274684 -0.84334439 -0.091610312 -0.52950704 0.163351
-0.17203684 -0.00608165 0.038187616 0.86842287 -0.10132813 -0.48535997 0.14360853
-0.15183119 -0.0018399518 0.037423231 0.88992536 -0.10203709 0.44454625 0.11615418
0.15166064 -0.0042934758 0.038116522 -0.86886048 -0.11676972 0.48108867 0.15287101
0.17234559 -0.0035759632 0.037688445 -0.83600664 -0.060284648 -0.54539764 0.13206588
-0.17360504 0.0054812827 0.035008203 0.77744097 0.097188935 -0.62140161 0.15638506
-0.15236036 0.0043202164 0.038860299 0.80324823 -0.11646481 0.58414739 0.12352931
-0.14972179 0.001682275 0.030759543 0.69364405 -0.13599674 0.70736337 0.21119146
0.043810315 0.0095902476 0.031863946 -0.35357195 -0.75698799 0.54950517 0.091986515
0.12231446 0.0092393756 0.030129086 -0.057271589 0.73766595 -0.67273241 0.10384852
0.14867768 0.0060701957 0.032637201 -0.5390321 -0.20469302 0.8170343 0.11888445
0.15199569 0.00055134529 0.03900858 -0.89178485 0.0037903017 0.45244387 0.14344688
0.17309335 0.0072562229 0.036195822 -0.73568863 -0.034188475 -0.67645639 0.14276525
-0.15223868 0.018136023 0.039955843 0.5116632 -0.30041802 0.80495328 0.18518145
-0.14961158 0.015680091 0.034033582 0.49091318 -0.44755894 0.74745917 0.15922296
-0.12627 0.016030498 0.031426884 0.040439989 -0.92421895 0.37971553 0.25046369
-0.11421303 0.01215243 0.035678267 0.27600831 0.80474496 -0.52555209 0.07274843
-0.10276048 0.017431218 0.034885012 -0.11815544 0.60347128 -0.78858203 0.2048074
-0.096313499 0.016688181 0.035169411 -0.082588494 0.76164895 -0.6427052 0.22454137
-0.084452786 0.014810083 0.034183994 0.037156366 0.82039607 -0.5705871 0.19822353
-0.07186453 0.01690115 0.037773997 0.27840817 -0.86996478 0.4070015 0.1814592
-0.069033369 0.015423632 0.033153538 0.029694164 -0.89278489 0.44950366 0.18080696
-0.05464372 0.018329155 0.039182633 -0.24635623 0.62676024 -0.73924291 0.15266864
-0.033652864 0.015461655 0.034312427 0.80220377 -0.30505759 0.51323378 0.10308112
0.035128597 0.014504756 0.034848839 -0.69488031 -0.39736053 0.59937137 0.1001357
0.047665998 0.012427447 0.035003304 0.15973084 0.78397322 -0.59989345 0.042924222
0.053703547 0.017004481 0.03571238 0.30315557 0.59466416 -0.74462825 0.22450708
0.0768025 0.015871802 0.036677834 -0.028466787 0.84746253 -0.53009135 0.13802919
0.093750238 0.015898585 0.034125119 -0.05225198 0.80797493 -0.58689541 0.1308952
0.11267245 0.01130901 0.033501972 -0.21089104 0.72790217 -0.65244418 0.082232848
0.12462638 0.012930443 0.031778589 -0.086232446 0.58373284 -0.80735373 0.12448317
0.14957853 0.013681993 0.036688775 -0.5954659 -0.12224752 0.79402518 0.11851768
0.17423148 0.016513329 0.033563536 -0.80217057 0.089306422 -0.59037846 0.099249549
-0.17291836 0.026269877 0.036320236 0.82091224 0.044776991 -0.56929618 0.11831959
-0.12701222 0.02551084 0.037630387 0.16970028 0.51712173 -0.83892006 0.24441199
-0.031155972 0.021534134 0.034531504 0.91681975 -0.091682717 0.38863337 0.13007635
0.029745169 0.026335644 0.034062762 -0.83257955 -0.02448884 0.55336392 0.11551134
0.032150336 0.021716263 0.037267271 -0.77798462 -0.12533417 0.61565512 0.11050503
0.12797064 0.026790222 0.033235937 -0.073820688 0.45794237 -0.88591158 0.19755577
0.14845645 0.022776427 0.035202231 -0.52135253 -0.11254334 0.84588742 0.14842968
0.15039892 0.029480752 0.039163042 -0.67167354 -0.13426855 0.72857845 0.18755597
0.1731845 0.027011737 0.036042072 -0.82485664 -0.0096199634 -0.56526011 0.11052985
-0.17384495 0.035108622 0.034382023 0.78550398 0.014146592 -0.61869496 0.12292065
-0.15044811 0.033468377 0.03845514 0.48813674 0.077631228 0.8693077 0.17654206
-0.12743121 0.030948626 0.035138968 0.41996145 -0.21225494 -0.8823719 0.24699937
-0.031766035 0.038160957 0.033823948 -0.80160266 -0.58532995 -0.1217458 0.11135415
0.030484274 0.033067994 0.034355909 -0.83944696 0.19937243 0.50554872 0.14773403
0.12591088 0.037358448 0.034874693 -0.21564935 0.55859357 -0.80091733 0.19919045
0.14875293 0.037253775 0.036757559 -0.60828763 -0.10117976 0.78724134 0.21670943
0.17365716 0.0391968 0.035059497 -0.81454182 0.027362604 -0.57945925 0.11757857
-0.17413402 0.042298023 0.033629321 0.76996028 -0.039936628 -0.63684088 0.12004367
-0.14860907 0.045506645 0.034609117 0.54497999 0.18917866 0.81682819 0.17806794
-0.12425248 0.043459237 0.034568541 0.42861658 0.35687536 -0.83001673 0.1975133
-0.11328438 0.04553166 0.036770687 0.45185062 -0.88436532 -0.11717098 0.12882198
-0.10207997 0.045288652 0.036062885 0.16539955 -0.97900176 -0.11915786 0.17494142
-0.091919966 0.043764643 0.031844616 0.082680829 -0.99508756 0.054447811 0.16080035
-0.089408234 0.043778282 0.031856917 0.0049403785 -0.99378818 0.1111786 0.16484472
-0.075215966 0.044797435 0.034620289 -0.033100445 -0.97883749 -0.20194432 0.15488692
-0.065456823 0.045536045 0.036812682 -0.014983812 -0.98282337 -0.1839394 0.13716121
-0.054236595 0.04528923 0.035964955 -0.092969537 -0.98305386 -0.15799293 0.11985908
-0.046070419 0.044384941 0.033664942 -0.33020684 -0.93257594 -0.1458271 0.1352645
-0.036829632 0.043910593 0.035230726 -0.6635204 -0.72366071 -0.18988408 0.12102229
0.034906689 0.044128895 0.03597948 0.66368157 -0.74761695 -0.024402853 0.10630234
0.047325656 0.045147985 0.035662614 0.33022532 -0.91170996 -0.24440992 0.16448519
0.05409532 0.045012675 0.035350867 0.18801405 -0.97835934 -0.086391941 0.16972058
0.06405025 0.044851582 0.034845229 -0.12069678 -0.99265975 -0.0076701958 0.16766112
0.073057942 0.044800043 0.034550056 -0.10422535 -0.99421191 -0.026073961 0.2053864
0.085470825 0.044810005 0.034541562 0.11061311 -0.99176091 -0.064615354 0.14831582
0.094679147 0.045973759 0.038228467 -0.015769677 -0.99369711 0.11098394 0.15622568
0.10573026 0.045417972 0.036336392 -0.15351878 -0.98814166 -0.0028320735 0.12323429
0.11316799 0.044757809 0.034664951 -0.31443092 -0.9488855 0.027377911 0.067004748
0.12448189 0.04256643 0.033737108 0.11020558 -0.9929477 0.043697715 0.17225234
0.14812602 0.044076275 0.03683712 -0.63126004 0.079850219 0.77144974 0.18542668
0.17339608 0.044437293 0.035375062 -0.79597169 0.02952745 -0.60461324 0.13173373
-0.17330027 0.057171147 0.035721749 0.7769087 0.052688632 -0.62740481 0.17697172
-0.14904955 0.054916903 0.038056791 0.80787373 0.031418722 0.58851761 0.13282481
0.1470831 0.054936733 0.034097016 -0.5028348 0.24438272 0.82911652 0.16220182
0.17482097 0.052976713 0.03192538 -0.79812944 0.064294711 -0.59904557 0.091455922
-0.17420936 0.064797513 0.03322972 0.79018444 -0.032591566 -0.61200196 0.1277768
-0.14829911 0.0686896 0.0373119 0.85573411 -0.11280806 0.50496876 0.11551797
0.17395017 0.065671697 0.033967674 -0.76423919 -0.0065929987 -0.64489931 0.10978504
-0.17475483 0.075676717 0.031654701 0.81284875 0.14051916 -0.56527096 0.12880698
-0.14728302 0.074910216 0.032713186 0.87180603 -0.05995784 0.48616806 0.10287412
0.14614791 0.073765799 0.03278023 -0.84624618 -0.11798008 0.51956534 0.13075338
0.17414418 0.078228377 0.033445813 -0.78867304 0.047978435 -0.61293793 0.10968168
-0.14722832 0.087360695 0.03635323 0.86799222 -0.072123416 0.49131227 0.079952709
0.14589819 0.084390916 0.034075323 -0.85005313 -0.055550154 0.52375931 0.13507348
0.17471154 0.083847843 0.031672154 -0.84832627 0.038974497 -0.52803743 0.079415329
-0.17219779 0.094111942 0.038119551 0.83452129 0.01284165 -0.55082607 0.12775534
-0.14694799 0.092461936 0.035510305 0.84792584 -0.052464459 0.52751237 0.090462618
0.14574635 0.090247214 0.034694761 -0.8679601 0.020817103 0.49619755 0.1113959
0.17256439 0.094215706 0.037132882 -0.83626294 0.11073707 -0.5370304 0.084600031
-0.17281422 0.10456467 0.036489762 0.8152613 0.018858092 -0.57878608 0.11751129
-0.14690019 0.10150717 0.038152725 0.85777402 -0.046059199 0.51195925 0.11951815
0.14512171 0.10751797 0.034860689 -0.81379855 -0.16478525 0.55729502 0.11182791
0.17306024 0.10390881 0.035821162 -0.83939749 -0.0044564344 -0.54349977 0.071522012
-0.17250109 0.11447291 0.037342653 0.80083525 -0.088975511 -0.59223837 0.11236625
-0.14592192 0.11788606 0.034341134 0.89194548 -0.059896644 0.44815803 0.11479498
0.14506319 0.11625803 0.03675025 -0.76205683 -0.14510703 0.63104153 0.12747189
0.17194097 0.11261806 0.038584322 -0.80129522 0.0414951 -0.59682834 0.11938001
-0.17362361 0.12405928 0.034037605 0.816719 0.014227315 -0.57686019 0.10560659
-0.14610265 0.1253978 0.038165562 0.87152261 -0.13047464 0.47267821 0.11261781
0.14484239 0.12811232 0.037697438 -0.82688755 -0.063536718 0.55876654 0.12800662
0.17270187 0.12399088 0.036626272 -0.81560701 -0.0045224084 -0.5785886 0.083032347
-0.1454252 0.13346994 0.034067784 0.9237963 -0.033347398 0.38142931 0.095212273
0.14389651 0.13596269 0.031832293 -0.89780605 0.018083006 0.44001964 0.10633558
0.1730689 0.13696626 0.035452515 -0.79076606 0.066040248 -0.60854554 0.1040343
-0.17249422 0.14795251 0.036953386 0.76926267 0.11016699 -0.62936324 0.1257356
-0.14534819 0.141737 0.035677217 0.8789677 0.068649419 0.47191411 0.10386366
0.14386311 0.14694279 0.034353036 -0.90504992 0.01006412 0.42518628 0.096947581
0.17338176 0.14648478 0.034392625 -0.82158589 0.00064867252 -0.57008439 0.089148395
-0.17221574 0.15683579 0.037649527 0.76418036 0.031959485 -0.64421046 0.15883349
-0.14473927 0.15315804 0.032675322 0.91084999 0.041034244 0.41069278 0.12123757
0.14371102 0.15968038 0.035360236 -0.89717704 -0.0059787938 0.44163078 0.083469324
0.17389481 0.15318659 0.032685332 -0.90638679 -0.0079813963 -0.42237338 0.016071206
-0.17162922 0.16443714 0.039001629 0.75684029 -0.0087433029 -0.65354133 0.15002653
-0.14483033 0.16628031 0.031989146 0.87542361 0.030352058 0.48240262 0.1334914
0.14415528 0.16528939 0.038010176 -0.83436269 0.045841232 0.54930639 0.090594344
0.17377314 0.16551322 0.032907248 -0.88082856 -0.020483842 -0.47299197 0.031948224
-0.17298825 0.17441916 0.035048727 0.77836108 -0.15506916 -0.6083647 0.14078581
-0.14543407 0.17247349 0.036567021 0.84937447 0.063717268 0.52393043 0.11210848
0.14440081 0.17681909 0.037110284 -0.81835324 0.014090803 0.5745427 0.12007838
0.17242409 0.17393678 0.036734935 -0.79507488 0.0087406691 -0.60644835 0.09515921
-0.17314373 0.18501562 0.034550298 0.84707117 -0.13256732 -0.51468086 0.09395162
-0.1454353 0.18470849 0.033815164 0.88134098 -0.13016957 0.45419601 0.11267068
0.14430085 0.18675448 0.033057436 -0.82756585 -0.040181927 0.55992877 0.12399463
0.17232974 0.18357965 0.036913291 -0.82950777 -0.060811989 -0.55517459 0.13510473
-0.14632486 0.19649525 0.035646711 0.8340413 -0.26020503 0.48648596 0.12418678
0.1450544 0.1941075 0.034025013 -0.75138372 -0.26257846 0.60537177 0.15270165
0.17260313 0.19460928 0.035994332 -0.84446406 -0.10349695 -0.52551764 0.12820998
-0.15210681 0.2096871 0.03240332 0.81327081 0.22303338 0.53744459 0.24826024
-0.14749843 0.2026557 0.038450249 0.76966339 -0.27523625 0.57607573 0.17585433
-0.13501634 0.20946944 0.031992197 -0.065610953 -0.77627897 0.62696588 0.22976558
-0.11710396 0.20905276 0.031205121 -0.025489308 -0.9037208 0.42736301 0.0032650807
-0.095329404 0.20880295 0.030733325 0.008690387 -0.89970195 0.43641824 0.00057784189
-0.01641361 0.20874117 0.030616552 0.0035473905 -0.90944779 0.41580319 0.00086091511
0.0076703303 0.2097252 0.032475278 -0.0026848561 -0.90051734 0.43481186 0.00063990121
0.018722637 0.20936522 0.031795308 -0.0012960671 -0.9017517 0.43225256 0.00071222353
0.039019149 0.20951313 0.032074708 0.0031269491 -0.90218371 0.43134066 0.00059953693
0.056317091 0.20910762 0.03130874 0.003831615 -0.90672499 0.42170495 0.0008455647
0.063472219 0.20896646 0.031042162 0.0034033961 -0.90785497 0.41927049 0.00076221081
0.07979089 0.20871699 0.030570917 0.0028679734 -0.89863163 0.43869466 0.00043299393
0.11551689 0.20884642 0.030815406 0.034672346 -0.90771723 0.41814741 0.0024293272
0.14570369 0.20328361 0.034727734 -0.63135904 -0.46263543 0.62237787 0.18358122
0.17228828 0.20379424 0.036887214 -0.86208075 -0.0097441003 -0.50667727 0.13873257
-0.17232378 0.21218397 0.036660846 0.86313814 0.21111406 -0.45871931 0.19564691
-0.14668988 0.21459205 0.033827014 0.69886124 -0.224319 0.67917162 0.24126472
-0.1324618 0.21227829 0.037297808 -0.19926588 -0.82523048 0.52847689 0.18977247
-0.10200517 0.21070483 0.034325693 0.002013044 -0.89445049 0.44716242 0.00032360881
-0.095861129 0.21144719 0.035727963 0.0049363584 -0.89790267 0.44016638 0.00044663181
-0.073194526 0.2104793 0.033899713 0.0044588861 -0.90294468 0.42973363 0.00055535859
-0.062679835 0.21141441 0.035666019 -0.001392336 -0.90043747 0.43498325 0.00050728448
-0.054760564 0.21206057 0.036886554 -0.0015697229 -0.89497811 0.44610739 0.0003280672
-0.039361663 0.21310945 0.038867753 0.0015934823 -0.88958186 0.45677307 0.00050184759
-0.022188265 0.2130492 0.038753979 -0.003425519 -0.88606012 0.4635576 0.00047963718
-0.0036971602 0.21102439 0.034929305 0.00022165889 -0.90003604 0.43581539 0.00055261888
0.0010209598 0.21301475 0.038688906 -0.0014570768 -0.87188607 0.48970664 0.010061808
0.019006973 0.21141453 0.03566625 -0.0023697922 -0.89711767 0.4417854 0.00039909169
0.02952116 0.21026841 0.033501338 0.0020881691 -0.90407848 0.42736128 0.00072723441
0.034948222 0.21056703 0.034065392 0.000975476 -0.89982581 0.43624821 0.00054979871
0.04869695 0.21198976 0.036752772 -0.00033314203 -0.89463961 0.44678825 0.00040959305
0.064042069 0.2123353 0.037405483 0.001829198 -0.89121306 0.4535813 0.00029269289
0.079461634 0.21347852 0.039564911 0.028771495 -0.85702157 0.51447672 0.012013783
0.10172841 0.21212381 0.037006013 -0.0027005116 -0.89688581 0.44225389 0.00037518956
0.11163786 0.21366166 0.039910808 -0.028769126 -0.86859906 0.49467957 0.012552468
0.12187184 0.2123763 0.037482899 -0.07523454 -0.889844 0.45001924 0.025453705
0.13804777 0.21202143 0.036812603 -0.36334783 -0.70712286 0.60659355 0.20556124
0.14636531 0.21456563 0.03563574 -0.46611109 -0.43002042 0.77319008 0.25970289
0.17274077 0.21823592 0.035320606 -0.85863566 0.089064844 -0.50478917 0.076623037
-0.17226692 0.22351997 0.036613706 0.84162796 0.12001424 -0.52655381 0.17031686
-0.1470211 0.22616772 0.032601241 0.66818607 -0.043204892 0.7427386 0.20858732
0.17393839 0.2253664 0.032286461 -0.86447668 0.0068412996 -0.5026263 0.10332531
-0.1727622 0.23643138 0.035021033 0.82824814 -0.028220894 -0.55965036 0.1349213
-0.1479108 0.2360466 0.036030047 0.41796878 -0.26957873 0.86754215 0.2942391
0.14694497 0.23451465 0.034378197 0.19044811 -0.78201187 -0.59345353 0.26935095
0.17278552 0.23504741 0.03496889 -0.8203963 -0.1704406 -0.54580212 0.1873375
-0.17130299 0.24308999 0.038666751 0.84204102 0.026445678 -0.53876477 0.1206352
-0.14549232 0.24807468 0.037559099 0.17161821 -0.87724811 0.44831118 0.14969712
-0.13503475 0.24806345 0.03770889 0.4850311 -0.84457386 0.22680363 0.12869044
-0.12928252 0.24863032 0.031913735 0.30406058 -0.94729316 0.10090999 0.061920427
-0.096746229 0.24829219 0.035442721 -0.06930311 -0.99255157 0.10019215 0.059072535
-0.084227704 0.24873084 0.030969517 0.012315936 -0.99875426 0.0483553 0.030449128
-0.076633267 0.24824445 0.036000263 0.027180037 -0.99483901 0.097757831 0.081011876
-0.061470255 0.24812606 0.037268396 -0.055978332 -0.98839808 0.14119332 0.078929834
-0.056799591 0.24801038 0.038474556 -0.021354031 -0.99564248 0.090775356 0.086732067
-0.040877741 0.24846834 0.033778265 0.054066293 -0.99401438 0.094933525 0.04168769
-0.035738472 0.24850921 0.033359915 -0.017099075 -0.99088877 0.13359255 0.037174124
-0.026477057 0.24864292 0.031982444 0.019485986 -0.99281961 0.1180229 0.026665822
-0.015413265 0.24828236 0.035740614 -0.095535271 -0.98117971 0.16780762 0.092974171
-0.0037184444 0.24819326 0.036680512 0.012514367 -0.98551995 0.16909668 0.094859414
0.0070799775 0.24829304 0.035673205 0.048833851 -0.9736926 0.22257155 0.070088387
0.013840971 0.24793425 0.039422095 0.015624262 -0.99432474 0.10523442 0.12078172
0.022469193 0.24812129 0.037507936 -0.022674527 -0.98592091 0.16566806 0.070388667
0.034018327 0.24833246 0.035353359 0.0084130717 -0.99058485 0.13664146 0.066138193
0.044954956 0.2483986 0.034689501 0.073481224 -0.98797983 0.13600136 0.060190555
0.055846304 0.24852271 0.033419505 -0.050872412 -0.99293733 0.10717974 0.064464532
0.077636294 0.24857414 0.032907039 0.026051169 -0.9978351 0.060386531 0.050539613
0.086740308 0.2482584 0.036229059 0.012849483 -0.99245608 0.12192547 0.090119034
0.094869815 0.24847662 0.03395088 0.020306457 -0.98905563 0.14613909 0.069750048
0.10445503 0.24798828 0.039089791 0.069089115 -0.99148345 0.11039669 0.099985421
0.1453947 0.24429677 0.031932849 -0.19602998 -0.96338606 0.18291935 0.14992326
0.17249142 0.24522132 0.035509918 -0.84468836 0.024776921 -0.53468466 0.13350148
-0.17166662 0.25702137 0.036790635 0.86647069 0.08468695 -0.49199256 0.061527811
0.17309852 0.25479034 0.033003096 -0.90188301 0.030214049 -0.43092239 0.059265271
-0.17206135 0.26558396 0.035333581 0.90876198 -0.024038592 -0.41662177 0.0036074449
0.17390941 0.26942873 0.030644288 -0.98996758 0.0071969931 -0.14111152 0.034084283
-0.17287335 0.27242965 0.032977045 0.94479388 -0.021528585 -0.32695735 0.010117233
0.17210107 0.27711576 0.03481238 -0.92733371 0.0097073289 -0.37410945 0.0059547964
-0.17182423 0.28578976 0.035269253 0.90474683 -0.02446308 -0.42524666 0.0052968068
0.17170015 0.28461674 0.035384841 -0.9203313 0.0028117287 -0.39112973 0.0069255335
0.171809 0.29471076 0.034834828 -0.91083199 -0.012382098 -0.41259146 0.0032974621
-0.17187931 0.30437168 0.034462605 0.91580385 -0.015348131 -0.40133244 0.0053419783
-0.16966395 0.30109873 0.039995257 0.89157468 -0.0062414738 -0.45283067 0.0044520241
0.17112386 0.3061676 0.036153503 -0.90489966 -0.0038825141 -0.42560712 0.005598648
-0.17205717 0.31578004 0.033567812 0.92940825 -0.019405913 -0.36854282 0.0019184258
0.17168181 0.31400865 0.034520563 -0.90852213 -0.0046361964 -0.41781107 0.0057111927
-0.17261145 0.32097492 0.032095753 0.93790275 -0.017548073 -0.34645429 0.0022702776
0.16926728 0.32567665 0.039797723 -0.87828982 -0.036744319 -0.47671452 0.014252541
0.17205244 0.32711771 0.032944847 -0.93643916 -0.032762777 -0.34929696 0.0029480266
-0.17140298 0.33789378 0.033300005 0.93903148 -0.039512333 -0.34155324 0.00087900361
0.1714555 0.33021322 0.034297224 -0.92155313 -0.03743659 -0.38644308 0.0015738514
-0.17207563 0.34128401 0.03141322 0.93895984 -0.0387723 -0.34183508 0.00081034354
-0.16894734 0.34809709 0.038381048 0.90681767 -0.035443384 -0.42003027 0.0036352803
0.17189579 0.34580076 0.031317111 -0.94265348 -0.039644081 -0.33141017 0.0011512886
-0.1711767 0.35448796 0.032191709 0.94798076 -0.047363222 -0.31478432 0.0011443901
-0.16921248 0.35017177 0.037502117 0.9064635 -0.028178141 -0.421343 0.0037985169
0.16880441 0.35782844 0.0377235 -0.91820878 -0.028514218 -0.395069 0.0055489107
-0.1695064 0.36273718 0.035407871 0.91702241 -0.049591064 -0.39574057 0.003393512
0.16861433 0.36787289 0.037109345 -0.92146879 -0.04184958 -0.38619167 0.0034835702
-0.17041352 0.37130082 0.031749167 0.95193553 -0.052606046 -0.30174738 0.0014486852
-0.1695801 0.37820727 0.033126999 0.93459296 -0.060027074 -0.35061762 0.0028375594
0.16932677 0.37583309 0.034326937 -0.92952377 -0.037137158 -0.36688727 0.00279031
0.1705969 0.37277311 0.030928481 -0.94550866 -0.0509592 -0.32158434 0.0010526343
-0.16840301 0.3832396 0.035520706 0.93432599 -0.05541423 -0.35208538 0.0029081481
0.16771586 0.38293695 0.037526853 -0.92056698 -0.044081982 -0.38808927 0.0028977534
-0.16725726 0.39586487 0.036641411 0.93136406 -0.061007239 -0.35894167 0.002253185
0.16751778 0.39524394 0.035857849 -0.93096036 -0.070119984 -0.35832378 0.0022871173
-0.16738456 0.40247768 0.034951497 0.9425211 -0.071800545 -0.32634109 0.0010632873
0.16728626 0.40419555 0.034734454 -0.94320446 -0.080081508 -0.32241622 0.0012234638
-0.16725075 0.41849765 0.031285938 0.94552195 -0.11047738 -0.30624002 0.0014140815
-0.16459395 0.42447403 0.037207227 0.9354139 -0.1205583 -0.33236504 0.0021536483
0.16613619 0.42894557 0.031071186 -0.9480356 -0.15492512 -0.27789679 0.0021342195
-0.1645072 0.43458208 0.033982426 0.93539077 -0.21887609 -0.27773631 0.0038364972
0.16450596 0.43555838 0.033579584 -0.92346126 -0.21452513 -0.31811687 0.0051583722
-0.16162394 0.44359973 0.037339825 0.87016618 -0.35886833 -0.33767503 0.011273845
0.16150717 0.44696531 0.03446874 -0.85759175 -0.41264644 -0.30701685 0.0099718105
-0.15801328 0.456577 0.030642442 0.76759005 -0.5825206 -0.26734883 0.012376387
0.15711381 0.45512867 0.036166254 -0.73943174 -0.5671823 -0.36269125 0.018816812
0.16016842 0.4512127 0.034007631 -0.82355136 -0.47762614 -0.30600089 0.015491371
-0.14414734 0.46763125 0.035650179 0.46641457 -0.79930639 -0.37890187 0.016321335
0.13572793 0.46980417 0.038515732 -0.35980493 -0.84697741 -0.39136881 0.014226958
0.14519134 0.46614444 0.038468134 -0.47829044 -0.76387405 -0.43328357 0.01537504
-0.13258694 0.4722608 0.033451624 0.31400558 -0.8842172 -0.34577498 0.010282853
-0.12417365 0.47483575 0.031671841 0.2450044 -0.92343825 -0.29535514 0.0079542464
-0.11411116 0.47636175 0.034273166 0.21647196 -0.92468244 -0.31321272 0.012196894
-0.10075727 0.47686869 0.039537754 0.16870336 -0.89114928 -0.4211795 0.018833935
-0.097003721 0.47868189 0.035845019 0.15608914 -0.92474133 -0.34711617 0.014647719
0.085858598 0.47940332 0.038928628 -0.061666638 -0.92876917 -0.365493 0.020887675
0.099526078 0.47826147 0.035146222 -0.13867788 -0.90394771 -0.40453294 0.018393258
0.10519845 0.4786315 0.030093001 -0.18107177 -0.94941318 -0.25656906 0.0112206
0.11334133 0.47565609 0.037311293 -0.17212614 -0.89212698 -0.41771051 0.014113253
0.1253286 0.4733811 0.036073349 -0.21100092 -0.89253849 -0.39856434 0.0096315676
0.13697338 0.47204039 0.03001206 -0.38483566 -0.87583917 -0.29121679 0.012759686
-0.090378858 0.48028848 0.034246195 0.13269672 -0.93326145 -0.33378834 0.017848603
-0.08445403 0.48093614 0.033983182 0.12812673 -0.94938821 -0.28678501 0.017791277
-0.071799204 0.48164529 0.038027547 0.0021763982 -0.9224748 -0.38605118 0.027101655
-0.068593539 0.48130164 0.039025836 0.039108701 -0.9262774 -0.37480748 0.02757223
-0.058807801 0.48308593 0.036595747 0.021131366 -0.97174573 -0.23508212 0.039523076
-0.046495654 0.48485416 0.030117219 -0.017992547 -0.99848986 -0.051906865 0.032536913
-0.033799328 0.48507065 0.033967718 0.029071257 -0.98787588 -0.15249956 0.051014446
-0.028679393 0.48471567 0.037134249 0.05217012 -0.9791308 -0.19642077 0.056976985
-0.014376752 0.48545304 0.033879425 0.019695824 -0.99932104 0.03113945 0.036089044
-0.006229972 0.48578823 0.03479813 -0.0050511286 -0.99971861 -0.023177687 0.042810783
0.0053473599 0.48550117 0.034475014 0.0055844425 -0.99746066 -0.071000583 0.052584
0.016342539 0.4856061 0.034234185 -0.013335573 -0.98774451 -0.15550868 0.049498774
0.030804945 0.48439083 0.037619073 -0.046955608 -0.975097 -0.21675073 0.050448135
0.04384679 0.4846954 0.033111613 -0.089631803 -0.98975229 -0.11116027 0.043663137
0.054713599 0.48345494 0.036754865 -0.069107451 -0.96611899 -0.24867332 0.044884261
0.060023498 0.48298332 0.036767103 -0.056694772 -0.97372025 -0.22057766 0.039452527
0.07745292 0.48194045 0.033047371 0.0026290442 -0.98705375 -0.16036831 0.019219728
0.084976405 0.48115578 0.032185838 -0.056413457 -0.96226132 -0.26621568 0.017953692
-0.034726668 -0.33289492 0.04047535 0.014538842 0.26466146 -0.96423179 0.010567405
-0.027116437 -0.33404911 0.040766302 -0.002339954 0.31544295 -0.94894165 0.01451167
-0.0043664449 -0.33144569 0.040593199 -0.0067818114 0.30833966 -0.95125216 0.01517176
0.006421166 -0.33213583 0.041383617 0.0063353428 0.28426245 -0.95872557 0.015364587
0.011970387 -0.33379805 0.041181803 0.013551626 0.28230128 -0.95923012 0.014635172
0.03121737 -0.33172888 0.040908545 -0.043940559 0.24923742 -0.96744508 0.011266418
0.041026305 -0.33263829 0.040183894 -0.051245507 0.22393654 -0.97325557 0.0090106567
-0.040648062 -0.32092872 0.040888213 0.067093737 0.20642731 -0.97615892 0.0095942868
-0.025190081 -0.32919562 0.040812381 0.014421456 0.31714082 -0.94826889 0.013139445
-0.018219793 -0.32199538 0.042042334 0.01778993 0.2790539 -0.9601106 0.01832686
-0.0041406755 -0.32566079 0.041933209 -0.0026731165 0.28405041 -0.95880562 0.014974467
0.0036419141 -0.3251316 0.041971151 -0.0029064892 0.24787794 -0.9687869 0.014706879
0.013869464 -0.32655227 0.041917063 0.0089213969 0.26766288 -0.96347129 0.015665269
0.026514133 -0.32488468 0.041508656 -0.029018505 0.2225401 -0.9744916 0.012987884
0.033281129 -0.32240292 0.041288368 -0.066357262 0.18929338 -0.97967583 0.0093297865
-0.052772999 -0.31400192 0.040073976 0.081969678 0.12537915 -0.9887169 0.0023097931
-0.032841351 -0.3136754 0.041881729 0.047150377 0.15752099 -0.98638934 0.0096129561
-0.021691762 -0.31692687 0.042181123 0.052884419 0.19590883 -0.97919506 0.015753089
-0.011446255 -0.31551096 0.042568315 0.020808522 0.1348193 -0.99065161 0.010397998
-0.0033047076 -0.31354141 0.0428131 0.013359886 0.13221751 -0.99113071 0.011271802
0.0048504495 -0.31517884 0.042720109 -0.0037835529 0.1782003 -0.98398703 0.013118385
0.017999314 -0.31319731 0.042517826 -0.035042983 0.13656278 -0.99001139 0.0095959296
0.029626422 -0.31115538 0.042178556 -0.049833257 0.13386725 -0.98974556 0.0083365524
0.033477232 -0.3162964 0.041672908 -0.051049653 0.15007633 -0.98735553 0.0082391081
0.046389602 -0.3139171 0.040968489 -0.08936467 0.10743342 -0.99018788 0.002441277
-0.050769903 -0.30822664 0.040880159 0.085680813 0.10326669 -0.99095649 0.00082241633
-0.023015223 -0.30860019 0.042527739 0.032295607 0.10580534 -0.99386227 0.0066596214
-0.014635388 -0.30468425 0.042855304 0.026945418 0.0881005 -0.99574703 0.0038448286
0.0071508633 -0.30235386 0.043047491 -0.010597007 0.050656572 -0.99865997 0.00010425586
0.01220546 -0.30477047 0.042908184 -0.020311054 0.05381453 -0.99834436 7.6980294e-05
0.02653168 -0.30427518 0.042554565 -0.042342976 0.07704787 -0.99612784 0.0025081004
0.037455171 -0.3042548 0.042095337 -0.070823416 0.081993043 -0.99411327 0.00184059
0.041415542 -0.30946356 0.041594379 -0.079557963 0.10126296 -0.99167347 0.0022049879
0.057684548 -0.30038637 0.040481441 -0.079086937 0.091359593 -0.9926725 0.00027174503
-0.054730821 -0.29903632 0.040971097 0.078169182 0.087149501 -0.99312359 0.00027048538
-0.032925796 -0.29490113 0.042819679 0.049347337 0.06956213 -0.99635637 0.00015852487
-0.029947016 -0.29228678 0.04306376 0.038066927 0.067103505 -0.99701953 0.00023418512
-0.0164879 -0.29390267 0.043287855 0.016242834 0.052659269 -0.99848038 0.00010535426
-0.0022955069 -0.29190791 0.043569028 0.0022251471 0.057848658 -0.99832284 0.00015908478
0.0036197188 -0.2954331 0.043388367 -0.00058408134 0.053264301 -0.99858034 0.00012200259
0.018996352 -0.29984897 0.042932961 -0.025670465 0.054774906 -0.99816865 8.2828352e-05
0.025132183 -0.29663453 0.042932108 -0.025851412 0.05988282 -0.99787062 0.00011466575
0.034633465 -0.29445535 0.042761508 -0.05301581 0.065896079 -0.99641711 0.00027125125
0.043811642 -0.29721004 0.042140495 -0.076544128 0.077852532 -0.99402207 0.00034513467
0.065074645 -0.29518962 0.040121607 -0.072144873 0.097862639 -0.99258143 0.00031351525
-0.084376574 -0.2877816 0.040328793 0.051127672 0.10572277 -0.99308044 8.0631362e-05
-0.07440158 -0.2841709 0.041065075 0.050941542 0.10484723 -0.99318278 7.6795921e-05
-0.061778069 -0.28619283 0.041455351 0.065073691 0.097291343 -0.99312627 0.0001891041
-0.056434918 -0.28475365 0.042163104 0.062496912 0.09519057 -0.99349529 0.00015058901
-0.047722265 -0.28270918 0.043093462 0.058162164 0.073875234 -0.99557 0.00071561045
-0.03903823 -0.28849524 0.042961054 0.054942235 0.077095345 -0.99550867 0.00021851805
-0.02307005 -0.2874324 0.043545146 0.021305913 0.06564454 -0.99761558 0.00010403616
-0.019320581 -0.28953588 0.043464828 0.02008843 0.06139094 -0.99791163 0.00012462039
-0.003080019 -0.2885935 0.043766469 0.001226924 0.061102934 -0.99813068 0.00017472112
0.012680125 -0.28458524 0.043969095 -0.016658261 0.067864709 -0.99755549 9.3770686e-05
0.02270465 -0.288463 0.043469913 -0.021530489 0.06739109 -0.99749428 0.00010913828
0.03533338 -0.28619111 0.043313723 -0.042446423 0.072060294 -0.99649668 0.00020647745
0.043393984 -0.28505954 0.043077245 -0.062656894 0.072239526 -0.9954173 0.00033226158
0.053501453 -0.28402328 0.042536028 -0.069523372 0.081141599 -0.99427491 0.00054692628
0.062820636 -0.28579974 0.041386053 -0.062054638 0.10331944 -0.99271059 0.00011338495
0.071457349 -0.28409207 0.041158371 -0.051623497 0.10269766 -0.9933722 0.00012400988
0.09439747 -0.2829867 0.040426269 -0.057843927 0.10303053 -0.9929949 0.00014113568
-0.10786026 -0.27086943 0.040772136 0.096946061 0.10346606 -0.98989713 0.0005670971
-0.096884429 -0.27438462 0.041195653 0.072585233 0.10200674 -0.99213213 0.00038011416
-0.063146301 -0.27676117 0.042448152 0.047222294 0.079967998 -0.99567831 0.00076015451
-0.054906908 -0.27320933 0.043441273 0.051703647 0.062454473 -0.99670768 0.00087989256
-0.041570865 -0.27465034 0.044030234 0.041360278 0.04440733 -0.99815685 0.00078376144
-0.033848025 -0.27470767 0.044309199 0.046384085 0.061194349 -0.99704754 0.0020016502
-0.021128016 -0.27901128 0.044258922 0.022855228 0.051614888 -0.99840552 0.00049728126
-0.019449491 -0.27041733 0.045019589 0.020697106 0.074248508 -0.99702495 0.0023211979
0.0069002826 -0.27788812 0.044558905 -0.0024940374 0.061671585 -0.99809337 0.00038496501
0.0138857 -0.27569136 0.044662729 0.012996254 0.10508762 -0.99437809 0.0046159718
0.024009887 -0.27438295 0.044575732 -0.049363177 0.10811452 -0.99291211 0.0066934037
0.03335166 -0.27504906 0.044295233 -0.049867652 0.06841588 -0.99640977 0.0034583618
0.054717839 -0.27824438 0.042986929 -0.061040018 0.077820733 -0.99509698 0.00051757786
0.065065876 -0.27812922 0.042140044 -0.046901718 0.086917467 -0.99511087 0.00053843879
0.074100986 -0.27926332 0.041607253 -0.042120866 0.09758155 -0.99433577 0.00026124567
0.089455292 -0.27914721 0.041019164 -0.051055875 0.1064458 -0.99300683 6.6146189e-05
0.090431474 -0.27413511 0.041512661 -0.051708452 0.094410971 -0.9941895 0.00026217863
0.10384949 -0.27744177 0.04045691 -0.089262992 0.10794272 -0.99014163 0.00046431183
-0.10540447 -0.26519379 0.041595638 0.10559423 0.105506 -0.98879641 0.0068645366
-0.08630383 -0.26401791 0.042714871 0.065358959 0.14385401 -0.9874382 0.014402612
-0.076902881 -0.26778334 0.042756908 0.052484266 0.12513182 -0.99075097 0.0096442476
-0.063308537 -0.26570678 0.043627232 0.034690209 0.12632085 -0.99138272 0.014853882
-0.04216845 -0.26727495 0.044655718 0.046725307 0.093476266 -0.99452454 0.0082788579
-0.033814702 -0.26569808 0.045086294 0.024969207 0.070848413 -0.99717456 0.0073829372
-0.011503069 -0.26108345 0.045948751 0.020300055 0.071648493 -0.99722332 0.0062872656
-0.004584291 -0.2651667 0.045645114 0.038116679 0.070030332 -0.99681634 0.004804763
0.0050300937 -0.26805961 0.045393672 0.018102087 0.092012405 -0.99559331 0.006701645
0.017915253 -0.26381451 0.045630246 -0.022119055 0.14362752 -0.98938459 0.014876149
0.026787555 -0.26816493 0.045045931 -0.058754802 0.11417542 -0.99172163 0.0080033597
0.032600235 -0.26196775 0.045470402 -0.056069199 0.13188082 -0.98967856 0.014293382
0.047291238 -0.26478097 0.044704523 -0.065354519 0.094980352 -0.99333155 0.0098504778
0.051420841 -0.26464611 0.044508204 -0.043374278 0.077967994 -0.99601185 0.0060296976
0.064233445 -0.26059741 0.044187732 -0.014114786 0.13444981 -0.99081993 0.015128186
0.07175988 -0.2651324 0.043249816 -0.046855539 0.11703729 -0.99202162 0.0078862719
0.083998747 -0.26506835 0.042732988 -0.051448949 0.11180846 -0.99239701 0.006493934
0.098712943 -0.26787338 0.04177041 -0.071975134 0.082110927 -0.99402082 0.0012815483
0.10851741 -0.26388419 0.041430622 -0.092211187 0.096221492 -0.99107945 0.007121386
-0.12286691 -0.25180417 0.041227244 0.16361822 0.089605838 -0.98244584 0.015409686
-0.11391462 -0.25544715 0.041830212 0.15512881 0.15133056 -0.97623467 0.016307978
-0.10426758 -0.25251693 0.042920426 0.12604992 0.11189418 -0.98569328 0.023712153
-0.094010331 -0.2545628 0.043313812 0.070596732 0.14927962 -0.98627162 0.026073597
-0.08494287 -0.25682318 0.043571677 0.045741659 0.18848611 -0.98100996 0.013974241
-0.074441373 -0.2562547 0.043737706 0.023236565 0.19466361 -0.98059475 0.020882685
