# .PCD v0.7 - Point Cloud Data file format
VERSION 0.7
FIELDS x y z
SIZE 4 4 4
TYPE F F F
COUNT 1 1 1
WIDTH 1529
HEIGHT 1
VIEWPOINT 0 0 0 1 0 0 0
POINTS 1529
DATA ascii
600.21399 -2359.5342 -215.68562
-148.01083 -216.75522 -308.74457
827.93982 336.47842 215.20212
539.88672 -435.86993 -291.74524
278.47888 1954.418 -250.40221
-312.51236 -1548.9949 236.34148
598.00323 1348.0278 -648.5249
-850.9928 1444.2854 -702.92322
-585.59796 1156.9282 -85.412415
-889.33423 -1364.9111 -89.933601
651.96118 2164.9731 -233.326
-694.73376 -1766.0962 -396.97589
-765.58636 -1411.022 -557.39276
-131.60257 -1959.2867 183.75693
850.99634 1065.8263 -584.18481
716.3161 1217.1108 -628.92004
-844.7641 -910.94763 179.12126
-803.79993 182.87778 371.16406
-748.56677 1286.4336 -629.1983
842.63226 904.05493 -532.29022
891.73193 480.98425 -97.673035
-895.66479 -1151.0554 -8.2709141
-681.06958 -52.491772 -191.25211
-229.93619 -684.69397 -389.84595
810.11523 1277.6951 -23.968952
206.48093 -1960.8027 -522.84692
413.24387 -1130.4626 -139.22141
853.39636 312.40945 191.06161
-186.40237 2375.3711 -74.891846
399.58939 171.54944 -433.67697
-323.90268 1332.1493 53.6064
-570.26562 -984.97064 97.99794
766.45251 1319.488 100.29881
464.32318 -1278.8245 -535.63812
-128.89587 -1060.3102 292.07397
-545.13928 1151.9525 672.01532
935.5061 -82.853348 -210.68874
-864.49542 -335.03943 155.76242
-698.93884 -1788.1511 -190.28156
148.77426 -1372.8137 252.11943
-561.50317 2290.1179 -233.32602
357.2489 1454.5905 221.83257
379.42526 -1505.0208 237.64894
-835.90845 1189.286 -135.5054
844.90143 1136.8953 -281.17868
544.68884 -2093.3052 156.28795
654.12427 1435.4175 -264.26028
58.606239 401.05066 -156.24985
-149.17 908.93298 -97.956985
-484.23303 -1299.9791 -149.26598
-71.236473 187.73894 -140.935
-366.91788 50.35743 554.40302
-767.87433 -1545.2371 -231.4664
259.12817 1550.4559 330.05164
773.37726 -1686.1079 -20.210152
-662.97528 1154.1125 608.10168
-918.51685 459.93997 -62.048813
908.56274 -282.51013 -345.51718
-788.21899 335.10031 -558.22546
693.54358 -1710.1826 -38.822952
945.06171 -876.98431 -193.73691
-579.50409 1170.0762 -50.689346
744.25983 1287.6851 -492.5528
402.68695 205.64499 258.84387
-23.118738 6.6645703 -566.88361
-389.67731 1488.6609 470.60553
783.6402 1313.7192 -332.6239
-482.51517 1718.9969 348.38068
374.2731 1597.7142 -524.69635
-706.92853 -874.10785 -575.58038
484.233 -1391.1382 -251.2748
274.4552 -747.35596 -352.61609
484.23303 -1184.1003 -284.41446
-615.05371 1146.2062 -83.87529
-851.82867 518.48749 100.46512
321.84384 -746.19873 313.08969
31.022535 -1829.1709 -518.06915
-845.28296 -281.97852 217.85652
-878.38867 -350.37933 -1.00949
-496.83063 112.03154 560.21692
-595.54572 -1805.6558 -649.08221
-484.23297 -1227.7386 -429.5318
937.46014 485.57608 -147.52179
-515.45862 815.31311 -134.75563
819.5686 329.37604 -549.81433
7.5518122 329.32941 748.73187
214.2292 -449.6026 641.30768
672.44464 -103.76117 -568.04407
-725.04492 -1113.8239 -359.29257
259.8952 -385.26801 675.16388
-6.9482465 -1051.4829 -393.10342
-181.16455 -778.23529 454.41681
614.89496 847.8158 -127.91827
826.66779 1806.1218 53.141121
72.339813 -1193.6383 266.78897
760.06177 -1732.223 198.58139
883.823 -718.86505 67.610626
715.51233 912.48883 -555.82568
-818.20966 -286.18927 282.05353
472.72501 462.03192 -562.09894
895.38831 186.22458 -392.75232
484.233 -1708.6426 -172.25003
473.46341 -53.505104 408.81042
-341.64896 -2341.5151 -448.74414
-136.95837 -112.94373 -238.71005
-212.77237 768.75745 -167.74149
-931.19171 -895.91724 -144.01801
668.03009 1561.0652 -106.46913
-834.54889 1306.1573 -650.17249
824.3064 2032.1445 -190.51631
249.90166 1604.5664 -523.82703
94.96067 -1362.0743 -563.1416
-226.92117 -991.00342 329.05008
-484.233 -1447.3901 -121.56301
-589.00763 -1648.6526 -133.96092
834.8468 1138.4281 -309.216
-676.61304 1479.9012 -271.47662
700.56122 -1366.9581 -439.95935
-848.67297 -1655.512 -732.20856
-513.20142 2198.876 -233.32599
209.69702 1640.6116 353.37915
758.2298 1446.9352 -415.96338
152.12567 1300.6639 602.90814
-6.5308676 -417.90759 -571.3446
-343.66202 282.22498 -563.98828
90.50312 -596.52582 -427.36026
568.83948 2329.4648 -328.24298
-778.27258 -590.18115 -430.76666
807.26038 -1515.3943 -564.7915
-797.21362 1510.4718 -502.67096
903.80652 -1239.3835 -217.92789
-877.19684 -177.45961 -465.74432
-551.41931 -664.5354 -294.08115
-100.436 -2318.8501 -466.85837
427.21948 -952.88928 311.32782
-484.23297 -1386.1736 -82.693741
426.3645 1612.1484 342.68839
-599.45038 1274.3787 -213.84662
724.10913 1402.9097 255.32065
209.4635 2377.708 -265.00955
-76.632881 -138.04985 731.58447
389.46072 229.8562 -432.69177
241.94894 725.37103 -236.68224
-497.63528 -1433.3546 -73.771637
433.19598 -491.40466 34.774273
132.91525 -1911.5907 -510.11719
773.1582 893.31195 -553.12756
137.60793 34.366367 27.492645
875.77307 1302.408 30.628159
918.85687 -461.18323 -54.887753
807.85339 1500.2352 -522.20435
-544.51752 -2207.9927 -490.78473
-731.88629 -1408.6268 -553.69128
-794.58276 -1494.3147 -344.22943
818.77173 -1408.8108 -397.92651
-676.01611 -1650.2747 -745.98907
73.314003 1879.6333 345.58643
-425.15671 1814.5911 -278.06195
-666.68896 -2288.0637 -293.75021
-266.55927 -2240.9021 74.269592
-453.29932 -1752.8905 -507.98608
667.94781 2282.8076 13.056128
776.85144 -463.53998 409.51071
-674.06049 -296.78223 -438.52167
-257.73407 1233.2671 -557.34521
-195.57059 2004.4991 333.8313
-690.10596 -498.92407 -332.97034
-763.23077 1899.6753 -233.32599
-162.11562 125.97334 352.85229
-811.42462 1049.2028 279.04446
318.29303 -2338.2637 -417.51575
272.88599 30.568419 516.1991
-187.99384 -281.43604 712.94189
-848.7619 1854.6888 -205.22748
778.47906 2312.1279 -102.94137
-465.58582 2278.4126 169.93732
-796.38403 1425.7878 -603.59393
720.74402 -2265.6248 -183.09596
-592.93402 -1431.4747 -278.07935
-20.34033 -1064.1516 -194.8558
276.71802 471.17447 -417.77502
602.75464 710.52173 -330.11292
658.44006 -1261.3956 -316.67111
-633.85266 -1512.8938 -647.62146
836.33264 -253.79562 238.77264
-187.80649 271.21478 -347.95865
35.168293 2307.3848 -390.61456
211.04305 815.85364 -134.96387
-916.18347 643.37537 -62.408398
-698.2439 -51.879631 582.56659
689.51538 -2272.5891 -282.01202
344.2431 -1322.8649 -566.92731
770.86145 1210.1476 -582.03253
-278.94199 -681.06506 -574.11023
931.64514 -528.22351 -120.80209
627.35358 100.76605 24.14892
656.31781 -1421.913 -49.364033
-487.88632 42.945934 543.82983
631.51196 -1650.5703 -247.16373
737.2652 678.05725 511.16144
554.38354 -1225.4304 261.40448
-614.55835 -1545.377 -30.75106
-856.71759 846.86853 -492.53094
-386.37796 -1505.4777 237.30934
844.3913 -1717.3092 -614.71667
529.85895 1563.8372 -129.69966
-237.02429 -279.81091 -569.89355
-204.09886 706.50574 -286.34348
280.96307 601.65613 737.81812
539.4389 433.26471 726.58209
422.75867 2303.8477 -233.326
-323.32349 -157.039 -191.0304
-852.55927 1564.4502 -538.47717
-262.62576 -704.64667 -457.67761
-780.60315 140.17876 439.54053
725.2074 -1564.0515 230.57278
746.7486 596.39014 -557.78168
162.18982 711.56598 -272.32175
-374.93372 -1512.4329 -546.43335
843.43634 42.241295 224.94247
-519.685 1276.3192 -105.32729
-858.66125 790.91638 -491.06628
781.07513 677.64917 -555.01117
-662.73816 -1686.22 -35.841133
485.87231 -394.88922 -571.10266
441.18555 1977.3635 329.76236
-484.23297 -1440.1809 -238.17404
-192.94652 1010.377 -68.226776
22.6703 -1368.9196 204.10068
834.50024 1115.4257 204.00348
-137.13644 56.321793 135.28346
171.42628 131.34187 140.97752
-402.91757 -747.28412 -574.80609
-660.11987 -1734.9995 -579.94312
-414.19739 -32.353012 491.36765
669.57556 -1533.7983 -231.90392
694.75812 -1801.6665 -83.978951
261.70627 190.01077 744.7547
718.53387 -1385.4592 -160.11929
459.22522 -1952.4718 -485.40637
314.62589 -2151.6208 125.81876
-386.95062 -495.13254 614.92792
-821.90417 -1789.7839 -405.92133
-318.56235 -1070.8383 -424.88297
630.36218 884.40625 -557.66119
-639.27515 8.881402 -256.94727
-739.81622 609.05615 508.07355
-345.21393 -459.89612 634.50641
818.62787 1708.4025 -409.08026
-737.44739 2208.6392 -340.33441
565.25183 -320.04547 -440.84161
184.76913 -4.4248796 172.89507
566.31299 727.83466 -559.30585
48.021389 127.76514 746.31537
277.70071 0.50603652 -566.94812
828.49615 -1576.995 -7.0090213
873.28259 -1165.3728 68.829109
-90.827995 -413.1709 -427.1322
-371.2428 1506.6077 -536.28046
-371.21622 610.09857 733.92859
-383.01733 165.02724 -431.22577
-905.90778 -68.110107 -188.33168
848.67358 -1650.0753 -733.65735
-650.47742 1068.8009 -62.115005
-863.13434 -857.32172 -344.71939
-607.23401 -2312.064 -63.716625
877.35779 227.68785 4.0022502
484.233 -1274.0131 -364.29443
-37.802372 2255.0066 214.00977
-846.78357 -1610.8479 -191.5699
800.20142 1722.728 -387.83881
768.49384 -1893.853 -439.44818
738.8717 -1493.4075 -466.85974
-357.44971 -2385.918 -289.44025
-538.34924 1058.0839 689.62256
-485.31354 -554.79608 579.31464
900.56403 -538.73322 -223.31984
252.52028 -301.06708 707.63275
856.79553 513.75305 -512.10248
-592.9859 -818.50256 425.1109
-944.20728 553.78223 -158.29434
-274.92764 -418.67737 -571.35254
-240.77521 639.01001 -560.2395
931.88818 -542.17749 -123.06663
923.13245 -701.42249 -88.323959
-49.97953 -948.3291 -234.41664
702.89532 -1755.075 -164.03709
-589.20129 -1367.8989 -651.97803
216.71996 -1558.1472 237.50452
-729.21082 -1151.8027 256.53809
-650.53894 -601.84711 -311.48517
-615.62769 -1330.5732 -208.66452
182.26627 -2361.4207 -100.19547
-521.7439 1745.7803 344.60577
519.685 1232.9395 -260.9884
215.85307 -2315.1394 -55.173164
885.6593 1058.7131 27.290092
211.44576 -416.02637 -371.57715
-825.65112 1262.9073 -287.26819
414.69885 -2061.0176 -505.07022
-743.95148 -260.52441 -567.14282
-659.72363 1464.4058 -137.6093
900.82416 -1043.9348 -363.578
-922.38721 -366.2641 -68.492058
-166.36115 -641.21954 534.4729
-370.61841 1518.9365 448.12723
737.59753 940.82062 -250.67453
458.32083 2180.4929 -233.326
-761.60358 -1593.0226 -618.37976
492.49066 -2358.3928 -145.13339
927.69019 892.91125 -184.16724
757.82666 1370.2201 -211.65907
-799.37756 825.53503 -133.65936
-741.54163 1498.2684 -155.96921
-757.11548 1118.9855 -175.34079
-340.56244 543.41064 737.13147
-621.58191 -108.14595 -135.87004
-483.42719 1493.9368 312.95831
207.16458 179.71567 319.32022
866.17987 -1219.4368 85.438194
707.89752 -574.883 -402.94977
-367.23239 -273.51709 -284.93329
-642.64575 229.77927 -435.80975
-124.67604 2178.397 319.13892
925.38855 -604.18701 -247.2724
-267.38739 380.37909 743.89624
-672.05127 1445.8274 274.94043
808.67566 -1453.2882 -736.64703
-815.94513 1324.9912 -622.2688
-349.30045 602.75238 735.02734
-828.22998 1926.6445 -5.1341629
-363.41833 -58.214691 731.53906
690.01208 -64.022461 594.90662
717.07715 1121.4725 533.32996
-595.08838 1564.7734 -407.46753
-759.07867 -1349.4905 -73.664124
-911.09125 607.41235 -277.30414
-895.89783 -1082.0947 -384.67133
824.84454 215.70337 -400.51752
-445.42493 -2351.7573 -336.68362
814.6662 -1826.7965 106.87588
624.40417 -1566.8472 -655.08966
-99.518105 -1508.2776 -549.03394
-548.88074 -999.01721 147.37642
-895.71191 678.69891 -355.73029
846.62054 -1816.3501 -230.00597
349.94437 -820.57886 334.99164
-433.56042 -385.41162 -287.6423
-125.48423 1193.2812 667.80676
576.81689 -251.72267 -569.59851
-592.92432 -1805.8262 -539.34235
5.9216681 -653.95294 526.98962
827.65125 -1452.6399 -281.51221
-432.42294 -578.84869 567.97351
590.66418 -1285.3506 -403.47009
722.96997 915.14703 -486.12762
779.09265 1429.4127 -260.73508
-864.10205 184.54753 64.090324
519.68494 1509.7701 -119.63332
-946.00525 -145.95868 -209.35107
-906.20056 972.61096 -42.507401
-5.1815166 -837.42102 -575.7533
826.4646 850.28845 185.85368
-593.06787 -1771.1509 -419.73636
715.37378 1658.4104 341.67599
-399.47253 134.39421 -565.5415
844.46924 478.51508 -344.18335
-216.45888 -1560.2953 -544.01544
882.86957 -881.90942 348.70438
270.89236 -1983.1982 -518.18799
609.97656 -1281.0981 -144.36459
-652.02393 -1443.3644 -41.836327
917.92676 -642.16138 -287.97433
-362.16382 198.62665 217.957
907.65161 772.33484 -281.64066
-770.6217 -169.53862 -429.46429
-74.664467 442.52106 -191.16977
267.23376 -1913.6849 -509.91705
431.71899 1808.335 -281.04974
897.97339 -853.46344 6.3646073
-652.57001 1126.8967 -478.92053
240.02005 1638.3179 352.11395
384.64038 -424.93689 652.49335
483.46622 705.31354 -559.54248
439.79742 -671.23114 -438.90955
-512.68872 -1157.4425 268.6506
488.28662 1361.9707 558.90149
-30.144547 144.73087 746.91687
479.00363 213.01053 354.17026
600.79596 1358.5466 -752.64471
796.30627 -11.373743 375.28488
-898.18646 222.28432 -378.80414
6.4951506 -2274.4106 33.810272
-897.03564 442.15903 -369.33109
-891.90161 405.35495 -393.32816
-494.05521 -607.66235 -573.33875
-365.20706 1352.2903 568.04565
-589.82867 -1859.701 -424.94809
-406.41782 -341.99783 -287.3801
-796.22034 -316.55038 -426.40289
-288.70279 31.370495 -410.72278
-493.56409 377.73859 -562.9845
484.23303 -1622.9625 -73.706512
692.51453 2316.9165 -291.92206
-383.13947 882.76355 -121.05069
872.76874 43.431435 28.714834
916.5105 -845.18188 -66.890343
394.06586 620.9549 732.67578
545.0047 477.04248 -561.94092
844.83661 -883.70538 -20.111803
780.71899 1159.79 -147.23091
176.74857 -2376.5298 -116.33044
752.50061 1537.0873 -184.53592
-519.685 1134.7109 -386.53339
596.69373 -1644.0696 -116.37759
769.27618 -493.90161 425.45367
260.38126 -459.90646 -403.50632
444.81268 -803.00879 -439.28601
900.51038 524.15265 -344.80988
-799.66577 -2160.9128 -113.58263
-713.91821 -981.28198 -576.34174
2.7150774 809.45081 -144.41492
-42.527142 -814.94861 -575.51721
624.35754 2084.2917 306.867
-725.06909 -897.1925 -574.85211
-682.72302 -1727.2256 -308.53516
-863.7157 -567.20386 148.55315
-646.66925 -1721.6604 -718.23602
401.42004 2394.9175 -116.51749
-822.80066 -2143.593 -196.04964
-20.682259 -569.5274 -572.93787
280.82941 2219.4202 154.47832
-789.10352 2172.2742 -30.966185
-786.15454 649.53406 391.0928
279.53036 182.0639 171.46461
-187.69414 627.09631 -427.77264
320.95551 -135.84976 -421.6485
814.4436 -528.72363 286.49542
739.73108 1350.1399 -340.30167
352.77118 353.71237 -563.23724
-349.71848 -2123.2405 140.64636
-677.30212 -617.78748 524.70227
753.5105 1295.1218 -28.754711
509.55338 -626.54926 302.45447
-852.53711 -1411.309 -217.59454
-775.99707 -1567.7463 206.24274
562.00018 689.48834 715.24146
643.25861 135.93217 299.62207
226.42953 -2216.2402 89.812302
502.55084 -1691.3076 217.75066
-337.78278 -1085.554 -578.36011
742.18115 998.55328 -470.11728
-837.7843 -943.7406 17.154053
774.32288 833.55072 -553.71686
917.57111 580.22046 -241.68625
-4.6499014 551.91248 743.67932
-852.23633 1436.0808 -659.75403
-248.21457 -1364.4987 -562.90881
-663.31769 -177.54385 -568.81921
-798.96118 -51.088829 365.46222
-692.84418 1130.6708 -694.52307
-182.89221 -490.16589 619.46667
329.39059 927.41742 -104.13133
-347.19955 872.70386 -557.78406
-913.13245 627.2085 -45.233704
-292.68839 251.56548 744.6853
-179.99352 1988.772 -243.67834
645.92322 -237.95842 643.30676
77.320251 -128.16104 -568.30042
761.97375 -367.75406 -567.3725
-614.60358 1171.3671 644.4552
-1033.5361 -842.74567 283.24219
-804.46631 1236.3229 155.62852
-654.39526 -2106.1289 -499.51212
-758.67529 1450.8928 384.74121
136.11519 63.504211 144.3407
-356.27301 -336.97571 -288.13382
754.70148 -1830.6075 -623.34558
868.6933 -1464.8 51.949211
636.78119 1713.1775 340.22504
78.561783 1538.4012 323.36438
66.480835 -1065.8883 -369.93347
-569.13574 -20.023666 -381.33051
643.10211 292.97314 683.20673
867.55365 506.57394 136.42618
-58.705936 -2380.2778 -122.80753
295.19067 -1294.1555 -569.69666
-108.40352 -579.44989 -187.44141
-721.60706 1787.6329 315.94122
780.18433 -502.60406 -567.87604
866.57117 -892.2644 -304.69113
176.7972 716.98425 -257.26624
-166.57169 -1091.6006 -256.96991
656.04761 1967.8893 311.91666
112.35857 2245.7778 206.78629
-668.94513 -2273.0564 -40.467937
-314.3309 177.97363 138.95082
-879.60767 215.63722 -5.603713
57.245735 -1780.0656 214.49991
-182.68335 -1375.8795 202.34367
-489.21289 852.72107 -557.99341
78.935143 -1022.1395 -381.68622
686.724 1402.7574 -640.54382
527.80902 -1648.3916 223.21417
-370.37292 -186.67627 -568.91492
484.23297 -1461.2788 -363.04095
-296.41147 687.44678 -368.82715
-598.28162 1524.4434 -351.11655
-642.7218 2098.9312 293.67645
-629.75446 1913.0974 -232.03061
-692.91095 2364.4834 -159.6947
-869.40552 526.58966 15.366388
320.81921 87.777252 -421.27502
-562.23535 339.64905 -437.55505
712.33075 639.46198 -405.46313
-822.10034 -112.83554 -554.64746
944.45911 563.80872 -154.39268
-620.83783 -2190.7356 75.113708
-474.28436 -1496.4131 233.30618
692.12115 1247.5779 -244.15448
-81.718544 2228.7227 82.048279
-479.18915 -225.17007 711.40637
-10.019264 1484.1489 300.77734
551.07147 -127.95705 -118.96864
-872.00964 -1885.4171 -88.570007
655.75964 -1699.614 -40.003017
450.26715 -1000.9377 -59.027821
-365.42365 1839.8297 -272.83276
901.94232 -134.13239 -222.40221
-763.80029 1487.0873 -431.32257
-718.05756 -518.94598 522.95709
-12.654574 578.00537 742.83112
-598.21381 1131.4968 -325.7471
809.7193 1166.0818 -270.53851
-409.36807 -288.3876 -285.62378
-374.06921 -432.22238 -288.26898
904.91541 157.10132 -133.00056
840.27722 -576.22046 142.97566
-573.53406 -319.81 -293.77359
592.28693 -1321.0088 -536.0238
-484.233 -1558.9043 -256.27124
-384.24112 2397.7598 -100.87909
-769.63501 1004.4727 -358.37442
-743.98492 -1976.5747 -384.19696
-195.55942 162.72287 214.39125
794.2406 1141.0569 31.920071
-204.99686 -947.34894 -401.5647
-771.82806 1596.6904 -120.66841
769.479 1478.5264 -448.33148
-646.75354 487.16028 -430.74689
-857.4624 -171.463 -392.5
-450.54953 10.453248 -344.90317
-367.76089 -1129.6998 -373.39572
-851.12689 -1616.5652 -136.85551
217.51334 2306.2363 -233.326
652.48279 2.1040602 655.34833
896.78717 -1372.2177 -33.954185
166.29961 1272.1669 71.943565
-310.77563 171.98218 119.04716
549.79224 1590.8132 -143.92995
-804.11945 -961.2323 140.20726
-235.62051 -809.25159 -399.22845
80.379707 1973.9333 337.65131
789.34814 2066.9333 39.307362
-768.23352 -274.3446 444.87717
-694.30029 -2263.9373 -292.71097
207.08923 -563.32544 -301.55261
143.08817 51.28561 -255.34087
375.91492 -739.19153 -390.45099
-903.02728 105.22313 -364.64725
-652.46466 1029.4382 -288.35193
-253.17812 -1667.9674 227.74823
597.60602 -1285.9895 -592.69147
623.19739 -1359.3988 -681.92847
722.25537 -1967.7848 -284.78381
164.57257 -970.50244 -57.254715
-239.20407 -8.201129 227.14563
-344.17545 477.13544 738.96368
868.97229 1120.6477 81.499527
876.70795 -1333.22 41.764477
-847.4978 375.08063 128.72357
-855.77454 1444.5126 80.374352
-313.46918 1450.7758 218.54301
-269.73334 -171.91951 -233.60728
329.0817 1517.0591 -534.95227
376.4993 1482.167 475.78394
-638.78375 2139.9248 -233.326
597.96356 -1776.0247 -360.82306
-587.33716 2359.5139 -249.09827
-637.96094 2278.9702 62.227291
-857.14197 64.439117 182.63115
145.22678 605.34949 -560.59332
794.70282 359.90167 376.94781
-580.44965 -722.49951 -414.30518
-229.55234 1407.6268 -548.86768
-851.29352 1578.0776 -280.22165
526.31073 -1812.8254 204.38086
-647.53638 1588.4963 -618.48889
818.13074 -549.21112 -421.8775
-823.98712 -1954.6459 -345.82544
330.31796 -529.28461 -289.37057
626.69818 -2154.6104 105.06174
829.48926 384.34177 205.95828
-146.86555 -956.80566 -370.06085
-640.13916 64.100082 316.08139
881.40942 589.97229 84.18148
-408.77252 -825.94824 425.24042
791.72516 1367.0493 -24.469141
-660.92096 -1171.5681 -347.42926
885.72821 -789.27362 -436.1951
184.26688 360.8634 -354.12909
-262.569 2322.0803 -385.48639
-721.35883 2103.9136 186.0715
311.6572 -771.7254 143.35907
-681.12695 1496.1265 -573.26501
-848.17285 -718.7373 91.533554
-846.09021 -2024.5356 -124.67532
-866.79303 -1071.4788 -496.46701
-847.2041 1628.2789 -344.73032
499.35629 -1681.9402 -65.539787
566.85876 -1614.7849 -40.960484
-713.24524 -2207.0483 -14.495559
644.40125 -274.85693 -569.84149
606.51691 -483.3959 -441.22809
832.17139 -433.95801 192.63847
-253.9249 -557.63885 581.80914
794.31781 -890.12109 -423.72406
685.6864 -1247.8315 -496.89023
-512.94672 -44.843582 -567.42487
203.74214 264.72665 -366.72369
347.67731 1812.3186 -313.36359
-768.25781 -764.22479 -571.22552
548.41113 -128.40228 -118.03442
-359.18164 -380.81296 -429.3389
718.71667 1376.9149 -238.03583
-760.40259 1937.2468 199.28876
-621.85229 1417.4066 -252.664
902.49805 349.19363 -348.87375
837.27344 1515.7343 127.79996
327.0199 987.54919 709.74432
69.712814 672.78601 738.46875
352.33807 180.38828 -565.05811
443.8595 88.481613 -150.38251
836.55066 1170.1813 -267.56708
186.27737 132.85326 112.75674
484.18726 -5.2754703 512.91113
-671.06921 1608.6683 366.35791
740.20074 1434.5879 430.36975
808.65027 -1352.344 -185.70122
852.4408 -1743.6714 -237.10385
727.26599 694.93732 -557.82043
-263.94559 38.399197 -566.55054
-382.65399 -550.87787 -288.59259
-845.94409 -1383.1925 -586.19598
399.90546 -579.9967 204.21118
766.6579 -1889.7278 -374.47089
-613.8255 1197.3632 -272.0463
-812.60327 -1885.9838 -499.11288
263.46274 786.8493 728.13702
-760.37 -1381.1321 -698.07507
-875.87848 -512.07104 -353.7475
-186.59309 -36.837177 -567.34064
9.895031 -800.32983 -575.36359
432.93073 -797.22791 338.48663
858.48743 795.6889 -46.945236
424.88464 -799.84875 -438.53455
582.79407 2281.7024 77.086761
625.98242 159.90868 257.53857
347.46545 -682.32324 -574.12335
-600.1676 -614.13275 538.9162
484.23297 -1423.7959 -417.92712
78.863518 -903.45374 150.07518
680.50763 969.92871 592.0097
-588.98486 171.27098 189.31714
-828.3172 -250.45508 219.75
-163.4295 143.68542 -304.94687
-538.05377 -1980.2424 -374.3974
510.73917 -1135.2318 -365.01862
-691.85535 -1266.8333 -304.40164
623.05762 -1628.2305 -751.08081
662.26807 2237.4937 -233.32602
-145.86121 29.587769 -130.87556
-439.53519 -746.45795 -314.70947
1047.6796 -856.07739 327.27014
748.69995 1649.4462 -432.15005
-519.68494 1141.1237 -159.49471
465.14661 -1525.937 -510.35205
-300.74808 656.87299 -436.33762
-497.68491 1406.343 120.95808
-901.22168 -582.50769 -210.75082
-688.91748 967.80115 -91.10408
312.43579 518.43079 -429.52539
287.90619 515.47888 -561.53766
-327.53247 -17.451191 241.28835
88.945328 600.30432 -395.42389
592.12152 1266.1863 -694.75964
-852.0119 1031.4751 -435.51343
484.23297 -1643.629 -408.72882
497.85031 1370.3806 -463.69534
105.81868 1386.9236 252.75424
716.66998 221.71953 570.66791
-451.41205 55.784462 732.45551
687.31433 790.87415 -170.95015
608.02966 -867.97485 3.200819
484.233 -1994.6641 -300.64401
92.953217 -944.45172 287.99228
-620.37512 -1344.3943 -94.190346
657.66907 -2198.8838 57.035477
-662.26514 543.84637 643.50366
-289.41141 804.40125 725.91516
-33.740925 1296.209 198.52348
-704.51361 -897.38446 367.05591
340.28094 -1096.8921 280.32291
203.84973 81.330246 -364.43512
529.00574 -157.99026 -200.85127
416.06149 1037.5542 701.28296
-590.89764 1603.5353 -444.37234
-745.78088 1436.9707 -266.45016
-669.80133 1145.8323 -704.91516
880.54663 1516.5759 -82.295311
-568.77887 -514.60211 -572.36066
-629.974 2065.2222 -233.326
340.06598 441.25281 -562.31763
-655.77252 834.98712 -130.36722
591.10162 1535.3773 -612.79572
482.36063 978.78345 -83.149918
857.03998 813.54797 -494.43988
449.46057 -1805.1617 205.59721
-562.53491 -18.345526 208.52728
-742.58374 2201.5088 81.899612
-143.89606 -774.98346 -575.09741
913.74744 -575.22394 -314.7645
-301.36829 -2352.0508 -323.92007
-594.45984 2276.5291 107.31761
-97.900269 -1877.6947 -513.38763
-651.89264 4.0307889 656.40247
-234.43915 -76.754646 18.054535
724.9079 -1552.884 -231.07848
371.83594 1399.7882 117.82703
870.83826 -1945.5682 -140.28922
681.7251 1157.5726 -315.84
853.11609 -253.60928 111.88867
-747.32202 695.30994 489.38571
819.83228 130.78667 259.54965
858.50421 1254.9301 101.65443
662.46033 59.758522 151.09259
-942.21893 650.70618 -154.26587
157.4798 -17.080652 -308.97311
245.84439 -22.76683 395.47488
539.84839 1552.4454 -288.42285
636.87512 -772.65448 -440.60898
-85.221863 -533.87677 -152.0625
-589.10693 1362.5713 -728.61194
-139.14532 912.13269 -557.53943
807.67023 1926.2661 -337.90811
-759.02881 -1968.5371 146.71602
-139.15779 15.258312 32.905991
818.42871 -1957.7798 36.750565
814.96472 -886.4917 -416.34448
-222.71909 1603.5015 344.48746
544.03857 -1133.8242 -146.8268
-284.04938 183.28885 -409.53281
274.01279 -1248.2018 233.86459
156.63887 109.65762 347.36884
-484.23303 -1555.5822 -305.05569
570.76624 71.918869 506.23145
823.29083 -947.18134 191.53438
-299.573 858.76587 -557.93011
-759.84839 1530.228 -79.013397
-656.16357 1185.0226 608.76013
-398.12299 -2333.0542 -449.17651
-449.53046 1264.5535 -13.200895
174.17256 -376.57388 -307.04117
52.233677 981.32855 -41.545692
-739.55334 -1893.0516 -410.42828
808.80975 -1757.2356 -397.33826
450.08661 1084.2163 -545.09851
788.43103 -356.02078 -428.41425
-87.398163 -916.13757 -255.81461
-415.99185 1586.1062 396.58844
585.47437 643.11707 713.75507
144.54114 -440.59979 -317.49994
640.66229 -810.33026 287.07861
486.48087 1565.3611 -429.22479
881.47778 1380.3688 -32.336208
-493.89563 -1421.3198 -78.648857
245.60472 2224.9236 189.82312
904.78894 -34.672699 -359.59979
-150.19919 1398.8315 258.54401
-430.29816 2376.667 -233.23114
521.54114 -1301.0559 251.87801
516.11572 -1280.7155 225.37918
-763.61267 -1474.4336 -634.58826
-739.63959 -1241.4655 -444.1084
-236.03206 -1994.1304 177.4527
-723.96661 -1505.3466 -109.82807
496.28778 -0.22364953 512.79364
-70.073639 -775.56915 455.89594
-230.99231 -2349.3306 -363.48532
594.5788 -1565.9755 -653.03699
447.54126 -220.83528 -270.63437
-134.26932 -1233.2157 232.10472
595.20697 1540.9471 -668.30011
-888.77319 17.802721 -42.72049
812.25165 -1431.6704 -252.76587
47.73391 -887.29218 189.36415
299.44995 1142.4067 -51.96439
28.538456 -2040.6912 -512.63593
585.38562 -1157.9142 253.64668
741.29187 1138.655 -505.17352
508.66776 -2287.9683 -16.000015
-553.1156 32.860268 -275.73218
-361.02426 172.03854 104.73166
876.01593 -829.57446 87.282127
806.69348 1250.7529 277.26779
-600.75879 63.612877 711.62622
749.56848 502.62051 490.80804
484.23303 -1302.7706 -465.33325
-868.79565 484.69733 23.791142
834.23206 -1388.9891 -303.19995
777.34137 1545.3931 -409.08209
-327.34814 60.866493 -566.31445
802.63782 -1987.0896 66.631096
-640.59027 -568.98621 557.05957
296.54703 -517.15955 -291.55545
-635.75604 -824.72937 -575.61902
-752.63159 2201.8545 -300.28152
634.99988 1521.9067 -461.81335
-445.50763 -66.520782 117.39558
677.89838 1176.7803 -602.07544
-371.83356 41.40815 -276.59854
-632.48071 150.25809 311.99176
-627.60889 1328.2375 -654.6701
-602.78253 -1728.8383 220.99762
764.99719 1461.4203 363.70319
715.13989 -1764.873 -537.85095
-598.51221 141.53752 96.074448
535.37659 -1466.5044 238.08006
810.79315 -1258.3599 -533.82568
562.43042 1506.9102 320.2691
-698.86865 -948.03802 -576.79645
-468.79773 -6.8747025 728.6651
540.4986 11.555195 495.19974
54.244171 1566.7172 417.15515
739.69373 -1115.1388 -242.53769
-761.52698 1193.4553 -372.40036
705.95422 -473.82529 -416.5098
593.20862 -1562.4978 -171.02261
852.92981 1464.2797 -676.95013
-21.431047 -962.25104 252.51488
-786.84735 -753.0033 356.04468
782.71948 1277.0811 -235.26712
681.39911 2218.7761 190.64857
-259.7988 -986.55188 -577.3197
504.05228 -328.40344 690.83984
-468.99255 -424.07617 -439.32458
287.92725 -541.245 221.36401
603.69098 758.45599 -198.63054
125.42008 1068.4469 705.87354
785.08313 -1965.1116 -478.57227
-670.06506 -1410.1758 246.36978
904.72791 -99.653656 -199.01083
760.28375 -642.2149 -433.10019
-665.10168 919.1889 -304.77969
773.40735 1508.1519 -305.47141
737.6217 324.44702 -561.16028
786.26404 -1094.1646 -208.09282
644.94983 699.15051 -559.60742
-484.23297 -1396.2863 -343.08759
-895.97345 684.70343 -353.91507
534.54816 732.72449 -232.16409
780.27081 1734.4436 238.43234
606.85248 -1441.7245 -271.7872
-808.22028 1875.9287 -365.6022
-423.29962 -21.029169 730.91418
-752.29968 -1019.1331 195.02075
-662.98999 -676.78601 -319.37994
543.79688 -606.76764 233.9949
519.685 1069.1742 -184.45241
-912.39563 402.5387 -289.1572
-922.96399 -142.93716 -261.25992
-209.97375 -836.58594 -575.74438
811.88312 -1860.1101 100.04791
876.05096 -781.58594 90.596581
825.89569 -1625.4072 137.85353
850.5014 -1836.5623 -293.12656
255.81732 725.66003 732.25281
615.37933 959.51703 -91.138367
-663.60217 -2063.7444 167.95514
-517.41718 666.57996 -433.70596
830.95343 -947.70221 -390.87079
-181.87955 270.12311 -339.94299
48.28363 548.39661 -264.83594
-823.49609 -1492.1316 -746.62549
-564.89062 -1042.4586 -51.16293
21.041779 1514.1755 455.77045
-848.53375 -1595.7446 -744.31549
-915.80585 449.57867 -264.728
867.71716 -806.56592 -344.28619
540.47559 -1204.9866 243.841
-161.24583 -546.08612 588.64349
-62.908318 -993.49121 327.38062
232.42792 -1488.7626 242.70746
400.14301 -314.68649 -434.64447
-899.0849 -835.66852 3.6028228
374.81662 -758.74585 332.20374
731.70782 -1666.1653 -255.11473
-853.14868 -940.82886 -329.91943
-578.19489 762.13751 -185.1286
888.80884 -181.86017 -44.084381
-792.57806 1487.8701 -712.42682
202.10152 -1081.5405 -125.64989
331.37051 474.01532 -561.97339
-753.65845 -1655.8958 -516.0625
-695.83374 -1720.1912 222.73001
-519.685 910.22076 -380.58594
-518.35883 1301.3964 597.69507
819.37512 729.29962 270.41077
-590.41333 -2116.4082 146.26682
-419.28387 1261.4071 -552.51733
-889.53992 539.08655 55.578892
673.04205 1936.0111 -233.32602
650.29651 -2314.0784 -144.45547
-52.224922 381.22812 -562.94843
-919.32892 8.5063429 -278.62756
708.69336 -1120.5304 -335.06393
-756.31854 -1345.4718 -398.47659
-376.83905 215.59909 440.95093
-115.15402 -1043.9482 -94.401314
-402.20139 63.880318 -433.72238
812.86853 -940.07819 281.23489
-267.09802 -665.22583 -407.99738
605.74048 -616.3667 -300.51923
139.89487 -828.53754 424.66641
-126.39085 2243.835 13.186271
96.906578 2343.6848 -41.891441
352.68155 -712.83557 492.24445
-825.00421 -1535.9247 -422.45963
-527.48615 1525.6833 -215.57762
-598.17377 1124.5601 -521.73181
641.60205 135.45076 -565.53009
-302.03253 -1086.3225 283.72745
-728.20026 -1263.8624 -310.46185
-353.62967 1884.2216 -264.14261
748.20288 -1368.7932 -172.03001
-279.32016 794.61145 727.08313
-690.12354 746.5932 -269.6918
-468.74774 -1936.3973 -464.44016
379.7569 -1295.1643 -566.45966
-35.99585 1741.7781 -422.84085
-625.54669 -76.332596 -438.9184
-33.474754 472.22672 745.84515
484.233 -1236.6272 -204.71379
6.732131 1067.5673 25.86282
891.60492 -179.76601 59.213333
874.41321 -468.08875 -359.09485
-826.41785 1154.6721 -520.27087
483.29306 -657.58228 521.79468
658.18225 -1500.1011 -240.54941
850.58246 1196.5637 -649.52112
825.53925 -687.80933 -419.09521
-764.91608 -1621.9653 -108.4832
885.45563 -568.99506 -312.41742
250.20854 152.82695 92.838654
-904.74872 -94.910141 160.5058
831.91772 1335.2764 -106.57232
777.39893 -1716.0778 -262.42883
-407.58423 -942.21179 356.99115
157.48709 -625.11951 -299.6106
-356.42172 1391.0846 107.47501
49.953869 -2362.2258 -104.09389
763.13733 -1461.599 -588.33661
-651.11035 799.29968 649.7323
180.98039 1332.021 104.99498
-851.89075 1160.0983 -188.983
178.94443 417.19699 745.2735
167.08784 -855.30786 221.6366
343.05228 127.80391 -29.346495
-390.98602 -1043.3485 -577.9165
728.10388 864.60046 -555.9541
220.68225 188.79803 -376.3772
800.21698 1542.9259 -388.15921
-820.04895 -281.06635 254.79306
-400.30832 970.75836 -85.851875
873.95532 1693.8262 -162.94096
476.91217 1394.8184 103.69501
343.8403 -1123.0876 -404.83347
-849.8429 1351.9978 -125.73649
-614.02979 -1221.0137 -216.07809
605.67914 -1759.9984 -366.45251
-921.18298 526.35266 -227.48622
-294.26135 -990.61938 329.23572
872.68378 -1105.0491 -470.11594
-744.74316 1228.7273 471.17657
-585.49243 1451.626 217.72577
255.52039 1400.4205 536.45551
319.77271 -749.25134 471.20624
409.86847 778.85736 -149.53526
-411.79877 -817.9397 -437.96927
-60.579254 -636.30322 -138.18611
-529.87402 1062.8546 -519.63635
-946.88104 202.51846 -185.91656
-837.39551 1082.5985 -648.89392
593.84595 -1640.39 -187.45926
-694.53473 -2165.7778 85.069771
-363.88251 1374.6987 552.86719
651.30157 -1170.1135 -460.00076
668.60687 -1714.3853 -44.008583
329.45538 -2363.8293 -347.41229
-855.31647 1253.3125 -28.682026
-26.663427 400.97464 -562.74097
720.5592 2350.6079 -160.00195
-681.49951 1280.593 -651.5484
252.82509 2231.6738 -233.326
-655.4823 1634.2786 -525.16833
-359.40381 1370.6638 555.67175
-545.65027 -1976.729 -462.9874
358.62277 -620.77869 296.76843
523.98199 1370.0033 -372.15942
-871.26447 -390.24387 -501.12292
-857.4491 -797.06787 25.417816
759.04834 1728.1499 -333.55109
596.52502 1451.0286 -611.36792
-511.03818 1420.514 142.51344
-21.780039 1098.8823 51.067375
669.97723 -1767.8108 -412.43945
-736.91565 -1717.8101 -597.4245
773.20746 -1705.9446 -135.86066
272.86618 2005.2008 -240.46068
146.24544 1457.9933 496.41553
-270.85092 -2086.6057 154.54234
770.63904 2164.6917 -274.84412
906.76892 -1353.9965 -70.314316
659.63647 1248.0258 -642.6427
717.71729 2106.0078 191.8773
-834.38428 1373.5105 -646.93652
897.78247 -136.25037 -393.53635
880.22882 -716.77148 -315.86908
254.5762 -659.23041 -573.88068
451.22107 -1059.5502 -578.08673
-402.20877 1465.9862 -539.80554
-844.96967 248.6972 145.16347
-852.52362 -1730.4709 -638.86841
810.52875 1539.1318 -674.1972
-789.729 622.8941 380.64206
388.49738 -158.72511 -432.42746
821.62213 986.12683 190.52663
760.29358 2170.8215 55.461678
-916.50275 350.17072 -270.30536
-831.03851 1457.64 165.74402
-155.02202 1278.5785 616.86749
-176.87875 -1094.5499 -232.92105
335.94101 210.9744 462.28839
-590.89264 -1525.83 -152.05443
85.64138 1548.818 429.88745
698.90338 944.22589 565.33508
811.80066 381.83398 -390.20612
327.92398 -52.381012 149.33238
760.04523 241.5986 -422.89734
222.20818 1137.3862 692.87579
630.2135 1127.197 -480.98065
-286.20349 105.91779 -409.78079
269.67947 -1006.9052 295.16571
-816.19177 -1547.9966 -630.51239
464.22318 1600.7068 -466.2995
350.9649 -277.22171 -569.86621
136.76768 -1086.0565 -578.36566
-240.30939 1211.0259 -557.34943
440.25516 216.36536 385.56595
827.66443 -639.47058 -418.73178
870.35687 475.03064 -467.73425
496.91101 -2308.2878 -63.89389
852.388 -1293.9397 -341.99878
-340.42084 1662.8076 360.00208
598.21405 1185.3252 -47.511032
-742.77136 1205.2069 -20.423719
-794.74744 -790.96814 330.6796
-529.90234 225.05254 729.86707
740.65381 1094.3127 -663.80151
651.27783 -1807.5361 -651.39191
900.23895 -39.497978 -231.56873
206.33057 1940.8346 339.00946
134.81015 1379.6407 -552.42706
-199.93518 123.56337 59.692535
593.34949 784.83887 -156.58577
-218.08934 -103.97722 -374.57968
-905.77795 162.03641 -147.89639
-671.23981 -992.78693 19.096024
-367.8912 917.43127 -108.42722
-883.93756 1706.0601 -104.97883
873.05048 -1657.7578 15.544296
241.85368 554.48865 740.22186
-829.01385 -1532.9648 -231.20627
212.22224 -502.05908 612.90894
812.09833 -1628.5281 -253.53001
579.08698 884.40289 -557.66132
-944.68231 -895.8222 -195.2075
695.01807 -1764.172 -389.02512
695.5647 1050.2971 -64.075729
32.104153 1692.1993 -479.57538
544.63916 -2294.2712 -394.42407
-897.49414 674.94141 18.21513
117.26038 1086.3571 703.91522
-744.17407 1924.146 243.36734
311.30359 -2163.2908 119.47614
771.39923 1958.9858 -435.24808
421.82202 2077.7249 -233.32599
-609.03387 839.17303 690.78955
-758.31689 1418.3239 -633.27271
569.80267 1871.9579 -229.86652
871.20959 619.25385 -443.71503
489.17322 -528.42114 593.78381
14.953979 229.34479 -115.33811
218.07697 2230.8279 195.60098
-682.29962 -1123.7245 -374.08151
-625.59485 -1980.6599 -418.81134
-529.44543 1630.0071 -313.03726
708.41455 -412.53635 -364.53473
88.617737 -1071.9463 -183.6443
-724.9964 -1545.4636 -12.447759
-872.2179 -213.22351 -365.75449
-287.36523 486.06473 -422.07312
1000.4637 -911.71875 362.46515
-149.98094 683.00818 -559.77728
-809.39032 1123.8994 -405.89948
-109.86536 -887.24176 -281.5163
661.52551 2300.9729 -350.48376
362.18329 -1799.6038 208.07799
-711.81763 -2267.3738 -144.7618
-543.37146 376.25711 -437.85339
-555.48248 1661.2808 352.20267
-891.50702 -783.87805 -131.69264
-427.11328 1386.9449 96.67746
523.65576 202.15706 478.16418
-892.56934 -624.73212 -416.50757
-693.76794 -41.904652 -567.39386
-792.56018 -1243.842 227.74292
829.81036 -1579.5315 -254.86682
-848.5495 661.8988 -247.41788
-484.233 -1732.6467 -99.416908
887.12903 -584.73175 63.910923
537.10364 2077.2522 -233.326
-483.06873 2088.9158 -233.32602
367.29776 -1130.0948 -153.6179
881.26874 1029.8628 50.344414
740.35419 1214.3298 482.41238
-527.30365 1028.8346 -159.06361
-831.81427 -443.53156 244.42665
-867.65698 593.88275 -470.92566
-901.95728 -1052.0529 -23.583672
792.35352 1481.7543 -336.22296
336.75204 -123.27043 -425.23785
804.06342 880.03485 -91.606606
888.12994 425.57007 -63.831146
371.20157 2225.1558 168.94766
-631.28217 -1169.9916 -358.16006
-505.15137 1018.1499 -72.13784
618.97894 -830.78528 307.57031
-852.31006 -1342.8707 -302.85516
496.01575 -726.31238 -419.00662
647.62177 -1187.8533 -290.83853
715.66858 1405.3713 -115.3704
-806.4859 1448.4493 -245.72778
62.354671 -1337.0458 254.83617
400.9505 -2186.4631 92.817261
-665.38019 -813.24329 421.25009
753.35345 -2102.0264 -474.01788
-701.33997 -1067.8611 275.4335
-665.71265 -1381.9331 -508.60504
838.01514 487.64423 232.43674
349.04553 -639.88831 534.375
512.96802 -716.15558 -296.99713
-43.335808 2273.3098 226.74039
892.02136 -225.49084 57.393822
-394.6955 1210.7996 655.90924
905.62842 467.79108 -322.40823
-718.29047 242.23445 560.6441
-46.300869 -1589.3177 235.43436
123.96925 1326.5935 198.97879
577.65289 2377.4089 -166.8793
734.22034 759.82837 514.30756
-775.27197 986.98053 400.51855
638.96741 903.70642 -388.75726
-794.65979 1441.6041 -270.42065
-665.50775 1172.9036 -598.00934
36.544727 -464.03305 -571.82916
-314.27167 942.68878 714.11401
-344.6254 2308.7014 -20.927383
633.02179 2305.6133 -28.167667
-132.67021 -1913.7745 -509.90646
283.84528 -1276.3661 259.67743
-680.83319 1224.1459 -254.88831
448.99002 -615.61432 546.87146
-10.248147 -892.43896 83.049591
-803.40955 1172.1566 -597.34973
-763.29761 -1435.3617 -370.41101
495.72589 1761.6429 -284.94571
-565.9071 -2015.3372 177.14545
174.40402 1592.2452 -525.39435
762.82996 -1258.4186 -325.58386
264.19397 -974.7464 -577.19568
-273.36093 -98.232849 -19.099825
-12.804137 -1800.166 -520.8678
426.01526 63.860981 -221.98128
545.24084 1593.0555 386.09369
-529.37323 -1646.4756 223.48009
-396.18173 693.86731 -334.21124
-818.6969 -1933.382 48.00248
36.623158 -1288.8013 258.82794
-701.34271 -1124.3531 -154.62222
-830.24451 -52.49131 -413.12756
-108.55029 -1014.6913 238.23962
192.3811 2016.6163 -238.22714
918.67407 -573.19305 -59.346081
-744.38086 1037.0542 476.64383
-234.40881 -240.40395 -569.47955
-729.24261 -393.10117 514.12256
605.15277 913.46674 -485.14825
-103.51663 -686.18286 -189.1116
880.67065 -484.76611 93.266449
-428.69373 2300.7229 -233.32599
-615.34479 2000.3103 -232.48381
808.71228 783.25952 266.63568
-215.297 979.36487 713.60303
134.88416 -863.26575 -313.23346
366.02878 1686.356 -486.23291
-754.62817 -1548.0786 -231.32227
-699.4469 336.97586 588.40387
484.23303 -1249.3925 -443.50946
-168.20184 -282.92288 -312.78998
-484.23297 -1303.8459 -170.04797
640.44843 1349.4099 556.27338
-812.65765 1346.5011 -755.16858
521.56433 1224.0811 -457.86804
688.08636 -1241.7811 230.36681
915.78009 531.92249 -257.01215
420.88824 -1456.8229 -542.85931
-204.82669 1646.2451 366.10944
884.03552 -438.77206 83.326622
538.66754 2274.8535 145.07532
-871.42273 706.27344 -96.989357
184.7957 -236.8976 -298.39038
-765.09985 1283.8007 -536.63098
-271.84195 178.06805 -565.08264
-774.54352 934.11237 408.3902
-890.39502 383.90091 -401.08609
-784.09131 -412.95566 -566.70349
879.29968 -550.55933 -450.24823
704.65155 -401.91895 -424.78705
276.75983 -428.49725 652.26532
630.63373 913.72705 -330.00201
617.71204 1765.4662 336.48169
463.28305 -157.84221 -186.12808
-831.08984 1336.9585 -603.21094
497.00955 1354.6934 -475.90707
440.81406 -1180.8457 -579.24683
846.00763 1150.2347 160.61536
445.23203 -698.29218 -291.53723
-613.5426 -1758.0829 -693.5791
-837.34705 1499.6711 -321.96594
-445.8681 -342.73676 689.36627
-885.51898 -742.53839 -82.188133
166.04242 587.65564 -404.98068
357.78104 1153.7021 -557.36023
509.8894 2197.5366 306.66025
-810.93384 1755.0027 129.20082
464.38257 729.00519 -231.40643
-880.19397 1093.0262 42.314373
240.51346 -1043.3851 284.86993
-210.14313 -125.12575 -156.74309
506.047 695.4472 -343.72397
-484.23303 -1416.8472 -461.97641
688.51978 -1249.6129 -357.98666
-630.32416 1200.902 -733.33118
-297.63449 147.40143 45.870171
-116.01312 160.33102 746.71716
-674.08643 -140.92143 615.09406
-864.52124 -853.11462 -341.3302
819.47412 -1048.9579 -286.28787
-860.8548 498.08627 160.23441
2.2940156 -391.086 672.73407
78.8992 -894.04889 -576.34808
942.88806 -870.25146 -211.75308
-886.01459 676.14563 63.663162
-849.64514 1240.0959 -727.33893
392.396 -1318.5664 251.81471
-484.23297 -1877.3042 -292.15576
-249.81381 -142.81393 -180.06848
678.13306 1646.7346 -399.19366
337.74835 1320.9952 -557.32874
349.57602 1749.8596 351.6084
942.20447 -843.79559 -164.0925
422.78836 -34.376881 730.35266
57.643116 108.89412 745.72168
536.3205 -1789.0137 -101.70332
826.94482 263.72333 223.0636
-806.73364 1616.4094 -138.88574
-577.51569 2348.4236 -282.21524
-684.63184 -1267.3154 -558.09583
747.2738 1108.7925 -499.34546
212.47546 -1277.7361 -571.27991
-144.5701 103.36547 270.74173
172.23743 2202.5591 -233.32602
516.72333 11.296858 -566.83447
855.21655 -619.17725 172.68192
310.29779 -893.81201 -13.629131
-555.12122 -386.16028 -292.71936
551.74005 1447.7957 204.35869
-636.52472 -1576.9248 -104.78694
-659.5058 -1169.1655 -361.0809
-350.31787 98.745926 -117.5041
-899.14209 182.02495 -224.66843
261.75354 -469.3833 -404.01666
-62.001797 -1544.0554 239.00632
-912.17084 -344.03125 -24.447989
-592.74554 -1725.3694 -150.44182
-83.741829 -630.58136 -154.9781
129.84544 -437.64966 648.04688
-913.61755 -1065.7814 -71.459846
-714.10059 -133.44087 -435.13898
874.7124 610.07227 108.07797
628.01202 2121.8831 -233.32602
952.10901 124.72343 -153.65865
416.314 -2047.1349 168.57709
600.9715 1386.3809 -643.6131
-836.53394 611.44678 162.47401
-816.6532 -594.90332 275.97427
-843.29712 -412.56482 -550.34833
688.88501 -453.73199 -571.72125
-606.89868 -1037.1621 -577.85144
-527.07574 -776.81775 451.61646
691.00525 -140.07434 -340.70233
-746.75836 1902.7703 249.0025
727.13098 -380.323 518.51855
198.32182 265.6409 -361.82086
-824.76715 783.27673 258.80161
-863.14069 423.86118 154.73935
789.84589 -944.96301 234.38773
-624.07312 1277.6896 -627.51166
-638.31842 -316.27963 -439.70581
-765.81171 -457.59946 -568.14398
-808.88208 268.96301 329.00769
359.05365 -254.37187 -428.80014
761.9325 2172.2466 49.97937
904.84137 -394.8569 -128.91777
-484.233 -1398.1917 -195.97215
-42.720676 514.79108 -561.54504
328.01471 1973.233 333.95282
710.80945 1212.7764 -263.24741
-529.07751 -357.42163 -440.73651
-593.29419 -1257.9871 -516.3302
-407.90512 202.19351 232.70848
594.8689 -1380.4336 -311.77185
509.94308 1618.673 371.47128
596.742 -1697.8022 -50.691338
818.3562 923.60217 212.09042
794.89264 -2003.8942 77.255737
-857.11853 -1249.7677 109.25122
-321.55475 -972.23969 -428.3584
752.35455 1407.8466 -514.52295
-905.26794 -449.07291 1.5175067
634.32837 70.944214 690.89246
-807.89716 1206.2612 -238.80705
-304.62445 163.72609 94.098541
668.01483 1363.9092 89.118149
-789.25769 1258.7661 -596.63306
809.8194 -1939.4722 69.881317
-879.42297 464.12061 96.115189
-41.081299 -2362.9626 -362.98724
492.04559 845.54395 -558.06885
-160.875 138.86075 239.00845
-761.24976 -2218.0361 -253.95316
676.72644 -729.10364 -574.61407
593.1582 -1807.562 -331.13464
-607.18311 -748.49585 463.65079
154.12097 -1679.0114 -532.55969
174.1041 -795.84247 292.91019
-498.71143 -2300.1846 -454.32031
809.19562 2119.6875 -60.498543
-908.86951 395.8772 -310.40915
-377.55591 -2184.969 96.676094
-23.053154 2.0458651 -115.80161
-687.5 1532.2999 -89.371254
-837.34705 1127.6512 -514.29962
809.5365 1948.6848 47.514725
-518.98395 965.83069 700.87793
323.33923 -1009.0429 -66.912033
62.452576 529.97723 -258.78976
-520.11755 695.96021 -346.57678
491.39569 133.66736 -565.54895
822.17755 -1424.9697 -355.03687
-781.92084 292.71753 -559.0238
-857.5907 -915.6156 -329.17432
395.1387 -197.34106 -253.97441
105.47861 -1452.1615 245.87192
519.04749 1439.7737 503.22388
818.76562 1123.7761 -688.349
949.17273 -808.84009 -166.573
-594.48297 -1494.2839 -193.09213
-825.97156 -1460.0417 -21.979633
798.52881 2000.1606 -316.33585
-380.32846 1496.7147 464.79663
160.10204 824.40729 -133.6555
-826.51758 734.65344 195.5585
882.70044 -737.59741 -442.88052
313.1795 -2344.2002 -343.53198
-23.402479 -1102.1177 -578.53455
44.543743 -1070.1425 288.828
329.76834 1898.2717 340.32428
-489.45233 -989.3584 125.13143
598.17639 1523.3655 -514.87134
243.3156 -68.652534 -567.67505
-301.35056 -372.41403 -416.21866
940.80121 -1108.2441 -209.03595
885.42041 -336.97916 79.889969
-849.62598 304.89435 122.75983
124.39783 -16.793369 -127.90076
-417.47238 -2084.4526 -502.10898
708.86377 -372.70923 -371.6684
-853.87646 -2035.8907 -253.3371
826.85876 699.12701 255.75615
-815.98828 342.12512 267.49307
690.33551 144.95517 612.87299
-951.1449 -199.48772 -170.00543
738.66455 1238.3285 -472.26526
-798.96118 951.97607 291.43723
-875.36621 -820.80865 -464.71704
867.16602 727.43347 -63.116623
-882.95776 580.23151 -78.246307
140.60254 2390.6511 -215.17105
-353.46887 302.19366 -563.77844
457.86722 -64.729607 121.53021
744.71814 1944.7145 231.8743
-71.392654 253.1619 -145.04781
-291.17285 1131.1542 -53.382435
601.99017 139.80859 460.31573
-665.854 2283.0896 12.747704
-578.61304 1118.2719 670.80798
816.17029 -1584.9136 -502.88785
-923.41919 189.67978 -246.60876
589.44617 1636.1277 -392.19696
-53.354816 1637.5205 354.55267
-726.2605 2132.8052 159.01169
532.47809 1010.7583 695.50122
-148.16019 73.068207 42.081821
852.33557 -1752.608 -250.35924
-305.35083 -2297.6604 -4.0321589
-854.07867 -741.95538 -538.3985
-830.0921 121.86705 -548.39642
646.12781 -54.445244 -384.15018
834.38208 -1610.8041 -649.04675
-710.02185 1600.6676 365.38608
746.7973 2139.9338 111.07404
933.18219 147.83128 -121.38783
365.78488 -665.52942 -573.94678
-830.10382 -589.40948 244.33969
858.34906 1629.1945 11.320679
832.17578 -35.535561 206.55811
363.7688 2096.6565 321.61539
809.70789 563.71729 301.16296
161.62735 -531.5094 -302.37827
803.31482 -1859.7516 -287.05139
290.08905 2323.4172 -381.91614
484.23297 -1770.1427 -86.439102
-831.45605 -267.58441 205.20668
876.13965 1628.4379 -62.708641
-154.12624 2262.3718 275.00912
835.7215 -1677.3132 -624.28729
-705.13873 -641.58093 -437.92874
-864.13208 -1493.7433 -32.528416
704.34308 -1574.6536 -104.08073
-876.21008 -733.77313 -453.97717
776.70605 -2057.5498 82.931244
-116.39659 -511.93445 -332.05292
-776.65948 709.36469 -554.92126
918.07574 -162.47023 -45.680126
-565.80096 54.328129 -439.20831
767.55212 1728.8777 -344.47095
742.85339 2219.0374 67.778389
172.61966 -296.6962 -570.07098
-136.48654 -711.69647 493.55164
278.03287 692.07208 -342.96088
623.82269 2372.3176 -85.676361
817.96484 1251.095 -218.36278
-659.21228 -295.53278 623.55579
25.026556 692.55878 -341.00015
157.59329 -70.775833 736.20349
-506.45258 -13.785899 -567.09814
-518.35858 198.19238 -438.26877
109.89192 1806.5262 -323.60501
63.319122 1947.3226 -251.79393
451.27985 2313.27 -18.202457
514.25189 1479.8854 -377.34906
-0.62146759 -907.72363 16.722275
-345.41187 -111.69255 -35.368591
-708.703 1663.5916 -186.75928
719.05945 -206.02704 -567.85132
-437.50885 -20.675291 730.03723
-428.91644 2386.0283 -187.23471
-312.57388 879.73877 -557.71008
557.37775 -2286.2302 -420.38425
-107.11929 -1547.9369 238.77794
-373.17178 2311.6614 -394.37216
-171.90781 447.0556 -562.25677
-639.0437 -1405.2302 -550.11804
-715.10144 -2224.5137 -336.76697
-738.2934 1453.1073 -612.78162
-107.03793 310.21344 -204.26688
937.10132 -261.97855 -143.34637
-323.37012 -397.8959 667.65723
-69.545525 -2412.0247 -218.20245
-470.59592 2127.0645 -233.32599
461.03506 137.69724 -1.1795093
-519.39764 127.48042 -438.54694
644.75867 150.45581 -565.37256
-74.904373 -1340.7229 -565.20178
866.15564 -256.97879 157.56857
-164.57896 802.07043 -145.32925
-518.16913 114.94348 -54.100761
-787.57336 -786.92285 351.80743
-618.52698 -818.3421 422.88617
495.87305 -1598.6321 -53.588673
548.94995 2015.0884 -232.7851
-451.87152 -2217.3025 72.07341
658.16406 26.413399 -137.42311
355.54056 -2327.7954 -55.753304
-799.67706 -1078.8298 -572.6593
551.93762 1694.2198 -249.25026
-651.05182 -1654.0676 -637.36871
