# .PCD v0.7 - Point Cloud Data file format
VERSION 0.7
FIELDS x y z normal_x normal_y normal_z curvature
SIZE 4 4 4 4 4 4 4
TYPE F F F F F F F
COUNT 1 1 1 1 1 1 1
WIDTH 575
HEIGHT 1
VIEWPOINT 0 0 0 1 0 0 0
POINTS 575
DATA ascii
0.18392222 -0.37611794 -0.054237522 -0.97449088 0.17244114 0.14363685 0.0010968752
-0.18569438 -0.36225674 -0.051574096 0.98873675 -0.019957308 0.14832877 0.022911718
0.18513587 -0.36433619 -0.054878391 -0.98605096 0.058612075 0.15578191 0.0062211361
-0.18521436 -0.35394472 -0.058099318 0.97235531 -0.17863059 0.15038733 0.075761087
0.185536 -0.35414913 -0.055681646 -0.97400486 -0.14750591 0.17192052 0.081646286
-0.18601 -0.34549567 -0.053389575 0.98274601 -0.075523078 0.16883868 0.10902993
-0.14769371 -0.34065044 -0.057856575 -0.04210411 0.9706316 -0.23685756 0.15691648
-0.13520926 -0.34079513 -0.058419466 0.063662827 0.99729556 -0.036722723 0.15133181
-0.12968592 -0.34107113 -0.059493221 0.057884064 0.99060011 -0.12393887 0.12452096
-0.11702643 -0.3405267 -0.057375193 -0.25353619 0.94829667 -0.19092642 0.10582879
0.1172872 -0.34021875 -0.056764249 0.29012647 0.92989862 -0.22608641 0.07205496
0.12917727 -0.34104389 -0.059387255 -0.0027096577 0.95880646 -0.28404722 0.11319054
0.13063113 -0.34057704 -0.057571128 -0.016967544 0.94994521 -0.31195545 0.12985621
0.1444283 -0.34063262 -0.057787266 0.0013079704 0.95122808 -0.30848581 0.16053982
0.15578116 -0.34023255 -0.056230821 0.12958735 0.94208515 -0.30932611 0.14402831
0.16472533 -0.34112972 -0.059721053 0.21512716 0.92495614 -0.31333137 0.16414601
0.18623109 -0.34634554 -0.053473253 -0.96233934 -0.25033414 0.10599946 0.11817076
-0.18593185 -0.33417389 -0.056483399 0.98024356 -0.091165163 0.1755317 0.12488151
-0.17615779 -0.33702794 -0.052545566 -0.81776339 0.56757414 -0.095512539 0.24685773
-0.16564471 -0.33443546 -0.0599185 -0.074853458 0.94720721 -0.31176174 0.22276692
-0.15425324 -0.3358126 -0.052278377 -0.0038894811 0.97240949 -0.23324805 0.18979338
-0.14466979 -0.33522856 -0.05358237 0.16922502 0.96775705 -0.1865723 0.18259591
-0.12222795 -0.33928615 -0.052549116 -0.12246472 0.97742653 -0.17216204 0.11965451
-0.11296937 -0.33516142 -0.056534201 -0.4481042 0.85575283 -0.25863034 0.10250346
0.11213466 -0.33384302 -0.056839079 0.46526372 0.85157049 -0.24157293 0.10194745
0.12506954 -0.33985645 -0.054767616 0.11334403 0.94256419 -0.31420657 0.11151859
0.13799137 -0.33143333 -0.052474998 -0.16548477 0.96220887 -0.21626113 0.19334492
0.144116 -0.33498779 -0.053059503 -0.1142378 0.95230287 -0.28296462 0.22724028
0.15538658 -0.33501983 -0.052950088 0.097338028 0.93987519 -0.32735306 0.17615597
0.16457239 -0.3362453 -0.05387089 0.064618848 0.92645091 -0.37082756 0.17357945
0.17515622 -0.33513013 -0.053695839 -0.9026317 -0.41011608 0.1306174 0.23507291
0.18485691 -0.33623022 -0.056875199 -0.99183351 -0.11823101 0.047830004 0.16698137
-0.18906859 -0.32763308 -0.057454973 0.99539983 -0.095566608 0.0067999256 0.1385681
-0.13414373 -0.32422593 -0.056715529 0.32189342 0.91369867 -0.24807101 0.1944322
-0.10554399 -0.32218114 -0.054376815 -0.77100122 0.59741032 -0.22058551 0.043595593
0.10779037 -0.32490423 -0.050345935 0.62187833 0.73102891 -0.28082749 0.11541
0.13414371 -0.32594594 -0.052852347 -0.16468371 0.95235789 -0.25669795 0.19142434
-0.18794575 -0.31758875 -0.05457186 0.98950917 -0.10457736 0.099675156 0.14535901
-0.17393567 -0.31421041 -0.056684483 0.96763664 -0.24107824 -0.074569382 0.20632558
-0.16358082 -0.31283835 -0.052686825 0.88938069 0.068815053 -0.45195842 0.26376933
-0.15840404 -0.31400707 -0.055654865 0.63498986 0.66955483 -0.38533637 0.23017558
-0.14388071 -0.31244248 -0.051693201 0.82256848 0.52074349 -0.22848926 0.1840449
-0.10163321 -0.31461859 -0.052135035 -0.87023252 0.42170975 -0.25466892 0.0029290142
-0.09986189 -0.31181771 -0.053324603 -0.871984 0.41602856 -0.25800037 0.003015893
0.10271518 -0.31840712 -0.058109932 0.85829294 0.48239937 -0.17499727 0.0010891361
0.13414371 -0.31488428 -0.051824085 -0.47484604 0.76582223 -0.43363291 0.16944003
0.14351432 -0.3137958 -0.055122722 -0.84474766 0.44078326 -0.30349854 0.17884237
0.15016374 -0.31568214 -0.059902526 -0.78838432 0.53120226 -0.31028083 0.23336402
0.16353396 -0.31380621 -0.055144373 -0.89736819 0.42746308 0.10957071 0.29648784
0.17562287 -0.31206906 -0.054084118 -0.93951458 -0.3411707 0.030248327 0.20271166
0.18150763 -0.31407332 -0.059685167 -0.96581417 -0.25915754 -0.0063535916 0.19581017
-0.18061121 -0.3034482 -0.059283178 0.96237725 -0.26905936 0.037908811 0.16695195
-0.17810708 -0.30772924 -0.056284878 0.93262011 -0.3572613 -0.050832525 0.17776141
-0.1639742 -0.30433983 -0.05376837 0.86755526 0.21136197 -0.45019338 0.22975905
0.16398075 -0.30348694 -0.052800253 -0.88994545 0.35631114 -0.28467435 0.26751679
0.1783081 -0.30352002 -0.056275677 -0.99550503 -0.093439236 0.015457763 0.20550729
-0.18070436 -0.29079971 -0.059414346 0.98588198 -0.021518964 -0.16605321 0.13256258
-0.17953341 -0.29623562 -0.057170667 0.96866304 -0.1815837 -0.16946718 0.14775999
-0.16298234 -0.29673642 -0.054012913 0.81913722 0.46755552 -0.33227411 0.16135211
-0.09072765 -0.29530516 -0.057406381 0.88930827 -0.32827938 0.31837645 0.0035104004
0.092557766 -0.29675338 -0.053773455 0.89066839 0.35062215 -0.28943735 0.0032379667
0.16426601 -0.29514572 -0.056251891 -0.9281826 0.19443254 -0.31729016 0.18644963
0.17966969 -0.29859242 -0.058082897 -0.98725688 -0.073535994 -0.14112557 0.16536741
-0.16597758 -0.28383052 -0.050377768 0.96878719 0.12266351 -0.21541813 0.12846872
-0.091179259 -0.2877239 -0.051146429 0.89450985 -0.26216397 0.36210796 0.0041687074
-0.088321179 -0.28589126 -0.056252778 0.89643043 -0.26591137 0.35454705 0.003696
0.088213384 -0.28536308 -0.056271665 -0.90692025 -0.24519186 0.3426027 0.0047682691
0.16312496 -0.28587577 -0.05476341 -0.95255131 0.080150016 -0.29363567 0.14044921
-0.18048821 -0.27692842 -0.054161143 0.98024982 -0.011804745 -0.19741057 0.13187855
-0.17890559 -0.27547115 -0.058278523 0.97754228 0.0076486408 -0.21060038 0.131409
-0.16438012 -0.27383661 -0.055645801 0.9778415 0.012877967 -0.20895024 0.13314511
-0.084831983 -0.27198485 -0.057032932 0.92888892 -0.089533627 0.35937336 0.0040821005
0.08745905 -0.27303436 -0.051933918 -0.91521716 -0.076874018 0.39556023 0.0050724046
0.16358139 -0.27486014 -0.054143447 -0.98608011 0.10116556 -0.13195245 0.15100881
0.17886251 -0.27753326 -0.058720022 -0.95968258 0.11848187 -0.25489485 0.13027038
0.18019654 -0.27853873 -0.054438282 -0.99137717 -0.0056407377 -0.13091807 0.1359652
-0.18168658 -0.2636843 -0.055511285 0.96697146 0.056184512 -0.24861532 0.1427521
-0.16464637 -0.2641966 -0.055238299 0.9921208 0.0047297943 -0.12519607 0.14615667
-0.085839354 -0.26719257 -0.053804543 0.91721201 -0.04338615 0.39602998 0.0041835033
0.08554484 -0.2624965 -0.054142199 -0.92107481 0.036808308 0.38764206 0.0049012681
0.16298233 -0.2635372 -0.055630673 -0.9984507 -0.04056222 -0.038090132 0.15747684
0.18360972 -0.26504701 -0.052338257 -0.99323124 -0.024518812 -0.11353619 0.1555462
-0.17961416 -0.25677037 -0.057453528 0.97328126 -0.04340905 -0.22547573 0.14053304
-0.16398075 -0.25222766 -0.054072481 0.97891003 -0.050411832 -0.19797431 0.12846161
0.087121792 -0.25356105 -0.054701701 -0.90816498 0.14738223 0.39180976 0.0042811562
0.16398075 -0.25466961 -0.054413542 -0.99056637 -0.048593286 -0.12812842 0.14683086
0.17996129 -0.25793809 -0.055986241 -0.97789806 -0.051430814 -0.20265821 0.15339704
0.18016998 -0.25366154 -0.05344687 -0.99682933 0.027454559 -0.074682854 0.14120887
-0.18029693 -0.24129741 -0.053071622 0.97784215 0.1324957 -0.16207942 0.14300755
-0.17972977 -0.24470776 -0.051894702 0.99738473 0.052325234 -0.049858011 0.14452793
-0.16557822 -0.24388018 -0.056405567 0.98705769 -0.093383461 -0.13037132 0.13482253
-0.092306167 -0.24076235 -0.050178695 0.89296257 0.26680243 0.36253881 0.0031228145
-0.086769372 -0.24693054 -0.05874135 0.9082948 0.23114082 0.34867531 0.004866397
0.08687792 -0.24461532 -0.059568454 -0.90875518 0.24049471 0.34106645 0.0060487357
0.090509281 -0.24385868 -0.052461158 -0.8939746 0.25340977 0.36958486 0.0052774162
0.16379923 -0.24524941 -0.056156173 -0.97795218 0.012984016 -0.2084247 0.14361581
0.17889191 -0.24391921 -0.051603951 -0.99964428 0.019826846 0.017838649 0.14039718
0.18025087 -0.24550767 -0.054053325 -0.99871236 -0.022495324 0.045470424 0.14327614
-0.18351707 -0.23435506 -0.057124972 0.99472326 0.080954626 -0.063023426 0.15257929
-0.16198394 -0.23485216 -0.055399757 0.87078387 -0.43265373 -0.2335515 0.18387878
0.092085242 -0.23457091 -0.054391909 -0.88923889 0.2966685 0.34819826 0.0031058637
0.16398074 -0.23560201 -0.052674014 -0.92379045 -0.21716575 -0.3153573 0.21534766
0.18213892 -0.23560286 -0.054038763 -0.98957551 0.091015399 0.11160907 0.16405568
-0.18221277 -0.22291788 -0.055509876 0.83881122 0.51276422 0.18294409 0.16457917
-0.16403458 -0.22671525 -0.054593176 -0.68828309 0.67318839 0.27034038 0.25122362
-0.097061954 -0.22341706 -0.053368494 0.88008285 0.38393307 0.27937341 0.002727401
0.095787115 -0.22592086 -0.053970266 -0.87732041 0.3877638 0.28275076 0.0025603392
0.1649487 -0.22630993 -0.056286447 -0.88064283 -0.46713558 -0.079072453 0.24759206
0.18224987 -0.22505409 -0.053429343 -0.96652573 0.19523923 0.16646208 0.17514265
-0.18718068 -0.21379431 -0.054970503 0.98249435 0.17961188 0.04944098 0.12337691
-0.16713414 -0.21666737 -0.056120701 0.95297366 -0.22330455 0.20488112 0.25831828
-0.15499885 -0.21619093 -0.057967812 -0.75764251 0.64561117 0.095728718 0.21443895
-0.13655666 -0.21630022 -0.057103697 0.86044735 -0.4509477 -0.23722659 0.17803539
-0.10319507 -0.21193087 -0.052774638 0.86040682 0.44657794 0.245496 0.002956233
0.10198635 -0.21300669 -0.055266205 -0.86623996 0.44296968 0.23109762 0.0014172925
0.13468057 -0.21565883 -0.051774263 0.69141465 0.61614478 0.37724179 0.21101837
0.14612117 -0.21694893 -0.055243872 -0.84917116 -0.48887911 -0.19976386 0.20174372
0.15660655 -0.2177802 -0.053947918 0.72849888 0.67523491 0.11553084 0.22854018
0.16367051 -0.21651609 -0.056707244 -0.74415767 -0.51797712 0.42181632 0.27290308
0.17659986 -0.21669653 -0.056548603 -0.99938434 0.034839954 -0.0041300342 0.19210412
0.18590741 -0.21526428 -0.053315151 -0.98015726 0.18387924 -0.074028037 0.14938694
-0.13414373 -0.20786262 -0.052348249 -0.41227716 0.85032547 0.32706898 0.20324476
-0.10607429 -0.20303753 -0.059827749 0.77105242 0.59225106 0.23391627 0.055232514
0.10482486 -0.20633173 -0.057926193 -0.82264352 0.52586263 0.21616212 0.0085119922
0.18925019 -0.20318131 -0.05639017 -0.98376775 0.11517847 0.13760467 0.17602313
-0.18804923 -0.19981068 -0.059429299 0.96750706 0.22857998 0.10808008 0.1549226
-0.17988376 -0.19744304 -0.057243675 0.77629566 0.61649835 0.13151029 0.24862102
-0.16510461 -0.1979522 -0.055260669 -0.130805 0.92471504 0.35748029 0.26769772
-0.15516761 -0.19816485 -0.05443247 0.27037811 0.94564736 0.18068406 0.24420463
-0.14794105 -0.19804354 -0.054904904 -0.27794066 0.94658363 0.16348834 0.24673258
-0.13755557 -0.1992178 -0.056244697 -0.33551955 0.90505099 0.2613605 0.19672383
-0.11245737 -0.19354694 -0.054701097 0.5227735 0.75030416 0.40466219 0.1070155
0.10955655 -0.19761577 -0.057413872 -0.64787149 0.72770023 0.22519937 0.066027835
0.11008602 -0.19808958 -0.054459017 -0.58323276 0.7623204 0.28054792 0.081749603
0.13933656 -0.19926777 -0.050136901 0.16038644 0.94666559 0.27946436 0.21739505
0.1429216 -0.19799514 -0.055093437 0.31332392 0.87145185 0.37735891 0.26941872
0.15541258 -0.19866142 -0.052498486 -0.10320763 0.98910487 0.10497545 0.26370621
0.16530737 -0.19779025 -0.055891473 0.067626901 0.9300127 0.36125225 0.24829938
0.17518592 -0.19778132 -0.055926282 -0.72718412 0.5974493 0.33802018 0.27350909
0.18509308 -0.19851723 -0.055915389 -0.97655612 0.21068312 0.044168171 0.21274289
-0.18563665 -0.18686786 -0.054349516 0.83534652 0.47658056 0.27398366 0.19967759
-0.17541316 -0.18594238 -0.057177793 0.43377897 0.88707179 0.15792207 0.1755178
-0.16137969 -0.18634899 -0.05575091 0.025034294 0.94923967 0.3135559 0.096455619
-0.14610799 -0.18716323 -0.053926632 -0.0050740712 0.93808144 0.34637752 0.11579236
-0.13759276 -0.18675789 -0.054648399 -0.046118021 0.94152945 0.33375964 0.14294115
-0.12523177 -0.18679607 -0.054383188 0.027272092 0.91003698 0.413629 0.10627569
-0.11489117 -0.18779002 -0.057927459 0.46030384 0.81171596 0.35949618 0.093821496
0.11760508 -0.18690176 -0.054270763 -0.255164 0.90958178 0.32795158 0.090752132
0.12453699 -0.18595234 -0.057142615 -0.14160547 0.96894836 0.20269945 0.10914673
0.13515587 -0.18681617 -0.054559339 0.058968257 0.95206112 0.30017072 0.13027439
0.14472456 -0.18756548 -0.052936547 -0.071376115 0.92258203 0.379141 0.1690561
0.1662648 -0.18551958 -0.058661386 -0.16804136 0.96977323 0.17692354 0.12473271
0.17499612 -0.18642873 -0.056082558 -0.36643159 0.91104925 0.1889901 0.1632081
0.1863818 -0.18700325 -0.054913681 -0.92415237 0.29629821 0.24114275 0.17701147
0.19174714 -0.18311775 -0.052864116 -0.87952632 0.41406605 0.23448391 0.12491869
-0.19167614 -0.17500739 -0.055202931 0.97728527 0.1445747 0.15495694 0.069342881
0.19180879 -0.17371039 -0.050610803 -0.9672693 0.20357163 0.15148832 0.097827017
-0.19143255 -0.16127224 -0.056139365 0.9947229 -0.094401978 0.040182777 0.12785786
0.19156255 -0.16462587 -0.055269573 -0.99384624 -0.031977199 0.10605299 0.092472278
-0.19136907 -0.1540942 -0.05656296 0.98133242 -0.19030537 0.027758617 0.16695608
-0.1830883 -0.15119477 -0.055179328 -0.26214021 0.92110813 0.28782329 0.22581767
-0.17445527 -0.15137415 -0.054898348 -0.16625275 0.96280944 0.2129744 0.1517612
-0.16232842 -0.15157388 -0.055957042 -0.040082972 0.98506862 0.16743083 0.0068555288
-0.15487814 -0.15201157 -0.054115973 -0.10832649 0.98548394 0.13071677 0.031206539
-0.14489818 -0.15236709 -0.053637307 -0.08119797 0.99321645 0.083234638 0.048092552
-0.13811032 -0.15249394 -0.054272175 -0.070198178 0.98570389 0.15316644 0.098272972
-0.12564689 -0.15247628 -0.055295292 0.11038993 0.98740596 0.11332919 0.064723998
-0.11364949 -0.15259013 -0.054353196 0.14332436 0.97767454 0.15365787 0.031065326
-0.10638007 -0.15222651 -0.057362132 -0.038712598 0.98072487 0.19152023 0.0024484526
-0.092223577 -0.15170453 -0.059295058 -0.066410005 0.948466 0.30984181 0.0091486806
-0.081053674 -0.15210201 -0.054294974 -0.079439461 0.957385 0.27767494 0.0057941359
-0.074407361 -0.15101403 -0.054019004 -0.11450837 0.93306571 0.34099305 0.0045601227
0.06638243 -0.15127435 -0.050478503 0.092781909 0.94564968 0.31166992 0.0050085131
0.071106218 -0.15069011 -0.053441111 0.091357306 0.94771928 0.30574858 0.004592923
0.086484812 -0.1520275 -0.055314451 0.075027995 0.9564485 0.28209379 0.0054412293
0.091937877 -0.15264572 -0.05389313 0.068470784 0.97039622 0.23160909 0.0048817163
0.10455061 -0.15205094 -0.05881457 0.03881523 0.9674927 0.24990241 0.0046164468
0.12883589 -0.15258643 -0.054383673 -0.059062753 0.98750502 0.14610095 0.092766002
0.13505928 -0.1522515 -0.056819212 0.071039535 0.97640777 0.20391501 0.094205528
0.14565395 -0.15212946 -0.055433478 0.19219993 0.96726036 0.16573034 0.069416404
0.15239018 -0.15236534 -0.051781967 0.10981815 0.98814011 0.10732727 0.038655266
0.16958645 -0.15146968 -0.055179052 0.043496765 0.99144661 0.12305194 0.050667692
0.17734076 -0.15172786 -0.051387303 0.029085996 0.98953211 0.1413514 0.12068439
0.18182918 -0.15145999 -0.052594386 0.14423685 0.97772926 0.15245043 0.23045014
0.19111562 -0.15604416 -0.05607456 -0.96951514 -0.24002928 -0.049257118 0.14005426
-0.19115624 -0.14164644 -0.058515407 0.95922613 0.19886252 0.20084567 0.10603789
-0.074962437 -0.14905253 -0.058224581 -0.12925957 0.91454268 0.38328022 0.0053098248
-0.065520585 -0.14895982 -0.05487169 -0.13445012 0.91851777 0.37181756 0.003849844
-0.054143876 -0.1472719 -0.054043848 -0.15121119 0.89893353 0.41116136 0.0014881592
-0.043698229 -0.14639589 -0.051910706 -0.32788822 0.85632312 0.39899883 0.029772131
-0.039510697 -0.14282656 -0.057613797 -0.40193769 0.79363656 0.45671341 0.032749873
-0.026621804 -0.14070553 -0.055415243 -0.70161623 0.63864315 0.31602153 0.05824253
0.02803782 -0.14163709 -0.05573415 0.68038309 0.6510036 0.33656073 0.066134803
0.034455776 -0.14440252 -0.052506022 0.54149079 0.75887793 0.36178991 0.058031548
0.045596473 -0.14668617 -0.052031368 0.24463625 0.87652546 0.41455552 0.018742196
0.059019569 -0.14679429 -0.056846388 0.13824148 0.9026947 0.40746972 0.0021325562
0.064461753 -0.14775559 -0.056928866 0.14113508 0.90519464 0.40087852 0.00226416
0.13454808 -0.1432503 -0.054314706 0.25173652 0.89710295 0.36309096 0.19177195
-0.19121122 -0.13567477 -0.057770107 0.96837217 0.1872137 0.16494332 0.073360361
-0.13457453 -0.13820061 -0.055245414 0.98736119 -0.044314902 -0.15216458 0.18589711
-0.025436927 -0.13330823 -0.055770036 -0.86467707 0.44770947 0.22779335 0.06303329
0.025427138 -0.13470809 -0.055370908 0.89509505 0.37312484 0.24409558 0.064897701
0.134515 -0.13613577 -0.053770777 -0.96687663 -0.19822723 -0.16079623 0.13221283
0.19152623 -0.13645266 -0.054484461 -0.97407186 0.19344905 0.11730968 0.061770536
-0.19139507 -0.12493563 -0.056080677 0.99123126 0.052434634 0.12128964 0.013025174
-0.13460165 -0.12337077 -0.056645077 0.99188173 -0.048472743 -0.11756295 0.014550732
-0.025254602 -0.12668544 -0.053759534 -0.95013714 0.28771275 0.12025318 0.055282392
0.025291344 -0.1261659 -0.054574057 0.94640768 0.2845321 0.15281992 0.061720293
0.1346923 -0.12647736 -0.058893405 -0.99230015 -0.028435277 -0.12054858 0.033073332
0.19140157 -0.12320333 -0.055885345 -0.98816508 0.024678027 0.15139632 0.014608432
-0.1919231 -0.11583388 -0.050673313 0.99560636 0.0042877221 0.093538895 3.3422813e-05
-0.13410231 -0.11236896 -0.051436003 0.99841279 -0.015699876 -0.054087553 2.5322302e-05
-0.024998298 -0.1155427 -0.053144235 0.9984349 -0.049214907 -0.026564155 0.016594494
0.025224684 -0.11607558 -0.056443568 -0.9951058 -0.062809795 -0.07628452 0.016026039
0.13439307 -0.11490566 -0.055412106 -0.9923113 -0.031890318 -0.11958796 0.0073382175
0.19168633 -0.11352313 -0.053533122 -0.99553955 0.0044325422 0.094240956 0.00018066824
-0.19131663 -0.10654524 -0.057104692 0.98199946 -0.02452568 0.18728468 0.014411271
-0.13417378 -0.10450663 -0.05547123 0.99284214 6.4279266e-05 -0.11943403 0.0154872
-0.024870507 -0.10196544 -0.055281959 0.99893212 -0.0012627783 0.046185199 0.0063654045
0.025066359 -0.10520582 -0.057298928 -0.99969733 -0.015706262 -0.018936802 0.011124516
0.13405317 -0.10532009 -0.053149819 -0.99551743 -0.015136833 -0.09335915 0.0041153659
0.19137049 -0.10462536 -0.056551501 -0.98761982 -0.011423543 0.15644984 0.010547431
-0.19116566 -0.095868491 -0.058686368 0.98081279 -0.010171697 0.19468626 0.015500396
-0.1337053 -0.09315525 -0.051682472 0.9978826 -0.0098107941 -0.064296558 8.1942402e-05
-0.024673665 -0.099096119 -0.053138316 0.99834198 0.00057799398 0.057558678 0.0060044075
0.024761712 -0.094371669 -0.055907458 -0.99883652 -0.020921912 0.043449573 0.0059016617
0.13380484 -0.091693506 -0.053055637 -0.99811596 -0.0080092186 -0.060831122 2.9620554e-05
0.19148187 -0.098132282 -0.05569024 -0.9884041 -0.018975189 0.15065642 0.0070390832
-0.19152293 -0.085036024 -0.055323385 0.98874015 0.0065225069 0.14950036 0.0024408866
-0.13406225 -0.081192926 -0.05676892 0.98983818 0.0058547477 -0.14207748 0.01821111
-0.024524795 -0.08067888 -0.054818969 0.9986313 -0.032984585 0.04058928 0.0069065331
0.024602788 -0.086493276 -0.055852462 -0.99951088 -0.01604631 0.026841661 0.0050861905
0.13372178 -0.085059308 -0.051473156 -0.99814856 -0.0046270592 -0.060647849 6.4655983e-06
0.19160461 -0.088395037 -0.054640748 -0.98825395 -0.0061762244 0.15269575 0.0072029228
-0.19187972 -0.077921301 -0.052114859 0.99421704 0.0011696403 0.10738266 1.8751649e-05
-0.13392389 -0.073773265 -0.054408744 0.99402595 0.00032666017 -0.10914317 0.0080645354
-0.024848605 -0.073816411 -0.059045166 0.99758488 -0.037912473 -0.058198452 0.0031653857
0.024675407 -0.077754349 -0.056794174 -0.99928147 -0.03766422 -0.0042384863 0.0064501166
0.1915853 -0.075371154 -0.054617476 -0.99127263 -0.00047790981 0.13182697 0.00064150401
-0.19172436 -0.063761674 -0.053497247 0.99077803 0.00081748515 0.1354928 0.00080174528
-0.13404217 -0.061665785 -0.056659307 0.99078596 -0.01412711 -0.13469785 0.011842397
0.023625571 -0.064802706 -0.05518331 -0.99883211 -0.047503274 0.0088229617 0.006374137
0.13383329 -0.065030277 -0.053283881 -0.9934727 -0.0011813826 -0.11406421 0.0078452881
0.1911646 -0.065552972 -0.058253914 -0.97226876 0.0087153483 0.23370381 0.022394011
-0.1915884 -0.052271571 -0.054700073 0.98852313 -0.0032853403 0.1510337 0.0014262504
-0.022823583 -0.054176982 -0.056540988 0.9687131 -0.11209476 -0.22142658 0.019000845
0.022791652 -0.054911297 -0.055930376 -0.99188364 -0.12062165 -0.040215362 0.014573901
0.13395785 -0.052854199 -0.055707399 -0.98992914 0.007007522 -0.14139043 0.013848948
0.19186844 -0.0505265 -0.052416779 -0.99215871 0.0033569373 0.12493957 0.00011959906
-0.19151807 -0.04606539 -0.055324417 0.98207986 0.0094529521 0.18822813 0.010823358
-0.13414153 -0.043381169 -0.058360949 0.98091096 0.0031911321 -0.19443148 0.030896511
0.021499559 -0.044680964 -0.054025568 -0.96675229 -0.18882401 -0.17243969 0.034492318
0.13420616 -0.041706689 -0.059303604 -0.98991454 -0.016505312 -0.14070098 0.041694645
0.19142205 -0.049078338 -0.056089494 -0.9834007 -0.0075954418 0.18128806 0.0096957814
-0.19179259 -0.035944138 -0.053149644 0.98999625 0.0041108355 0.14103384 0.00084694102
-0.13371317 -0.033224218 -0.052959658 0.99078983 -0.069939308 -0.11594802 0.037881218
-0.02181074 -0.032755598 -0.055521395 -0.88632625 -0.096823633 0.45282561 0.11353415
0.021771204 -0.035473261 -0.056093462 -0.93645042 0.13778812 -0.3226065 0.090630434
0.19147262 -0.036443532 -0.055764452 -0.98425186 -0.011147813 0.1764203 0.0077643539
-0.19198506 -0.027922956 -0.051612474 0.99150407 0.0017590673 0.13006382 0.00016099621
-0.13393418 -0.024843849 -0.057766486 0.89435488 -0.41506004 -0.1668966 0.1066513
-0.084140778 -0.021924071 -0.058030251 -0.067969866 -0.83320761 0.54876691 0.087574735
-0.074704021 -0.02086867 -0.054971151 -0.03404101 -0.64717889 0.76157773 0.091477819
-0.063843355 -0.021134323 -0.055741154 0.05160499 -0.77969599 0.62402815 0.065996617
-0.04706011 -0.02079967 -0.056992326 0.049526095 -0.68948507 0.72260463 0.09241271
0.049253348 -0.021646574 -0.057912007 -0.1321142 -0.87169623 0.47190195 0.072648302
0.053217981 -0.022000821 -0.058252722 -0.069605559 -0.92879075 0.36400938 0.053059325
0.066759832 -0.021331342 -0.056312207 0.012678419 -0.75828797 0.65179652 0.076681703
0.078228094 -0.021405071 -0.056525923 0.080271043 -0.76292527 0.64148384 0.07611309
0.08350458 -0.021389872 -0.056481872 0.039957713 -0.79765588 0.60178781 0.061386801
0.097457021 -0.020264391 -0.055665426 -0.19914868 0.75965846 -0.61907905 0.07180842
0.13374606 -0.025631985 -0.0550371 -0.96182144 -0.26481012 -0.06910222 0.11924233
0.19144966 -0.026265798 -0.055987272 -0.97447538 0.0070616743 0.22438334 0.014743335
-0.19151515 -0.013543818 -0.055438966 0.97730052 -0.005613253 0.21178322 0.0099978428
-0.13350834 -0.019809609 -0.053027466 0.92046046 -0.31724843 -0.22826709 0.12798698
-0.11274352 -0.014928646 -0.05668493 0.40335554 -0.68209636 0.60995805 0.23312856
-0.10346162 -0.018687293 -0.055320278 0.29135218 0.70359933 -0.64812177 0.078284733
-0.09450195 -0.01800504 -0.052313104 -0.15175822 -0.66991842 0.72675902 0.084210247
-0.082831323 -0.013685318 -0.051227283 -0.050203968 -0.43877226 0.89719474 0.078271016
-0.079199985 -0.017665699 -0.052027017 -0.066887215 -0.57699758 0.81400234 0.074431963
-0.064200722 -0.01273696 -0.051048741 0.011451488 -0.33829632 0.94096994 0.071204931
-0.053691529 -0.014237489 -0.051420249 0.084821865 -0.48954639 0.8678419 0.081856668
-0.041341621 -0.014032271 -0.050616123 0.080219932 -0.44743752 0.89071006 0.13235651
-0.034717061 -0.014305087 -0.050593574 -0.12321442 -0.60690612 0.78516442 0.15821889
-0.022585288 -0.013861391 -0.058109045 -0.7881797 -0.076923467 0.61061895 0.15374027
0.022254417 -0.013150316 -0.057674248 0.77674764 -0.061824918 0.62677014 0.17006437
0.035356518 -0.018057039 -0.057525191 -0.051399473 -0.7201944 0.69186568 0.21220055
0.044007055 -0.017318977 -0.05269105 -0.070279829 -0.52757567 0.84659594 0.11330027
0.057070278 -0.015487256 -0.051589325 -0.058031153 -0.54935509 0.83357149 0.06174092
0.061646678 -0.012038551 -0.051015988 -0.026158821 -0.55082768 0.83420897 0.063210115
0.078299783 -0.012809826 -0.051054984 -0.034167729 -0.4406938 0.89700693 0.082971603
0.08364822 -0.010761299 -0.050879501 0.046482727 -0.408196 0.91171014 0.087894
0.093645789 -0.012293085 -0.051129956 0.088961519 -0.44300312 0.89209539 0.071282797
0.10399976 -0.017730456 -0.05290325 0.15812035 -0.6571365 0.73700041 0.068451576
0.11313752 -0.017193779 -0.05773535 -0.048406146 -0.95851392 0.28090566 0.18150954
0.13375671 -0.016625017 -0.056268919 -0.96498293 -0.18061924 -0.19022238 0.18424651
0.19144452 -0.014913185 -0.056018114 -0.98028201 0.00088869728 0.19760166 0.011042484
-0.19154787 -0.0036204383 -0.055181097 0.98006064 -0.012563706 0.19830102 0.0096170725
-0.11733767 -0.0052971654 -0.055255499 0.16373231 0.13269068 0.97754019 0.28318173
-0.096847475 -0.00099706929 -0.05027473 -0.061091434 -0.085697837 0.99444646 0.049134512
-0.084224664 -0.0065625939 -0.050519828 -0.02975752 -0.25360954 0.96684891 0.073630325
-0.078195073 -0.0042780708 -0.050324131 0.0071927686 -0.15881093 0.98728281 0.041148879
-0.062662214 -0.0042208214 -0.050401241 0.0034226677 -0.13885051 0.99030751 0.052689645
-0.05386544 -0.0060428847 -0.050475307 0.021104872 -0.28357616 0.95871747 0.072048798
-0.044514768 -0.003818586 -0.050682507 0.02657054 -0.1782753 0.9836219 0.064956322
-0.023504663 -0.003010771 -0.055880122 -0.73299283 0.035158098 0.67932719 0.16678467
0.019707788 -0.0054498166 -0.050140761 0.47879508 -0.036374204 0.87717283 0.11733004
0.02333702 -0.0057297139 -0.054415021 0.49999377 -0.074801862 0.86279255 0.18009233
0.041600619 -0.0042764889 -0.050582536 -0.23220971 -0.2718153 0.93391389 0.096689388
0.050874256 -0.0040272344 -0.05030264 -0.04705739 -0.18292488 0.98200011 0.044070546
0.067227058 -0.0048991181 -0.050460696 0.019439988 -0.12917128 0.99143177 0.033798635
0.077255696 -0.0067127189 -0.050532687 0.027459361 -0.30296847 0.95260489 0.072123095
0.086172767 -0.0045379642 -0.050346393 -0.0081424201 -0.2333578 0.97235686 0.06299796
0.095526181 -0.0037176106 -0.050414734 0.094923459 -0.23873815 0.96643341 0.056825988
0.1183474 -0.0048548877 -0.057792701 -0.67595387 0.73693407 0.0038163753 0.29257143
0.13377905 -0.0062209396 -0.056207955 -0.95411724 -0.070186019 -0.29109147 0.19538854
0.19148371 -0.0092345132 -0.055692248 -0.98816365 -0.00057862164 0.15340233 0.00059107807
-0.1916039 0.003254842 -0.054738652 0.98611623 0.016033042 0.16528049 0.0013868819
-0.13346249 0.0067905802 -0.051967807 0.99398756 0.015930355 -0.10832883 0.15306011
-0.11753158 0.0062092664 -0.050667044 0.19162126 -0.13836439 0.97166687 0.26869747
-0.096343696 0.0071313074 -0.052403096 -0.09232638 0.12374207 0.98800999 0.029612204
-0.087566167 0.0055638179 -0.051991627 0.0286824 0.071851268 0.99700284 0.012210845
-0.078344904 0.0056706071 -0.052019656 -0.025532514 0.095401555 0.99511135 0.010546711
-0.069534026 0.0084236637 -0.052742325 -0.0035167495 0.14039966 0.9900887 0.00491784
-0.054550473 0.0044633811 -0.051702753 -0.056753177 -0.00051208673 0.99838811 0.023870118
-0.041739494 0.0093795415 -0.052740254 0.11619902 0.19755988 0.97337955 0.071262285
-0.023023637 0.005484933 -0.054277126 -0.59330833 0.11778893 0.7963109 0.16242036
-0.01971109 0.00011091097 -0.050214738 -0.52060217 0.089054883 0.84914231 0.11797514
0.024021609 0.0052689589 -0.054557666 0.62744844 0.043285344 0.77745402 0.17856783
0.038702734 0.008539916 -0.051358502 -0.063051797 0.060164288 0.99619514 0.12773356
0.044475097 0.0065132882 -0.052219328 -0.067698412 0.018754303 0.99752951 0.049066659
0.064418212 0.0079984171 -0.052630696 0.017826967 0.15737008 0.98737884 0.0060428251
0.07201831 0.0072393473 -0.052431446 -0.011987016 0.13141011 0.99125564 0.0091519393
0.089875773 0.0036621389 -0.051492445 -0.032591101 0.043797776 0.99850869 0.024682462
0.095690891 0.003348191 -0.051410031 0.13873608 -0.031385899 0.98983192 0.047977645
0.10263678 0.0049650217 -0.051644284 0.2971051 0.026482826 0.95447743 0.067775123
0.11894271 0.0062657977 -0.053404234 -0.070950024 0.18032123 0.98104554 0.20663445
0.13347927 0.0094916578 -0.052330289 -0.99777418 -0.014717173 0.065039441 0.15344855
0.19137785 0.0093517862 -0.056576967 -0.96436393 0.0316098 0.26268423 0.01935726
-0.13351718 0.012440006 -0.053060848 0.95364201 0.22841743 -0.19593979 0.1453321
-0.12078107 0.015574403 -0.058284704 0.85603374 -0.045334049 -0.51492828 0.26032162
-0.11417133 0.015347878 -0.051282708 0.15018325 0.20963198 0.9661777 0.2047192
-0.1017777 0.016730176 -0.054922767 -0.2164878 0.21977527 0.95122647 0.063149586
-0.098131381 0.019842509 -0.055739742 -0.041328605 0.22961581 0.97240347 0.022721497
-0.082872801 0.012848128 -0.053903744 -0.0057993834 0.22301744 0.97479725 0.0012322312
-0.073701717 0.014190916 -0.054256216 0.0019869008 0.21773183 0.97600657 0.0013619931
-0.067312412 0.011974009 -0.053674281 0.0075821551 0.21095835 0.97746563 0.001618339
-0.057898708 0.010787271 -0.053362764 -0.032184884 0.21008244 0.97715378 0.0037466062
-0.043974422 0.01487573 -0.054261763 0.16370319 0.25019899 0.95425445 0.063490391
-0.032706767 0.016794167 -0.051950946 -0.064530015 0.12807789 0.98966259 0.14855564
-0.023920581 0.015131557 -0.054051321 -0.5897072 0.082984515 0.80334246 0.15429968
0.019218756 0.015096039 -0.051576775 0.50081539 0.10621826 0.85901201 0.11573268
0.022536239 0.01624874 -0.055833738 0.65845251 0.055447001 0.75057703 0.17100692
0.036758203 0.016080067 -0.052748676 -0.0099409707 0.18355978 0.98295826 0.12039424
0.042677376 0.013457026 -0.053855956 -0.16697398 0.17792115 0.96977514 0.10147003
0.064915933 0.017660741 -0.055167031 0.018289657 0.24761905 0.96868485 0.00071567082
0.077500448 0.015197018 -0.054520316 -0.0097589614 0.22572254 0.97414267 0.0012055506
0.08366733 0.013875887 -0.054173522 -0.0364387 0.21701084 0.97548884 0.0026333027
0.095736533 0.014615056 -0.054367557 0.06000473 0.20796388 0.97629422 0.023648905
0.10775754 0.012258682 -0.051495172 0.088805534 0.11713961 0.98913693 0.11548082
0.1146549 0.01291978 -0.051797803 -0.088134892 0.12968774 0.98763019 0.19836822
0.13374177 0.012813549 -0.055725425 -0.95962387 -0.072462797 -0.27179241 0.18258953
0.1916407 0.013559505 -0.054473229 -0.98426455 0.0094932169 0.1764458 0.0018737037
-0.19204047 0.024050349 -0.051286165 0.99000621 0.00072269124 0.14102182 8.2812869e-05
-0.13355105 0.025543308 -0.054732081 0.93384778 0.20100498 -0.29584685 0.1330007
-0.11422765 0.023023153 -0.053395465 0.16250266 0.13731891 0.97710615 0.17133822
-0.10339675 0.026558474 -0.057240557 -0.20476454 0.26010108 0.94362015 0.10274357
-0.091253713 0.025171343 -0.05713854 0.050732013 0.26244047 0.96361369 0.0015452594
-0.086109444 0.025029849 -0.057101402 0.019619606 0.26705295 0.96348214 0.00071005378
-0.074631542 0.022197027 -0.056357794 0.0033922535 0.25642011 0.96655953 0.00016256911
-0.062730297 0.023357961 -0.056662533 -0.013848754 0.26000997 0.96550661 0.00048696596
-0.053219713 0.022459613 -0.056426723 -0.044760209 0.25095439 0.96696353 0.001496049
-0.045873418 0.023483865 -0.05669558 0.092840947 0.20490634 0.97436851 0.046034347
-0.035768196 0.02711275 -0.056153562 0.060212627 0.22294249 0.97297019 0.12820849
-0.02449063 0.025440365 -0.055838417 -0.54085141 0.083551198 0.83695817 0.18572518
0.017044935 0.027181985 -0.050348036 0.50736833 0.075124837 0.85844839 0.11507668
0.0250907 0.026313817 -0.05651097 0.51860994 0.093185671 0.84991777 0.1588683
0.03424184 0.023879465 -0.054693211 0.23012425 0.15070939 0.9614206 0.15366535
0.045149133 0.029499149 -0.058274575 -0.061500996 0.29516456 0.95346504 0.09253066
0.055740301 0.023881871 -0.05680006 0.043156553 0.25596327 0.96572268 0.0010496961
0.065905079 0.024197813 -0.056882996 -0.014733082 0.28447369 0.9585706 0.067257307
0.089355588 0.023559865 -0.056715537 -0.044092938 0.25597334 0.96567774 0.0010892615
0.092086226 0.025860852 -0.057319537 -0.04908029 0.3131935 0.94842023 0.087935664
0.10711777 0.02378482 -0.055415828 0.1403586 0.29020548 0.94661516 0.10019263
0.11069286 0.029046839 -0.056259319 -0.013747204 0.23031317 0.97301948 0.17065792
0.12097535 0.02490133 -0.057812646 -0.96622771 0.044599373 -0.25380087 0.26835814
0.13386963 0.022226028 -0.058137469 -0.9763298 -0.15886252 -0.14677469 0.16703126
0.19134681 0.026682355 -0.056807395 -0.97373646 -0.021876844 0.22662467 0.014924803
-0.19161761 0.033791404 -0.054448016 0.98632652 0.0039966791 0.16475455 0.0012068351
-0.12072578 0.035132572 -0.059502546 0.97776335 -0.20154515 -0.057951849 0.30220076
-0.11504695 0.036547218 -0.057227924 0.10708244 -0.02642039 0.99389899 0.21330416
-0.10310759 0.032398116 -0.058996256 -0.21780793 0.31626844 0.92332762 0.15924716
-0.09992639 0.032575171 -0.059189495 -0.14337039 0.33743402 0.93036717 0.18290995
-0.072662592 0.03346828 -0.059460033 -0.032184143 0.42750457 0.90344012 0.13200013
-0.044927359 0.034588605 -0.059799396 0.1501653 0.46806121 0.87084389 0.1789747
-0.035381801 0.035287552 -0.058162354 -0.43561986 0.31633633 0.84271383 0.26144758
-0.024437683 0.037593644 -0.056344539 -0.67270827 0.0016151631 0.73990613 0.15533604
-0.018369736 0.032141145 -0.051155362 -0.59607452 0.019371649 0.80269539 0.093401261
0.017683245 0.033309735 -0.050846718 0.53930598 -0.02533255 0.84172881 0.073898256
0.024609268 0.035177741 -0.056704715 0.72893405 0.11410294 0.67500788 0.1545143
0.031466488 0.035682034 -0.057366624 0.19929519 0.28514528 0.93753588 0.19666095
0.040731005 0.037162986 -0.059881415 -0.052601974 0.43725541 0.8977977 0.14585358
0.051047087 0.032108687 -0.059048187 0.026011478 0.2937558 0.95552647 0.056967515
0.067196824 0.033765689 -0.059550121 -0.0263841 0.44303387 0.8961165 0.18770385
0.070596047 0.033938721 -0.059602536 -0.048368089 0.49382892 0.86821282 0.18940435
0.087013759 0.032326136 -0.059114058 -0.071441397 0.457156 0.88651252 0.14883493
0.093097851 0.031564843 -0.058883451 -0.098200634 0.3428582 0.93424034 0.13685302
0.10610443 0.036947094 -0.059287541 0.20789425 0.39875337 0.89318293 0.15605983
0.11295853 0.033819355 -0.05694171 -0.044642072 0.27898905 0.95925605 0.21757473
0.12112879 0.031825706 -0.05761433 -0.91374743 -0.14857377 0.37814227 0.27331609
0.13343203 0.034033403 -0.054006044 -0.99430239 -0.10374967 -0.02447119 0.19345388
0.19152734 0.035044353 -0.055076715 -0.9787963 -0.013673072 0.20437902 0.0067671896
-0.19146895 0.04486559 -0.055134237 0.96940666 -0.04805012 0.24071139 0.014223916
-0.13347642 0.048662744 -0.053099468 0.94011194 0.33969888 -0.028182872 0.14691077
-0.11497317 0.045785263 -0.059008546 0.38473105 0.43651086 0.81328976 0.19132733
-0.10990426 0.045727469 -0.059961647 0.26567918 0.41887039 0.86830992 0.18867642
-0.030866653 0.04701237 -0.059351914 -0.65173221 0.03460345 0.75765944 0.22853753
-0.024912169 0.045287412 -0.058002632 -0.78625256 0.057953689 0.61518151 0.15089391
-0.019319708 0.049925264 -0.052050587 -0.58300072 -0.051431801 0.81084216 0.07484737
0.032186851 0.041142933 -0.058547661 0.5462963 0.35566422 0.75832933 0.19892663
0.11473301 0.04470215 -0.058946587 -0.34910098 0.25733551 0.90105879 0.26826492
0.133729 0.043988928 -0.056321308 -0.93901038 0.20770165 -0.2740795 0.23382808
-0.19207686 0.050586253 -0.050712094 0.97614688 -0.093761452 0.19582187 0.019275531
-0.13391466 0.056175221 -0.056843124 0.80299777 0.54426956 -0.24282768 0.18894698
-0.022555821 0.059271313 -0.056229517 -0.79245895 -0.097732678 0.60204417 0.12622288
0.019990046 0.058668014 -0.052648902 0.61128604 -0.029069655 0.79087561 0.071111925
0.022731224 0.055876531 -0.057659596 0.85739291 -0.04696184 0.51251543 0.10995886
0.13374105 0.054578021 -0.055196237 -0.82854706 0.53887469 -0.15206556 0.17056155
0.19132555 0.056535248 -0.055861607 -0.94702613 -0.14095318 0.28857169 0.060896967
-0.19180994 0.064862609 -0.052522413 0.93854034 -0.1452231 0.31313297 0.082757562
-0.022511361 0.068319745 -0.056268696 -0.78819501 -0.13214658 0.60107058 0.15307437
0.021788573 0.065298289 -0.054436654 0.67111605 -0.26809373 0.69117934 0.15389578
0.13396481 0.065980136 -0.057419322 0.19447479 -0.74829555 0.63421875 0.24023369
0.191349 0.064852938 -0.055551674 -0.94405073 -0.1828402 0.27447686 0.10487725
-0.19128871 0.07639578 -0.055993281 0.99184871 0.11002449 0.064270586 0.19116387
-0.18747388 0.076819278 -0.056269702 0.96840185 0.2438204 0.052435033 0.22463071
-0.17527492 0.075116433 -0.053483065 -0.080661662 -0.82114989 0.56498367 0.15528701
-0.16217431 0.074906044 -0.053891867 -0.047034338 -0.8768934 0.47837812 0.006296441
-0.1506384 0.07498958 -0.053729549 -0.018748024 -0.86681277 0.49828115 0.086337544
-0.14786026 0.074646458 -0.054396257 -0.091920324 -0.849639 0.519292 0.15063284
-0.13460545 0.074621245 -0.052992769 0.18363255 -0.78205687 0.59553862 0.24964513
-0.11075892 0.075734988 -0.055442184 0.18508567 -0.7161423 0.67296618 0.22968569
-0.10577775 0.077566676 -0.058438759 0.55413485 -0.68869066 0.46758932 0.29144695
-0.041367847 0.079159014 -0.053238999 -0.15560244 -0.74100876 0.65321815 0.25696197
-0.034103807 0.075960539 -0.058152098 0.97058165 0.12004241 -0.20871285 0.25385237
-0.026981542 0.077264674 -0.054511175 -0.88434339 -0.24212433 0.39913988 0.23440209
-0.019101616 0.073711686 -0.051954813 -0.78372574 -0.23641257 0.57435441 0.19178493
0.017857108 0.072032809 -0.05098255 0.66037375 -0.45148566 0.60005599 0.20607586
0.021267856 0.075185284 -0.054270055 0.77542251 -0.39230463 0.49478984 0.19583179
0.034516826 0.075958766 -0.053520672 0.73592103 -0.59157318 0.3293348 0.24260527
0.10443716 0.078010947 -0.056506794 -0.95293409 -0.046647858 0.29956737 0.26594439
0.13690688 0.07400661 -0.056103837 -0.08343114 -0.78882259 0.6089319 0.17537527
0.14437702 0.075122893 -0.0534705 -0.10195993 -0.84485453 0.52519047 0.16358836
0.1580178 0.074207865 -0.055248458 -0.069018073 -0.84296608 0.53352106 0.019103628
0.16684653 0.074756324 -0.054182757 0.074289471 -0.8539207 0.5150733 0.041512959
0.17899632 0.076511502 -0.050772339 0.038742166 -0.86080825 0.50745267 0.16885963
0.18347481 0.074192077 -0.055483356 -0.051076356 -0.82597154 0.56139314 0.22420271
-0.19074905 0.086178899 -0.053928077 0.95908558 0.28308496 -0.0042029088 0.11318459
-0.18918012 0.080768302 -0.053656701 0.96009266 0.27623135 0.043799218 0.16377749
-0.1329357 0.085760608 -0.05427799 0.57183695 -0.56074971 0.59880078 0.25018916
-0.11525045 0.084286414 -0.053335324 0.10714498 -0.97042203 0.21633542 0.25368863
-0.09438432 0.080134593 -0.055481855 -0.062215019 -0.41603607 0.90721732 0.2672343
-0.080832198 0.080143332 -0.054526366 0.26712298 -0.50809401 0.81883198 0.239536
-0.073266506 0.080097437 -0.059545793 0.34067559 -0.65545022 0.6740365 0.25242597
-0.065995328 0.080142424 -0.054625489 -0.23112768 -0.38791016 0.89224756 0.24249382
-0.05822153 0.080131494 -0.05582111 -0.040248331 -0.29142064 0.9557479 0.23885103
-0.04789646 0.080130883 -0.055888027 -0.17515498 -0.33429983 0.92604768 0.2114491
-0.02557792 0.084311903 -0.054788243 0.94007874 0.037951682 -0.33883864 0.21216398
-0.018443478 0.087599419 -0.051440645 -0.81978077 -0.064772218 0.56900269 0.22352245
0.017916201 0.083048478 -0.05102871 0.75987977 -0.24746569 0.60111856 0.24970113
0.023446402 0.084926486 -0.055184387 0.90439349 -0.22484095 0.36265555 0.21291366
0.030189384 0.086173758 -0.057320368 0.81203836 -0.45068878 0.37077397 0.24151246
0.05614173 0.080126971 -0.056315154 0.24208386 -0.26323485 0.93386441 0.21883516
0.064705417 0.080120832 -0.056986019 -0.1517432 -0.74948293 0.64439833 0.28354985
0.075555459 0.080143467 -0.054510325 0.042401537 -0.7883873 0.61371619 0.28130206
0.080857173 0.080095217 -0.059787761 -0.076582834 -0.85205823 0.51781434 0.29209974
0.11495111 0.086876892 -0.05271256 -0.28324223 -0.91536415 0.28615087 0.26650119
0.13268094 0.084418625 -0.050454687 -0.59502321 -0.70054269 0.3939383 0.21985593
0.18997864 0.082896382 -0.052546799 -0.97030216 0.2418915 -0.0014977721 0.16724795
0.19048257 0.084167957 -0.057530612 -0.96776491 0.24548991 -0.056265086 0.1479682
-0.19187331 0.093636855 -0.053470209 0.98504859 0.17208989 -0.0080146473 0.05200373
-0.13269229 0.093414113 -0.056109719 0.97934061 -0.19994627 -0.030223038 0.22221491
-0.11310977 0.096094348 -0.056138955 -0.27138919 -0.95560783 0.11472397 0.2343507
-0.030882016 0.093986452 -0.055367857 0.98883283 0.12798171 0.076356851 0.28638381
-0.021836998 0.096403979 -0.055356029 0.93599844 -0.12846529 -0.32772478 0.16904508
0.025208844 0.095523857 -0.056243379 -0.93537027 -0.10338177 -0.33822289 0.19923842
0.030972427 0.095021963 -0.054701209 -0.91731215 -0.073769793 -0.39127541 0.29957297
0.11321328 0.09528064 -0.056126978 0.16975351 -0.95559275 0.24088621 0.23757379
0.1322009 0.099706493 -0.054186195 -0.92802358 -0.32383579 0.1841265 0.22270596
0.19162399 0.091326743 -0.053340182 -0.97424901 0.21447606 0.069561169 0.071362764
-0.19239803 0.10696932 -0.056161251 0.98984289 0.090246223 0.10984842 0.0024226205
-0.13197632 0.10199608 -0.05294713 0.99221611 -0.12018907 0.032584812 0.21559215
-0.11282483 0.10148315 -0.053025041 -0.31586885 -0.88607955 0.33924907 0.22636345
-0.10359281 0.10184094 -0.054800358 0.078690618 -0.96591765 0.24659842 0.22750361
-0.095193863 0.10199692 -0.054135043 0.20087558 -0.95249766 0.22890438 0.19551526
-0.084755376 0.10199898 -0.054126233 -0.074457757 -0.95906669 0.2732161 0.21628237
-0.073292822 0.10177207 -0.055094097 -0.12358421 -0.88241071 0.45395845 0.2416186
-0.067110114 0.10236107 -0.052581839 0.026892163 -0.91155922 0.41028836 0.23099317
-0.056243051 0.10200758 -0.054089557 -0.26055825 -0.92228794 0.28547224 0.21017784
-0.042246006 0.10189348 -0.054576214 0.11691859 -0.76652014 -0.63148791 0.27397442
-0.022955755 0.10568573 -0.057646204 0.8881132 -0.10856384 -0.44661936 0.12748784
0.017954955 0.10544814 -0.051058989 0.63262063 0.21896045 0.74286431 0.21232715
0.021964088 0.10589752 -0.054217435 -0.77147996 -0.21321942 -0.59946322 0.17703912
0.036544248 0.10115659 -0.057719331 -0.75239623 -0.4922471 -0.43771288 0.24567796
0.044246774 0.10108882 -0.058008395 -0.26446334 -0.88628352 -0.38021135 0.24998476
0.054929368 0.10212934 -0.053570237 -0.15700892 -0.97437477 0.16106486 0.23304629
0.063547783 0.10190716 -0.054517876 -0.11639491 -0.91392452 0.38883683 0.22572292
0.089967869 0.10087459 -0.058922101 0.11429571 -0.93422163 -0.33788547 0.24375238
0.09545061 0.10245559 -0.05217867 0.10211863 -0.97246581 0.20948035 0.21416156
0.10198775 0.10160899 -0.055789623 -0.42747203 -0.79857713 0.4237242 0.22262028
0.11074375 0.1013566 -0.056866154 0.48506352 -0.83858556 -0.24796681 0.22655535
0.13175762 0.10292756 -0.050943855 -0.98121506 -0.18332534 -0.060073715 0.1999175
0.19195881 0.10290471 -0.057589658 -0.99070656 0.10241289 0.089509435 0.0034882925
-0.19287181 0.11658348 -0.058577329 0.98838699 0.094966292 0.1186282 0.00085168093
-0.1314895 0.11410717 -0.055322189 0.98869485 -0.062603019 -0.13624741 0.12943518
-0.023639303 0.1145532 -0.055557571 -0.82639629 0.019136757 0.56276369 0.12446586
0.02327887 0.11593392 -0.054335002 0.78543669 0.031883754 0.61812037 0.16153747
0.13144168 0.11304156 -0.054065399 -0.99606353 0.049495004 -0.073536634 0.12883115
-0.19437185 0.12850294 -0.054501325 0.98556316 0.12314524 0.1161917 0.00087614026
-0.13095352 0.1224055 -0.05531523 0.97733486 -0.20934303 0.031497128 0.10984226
-0.024104515 0.12416494 -0.052215289 -0.73171622 -0.24673969 0.63538259 0.089153662
0.024984088 0.12442453 -0.055488322 0.71154171 -0.26996085 0.64871365 0.13701242
0.13099985 0.12198342 -0.055521112 -0.98142815 -0.18811327 0.037579112 0.11152405
0.19392414 0.12417897 -0.055227485 -0.9885813 0.11211359 0.10068514 0.00054835976
-0.19558954 0.1388445 -0.053827375 0.98180085 0.16858143 0.087449111 0.0013018814
-0.13032156 0.1323535 -0.055421099 0.74590516 -0.6175226 0.24958229 0.092516035
-0.12964876 0.13685285 -0.051296927 0.69751865 -0.66523677 0.26632285 0.089679696
-0.11417779 0.13657194 -0.055163424 0.29082733 -0.85531366 0.42878678 0.046695471
-0.10211712 0.13622876 -0.05662591 0.044684175 -0.86794102 0.49465305 0.00079800171
-0.091974765 0.13504155 -0.05946428 0.025645126 -0.85203969 0.52284861 0.0017812042
-0.085551746 0.13688168 -0.056622215 0.017801022 -0.86762381 0.49690247 0.0011284859
-0.077165239 0.13754673 -0.056021597 0.015036858 -0.86903107 0.49452901 0.0017610734
-0.069633625 0.13670275 -0.058061998 0.010399984 -0.85519344 0.51820469 0.0019115593
-0.052194797 0.13786301 -0.056501169 -0.033893622 -0.86186939 0.50599647 0.0046882736
-0.044590883 0.13888809 -0.055051066 -0.13999237 -0.8488887 0.50969607 0.02349747
-0.032062061 0.13755842 -0.056970786 -0.37803414 -0.71353048 0.58988506 0.040225562
0.027368123 0.13822348 -0.053690281 0.48358801 -0.63421351 0.60325444 0.045550026
0.038159847 0.13778336 -0.056646042 0.26162708 -0.78642172 0.55954623 0.044977456
0.043375183 0.13906121 -0.054801118 0.13573804 -0.81553578 0.56256258 0.025019232
0.064318664 0.13980141 -0.052889202 -0.019349264 -0.88115078 0.47243935 0.0040069376
0.074165121 0.13808051 -0.055277154 -0.023216033 -0.84878772 0.52822387 0.00063307618
0.086889714 0.13687871 -0.05653343 -0.028798822 -0.84357488 0.53623885 0.0015437979
0.094797954 0.13747136 -0.054916427 -0.025330823 -0.87006807 0.49228045 0.0018632723
0.10764351 0.13686089 -0.055105735 -0.14533001 -0.86808127 0.47467265 0.021608045
0.11652543 0.13662276 -0.054907348 -0.35038108 -0.85927045 0.37267584 0.064394034
0.12657793 0.1360535 -0.052662555 -0.73168379 -0.65244871 0.19735613 0.089965671
0.13023724 0.13309924 -0.055030484 -0.82803696 -0.52683073 0.19184387 0.092224456
0.19518588 0.13445745 -0.052825343 -0.98641634 0.13948606 0.086755954 0.00067089649
-0.074360996 0.14081356 -0.050371222 0.0099170748 -0.90070271 0.43432292 0.0031618869
-0.028227802 0.14176567 -0.050896458 -0.39412254 -0.7292133 0.55938852 0.056034017
0.034967244 0.14092459 -0.052110814 0.27635387 -0.7645427 0.58232558 0.04242808
0.046634965 0.14124899 -0.051541746 0.072487772 -0.88272589 0.46426338 0.016701518
0.069447227 0.14042088 -0.05141969 -0.013032369 -0.88886839 0.45797721 0.003718995
0.075822167 0.14027572 -0.051231202 -0.011967517 -0.89627755 0.44333214 0.0045329593
0.19641346 0.14237417 -0.053867243 -0.98375911 0.16892722 0.060675908 0.00075873081
-0.19870116 0.15261026 -0.05155576 0.99616301 0.064344689 0.059321582 0.023637999
0.19903755 0.15510717 -0.059125952 -0.99847668 0.029051488 0.04690659 0.040566497
0.20102382 0.16478634 -0.055906788 -0.98711222 -0.08469782 0.13577804 0.056724966
-0.20144957 0.17480056 -0.053254765 0.961721 -0.26943332 0.04998412 0.12308274
-0.19380218 0.17707072 -0.054934397 0.9400543 -0.31271261 0.13604662 0.15089141
-0.18459363 0.17722885 -0.05460244 0.46025601 -0.81912917 0.34233287 0.1576695
-0.17275363 0.17776737 -0.052552871 0.012378766 -0.94036067 0.33995369 0.087529071
-0.16001961 0.17644273 -0.058875538 0.11462745 -0.94811821 0.296534 0.082993433
-0.15444513 0.17686737 -0.05671506 0.051925752 -0.95073265 0.3056322 0.091586396
-0.14463203 0.17728715 -0.053636387 0.11709476 -0.95909047 0.25774854 0.13413471
-0.13670789 0.17826124 -0.051543482 0.099837191 -0.96285772 0.25087354 0.13630657
-0.12706314 0.17714107 -0.057330977 0.28935477 -0.94188458 0.17066717 0.13667627
0.12798747 0.17730373 -0.054531984 -0.33378741 -0.9091211 0.24916805 0.13790092
0.13652103 0.1771493 -0.055013891 -0.20409864 -0.9542076 0.21870422 0.15325126
0.1443141 0.1778858 -0.052310769 -0.06720496 -0.94964051 0.30604938 0.12750882
0.15389095 0.17805904 -0.052097116 0.015653839 -0.97412348 0.22547409 0.10302726
0.16703095 0.17678523 -0.056725837 0.03617572 -0.96572578 0.25703117 0.097953908
0.18757595 0.17684659 -0.056340825 -0.54635841 -0.79107809 0.2751143 0.17687379
-0.19449104 0.18940119 -0.057071112 0.98353451 -0.16856571 0.065156899 0.17912373
-0.16349246 0.1894625 -0.056947485 0.22596656 -0.84241158 0.48916432 0.2706489
