# .PCD v0.7 - Point Cloud Data file format
VERSION 0.7
FIELDS x y z normal_x normal_y normal_z curvature
SIZE 4 4 4 4 4 4 4
TYPE F F F F F F F
COUNT 1 1 1 1 1 1 1
WIDTH 576
HEIGHT 1
VIEWPOINT 0 0 0 1 0 0 0
POINTS 576
DATA ascii
-0.10708544 -0.41368687 -0.042799577 0.36448333 0.51254201 -0.77746558 0.14575505
0.10632759 -0.41768637 -0.042040937 -0.46914461 0.58038074 -0.66562861 0.16498065
0.11647055 -0.41647571 -0.046212699 -0.38144755 0.52711821 -0.75937092 0.13514693
0.12639935 -0.41741458 -0.04226549 -0.14042544 0.28971955 -0.9467541 0.18790987
0.13342264 -0.4127779 -0.04145607 -0.2089505 0.3456431 -0.91480625 0.18704849
0.14299238 -0.41359526 -0.043514855 -0.31460702 0.35097986 -0.8819499 0.14591049
0.15394865 -0.41504458 -0.042802025 -0.41420704 0.47478768 -0.77653664 0.12259614
0.16878965 -0.41596588 -0.044363271 -0.62930024 0.49526915 -0.59890705 0.098474085
0.17150109 -0.41225359 -0.046302881 -0.68915331 0.47907773 -0.54364723 0.08760494
-0.17475191 -0.40506116 -0.045994271 0.7173686 0.46519899 -0.51862532 0.088559233
-0.16045287 -0.40095708 -0.040906031 0.57407677 0.53637248 -0.61866015 0.13046476
-0.14503407 -0.40524918 -0.042914055 0.30130693 0.3963457 -0.86725104 0.15730008
-0.13720685 -0.40763527 -0.043001942 0.41028121 0.48365334 -0.7731421 0.21970432
0.1327506 -0.40989986 -0.041421182 -0.21433964 0.38090712 -0.89942664 0.16935094
0.14318496 -0.40556887 -0.042478271 -0.20616077 0.54446757 -0.81305152 0.14448042
0.15608998 -0.40777054 -0.042079497 -0.50883687 0.5720048 -0.64334714 0.12194035
0.16365206 -0.40305492 -0.040103562 -0.57680517 0.46609622 -0.67085779 0.11570523
0.17451282 -0.40518752 -0.044897959 -0.70526981 0.44829863 -0.54920197 0.087479047
-0.17755607 -0.39548835 -0.043333106 0.75776982 0.3822436 -0.52884275 0.087212369
-0.16229674 -0.3933064 -0.040234506 0.53497511 0.55226529 -0.63937837 0.11824518
-0.15419103 -0.39959049 -0.042179745 0.43484652 0.52263123 -0.73332459 0.1391947
-0.1466042 -0.39754823 -0.041086599 0.27389061 0.48846677 -0.8284831 0.13166226
-0.13492006 -0.39712891 -0.0423746 0.49448162 0.61006886 -0.61911541 0.16645724
0.14702019 -0.39844832 -0.040723704 -0.23263322 0.48456898 -0.84325242 0.13510744
0.15495154 -0.39746884 -0.041217852 -0.4412986 0.48429734 -0.7554546 0.12997188
0.16171412 -0.39513087 -0.040424533 -0.56384575 0.44385344 -0.6964711 0.12401437
0.17735286 -0.39575875 -0.042987186 -0.76060259 0.3993375 -0.51187235 0.075324893
-0.18125483 -0.38366351 -0.044614125 0.86219168 0.32510918 -0.38849658 0.041685395
0.18141843 -0.3862263 -0.048226938 -0.86772913 0.36995366 -0.33193436 0.037966896
-0.18250528 -0.37916887 -0.044661731 0.88096428 0.28542975 -0.37740126 0.056872182
0.18439081 -0.37373289 -0.046701722 -0.95815319 0.14614607 -0.24613771 0.096175432
-0.18644676 -0.36456087 -0.044858821 0.98900175 0.11848185 -0.088530108 0.12355136
0.18638973 -0.36573848 -0.045865688 -0.99091345 0.061927591 -0.11939659 0.14113189
-0.19083276 -0.35091177 -0.047332287 0.98788851 0.11399768 -0.10526548 0.13147382
-0.18858974 -0.35560775 -0.043507457 0.99727517 0.044795923 -0.058613133 0.11542122
-0.15764904 -0.3502962 -0.045924757 0.34121433 0.68581301 -0.64283228 0.19175683
-0.14278087 -0.35394529 -0.045265656 0.28340203 0.86647642 -0.41097683 0.18186173
-0.13217966 -0.35568261 -0.043722969 0.16038895 0.81526077 -0.5564397 0.063273787
-0.1234078 -0.35733131 -0.046129394 -0.18079399 0.86003113 -0.47713724 0.077882394
-0.11477244 -0.35657084 -0.043161117 -0.27224246 0.8335551 -0.48069736 0.089832202
-0.10586506 -0.3530764 -0.044586461 -0.79719532 0.52626693 -0.29584226 0.10449865
0.10739722 -0.35661748 -0.046575449 0.53304851 0.72333723 -0.4389106 0.087330148
0.11304325 -0.3572385 -0.046899557 0.48589802 0.75616592 -0.43831065 0.086816408
0.13597775 -0.35564509 -0.045276027 -0.20708956 0.90746945 -0.36553118 0.20493485
0.14703086 -0.3527092 -0.044883374 -0.52836645 0.71316153 -0.46068376 0.28603986
0.1568723 -0.35224536 -0.047986537 -0.39977595 0.81492937 -0.41960627 0.24189062
0.16226171 -0.35100275 -0.048226364 -0.021270357 0.73675793 -0.6758219 0.19490695
0.19062503 -0.35035658 -0.045207292 -0.99637586 0.072625898 -0.04427908 0.17194812
-0.19107118 -0.34628063 -0.049155541 0.97238898 0.15957198 -0.17028347 0.18022664
-0.18287207 -0.34227511 -0.047352813 0.21677977 0.65578949 -0.72315049 0.22791176
-0.17907222 -0.34526771 -0.048260748 -0.10314884 0.6911844 -0.71527928 0.21124752
-0.16533144 -0.34477302 -0.043922056 -0.12856123 0.59024531 -0.79692054 0.16063723
-0.15657441 -0.34700522 -0.042614877 0.31034407 0.63578898 -0.70672399 0.18801621
-0.14405036 -0.34920958 -0.040178888 0.45757735 0.53351849 -0.71132338 0.2157976
-0.10586507 -0.34488076 -0.042858198 -0.80471164 0.43022913 -0.40907457 0.10844167
0.10586502 -0.34590271 -0.045746323 0.75135565 0.48874795 -0.44338483 0.089254215
0.14782536 -0.34988537 -0.042122722 -0.47240362 0.5307191 -0.70368463 0.25910562
0.15712018 -0.34779349 -0.043351598 -0.29649153 0.62303597 -0.72382247 0.2466369
0.16435444 -0.34485543 -0.043536 0.1405337 0.3887558 -0.91055983 0.19291838
0.1727607 -0.34520116 -0.046353012 -0.01508609 0.74104911 -0.6712814 0.19787022
0.18547982 -0.34643844 -0.045059826 -0.91306019 0.20088707 -0.35491624 0.25984538
0.19101477 -0.3458966 -0.04758165 -0.97934526 0.065712772 -0.1912187 0.20221135
-0.19089517 -0.3361046 -0.043001682 0.97094238 0.039761346 -0.23598719 0.17373061
-0.18588628 -0.33325705 -0.0450131 0.96097767 0.15471236 -0.22931649 0.19320777
-0.17183363 -0.33767223 -0.040960606 -0.15731581 0.58687001 -0.79425144 0.18369895
-0.15291882 -0.33208299 -0.049596675 0.87340039 -0.21534652 0.43680397 0.26960328
-0.10586507 -0.33839214 -0.044776108 0.88568795 -0.20662962 0.4157657 0.099513687
0.10586502 -0.33367997 -0.043521464 -0.87603718 -0.13181682 0.46387836 0.044649448
0.14428128 -0.33066007 -0.048760243 -0.85479361 0.10619155 -0.50798738 0.28949663
0.16514243 -0.3393589 -0.040010124 0.24217838 0.48898968 -0.83799684 0.17488939
0.17858067 -0.33165315 -0.049187798 -0.87347376 0.30802685 -0.37704515 0.25170922
0.18704218 -0.33493838 -0.045072194 -0.98237348 0.14603934 -0.11668281 0.18990844
0.19076276 -0.33622417 -0.04388864 -0.98195589 0.059793677 -0.1794083 0.17002831
-0.19441766 -0.32476428 -0.049741074 0.99213064 0.042577546 -0.11774477 0.10637264
-0.18616299 -0.32533544 -0.044340339 0.92844868 0.038115304 -0.36949998 0.21251214
-0.17580417 -0.32631254 -0.04592222 0.25314108 0.38803416 -0.88619924 0.25620636
-0.16403216 -0.32340237 -0.0444519 0.27869049 -0.093958028 0.95577377 0.21120216
-0.15582474 -0.32512337 -0.045240182 0.28750435 -0.026853096 0.95740288 0.28185126
-0.14723694 -0.32329717 -0.045865573 0.8057667 -0.14753354 -0.57356244 0.23787257
-0.10586507 -0.32598838 -0.04469876 0.93043739 0.016344024 0.3660863 0.057770669
0.10586501 -0.32251725 -0.046021435 -0.93867397 -0.024716016 0.34391889 0.059786007
0.14473936 -0.32654399 -0.046575122 -0.79351622 -0.16060023 -0.58697498 0.2431975
0.15686409 -0.32568145 -0.045754757 -0.17878862 -0.092526153 0.97952724 0.24678303
0.16612256 -0.32534164 -0.045484807 -0.10058528 -0.15881132 0.98217183 0.23525025
0.17566147 -0.32385427 -0.04459893 -0.94686258 0.25870383 -0.19111142 0.29329035
0.18654531 -0.32460523 -0.043820839 -0.99434263 0.067209549 -0.08225292 0.18676159
0.1912041 -0.32286447 -0.049448714 -0.99847686 0.01251089 -0.053734668 0.12516659
-0.19236164 -0.31368244 -0.043771122 0.99220717 0.11940113 -0.035614364 0.14723496
-0.18530594 -0.31648162 -0.041502051 0.99077404 0.058731563 -0.12213692 0.21128127
-0.17157923 -0.31602305 -0.041348435 0.027195901 0.12088136 0.99229437 0.24142978
-0.1662533 -0.31657526 -0.04159382 0.25574857 0.063518398 0.96465433 0.22502963
-0.1582332 -0.3160513 -0.041397117 0.24085814 -0.16408281 0.95658988 0.24627933
-0.14375252 -0.31764269 -0.046723388 0.8743099 -0.092839025 -0.47640648 0.22925907
-0.10586508 -0.318185 -0.043609183 0.90609848 0.027938331 0.4221434 0.064464487
0.10586502 -0.31573001 -0.046395876 -0.95056325 -0.00052546384 0.31053054 0.056903783
0.13965809 -0.31433982 -0.047849722 -0.70870352 -0.039564129 -0.70439619 0.21930422
0.14285395 -0.31525093 -0.043071859 0.52467024 0.23130336 0.81928009 0.24246134
0.15557681 -0.31548563 -0.041158535 -0.19114284 -0.027572379 0.98117489 0.2348526
0.16789131 -0.31577626 -0.041245911 -0.10145443 0.29284626 0.95076185 0.25168705
0.17010069 -0.31928623 -0.042706046 -0.11652242 0.052314833 0.99180925 0.26593748
0.18564574 -0.31830895 -0.042950779 -0.99130011 0.12556279 0.039475456 0.19836867
0.19123277 -0.31414321 -0.045675192 -0.99309069 0.10077959 -0.060118668 0.1439988
-0.1945796 -0.30450094 -0.046722572 0.99430776 0.099470638 -0.03817806 0.10857575
-0.14321035 -0.3063888 -0.045028448 0.75576007 -0.087560825 -0.64896834 0.20808911
-0.10586506 -0.30079761 -0.048065357 0.95073736 0.033969119 0.30813071 0.049853425
0.10586502 -0.30610019 -0.04637279 -0.94035697 0.052911825 0.33604914 0.05870828
0.13999428 -0.30100304 -0.045577161 -0.67977196 0.043103468 -0.73215586 0.21061157
0.18938944 -0.30578774 -0.041207232 -0.99542373 0.094915174 -0.011079478 0.14695413
0.19123453 -0.30361098 -0.043693241 -0.99053383 0.12704895 -0.051972888 0.16138804
-0.19398111 -0.29723006 -0.044305891 0.99588364 0.070055954 -0.057514314 0.12036824
-0.1435487 -0.29411435 -0.045908321 0.77026922 -0.059262592 -0.63495928 0.15920481
-0.10586506 -0.29367357 -0.04573904 0.93712842 0.028256932 0.34783879 0.060071234
0.10586502 -0.29806679 -0.043646503 -0.91933054 -0.029194927 0.39240173 0.062907152
0.13961738 -0.29911774 -0.042233285 -0.59356058 0.06312833 -0.80230957 0.18835129
0.1403788 -0.29506806 -0.046006948 -0.6008333 0.12617166 -0.78935421 0.2137167
0.19120191 -0.29339477 -0.044090789 -0.99765015 -0.017999189 -0.066107772 0.13506784
-0.19472408 -0.28578767 -0.043986641 0.99857283 0.049361195 0.020391135 0.12004316
-0.14406636 -0.28387037 -0.042606525 0.6737349 0.064319581 -0.73616862 0.17251591
-0.10586506 -0.28416267 -0.043971095 0.96244055 -0.031657614 0.26964051 0.050544906
0.10586502 -0.28623646 -0.045073852 -0.9462052 -0.051730428 0.3194052 0.057353701
0.14031838 -0.28661394 -0.045392096 -0.66813606 0.030745564 -0.74340367 0.18686791
0.19112855 -0.28519464 -0.046950262 -0.99679977 -0.066524997 -0.04432331 0.092162177
-0.19434862 -0.27854413 -0.042873427 0.99724883 -0.028582901 -0.068393655 0.1168819
-0.10586507 -0.27526331 -0.044537645 0.93271929 -0.03409851 0.35898754 0.058495849
0.10586502 -0.27459353 -0.046601526 -0.97316355 -0.015575784 0.22958672 0.038844943
0.13992049 -0.27820519 -0.043824606 -0.63178313 0.053627923 -0.77328789 0.17955714
0.14025414 -0.27478063 -0.046076231 -0.71964312 0.0094034681 -0.69428051 0.19373287
0.19129957 -0.27202743 -0.046788044 -0.99822295 0.035089687 -0.048162445 0.11768039
-0.19341393 -0.26557106 -0.04410262 0.98413616 -0.12885417 -0.12195391 0.15948522
-0.18499294 -0.26180661 -0.040818162 0.94718575 -0.20193398 -0.24912219 0.22068863
-0.1726692 -0.26316369 -0.040232297 0.083809838 0.1035502 -0.9910869 0.25465235
-0.164012 -0.26212871 -0.040657319 0.042530123 -0.099424854 0.99413574 0.20436892
-0.15740563 -0.26131651 -0.040991098 0.22259866 0.072447665 0.97221458 0.23557539
-0.14431326 -0.26740816 -0.044441409 0.62785226 0.17257792 -0.7589587 0.22353207
-0.10586508 -0.2682656 -0.046534039 0.94891971 0.00059383287 0.31551698 0.057379033
0.10586502 -0.26735443 -0.043938339 -0.95456386 -0.060839418 0.29172981 0.049686942
0.1397294 -0.26995242 -0.043051429 -0.61119246 0.0081562297 -0.79143995 0.19465865
0.14172336 -0.26403597 -0.045212492 -0.8730253 -0.0033451137 -0.48766348 0.23087418
0.1571624 -0.26162606 -0.040864758 -0.13078099 -0.14742255 0.98038924 0.22131328
0.17716578 -0.26230103 -0.040604874 -0.6723451 -0.064370379 0.73743373 0.25449467
0.19115898 -0.26708075 -0.043462608 -0.99928159 0.035279524 -0.013839102 0.10785085
-0.19305713 -0.25544256 -0.047682598 0.98169684 -0.014893995 -0.18986689 0.13798803
-0.17345057 -0.25611788 -0.043197855 0.068333283 0.19931139 -0.9775508 0.23223847
-0.16158187 -0.25347665 -0.044294853 0.28598249 0.16730137 0.94351697 0.25081939
-0.15390939 -0.25602353 -0.043213956 0.41171283 0.024650132 -0.91098017 0.25859779
-0.14820439 -0.25365609 -0.044333719 0.41783306 0.16547006 -0.89332813 0.28398538
-0.10586507 -0.25309476 -0.046950813 0.96382803 0.0014674834 0.26652098 0.049894065
0.10586501 -0.25418821 -0.044853125 -0.95271456 0.0065427199 0.30379647 0.059726067
0.14611155 -0.25448671 -0.044603497 -0.78100377 0.16735327 -0.601686 0.2203839
0.15395927 -0.25613898 -0.04316964 -0.27392754 0.30472088 -0.91220009 0.24406162
0.16408578 -0.25221458 -0.044833105 -0.16372563 -0.026473867 0.98615062 0.23846181
0.17792118 -0.25956899 -0.041755345 -0.71329391 -0.023065295 0.70048541 0.2723569
0.18488181 -0.25709006 -0.042894047 -0.99612546 -0.027217371 0.083625622 0.20036696
0.19150925 -0.25866628 -0.048673384 -0.9994449 -0.032199655 -0.0085466634 0.13566031
-0.18623383 -0.24500848 -0.04477175 0.99425727 -0.019262336 -0.10526904 0.21361016
-0.14827 -0.24682483 -0.048136964 -0.39933541 0.31501105 0.86098737 0.23527502
-0.10586507 -0.24665448 -0.048081283 0.95442134 0.14335449 0.26178101 0.051769257
0.10586502 -0.24514464 -0.045054294 -0.92180926 0.17475349 0.34601855 0.067963034
0.14606836 -0.24592307 -0.048563562 -0.79314637 0.089547038 -0.60241205 0.25397438
0.15415747 -0.2467818 -0.047992323 0.0051449332 0.3197999 0.94747114 0.270298
0.16530745 -0.24437004 -0.049680464 -0.098294601 0.57828605 0.80989105 0.2278983
0.17665012 -0.24475372 -0.045887355 -0.08351291 0.67368275 0.73428684 0.24621038
0.1869674 -0.24742258 -0.048497707 -0.96775573 -0.24370055 -0.063709684 0.17706324
0.19002008 -0.24472754 -0.041349456 -0.98734677 -0.11487559 0.10931607 0.17603889
-0.19078767 -0.2378538 -0.04360418 0.98650873 0.016112341 0.16291371 0.20349322
-0.18482065 -0.23656476 -0.045432694 0.73120749 0.43632871 0.52435952 0.23494095
-0.17830932 -0.23629101 -0.04405506 0.43855399 0.5524826 0.70882541 0.19609064
-0.16858269 -0.23145977 -0.046210557 0.22045709 0.73517752 0.64102477 0.10991387
-0.10586507 -0.23673417 -0.042036097 0.79101896 0.37980196 0.47962433 0.11711055
0.10586502 -0.23747298 -0.04491109 -0.88600677 0.27894127 0.37038341 0.090328343
0.14855528 -0.23145294 -0.041193869 0.19898349 0.63613975 0.74547422 0.11506616
0.15591966 -0.23249169 -0.042009588 0.10762212 0.6534549 0.7492758 0.10372894
0.16256255 -0.2346075 -0.041728184 -0.035230037 0.64046425 0.76717949 0.10548739
0.17354126 -0.23428473 -0.044992406 -0.18157443 0.68993211 0.70073134 0.181915
0.18501243 -0.23505762 -0.046995565 -0.94781262 0.052672889 0.31444681 0.2375228
0.19078761 -0.23396301 -0.048038069 -0.99841797 0.037380662 0.04200206 0.15381753
-0.16590947 -0.22820845 -0.048999887 0.17806739 0.76307178 0.6212998 0.08909069
-0.15678328 -0.22765793 -0.047355302 -0.088846363 0.74518001 0.6609183 0.080897622
-0.13519371 -0.22514403 -0.045860123 -0.24359086 0.82472742 0.51038027 0.054389305
-0.12199291 -0.22511579 -0.045433853 0.20475279 0.84152931 0.49990454 0.089741729
-0.11832016 -0.22521575 -0.048214588 0.37690946 0.84815431 0.37225461 0.098829053
-0.10784423 -0.22697389 -0.043392748 0.57760972 0.72557211 0.37404823 0.12126401
0.10680544 -0.22794974 -0.044508908 -0.69684827 0.57242662 0.43212301 0.12858622
0.11586538 -0.22603603 -0.043802846 -0.30358598 0.81430405 0.49471653 0.09457095
0.12316412 -0.22489415 -0.046334106 -0.12168643 0.90023184 0.41806105 0.076802313
0.13553905 -0.22471094 -0.047026381 0.19617924 0.83727491 0.51037675 0.078110315
0.14470816 -0.22689924 -0.045430396 0.17054458 0.77630663 0.60684639 0.093253687
0.15775882 -0.22640747 -0.049292061 0.031539444 0.79016328 0.61208433 0.093208209
-0.19035326 -0.2173143 -0.045624405 0.98076618 0.1834186 0.066748396 0.10990244
-0.18994182 -0.21574025 -0.04137972 0.97909415 0.18680869 0.080480576 0.086782478
0.19013685 -0.21632081 -0.043524962 -0.99392301 0.081175737 0.074347198 0.044779211
-0.18961975 -0.2078459 -0.043791678 0.99523789 0.096074805 0.016468139 0.037554029
0.18958089 -0.20561148 -0.043688588 -0.99633455 0.083920196 0.016579155 0.024022773
-0.18970793 -0.19619723 -0.045135126 0.99888945 -0.0046055084 -0.046888582 0.00035912736
0.1896961 -0.19580531 -0.045074437 -0.99900681 0.00080595375 -0.044550467 0.00034321839
-0.18968126 -0.18429333 -0.042883229 0.99852741 0.0029396457 -0.054169815 0.0003377698
0.18977079 -0.18582612 -0.046488054 -0.9990775 0.00044465688 -0.042940497 0.00025045869
-0.18986738 -0.17111087 -0.044960063 0.99913388 0.010592191 -0.040241726 0.00024684618
0.18980435 -0.17487364 -0.044075258 -0.99885482 0.0074274712 -0.04726271 0.00023729412
-0.18988368 -0.1676297 -0.04415099 0.99908853 0.010588994 -0.041353114 0.00025182185
0.1899026 -0.16686456 -0.044760764 -0.99899518 0.0096459119 -0.043766063 0.00024780462
0.19002828 -0.1652877 -0.049949154 -0.99945819 0.0094637908 -0.031524811 0.00021689286
-0.19004701 -0.15508519 -0.047245204 0.99933887 0.0099213449 -0.03497817 7.9065328e-05
-0.1899242 -0.15126856 -0.040102333 0.99860722 0.0094984276 -0.051898368 0.00026586698
0.1899254 -0.15527339 -0.041668765 -0.99860775 0.0153182 -0.050476991 0.00030441012
-0.1900858 -0.14527693 -0.045591399 0.99931133 0.0096205957 -0.035837673 6.5987966e-05
0.18996298 -0.14852589 -0.040986463 -0.99868512 0.0088865645 -0.05048757 0.00030033797
0.19012648 -0.1462349 -0.047789376 -0.99943584 0.0097736549 -0.032131888 6.8561458e-05
-0.19014239 -0.1377575 -0.045530766 0.999354 0.0099019827 -0.03454905 5.8744597e-05
0.19019723 -0.13497423 -0.047093436 -0.99949282 0.010303295 -0.030132703 0.00012103681
-0.19028942 -0.12247197 -0.04692455 0.99958032 0.0093237963 -0.027428679 6.7193752e-05
0.19022165 -0.12671117 -0.045314759 -0.99944168 0.0084682526 -0.032321729 0.00010537294
-0.19029112 -0.1128856 -0.043633271 0.99942422 0.0095012411 -0.032571718 4.3063526e-05
0.1902554 -0.11658827 -0.043235272 -0.99910331 0.0095085492 -0.041258909 0.00010500539
-0.19041705 -0.1015324 -0.045469224 0.99956107 0.0081035057 -0.028494475 7.1565839e-05
0.19036177 -0.10411393 -0.043843128 -0.99922246 0.0090343729 -0.038377859 9.3156101e-05
-0.19043182 -0.094914682 -0.043791723 0.99947274 0.0074450541 -0.03160397 3.8849444e-06
0.19049548 -0.092774548 -0.045996774 -0.99950868 0.0079962397 -0.030307751 0.00010531527
-0.19052358 -0.084201992 -0.044264965 0.99958181 0.0072327103 -0.027999436 5.4008731e-05
0.19054961 -0.086628735 -0.046325292 -0.99952149 0.010261497 -0.029179811 0.00010802172
-0.19062839 -0.072145611 -0.044872064 0.99966079 0.0070549785 -0.025067415 2.2377786e-05
0.19056754 -0.074589856 -0.042912479 -0.99936873 0.0084626237 -0.034503173 7.1195631e-05
-0.19071321 -0.066882312 -0.046908755 0.99975115 0.0081039425 -0.020781754 9.1322501e-05
0.19066663 -0.064048745 -0.043774668 -0.99957466 0.0086565502 -0.027848111 0.00012033203
-0.19073659 -0.056646906 -0.044389654 0.99970847 0.0092055891 -0.022322362 6.0983541e-05
0.19067207 -0.05655437 -0.041392528 -0.99942803 0.010404828 -0.032178361 6.6713197e-05
-0.19087805 -0.04240321 -0.045945551 0.99966872 0.0086376425 -0.024246577 3.4819295e-05
0.19082075 -0.047943465 -0.045273773 -0.99967378 0.0088925064 -0.023943335 6.0470869e-05
-0.19090517 -0.034867857 -0.044748638 0.99965763 0.0095034949 -0.024379693 9.9808588e-08
0.19089819 -0.035157714 -0.044306807 -0.99967003 0.0073128482 -0.02462475 4.4312092e-05
-0.19095582 -0.026634475 -0.04395337 0.99969292 0.0074716145 -0.023629183 2.2059427e-05
0.19102301 -0.023479648 -0.046165716 -0.99974614 0.0072666276 -0.021327022 0.00012365197
-0.19098584 -0.016330039 -0.041708011 0.99966496 0.0079547428 -0.024629466 2.1812217e-05
0.19102792 -0.013727349 -0.042767126 -0.99964184 0.0078444965 -0.025585016 1.3688149e-05
-0.19114959 -0.0078837704 -0.046738777 0.99976367 0.0073726196 -0.020452874 2.1608821e-05
0.19117248 -0.0061669364 -0.047597963 -0.99986094 0.00533434 -0.01579964 5.5955865e-05
-0.19122374 0.0033661053 -0.046724126 0.99982822 0.0091960654 -0.016090164 6.5198554e-05
0.19118464 0.0067550247 -0.042907257 -0.9997313 0.0074228062 -0.021959469 1.6341335e-05
-0.1913157 0.015662596 -0.046674967 0.99981999 0.0057546045 -0.018078484 3.4245761e-05
0.19126654 0.01307381 -0.044845067 -0.9997744 0.0068041929 -0.020121539 3.6497608e-05
-0.19137076 0.027716199 -0.044860724 0.99976075 0.0076149004 -0.020505754 1.6884132e-05
0.19128448 0.026125506 -0.040534519 -0.99973732 0.0095247654 -0.020844921 3.2888925e-06
-0.1913593 0.033469837 -0.041418176 0.99977028 0.0070490073 -0.020241013 2.8870572e-05
0.19139448 0.033339776 -0.043525718 -0.99976367 0.0084504271 -0.020030884 5.6052031e-05
-0.19151726 0.045655493 -0.045917891 0.99988365 0.0061985222 -0.01393821 0.00012876763
0.19148681 0.045451488 -0.044113398 -0.99979293 0.0044868486 -0.01985074 9.778473e-05
-0.19158036 0.053637464 -0.047396887 0.99985516 0.0084459633 -0.014778337 0.00014365517
0.19149743 0.052002594 -0.041596103 -0.99978906 0.0042319251 -0.020099103 4.1079395e-05
-0.19152436 0.065603986 -0.043003909 0.99976516 0.0035683631 -0.021373432 7.2334158e-05
0.19150156 0.06448701 -0.041078925 -0.9998154 0.00019265831 -0.01921116 1.8914143e-05
-0.19155458 0.075175241 -0.045017987 0.99977809 -0.00049947877 -0.021062374 0.00010724161
0.19152141 0.07645335 -0.042538598 -0.99979603 0.0016827867 -0.020124646 7.930406e-05
-0.1915701 0.08563526 -0.046312694 0.99985021 -0.0003721992 -0.01730244 0.00011731622
0.19159958 0.085963264 -0.048642896 -0.99987179 0.0014252792 -0.015950313 9.5503477e-05
-0.19153896 0.096773356 -0.043873798 0.99977666 0.00087721163 -0.021113452 1.2024186e-05
0.19156516 0.094701901 -0.046302419 -0.99981135 -4.9993108e-05 -0.019424375 9.4070478e-05
-0.19152232 0.10590756 -0.042155694 0.99979377 0.0011000627 -0.020278905 1.955203e-05
0.191517 0.10648 -0.041561849 -0.99976265 0.0012468426 -0.021750666 2.0756977e-05
-0.19156671 0.11900879 -0.046561956 0.99975449 0.0014934009 -0.022108775 5.1006711e-05
0.19153774 0.11581741 -0.043729465 -0.99971765 0.0017860327 -0.02369372 4.0124534e-05
-0.19157454 0.12062307 -0.046937555 0.99975336 0.0013859037 -0.022165788 4.5708082e-05
0.19154584 0.12351211 -0.044168387 -0.99972242 0.00032281168 -0.023558216 6.3651045e-05
-0.19157103 0.13454416 -0.0465561 0.99972987 0.00038025551 -0.023240497 6.900444e-05
0.19156593 0.13380453 -0.046029285 -0.99970275 0.00015704881 -0.024380511 3.8803315e-05
-0.19154473 0.14353438 -0.04346922 0.99971867 -0.00057674095 -0.023711639 5.0008413e-05
0.19155686 0.14465764 -0.044714279 -0.99975592 -0.0021670968 -0.021985838 8.3680512e-05
-0.19156674 0.15634979 -0.045428958 0.99967891 -0.0022817187 -0.025234986 0.00010195502
0.19157411 0.15208048 -0.046358705 -0.99979812 -0.00027432799 -0.020092372 5.7329642e-05
-0.19158177 0.16828306 -0.046690375 0.99970448 -0.00053982768 -0.024302945 8.0222693e-05
0.19154663 0.1622642 -0.043072835 -0.99975216 -0.00029065768 -0.022261862 1.0069488e-05
-0.1915563 0.1745683 -0.04374364 0.99967521 -0.0022385074 -0.025386203 4.4259203e-05
0.1915728 0.17735951 -0.045445483 -0.99979532 0.00013080737 -0.020227388 4.1488325e-05
-0.19156373 0.18740259 -0.044157077 0.99972892 0.0018171552 -0.023212193 3.8424794e-05
0.19160381 0.18716148 -0.0485029 -0.9998064 0.0012721079 -0.019632928 5.5273409e-05
-0.19157365 0.19463426 -0.045010611 0.99973446 0.0020397555 -0.022952082 4.9895825e-05
0.19160488 0.19537815 -0.048370689 -0.99967974 0.0091343587 -0.023601186 0.00013105615
-0.19159488 0.20352861 -0.046929769 0.9999423 -0.0090682199 -0.0057557649 0.0047539915
0.19160753 0.20459858 -0.048149295 -0.99701375 -0.068532102 0.035594355 0.017664112
-0.1915314 0.21212344 -0.041443389 0.99770129 -0.056896966 0.036809705 0.028188474
0.19164701 0.21039174 -0.0482019 -0.98898906 -0.13517052 0.060246952 0.045412604
-0.19246575 0.2249034 -0.045933172 0.97297853 -0.16157086 0.16494775 0.12110507
0.19219258 0.22686049 -0.040427703 -0.94781518 -0.25023454 0.19755779 0.080023564
-0.19300671 0.23407729 -0.045836031 0.99230367 -0.10959409 0.057642635 0.12007416
-0.1704472 0.23494856 -0.049365554 0.11599585 -0.76936448 0.62819052 0.11317986
-0.16168709 0.23797154 -0.04419947 -0.053841639 -0.69660062 0.71543592 0.096947543
-0.15502511 0.23659305 -0.043882351 0.035353176 -0.70500958 0.70831609 0.11661601
-0.13602275 0.23713696 -0.044805195 0.47626081 -0.65482795 0.5868355 0.17512268
0.1349335 0.23873354 -0.048001565 -0.76846302 -0.54733872 0.33148897 0.13496625
0.14584449 0.23503247 -0.044376791 -0.25101289 -0.82433784 0.50740492 0.14836973
0.15788123 0.23428865 -0.04746734 -0.041103005 -0.79528844 0.60483623 0.10290162
0.16256234 0.23612496 -0.046013519 0.082191281 -0.704849 0.70457971 0.088538155
0.17196934 0.23576164 -0.048883747 -0.23966326 -0.73612642 0.63299239 0.14537841
0.19286391 0.23285055 -0.044552185 -0.91226614 -0.24096423 0.33122009 0.10176934
-0.19155721 0.24586372 -0.044239033 0.99956673 0.016852776 0.024128178 0.1863948
-0.18671131 0.24566106 -0.044292763 0.38771749 -0.63930172 0.66405451 0.24122538
-0.17906679 0.24437046 -0.043330468 0.046617884 -0.62088388 0.78251517 0.18648124
-0.16283092 0.24144146 -0.041297916 -0.098480456 -0.65867972 0.74595076 0.090147525
-0.15782541 0.24138555 -0.040125076 -0.0060413 -0.64028394 0.76811457 0.11456603
-0.13493356 0.24296561 -0.044692598 0.74061704 -0.48632154 0.46365687 0.17066352
0.13493349 0.24432312 -0.044844482 -0.78944719 -0.41077593 0.45610994 0.15684199
0.15531258 0.24040283 -0.040164374 0.058701266 -0.54538596 0.83612692 0.12449636
0.16655082 0.24280527 -0.04129963 -0.077291138 -0.5422861 0.83663124 0.11996806
0.17686452 0.24184215 -0.044425648 -0.31170705 -0.59006435 0.74475688 0.16751081
0.185444 0.24514875 -0.044347104 -0.8293063 -0.33320165 0.4485842 0.19889969
-0.18684685 0.25746909 -0.048663285 0.9800837 0.05221194 -0.19159831 0.20871055
-0.15739493 0.2560938 -0.048983343 0.23890638 -0.4546282 0.85804248 0.27927667
-0.14952573 0.25726625 -0.048346195 0.81882048 -0.22902392 0.52638495 0.25513482
-0.13493356 0.25442964 -0.04805528 0.96886784 -0.1363323 0.20666046 0.13680619
0.1349335 0.25298971 -0.045745961 -0.91613293 -0.1668199 0.36451545 0.16708817
0.14705674 0.25503668 -0.049540605 -0.7902168 -0.2252907 0.56991363 0.22994158
0.15472117 0.25746459 -0.04823938 -0.30695906 -0.19928995 0.93062323 0.23305149
0.16363835 0.25776163 -0.048090667 -0.05872272 -0.17342021 0.98309571 0.24643084
0.17493352 0.2576212 -0.048118126 0.074571349 -0.49641004 0.86487925 0.28434375
0.18315661 0.25700188 -0.048467971 -0.99599141 0.019261543 0.087350003 0.22133872
-0.19014093 0.26076475 -0.048385646 0.99668622 -0.075457841 -0.030376099 0.14983219
-0.18788025 0.2654326 -0.044956047 0.99358749 -0.099002063 -0.054611545 0.1981391
-0.1732239 0.26619193 -0.044558436 -0.078935698 -0.15291063 0.98508245 0.25075069
-0.16586158 0.26205742 -0.046299618 -0.071013197 -0.18036303 0.98103327 0.24327661
-0.15346961 0.26133597 -0.046635233 0.56787735 -0.057617102 0.82109416 0.24535652
-0.14559184 0.26746762 -0.047596123 0.91351503 -0.13588743 0.38343823 0.22854564
-0.13493356 0.26632783 -0.044553585 0.95507967 -0.015388153 0.29594916 0.1475115
0.1349335 0.26796716 -0.044213042 -0.95074785 -0.00054002478 0.3099649 0.11130711
0.1457036 0.26495454 -0.046576437 -0.89216673 0.084701851 0.44369385 0.22058351
0.1542324 0.2646873 -0.045223545 -0.39218181 0.012667267 0.91980052 0.24870874
0.1649226 0.26701921 -0.04421987 0.086712912 0.025237661 0.99591362 0.21939282
0.17686996 0.26875535 -0.043461651 -0.2298526 -0.073783495 0.97042453 0.24313393
0.18438007 0.26402056 -0.046095025 -0.98381513 -0.073285855 0.16351439 0.21743038
-0.19254892 0.27843294 -0.045392603 0.99871826 0.018186608 -0.047233775 0.15055446
-0.18569757 0.27438352 -0.042134106 0.98930156 -0.14587198 -0.0019309601 0.20036814
-0.17503899 0.27800784 -0.041388903 -0.14831588 -0.01673427 0.98879838 0.2101436
-0.1637809 0.27228025 -0.042553961 0.12088492 -0.083702296 0.98913133 0.21207002
-0.15083386 0.27532002 -0.041968416 0.48156705 -0.10911829 0.86958981 0.19836813
-0.14791314 0.27858138 -0.041960064 0.44207934 -0.086417392 0.89280343 0.20160161
-0.13493356 0.27773011 -0.042910095 0.85489273 -0.070090994 0.51404834 0.15568595
0.1349335 0.27941075 -0.048260108 -0.98476166 -0.04405025 0.16823779 0.1320937
0.14535649 0.27368072 -0.043443963 -0.68076825 0.0096584186 0.73243523 0.22039074
0.15586369 0.27640498 -0.041736688 -0.26830986 0.025922881 0.96298379 0.1979674
0.1660993 0.27590516 -0.041818921 -0.078247547 -0.046032678 0.99587071 0.21771468
0.18726204 0.27673632 -0.044651113 -0.97451252 -0.017546263 0.22364555 0.18991159
-0.19192791 0.28406006 -0.044183441 0.99740088 -0.040487301 -0.059600689 0.13629593
-0.18174505 0.28617668 -0.040147256 0.98246855 -0.057990968 0.17717972 0.29611859
-0.17311271 0.28510234 -0.040378004 -0.07579913 0.090169504 0.99303776 0.21916139
-0.16537851 0.28366241 -0.040483475 0.19110167 -0.13769279 0.97186458 0.17143114
-0.15702763 0.2881335 -0.040063459 0.091935262 -0.042132616 0.99487323 0.18481782
-0.14581609 0.28511527 -0.044573952 0.82699293 -0.025567241 0.56163067 0.22344445
-0.13493356 0.28481308 -0.044277746 0.94363612 0.083115861 0.32037872 0.15733297
0.1349335 0.28659132 -0.045421481 -0.96091163 -0.069810994 0.26790911 0.12958567
0.1427677 0.28435904 -0.044164982 -0.67524415 -0.072704971 0.73400229 0.21510789
0.15539269 0.28496972 -0.040309601 -0.20335932 0.031526763 0.97859645 0.19969583
0.16499698 0.2842837 -0.040281154 -0.11474468 -0.14839508 0.98224872 0.18122698
0.17892069 0.28772831 -0.0400436 -0.62846822 -0.026060836 0.77739859 0.25239074
0.18347314 0.28468949 -0.041170258 -0.86976391 -0.073784314 0.48792067 0.2456466
-0.19274965 0.29505444 -0.046229064 0.99666566 0.021476112 -0.078717552 0.15254985
-0.1863689 0.29360279 -0.040039163 0.98977655 -0.066236049 0.12631391 0.21232234
-0.17543337 0.29358691 -0.040047772 -0.13466769 -0.0098137772 0.99084222 0.22752203
-0.16367812 0.29679456 -0.040056292 0.12300504 0.097731791 0.98758203 0.21585739
-0.15330704 0.29700455 -0.040064398 0.25661916 -0.030106016 0.96604365 0.18361564
-0.14545345 0.29589069 -0.044515055 0.640957 0.071678661 0.76422268 0.21709187
-0.13493356 0.29451853 -0.043895166 0.93052649 0.014610214 0.36593297 0.15167925
0.1349335 0.29473537 -0.043693405 -0.96329105 -0.033107433 0.26640987 0.15406816
0.14328046 0.29442433 -0.042308837 -0.59154195 0.0067760525 0.80624574 0.17440085
0.15965006 0.29629052 -0.04005684 -0.14102155 -0.079500437 0.98680925 0.18077683
0.16548423 0.29454917 -0.040052645 -0.062801316 -0.095912188 0.99340671 0.19970068
0.17673661 0.29619449 -0.040043425 -0.23551238 -0.021516513 0.9716332 0.24478574
0.18808049 0.29532725 -0.044270203 -0.99726379 0.018561967 0.071557529 0.20940952
-0.19292377 0.30687723 -0.046406776 0.99567974 0.042014886 -0.082804665 0.1357882
-0.1804806 0.30713966 -0.041504912 0.45527104 -0.030307384 -0.88983691 0.25176588
-0.17593403 0.30740705 -0.041557722 0.10611568 -0.11633175 -0.98752534 0.23437111
-0.16335256 0.30419606 -0.040912539 0.0945177 0.066078715 0.99332768 0.21504097
-0.15358308 0.30242845 -0.040556908 0.28111717 0.081565127 0.95620096 0.19626918
-0.14828154 0.30412132 -0.041369047 0.47130516 0.066121601 0.87948817 0.2104537
-0.13493356 0.30576816 -0.044161648 0.9323048 0.067233339 0.35536951 0.16267516
0.1349335 0.30314717 -0.045027532 -0.94515562 0.010158868 0.32646227 0.13494617
0.14171273 0.30774975 -0.044484936 -0.79429013 -0.037641682 0.6063714 0.19109489
0.15527654 0.30884537 -0.041843012 -0.2536236 -0.022663267 0.96703744 0.21086177
0.16414708 0.30374148 -0.040822186 -0.076336414 -0.052718617 0.99568748 0.19358501
0.17507839 0.30418113 -0.040912025 -0.51017988 0.31859022 0.79888469 0.24569336
0.18608443 0.30328262 -0.042653266 -0.94599843 0.12202689 0.30032727 0.21072219
-0.1934168 0.31315315 -0.048167214 0.99853009 -0.024099048 -0.048547916 0.12405193
-0.18439341 0.31629419 -0.043959826 0.95402133 0.0093577094 -0.29959291 0.23530863
-0.17629333 0.3129099 -0.042682286 0.28378573 -0.0022608931 -0.95888501 0.2390649
-0.16195306 0.31336623 -0.042749025 0.24794105 0.057908107 0.96704292 0.19445032
-0.14628699 0.31460446 -0.046014715 0.75796473 0.056283213 0.64986277 0.22411388
-0.13493356 0.31638342 -0.048116922 0.97758758 -0.11719643 0.17489293 0.13100986
0.1349335 0.31167322 -0.041833628 -0.9421401 0.035326682 0.33335277 0.11362729
0.14332394 0.31618544 -0.046266619 -0.83498806 -0.0122063 0.55013269 0.19651885
0.15397549 0.31665361 -0.043826938 -0.3472611 0.002425323 0.9377653 0.20895267
0.16517124 0.31443033 -0.043287348 0.063533336 -0.1261549 0.98997402 0.19169934
0.17297976 0.31532389 -0.043575067 -0.10124172 -0.08262568 0.99142474 0.23234977
0.18289156 0.31835189 -0.044576421 -0.86428481 0.27848566 0.41887653 0.2434739
-0.18596415 0.3246035 -0.047241271 0.99335444 0.012836716 -0.1143777 0.22359048
-0.17076723 0.32805619 -0.048696309 -0.046220943 0.038885687 0.99817413 0.28765953
-0.16457361 0.3261663 -0.047874887 -0.40783128 -0.33939713 -0.8476339 0.24676184
-0.15548168 0.32630035 -0.047883544 0.55684882 0.092447557 0.82545316 0.25118712
-0.14796656 0.32215855 -0.047662452 0.92090648 -0.038327564 0.38789454 0.22319865
-0.13493356 0.32220513 -0.046227779 0.9657703 -0.023509962 0.25833124 0.1688001
0.1349335 0.32409158 -0.045073319 -0.94696343 -0.019531647 0.32074741 0.12040205
0.14616853 0.32307956 -0.047021102 -0.88252926 0.019466316 0.46985441 0.2218696
0.1518122 0.32280755 -0.046413679 -0.53327787 0.10615816 0.83925277 0.23177862
0.16549499 0.32425138 -0.047044031 -0.071571268 0.041919976 0.9965542 0.26122543
0.17618087 0.32649663 -0.048039876 -0.91573775 0.27394632 -0.29390103 0.27574515
0.18591739 0.32277203 -0.047238477 -0.98221058 0.1646826 0.090232968 0.16946985
-0.19187839 0.3343921 -0.043271974 0.99702692 -0.055873465 0.053060941 0.1440931
-0.18602224 0.33706293 -0.041860145 0.98684734 -0.036768902 0.15741791 0.21417123
-0.13493356 0.33819181 -0.040419336 0.90695143 -0.073737115 0.41473114 0.17257312
0.1349335 0.33400875 -0.045588478 -0.97660232 0.07875926 0.20011216 0.12306056
0.18662393 0.33666992 -0.041910116 -0.9625113 0.00090219546 0.27124003 0.1832128
0.19187343 0.33780199 -0.043529127 -0.98212665 0.032975007 0.18531033 0.13679139
-0.1917612 0.34468132 -0.043399207 0.99417526 -0.092641756 0.055072594 0.15094428
-0.18510677 0.34436873 -0.047268439 0.97819608 -0.07184992 0.19485922 0.24335337
-0.17713207 0.34739581 -0.044919673 -0.36234272 -0.41934612 -0.83238006 0.24791843
-0.13493356 0.3449384 -0.045649953 0.98430622 -0.02299067 0.17496465 0.15221176
0.13493349 0.34509289 -0.045114517 -0.98000294 0.029068312 0.19684838 0.13010669
0.17734599 0.34852859 -0.046064056 0.30168074 -0.64424753 -0.70280433 0.28456163
0.18441886 0.34320074 -0.045918543 -0.9630428 0.059511878 0.26269147 0.16027367
0.19158378 0.34355617 -0.046647668 -0.98884332 -0.021627437 0.14738065 0.13563938
-0.19054687 0.35453352 -0.044461228 0.98704046 -0.065015048 0.14671117 0.19120257
-0.17308009 0.35437167 -0.048987247 -0.51997197 -0.71019232 -0.47461146 0.23710862
-0.16463374 0.35652399 -0.045951042 0.019556772 -0.77468944 -0.63203937 0.23136881
-0.13493356 0.35371059 -0.046878476 0.93305773 0.34660298 0.096278667 0.21799639
0.1349335 0.3518354 -0.040343717 -0.94732356 0.18926603 0.25837293 0.16154803
0.15751126 0.35611492 -0.040164843 -0.37012449 -0.73911929 -0.56277043 0.19390017
0.16478652 0.35581321 -0.044802152 0.025731863 -0.98077816 -0.19342199 0.21870188
0.17459354 0.35279849 -0.048467673 0.26688734 -0.81790638 -0.50970608 0.24367638
0.18945217 0.35979322 -0.0441733 -0.9803074 -0.061644029 0.18760973 0.099721283
0.1902582 0.35577148 -0.04314113 -0.98873413 0.025916046 0.14742146 0.10246152
-0.1884115 0.36529219 -0.044668272 0.9687947 0.0088730203 0.2477057 0.12604453
-0.16358528 0.36014718 -0.049518935 0.0073038568 -0.94505793 -0.3268213 0.20184965
-0.15313666 0.36247867 -0.045067795 0.20658019 -0.87111759 -0.44550943 0.15333004
-0.14413592 0.36478305 -0.045240127 -0.1409166 -0.91071087 -0.38826302 0.18778263
-0.1360409 0.36376214 -0.044110421 -0.38848892 -0.84265214 -0.37284544 0.18166693
0.13633749 0.3644526 -0.04562746 0.61602104 -0.74345773 -0.2603626 0.1708952
0.1471051 0.36307818 -0.041062828 0.0041304855 -0.90373349 -0.42807537 0.21264635
0.15257922 0.36227965 -0.04451552 -0.1910851 -0.88061321 -0.43359759 0.19338624
0.18797049 0.36790767 -0.043453131 -0.97133899 -0.097187646 0.21692181 0.085920088
-0.18587336 0.37670568 -0.043475371 0.98982418 -0.026706135 0.13976686 0.096822836
0.18693557 0.37238294 -0.042901777 -0.97093201 -0.068530418 0.22933508 0.082335174
-0.18342686 0.38600624 -0.041817471 0.96957994 -0.24424304 -0.016124336 0.0001803967
0.1840167 0.3840774 -0.04631824 -0.98579335 -0.16232333 0.043158375 0.022697253
-0.18067218 0.3982296 -0.045218412 0.96717352 -0.2524789 -0.02880553 0.00036529565
0.17976244 0.3999598 -0.040490527 -0.96161759 -0.27124712 -0.041431006 0.00066750892
0.18155338 0.39457643 -0.045896932 -0.96794283 -0.25009143 -0.02325673 0.0003875212
-0.17811877 0.40813589 -0.043747395 0.95708388 -0.28319022 -0.061594136 0.0014322327
0.17935584 0.40387058 -0.045793042 -0.96365696 -0.26394376 -0.041219495 0.00081194314
-0.17652953 0.4143827 -0.044323534 0.94327813 -0.320824 -0.085429661 0.0029896628
0.17610595 0.41633052 -0.044522945 -0.94190073 -0.32523319 -0.083943009 0.0037404199
-0.17424098 0.42283785 -0.045565017 0.91206151 -0.39316019 -0.11648542 0.0087879933
0.17370835 0.4250409 -0.047038749 -0.92460155 -0.36250058 -0.11706963 0.0062305615
-0.17184336 0.43126354 -0.044434201 0.87561405 -0.45401353 -0.16483852 0.011178054
0.16951281 0.43643209 -0.044654291 -0.83601004 -0.48773149 -0.25140649 0.021436187
0.17092517 0.4345631 -0.044578664 -0.85104418 -0.47138524 -0.23134352 0.018883474
-0.16295338 0.44700393 -0.043273509 0.74004984 -0.59786707 -0.30802795 0.018362995
0.16462184 0.44523001 -0.045820571 -0.76611453 -0.56614798 -0.30421206 0.027017623
-0.1530616 0.4584142 -0.04527168 0.59534758 -0.68387634 -0.42175147 0.028001599
0.15740083 0.45451161 -0.042735159 -0.62595755 -0.66797525 -0.40247503 0.02300394
0.16002463 0.45362049 -0.044655606 -0.64088476 -0.66690695 -0.38013381 0.026623549
-0.1537739 0.46047556 -0.044470623 0.59006977 -0.67021614 -0.45014226 0.026746109
-0.1443816 0.46522194 -0.04416189 0.53655821 -0.71318823 -0.45107412 0.025842376
-0.13688539 0.46805927 -0.041651949 0.3938944 -0.72235787 -0.56837153 0.03648565
-0.1012924 0.46915674 -0.040601663 0.078672573 -0.71285474 -0.69688493 0.03957554
-0.093026087 0.46444651 -0.040918998 0.028962564 -0.71687925 -0.69659555 0.046151821
-0.088480517 0.46924734 -0.040938996 0.073447444 -0.71913451 -0.69097823 0.046042908
-0.07233382 0.46599722 -0.040846005 0.028443446 -0.69695199 -0.71655345 0.068406112
-0.067295097 0.46831912 -0.040995654 0.10254534 -0.66710788 -0.73786956 0.067674085
-0.048153453 0.46916837 -0.040097348 0.096742056 -0.70080268 -0.70676482 0.085752212
0.049566835 0.46913862 -0.040904522 -0.040026341 -0.6654914 -0.74533159 0.072164789
0.051658519 0.46951115 -0.040992629 -0.040040035 -0.66549003 -0.74533206 0.072168909
0.062408488 0.46897456 -0.041003212 0.0017030505 -0.67556179 -0.73730153 0.068381868
0.073086113 0.46672565 -0.04099803 -0.037011333 -0.66908491 -0.74226379 0.073498964
0.084933519 0.46647364 -0.04095158 -0.098022982 -0.69237942 -0.71484429 0.059302688
0.097218454 0.46723023 -0.040903892 -0.15057965 -0.71133417 -0.68653435 0.053910289
0.10186046 0.46403706 -0.040458865 -0.11191541 -0.74608016 -0.65638357 0.059503887
0.14375642 0.4666062 -0.0445996 -0.48191807 -0.73760611 -0.47296104 0.028374473
0.15213177 0.461638 -0.049585633 -0.62529415 -0.7037431 -0.33727279 0.032457784
-0.13463899 0.47308159 -0.046836816 0.39085674 -0.81652087 -0.42488194 0.044626851
-0.1257187 0.47594771 -0.043973573 0.34333333 -0.78777331 -0.51140529 0.048199639
-0.11905479 0.4782933 -0.042307533 0.24806204 -0.76467681 -0.59475589 0.045827601
-0.10239321 0.47296572 -0.040316004 0.12896304 -0.73996317 -0.66016889 0.038342528
-0.093253322 0.4767811 -0.040923811 0.070803054 -0.7347753 -0.67460513 0.043403506
-0.085388862 0.47374207 -0.040946875 0.080709256 -0.73698187 -0.6710766 0.048461262
-0.077882409 0.47368613 -0.040970121 0.086650841 -0.69080746 -0.71782768 0.046766724
-0.067243308 0.47766379 -0.040961251 0.068939343 -0.58087885 -0.81106538 0.042741712
-0.056142766 0.47512946 -0.040966481 0.069235452 -0.60551149 -0.79281926 0.05680595
-0.044401366 0.4701387 -0.040984102 0.024097415 -0.68208522 -0.73087555 0.07545048
-0.033315592 0.47502083 -0.040836561 -0.0030198547 -0.63915735 -0.76907003 0.066796958
-0.026738051 0.47544274 -0.04096913 0.069064856 -0.68506807 -0.72519773 0.06287127
-0.017701581 0.47498146 -0.040976688 -0.010250635 -0.70217812 -0.71192759 0.06872768
-0.0035956749 0.4762674 -0.040988062 -0.037095789 -0.65925515 -0.75100368 0.061467845
0.0032699618 0.47397423 -0.040980157 -0.024357513 -0.71336448 -0.70036972 0.072657131
0.010981446 0.47358641 -0.040985972 0.016651405 -0.65163964 -0.75834584 0.062297456
0.024238199 0.47480342 -0.040973004 0.032428592 -0.61771977 -0.78572935 0.069062024
0.037228316 0.47545823 -0.040962189 -0.085981503 -0.64187068 -0.7619772 0.062145848
0.04456709 0.4747754 -0.040961802 -0.10327471 -0.6605981 -0.7436024 0.07206659
0.055026621 0.47710973 -0.040955313 -0.10902318 -0.66222268 -0.74133325 0.067470543
0.063291006 0.47362083 -0.040979125 -0.015964197 -0.64053088 -0.76776642 0.067578793
0.075790085 0.47582889 -0.040961433 -0.10761156 -0.69090575 -0.71489084 0.059016466
0.08527258 0.47659767 -0.040940192 -0.12274849 -0.69698894 -0.70649785 0.051901631
0.095962569 0.47332388 -0.040911615 -0.13979833 -0.67557073 -0.72392029 0.045179527
0.10211752 0.47662532 -0.040388692 -0.17448491 -0.67519325 -0.71670711 0.039931949
0.11375034 0.47705391 -0.040750928 -0.19583166 -0.68453848 -0.70218021 0.039695699
0.12516393 0.4765878 -0.044548843 -0.29042751 -0.73558259 -0.61202139 0.049543329
0.13402538 0.47222224 -0.043779004 -0.34838605 -0.72224838 -0.59748173 0.032654315
-0.118421 0.480391 -0.04336378 0.29912826 -0.7904461 -0.53452528 0.046652965
-0.10550906 0.48198539 -0.042026144 0.14238448 -0.73830301 -0.6592688 0.042858142
-0.097702213 0.48321801 -0.041606635 0.13937357 -0.7352252 -0.66333926 0.047439747
-0.084992573 0.48487312 -0.0415718 0.084014609 -0.68134779 -0.72712219 0.051571503
-0.076785944 0.48342532 -0.040954243 0.12634276 -0.66785562 -0.73348927 0.047503121
-0.067944676 0.4863739 -0.040916 0.052294407 -0.64144665 -0.7653833 0.054920614
-0.055065468 0.48767203 -0.040911593 0.094896592 -0.63002867 -0.77075189 0.059450414
-0.044042099 0.48489824 -0.040925991 0.052663814 -0.66510165 -0.74489343 0.056262285
-0.035306394 0.48402715 -0.040933609 0.075227901 -0.66293138 -0.74489111 0.063099958
-0.027354395 0.48589775 -0.040933665 0.034946997 -0.64236879 -0.76559848 0.057137698
-0.014591183 0.48606026 -0.040951755 0.011578131 -0.6547178 -0.75578469 0.051328059
-0.0044923536 0.48539773 -0.040969796 0.01337655 -0.68137282 -0.73181432 0.057805475
0.0025656938 0.48077631 -0.04098054 -0.023823805 -0.64538658 -0.76348454 0.055904437
0.015221086 0.4864842 -0.040950507 -0.022351021 -0.61849791 -0.78546852 0.055059865
0.023452355 0.48397675 -0.040943224 0.03296512 -0.60959113 -0.79203022 0.053855538
0.034267526 0.4834004 -0.040936507 -0.046314921 -0.65097028 -0.757689 0.059165187
0.056631826 0.48478177 -0.040922273 -0.014360622 -0.63508838 -0.77230597 0.057657514
0.065685637 0.48332825 -0.040931772 -0.030617043 -0.62922502 -0.77661985 0.058867905
0.077435955 0.48581463 -0.0412644 -0.093382545 -0.65111387 -0.75321335 0.054037269
0.08460775 0.48562345 -0.041663185 -0.15812461 -0.64259779 -0.74970978 0.058033668
0.096717618 0.48780099 -0.045972276 -0.23217869 -0.76057911 -0.60631055 0.067359358
0.10502508 0.48320714 -0.044701122 -0.2330762 -0.72705573 -0.64580613 0.058377713
0.11272786 0.48127449 -0.044387847 -0.25951853 -0.69604087 -0.6694603 0.051027697
-0.084725142 0.49067828 -0.046011124 0.13013494 -0.71821249 -0.68354636 0.077702589
-0.066499524 0.49452463 -0.047702238 0.19040726 -0.86501199 -0.46421912 0.080618724
-0.054288011 0.49490938 -0.045181938 0.045514379 -0.72690165 -0.68523169 0.086896643
-0.043395784 0.49738947 -0.045916259 0.054126475 -0.72217482 -0.68958968 0.10027304
-0.037142254 0.49727979 -0.044461735 0.042278454 -0.61227053 -0.78951722 0.07260827
-0.024188934 0.49690223 -0.046221152 0.077625394 -0.75490445 -0.65122473 0.09410923
-0.015023815 0.49852037 -0.044630412 -0.022596112 -0.77351242 -0.63337809 0.098836094
-0.0060894028 0.49696019 -0.04451476 0.084456898 -0.61468309 -0.78423965 0.075050898
0.0037225406 0.49773112 -0.045467477 -0.04389929 -0.73130214 -0.68063945 0.097284511
0.015556106 0.49778986 -0.044230059 0.063364714 -0.6477043 -0.75925225 0.090318859
0.02376378 0.4967652 -0.044946052 -0.092481464 -0.74270117 -0.66320598 0.10135528
0.036604963 0.49676585 -0.044650283 -0.037262876 -0.75135386 -0.65884662 0.096550584
0.043972641 0.49583355 -0.044228118 -0.083470263 -0.69563872 -0.71352613 0.083679654
0.058328323 0.49356633 -0.044128545 -0.030224836 -0.62807935 -0.77756208 0.068024233
0.06405361 0.49374375 -0.045405243 -0.075303204 -0.71521771 -0.69483316 0.084024481
0.076677188 0.49246743 -0.048544556 -0.08364892 -0.81807077 -0.56900179 0.078916259
0.0838596 0.49087393 -0.045266427 -0.18547745 -0.72442508 -0.66393256 0.070414081
-0.0091905305 -0.49081388 -0.038235608 0.067262605 0.87913448 -0.47180328 0.0092369728
0.003397739 -0.49047619 -0.036137871 0.0034701412 0.87551522 -0.48317817 0.013368345
0.0103877 -0.49096227 -0.038962089 -0.067015074 0.88643563 -0.45797461 0.0093301563
-0.043669093 -0.48192871 -0.034776717 0.17056482 0.79486001 -0.58232743 0.0063581537
-0.033750746 -0.48341206 -0.03458437 0.16799384 0.7919361 -0.58703941 0.0071795867
-0.024396384 -0.4847216 -0.033863835 0.13672192 0.80637842 -0.57537901 0.011535125
-0.013337689 -0.48664013 -0.034869742 0.077290252 0.82192183 -0.56433207 0.013101133
-0.0047239587 -0.4862763 -0.033652727 0.046077128 0.80502558 -0.59144795 0.016889883
0.0046197339 -0.48826116 -0.035914004 -0.010242674 0.8433131 -0.53732502 0.015399271
0.012822121 -0.48629457 -0.033836331 -0.10552865 0.79232049 -0.60090929 0.013862862
0.025852248 -0.48614267 -0.036174312 -0.13196369 0.82231051 -0.5535261 0.010112822
0.033908982 -0.48336306 -0.034440655 -0.16776778 0.79782522 -0.57907587 0.0082244677
0.042896476 -0.48247236 -0.036382068 -0.174721 0.79785419 -0.576976 0.0064112507
0.05205366 -0.48102492 -0.039709851 -0.21105938 0.83003736 -0.51622862 0.0032231978
-0.083427973 -0.47253025 -0.038394071 0.37441289 0.72957617 -0.57230556 0.018423013
-0.078921176 -0.47207999 -0.036035232 0.31725809 0.7401002 -0.59295785 0.013110697
-0.064571172 -0.47391063 -0.034629166 0.23084044 0.75616205 -0.61231655 0.005443858
-0.056485966 -0.47400633 -0.030060984 0.20303835 0.71543998 -0.66852152 0.0082115345
-0.04517208 -0.47829548 -0.030521257 0.16580927 0.75979364 -0.62866598 0.0084663117
0.045475017 -0.47847924 -0.031509507 -0.18398902 0.75461638 -0.629843 0.008355977
0.056408245 -0.47406045 -0.030874334 -0.19247583 0.73389596 -0.65142131 0.005760957
0.066201001 -0.47202167 -0.03349233 -0.23983118 0.74548888 -0.62187409 0.0066762301
0.073447712 -0.47405466 -0.037049264 -0.28960761 0.75449926 -0.58894676 0.0094288616
0.084702298 -0.4703027 -0.036118597 -0.33312038 0.74379385 -0.57948387 0.012354655
-0.094408974 -0.4636696 -0.034262031 0.48617712 0.65798342 -0.57505631 0.048744563
-0.086770073 -0.46883017 -0.034773722 0.41430339 0.70191669 -0.57936656 0.032091059
-0.073689461 -0.46969908 -0.032761179 0.30711561 0.74077231 -0.59744155 0.013081388
0.075496376 -0.46859467 -0.031399593 -0.27617046 0.73134714 -0.62358737 0.012806533
0.085105948 -0.46621931 -0.030656913 -0.36107931 0.71200317 -0.60222358 0.029946595
0.095325753 -0.46237469 -0.036789186 -0.49538568 0.67914134 -0.54162729 0.058710948
-0.11340279 -0.4540242 -0.037442822 0.51295042 0.58932525 -0.62416154 0.1293558
-0.10607954 -0.45638049 -0.035992667 0.55565131 0.62013137 -0.55379474 0.090154536
-0.097278841 -0.45397463 -0.036921252 0.51400518 0.63354611 -0.57828885 0.06680423
0.099253289 -0.45856059 -0.034447037 -0.54080325 0.63369244 -0.55314165 0.074352764
