# .PCD v0.7 - Point Cloud Data file format
VERSION 0.7
FIELDS x y z normal_x normal_y normal_z curvature
SIZE 4 4 4 4 4 4 4
TYPE F F F F F F F
COUNT 1 1 1 1 1 1 1
WIDTH 584
HEIGHT 1
VIEWPOINT 0 0 0 1 0 0 0
POINTS 584
DATA ascii
-0.14561012 -0.17478877 0.02340267 -0.02172748 0.96284169 0.26919109 0.043143112
-0.1351458 -0.17478877 0.020481883 -0.017955793 0.9761678 0.2162731 0.026531858
-0.12871736 -0.17478877 0.029880099 -0.036338013 0.96914798 0.24378605 0.060501661
-0.11292355 -0.17478877 0.029472429 -0.018599812 0.90658289 0.42161772 0.084770806
-0.10266815 -0.17478877 0.027431905 0.041552514 0.94775319 0.31628686 0.056958433
-0.094926096 -0.17478877 0.025050102 0.020653917 0.94208735 0.33473098 0.039425705
-0.076012239 -0.17478877 0.024044301 0.01640461 0.95293665 0.30272517 0.050369158
-0.065991275 -0.17478877 0.025996281 -0.024056718 0.99551243 0.091522112 0.034757454
-0.054695364 -0.17478877 0.024754943 -0.035978116 0.9962942 0.078124963 0.014446187
-0.025353592 -0.17478877 0.026643844 0.046855517 0.90507352 0.42266589 0.068646923
-0.016084677 -0.17478877 0.029213089 0.0030496113 0.89103186 0.45393056 0.080873802
-0.0073954328 -0.17478877 0.023949519 0.007710814 0.94560343 0.32523015 0.040612362
0.0034590289 -0.17478877 0.027774308 -0.0044736629 0.93403494 0.35715356 0.063346401
0.015699906 -0.17478877 0.025209771 0.023614639 0.93670869 0.34931239 0.063744567
0.026029905 -0.17478877 0.028525988 0.025586328 0.90837604 0.41737068 0.065319479
0.03211461 -0.17478877 0.025976658 -0.019566666 0.92781717 0.3725217 0.049447786
0.047493864 -0.17478877 0.027204895 0.01054706 0.9730314 0.23043157 0.057674766
0.055212356 -0.17478877 0.028194601 0.024875991 0.9637512 0.26564029 0.059552338
0.060814131 -0.17478877 0.027238097 0.0050334507 0.96618241 0.25781035 0.06596186
0.074318193 -0.17478877 0.02278894 -0.032161344 0.95135808 0.30640426 0.028779419
0.080018371 -0.17478877 0.028491013 -0.053377446 0.94393921 0.32577527 0.043253977
0.094978832 -0.17478877 0.0258999 -0.27273464 0.82095194 0.50165099 0.12827606
0.10383192 -0.17478877 0.026872359 -0.33851075 0.74141115 0.57941353 0.14450869
0.45915377 -0.17461002 0.027553659 -0.28341731 -0.049124002 -0.95773768 0.10882739
0.46884939 -0.17162685 0.022385282 -0.49467885 -0.5464021 -0.67582375 0.2318473
0.48555464 -0.17466749 0.026064876 -0.52055818 0.76253837 -0.38412797 0.17161433
0.49581558 -0.17012776 0.028406108 -0.68162507 0.69821352 -0.21882665 0.10633279
-0.47679597 -0.16645129 0.025293361 0.68469387 0.013983446 -0.72869658 0.018603571
-0.2359343 -0.16809212 0.026541548 0.86373663 0.33431274 0.37708637 0.11092547
0.10844775 -0.1668954 0.02372653 -0.60517985 0.51335186 0.60846299 0.12556006
0.45568076 -0.16403686 0.027827997 -0.36772251 -0.19197132 -0.90990502 0.12357239
0.46373597 -0.1631543 0.024971964 -0.4505479 -0.34996009 -0.82130045 0.20195147
0.47570619 -0.16431776 0.021512063 0.22171715 0.90656626 0.35913673 0.22844198
0.49727604 -0.16665992 0.024656402 -0.82910705 0.55755931 -0.041341178 0.096234359
-0.47772866 -0.15406445 0.023414953 0.71962726 -0.065668486 -0.69124842 0.023200037
-0.23593429 -0.15420155 0.024411332 0.94877177 0.25616238 0.18496723 0.051681425
0.10844775 -0.15295516 0.022281934 -0.97599959 0.1430013 0.16424218 0.037755549
0.44424772 -0.15137754 0.028232766 -0.44660583 -0.024749026 -0.89438844 0.10710704
0.45531836 -0.15550882 0.028552411 -0.25782111 -0.13407856 -0.95684439 0.17217815
0.46540487 -0.1549446 0.025839688 -0.25740427 -0.19469504 -0.94648659 0.25473341
0.49995148 -0.15160552 0.023636054 -0.99876302 0.04174472 0.027015835 0.10383992
-0.47785696 -0.14113611 0.023233682 0.73815358 -0.022415267 -0.6742602 0.021455012
-0.2359343 -0.14913148 0.020923201 0.98893857 0.086798191 0.12027687 0.014063726
0.10844775 -0.14305894 0.023326194 -0.99359143 -0.036102708 0.10711069 0.026743133
0.44616252 -0.14601603 0.025777422 -0.446551 0.02862766 -0.8943001 0.12196692
0.4550499 -0.14527574 0.028437052 -0.24662822 -0.012413644 -0.96903068 0.19619024
0.46511996 -0.14418408 0.02592396 -0.002836162 0.057140868 -0.99836212 0.23892696
0.47599936 -0.14391059 0.021341231 -0.5375877 0.44040373 -0.71905774 0.26703441
0.4996179 -0.14673501 0.020046633 -0.97450852 -0.11965565 0.18977766 0.11009359
-0.47806081 -0.1355395 0.022836972 0.76388901 0.061083868 -0.64245033 0.014192273
-0.13204902 -0.13280638 0.02624971 0.75459921 0.616916 0.22359519 0.12050486
-0.12576622 -0.13679573 0.025207896 0.5821712 0.77913421 0.23243614 0.10513901
-0.11643052 -0.1383206 0.025491038 0.50255972 0.82823926 0.247898 0.11304163
-0.10660787 -0.13658521 0.025949642 0.50202268 0.83494145 0.22549064 0.14084417
0.019927502 -0.1300994 0.024428057 0.60879427 0.73711044 0.29332191 0.13313746
0.023692712 -0.13085364 0.024185577 0.56013745 0.78510368 0.26430702 0.13110191
0.035332989 -0.13203891 0.024568262 0.38466534 0.88417774 0.2650702 0.13398367
0.044857081 -0.13193215 0.025813585 0.4028931 0.84400678 0.3540194 0.13007563
0.10844775 -0.13358982 0.026855737 -0.99795073 -0.0058509698 0.063719645 0.030510526
0.45443898 -0.13408472 0.028782325 -0.31343248 0.13114479 -0.94051111 0.17143831
0.46372917 -0.13201958 0.026324153 -0.024845429 -0.04438848 -0.99870539 0.18178567
0.47208005 -0.13459343 0.023470663 -0.46285599 0.50696445 -0.72715294 0.24032852
0.48994207 -0.13034315 0.02763884 -0.61924267 -0.66647798 -0.41514534 0.18137066
0.49765313 -0.13719624 0.027396422 -0.86416966 -0.49048012 -0.11242749 0.13024032
-0.47620258 -0.12369484 0.025645839 0.75354749 0.052195836 -0.65531808 0.013334308
-0.23593432 -0.12195563 0.02492574 1 -3.0381985e-05 2.2555751e-05 5.5404151e-05
-0.13397524 -0.12337511 0.025967991 0.89725697 0.32285747 0.30115283 0.10622298
-0.1203941 -0.12325161 0.026782995 0.85514706 0.35489157 0.37785631 0.13042256
-0.11545946 -0.12546298 0.024549782 0.81879121 0.37623766 0.43361983 0.14747062
0.016631778 -0.12657477 0.02598512 0.68906111 0.66909111 0.27840945 0.1168282
0.020420395 -0.12971149 0.029501747 0.60396934 0.76298779 0.23037045 0.12652242
0.036136497 -0.1220606 0.023883425 0.69069171 0.5929606 0.41393548 0.15358809
0.041827645 -0.12586519 0.0233384 0.48294595 0.81142157 0.32917804 0.14213903
0.10844775 -0.12697947 0.029689979 -0.99734217 0.00043865893 0.072857887 0.030549565
0.45470336 -0.12814277 0.028700218 -0.24995218 0.042321548 -0.96733278 0.1129013
0.46620336 -0.12837283 0.025636941 -0.18150868 -0.083855025 -0.97980756 0.18048801
0.47152323 -0.12963291 0.023813514 -0.28251621 0.023136402 -0.95898348 0.22448348
0.48409027 -0.12820642 0.024339534 -0.61679745 -0.66992283 -0.41323626 0.22623099
0.49272367 -0.12819909 0.02540496 -0.76675522 -0.6022175 -0.22230724 0.14792959
-0.47628492 -0.11618584 0.02534733 0.74828678 0.0048698774 -0.66335744 0.016442969
-0.23593429 -0.11859868 0.02404123 1 -2.9291157e-05 2.1872796e-05 5.041781e-05
-0.13309534 -0.11279264 0.022263635 0.93785882 0.075020708 0.33881062 0.10150819
-0.12140675 -0.11769039 0.028374517 0.88161153 0.29269037 0.37026134 0.11415015
-0.11854193 -0.11519215 0.022980737 0.9048245 0.22073303 0.36410108 0.12659435
0.015031063 -0.11669126 0.02287952 0.86519516 0.34155488 0.36712062 0.12568825
0.028520282 -0.11281876 0.024577435 0.84583902 0.3492921 0.4031767 0.13247512
0.032133847 -0.11854154 0.022499261 0.78785086 0.50064671 0.3586697 0.14907448
0.10844775 -0.11911008 0.028950157 -0.99844766 0.04066715 0.038058043 0.032331616
0.45596379 -0.11581518 0.028392781 -0.29597393 -0.042913258 -0.95423156 0.045384873
0.46710792 -0.11587606 0.025394181 -0.30824426 -0.079369329 -0.94799054 0.14280513
0.47469345 -0.11683343 0.021964243 -0.48375314 -0.23752385 -0.84235698 0.1671989
-0.47662091 -0.10742965 0.02563891 0.73519456 0.0060566422 -0.67782909 0.016336815
-0.23593432 -0.10546462 0.02527957 1 -8.6966447e-06 8.7773242e-06 5.1171839e-05
-0.13460334 -0.1028017 0.025353655 0.93838996 0.02883224 0.34437352 0.10431056
-0.11899973 -0.10599221 0.023880184 0.89550924 0.047503933 0.44250041 0.11705082
0.014099557 -0.10593678 0.024197664 -0.91170609 -0.11182331 -0.39533234 0.10203024
0.028899986 -0.10377435 0.0238881 -0.86070102 -0.18340404 -0.47492799 0.12167682
0.030024244 -0.10744118 0.021679293 -0.88015783 -0.28483316 -0.37972656 0.12097695
0.10844774 -0.10499679 0.024998857 -0.99526316 0.081742033 0.052626029 0.058166381
0.45412549 -0.10695249 0.028864101 -0.29575402 -0.0066066277 -0.95524126 0.0014892223
0.46820015 -0.10719457 0.025057407 -0.40894899 -0.12781979 -0.90356123 0.050358925
0.47585383 -0.10386167 0.021433525 -0.59518349 -0.17709062 -0.7838338 0.068315297
-0.47569311 -0.095999599 0.02744443 0.66648048 -0.0067273215 -0.74549216 0.017754346
-0.2359343 -0.091232158 0.022861985 1 -8.0270484e-06 7.0028805e-06 4.3384327e-05
-0.13522568 -0.095317826 0.026458107 0.93199891 0.019326745 0.36194536 0.10083103
-0.12108231 -0.094466917 0.027782939 0.90906471 0.0052052783 0.4166224 0.10380397
-0.11779898 -0.098160304 0.021521065 0.89421558 0.024622465 0.44695896 0.10113837
0.012876417 -0.098683111 0.026801065 -0.94874036 -0.031434815 -0.31448957 0.091813274
0.027681641 -0.094286375 0.026214462 -0.90417719 -0.11719397 -0.41076654 0.11281294
0.030487552 -0.091918163 0.020769034 -0.94662768 -0.064910933 -0.31572565 0.11613389
0.10844775 -0.09760613 0.027404184 -0.99984807 0.015257224 -0.0084278723 0.041378196
0.45528516 -0.097046189 0.028558852 -0.27607095 0.008441234 -0.96110022 0.00079662004
0.46105295 -0.098386504 0.027043298 -0.34374025 -0.0046125581 -0.93905342 0.0049543208
0.47225934 -0.099066138 0.023472955 -0.54363316 -0.0048434613 -0.83930898 0.025199212
-0.47843549 -0.087461755 0.022107933 0.71847904 0.032531254 -0.6947875 0.016070057
-0.2359343 -0.082537085 0.023978636 1 3.7268097e-07 8.7977514e-06 4.156202e-05
-0.1344613 -0.0841396 0.025072951 0.93605304 -0.011815081 0.35166034 0.10194119
-0.12081137 -0.083938479 0.027288919 0.90429115 -0.11405953 0.41139749 0.11269573
-0.11852022 -0.087959506 0.022938069 0.91594398 -0.04808411 0.39841524 0.10640045
0.013015779 -0.084343463 0.025645131 -0.9443357 -0.031494845 -0.32747257 0.097585998
0.027675757 -0.084850281 0.026208799 -0.92293847 -0.037907161 -0.38307643 0.10220364
0.030288575 -0.089415669 0.021159964 -0.93537623 -0.14336528 -0.32329202 0.1073608
0.45170128 -0.080045022 0.029458053 -0.25687245 0.00047875009 -0.96644527 0.00020049186
0.46855778 -0.08148291 0.024945524 -0.45870087 0.013655476 -0.88848585 0.017334452
0.47421938 -0.085178271 0.022462241 -0.58547598 -0.012936979 -0.81058657 0.018364336
-0.47676024 -0.074022941 0.025072474 0.67931122 0.012281748 -0.7337476 0.019064659
-0.2359343 -0.071060605 0.024630107 1 8.0519749e-07 1.5484064e-05 5.2223655e-05
-0.13349295 -0.074799985 0.023347208 0.93575191 -0.099572971 0.33830982 0.11071286
-0.12074876 -0.078301355 0.027174726 0.89336425 -0.08687149 0.44085571 0.11473616
-0.11844549 -0.073854387 0.022791281 0.89340734 -0.142335 0.42610326 0.1251882
0.015522895 -0.070063934 0.020053541 -0.93937099 0.072791472 -0.33508736 0.10355444
0.028738201 -0.07401263 0.024205962 -0.91478091 0.061814234 -0.39919269 0.11883607
0.10844775 -0.074394822 0.020476721 -0.99676555 0.020304358 0.077757977 0.13924296
0.45506397 -0.073916197 0.028618412 -0.26330185 -0.002709616 -0.96470964 0.00024296227
0.46327034 -0.073238194 0.026447451 -0.35468516 0.0022122937 -0.93498313 0.0063914997
0.47343957 -0.070575163 0.022867896 -0.56985432 -0.0039800615 -0.82173604 0.030067971
-0.47755069 -0.066942111 0.023829661 0.72317094 -0.014786453 -0.69051081 0.015018233
-0.13397737 -0.065195501 0.025720799 0.93773854 -0.21493244 0.27285624 0.10998566
-0.12117451 -0.065188512 0.027951069 0.89051342 -0.28164333 0.35729939 0.12606102
-0.11643643 -0.062491324 0.023300814 0.78462595 -0.41423163 0.46127462 0.13838454
0.012612745 -0.068197876 0.028423384 -0.96165097 0.1232174 -0.24504073 0.090153024
0.026723886 -0.068680264 0.027960848 -0.9142167 0.20673332 -0.34852418 0.11696145
0.10844775 -0.062976733 0.02991426 -0.99641329 -0.02155764 0.081828706 0.035491046
0.45359588 -0.063270867 0.028984329 -0.26974601 -0.0046622185 -0.96292019 0.0008459104
0.46567127 -0.06442894 0.025760084 -0.48971725 0.016537707 -0.87172443 0.02437963
0.47110742 -0.060898855 0.023982849 -0.51763189 -0.011509678 -0.85552597 0.025726559
-0.47759938 -0.054889321 0.023734894 0.72006088 -0.018812103 -0.69365585 0.016242772
-0.2359343 -0.053751122 0.029060097 0.99999696 -0.0022329679 0.0010248583 2.4367104e-05
-0.13230105 -0.055295244 0.021847688 0.94136226 -0.18858193 0.27977493 0.15536594
-0.1281985 -0.051026836 0.020566719 0.92424899 -0.15172173 0.35034868 0.17227203
-0.11183863 -0.057677522 0.024719276 0.80076641 -0.44392219 0.40212724 0.14976352
-0.10625495 -0.053570654 0.0250053 0.84460294 -0.41441467 0.33897829 0.16284646
0.027259972 -0.057328895 0.027757917 -0.80544078 0.51738977 -0.28908998 0.11598132
0.033048756 -0.054246239 0.02385417 -0.72931343 0.62904364 -0.26908353 0.11541125
0.10844775 -0.052853536 0.025578529 -0.98560911 -0.12612087 0.11255242 0.097361825
0.45766714 -0.056521501 0.027953142 -0.3084527 -0.0092311734 -0.95119482 0.003956025
0.46954176 -0.052119553 0.024620436 -0.53601468 0.013625778 -0.84409875 0.024404312
0.47375396 -0.056389421 0.022593522 -0.66159213 -0.0079800421 -0.74982154 0.030227005
-0.47635445 -0.043991286 0.02549726 0.70321053 -0.012442045 -0.71087283 0.013971091
-0.2359343 -0.044684738 0.021589011 0.99999428 -0.0031319512 0.0012319703 5.8985064e-05
-0.12390547 -0.045713 0.02672259 0.86534458 -0.17010333 0.47142732 0.20240679
-0.11463814 -0.045531474 0.025852537 0.85081226 -0.071533822 0.52057797 0.18697111
-0.1042562 -0.045499116 0.026159262 0.88521856 -0.10495645 0.45318016 0.18032543
-0.098429859 -0.043294858 0.025899937 0.90878934 -0.0052938489 0.4172217 0.14885041
0.01648777 -0.04714334 0.026576377 -0.74059135 0.63926399 -0.20704113 0.10813331
0.024925623 -0.04257416 0.025239753 -0.56962913 0.79349113 -0.21423015 0.091595538
0.035696507 -0.042373776 0.024990762 -0.43569291 0.88133854 -0.18279514 0.11487477
0.043497652 -0.0436044 0.024610998 -0.4002766 0.90079057 -0.16838938 0.11588544
0.050270863 -0.043189943 0.020930169 -0.45362315 0.81946784 -0.35028335 0.09788952
0.10844775 -0.044531513 0.02723998 -0.97399968 0.015067998 0.22604764 0.058336455
0.45474657 -0.041338623 0.028715998 -0.28150335 -0.003577831 -0.95955354 0.00093589799
-0.47418636 -0.03882955 0.028882917 0.67696625 -0.017568791 -0.73580432 0.016213713
-0.2358153 -0.035000999 0.024211671 0.99999613 -0.002794133 -0.00017532543 4.3048803e-05
-0.13057524 -0.031827711 0.026389806 0.93391496 0.1628876 0.31823039 0.16786952
-0.12889695 -0.037677191 0.025368053 0.91898006 0.12949671 0.37243283 0.17154187
-0.1121105 -0.03305145 0.029173113 0.81620955 0.37806875 0.43688208 0.14518914
-0.10341142 -0.036710355 0.022799935 0.8120684 0.31940413 0.48839119 0.15284503
0.04444797 -0.03949168 0.025745457 -0.38317782 0.88590932 -0.26141831 0.13280171
0.46396029 -0.036223695 0.026262045 -0.33775413 -0.019743226 -0.94102734 0.004025558
-0.47617882 -0.025989715 0.025340527 0.69312042 0.022914616 -0.72045749 0.014280558
-0.13060153 -0.025134562 0.025838466 0.92902094 0.17726903 0.32480118 0.11764149
-0.12931223 -0.024891233 0.022167642 0.9150368 0.21103376 0.34376222 0.12348014
-0.11437144 -0.025161253 0.022558615 0.85511756 0.36787215 0.36530006 0.14531118
0.10844775 -0.02514882 0.027931955 -1 -1.4838156e-07 -1.9281763e-06 0
0.45521948 -0.022917425 0.028602058 -0.29521266 0.00077881222 -0.95543128 0.0010062772
0.46506366 -0.02491805 0.025968481 -0.44854853 -0.023919661 -0.89343834 0.016349241
0.47570112 -0.022996644 0.021605723 -0.66844541 0.049765162 -0.74209446 0.040426046
-0.47659582 -0.015255697 0.025571991 0.70459121 -0.016604431 -0.70941919 0.017484272
-0.2358153 -0.014967129 0.027138326 0.99999988 -0.00029197024 0.00016015233 3.1689546e-05
-0.13055336 -0.014717536 0.024500176 0.93478078 0.027548758 0.35415512 0.098057762
-0.11630646 -0.016048776 0.025364975 0.92881966 0.12121712 0.35014355 0.13216703
0.10844775 -0.01931053 0.028634457 -1 1.3554879e-06 -4.5314373e-06 0
0.45173112 -0.014509697 0.029479776 -0.27594888 0.0023247222 -0.96116954 0.00062599021
0.47438824 -0.015918475 0.022329826 -0.61737859 0.0016375872 -0.78666443 0.036098816
-0.47483462 -0.0027205031 0.028269611 0.68802965 0.021829866 -0.72535414 0.015506275
-0.1317631 -0.0032759935 0.026659194 0.89756638 0.0099051846 0.44076797 0.092821181
-0.11669876 -0.0058592306 0.026067615 0.88417751 0.022071214 0.46662951 0.11063508
0.10844775 -0.0057521844 0.024799835 -1 1.0252976e-06 3.105228e-06 0
0.44993225 -0.0068392009 0.029918104 -0.25733861 0.0018739928 -0.96631944 0.00029757223
0.45583865 -0.0063846726 0.028431527 -0.28806058 0.010988889 -0.95754915 0.0008803776
0.46361309 -0.0036135733 0.026351487 -0.37538296 0.0064349375 -0.92684752 0.0061931824
0.47508478 -0.0051372675 0.021875285 -0.5562948 -0.021034092 -0.83071882 0.020121766
-0.47841847 0.0017659944 0.022141065 0.72873759 0.0011604918 -0.68479222 0.016111158
-0.23581529 0.0062582996 0.023471039 1 4.4440173e-07 6.2333434e-06 3.1158568e-05
-0.13220415 0.0034982811 0.027887722 0.90167022 -0.028853776 0.43146071 0.088605203
-0.11565067 0.0074662501 0.024094278 0.87598723 -0.022841113 0.48179311 0.10969566
0.10844775 0.0042253626 0.023375824 -1 -6.0411125e-08 -3.7444781e-06 0
0.454418 0.0068311309 0.02879926 -0.27083474 0.00052557478 -0.96262574 0.00035508562
0.46377882 0.007011544 0.026310809 -0.39773855 0.012059703 -0.91741955 0.011879922
0.4731757 0.0060111298 0.022963755 -0.51489365 -0.017858274 -0.85706806 0.017718578
-0.47624117 0.013690384 0.025491565 0.70789874 -0.026116665 -0.70583093 0.016256878
-0.23581529 0.013170345 0.023000108 1 1.2111223e-06 1.0062497e-05 3.5181485e-05
-0.13220657 0.012239436 0.028677348 0.91621602 -0.020478958 0.40016085 0.092836902
-0.12921607 0.018801445 0.020983383 0.91412073 -0.028327031 0.40445134 0.1100185
-0.11499397 0.017990371 0.022776291 0.88913417 -0.015706684 0.45737702 0.11915644
0.10844775 0.014769924 0.02254688 -0.99999893 0.0014340027 -0.00017514986 1.3442582e-06
0.44976133 0.014089942 0.029930759 -0.25617152 -0.0051417043 -0.96661764 0.00031026019
0.4540174 0.013578095 0.028906275 -0.28087714 -0.004930811 -0.9597311 0.00069073628
0.46629629 0.015336795 0.025612224 -0.47261983 0.033390496 -0.88063359 0.016444845
0.47295356 0.016478822 0.023117058 -0.52286059 0.012968752 -0.85231954 0.019086169
-0.4777641 0.02554599 0.023240788 0.70383072 -0.002898677 -0.71036184 0.017318062
-0.23581529 0.024547452 0.025665822 1 3.0486672e-06 2.5725925e-05 3.5865294e-05
-0.13062082 0.027904529 0.025874836 0.93804401 -0.15298881 0.31091461 0.117915
-0.12947959 0.024216998 0.022285752 0.91689801 -0.065506637 0.39370921 0.12030013
-0.11619738 0.027014244 0.025158886 0.86465102 -0.3470428 0.36323541 0.12596701
0.45604563 0.024876861 0.028390711 -0.29924372 -0.017961971 -0.95400763 0.0010829803
0.46504676 0.024317434 0.025975762 -0.39130479 -0.021175124 -0.92001748 0.0095610581
0.47589359 0.024854181 0.021436464 -0.60244805 0.083314449 -0.79379785 0.029312104
-0.23581529 0.033978716 0.025700262 1 2.4308481e-06 3.4527282e-05 2.9468552e-05
-0.12981227 0.037702415 0.024460487 0.95675343 -0.15504995 0.24613494 0.13399592
-0.11427225 0.032011442 0.023983065 0.84548348 -0.36453483 0.39022052 0.13868515
-0.1070406 0.037961379 0.024613421 0.82507551 -0.41246268 0.38616705 0.13676837
0.10856675 0.035393551 0.024199391 -0.99946541 0.016926477 -0.027972367 0.00049906771
0.45856261 0.030642848 0.027744489 -0.3348133 -0.020300429 -0.94206578 0.0033978403
0.47471547 0.036020778 0.022089452 -0.60831249 0.014647498 -0.79356247 0.02249218
-0.47629756 0.045565479 0.025425812 0.7186116 0.014131685 -0.69526815 0.012430717
-0.23581529 0.043104067 0.027517863 1 9.3075796e-06 1.1859066e-05 3.7773418e-05
-0.12497097 0.043972254 0.02524432 0.92587548 -0.26884425 0.26547551 0.15099332
-0.11585009 0.046958983 0.028577527 0.89017797 -0.22829016 0.39429262 0.16127124
-0.10455297 0.047379978 0.024837041 0.87986708 -0.20346011 0.42946237 0.2001127
-0.097053558 0.045834027 0.024312196 0.88169754 -0.22897269 0.41253003 0.14353958
0.45314097 0.044396617 0.029133167 -0.29022801 0.0061837025 -0.95693749 0.00090361125
0.4633719 0.04486822 0.026452126 -0.35391632 0.010737331 -0.93521547 0.0038439813
-0.47681707 0.055641796 0.025025696 0.72745639 0.025554556 -0.68567783 0.013331017
-0.2358153 0.053818028 0.027753124 1 1.1269422e-05 -4.371203e-06 2.1829854e-05
-0.12438016 0.057176046 0.023153782 0.95403987 0.10988556 0.27880645 0.18264802
-0.11274382 0.052085668 0.025813736 0.89795399 -0.017202061 0.43975309 0.17760409
-0.10380438 0.054010674 0.025554322 0.86754584 0.13032168 0.47997972 0.17874926
-0.095425174 0.053043619 0.024323631 0.91091865 -0.0040366561 0.4125663 0.14822163
0.027967073 0.055454016 0.025418574 -0.46682182 -0.84802562 -0.25085834 0.097584344
0.033292599 0.055123262 0.023628894 -0.44465506 -0.85662538 -0.26167697 0.10906696
0.042414024 0.057411361 0.026502073 -0.50664395 -0.81245667 -0.28848952 0.14128712
0.10856675 0.053534634 0.024133317 -0.98690277 -0.027897667 0.15888548 0.10198116
0.4578774 0.054980978 0.02792282 -0.32647401 0.015648115 -0.94507664 0.0027859646
0.46981594 0.058538057 0.024557199 -0.47606662 0.0041532703 -0.87939948 0.021169184
0.47571832 0.056672715 0.02155152 -0.59204906 -0.00141958 -0.80590069 0.027040748
-0.47652853 0.061218709 0.025587179 0.7217226 -0.011876861 -0.6920805 0.018772336
-0.2358153 0.06237933 0.027249141 1 1.9316012e-06 1.0022268e-05 1.0355394e-05
-0.12647942 0.064724594 0.024083821 0.97259963 0.12736249 0.19449592 0.13618311
-0.11271521 0.069420591 0.024893248 0.88356203 0.28791177 0.36935744 0.13030392
-0.10460801 0.061779302 0.023051411 0.8397786 0.36578068 0.40121859 0.15482919
0.013389533 0.066227034 0.028103158 -0.84550804 -0.45664033 -0.2767593 0.09648259
0.029372841 0.069929257 0.023838269 -0.79156548 -0.50411254 -0.34539053 0.11370683
0.036381532 0.065268613 0.022680128 -0.73253864 -0.58142418 -0.35402405 0.1422261
0.044556174 0.060002893 0.021801442 -0.37229952 -0.89329487 -0.25182813 0.13193557
0.45571685 0.064691149 0.0284897 -0.292914 -0.0026826856 -0.95613497 0.0012349064
0.46525562 0.067379378 0.025914639 -0.39229673 0.0080976402 -0.91980308 0.0056751347
0.47413349 0.063682042 0.022452906 -0.53403121 -0.025411757 -0.84508276 0.022149356
-0.47571647 0.072949149 0.027167343 0.70825768 -0.037276432 -0.70496917 0.015342612
-0.23581532 0.074494369 0.02463945 1 -9.9901436e-06 1.2402543e-06 1.2037612e-05
-0.12781724 0.075469837 0.026745412 0.94687474 0.13247119 0.29305229 0.099509612
-0.11261172 0.072956629 0.024655635 0.8768537 0.29860213 0.37678155 0.12546489
0.013721017 0.074108414 0.026066108 -0.89674288 -0.34205538 -0.28080305 0.095249578
0.027806003 0.0755779 0.025944436 -0.83381462 -0.354837 -0.42289937 0.12124214
0.085828044 0.077967398 0.029094292 -0.83084559 -0.25331366 0.4955076 0.22168714
0.10856674 0.07473176 0.026821299 -0.98103666 -0.053365462 -0.18633108 0.16546881
0.46199086 0.073318966 0.026823251 -0.35418859 -0.0057671447 -0.93515623 0.0060507404
0.473611 0.073604643 0.022657864 -0.56037629 0.022416146 -0.82793474 0.022659453
-0.47644341 0.081542268 0.025305834 0.72696775 -0.069897138 -0.68310487 0.014101959
-0.2358153 0.089897953 0.02195866 1 -1.3780335e-05 4.2142651e-06 9.6576196e-06
-0.12720814 0.083836496 0.024079517 0.9539243 -0.049057987 0.2960096 0.10449824
-0.11448748 0.084874474 0.028157355 0.91580981 -0.01970168 0.40112877 0.10742411
0.013990055 0.085418671 0.0240076 -0.95415306 0.029584626 -0.29785368 0.10128951
0.028040536 0.086538419 0.025445167 -0.91731089 -0.064745836 -0.39287236 0.11736184
0.085210331 0.084966883 0.026362775 -0.99770951 -0.03076498 0.060243037 0.1643766
0.45543215 0.085729271 0.028577939 -0.28332192 0.0039812862 -0.95901662 0.00095296511
0.47416696 0.083515197 0.022556001 -0.58233058 -0.026651865 -0.81251508 0.017629063
-0.12768735 0.094959922 0.0243992 0.95088696 0.035808913 0.30746013 0.10270692
-0.11310303 0.095879488 0.025506172 0.92356336 0.023659673 0.3827152 0.1100189
0.013758309 0.093523242 0.023730747 -0.9366799 0.046996336 -0.34701869 0.097113147
0.027838737 0.093372926 0.02588208 -0.92434841 -0.045170423 -0.37886626 0.11127423
0.083441198 0.095526278 0.027118593 -0.96800643 0.1833767 0.17127919 0.19792306
0.10856674 0.095066376 0.024016747 -0.98549801 0.15069003 -0.078014135 0.21717958
0.45588645 0.094384953 0.028428951 -0.30332512 -0.0088204676 -0.95284629 0.0021261254
0.46617106 0.096643679 0.02569994 -0.45482451 -0.016068634 -0.89043611 0.015748976
0.47359025 0.095431983 0.022851665 -0.55378038 -0.0028962621 -0.83265775 0.016014667
-0.23581533 0.10839515 0.026943287 1 -7.5060402e-06 1.3534777e-05 2.0256008e-05
-0.12762502 0.10549688 0.024922462 0.93254942 0.05554207 0.35674459 0.097961053
-0.11256363 0.10531838 0.024550071 0.93732166 -0.029885599 0.34718141 0.11557784
0.013096495 0.10443126 0.025558967 -0.93848366 0.061118703 -0.33987206 0.1039333
0.027891837 0.10315923 0.025755886 -0.92082012 0.053722844 -0.3862696 0.10721011
0.030120794 0.10474385 0.0214896 -0.93226194 0.058613662 -0.35700428 0.10995135
0.085764445 0.10444947 0.026741454 -0.98559177 0.15428813 0.069310643 0.1634533
0.10856674 0.10527404 0.022905564 -0.97645068 0.16674572 -0.13689403 0.18111868
0.45411167 0.103969 0.028887207 -0.29963318 -0.017046046 -0.95390218 0.0057222219
0.46477526 0.10271187 0.026075022 -0.42295802 0.028227977 -0.90570945 0.025789501
0.47466058 0.10619029 0.022206958 -0.56851143 0.1215753 -0.8136425 0.076931864
-0.47595608 0.11545213 0.026701096 0.72428125 0.021276213 -0.68917626 0.013767928
-0.2358153 0.11604363 0.025268028 1 -6.1863061e-06 -6.933135e-06 1.9033265e-05
-0.12728918 0.11705277 0.025204858 0.9526093 -0.11484192 0.28168577 0.10214762
-0.11226666 0.11632849 0.023946652 0.89268696 -0.28644294 0.34793743 0.12742038
0.013746667 0.11336406 0.02466185 -0.94268668 0.036181152 -0.33171189 0.098618291
0.027545631 0.11502329 0.026397076 -0.90117282 0.13243209 -0.41273391 0.11760686
0.030166056 0.11033672 0.021400677 -0.92986077 0.075868934 -0.36000404 0.11578928
0.084044732 0.11383096 0.028554542 -0.46868163 0.2321461 -0.85231793 0.18993895
0.10856674 0.11595457 0.026152095 -0.98346812 0.075624526 -0.16453388 0.1704874
0.45693326 0.11780781 0.028172815 -0.29452434 -0.058513563 -0.95385092 0.10349894
0.46428952 0.11272445 0.026171213 -0.37682673 0.034692392 -0.92563385 0.093210958
0.47693458 0.11920917 0.020766241 -0.50402898 -0.022439592 -0.86339521 0.20173432
-0.4781884 0.12083907 0.02235722 0.7726118 0.040159903 -0.63360727 0.0095860967
-0.23581532 0.12557858 0.024904659 1 1.1313635e-05 -1.5019175e-05 1.2615576e-05
-0.1277736 0.12711799 0.027678197 0.87997329 -0.38491711 0.2783626 0.1125517
-0.11242998 0.12421644 0.025462247 0.82356346 -0.37611872 0.42459154 0.13525246
-0.10935056 0.12878211 0.023566734 0.74083477 -0.55593103 0.37696764 0.13260309
0.014207456 0.12589441 0.024678599 0.92650592 -0.23629332 0.29283479 0.10771566
0.028543748 0.12658311 0.024507208 0.84582895 -0.40560305 0.34649599 0.11679437
0.030469278 0.12551868 0.020804938 0.83715558 -0.41421646 0.35720491 0.11035702
0.10856675 0.12576719 0.026924115 -0.97034997 0.21117705 -0.11758015 0.15469965
0.4652836 0.12634885 0.024466734 -0.57439411 -0.16058418 -0.8026731 0.20543528
0.47252753 0.12721558 0.025186786 -0.32665163 0.17918272 -0.92800444 0.255308
0.48947933 0.12343538 0.02479206 -0.60415566 0.68892193 -0.40047768 0.17619888
-0.47746229 0.13192104 0.023770185 0.73652726 -0.00042835568 -0.67640781 0.016369212
-0.2358153 0.13768087 0.02693028 0.99973005 -0.018461505 0.014106976 0.00054949219
-0.12712364 0.13176772 0.026078654 0.79133195 -0.55243123 0.26194158 0.12533817
-0.10371124 0.13274266 0.023137132 0.64749521 -0.69948697 0.30243656 0.12809503
-0.097286515 0.13702118 0.02278259 0.56607932 -0.74687672 0.34889737 0.13413709
0.014848833 0.13368692 0.024144638 0.84714746 -0.46412364 0.25870895 0.11025023
0.036404401 0.13524175 0.023050062 0.64899725 -0.68719947 0.32643434 0.11406662
0.042647451 0.13950503 0.022765178 0.6230728 -0.68621838 0.37534598 0.10842285
0.44760132 0.13872798 0.023402035 -0.38763782 -0.054032505 -0.92022681 0.17486444
0.45827207 0.1311173 0.025572652 -0.33543491 -0.054298449 -0.94049722 0.19887435
0.46583298 0.13348348 0.02577588 -0.64827764 -0.7397967 -0.18010236 0.19750442
0.47500983 0.13683583 0.021861294 -0.38049716 -0.66674888 -0.64083374 0.27545655
0.49820241 0.13365759 0.02460598 -0.80111289 0.59557509 -0.059232149 0.12832966
-0.47604975 0.14846818 0.026518077 0.715011 0.0098828692 -0.69904333 0.016914146
-0.2358153 0.14074092 0.022148903 0.99278152 -0.081165411 0.088301323 0.0057099434
-0.11482007 0.14127165 0.023093944 0.82386076 -0.33137095 0.45983338 0.17441586
-0.10383619 0.14339185 0.025830925 0.68723947 -0.4613741 0.56110233 0.14179923
-0.094833978 0.14281985 0.023897722 0.75830656 -0.50884414 0.40749091 0.092851825
0.018394396 0.14282027 0.026401646 -0.88127494 0.06477268 -0.46814415 0.19134164
0.038027573 0.1446953 0.028494613 0.73159206 -0.46921086 0.49458501 0.11646214
0.044540644 0.1442945 0.025780311 0.64340419 -0.66406649 0.38085008 0.086339451
0.10856675 0.14413211 0.023885146 -0.96147346 -0.12365118 0.24551816 0.066587687
0.44373986 0.14329404 0.025821468 -0.45259541 0.03691547 -0.89095145 0.14859295
0.45353231 0.14286406 0.029040879 -0.22586167 -0.099499658 -0.96906465 0.20899279
0.4633894 0.1457089 0.026441846 -0.69604093 0.16659802 -0.69840682 0.23432203
0.49990377 0.14881709 0.025008559 -0.99745125 -0.010323577 0.070600331 0.11172853
-0.47880781 0.15836485 0.021151956 0.80105186 0.02031518 -0.59825009 0.034946401
-0.2358153 0.15714981 0.02345557 0.95085561 -0.30928048 -0.01480685 0.066655964
0.10856675 0.15365836 0.024020202 -0.95135391 -0.26351961 0.15963395 0.052506298
0.44694322 0.1504911 0.029685359 -0.35229269 0.046634566 -0.93472725 0.13685462
0.45360658 0.15506437 0.029022779 -0.093265772 0.064954296 -0.9935202 0.19531678
0.46475017 0.15408389 0.026081756 -0.50129426 0.28395322 -0.81735831 0.24940856
0.47351873 0.15445787 0.022856049 -0.56780845 0.7698319 -0.291466 0.24328949
0.49936765 0.15340862 0.024182038 -0.98083234 -0.16304195 0.10670164 0.12102674
-0.47719431 0.16618629 0.024291642 0.71159697 -0.067910738 -0.6992982 0.023730835
-0.23361412 0.16610517 0.025568927 0.76339936 -0.63683689 0.10798253 0.13236682
-0.22056809 0.16730689 0.022935588 0.21958061 -0.97555262 -0.0090307668 0.070205986
-0.19496225 0.16730689 0.024164274 2.0512167e-05 -1 -1.4153497e-06 0
-0.18799806 0.16730689 0.022211958 3.8881001e-07 -1 -5.3233389e-06 0
-0.17748696 0.1673069 0.029198583 2.8086095e-05 -1 -1.0893579e-05 0
-0.16395698 0.16730687 0.025942763 7.0499909e-06 -1 5.2305277e-06 0
-0.15502967 0.16730689 0.024523921 -1.0246801e-05 -1 6.5046896e-07 0
-0.14057574 0.1673069 0.023795705 -1.0292682e-05 -1 -1.0391893e-05 0
-0.13482003 0.16730689 0.022901136 -4.6481848e-08 -1 -5.628619e-06 0
-0.12501393 0.16730687 0.024936019 -0.060396113 -0.90178192 0.42795056 0.1597687
-0.11681508 0.16730689 0.026100811 -0.28130475 -0.81735593 0.50278902 0.17347103
-0.094592549 0.16730687 0.02524833 0.039572004 -0.74479967 0.66611367 0.15215521
-0.083581381 0.16730689 0.023939744 0.27152371 -0.77802587 0.5665251 0.104054
-0.075318947 0.16730687 0.020065239 -1.097024e-05 -1 1.0217595e-05 0
-0.068394557 0.16730689 0.02903932 1.79012e-05 -1 2.6952664e-08 0
-0.058436301 0.16730689 0.023006527 8.3968334e-06 -1 -5.010794e-07 0
-0.047641728 0.1673069 0.027312245 3.2399739e-06 -1 1.5435014e-06 0
-0.033665013 0.1673069 0.023490436 2.4376516e-06 -1 -1.4252235e-05 0
-0.026400622 0.16730689 0.024550179 -2.7405488e-06 -1 4.2005638e-07 0
-0.0055685616 0.16730689 0.02409547 -3.4915953e-08 -1 -9.1809488e-06 0
0.0045038201 0.16730689 0.024407066 -0.11243103 -0.987243 0.11274151 0.094650276
0.015836164 0.16730689 0.0217475 -0.323302 -0.79895914 0.50708985 0.12929611
0.02290123 0.16730689 0.024895359 -0.23596646 -0.72841746 0.64321679 0.14157854
0.049286891 0.16730689 0.026616637 0.1640601 -0.7507149 0.63993067 0.12725355
0.053637143 0.16730689 0.026058741 0.31573004 -0.78348213 0.53522921 0.07375931
0.063645527 0.16730689 0.023023253 0.21476054 -0.87231159 0.43926123 0.070125028
0.077891991 0.16730689 0.026903335 -0.0068264641 -0.99997628 -0.00095479627 0.0001577104
0.080457769 0.16730689 0.028599415 -0.07152275 -0.99703526 0.028375858 0.0090850703
0.095587999 0.16730689 0.02391961 -0.38694531 -0.89894712 0.20534672 0.081666186
0.10856675 0.1611007 0.026515996 -0.85030353 -0.52559173 0.027153267 0.10716341
0.45409977 0.16252364 0.028877998 -0.080521122 -0.059703544 -0.99496329 0.16500135
0.46729255 0.16545287 0.025479525 -0.26242042 -0.00096788834 -0.96495312 0.23105748
0.47061408 0.16557711 0.024232205 -0.37817383 0.11305948 -0.91880476 0.24013461
0.48994207 0.16817626 0.028986417 -0.5867334 -0.75206745 -0.30023062 0.16240476
0.49507818 0.16649298 0.025702965 -0.64333332 -0.73645341 -0.20918547 0.15371969
-0.47865945 0.17361349 0.021440607 0.73615044 -0.13830143 -0.66253698 0.021878544
0.45683718 0.17610002 0.02818694 -0.22297511 -0.14198093 -0.96442902 0.055369355
0.4630439 0.1738968 0.026538065 -0.30115277 -0.12855929 -0.94487005 0.10357397
0.47049946 0.17238416 0.024278879 -0.28901216 -0.33851218 -0.89547831 0.16719922
0.48466203 0.17024687 0.026025368 -0.62068558 -0.70296752 -0.34725502 0.15690173
0.49140885 0.17041625 0.022656132 -0.79031318 -0.57143003 -0.2210719 0.15145792
-0.47751945 0.18488389 0.02344518 0.74657106 -0.29935011 -0.59415591 0.034061737
0.44970798 0.18029779 0.029972754 -0.25459263 -0.17662731 -0.95078146 0.045176942
0.45886105 0.18422639 0.027664302 -0.3035368 -0.30519605 -0.90261877 0.070649289
0.47329879 0.18840595 0.023001092 -0.46548706 -0.46578985 -0.75256997 0.084789976
-0.47265112 0.19531238 0.022973834 0.6289053 -0.53779036 -0.56147987 0.063320257
-0.4668726 0.19751775 0.027539032 0.48489207 -0.60059667 -0.63573849 0.062711403
0.44962806 0.19374329 0.028524052 -0.19534953 -0.62179452 -0.75842607 0.080009282
0.45470509 0.19305444 0.027455535 -0.15371455 -0.64936048 -0.7447837 0.081818491
0.4658967 0.19713503 0.02268631 -0.34655786 -0.64357215 -0.6824314 0.066060714
-0.4631291 0.2005288 0.0227233 0.21010917 -0.89378464 -0.39623624 0.042662613
-0.4511258 0.2005288 0.021970399 0.14712608 -0.8855347 -0.44066107 0.038666267
-0.44437769 0.2005288 0.024164906 0.11957107 -0.88674027 -0.44653618 0.039865207
-0.43319687 0.2005288 0.026875559 0.1461854 -0.94181424 -0.30268118 0.040880796
-0.42564189 0.2005288 0.026011253 0.020178284 -0.97623104 -0.21579096 0.026253281
-0.40701091 0.2005288 0.021637386 0.05495264 -0.99103767 -0.12175612 0.02049667
-0.38262865 0.2005288 0.025347216 0.0027597041 -0.99229455 -0.12387028 0.015685774
-0.37557271 0.20052879 0.023133593 0.023601074 -0.99854392 -0.048506759 0.005370182
-0.36488509 0.2005288 0.026860759 0.0043648561 -0.99649173 -0.083576977 0.0088932933
-0.35985395 0.2005288 0.028007692 0.020487199 -0.99654317 -0.080511205 0.008489334
-0.34047973 0.2005288 0.028687896 0.00058555364 -0.99996454 -0.0083994148 0.00036304313
-0.33576524 0.2005288 0.023763241 -2.9734867e-05 -1 -6.5035942e-06 1.6632646e-05
-0.32170343 0.2005288 0.027306125 -3.5582871e-05 -1 -7.1396994e-06 2.4759607e-05
-0.31547669 0.2005288 0.024172865 -3.6597303e-05 -1 4.5438537e-06 1.7538572e-05
-0.30572084 0.2005288 0.023303805 -0.041390076 -0.99684358 -0.067747563 0.015045913
-0.29321197 0.2005288 0.027427075 -0.016350355 -0.99809879 -0.059427135 0.014184866
-0.2844325 0.2005288 0.027017076 0.025584958 -0.99651706 -0.079367384 0.015049001
-0.27354854 0.20052882 0.024758289 0.046058789 -0.99726903 -0.057732306 0.012458423
-0.26331669 0.2005288 0.021420982 0.011059103 -0.99951518 -0.029105144 0.001872729
-0.258104 0.2005288 0.025159175 0.0039326698 -0.99918729 -0.040115699 0.0029089134
-0.2446457 0.2005288 0.025924899 -0.0047944873 -0.99966311 -0.025507163 0.0020519439
-0.22749561 0.2005288 0.024058469 0.0061795176 -0.99917579 -0.040118784 0.0024008469
-0.21505779 0.2005288 0.024956841 -0.0081382692 -0.99908656 -0.041949868 0.002936607
-0.20153464 0.2005288 0.024864621 0.0016900192 -0.99858648 -0.053123243 0.0031802468
-0.19508983 0.2005288 0.024475671 0.0096141826 -0.99922597 -0.038144097 0.0028712288
-0.18332654 0.2005288 0.024966829 -0.0024929817 -0.99960554 -0.027975488 0.0023575495
-0.17374434 0.2005288 0.021566065 -5.2519241e-05 -0.99949771 -0.031690769 0.0017965658
-0.16437869 0.2005288 0.023513172 0.0061127478 -0.99975532 -0.021258689 0.0014434251
-0.15691243 0.20052882 0.024189347 0.0024310085 -0.99984848 -0.017240599 0.0011807814
-0.14547423 0.2005288 0.026060924 0.005979131 -0.99978238 -0.019987628 0.0013018259
-0.12435466 0.2005288 0.02380985 0.00053787295 -0.99917734 -0.040550157 0.0021900993
-0.1169362 0.2005288 0.025461119 0.0036916533 -0.99915367 -0.040966142 0.0025320034
-0.1055251 0.2005288 0.029114582 -0.0048211147 -0.99901807 -0.044042394 0.0038276713
-0.091464698 0.2005288 0.028136384 1.8687651e-05 -0.99956608 -0.029454632 0.0021552786
-0.084436566 0.2005288 0.028470876 -0.0032528949 -0.99957913 -0.028827138 0.0018707982
-0.079425491 0.2005288 0.021892935 0.00031112618 -0.9996416 -0.026769156 0.0012351478
-0.062909603 0.2005288 0.026406437 0.0040581906 -0.99897748 -0.045027714 0.0028346234
-0.052717865 0.2005288 0.021905549 0.009069127 -0.99952459 -0.029468741 0.001329927
-0.043846186 0.2005288 0.024668831 -0.0065496303 -0.99887472 -0.04697239 0.0031560385
-0.037430409 0.2005288 0.027474966 0.0097201187 -0.99919462 -0.038930599 0.0034704683
-0.026355894 0.2005288 0.022171544 0.0022076317 -0.99959612 -0.028334269 0.0016110837
-0.011530374 0.2005288 0.027276373 0.00012607474 -0.9990769 -0.042958569 0.0031839467
-0.0041463212 0.2005288 0.025102533 0.00044337116 -0.9991734 -0.040647384 0.0023714988
0.0056785569 0.2005288 0.028146502 0.0032511803 -0.99936861 -0.035380229 0.0027909239
0.018390644 0.2005288 0.027531153 0.047808088 -0.99111158 -0.12414579 0.011482215
0.024069082 0.20052882 0.027205199 0.03317219 -0.98983926 -0.13826744 0.012053148
0.032667659 0.2005288 0.024487562 0.044153512 -0.98829836 -0.14600311 0.015888253
0.044570263 0.20052882 0.024670899 -0.037569158 -0.99086958 -0.12948346 0.015142312
0.053448066 0.2005288 0.027705744 -0.038413271 -0.9907974 -0.12978804 0.0086534517
0.066513292 0.2005288 0.023293424 -0.042230874 -0.99743295 -0.057827942 0.0050498317
0.075918518 0.2005288 0.027744319 -0.0062566148 -0.9979341 -0.063941047 0.004568588
0.083959952 0.2005288 0.025114343 -0.0018130335 -0.99892038 -0.046420049 0.0031804773
0.094440416 0.2005288 0.026297815 -0.0013723468 -0.99974853 -0.02238038 0.0017211138
0.10262021 0.2005288 0.024059393 0.0062020514 -0.99965477 -0.025529755 0.0016481391
0.11493396 0.2005288 0.024320289 0.0044302163 -0.99912059 -0.0416939 0.0023425804
0.12201793 0.2005288 0.026664909 0.0058402326 -0.99928564 -0.03733724 0.0021490199
0.13414365 0.20052882 0.024686739 -0.0041247527 -0.99955666 -0.029486604 0.0016732169
0.14419925 0.2005288 0.025746088 0.0098582711 -0.99913007 -0.040520653 0.0025224807
0.15620689 0.2005288 0.0253182 -0.031528905 -0.9973039 -0.066264063 0.019220799
0.16072717 0.2005288 0.025443405 -0.018717855 -0.99680614 -0.07763508 0.019672891
0.17342734 0.2005288 0.0249347 0.019847369 -0.99784046 -0.062613182 0.016698746
0.18174717 0.2005288 0.022013592 1.8985287e-05 -1 4.4009312e-06 0
0.19467483 0.2005288 0.023449987 -2.5370633e-07 -1 2.0257185e-06 0
0.20400965 0.20052883 0.026392996 1.9858071e-05 -1 -5.9245104e-07 0
0.22437586 0.2005288 0.022414437 -1.3313468e-05 -1 3.5555265e-06 0
0.2399756 0.2005288 0.023145046 -4.6139839e-09 -1 -2.704629e-06 0
0.245103 0.2005288 0.023278432 1.767307e-05 -1 2.9107409e-07 0
0.2539956 0.2005288 0.021688014 0.00011939788 -1 2.5132398e-05 2.5510419e-05
0.26371908 0.20052882 0.025280125 1.6585074e-05 -1 2.930017e-06 2.4027328e-05
0.27088115 0.2005288 0.023029111 1.6121472e-05 -1 9.2483799e-07 2.3088287e-05
0.28848016 0.2005288 0.021851342 1.8146982e-05 -1 -4.2976644e-06 0
0.3035078 0.2005288 0.024853174 0.00075746217 -0.99998426 -0.0055591282 0.0001523313
0.31569535 0.2005288 0.024766151 -0.0035435776 -0.99976015 -0.021615662 0.0014570697
0.326029 0.2005288 0.024062045 -0.0051206755 -0.99978399 -0.020144297 0.0011534351
0.33825803 0.2005288 0.025723247 -0.017658964 -0.9959076 -0.088635333 0.008331771
0.34462711 0.2005288 0.024568999 0.00073753396 -0.99715436 -0.0753837 0.0070581897
0.35531786 0.2005288 0.024864106 -0.0080743795 -0.99801373 -0.062476669 0.0039075268
0.36566281 0.2005288 0.022767551 -0.025858779 -0.9945296 -0.10120379 0.011551897
0.37121201 0.2005288 0.027176047 -0.087124929 -0.97301775 -0.21364878 0.033140231
0.38330984 0.2005288 0.023949502 -0.13759725 -0.96554893 -0.22086693 0.03413016
0.39414227 0.2005288 0.023760416 -0.11823761 -0.95091325 -0.28597885 0.046552472
0.40436041 0.2005288 0.02667024 -0.018984251 -0.85406637 -0.51981741 0.06521111
0.41871989 0.2005288 0.021991841 0.0091812415 -0.93665951 -0.35012087 0.053281125
0.42044687 0.2005288 0.028330596 -0.093786918 -0.75568378 -0.64818662 0.05957875
0.43828124 0.2005288 0.02110726 -0.099447243 -0.87088841 -0.4813146 0.078029521
0.44410065 0.2005288 0.026547385 -0.15895686 -0.71853232 -0.67708498 0.06966801
0.45377249 0.2005288 0.022416625 -0.109813 -0.81194806 -0.57330751 0.071353599
0.46540499 0.2005288 0.020256892 -0.27000576 -0.71953762 -0.63981438 0.07744281
-0.46118599 -0.20302263 0.030530453 0.38470948 0.69593638 -0.60635895 0.05113605
-0.44351751 -0.20122534 0.035756707 0.14587609 0.59404671 -0.79109329 0.051403876
-0.4359889 -0.20554645 0.032270838 0.045935132 0.87181562 -0.48767549 0.053136084
-0.42475802 -0.20379841 0.035167061 0.10872135 0.81492364 -0.56927943 0.052261479
-0.41955423 -0.20554647 0.032317091 0.077721246 0.87418884 -0.47932571 0.053707782
-0.40635201 -0.20554645 0.033394247 0.057324424 0.93957573 -0.33750758 0.045969833
-0.38166416 -0.20554647 0.036193546 0.069242537 0.96062928 -0.26906657 0.021824479
-0.36331987 -0.20554645 0.032949299 0.052840553 0.97023505 -0.23632967 0.031417597
-0.35581902 -0.20554644 0.033275545 0.04091749 0.9833771 -0.17690437 0.015374091
-0.34395278 -0.20554645 0.034854151 0.047928363 0.99062878 -0.12789619 0.013242881
-0.33484408 -0.20554645 0.036636949 0.046070319 0.99148858 -0.12176955 0.012455052
-0.32424679 -0.20554645 0.035837792 0.028580766 0.98708791 -0.15760899 0.019857803
-0.31536674 -0.20554647 0.034487933 0.003885976 0.9982028 -0.059800748 0.0067352089
-0.30238742 -0.20554645 0.034260295 0.0035631042 0.99974847 -0.022143342 0.0012720803
-0.2980077 -0.20554644 0.031189036 -0.087253846 0.9885965 -0.12273461 0.077576056
-0.28253874 -0.20554645 0.036287062 -0.078160539 0.9743616 -0.21097478 0.12901737
-0.27109709 -0.20554645 0.035800382 0.051820453 0.9805361 -0.18937652 0.091304906
-0.25452918 -0.20554647 0.034271404 -0.067214064 0.97433257 -0.21484502 0.092316911
-0.24456476 -0.20554647 0.03936974 -0.013623468 0.98785657 -0.15477054 0.088675812
-0.23523572 -0.20554645 0.033414673 -0.014894793 0.96961439 -0.24418448 0.073157452
-0.2276513 -0.20554645 0.033345528 -9.8892102e-05 0.97864276 -0.20556839 0.058375303
-0.21492429 -0.20554645 0.035946414 0.017258625 0.98057497 -0.19538395 0.072624937
-0.20807691 -0.20554644 0.035470665 -0.0014790492 0.98569113 -0.16855487 0.055629045
-0.19623017 -0.20554645 0.036390625 0.000999004 0.98343766 -0.18124376 0.076245829
-0.18366916 -0.20554645 0.034288649 0.031030357 0.98050737 -0.19401658 0.05280022
-0.17477287 -0.20554645 0.033160768 -0.052478343 0.98025656 -0.19063845 0.059430867
-0.16122122 -0.20554645 0.035222322 -0.02251623 0.97663033 -0.21374325 0.06964203
-0.15853593 -0.20554647 0.033841692 -0.048076574 0.9759984 -0.21240456 0.074350327
-0.14543024 -0.20554645 0.031957764 0.039177548 0.97511983 -0.21818902 0.061657127
-0.13779093 -0.20554644 0.037598435 0.046848532 0.97543144 -0.21526398 0.10585665
-0.12494294 -0.20554645 0.035766996 -0.0063562929 0.97480083 -0.22298664 0.096246839
-0.11806177 -0.20554645 0.035556935 -0.0068190247 0.97046816 -0.24113256 0.10158923
-0.10876215 -0.20554645 0.039264724 -0.0065824916 0.98373765 -0.17949061 0.091097385
-0.096852601 -0.20554645 0.036835443 0.010095169 0.97942477 -0.20155701 0.075003885
-0.08709085 -0.20554644 0.03400946 0.024075398 0.97632164 -0.21497983 0.063638695
-0.075061694 -0.20554645 0.034030348 0.081043661 0.98256457 -0.16732822 0.06310533
-0.064562507 -0.20554644 0.038537532 0.099533401 0.98437423 -0.14526038 0.05700165
-0.055468664 -0.20554647 0.033486165 0.044674639 0.98886263 -0.14196804 0.045883838
-0.046691205 -0.20554645 0.035052117 -0.072150581 0.98529136 -0.15490383 0.071421407
-0.037150875 -0.20554645 0.036455382 -0.11487053 0.97523862 -0.18898213 0.081843682
-0.027166134 -0.20554645 0.0355873 -0.15019582 0.96426135 -0.21826874 0.095469505
-0.016404992 -0.20554645 0.035148405 0.0097688725 0.97083318 -0.23955679 0.088055663
-0.0073519573 -0.20554647 0.035257109 -0.018692177 0.96935123 -0.24496704 0.081094615
0.0060182586 -0.20554645 0.03162086 -0.032262843 0.96735096 -0.25137872 0.071912341
0.013249283 -0.20554645 0.033708461 -0.038067233 0.96785516 -0.24861085 0.070272952
0.022443995 -0.20554644 0.039761774 0.055315226 0.98700881 -0.15084353 0.089082941
0.034384657 -0.20554645 0.032322101 0.0068613682 0.97975397 -0.20008746 0.067340262
0.047083765 -0.20554647 0.034786597 0.028899841 0.97957289 -0.19900201 0.06620536
0.055267274 -0.20554644 0.039159697 0.015630884 0.97628433 -0.21592748 0.080800518
0.066409841 -0.20554645 0.03352388 0.05159371 0.93927896 -0.33925375 0.062924363
0.072152764 -0.20554644 0.034720376 -0.00035947573 0.95388931 -0.30015859 0.062200721
0.084876895 -0.20554647 0.036062852 0.076652177 0.95348608 -0.29152846 0.075535268
0.096294597 -0.20554647 0.035051096 -0.056445848 0.96332407 -0.26233655 0.088040031
0.10486156 -0.20554645 0.034391146 -0.060633712 0.98171121 -0.18046215 0.085562572
0.11516751 -0.20554645 0.034051485 -0.039214909 0.98031527 -0.19350508 0.091387093
0.1278618 -0.20554645 0.033972539 0.014902347 0.97564906 -0.21883076 0.067268498
0.13576424 -0.20554644 0.035587125 -0.035987444 0.98490757 -0.16929822 0.072875895
0.14458446 -0.20554644 0.035782836 -0.022727851 0.98773271 -0.15449116 0.10066749
0.15483402 -0.20554645 0.033720147 -0.0024540138 0.99165606 -0.12888806 0.073659569
0.1626786 -0.20554647 0.039093573 0.14559671 0.97895569 -0.14299384 0.09757337
0.17680258 -0.20554644 0.037202869 0.050235894 0.9984358 -0.024543473 0.03347544
0.18635085 -0.20554645 0.034355052 0.00012624914 0.99999917 -0.0012573327 1.8749026e-05
0.19797824 -0.20554645 0.0346683 -0.0033297474 0.99996716 -0.007392888 0.0002298051
0.20281816 -0.20554645 0.03430479 -0.0033781342 0.99994165 -0.010261716 0.00020584691
0.21304703 -0.20554645 0.033427283 0.00043655638 0.9999913 -0.0041664848 7.7996381e-05
0.22100851 -0.20554644 0.039093524 -0.00077146298 0.995197 -0.097889081 0.0098050758
0.24298732 -0.20554645 0.033109535 -0.00035879345 0.9999997 -0.00073556753 1.7234648e-05
0.25959888 -0.20554647 0.033979233 -0.00084485521 0.99975067 -0.022313656 0.00083897176
0.26581585 -0.20554645 0.03946333 -0.0025755046 0.99101061 -0.13375889 0.014207383
0.27362302 -0.20554644 0.033451088 -0.0079858629 0.99913907 -0.040708914 0.0033855722
0.28105021 -0.20554645 0.036644142 -0.016203836 0.98975945 -0.14182265 0.018756444
0.30441791 -0.20554644 0.037915815 -0.031993281 0.98885608 -0.14539617 0.017194372
0.31430596 -0.20554647 0.037884049 -0.077703349 0.9704653 -0.2283843 0.049156342
0.32247084 -0.20554647 0.034660559 0.0052626044 0.99019003 -0.1396281 0.015762342
0.33456764 -0.20554645 0.034699354 -0.022821784 0.96983784 -0.24268016 0.040059894
0.34694797 -0.20554645 0.034231037 -0.0347954 0.94036919 -0.33837125 0.060112726
0.35349238 -0.20554644 0.032948341 -0.02298424 0.95400542 -0.29890707 0.050422329
0.36797237 -0.20554647 0.036163114 -0.099642746 0.85552335 -0.50808573 0.061095227
0.37576473 -0.20554647 0.033644296 -0.10337658 0.90186155 -0.41947481 0.055058818
0.38784018 -0.20552146 0.035587989 -0.12999892 0.79602349 -0.59114027 0.069611184
