# .PCD v0.7 - Point Cloud Data file format
VERSION 0.7
FIELDS x y z normal_x normal_y normal_z curvature
SIZE 4 4 4 4 4 4 4
TYPE F F F F F F F
COUNT 1 1 1 1 1 1 1
WIDTH 573
HEIGHT 1
VIEWPOINT 0 0 0 1 0 0 0
POINTS 573
DATA ascii
-0.023991182 -0.1738551 -0.032453224 -0.6062423 0.3462376 -0.71595377 0.13929756
-0.014007792 -0.17377838 -0.036986396 -0.33265582 0.34537047 -0.87753022 0.13164109
-0.0054821805 -0.17350149 -0.034275062 -0.14103776 0.36801782 -0.91905999 0.15959084
0.0042021577 -0.17398815 -0.034751143 0.16228013 0.34623811 -0.92400455 0.15997916
0.01441991 -0.17409393 -0.03534288 0.35827899 0.38952965 -0.84847093 0.16465558
0.14169151 -0.17573313 -0.036608271 -0.97250992 -0.19850461 -0.12173914 0.025785184
0.17210215 -0.17547226 -0.035227384 -0.99037856 0.13286301 -0.038700998 0.033937778
-0.14092979 -0.1665585 -0.039027441 0.99280232 -0.079476759 -0.089593336 0.0030312934
-0.022617767 -0.16589065 -0.034483619 -0.59884524 0.32470563 -0.73208648 0.1567073
-0.015528971 -0.16760868 -0.034517121 -0.36133674 0.43346152 -0.8255586 0.18161257
-0.004683312 -0.1659801 -0.033596613 -0.06135013 0.65375215 -0.75421762 0.17030177
0.0065551861 -0.16612668 -0.033849884 0.19744857 0.56245244 -0.802908 0.14713982
0.014680015 -0.16726878 -0.035408732 0.30758977 0.56311131 -0.76700336 0.1316642
0.14067602 -0.16605626 -0.036128458 -0.99072659 -0.11717036 -0.068788752 0.00043420578
0.17212856 -0.16695142 -0.036931802 -0.9985255 0.0042453725 -0.054118093 0.0011589774
-0.17205948 -0.15550694 -0.032580197 0.99538499 0.009796679 -0.095460393 0.0012417599
-0.14011049 -0.15900634 -0.038270213 0.99264294 -0.10252388 -0.06441129 9.3314484e-05
-0.13969059 -0.15603311 -0.036580794 0.99264449 -0.10251004 -0.064409286 9.5342461e-05
-0.021763921 -0.15957326 -0.034606993 -0.47719523 0.44917861 -0.75532991 0.17038842
-0.013400313 -0.1526981 -0.031147696 -0.42544493 0.67225176 -0.60586655 0.2108397
0.007808865 -0.15802611 -0.035150427 0.15185997 0.093430743 0.98397624 0.24751699
0.13966767 -0.1558034 -0.036586002 -0.99280834 -0.10163796 -0.063255198 0.00024878918
0.17214818 -0.15737838 -0.038209371 -0.99893636 -0.0089693489 -0.045229759 0.00077928841
-0.17210014 -0.14292426 -0.03520349 0.99745739 0.0054634809 -0.071055159 0.00074888422
0.138751 -0.14871232 -0.033768717 -0.99287152 -0.10026079 -0.064450465 0.00024460576
0.17207511 -0.14308771 -0.033610545 -0.99716312 -0.0016465489 -0.075253233 0.0010379142
-0.17212574 -0.13479072 -0.036853787 0.99723315 0.0036996836 -0.074244954 0.00088168198
-0.13717912 -0.13207731 -0.03542814 0.99317545 -0.10555694 -0.049600031 4.5177865e-05
0.0087115085 -0.13436766 -0.036486715 -0.89065456 0.45448428 -0.013353388 0.088226013
0.13745575 -0.1345437 -0.03580451 -0.99340236 -0.10052238 -0.055200394 0.00015635893
0.17215756 -0.13449422 -0.038861062 -0.99851227 0.0041877357 -0.054367479 0.00082490774
-0.17216058 -0.12171817 -0.039063096 0.99700469 0.00019185162 -0.077341206 0.00099272595
-0.13639812 -0.12627929 -0.032940384 0.99392313 -0.099381089 -0.04732988 5.048182e-05
0.011672212 -0.12836778 -0.039719794 -0.99913466 0.0319607 0.026617376 0.005665347
0.078880861 -0.12458614 -0.032384858 -0.042243823 0.8607896 0.50720477 0.0077810669
0.082877547 -0.12477946 -0.032315418 -0.042244036 0.86079431 0.50719678 0.0077745002
0.13601033 -0.12187127 -0.034940612 -0.9951033 -0.087730207 -0.045528624 0.00018979829
0.17215997 -0.1237876 -0.039019734 -0.99890381 0.0028230918 -0.046724431 0.00092571136
-0.17208204 -0.1155995 -0.034109589 0.99632424 -0.00071796542 -0.085658841 0.0010022777
-0.13546439 -0.11609888 -0.037640601 0.99271303 -0.098647885 -0.069205962 0.0075475355
0.13522753 -0.11543997 -0.033610225 -0.99671108 -0.06759923 -0.044691849 0.0002898828
0.17212658 -0.11355424 -0.036916308 -0.99828577 -0.0068405033 -0.05812778 0.0010964394
-0.17209485 -0.10889971 -0.034904361 0.99700379 -0.00042855952 -0.07735122 0.00092190923
-0.13480692 -0.10739242 -0.035793792 0.99099702 -0.12039279 -0.058569573 0.011904706
0.13490087 -0.1058709 -0.038594224 -0.99217093 -0.1238589 0.015992085 0.023658734
0.17207609 -0.10594697 -0.033700354 -0.99600315 0.0012562692 -0.089309685 0.0010585653
-0.17203066 -0.091050111 -0.030756108 0.99491209 -0.0019683295 -0.10072769 0.0015340289
-0.13458247 -0.094133005 -0.034718964 0.99015242 -0.13381504 -0.041131169 0.02184909
0.13445355 -0.090172589 -0.032826427 -0.99663043 -0.081954457 -0.0033689192 0.01684328
0.17212641 -0.095627837 -0.036821917 -0.99838376 0.0026455163 -0.056769598 0.0010255988
-0.17205915 -0.084083468 -0.032517843 0.99653614 0.0076392889 -0.08280877 0.0011953864
-0.13415816 -0.082665041 -0.03784737 0.99864453 -0.03786999 -0.035707321 0.019882454
-0.12745796 -0.086089924 -0.036741301 0.99869359 -0.051098295 0.00010012726 0.022658305
0.12643631 -0.085849553 -0.038474478 -0.99291307 -0.063511945 0.10044849 0.04288891
0.13446878 -0.084677428 -0.034986392 -0.99745739 -0.071263649 0.00035144342 0.018451283
0.17208111 -0.082670651 -0.033894271 -0.99598497 0.00088643987 -0.089516357 0.0011500998
-0.17205831 -0.078967385 -0.032437146 0.99625283 -0.0011756696 -0.086480379 0.0015444994
-0.1309385 -0.07184498 -0.036094762 0.99970806 -0.01573205 -0.018340502 0.024356976
-0.12665518 -0.071661919 -0.037173897 0.99958187 -0.024903674 -0.014695381 0.025159162
0.12657486 -0.076206274 -0.037463386 -0.99317676 -0.055127684 0.10276634 0.044255856
0.13366517 -0.075147294 -0.035330437 -0.99914759 -0.040702153 0.0068807746 0.022041002
0.17207214 -0.076247506 -0.03329327 -0.99540865 0.00057361426 -0.095714435 0.0012030948
-0.17206597 -0.064965673 -0.032845877 0.99629021 0.0039811875 -0.085965112 0.0014333903
-0.13420692 -0.063264802 -0.03650111 0.99907333 0.036017835 -0.023560734 0.024840791
0.12980671 -0.060344279 -0.036034182 -0.99186325 -0.031433914 0.12336618 0.054589584
0.13369708 -0.062540755 -0.037602711 -0.99655759 -0.050724287 0.06557405 0.050959166
0.17211398 -0.065609179 -0.035877138 -0.99788374 -0.0045963363 -0.064861342 0.00090546499
-0.13343035 -0.053741835 -0.036410145 0.99971151 -0.023986651 0.0012319413 0.018649856
-0.12557599 -0.053123519 -0.037435628 0.99801153 -0.063024081 0.00089602941 0.022053432
0.1271842 -0.055445589 -0.037444212 -0.9557572 -0.18870813 0.22564881 0.10335764
0.13401271 -0.057029728 -0.035135154 -0.99235284 -0.021352626 0.12157311 0.051396973
0.17214255 -0.054254014 -0.037619825 -0.99829578 0.00049837312 -0.058354467 0.00091745181
-0.1720596 -0.047504496 -0.032350339 0.99527508 -0.0052559739 -0.096953273 0.0014552752
-0.13361847 -0.041189209 -0.033308044 0.99578971 -0.088402972 0.024244675 0.02249429
-0.12954448 -0.043729626 -0.035925087 0.99689269 -0.073031478 0.029522309 0.023540648
0.12789193 -0.046785019 -0.036432095 -0.92155218 -0.2303939 0.31250644 0.11060631
0.13385774 -0.045908041 -0.035867956 -0.97231293 -0.18562697 0.14195126 0.10991545
0.17213421 -0.046415482 -0.037051596 -0.99881107 0.00088552793 -0.048739433 0.00081225444
-0.13329658 -0.031811569 -0.036080807 0.98623711 -0.15960227 0.043168798 0.059136182
-0.058945425 -0.035444554 -0.038450621 0.79612285 0.5299229 -0.29218152 0.023378463
0.11515896 -0.032766014 -0.039642703 -0.56077254 -0.67787135 0.47542045 0.12484528
0.12768932 -0.037142951 -0.03588172 -0.88439924 -0.3422558 0.31733102 0.15493856
0.13296494 -0.034973986 -0.037807904 -0.97407109 -0.16396499 0.15588771 0.17698671
-0.17212076 -0.025324473 -0.036092114 0.99677736 -0.0086289989 -0.079752199 0.0012769991
-0.13196789 -0.024750149 -0.034086924 0.97786576 -0.20554015 0.03913743 0.078316376
-0.1255708 -0.024013681 -0.030719904 0.94627529 -0.31289187 0.08162009 0.095931262
-0.060334183 -0.022317406 -0.034315266 0.69253218 0.65468574 -0.30296162 0.033182789
-0.058816314 -0.027560862 -0.031537212 0.79337484 0.54045272 -0.28011987 0.029018819
0.044383109 -0.02597102 -0.03185669 -0.52359039 0.68320483 -0.50900316 0.050057907
0.057747528 -0.0208348 -0.039688438 -0.45529741 0.74432206 -0.48855802 0.078555465
0.10655191 -0.022605432 -0.035173234 -0.40724206 -0.72413021 0.55658716 0.091943167
0.13321722 -0.028067362 -0.030557565 -0.97151101 -0.17160939 0.16345215 0.1714288
0.17212382 -0.023750246 -0.036274977 -0.99800175 0.009827177 -0.06241696 0.0013054584
-0.17211097 -0.014927719 -0.035419419 0.99764401 -0.0053276662 -0.068395905 0.00067392318
-0.13343756 -0.018254029 -0.037114363 0.97103995 -0.23830114 0.017147498 0.10414854
-0.12628236 -0.014979011 -0.035430185 0.91523284 -0.40275124 -0.011844192 0.13694546
-0.1193352 -0.012275342 -0.033081044 0.62807095 -0.7698034 0.1137082 0.16888309
-0.108878 -0.011824843 -0.0360297 0.36698133 -0.82836735 0.42324004 0.10066533
-0.081585713 -0.011847144 -0.036124792 0.45535743 0.81668621 -0.3545042 0.080866441
-0.066417545 -0.012146222 -0.036383867 0.67727995 0.66314358 -0.3186416 0.052246004
0.049507678 -0.013411508 -0.031840201 -0.48619348 0.74260575 -0.46060023 0.058268458
0.055157881 -0.014553427 -0.035324898 -0.48723495 0.7213378 -0.49221328 0.047572356
0.061406001 -0.017658502 -0.034090746 -0.42161494 0.7313813 -0.53602451 0.055229701
0.071027659 -0.018308559 -0.03609826 -0.25323293 0.86617339 -0.43083259 0.088276088
0.086057663 -0.019515466 -0.039523318 -0.14339167 -0.8758859 0.46071979 0.10193121
0.095113285 -0.016990334 -0.032648753 -0.38049337 -0.78415871 0.49022439 0.081717856
0.1089056 -0.015599443 -0.038565569 -0.29287285 -0.75591135 0.58551145 0.14292803
0.11000656 -0.015690392 -0.035175432 -0.23675422 -0.82054716 0.52024019 0.12641318
0.13337108 -0.01529797 -0.036890015 -0.92842609 0.17526411 -0.32757831 0.18826279
0.1721617 -0.013702826 -0.038613025 -0.9986546 0.0097981896 -0.050920196 0.0010471591
-0.13319474 -0.00276158 -0.037689466 0.99641973 0.01363388 -0.083437428 0.14239042
-0.11812052 -0.0034016364 -0.038034853 0.43806013 -0.87125951 0.22138245 0.17518346
0.062019888 -0.0058814245 -0.035306711 -0.38673821 0.79119343 -0.47375783 0.07471548
0.07721886 -0.0015806656 -0.035387967 0.11785221 -0.88885766 0.44276729 0.092853799
0.080121741 -0.0020289281 -0.037540261 0.089357138 -0.9123987 0.39942947 0.089292258
0.10167015 -0.0085530337 -0.036816098 -0.54292804 -0.73155737 0.41237476 0.058608729
0.13283338 -0.0023994679 -0.031815741 -0.94284904 0.22364944 -0.24701534 0.1355678
0.17211458 -0.0032295007 -0.035598278 -0.99754268 -0.0056841024 -0.06983088 0.00082966971
-0.11503986 0.00060223811 -0.032418463 0.28591949 -0.84314495 0.45536441 0.16971046
-0.093875378 0.0045572398 -0.035684362 0.069052525 -0.90793264 0.41338867 0.090117007
0.17210943 0.0034003274 -0.035246085 -0.9976806 -0.0025443058 -0.068022288 0.00097302813
0.13279197 0.016678829 -0.036787152 -0.99400711 0.099008165 -0.046339329 0.022736222
0.1721361 0.01576208 -0.036925524 -0.99714363 -0.045803878 -0.060054619 0.0065240217
-0.17207642 0.027114786 -0.033060323 0.97992575 -0.16731624 -0.1084014 0.08316689
-0.13228819 0.029686017 -0.032307327 0.95470178 0.29683062 -0.020880535 0.12664317
0.13231859 0.021643473 -0.030424984 -0.98569751 0.15811668 -0.058305435 0.051981889
0.17211021 0.020595828 -0.035253521 -0.99021041 -0.12728395 -0.057289954 0.033584151
-0.1720783 0.034045219 -0.033186868 0.98079944 -0.16347212 -0.1063452 0.1484101
-0.14303046 0.037823144 -0.033592824 -0.16689318 -0.97900641 -0.11701739 0.16358882
-0.13649982 0.03598078 -0.036213484 0.67692983 0.73495245 0.040136181 0.1960804
0.13331893 0.034636326 -0.033873193 -0.94188261 0.33224601 0.049696878 0.13851513
0.14393276 0.038053993 -0.034389589 -0.36866418 0.92935032 -0.019872904 0.17278484
0.17210494 0.035255555 -0.03491357 -0.99054801 -0.12849124 -0.048006613 0.14546901
-0.17201027 0.047234215 -0.036994077 0.98981106 0.13570002 -0.043122608 0.083754048
-0.16470844 0.043654606 -0.031441033 0.84806269 0.52933246 -0.024428643 0.20043306
-0.15276513 0.040434498 -0.03140929 0.013517831 -0.99908704 -0.040527314 0.13263564
-0.13213114 0.047197189 -0.036418986 0.95441687 -0.2713432 0.12434408 0.1093588
0.15393898 0.040752023 -0.033733066 0.079245336 -0.99684733 0.0039535956 0.17978951
0.16293567 0.04317943 -0.035156783 -0.96923167 0.23826917 -0.061787803 0.19723369
0.17160399 0.044701155 -0.035238046 -0.98688537 0.1542141 -0.047700603 0.13970113
-0.17238827 0.051430434 -0.034640748 0.97670192 0.1990297 -0.080253564 0.086980239
-0.13206856 0.055477262 -0.037824269 0.96265817 -0.24712507 0.1105374 0.079726018
0.13207453 0.050667614 -0.036340889 -0.97249711 -0.2159864 0.08717379 0.10430626
0.17237771 0.05052074 -0.036927752 -0.99418104 0.1058477 0.02001038 0.060533676
-0.17320186 0.067774713 -0.034640826 0.98816401 0.13583677 -0.0712763 0.012734833
-0.1319325 0.065803535 -0.038478971 0.99933696 -0.015026237 0.033163872 0.019731155
0.13159981 0.065717578 -0.031795252 -0.99840182 -0.019198818 -0.053152993 0.00014254892
0.17296015 0.063469984 -0.032833468 -0.97449195 0.20870364 -0.082512699 0.029454624
-0.17343321 0.070882425 -0.039692223 0.99572885 0.085214391 -0.03553177 0.0036730969
-0.13162029 0.07231269 -0.034839712 0.99841517 -0.019408606 -0.052824762 0.00054759358
0.13162218 0.073959716 -0.035535526 -0.99843258 -0.017270602 -0.053236641 0.00012879893
-0.17412916 0.085299149 -0.035879467 0.99599582 0.061824039 -0.064577311 0.00056242134
-0.13125481 0.084135629 -0.032293305 0.99837279 -0.012209035 -0.055701204 0.00052501768
0.13159752 0.085600466 -0.03969834 -0.99951684 -0.023790209 -0.020006852 0.0048066713
-0.1745256 0.091358423 -0.038867526 0.9972102 0.060148634 -0.044203021 0.0001870971
-0.17493425 0.10153477 -0.031777039 0.99540764 0.067357421 -0.068018571 0.00074238906
0.17506838 0.10443548 -0.030352538 -0.99565315 0.068429321 -0.063183762 0.00070816441
-0.17606962 0.11833123 -0.035454795 0.9966802 0.067129217 -0.046067588 8.1679696e-05
-0.13075399 0.11647488 -0.033342078 0.83648789 -0.54748845 -0.023332009 0.12174814
-0.12161884 0.11964253 -0.037081789 0.32095286 -0.94579601 0.049588963 0.11806912
-0.11823235 0.1196786 -0.036795691 0.2055617 -0.97826838 0.027116111 0.085330255
-0.09472692 0.11958586 -0.037847057 0.00036621001 -0.99226463 0.12413995 6.6074899e-05
-0.083139338 0.11974841 -0.036521532 0.00010654357 -0.9923889 0.12314378 4.2536001e-05
-0.046565671 0.11968095 -0.037476957 -0.00049431616 -0.99119341 0.13242145 0.00021707517
-0.034486204 0.11967157 -0.037563264 0.0015131126 -0.99130112 0.13160451 0.00018589018
-0.025071869 0.11950073 -0.038975973 0.0027333272 -0.99225575 0.12418129 5.7684472e-05
-0.0096444301 0.11965891 -0.037570741 8.181556e-05 -0.99150777 0.13004774 6.4291395e-05
0.0095518259 0.11965743 -0.037583448 0.00033681662 -0.9912287 0.13215695 7.219128e-05
0.043911234 0.11957018 -0.038459562 -0.0011366721 -0.99203664 0.12594493 5.6769335e-05
0.054141864 0.11974414 -0.0368433 -0.00048346716 -0.99172699 0.12836379 7.7087585e-05
0.066475049 0.11994869 -0.034911845 -0.00076649484 -0.99110621 0.13307124 9.1384012e-05
0.07414712 0.11961766 -0.037767146 -0.0023115308 -0.99230784 0.12377317 5.6139197e-05
0.081544295 0.11980616 -0.03602593 -0.0013975428 -0.99224013 0.12432858 7.6600045e-05
0.11588426 0.11961323 -0.037397426 -0.16729024 -0.9856934 -0.020552216 0.065726452
0.12330171 0.11935847 -0.03958001 -0.22938251 -0.9701156 -0.079116099 0.085477985
0.13084993 0.11158925 -0.034048665 -0.85935736 -0.50997263 -0.037853479 0.112421
0.17584768 0.1167823 -0.032458734 -0.99546582 0.068732321 -0.065754749 0.00041813464
-0.13071994 0.12396771 -0.034783933 0.58449084 -0.81066686 -0.034492683 0.1292738
-0.12789547 0.1215217 -0.037094068 0.6113562 -0.79006499 0.045177292 0.12861052
-0.10408919 0.12037896 -0.030734178 0.00098870194 -0.99072337 0.13589062 0.011362872
-0.071111105 0.12028375 -0.031900089 0.00048774792 -0.99097985 0.13400997 8.0307553e-05
-0.052070975 0.12038405 -0.031198649 -0.0021948256 -0.99072325 0.13587677 0.00010086446
-0.046573333 0.12019362 -0.032938484 -0.00078845437 -0.99078041 0.13547531 9.9283905e-05
-0.031039078 0.12006114 -0.034222167 0.00028267354 -0.9910714 0.13333181 9.2932518e-05
-0.022516321 0.1203101 -0.032056764 0.0019435695 -0.99085832 0.13489287 0.0001069548
-0.010681266 0.12026086 -0.032433685 -0.00045408995 -0.99143559 0.130596 6.7312722e-05
-0.0051183882 0.12020835 -0.032881841 0.0011535735 -0.99128592 0.13172248 6.6215267e-05
0.014222261 0.12027299 -0.032337122 0.00073698995 -0.99080634 0.13528565 6.4031658e-05
0.028989488 0.12020678 -0.032951985 -0.00030531627 -0.99055904 0.13708676 8.3802181e-05
0.077240363 0.12008478 -0.033601455 -0.0044147288 -0.99095261 0.13413969 9.899398e-05
0.091360338 0.12042923 -0.030413812 0.0015745553 -0.99087352 0.13478588 9.7568976e-05
0.12706113 0.12114708 -0.036065288 -0.41453752 -0.90308326 -0.11224627 0.09128999
-0.17753363 0.13807857 -0.034919739 0.97604394 -0.21705444 0.015020167 0.079895884
-0.17750755 0.1460399 -0.032279059 0.98046911 -0.19206607 0.042319618 0.097804502
0.17771342 0.14252023 -0.034888953 -0.98685706 -0.14883897 -0.062929615 0.10532078
-0.17806476 0.15818286 -0.038287912 0.97146595 -0.16678923 0.16862725 0.16137876
-0.16011015 0.15758981 -0.039200097 0.3930513 -0.67153573 0.62813252 0.2792474
-0.15686868 0.15837371 -0.036656972 0.10342814 -0.85248947 0.51241028 0.25063369
-0.1441496 0.1581701 -0.035610732 -0.22452039 -0.88136715 0.41567108 0.15179548
-0.13646804 0.15738328 -0.036407497 -0.07311555 -0.87426871 0.47990459 0.10123514
-0.12726752 0.15818439 -0.035944737 0.089483649 -0.89508945 0.43681532 0.10351444
-0.11109005 0.15806678 -0.036689188 0.50162065 -0.73861605 0.45035887 0.11110302
-0.10954317 0.15748012 -0.039594434 0.58154422 -0.73423725 0.3502883 0.096113786
0.12349006 0.15683565 -0.038574748 -0.24737963 -0.87758768 0.41066194 0.10053998
0.13937581 0.15960634 -0.033524573 0.14772874 -0.87623471 0.45868164 0.12821165
0.14563066 0.15774798 -0.038631495 0.24112013 -0.87234157 0.4253014 0.14013763
0.15260753 0.158121 -0.037128057 0.033411998 -0.89686102 0.44104859 0.17918326
0.16117752 0.15737389 -0.039976254 -0.18885486 -0.85765636 0.47828794 0.23224933
0.17781973 0.15521376 -0.035521958 -0.9622063 -0.27202436 -0.012718262 0.12163398
-0.17799261 0.16415948 -0.035822187 0.97605705 -0.19033259 0.10529087 0.16479567
-0.16901608 0.16371974 -0.033704631 0.94209045 -0.25030679 0.22318606 0.25832021
-0.14675061 0.16083913 -0.031165726 -0.26446617 -0.84423095 0.46618855 0.15659617
-0.12437467 0.16330579 -0.030797856 0.13869074 -0.8252033 0.54754388 0.11481369
-0.10902319 0.16768456 -0.035049621 0.80678803 -0.49601936 0.32102612 0.13897866
0.10902303 0.16388983 -0.035530616 -0.79272091 -0.51939446 0.3190971 0.11593153
0.11380824 0.16149868 -0.032498065 -0.54301339 -0.71066362 0.44731829 0.12263277
0.12510628 0.1637533 -0.030565742 -0.1858843 -0.85032898 0.49232882 0.099487461
0.13228366 0.16220112 -0.030583829 0.032851454 -0.89620537 0.44242147 0.11543454
0.1443958 0.16320714 -0.03080003 0.28698102 -0.80512482 0.51905298 0.13998462
0.1583598 0.16705383 -0.033924282 0.081872433 -0.86146647 0.50117099 0.23004213
0.17047814 0.16293231 -0.035990775 -0.76495349 -0.63979059 0.074256971 0.22767162
-0.18022715 0.17617935 -0.038960572 0.95916116 -0.12738924 0.2525506 0.17375471
-0.17310078 0.17358296 -0.034797508 0.89020425 -0.25421894 0.37803322 0.24319619
-0.16449417 0.17632395 -0.033542041 -0.35381794 -0.7105794 0.60818577 0.24338102
-0.15366675 0.17607503 -0.034343347 -0.43424341 -0.6990996 0.56806016 0.22356968
-0.14714457 0.17631114 -0.033868644 -0.52963191 -0.5679127 0.63005179 0.21231993
-0.13498783 0.17709893 -0.030077416 -0.34496745 -0.77869672 0.52405053 0.19258069
-0.11652911 0.17387018 -0.036000695 0.4603765 -0.70726073 0.53650326 0.1802301
-0.10990708 0.17161463 -0.033838011 0.86584258 -0.39370728 0.30872497 0.14028855
0.10902333 0.17528318 -0.033732623 -0.89675635 -0.37570003 0.23383226 0.10686646
0.12372768 0.17249645 -0.039071787 -0.35705239 -0.83316159 0.42232135 0.16495147
0.13499001 0.17631799 -0.031409539 0.25615144 -0.83056957 0.49451044 0.19307606
0.14804837 0.17647153 -0.031388246 0.49088365 -0.78823435 0.37110621 0.25022787
0.15399089 0.17661422 -0.034328025 0.75371969 -0.63751113 0.15964371 0.27410462
0.16598053 0.17537296 -0.034836419 -0.69277841 -0.6055854 0.39156666 0.25085306
0.17163284 0.17381763 -0.037084162 -0.97891778 0.078564972 -0.18854052 0.26782641
-0.17472339 0.18497056 -0.034067191 0.98075438 -0.16148275 0.10974669 0.22382466
-0.16515894 0.18425655 -0.038569313 0.9438864 -0.20532909 0.25868571 0.2508702
-0.15765812 0.18623064 -0.032404944 0.70312411 0.45713112 -0.54465371 0.25920653
-0.14639208 0.18609367 -0.035500608 0.79212397 0.41951811 -0.44333297 0.22044463
0.10902378 0.18992522 -0.035181709 -0.97327614 -0.11021526 0.2014603 0.084435143
0.14651257 0.18483165 -0.037196204 -0.89523703 0.33378449 -0.29519254 0.2401246
0.15677743 0.18498178 -0.035122912 -0.97204185 0.17903531 -0.15192442 0.27246803
0.1787004 0.18622559 -0.033321407 -0.98766369 0.15277566 -0.034351956 0.16460966
0.18110712 0.18637478 -0.036763482 -0.88872856 0.26579475 -0.37351668 0.12904242
-0.18037108 0.1908638 -0.035173349 0.9996205 -0.0069369841 0.026660124 0.12841922
-0.17137636 0.19423033 -0.033023924 0.99155819 -0.10850812 0.070981003 0.24182145
-0.15764542 0.19401088 -0.036493748 0.68665147 0.39632913 -0.6094529 0.25171283
-0.14708543 0.1967721 -0.036576863 0.86380458 0.22163258 -0.45246056 0.22174908
-0.10902373 0.19476344 -0.033001475 0.97530299 -0.046309475 0.21596165 0.095177136
0.10902379 0.19749182 -0.033796843 -0.96397167 -0.10900186 0.24264631 0.059014838
0.14651257 0.19656447 -0.033723112 -0.87997305 0.20261668 -0.42964396 0.24877766
0.15543362 0.19566381 -0.035014484 0.23307726 -0.65042424 0.72292686 0.27571124
0.17314619 0.19651997 -0.035203584 -0.86655676 0.33003035 -0.37437844 0.26544881
0.18165272 0.19545273 -0.035878289 -0.96851903 0.18858379 -0.16250223 0.13491905
-0.17596719 0.20310041 -0.038567878 0.99948901 0.031763181 -0.0035862883 0.16365178
-0.15399735 0.20216979 -0.034808859 0.92717767 0.068171397 -0.36836693 0.24878076
-0.14531676 0.20412262 -0.035218805 0.9310804 -0.12954804 -0.34103742 0.20766918
-0.10902387 0.20750025 -0.033094767 0.9578861 -0.041263927 0.28416818 0.055458035
0.10902364 0.20190719 -0.030808758 -0.93485272 -0.0057247723 0.35498974 0.06951759
0.14651257 0.20443487 -0.033061761 -0.98841083 0.04837124 -0.14388986 0.21352558
0.15448639 0.20230329 -0.034520879 -0.57853425 0.26548526 -0.77124292 0.26417598
0.17396763 0.20585239 -0.035412639 -0.98040253 0.14685306 -0.13132048 0.26766375
0.18185067 0.20516115 -0.03564484 -0.98765033 0.074551351 -0.1378001 0.12553135
-0.1742675 0.2171891 -0.033716429 0.96915603 0.1580826 -0.18906741 0.19418369
-0.1469454 0.21532565 -0.034967426 0.94875717 0.2105823 -0.23561606 0.22408965
-0.10902409 0.21282731 -0.035981942 0.96671629 0.038256954 0.25297442 0.048129011
0.10902379 0.21632622 -0.032410689 -0.97787923 0.044447523 0.20439343 0.036949139
0.14843382 0.21719842 -0.037970819 -0.99656004 -0.015192505 0.081469595 0.18720654
0.15093724 0.21262929 -0.033462912 -0.98093009 0.12276056 -0.1506854 0.25364429
0.17656514 0.21248107 -0.034106985 -0.97708195 -0.010646154 -0.21259704 0.19388048
0.18199956 0.21186933 -0.035383016 -0.99620259 0.0018268304 -0.087045908 0.097740524
-0.17235453 0.22657937 -0.033948746 0.9114722 0.27763641 -0.30353981 0.21908206
-0.16750798 0.22203155 -0.034455571 0.69940764 0.37575412 -0.60797834 0.21417491
-0.14671308 0.22801763 -0.03643918 0.96419585 0.11847896 -0.23725326 0.27899167
-0.10902411 0.22406797 -0.036074191 0.97682458 -0.025642132 0.21250013 0.038899641
0.10902379 0.22478333 -0.032208998 -0.97645026 0.06929642 0.20431091 0.022357857
0.14829585 0.22607473 -0.034464542 -0.98837125 -0.062785909 0.13849288 0.20196319
0.15093723 0.22280495 -0.031608358 -0.97157937 -0.10854071 0.21036257 0.2543923
0.16842647 0.22218202 -0.030098008 -0.81273741 -0.0038656096 -0.58261734 0.27497196
0.17516929 0.22559249 -0.033501346 -0.83769667 0.013611727 -0.54596603 0.21527265
0.18277337 0.22484551 -0.037393015 -0.99575543 -0.026192293 -0.088232972 0.065285884
-0.17458896 0.2358669 -0.036535572 0.9921878 -0.097206511 -0.078193381 0.22805992
-0.16976789 0.23130044 -0.035524089 0.94721198 0.092280105 -0.3070406 0.2532832
-0.14712034 0.23440485 -0.034612447 0.90726525 0.40873241 0.099033311 0.29238442
-0.10902435 0.23258644 -0.038711853 0.99204707 -0.033523429 0.12132075 0.025486764
0.10902388 0.23715043 -0.033112347 -0.97239727 0.019112861 0.23254706 0.032311775
0.14749072 0.2350329 -0.035024013 -0.99423677 -0.096375108 -0.04695835 0.19122504
0.15093724 0.23968033 -0.030377351 -0.98993212 -0.14153914 0.0010023388 0.21777333
0.1748763 0.23231167 -0.038465392 -0.93410391 -0.3311213 0.13344882 0.24038094
0.18284951 0.23734123 -0.038105562 -0.99220145 0.0047765318 -0.12455321 0.065649174
-0.18163425 0.24294786 -0.034887433 0.99903214 0.031137096 -0.031069506 0.06297908
-0.17487375 0.24535155 -0.037869215 0.99127257 -0.045301665 -0.12380038 0.13566947
-0.16954236 0.24915218 -0.03113425 0.96873301 -0.022098126 -0.24711932 0.21977629
-0.14662001 0.24401431 -0.034813579 0.998932 -0.043917991 -0.014355622 0.22338642
-0.10902379 0.24508856 -0.031515226 0.99318004 0.10718843 -0.045869838 0.084435016
0.10902412 0.24875042 -0.036573552 -0.97922724 -0.03580042 0.19958036 0.026423346
0.14801218 0.24285829 -0.03716689 -0.99517769 -0.082428254 -0.053169589 0.16486619
0.15093724 0.2443275 -0.03400379 -0.98984212 0.11720879 -0.080465935 0.23090868
0.17555106 0.24641414 -0.030862352 -0.87358505 -0.17042114 -0.45585731 0.2083248
-0.1817959 0.255914 -0.0374282 0.98922604 -0.12542352 -0.075504132 0.070609584
-0.17356892 0.25675908 -0.035041466 0.97399598 -0.14850117 -0.17111196 0.17780277
-0.16852979 0.25384626 -0.030777004 0.9724462 -0.18297555 -0.14445913 0.21961328
-0.14973845 0.25178736 -0.035654202 0.85312408 0.045792885 -0.51969439 0.26226634
-0.10902376 0.25532547 -0.031653799 0.97508901 0.18453795 -0.123074 0.14115071
0.10902399 0.25592339 -0.035319068 -0.97670901 0.067879774 0.20354824 0.083644859
0.14651257 0.25252572 -0.036089942 -0.99586499 0.08990813 -0.01301867 0.15184399
0.15093724 0.25663525 -0.034324247 -0.85572475 0.4618749 0.23325257 0.27661407
0.16946164 0.25334454 -0.032641787 -0.48737028 0.30103651 0.81966287 0.27505928
0.17976519 0.25701588 -0.034396689 -0.96247083 -0.14647491 -0.22846214 0.11916605
0.18020739 0.25425744 -0.03457747 -0.98377436 -0.11558632 -0.13721474 0.09252505
-0.17462814 0.26199162 -0.035332359 0.94220841 -0.19707882 -0.2709302 0.13408749
-0.16629225 0.26897347 -0.035068188 0.95012331 -0.27123669 -0.15393563 0.23540281
-0.14820853 0.26505196 -0.035110705 0.57023436 -0.31296724 -0.75952893 0.24170108
-0.10902425 0.26054871 -0.039399952 0.98314637 0.13375068 0.12463529 0.055369705
0.10902399 0.26742804 -0.037723593 -0.99704808 0.046187531 0.061333511 0.12466972
0.14651257 0.26173159 -0.039590258 -0.99208719 -0.073559225 -0.10174564 0.18583959
0.15093726 0.26611596 -0.037394155 -0.98992693 0.14120974 0.01022298 0.25251019
0.1642161 0.26936585 -0.030940596 -0.76951712 0.320553 0.55234879 0.28549492
0.17746623 0.26517916 -0.032901842 -0.95998955 -0.14464557 -0.23978692 0.19926471
-0.17514044 0.27395505 -0.034808494 0.98979521 -0.14061062 -0.023110526 0.15964611
-0.1649005 0.27601767 -0.032503005 0.7214635 -0.51451749 -0.46342438 0.26982099
-0.14498439 0.27718598 -0.032685708 0.20614822 -0.84623814 -0.49130848 0.19174084
-0.13015698 0.2787489 -0.035371315 0.15963662 -0.89662248 -0.41301847 0.17785206
-0.10902384 0.27314061 -0.036372416 0.98704916 0.15938927 0.018138684 0.12990341
0.11297382 0.2795985 -0.036667917 0.7944755 -0.52944946 -0.29747602 0.20240037
0.12564133 0.27968949 -0.037219558 -0.19702342 -0.82357675 -0.5318864 0.22294044
0.13948555 0.27653956 -0.031315845 -0.49237293 -0.77418286 -0.39775598 0.21168029
0.14779849 0.27891213 -0.036015823 -0.43960732 -0.86367798 -0.2465883 0.2467362
0.16505077 0.27412847 -0.03551653 0.16073117 -0.72332084 -0.67154479 0.30318961
0.17476274 0.27724871 -0.035568874 -0.97865242 -0.17821868 0.1023597 0.20122872
0.18107805 0.27165708 -0.039510805 -0.98482645 -0.17320859 -0.010748887 0.10949847
-0.17589092 0.2870838 -0.0359874 0.98601162 0.13429831 0.098717093 0.14124414
-0.16443095 0.28344965 -0.036922425 -0.60704166 -0.7204572 -0.33532336 0.25982836
-0.15855853 0.28446248 -0.035418697 0.075272374 -0.91549778 -0.39521885 0.20447814
-0.14279622 0.28017527 -0.03901609 0.21541314 -0.89101446 -0.39961287 0.19765577
-0.13259546 0.28005722 -0.038425103 0.18633419 -0.91841632 -0.34898564 0.16633321
-0.12096478 0.28024587 -0.038619045 -0.50561434 -0.68701547 -0.5218851 0.24985784
-0.10902342 0.28865418 -0.03720443 0.67767358 -0.62752539 -0.38336718 0.2166881
0.10902332 0.28630108 -0.033661574 -0.084629431 -0.87052798 -0.48478758 0.20851699
0.12774606 0.28010896 -0.038401909 -0.37621242 -0.86867207 -0.32229346 0.21254429
0.1400162 0.28016931 -0.038893387 -0.53061134 -0.79024315 -0.306541 0.23753612
0.15848756 0.28743273 -0.03466529 -0.0049016494 -0.78738433 -0.61644298 0.24588142
0.1604034 0.28180748 -0.033818275 0.21252415 -0.87185079 -0.44125912 0.29694784
0.17447942 0.2821081 -0.032615408 -0.99380469 -0.090290718 0.064805619 0.18540671
-0.17611542 0.29498726 -0.038210906 0.96817982 0.21371676 0.13020372 0.11876038
-0.1643223 0.29444814 -0.039137293 -0.70909953 -0.63458115 -0.30738366 0.22616743
-0.15484129 0.29382524 -0.035565414 -0.10452129 -0.92139196 -0.37431559 0.19513294
-0.14246601 0.29364002 -0.03441878 0.096375577 -0.84398133 -0.52764314 0.14348723
-0.12325138 0.29298386 -0.032659423 -0.030202899 -0.87652183 -0.48041359 0.16697878
-0.11726544 0.29608288 -0.035600323 -0.18536073 -0.83444649 -0.51898026 0.18592405
-0.10904302 0.29510298 -0.036565512 0.70617151 -0.58200318 -0.4032295 0.1779447
0.10902323 0.29291946 -0.037599869 -0.82419312 -0.39796486 -0.4029015 0.25924611
0.11578071 0.29370061 -0.034581304 0.17594422 -0.85192829 -0.49321583 0.23068041
0.12230838 0.29906178 -0.033083074 0.11273602 -0.8270241 -0.55074656 0.16662852
0.13075159 0.29649869 -0.030811699 -0.067319259 -0.82710522 -0.55800098 0.12789331
0.14558233 0.29411179 -0.035741553 -0.17872277 -0.84268224 -0.50788265 0.15025045
0.1549103 0.29258448 -0.031588465 0.15563314 -0.84147167 -0.51740092 0.22669353
0.16145818 0.29301819 -0.032789852 0.18685538 -0.92117763 -0.34134546 0.24718036
-0.17570719 0.30558565 -0.035539337 0.96240312 0.25110832 0.1035609 0.091575406
-0.13319786 0.30422598 -0.037874158 0.10848447 -0.8764205 -0.46916759 0.11769556
-0.12167525 0.30245599 -0.036106307 0.14469169 -0.92202121 -0.35908377 0.16074729
0.10928848 0.30395219 -0.037444741 -0.89023203 -0.30803677 -0.33555976 0.15306813
0.11411577 0.30071503 -0.034559406 -0.84363014 -0.40532473 -0.35213661 0.19006987
0.1262079 0.30425444 -0.037718631 0.19845504 -0.86534101 -0.46021801 0.21801196
0.17495842 0.30739254 -0.038102202 -0.96179748 0.17573185 0.2099144 0.10814124
-0.17487371 0.31652561 -0.035706416 0.98527038 0.074614167 0.15386675 0.036919165
-0.082835898 0.31845021 -0.031415828 -0.28105888 -0.61437148 -0.73726094 0.047175013
-0.079623081 0.31889001 -0.031853769 -0.21481058 -0.59828275 -0.77195472 0.037214752
-0.06395068 0.31811208 -0.031062102 -0.035252441 -0.55575287 -0.83059978 0.0081877112
-0.052853249 0.31882888 -0.031763382 -0.02363009 -0.5712176 -0.82045847 0.0091273244
-0.049155548 0.31767982 -0.030605614 -0.010950864 -0.55609792 -0.83104461 0.0099185808
-0.033736508 0.31996083 -0.032868285 0.010730495 -0.58544898 -0.81063825 0.0070010559
-0.013200239 0.31897688 -0.031849809 0.021593116 -0.58009583 -0.81426197 0.0092393458
0.0058299238 0.31746113 -0.030302737 -0.021702105 -0.59412229 -0.80408192 0.010661845
0.046402492 0.31944883 -0.032314137 -0.010551739 -0.60053903 -0.79952586 0.0065720188
0.090416603 0.31755793 -0.030515514 0.096897349 -0.63407189 -0.76717907 0.16086917
-0.17503634 0.32902706 -0.032797541 0.99781263 -0.02419151 0.061520059 0.0016098628
-0.093467571 0.32637164 -0.035188999 -0.23089792 -0.71799427 -0.65663564 0.06670592
-0.085255235 0.32412845 -0.037088931 -0.21843949 -0.63693279 -0.73932457 0.021243354
-0.073623151 0.32506803 -0.038022432 -0.07974676 -0.64334536 -0.76141137 0.0079089273
-0.063117541 0.32312918 -0.036081143 0.0003438213 -0.67335498 -0.73931926 0.0013333906
-0.046138875 0.32304209 -0.035976801 -0.014601794 -0.60803926 -0.7937727 0.0077432701
-0.031424418 0.32310182 -0.036013693 0.012054624 -0.6201517 -0.78438926 0.0048369491
-0.029102055 0.32641739 -0.039334062 0.0097362436 -0.66144216 -0.74993306 0.0023273265
-0.01121624 0.3212308 -0.034106351 -0.004582121 -0.61999243 -0.78459442 0.0073345918
-0.0085357958 0.32572025 -0.038603012 -0.0001914538 -0.65723753 -0.75368339 0.0019668455
0.0049101319 0.32684764 -0.039714169 -0.0030328163 -0.67794895 -0.73510265 0.0011918636
0.020676589 0.3216441 -0.034479134 -0.014256469 -0.64339495 -0.76540172 0.003624975
0.038288157 0.32635167 -0.039178316 0.00085493992 -0.62999141 -0.77660155 0.0050565153
0.045814212 0.32314581 -0.035985745 0.00031198922 -0.6558376 -0.75490195 0.0021921096
0.05324791 0.3254081 -0.038243771 -0.0033569674 -0.64330029 -0.76560658 0.0026679544
0.072980903 0.32367975 -0.036563002 0.048192214 -0.63865381 -0.76798356 0.0091168517
0.096086502 0.32667968 -0.033344343 0.0095221521 -0.77964872 -0.62614465 0.14057808
-0.1748063 0.33726379 -0.03294671 0.99843574 -0.01122471 0.054772556 0.0013684322
-0.1427384 0.33789092 -0.030719854 -0.66252762 -0.61761433 -0.42380384 0.093924366
-0.12225509 0.33628008 -0.039486814 -0.22315848 -0.78185087 -0.5821594 0.042718429
-0.11014026 0.33440164 -0.033614758 -0.25468487 -0.78625798 -0.56296897 0.02385956
-0.10160755 0.33453578 -0.034237325 -0.24825729 -0.74943829 -0.61376756 0.026775252
-0.095647991 0.33148849 -0.036874317 -0.20585459 -0.68908435 -0.69482839 0.029087307
0.10347629 0.3348096 -0.035087161 0.1698149 -0.78966612 -0.5895679 0.025869783
0.11488358 0.33401543 -0.031529307 0.20294742 -0.86165273 -0.46515247 0.01142973
0.12358152 0.33558431 -0.036511984 0.27181929 -0.79997849 -0.53492862 0.034943435
0.13318707 0.3360126 -0.036663316 0.40361521 -0.76386756 -0.5035882 0.056449942
-0.14248739 0.34599757 -0.034559965 -0.78745276 -0.39135501 -0.47619277 0.060942892
0.14307249 0.34055644 -0.032720208 0.71956861 -0.54390246 -0.43173039 0.060153667
0.17420751 0.34929043 -0.035920408 -0.99789834 -0.016932972 0.062547192 0.0011770492
-0.17432842 0.35852444 -0.032117121 0.99831378 -0.038871251 0.043111227 0.0019748555
-0.14254312 0.35567221 -0.037539598 0.81445765 0.15331441 0.55960113 0.054637082
0.14348763 0.35469377 -0.035433993 -0.86344022 0.24690302 0.43989754 0.038497403
-0.17407465 0.3648777 -0.033032276 0.99680167 -0.058634046 0.05429966 0.065308459
-0.14493324 0.368128 -0.030989651 0.88774276 0.21891712 0.40495443 0.13267593
0.14497042 0.36601782 -0.031839967 -0.94398302 0.057554141 0.32493633 0.024878763
-0.17342329 0.37492698 -0.037175246 0.99890709 -0.027776457 0.037592933 0.16294019
-0.14491132 0.37544933 -0.034701355 0.86269039 0.12089472 0.49107 0.1484037
0.14517142 0.37558925 -0.034936987 -0.83063942 0.11750685 0.54427034 0.11561279
0.1737625 0.37480149 -0.033579309 -0.98191369 -0.18908735 -0.0095671527 0.1568927
-0.17356488 0.38916254 -0.031706281 0.99072123 -0.1291806 -0.04223486 0.14054792
-0.14574209 0.38606593 -0.035548389 -0.59705406 -0.79470587 -0.10940281 0.25632453
0.17362933 0.38433552 -0.032357059 -0.99785942 0.059704825 -0.026680183 0.20299436
-0.17273772 0.3971197 -0.038566917 0.98804969 0.083678909 -0.12944342 0.1624541
0.147163 0.3994295 -0.034223683 -0.8499878 0.10144851 0.51694191 0.097556956
0.17314082 0.39624643 -0.034396507 -0.98772615 0.046259943 -0.14918785 0.17946082
-0.14733477 0.40406314 -0.036015045 -0.85177851 -0.51482433 -0.097104363 0.27727863
0.14806798 0.40509766 -0.031615276 -0.71668947 0.12409786 0.68626231 0.15392321
-0.1726836 0.41582522 -0.034564096 0.99556273 -0.066735812 -0.066341333 0.1552076
0.17245135 0.41834673 -0.036505695 -0.97345001 -0.12366564 0.19261856 0.19916567
-0.17211634 0.42085654 -0.039574042 0.99697423 -0.067232378 -0.039015833 0.13025904
-0.14876573 0.42397204 -0.035297535 0.071268417 -0.8979823 0.43422192 0.22962829
0.14841083 0.42754787 -0.037324883 -0.20289741 -0.51082003 0.83540136 0.12599565
0.17241293 0.4237923 -0.035618123 -0.98795354 -0.10699484 0.11180266 0.18655543
-0.17238399 0.43580556 -0.033034846 0.93500674 0.32999253 -0.12987444 0.16391911
-0.14315076 0.43512258 -0.036828823 0.30566436 -0.6853193 0.66098922 0.1413386
-0.13254337 0.43474743 -0.037143931 0.37119919 -0.56690884 0.73540848 0.054345395
-0.11309789 0.43412167 -0.037674986 -0.00045837922 -0.6574496 0.75349838 3.9329785e-05
-0.10195823 0.43382773 -0.037929244 -0.00017275458 -0.6567207 0.75413394 5.1168747e-05
-0.068576418 0.43352857 -0.038187318 0.00014876586 -0.66650301 0.74550235 0.00089223561
-0.057110209 0.43515036 -0.036778793 0.0023752295 -0.67619008 0.73672336 0.0017247004
-0.04134034 0.43606681 -0.035990857 -0.009912489 -0.69592154 0.71804947 0.0017686515
-0.036222477 0.43653992 -0.035580005 -0.0123166 -0.69770801 0.71627629 0.0018876815
-0.017069252 0.43506831 -0.036876105 0.0042079664 -0.68235511 0.73100877 0.0032431725
-0.0022723598 0.43768704 -0.03459385 0.010009759 -0.72296327 0.69081396 0.0054183975
0.0045655044 0.43709165 -0.035110332 -0.0051570106 -0.70559806 0.70859361 0.0041512633
0.013914388 0.43845534 -0.03391064 0.0081115048 -0.70216912 0.71196407 0.0037667775
0.02533705 0.43501127 -0.03690907 -0.0006087175 -0.66089892 0.75047463 0.00052441156
0.036275603 0.43660086 -0.035510592 0.010418286 -0.67466229 0.73805314 0.0023831585
0.04534911 0.4339163 -0.037859019 0.0018095007 -0.64794731 0.76168305 0.00032976622
0.053636249 0.43803167 -0.034256205 -0.011116897 -0.67922419 0.73384666 0.0027589404
0.065492339 0.43723273 -0.034959346 -0.012450059 -0.68873143 0.7249096 0.0030851162
0.072264642 0.43162751 -0.039871551 0.0084964968 -0.63041085 0.77621526 0.0026782055
0.084102139 0.43567985 -0.036339879 0.0046570469 -0.69089586 0.72293925 0.0026338086
0.096461914 0.43494087 -0.036993165 0.002909983 -0.67007345 0.74228907 0.0027267593
0.10978127 0.43459898 -0.037294187 0.0014769428 -0.66344631 0.74822241 0.0015993048
0.11736708 0.43258274 -0.039059278 0.0046499493 -0.65584081 0.7548849 0.0012799118
0.12574106 0.43490982 -0.037020877 -0.10207199 -0.6636067 0.74108529 0.016082397
0.1366125 0.43541321 -0.036573395 -0.22735378 -0.63042575 0.7422086 0.03520612
0.14925829 0.43287495 -0.035380751 -0.085728481 -0.67371893 0.7339983 0.16008924
0.17252903 0.43000662 -0.032867428 -0.99354756 -0.10894763 0.031524681 0.21098207
-0.17216262 0.44464558 -0.034263134 0.99330562 0.04535614 -0.10623944 0.086664416
-0.13520214 0.4413034 -0.031421475 0.31624848 -0.67738694 0.66417903 0.055646002
-0.12321308 0.44221473 -0.030611373 0.076918237 -0.73445833 0.6742807 0.013047588
-0.1044372 0.44265085 -0.030213127 -0.012068823 -0.76252437 0.64684689 0.014714861
-0.085590616 0.44246492 -0.030371226 0.019779429 -0.79006577 0.61270285 0.063311547
-0.065181553 0.44073695 -0.031885833 0.022509206 -0.71963096 0.69399184 0.0054528145
-0.0548594 0.44206837 -0.030730313 0.00058132608 -0.72756797 0.68603534 0.0073283603
-0.048851699 0.44240302 -0.030442787 -0.0084695127 -0.72647065 0.68714529 0.0081460383
-0.035911627 0.4409551 -0.031720258 -0.0093846852 -0.70124638 0.71285731 0.0027382551
-0.0047112186 0.44291747 -0.030023707 -0.002707422 -0.74399751 0.66817689 0.0087326644
0.033338219 0.44268715 -0.030196324 0.018425955 -0.73801005 0.6745382 0.0094890669
0.056629293 0.44270602 -0.030162223 -0.012767483 -0.7424854 0.66974056 0.010008384
0.061214652 0.4414199 -0.031290147 -0.025165377 -0.73369968 0.67900771 0.0092748003
0.078753486 0.44220546 -0.030615017 -0.010173515 -0.76529276 0.64360201 0.012564425
0.094076559 0.44122335 -0.031496361 0.04617212 -0.77310288 0.63259798 0.046000309
0.11907528 0.44138438 -0.031353951 -0.0068507269 -0.73128986 0.68203229 0.0082067139
0.14716063 0.4414691 -0.03117029 0.00093905081 -0.74153095 0.67091793 0.12166211
0.17171302 0.4402765 -0.039052472 -0.99225044 0.083196305 -0.092289262 0.15421118
0.17231615 0.45580745 -0.032874405 -0.99853218 0.05415374 0.0010106545 0.12701917
-0.17038126 0.46691814 -0.035062741 0.91377902 -0.37292272 0.16104832 0.10128522
-0.16677931 0.46735406 -0.039890453 0.88474768 -0.368999 0.2847127 0.097817883
0.16969807 0.46733141 -0.033405349 -0.95354301 -0.26625571 0.14093809 0.10386541
0.17359628 0.46594223 -0.034918673 -0.9850924 -0.14618827 0.090675652 0.061976947
-0.17191008 0.47934166 -0.033963315 0.79234648 -0.59158576 0.1490413 0.13626195
-0.16279256 0.47688484 -0.033495277 0.48699379 -0.87248278 -0.040134661 0.14491343
-0.14424418 0.4774898 -0.034896947 0.039398137 -0.99780673 -0.053194068 0.11325117
-0.13372184 0.4766176 -0.038743094 0.015737787 -0.99981773 -0.010805233 0.046658393
-0.12494722 0.4774507 -0.03493781 0.05538974 -0.9902823 -0.12756506 0.079978593
-0.11403108 0.47803953 -0.036000267 -0.043344621 -0.99786383 -0.04887639 0.034606971
-0.10743897 0.47790879 -0.034111626 -0.026545459 -0.98393846 -0.17652346 0.11822357
-0.086759955 0.47891265 -0.033311833 0.03260174 -0.99616981 -0.081134498 0.031767372
-0.079614624 0.47811508 -0.037183419 0.015732847 -0.99987608 0.00057870458 0.045652945
-0.055652786 0.4783287 -0.036378104 0.020981232 -0.99851656 -0.050244194 0.040891528
-0.048457697 0.47812611 -0.037882227 -0.0045906659 -0.99933004 0.036308579 0.043592211
-0.036310829 0.47880548 -0.034836248 -0.039035551 -0.99821436 0.045213785 0.036999371
-0.016747704 0.47867247 -0.035442032 -0.065759182 -0.98455209 0.16227455 0.034949772
0.021682661 0.47786903 -0.039790582 0.096526466 -0.97698122 0.19023731 0.043569587
0.036219496 0.47819322 -0.037383948 0.0083606709 -0.99983555 0.01609315 0.047434598
0.040138923 0.47801682 -0.038693525 -0.015432219 -0.99822658 0.057494674 0.050745726
0.059924915 0.47812277 -0.037906904 -0.04897619 -0.99747777 0.051373951 0.051615588
0.063485242 0.47846025 -0.035401426 -0.045387316 -0.99896944 -0.00023409388 0.046362706
0.077426538 0.47853404 -0.034040049 -0.031093372 -0.99808902 -0.053399075 0.046606444
0.087570213 0.47895825 -0.033296831 0.013911351 -0.9962821 -0.085020125 0.036101811
0.099223189 0.4777019 -0.037269205 -0.061787017 -0.99750197 0.0342387 0.046178378
0.10418922 0.47770074 -0.036421344 -0.076346584 -0.99707282 -0.004127732 0.037202664
0.1146492 0.47829002 -0.036107637 -0.018998403 -0.99976647 -0.010298399 0.041679371
0.12804037 0.47703463 -0.03787322 0.0062917811 -0.99947006 -0.03193884 0.08304739
0.13228703 0.47698629 -0.03632959 -0.017270142 -0.99857599 -0.050474677 0.092672147
0.14370312 0.47627169 -0.036994748 -0.028628036 -0.99958998 0.00051634782 0.073910408
0.15341321 0.47558257 -0.038239226 -0.22845753 -0.97182918 0.05792433 0.14106807
0.16424015 0.47551942 -0.03392401 -0.71786833 -0.6945377 0.047774479 0.14237878
0.17354003 0.47658503 -0.036783822 -0.86631489 -0.48478532 0.12033976 0.13691649
-0.17252107 0.48478156 -0.030600131 0.59653801 -0.80217534 -0.025637176 0.13108084
-0.1641805 0.4852725 -0.032697327 0.2434358 -0.96777403 -0.064439893 0.10810644
-0.1562546 0.48808977 -0.03672139 0.1623424 -0.98672664 -0.0039293808 0.089120291
-0.14665948 0.48297793 -0.032834679 0.040125672 -0.99886304 -0.025743607 0.072905734
-0.1214235 0.48643216 -0.031980958 0.044775736 -0.99258 -0.11304964 0.032293417
-0.11693636 0.48778692 -0.035003852 0.023649326 -0.99665356 -0.078245103 0.036513444
-0.10947331 0.48486912 -0.031414371 0.0098357936 -0.99989384 -0.010754096 0.037632424
-0.094690658 0.48698056 -0.034103833 0.026448362 -0.99783224 -0.060260538 0.036644738
-0.08713983 0.48562217 -0.031060018 0.022116818 -0.99332178 -0.11323724 0.029373435
-0.074288696 0.48515344 -0.033592459 0.016333155 -0.99845111 -0.05318452 0.037944306
-0.061669368 0.48661116 -0.032750007 0.030726865 -0.99676955 -0.074204318 0.038656645
-0.054729626 0.48484743 -0.033686325 0.011632211 -0.99565458 -0.092394076 0.032897368
-0.047012717 0.48444295 -0.031185783 0.0030694874 -0.99838817 -0.056670845 0.03377549
-0.036780119 0.48842868 -0.034050435 -0.010608574 -0.99971628 0.021325447 0.039247591
-0.025510227 0.48471299 -0.033365846 -0.023397258 -0.99766463 0.064170614 0.029345186
-0.01187325 0.48550805 -0.030187409 0.012228704 -0.99817926 0.05906596 0.030353816
-0.0051097022 0.48495123 -0.033463016 0.024213059 -0.97765678 0.20880835 0.040544014
0.0099652326 0.48377824 -0.031967983 0.064572766 -0.99252969 0.10351364 0.044969659
0.015104891 0.48521745 -0.032741804 0.047033116 -0.99733782 0.055721961 0.033593062
0.025799142 0.48727378 -0.035630897 0.070611142 -0.99591476 0.056285031 0.049111459
0.037735809 0.48907459 -0.035072166 -0.043229941 -0.99834126 -0.038025327 0.053433087
0.043561883 0.48772907 -0.035151161 0.0028621485 -0.99981034 -0.019264862 0.053389817
0.053986836 0.48674107 -0.032711584 -0.036454678 -0.99492788 -0.093752928 0.04338808
0.067543715 0.48513669 -0.031422745 0.00099062675 -0.99405241 -0.10889787 0.035255563
0.075989723 0.48562461 -0.033074036 -0.020525509 -0.99689049 -0.076079458 0.044557698
0.082853928 0.48637131 -0.031919215 0.0041901302 -0.99546289 -0.095058434 0.038533721
0.095701352 0.48855269 -0.039186519 -0.034719456 -0.99861968 -0.039412513 0.044213012
0.10488454 0.48493084 -0.031307887 -0.042881794 -0.99895513 -0.015805515 0.037283078
0.12267365 0.48835069 -0.037867926 0.03797042 -0.99889445 -0.027714862 0.04870528
0.14657526 0.4873971 -0.034634307 0.031354669 -0.99836159 -0.047864221 0.071488969
0.15193185 0.48690343 -0.033529215 -0.050388671 -0.99503845 -0.085786566 0.076885879
0.16220206 0.48735923 -0.035247833 -0.23026393 -0.9722327 -0.041738547 0.12606543
0.17285874 0.48450431 -0.03463487 -0.86033124 -0.50436115 0.073823929 0.10903089
-0.043123648 -0.49104148 -0.027791236 0.19560516 0.98067653 0.0034842633 0.090176925
-0.033087764 -0.49203554 -0.02696389 0.21514554 0.97593576 0.035520803 0.068730786
-0.02720185 -0.49107939 -0.021448458 0.10806001 0.94137198 -0.31959653 0.084808633
-0.01264686 -0.49389929 -0.028166508 0.24215581 0.95601374 -0.16552456 0.057623342
-0.0034211108 -0.49502468 -0.028610418 0.13180959 0.97523087 -0.17762609 0.05399473
0.0070801959 -0.49388272 -0.025246099 -0.13790892 0.96040612 -0.24207658 0.049362436
0.016741576 -0.49275354 -0.024664147 -0.20487835 0.9648723 -0.16445753 0.062051166
0.022922657 -0.49219513 -0.024828831 -0.23277323 0.96803045 -0.093453884 0.078554466
0.035481185 -0.49071646 -0.022947837 -0.23061183 0.97284013 -0.020008069 0.086899839
0.046374358 -0.4904536 -0.027101636 -0.16415584 0.97589868 0.14378618 0.06925083
-0.16636193 -0.48149294 -0.023911323 0.64949054 0.76003337 0.02261271 0.11832302
-0.12915894 -0.48200613 -0.025098229 -0.11057863 0.99320209 0.036360249 0.046643835
-0.11175287 -0.48068339 -0.025605803 -0.074651763 0.99253815 0.096411332 0.16979766
-0.10664123 -0.48069632 -0.027271722 0.070631899 0.99664932 0.041246023 0.14735609
-0.098142244 -0.48263392 -0.022344103 0.26085547 0.96386898 0.053953994 0.18866679
-0.083963916 -0.48469615 -0.023334939 -0.0034111254 0.99984509 0.017271049 0.10637952
-0.074521445 -0.48590225 -0.022686468 0.095909722 0.99303985 -0.068360753 0.09019763
-0.052699491 -0.48828131 -0.02150926 0.16417538 0.95355332 -0.25255182 0.10603455
0.068364881 -0.48565307 -0.027098393 -0.094532907 0.98441797 0.14827248 0.055592515
0.073387221 -0.48545557 -0.020548917 -0.054902244 0.99845123 0.0089993076 0.083121024
0.080031306 -0.48485199 -0.021468803 -0.064267389 0.99592465 0.063276216 0.075808123
0.095217198 -0.48315865 -0.024300899 -0.19982712 0.97711241 0.072940968 0.079855122
0.16318698 -0.48216009 -0.025382159 -0.27718687 0.96063185 0.018812444 0.082761966
-0.16742669 -0.47032627 -0.020959938 0.86701095 0.48308325 -0.12215789 0.096018493
-0.15337472 -0.47725165 -0.029238896 0.30429277 0.94171965 0.14342251 0.091033973
-0.1429106 -0.47725159 -0.022870094 0.038340695 0.9979257 0.051713776 0.059771113
-0.13134117 -0.47764969 -0.022239903 -0.22076364 0.97460902 0.037426628 0.093297414
-0.11233286 -0.47438431 -0.029545698 -0.29354712 0.95436454 -0.054940451 0.19554803
-0.1061156 -0.47542864 -0.029571166 -0.0022948009 0.99956387 -0.029440504 0.20954661
0.10627132 -0.47474292 -0.029835597 -0.017034905 0.98478997 0.17291194 0.22761992
