# .PCD v0.7 - Point Cloud Data file format
VERSION 0.7
FIELDS x y z normal_x normal_y normal_z curvature
SIZE 4 4 4 4 4 4 4
TYPE F F F F F F F
COUNT 1 1 1 1 1 1 1
WIDTH 565
HEIGHT 1
VIEWPOINT 0 0 0 1 0 0 0
POINTS 565
DATA ascii
0.056646187 0.47494859 -0.027055319 -0.061812509 -0.95249146 -0.29822677 0.039037749
0.063965455 0.47464472 -0.024246074 -0.073405966 -0.97535121 -0.20809029 0.022107081
0.075627767 0.47370249 -0.022705199 -0.089262143 -0.97677577 -0.19478551 0.015803641
0.08390218 0.47275105 -0.024719374 -0.076463893 -0.97458327 -0.21057211 0.018689005
0.090203457 0.4720737 -0.020629581 -0.12668811 -0.97495472 -0.18279375 0.01341092
0.10160634 0.47011134 -0.021184146 -0.14369208 -0.95545352 -0.257801 0.019660234
-0.064977661 -0.46012786 -0.018922903 0.22787696 0.72304791 -0.65213019 0.025982892
-0.052336439 -0.46328011 -0.019699879 0.13543619 0.74922472 -0.64832038 0.026865782
-0.046015527 -0.46336973 -0.019046402 0.10233891 0.77166569 -0.62774104 0.027205901
-0.036425453 -0.46298972 -0.017728522 0.061867174 0.70818597 -0.70330995 0.02555917
-0.029022532 -0.4627212 -0.016808253 0.053631756 0.63177019 -0.77329826 0.020318408
-0.014074114 -0.46655962 -0.019253556 0.038501978 0.75359333 -0.65621239 0.021896183
-0.0046235872 -0.46635079 -0.018570106 0.032096505 0.69796932 -0.71540809 0.014348708
0.0084218243 -0.46559441 -0.018035725 -0.018169988 0.72230792 -0.69133294 0.023324493
0.01446778 -0.46231031 -0.016391618 -0.036964763 0.6397953 -0.76765585 0.021418547
0.023904152 -0.46362391 -0.017288001 -0.096616507 0.6645543 -0.74096739 0.022458348
0.032747429 -0.46256101 -0.01732426 -0.1189457 0.68919164 -0.7147494 0.022269666
0.046016049 -0.46199328 -0.018218666 -0.13279319 0.72576928 -0.67499995 0.022308132
-0.071723118 -0.45599326 -0.017862963 0.20917271 0.65105182 -0.72964257 0.022355994
-0.063506149 -0.45553204 -0.016482769 0.18978462 0.59390539 -0.78183001 0.018253533
-0.045682594 -0.45580998 -0.01457186 0.098062851 0.63737434 -0.76428902 0.023945529
-0.035992615 -0.4554542 -0.01369061 0.059945129 0.58686489 -0.80746281 0.017648539
-0.022586979 -0.45586693 -0.013048289 0.035819676 0.58462232 -0.81051445 0.018261192
-0.015155241 -0.45567748 -0.01284578 0.049192574 0.55577594 -0.82987541 0.016445955
-0.0061336583 -0.45372191 -0.011737652 0.015507219 0.4706378 -0.88219017 0.0097147152
0.0046333061 -0.45617986 -0.012949509 -0.0020063496 0.5500918 -0.83510172 0.018283233
0.016029239 -0.45467931 -0.012481108 -0.02490174 0.5207876 -0.85332304 0.017841022
0.022261733 -0.45588112 -0.013202894 -0.047404051 0.56202096 -0.82576352 0.019891856
0.034626883 -0.457899 -0.014985949 -0.11167141 0.61217201 -0.78279942 0.022715297
0.044946559 -0.45513606 -0.014515015 -0.093462721 0.59403133 -0.79899406 0.019228894
0.056698415 -0.45439455 -0.015539322 -0.12390424 0.64352888 -0.75532663 0.021253427
0.063864857 -0.45427892 -0.016345682 -0.19516507 0.65318531 -0.73161429 0.022040665
0.071871392 -0.45313844 -0.017400855 -0.20051819 0.61079305 -0.76597923 0.022155439
-0.12195867 -0.44062012 -0.019228758 0.19014852 0.5345968 -0.82343775 0.01521529
-0.1160888 -0.4407934 -0.018503049 0.14293373 0.5394156 -0.82981974 0.015774598
-0.1071948 -0.44252625 -0.018259766 0.13093494 0.55123103 -0.82401478 0.014501316
-0.097493589 -0.44425815 -0.018007848 0.15070793 0.57946336 -0.80094272 0.019412793
-0.083018854 -0.44673464 -0.016845545 0.2065136 0.55519122 -0.80567664 0.021535276
-0.076535717 -0.44733363 -0.014904006 0.23257945 0.51742989 -0.82351267 0.017686553
-0.06255614 -0.44336388 -0.011699043 0.14963032 0.39808002 -0.90506518 0.0065651876
-0.052506659 -0.44399554 -0.010918804 0.10272165 0.38756335 -0.91610205 0.005709447
-0.04807226 -0.44856605 -0.011637582 0.083865896 0.44340691 -0.89238822 0.0098009733
-0.037512295 -0.44704026 -0.010355165 0.054789763 0.40524918 -0.91256285 0.0081081027
-0.018127574 -0.44926253 -0.010209297 0.023038222 0.42124328 -0.90665501 0.0094716921
-0.0036764436 -0.44967353 -0.010059353 0.0070382878 0.42744583 -0.90401357 0.009732116
0.036294267 -0.4454959 -0.010446893 -0.080156669 0.40211543 -0.91207343 0.0054563731
0.047477622 -0.44371518 -0.010523903 -0.083345242 0.40343693 -0.91120374 0.005581371
0.056317657 -0.44641125 -0.012136059 -0.1170307 0.41127527 -0.90396708 0.0054025543
0.064502373 -0.44436455 -0.01258688 -0.15431409 0.39973268 -0.90354908 0.0054327687
0.074080274 -0.44843495 -0.015533417 -0.20057808 0.53917181 -0.81796223 0.016199037
0.084160842 -0.4447836 -0.017057719 -0.20840269 0.49684131 -0.84244698 0.011774136
0.094029747 -0.44217622 -0.017027304 -0.1709141 0.48210061 -0.85928309 0.014566083
0.10324059 -0.44407958 -0.018916607 -0.14870366 0.5388869 -0.82914901 0.012052482
-0.13511574 -0.43583274 -0.019251663 0.31412464 0.45460963 -0.83346009 0.014540404
-0.12284444 -0.43336168 -0.017258683 0.18911274 0.40951392 -0.89248788 0.0085218493
-0.11166896 -0.43729919 -0.016661879 0.085034736 0.46126023 -0.88318068 0.011794624
-0.10540366 -0.43695894 -0.015981844 0.11648481 0.47120523 -0.87429804 0.012490636
-0.095646121 -0.43259946 -0.01365938 0.14638601 0.3617855 -0.92069668 0.0054320111
-0.081129484 -0.43610871 -0.011691198 0.1780692 0.39693055 -0.90040958 0.0089995656
-0.075039864 -0.43865952 -0.011766704 0.186231 0.39783666 -0.8983562 0.010319455
-0.068947881 -0.43865049 -0.010609498 0.15442535 0.35922757 -0.92038488 0.0051099174
0.0633711 -0.43994063 -0.010717916 -0.14198177 0.34791115 -0.92671406 0.0026483703
0.075705647 -0.43542695 -0.011326153 -0.17601088 0.35788691 -0.91702628 0.0040486804
0.086775064 -0.43322918 -0.013166257 -0.17105784 0.37385744 -0.91157544 0.0048454781
0.096710667 -0.43172652 -0.013769915 -0.14506812 0.39254308 -0.90822089 0.0059190262
0.10555214 -0.43658999 -0.016468339 -0.10880909 0.43225342 -0.89516336 0.007184539
0.11681156 -0.43473214 -0.016640395 -0.14265499 0.42130557 -0.89562893 0.0066281022
0.12556747 -0.43413001 -0.017834259 -0.22220972 0.43855909 -0.87079781 0.010644526
0.13106132 -0.43356556 -0.018362246 -0.24519901 0.44008031 -0.86383259 0.012679406
-0.14432099 -0.42421117 -0.017617121 0.45833376 0.36043197 -0.81241542 0.022270678
-0.1316995 -0.42666957 -0.016552992 0.21239951 0.32538334 -0.92141855 0.0052369358
-0.12416112 -0.42418835 -0.01442429 0.14265878 0.31113338 -0.93959802 0.0022658207
-0.11397479 -0.42486763 -0.013236783 0.13207333 0.32728639 -0.93564963 0.0034971589
-0.10402082 -0.42189157 -0.011410117 0.13881597 0.27341741 -0.95182616 0.0010666527
-0.095366634 -0.42569834 -0.011644758 0.14874379 0.29005975 -0.9453786 0.0012203652
0.086143978 -0.42718133 -0.011381196 -0.1567537 0.31057742 -0.93753392 0.0015244368
0.094839379 -0.42545074 -0.0118077 -0.14235751 0.31806308 -0.93732071 0.0015647595
0.10548513 -0.42503929 -0.012724617 -0.12412877 0.32356933 -0.9380272 0.0023202405
0.1140822 -0.42588714 -0.013904557 -0.13092043 0.34423688 -0.92971003 0.0035200443
0.12516722 -0.42595258 -0.015624219 -0.1868549 0.34847134 -0.91850579 0.0056041433
0.13549747 -0.42276523 -0.015997009 -0.34027004 0.33296064 -0.8794052 0.018769626
0.14301461 -0.42200655 -0.016811751 -0.3866525 0.34922004 -0.85354859 0.018088259
-0.15298679 -0.41435128 -0.018160384 0.57268232 0.28041521 -0.77032608 0.024986204
-0.1450389 -0.41579109 -0.015183151 0.46075991 0.2678721 -0.84613526 0.024358286
-0.13385922 -0.41564369 -0.013392155 0.21680166 0.26787081 -0.93874502 0.005242907
-0.12473651 -0.41417807 -0.011829593 0.13877559 0.24428377 -0.95972228 0.00047042556
-0.11499052 -0.41878617 -0.011718052 0.1205644 0.26914394 -0.95552379 0.0010460655
-0.10442169 -0.41969258 -0.010866363 0.13303268 0.26175684 -0.95592135 0.00046423299
0.10822628 -0.41687879 -0.010834354 -0.11920281 0.25404367 -0.95981896 0.00041251435
0.11504688 -0.4123086 -0.010454082 -0.11790545 0.23557809 -0.96467674 0.00017417788
0.12374006 -0.41836163 -0.013215827 -0.14560395 0.2630251 -0.95373857 0.0014434112
0.13564 -0.41464561 -0.013746251 -0.27975962 0.26430979 -0.92297065 0.012546159
0.14432061 -0.41539747 -0.015355627 -0.44460747 0.28685671 -0.84855026 0.025330899
0.15081519 -0.41047272 -0.017633241 -0.64505523 0.26403257 -0.71707082 0.044907663
-0.15483925 -0.40578735 -0.017400395 0.6524567 0.26069686 -0.71157396 0.026027046
-0.14461051 -0.40571615 -0.01268134 0.41143158 0.26297385 -0.87267905 0.019216662
-0.13175012 -0.40969652 -0.011730891 0.16905253 0.23943017 -0.95608288 0.0015429856
-0.1230666 -0.40981525 -0.010567995 0.1314202 0.23487762 -0.96309978 0.00020299795
0.11967292 -0.40881854 -0.010296423 -0.12768903 0.22748563 -0.9653734 0.00015306736
0.1284613 -0.40579224 -0.010844174 -0.20260118 0.23249552 -0.95126158 0.0042743459
0.1344772 -0.40308645 -0.010969326 -0.24732657 0.22161587 -0.94324762 0.0075074919
0.14538343 -0.40644312 -0.01353824 -0.42106801 0.24957046 -0.87201858 0.026997283
0.15343401 -0.40218347 -0.017550778 -0.68242764 0.22509983 -0.6954298 0.028977253
-0.15878096 -0.39842463 -0.019123424 0.75481337 0.19366406 -0.62669855 0.02917145
-0.14458132 -0.39525083 -0.010781524 0.40769449 0.23601098 -0.88209069 0.02255849
0.14386009 -0.39477021 -0.011183159 -0.38175172 0.16731468 -0.90899473 0.021177521
0.1529294 -0.39425424 -0.01503956 -0.6149013 0.20808801 -0.76065481 0.02835981
-0.16074632 -0.38583994 -0.017690264 0.7762863 0.16693148 -0.60787624 0.025876643
-0.15737791 -0.38402909 -0.013771753 0.67500985 0.19037195 -0.71282542 0.030576892
0.15512775 -0.38564396 -0.015024716 -0.67797697 0.18999863 -0.71010405 0.027344866
-0.16263868 -0.37892824 -0.018630579 0.77443492 0.1499504 -0.61462635 0.025987336
-0.15625982 -0.37732005 -0.010989897 0.64871234 0.19300725 -0.73615253 0.032689545
0.15673661 -0.37322521 -0.013349516 -0.68196684 0.19304809 -0.70544577 0.024459125
0.16011903 -0.37545723 -0.01856789 -0.75410175 0.18348014 -0.63060737 0.032047752
-0.16265504 -0.36613622 -0.014677368 0.80798763 0.13755208 -0.57291824 0.020905036
0.15798146 -0.36682305 -0.012896421 -0.72015351 0.20481405 -0.6628952 0.025182165
0.16147491 -0.36626589 -0.018320488 -0.85965794 0.14206173 -0.4907206 0.033380494
-0.16318469 -0.35673365 -0.012979139 0.82771897 0.071499117 -0.5565691 0.034502879
0.16260165 -0.35361549 -0.016226357 -0.94244927 0.093972862 -0.3208715 0.073720738
-0.16686992 -0.34539208 -0.015830101 0.90390456 0.12392729 -0.40938795 0.10699274
0.16295058 -0.34364203 -0.013684059 -0.87330317 0.10510961 -0.47570312 0.088080563
-0.16865848 -0.33599725 -0.016964836 0.95760077 0.075431846 -0.27804831 0.11658141
0.16366586 -0.33703589 -0.013178012 -0.88739884 0.10542352 -0.44878626 0.080744222
-0.16895714 -0.32664961 -0.014055073 0.91658944 0.062458068 -0.39492118 0.10374593
0.16600943 -0.32540286 -0.014025024 -0.91228771 0.11737768 -0.39236927 0.13668965
-0.17116001 -0.31504649 -0.016814314 0.9671663 0.11237042 -0.22795226 0.13393407
-0.16934097 -0.31660005 -0.01179729 0.9205426 0.07448563 -0.3834751 0.11108949
0.16775024 -0.31601328 -0.016183337 -0.9513604 0.014229499 -0.30775148 0.10562647
-0.17083621 -0.30690694 -0.013062504 0.93995512 0.1079305 -0.3237828 0.13249986
0.1691073 -0.3048332 -0.016682185 -0.98154688 0.12109243 -0.14799425 0.12897432
-0.17251249 -0.29480994 -0.015142018 0.97947687 0.079020455 -0.18542054 0.1089426
0.16826619 -0.29247576 -0.010827914 -0.93248785 0.12546113 -0.3387121 0.12353758
0.17065853 -0.29192397 -0.018402476 -0.99241698 0.08911635 -0.084657989 0.10980187
-0.17278756 -0.28591347 -0.01389543 0.97042376 0.14516196 -0.19288811 0.10795719
0.17122544 -0.2856499 -0.018920831 -0.99312198 0.11460812 -0.023954011 0.13170627
-0.17360701 -0.27275777 -0.013864952 0.96825141 0.21056239 -0.13473172 0.10561963
0.16985321 -0.27997744 -0.012808945 -0.99032587 0.076713592 -0.11562762 0.11610382
0.17201103 -0.27699283 -0.019921191 -0.99950796 0.031347226 -0.0010863132 0.11722296
-0.17449206 -0.26413745 -0.015524973 0.97653931 0.20762806 -0.057109866 0.10512757
0.170523 -0.26616725 -0.012595709 -0.98791838 0.10811847 -0.11103044 0.10309247
-0.17492203 -0.25590995 -0.015725516 0.98078948 0.18381044 -0.065312818 0.080879711
0.17161344 -0.25673711 -0.014923763 -0.98148799 0.10402948 -0.16080807 0.079202302
-0.17467557 -0.24452209 -0.012653055 0.96270537 0.070367269 -0.26124114 0.03320552
0.17204271 -0.24591701 -0.014797248 -0.96155268 0.13123009 -0.24123666 0.027726147
-0.17536613 -0.23651057 -0.014239125 0.9395476 0.040990785 -0.33995605 0.012153581
-0.17702848 -0.2241326 -0.01963916 0.98205876 0.038186539 -0.18466821 0.0065999236
0.17331544 -0.22720663 -0.0172159 -0.96634871 0.045491058 -0.25318128 0.0072579607
-0.17604989 -0.21662454 -0.013845066 0.95352215 0.026306404 -0.30017227 0.010955596
0.17308819 -0.21385321 -0.013853667 -0.95949239 0.044799313 -0.27814975 0.0068145772
0.17399517 -0.2051717 -0.016579052 -0.97784346 0.023703787 -0.20799106 0.0043584891
-0.17657694 -0.19797067 -0.013243971 0.95491284 0.026455972 -0.29570523 0.0064750323
0.17418271 -0.19609936 -0.016057588 -0.97350687 0.044086862 -0.22436757 0.004957967
-0.17663772 -0.1855382 -0.013927112 0.95908141 0.046549458 -0.27927747 0.0084745446
0.17382951 -0.18456991 -0.013984705 -0.95483381 0.033955965 -0.29519394 0.0074361633
-0.17791259 -0.17417927 -0.015609807 0.96936101 0.050522245 -0.24038878 0.0068165921
0.17437224 -0.17426914 -0.013524294 -0.95394933 0.06004608 -0.29389656 0.0089529436
-0.17736052 -0.16231537 -0.011405494 0.95831841 0.043766472 -0.28233001 0.0068352534
0.17447683 -0.16639027 -0.012857202 -0.95852983 0.049497459 -0.28066093 0.007077009
-0.17852759 -0.15493448 -0.015599599 0.97189355 0.022391275 -0.23435344 0.0045067798
0.17523929 -0.1581922 -0.01511036 -0.9748345 0.043114036 -0.21872108 0.0049677035
-0.17918751 -0.14386879 -0.016987054 0.97295457 0.034274466 -0.22843972 0.0049978248
0.17534235 -0.14415881 -0.013532497 -0.96972609 0.037844535 -0.24124487 0.0036623348
-0.17883965 -0.13697055 -0.014407742 0.96786118 0.02671756 -0.2500619 0.0051066224
0.17572588 -0.13691901 -0.014214588 -0.96697783 0.025599625 -0.25357184 0.0047449074
-0.17926325 -0.12452018 -0.014506054 0.97116417 0.043928608 -0.23432976 0.005773921
0.17606634 -0.1245451 -0.013952629 -0.97081858 0.03763463 -0.23684351 0.0059040217
-0.18006347 -0.11014695 -0.016070401 0.97789937 0.039351206 -0.20533957 0.0044757067
-0.17926928 -0.11663183 -0.013391452 0.96981442 0.039198328 -0.24067314 0.0053780815
0.17598152 -0.11432409 -0.012085401 -0.95887011 0.017293131 -0.28331801 0.0068926653
-0.18073535 -0.1051074 -0.018400911 0.98578197 0.037531529 -0.16378446 0.0035023962
-0.17927046 -0.10364874 -0.01150606 0.95498097 0.036756445 -0.2943812 0.0090830047
0.17687309 -0.10379347 -0.014625228 -0.9746117 0.027885277 -0.22215854 0.0048556249
-0.18094575 -0.092991054 -0.017616492 0.98450136 0.02573484 -0.17347831 0.0030839338
-0.17957471 -0.098674349 -0.012174778 0.96321386 0.040780272 -0.2656239 0.0060201026
0.17741199 -0.097074062 -0.016116569 -0.97995579 0.025969196 -0.19751507 0.0047976831
-0.18073849 -0.083854668 -0.015346927 0.98258418 0.023960495 -0.18426661 0.0034033866
0.17775138 -0.084463641 -0.01584135 -0.9778434 0.038811672 -0.20570804 0.0043012979
-0.18119359 -0.074077338 -0.016011521 0.98460668 0.02743444 -0.17261843 0.0030112911
-0.17990467 -0.074913383 -0.010169555 0.95761693 0.026895272 -0.28678656 0.0082473634
0.1778087 -0.073901139 -0.014541809 -0.97524065 0.028181748 -0.21934308 0.0047291713
-0.18122473 -0.067279145 -0.015144952 0.9830668 0.032041013 -0.18042451 0.0033775049
0.178464 -0.06268198 -0.01593232 -0.97845 0.0077356342 -0.20633915 0.0047644828
-0.18166032 -0.053441286 -0.016066682 0.98677224 0.023292001 -0.16043076 0.0025594034
0.17873031 -0.055291519 -0.016586086 -0.98086977 0.016837439 -0.19393548 0.0049246117
-0.18071458 -0.045371648 -0.010548281 0.97130787 0.018239919 -0.23712499 0.0075719454
-0.18132563 -0.035517666 -0.012797754 0.98522764 0.0098776519 -0.17096487 0.0027293968
0.1789995 -0.035552416 -0.016842298 -0.98303288 0.012991745 -0.18296903 0.0041593662
-0.18202241 -0.027233705 -0.015597479 0.98893207 0.007104516 -0.1481991 0.0030140223
0.1792343 -0.026341427 -0.017368352 -0.98585677 0.020710958 -0.16630523 0.003964982
-0.1823376 -0.014963072 -0.014977115 0.9851526 0.0085696019 -0.17146681 0.0064926604
0.17938614 -0.016844975 -0.01577566 -0.98309296 0.024023706 -0.18152434 0.0059665367
-0.18128605 -0.0023890757 -0.014060465 0.98244584 0.0082783941 -0.18636447 0.0063817976
0.17847243 -0.0051717255 -0.014016417 -0.97807729 0.012219394 -0.2078834 0.005784533
-0.181549 0.0053996644 -0.014792657 0.98492187 -0.0084972531 -0.17279075 0.0060018022
0.1784572 0.0078764223 -0.015722731 -0.97948593 -0.0096451687 -0.20128134 0.0064214016
-0.18227676 0.015254321 -0.015377676 0.98736143 -0.01930221 -0.1573047 0.005319743
0.1791757 0.012982138 -0.015202926 -0.97848284 -0.025387637 -0.20476034 0.0053581726
-0.18161035 0.025548652 -0.015837306 0.99015301 -0.01072598 -0.13957794 0.0027762684
0.17850327 0.024622789 -0.0139393 -0.9785791 -0.032764889 -0.20324712 0.0052061686
-0.18159485 0.03217474 -0.015113274 0.98579949 -0.012967093 -0.1674255 0.0045197457
0.17876022 0.034987845 -0.016745271 -0.98691368 -0.0081496686 -0.16104341 0.0019717899
-0.18132222 0.045179844 -0.013336922 0.97910219 0.012442917 -0.20298773 0.0047750422
0.17855483 0.0405261 -0.014943974 -0.98716438 -0.00064131804 -0.15970615 0.0020804226
-0.18128079 0.055845253 -0.013053131 0.97736895 0.007473086 -0.21140978 0.0030725738
0.17779943 0.05509951 -0.010982725 -0.97892183 0.016385071 -0.20357731 0.0034745773
-0.18138988 0.06639386 -0.013545092 0.97476107 -0.0017145432 -0.2232444 0.0042040595
0.17866969 0.066068918 -0.015712013 -0.98930174 0.0013693528 -0.14587773 0.0011302202
-0.18124317 0.072502621 -0.012752124 0.97705692 -0.0072591663 -0.21285476 0.0037650289
0.17891082 0.07796745 -0.016828636 -0.9878428 0.0032199072 -0.15542285 0.0017463436
-0.18167931 0.082814388 -0.015424659 0.98552144 -0.0025768778 -0.16953152 0.0018658006
0.17867227 0.084407896 -0.015665911 -0.98579526 -0.0030212039 -0.16792427 0.001343063
-0.18194111 0.097254671 -0.016327742 0.98883408 -0.0054999846 -0.14891914 0.0016391815
0.17837879 0.095005065 -0.013650105 -0.98109037 -0.0094422298 -0.19331984 0.002924788
-0.18114321 0.10766522 -0.012702796 0.97577345 -0.01490905 -0.21827464 0.0040057478
0.17888263 0.10432769 -0.017152201 -0.9883073 -0.008765921 -0.1522231 0.001266212
0.17833176 0.11728856 -0.014402717 -0.98731494 -0.019760331 -0.15753967 0.0013977718
-0.18101706 0.12628479 -0.012855407 0.97797722 -0.023292586 -0.20740767 0.0033827361
0.17788847 0.12238626 -0.012321199 -0.98142833 -0.024319118 -0.19028153 0.004089145
-0.18120512 0.13617665 -0.014919404 0.98075479 -0.01081052 -0.19494402 0.0028225542
0.17806712 0.13417488 -0.014575684 -0.98737556 -0.018724468 -0.15728584 0.0016352168
-0.18089835 0.14364541 -0.014416348 0.976978 -0.015715167 -0.21276063 0.0035612106
0.17710343 0.14651166 -0.010816442 -0.9714815 -0.015948767 -0.23657826 0.0047725029
-0.18086216 0.15510222 -0.015071436 0.98395187 -0.01983528 -0.17732844 0.0026272102
0.17780159 0.15512694 -0.015350968 -0.98434961 -0.01715605 -0.17538935 0.0033878756
-0.18088731 0.16530474 -0.016995128 0.98713672 -0.026332803 -0.157695 0.0029724541
0.17721006 0.16550815 -0.013395842 -0.97717762 -0.015299085 -0.21187225 0.0049946029
-0.18086112 0.1720867 -0.017268948 0.98749506 -0.0028966938 -0.1576234 0.0030509566
-0.17912951 0.1782255 -0.010926676 0.97550493 0.013643204 -0.2195538 0.005149757
0.17802735 0.17517187 -0.019817963 -0.99397224 -0.023397749 -0.1071064 0.0017870538
-0.180535 0.18557248 -0.015921362 0.99753797 -0.047956642 -0.051168129 0.02723898
0.17728528 0.18700559 -0.015033173 -0.99610668 -0.052186172 -0.071050972 0.022731571
-0.18079942 0.19785172 -0.019037411 0.98292434 -0.079305075 0.1660438 0.081320442
-0.17966077 0.19716924 -0.011605151 0.99488252 -0.047336351 -0.089263715 0.036617212
0.17708734 0.19652419 -0.014049228 -0.99378896 -0.092118233 -0.062431481 0.050370827
-0.1804702 0.20397642 -0.015149248 0.99757475 -0.061250865 0.033058405 0.068041824
-0.17975414 0.20451611 -0.011907799 0.99555421 -0.042436462 -0.084089182 0.046338409
0.17679855 0.20422307 -0.012270052 -0.99299079 -0.11283832 -0.035167586 0.073806331
-0.18014222 0.21045224 -0.014886597 0.99923307 -0.024435339 0.030599374 0.069429412
-0.17935516 0.21474031 -0.013730191 0.99762094 -0.015729595 0.067119695 0.077368952
0.1760477 0.21648923 -0.01292883 -0.99813962 -0.060857479 0.0036883077 0.075427055
-0.18079415 0.22630337 -0.019826394 0.98928005 -0.072156906 0.12695818 0.10123719
-0.17942055 0.22526538 -0.013539215 0.98935729 -0.096408248 0.10898435 0.083218083
-0.18067832 0.23642504 -0.018896157 0.98722941 -0.022903105 0.15765019 0.11773444
-0.17927019 0.23702344 -0.01278389 0.99111074 -0.078724951 0.10724722 0.10940972
0.17688322 0.23591781 -0.015587103 -0.99708778 0.068302698 0.033922955 0.097160734
-0.17921016 0.244414 -0.013712723 0.99980521 -0.0078055486 -0.018130245 0.067170553
0.17631274 0.24488612 -0.014521167 -0.99992895 -0.0029101211 0.011556405 0.10495275
-0.17830166 0.25472742 -0.012113346 0.99536359 -0.056612227 -0.077758737 0.060638189
0.1761786 0.25499368 -0.015628422 -0.99709904 -0.071380347 0.02642769 0.11471083
-0.17878495 0.26266164 -0.015386494 0.99882364 -0.04426793 0.019789198 0.089708857
0.17561649 0.26650125 -0.015878048 -0.99780983 -0.062809974 0.020750085 0.11711849
-0.17752434 0.27300301 -0.012947048 0.99766439 -0.04423862 0.052044231 0.11118647
0.17491886 0.27543116 -0.015261471 -0.99886495 -0.044180062 -0.017803246 0.092705749
-0.1765649 0.28565669 -0.014732203 0.9957574 -0.0046690344 -0.091898933 0.059016544
0.17392752 0.28546357 -0.016381156 -0.99695337 -0.066479221 -0.040796708 0.071979262
-0.17563856 0.29836395 -0.017470403 0.99247348 -0.097244821 -0.074430101 0.049049888
0.17287631 0.29179838 -0.014544244 -0.99306631 -0.069836661 -0.094563067 0.038255241
-0.17488402 0.30396447 -0.017272679 0.98744887 -0.071176477 -0.14099191 0.025734164
0.17123561 0.30396903 -0.014180799 -0.98292148 -0.083942823 -0.16376497 0.015928684
-0.17286289 0.31727484 -0.013285453 0.96535349 -0.10066453 -0.24074756 0.0030622494
0.16955876 0.31798652 -0.013326447 -0.96718949 -0.11971985 -0.22407947 0.0026177284
0.17021823 0.31424856 -0.01426723 -0.96594101 -0.12500839 -0.22656322 0.0027615395
-0.17192817 0.32558393 -0.014459155 0.97222394 -0.11129751 -0.20589676 0.0018876946
0.16905285 0.32377473 -0.01488803 -0.97106272 -0.12383633 -0.20421003 0.0021469556
-0.17064247 0.33274359 -0.012114974 0.96632117 -0.11842567 -0.22847062 0.0034190493
-0.16973351 0.33695289 -0.010347126 0.96578944 -0.11481406 -0.23252647 0.0030495068
0.16787922 0.33680502 -0.016853921 -0.97483432 -0.11409979 -0.19151813 0.0015192147
-0.17036887 0.34459263 -0.019732622 0.97555602 -0.12470419 -0.18094026 0.00092437747
-0.16963032 0.34382159 -0.013456354 0.96857041 -0.11754113 -0.21921559 0.0027203499
0.16671473 0.34396824 -0.015063486 -0.9720518 -0.1262463 -0.19793211 0.0016906519
-0.16808654 0.35495251 -0.013143359 0.9663412 -0.12712306 -0.22366135 0.0025726859
0.16538799 0.35453853 -0.015276534 -0.97309923 -0.10566815 -0.2047244 0.0014140256
-0.16771074 0.36510861 -0.019732643 0.97364199 -0.1330777 -0.1852337 0.00082187651
0.16409814 0.36296839 -0.014326219 -0.9721058 -0.13143875 -0.19425295 0.00071382418
-0.16645399 0.37426829 -0.019576911 0.9696331 -0.14081116 -0.19995944 0.001224004
0.16211866 0.37951326 -0.01609559 -0.97183889 -0.14547361 -0.18538226 0.00075463956
-0.16340512 0.38586074 -0.011914961 0.95786846 -0.14666685 -0.24693485 0.0037087828
0.16133085 0.38555306 -0.017531289 -0.96999842 -0.14754075 -0.19322196 0.0009486698
-0.1630531 0.3938005 -0.017170563 0.96392339 -0.16312854 -0.21033487 0.0017569205
0.15853783 0.39800605 -0.013055437 -0.95621252 -0.18447873 -0.22721183 0.0017526741
0.16000421 0.3950581 -0.019033069 -0.96522105 -0.16649055 -0.20156674 0.0012288627
-0.1610111 0.40541124 -0.016659027 0.95987934 -0.18165298 -0.21362062 0.0022999826
-0.15975559 0.40798396 -0.012414177 0.95665401 -0.18645261 -0.22371531 0.0022108061
0.15758789 0.40813643 -0.017746534 -0.95422041 -0.18484131 -0.23515338 0.0016294704
-0.1587297 0.41655159 -0.016149633 0.95323324 -0.22057307 -0.2066251 0.0022627341
0.15546387 0.41587853 -0.015174806 -0.9535659 -0.20074069 -0.22453336 0.0024224671
-0.15649587 0.42230567 -0.011479216 0.93017268 -0.25064641 -0.26824483 0.0057400279
0.15270817 0.42881715 -0.015394161 -0.92573905 -0.28840533 -0.24460109 0.0038974425
-0.15379174 0.43465504 -0.012957725 0.91808122 -0.32689017 -0.22420879 0.004121088
0.15200445 0.43201923 -0.015729964 -0.92108387 -0.30737492 -0.23900895 0.0050735842
-0.15037684 0.44265494 -0.01708369 0.8873921 -0.41677934 -0.19705375 0.0078079621
-0.14804588 0.44721827 -0.014880747 0.81482917 -0.52159274 -0.25297138 0.013658166
0.14685789 0.44354796 -0.013489368 -0.84637988 -0.46418038 -0.2611084 0.0091610122
-0.1459167 0.45164689 -0.014820922 0.75688916 -0.61590093 -0.21859764 0.014821342
0.13623308 0.45935842 -0.018096086 -0.57988298 -0.7884357 -0.20519485 0.018256515
0.1425197 0.45228449 -0.015386431 -0.8010149 -0.53924149 -0.25998822 0.010163216
-0.13367817 0.46196565 -0.0112965 0.51066452 -0.83625895 -0.19973168 0.014567551
-0.12560983 0.46505439 -0.0144507 0.38238743 -0.90353978 -0.19337983 0.010790114
-0.11978973 0.46657869 -0.017829023 0.27643296 -0.94512331 -0.17414591 0.0084384615
-0.10785846 0.46932209 -0.017062999 0.18757138 -0.96966749 -0.15672272 0.0059398799
-0.028032906 0.46781567 -0.01567548 -0.17617294 -0.98364544 -0.037479706 0.022183042
-0.014076565 0.46628723 -0.015286732 -0.14107242 -0.9897539 -0.022041487 0.033416975
-0.0006687328 0.46604395 -0.014651457 -0.0072894259 -0.99994457 -0.0075877309 0.034359295
0.004895051 0.46602437 -0.014243767 0.06112244 -0.99812996 -0.00080541172 0.041715454
0.015043205 0.4669354 -0.018426528 0.15206435 -0.98431885 -0.089402057 0.038460508
0.023781205 0.46729112 -0.013567207 0.18609574 -0.98240805 -0.01558288 0.027220268
0.10388634 0.46960387 -0.012270547 -0.21008146 -0.96019202 -0.18411145 0.0047471011
0.11495083 0.46681136 -0.016431192 -0.28436315 -0.93820709 -0.19724384 0.0093253516
0.12728453 0.46323046 -0.013485 -0.42734694 -0.87982833 -0.2080306 0.011823656
0.13340193 0.4607051 -0.015398709 -0.55009514 -0.81098592 -0.19924131 0.016311459
-0.10267049 0.47031471 -0.011763513 0.16968286 -0.97509599 -0.14281316 0.0036518159
-0.095571466 0.47153124 -0.015375721 0.14490671 -0.9802742 -0.13440429 0.0027253579
-0.086198732 0.4728604 -0.016911019 0.13355997 -0.97959483 -0.15018569 0.0080785109
-0.073480673 0.47419828 -0.018241975 0.086629651 -0.98705143 -0.13499951 0.0091204001
-0.06712079 0.47465804 -0.014609599 0.090401538 -0.99210888 -0.08687602 0.0013453331
-0.055749465 0.4757092 -0.015324433 0.00067619368 -0.99332821 -0.11531956 0.010677497
-0.040493697 0.4762136 -0.013371499 -0.095290653 -0.99258006 -0.075528458 0.01517092
-0.033549227 0.4763124 -0.01591799 -0.19280805 -0.97740811 -0.086593613 0.02662049
-0.028030945 0.47338665 -0.017027268 -0.17355029 -0.98049182 -0.092282876 0.026550459
0.026289374 0.47482464 -0.015628491 0.14860719 -0.98580956 -0.078072697 0.02634527
0.037936531 0.47606885 -0.015963819 0.12164335 -0.98855835 -0.089192651 0.018987423
0.046738446 0.47587013 -0.015677456 0.067099988 -0.98948878 -0.12809971 0.018177688
0.05572056 0.47541595 -0.01391389 -0.057706226 -0.99184936 -0.11359945 0.0048625767
0.087838538 0.47204918 -0.012853081 -0.12373636 -0.98271698 -0.13768376 0.0034124146
0.096125461 0.47108999 -0.016612783 -0.15933582 -0.9774093 -0.13886355 0.0044724718
-0.035089672 -0.44172511 -0.0085573904 0.062592372 0.31900027 -0.94568545 0.0010785349
-0.015288957 -0.44402072 -0.0086537255 0.025848214 0.35283455 -0.93532866 0.0033592884
-0.00533925 -0.44378319 -0.0081436746 0.00182649 0.32457012 -0.94585991 0.0014382342
0.0057813814 -0.44490087 -0.008514069 -0.016286802 0.34033227 -0.94016415 0.0030740241
0.0137561 -0.44815484 -0.0097566526 -0.021963559 0.38379127 -0.92315865 0.0040372056
0.024238857 -0.44342056 -0.0087238709 -0.040312175 0.33160594 -0.94255632 0.0017096597
0.032083172 -0.44388866 -0.0091423243 -0.051231779 0.36700654 -0.92880648 0.0029572847
0.04137582 -0.44235644 -0.009425221 -0.06681896 0.35686681 -0.93176246 0.0025079418
-0.07213264 -0.43073994 -0.0087017491 0.12813285 0.28835419 -0.94891191 0.00063245336
-0.054896835 -0.43643358 -0.0085324598 0.091085799 0.30365744 -0.94841743 0.00082072435
-0.046871722 -0.43273613 -0.0067846254 0.076921344 0.27686387 -0.95782542 0.00037373946
-0.033411101 -0.43614078 -0.0069416189 0.050168455 0.2929922 -0.95479769 0.00061319448
-0.023956383 -0.43525156 -0.0061854753 0.039433707 0.28367549 -0.9581092 0.000455437
-0.011410813 -0.43346465 -0.005421917 0.01474988 0.27018997 -0.96269405 0.00026934964
-0.0049538589 -0.43223745 -0.0049991608 0.0072527127 0.26982981 -0.96288073 0.00028041191
0.0054552681 -0.43324491 -0.0053262473 -0.013450348 0.2739335 -0.96165454 0.00023067923
0.014860011 -0.43620244 -0.0063050226 -0.024179572 0.28451172 -0.95836765 0.00048192963
0.025597041 -0.43575335 -0.0065667122 -0.043106366 0.29486075 -0.95456749 0.00080081605
0.032734115 -0.43196589 -0.0059215818 -0.05186104 0.27709392 -0.95944226 0.00037317449
0.041532755 -0.4337157 -0.0069273515 -0.072521731 0.28097972 -0.95696968 0.00036531821
0.05579241 -0.43869123 -0.0095823901 -0.12042216 0.33776686 -0.93349451 0.0023074599
-0.076937124 -0.42688152 -0.0082491226 0.14257319 0.27489865 -0.95084363 0.00049080525
-0.066624835 -0.42369953 -0.0061396942 0.10835085 0.25981227 -0.95956117 0.00036086666
-0.055531878 -0.42516771 -0.0054014497 0.085432664 0.25989443 -0.9618504 0.00014335696
-0.043930016 -0.42502794 -0.0044581033 0.071187958 0.25535482 -0.96422309 0.00014095135
-0.034533106 -0.42479572 -0.0038362055 0.051300276 0.25501144 -0.96557623 0.00016054942
-0.028161556 -0.42343378 -0.0031176254 0.037680339 0.25069165 -0.96733344 0.0001336749
-0.016260024 -0.42247394 -0.0025141877 0.022975564 0.24211496 -0.96997553 0.00016184447
-0.0073762634 -0.42331457 -0.0026023714 0.009855058 0.24377337 -0.96978217 0.00013617529
0.0044107023 -0.42330742 -0.0026601977 -0.0091782622 0.24597961 -0.96923149 0.0001665484
0.014245585 -0.42626387 -0.0035419087 -0.024488466 0.25319815 -0.96710443 0.00017263404
0.02491148 -0.4252378 -0.0036063152 -0.041254651 0.25401005 -0.96632135 0.00017096946
0.034557849 -0.42658094 -0.004518087 -0.057990469 0.25369999 -0.96554309 0.00012588152
0.04391823 -0.42534876 -0.0047348989 -0.072489649 0.25857696 -0.96326697 0.00016610042
0.054935466 -0.42476797 -0.0055449787 -0.091327399 0.26212531 -0.96070266 0.00017106243
0.068370603 -0.42739499 -0.0076853978 -0.1368795 0.28517061 -0.94865263 0.00048399757
0.074950948 -0.42507911 -0.0079075117 -0.14458726 0.27799743 -0.94963777 0.00051354384
0.082676388 -0.42249981 -0.0084626023 -0.14609444 0.27187431 -0.95117861 0.00046780531
-0.097330391 -0.41289258 -0.0084143523 0.14338705 0.24313574 -0.95933574 0.00036707305
-0.080337107 -0.41921324 -0.0065568835 0.14562856 0.26207128 -0.95399731 0.00042834337
-0.072477825 -0.41842243 -0.0052980711 0.127868 0.2558524 -0.95822197 0.0003512027
-0.062685698 -0.41288677 -0.002989037 0.093138725 0.24203523 -0.96578681 0.00017984361
-0.0548671 -0.41701728 -0.0031899493 0.078553237 0.24555543 -0.96619457 0.00017656341
-0.040520024 -0.41232151 -0.0011832253 0.057588276 0.22762431 -0.97204465 0.00015751406
-0.03742433 -0.41454428 -0.0015248165 0.05319804 0.23224792 -0.97120082 0.00016283104
-0.025151014 -0.41532883 -0.0010825223 0.034768578 0.22951026 -0.97268504 0.00015703724
-0.01260227 -0.41388059 -0.00051268551 0.012315888 0.22464131 -0.97436363 0.00011255671
-0.0011708498 -0.4162454 -0.00091015192 -0.0013370136 0.23050928 -0.97306913 9.4046394e-05
0.0038545744 -0.41644758 -0.0010183542 -0.0049793031 0.2339443 -0.97223723 0.00011973091
0.014984788 -0.41740772 -0.0013795022 -0.023672484 0.23502673 -0.97170061 0.00012881728
0.023854224 -0.41462168 -0.00096806698 -0.037752438 0.23112452 -0.97219145 0.00011856866
0.034917206 -0.41404313 -0.0014355346 -0.052948833 0.22688933 -0.97248018 0.00011104498
0.042819925 -0.41008151 -0.00091748731 -0.058572616 0.21932176 -0.97389281 0.00010642523
0.056340329 -0.41311955 -0.0027159164 -0.091026388 0.23754787 -0.9671014 0.00018856743
0.061933897 -0.41540387 -0.0038247993 -0.10396064 0.24875472 -0.96297109 0.00031186946
0.075318895 -0.41552973 -0.0052953642 -0.14006843 0.24822918 -0.95852131 0.00042244763
0.084140383 -0.4155573 -0.0069815218 -0.14632456 0.2496991 -0.95720398 0.00038585672
0.093943194 -0.41353536 -0.0085392762 -0.14377896 0.25390327 -0.95648354 0.00061535905
0.10344519 -0.41522777 -0.0099200075 -0.13266081 0.25949171 -0.95659035 0.0005048255
-0.12412471 -0.40494633 -0.0096142292 0.12946549 0.22588377 -0.96551293 0.00020214776
-0.11169177 -0.40436545 -0.0079382323 0.13471197 0.22553068 -0.96487749 0.00032431222
-0.10426935 -0.40516824 -0.007299351 0.14012371 0.22970091 -0.96312141 0.00042541727
-0.093197227 -0.40421331 -0.0053953733 0.15561099 0.23388137 -0.95973164 0.00030859333
-0.083424963 -0.40418401 -0.0032292642 0.14706247 0.23123972 -0.96171767 0.0002695735
-0.073363684 -0.40179446 -0.0013199006 0.12146275 0.2238345 -0.96702892 0.00030443951
-0.066145033 -0.4005301 -0.00035364731 0.099541128 0.21643054 -0.9712103 0.00033000673
-0.058028463 -0.40759516 -0.0012561135 0.081861086 0.22765252 -0.97029537 0.00016211398
-0.030491237 -0.40991458 -9.441853e-05 0.042964019 0.22124249 -0.97427195 0.00014688534
0.03689729 -0.40986106 -0.00057799881 -0.054764919 0.2235202 -0.97315961 0.00011484988
0.055823099 -0.40606555 -0.00097113661 -0.084414735 0.22693181 -0.97024542 0.00014459569
0.063831046 -0.40611339 -0.0017583931 -0.09870711 0.2284575 -0.96853703 0.00018782608
0.079633169 -0.40269744 -0.002725339 -0.14048681 0.23388769 -0.96206027 0.00038468529
0.081914179 -0.40412176 -0.0034774479 -0.14495611 0.23607968 -0.96086109 0.00035243441
0.10603156 -0.40631828 -0.0080851922 -0.13507012 0.23530595 -0.96249002 0.00036914443
0.11455039 -0.40563002 -0.008912812 -0.11831921 0.22491726 -0.96716738 0.00010716507
0.12364344 -0.40363222 -0.009692275 -0.14153238 0.21817301 -0.96559262 0.00043544316
-0.14375626 -0.39136809 -0.0094567938 0.34434837 0.22916596 -0.91044337 0.015430976
-0.13336675 -0.39611515 -0.0090328502 0.19614369 0.21241911 -0.95729083 0.0023838973
-0.11702782 -0.39406738 -0.0063620554 0.13387278 0.21259402 -0.96792668 0.00011875696
-0.1069297 -0.39606887 -0.0055671446 0.14502993 0.21543096 -0.96568936 0.00026717357
-0.095150128 -0.39534044 -0.0035734202 0.15619045 0.22193186 -0.96247119 0.00019777048
-0.0848478 -0.39409235 -0.0011199014 0.14196749 0.21439967 -0.96637362 0.00028255378
-0.077593312 -0.39866906 -0.0010578753 0.13330431 0.2204259 -0.96625173 0.00027873123
-0.068941861 -0.39751717 -3.4655925e-05 0.10680219 0.21159138 -0.97150522 0.00034320599
0.064553089 -0.39820105 -4.1987747e-05 -0.10423925 0.21719097 -0.97054744 0.00031395172
0.073088601 -0.39648414 -0.00047232982 -0.12953673 0.22016644 -0.96682322 0.00039205825
0.084692635 -0.3939409 -0.0015726885 -0.15094075 0.21490087 -0.96490127 0.00030433247
0.093594648 -0.39518365 -0.0041784258 -0.14942405 0.21622576 -0.96484131 0.00022494802
0.10246145 -0.39511049 -0.0051993434 -0.14708295 0.2099863 -0.96657765 0.00027350028
0.1183385 -0.39358664 -0.0068277353 -0.13022383 0.20466563 -0.97013074 5.9545106e-05
0.12494279 -0.39376885 -0.0078128967 -0.1477451 0.20312521 -0.96794194 0.0006424227
0.13273124 -0.39424032 -0.0089736618 -0.20407425 0.21547353 -0.95494759 0.0033573376
0.14239681 -0.39150226 -0.0097319903 -0.33977804 0.20389526 -0.91813809 0.013351167
-0.15319926 -0.38180339 -0.0098392535 0.54955685 0.19758302 -0.81175625 0.030379284
-0.14617032 -0.38241902 -0.0083948663 0.4074344 0.17645751 -0.89602458 0.022535099
-0.13718255 -0.38235486 -0.0068439818 0.23696657 0.20012808 -0.95068163 0.0056132856
-0.12537786 -0.3857055 -0.0057931095 0.14479236 0.19448392 -0.97016037 0.00012308956
-0.10360018 -0.38449189 -0.0027167953 0.15582463 0.20736936 -0.96577257 0.00024286458
-0.095797367 -0.38530177 -0.0013816319 0.15282904 0.20934528 -0.96582496 0.00020705326
-0.087967813 -0.38848686 -0.00038125526 0.14724296 0.21254349 -0.96599418 0.00031466407
0.085111946 -0.38705146 -9.3159295e-05 -0.14590573 0.20813105 -0.96715719 0.0003810687
0.098283567 -0.38582921 -0.002739938 -0.1537544 0.20483948 -0.96664387 0.00026120301
0.10528817 -0.38507915 -0.0034297772 -0.14823218 0.19553734 -0.96942884 0.00022132717
0.11878202 -0.38358194 -0.004848537 -0.13500346 0.19585086 -0.97129625 5.9350863e-05
0.1203922 -0.38883579 -0.0061392738 -0.13467799 0.19818957 -0.97086698 5.3491196e-05
0.13695709 -0.38470864 -0.007676071 -0.27624968 0.18731369 -0.94265568 0.0080816634
0.14190991 -0.38231403 -0.0078861332 -0.35737872 0.20083123 -0.91211146 0.017102618
-0.15372479 -0.37655273 -0.0091687907 0.54128104 0.22394794 -0.81047028 0.030052513
-0.14555913 -0.37418431 -0.0064701079 0.39983466 0.20303856 -0.89381629 0.023599738
-0.13318792 -0.37541705 -0.0049154055 0.16778703 0.18372786 -0.96855128 0.00086618948
-0.12324216 -0.37505084 -0.0033107919 0.14697546 0.18474442 -0.97173446 0.00014239863
-0.11595669 -0.37791848 -0.0028901168 0.14735594 0.1932115 -0.97002864 0.00019024069
-0.10369696 -0.37697861 -0.0010939661 0.15734634 0.19889411 -0.96730715 0.00021150972
-0.097424395 -0.37887424 -4.7339126e-05 0.15557368 0.19933619 -0.96750289 0.0002011422
0.098596729 -0.37533861 -0.00048036734 -0.15214024 0.18997709 -0.96992886 0.00021277588
0.1041334 -0.37523746 -0.0011526786 -0.15391596 0.18962766 -0.96971709 0.00021194998
0.11794087 -0.37526608 -0.0030409694 -0.14203171 0.18503575 -0.9724139 9.6464813e-05
0.12716199 -0.37568447 -0.0045058387 -0.14689362 0.1814159 -0.97237366 7.8414487e-05
0.13441262 -0.37765381 -0.0059679979 -0.24011454 0.17966525 -0.95397347 0.004526027
0.14534028 -0.37668833 -0.0075617409 -0.39344031 0.18731757 -0.90006489 0.02108706
0.15050155 -0.37358618 -0.0083347755 -0.5561136 0.18533424 -0.81017828 0.034418367
-0.15140593 -0.36373594 -0.0058434056 0.43717781 0.1581323 -0.88536417 0.021965282
-0.14619875 -0.36203712 -0.0044956333 0.37036681 0.14516871 -0.91747177 0.018653557
-0.13360742 -0.36362249 -0.0028952439 0.16384529 0.17320555 -0.97116137 0.00034120778
-0.12456353 -0.36418039 -0.0015627111 0.14948952 0.171167 -0.97383505 0.00011037531
-0.1126557 -0.36931869 -0.00074272219 0.15537313 0.18220559 -0.97090697 0.00019521953
0.10866805 -0.36749148 -0.00030577031 -0.15211801 0.1811495 -0.97161978 0.00015436561
0.11568101 -0.3664825 -0.0010923847 -0.14460401 0.17753173 -0.9734332 0.00010195232
0.12271776 -0.36672631 -0.0021545 -0.14827405 0.17579058 -0.97319704 8.2432904e-05
0.13771081 -0.36588481 -0.004350407 -0.25859711 0.17744958 -0.94954681 0.0071422481
0.14587353 -0.36511004 -0.0057758694 -0.4158096 0.18266639 -0.89091825 0.021880621
0.15611772 -0.36015266 -0.0093320217 -0.64921963 0.17424783 -0.74037254 0.02966366
-0.15228072 -0.35221705 -0.0040302034 0.40943068 0.18677399 -0.89301842 0.021857532
-0.14591537 -0.35520372 -0.0034113692 0.33322811 0.14038147 -0.93233693 0.016179817
-0.13352047 -0.35648587 -0.0017373814 0.15731169 0.1618527 -0.97419542 0.0001134476
-0.12608652 -0.35737768 -0.00070360216 0.14879812 0.16729265 -0.97461396 4.3543827e-05
0.12707059 -0.35783839 -0.0014161442 -0.15741763 0.1638321 -0.97384739 0.00013983669
0.13375813 -0.35243514 -0.0016233837 -0.18169887 0.15965763 -0.97030663 0.00082411018
0.14441811 -0.35405838 -0.0033413805 -0.39995384 0.16890024 -0.90083826 0.01858886
0.15336502 -0.35633051 -0.0066508986 -0.52408135 0.1657732 -0.83537894 0.020979039
-0.16192557 -0.34933162 -0.0093778335 0.79106921 0.14069577 -0.59532702 0.044299614
-0.15468425 -0.34572983 -0.0038147948 0.47904584 0.16236538 -0.86264282 0.024667626
-0.14076962 -0.34817272 -0.0015568369 0.24778628 0.17372939 -0.95311069 0.0073035359
-0.13567668 -0.34632596 -0.00047671038 0.18384187 0.15332168 -0.97092462 0.0014113657
0.13652986 -0.3460871 -0.0010396091 -0.23876931 0.15552762 -0.9585408 0.0053142845
0.14278844 -0.34208143 -0.0013447485 -0.30173349 0.18256886 -0.93574864 0.0090643112
0.15687962 -0.34638739 -0.0069774641 -0.57633549 0.1490528 -0.80350524 0.020014394
-0.16077898 -0.33520633 -0.0053263279 0.71111655 0.22473779 -0.6661877 0.10223724
-0.15494134 -0.33501032 -0.0020498384 0.48206577 0.13227478 -0.86609238 0.022903481
-0.14692228 -0.33579215 -0.0010709 0.32636854 0.15659475 -0.93218112 0.014302103
0.14371748 -0.33613303 -0.00078864023 -0.30751982 0.14644489 -0.94020498 0.0098228259
0.15514605 -0.33964822 -0.0041652895 -0.56863689 0.15235208 -0.808357 0.019469004
0.16140151 -0.33441314 -0.0088783707 -0.80622017 0.14475544 -0.57363307 0.085911334
-0.16125584 -0.32400447 -0.0037154548 0.75372678 0.12415093 -0.64535451 0.094790421
-0.15817551 -0.32502091 -0.0015823073 0.63059646 0.12243253 -0.76639307 0.091847703
0.15733509 -0.32248697 -0.0027219241 -0.6666497 0.13454753 -0.733127 0.055724692
-0.16002044 -0.31142908 -0.00038534816 0.71520728 0.19268006 -0.67182797 0.10662474
0.15437154 -0.31773126 -0.0001881003 -0.56685746 0.11846679 -0.81525344 0.03325497
0.16377485 -0.31607291 -0.0081838826 -0.86108738 0.10890071 -0.496658 0.11229832
-0.16539253 -0.30625764 -0.0048170411 0.85576588 0.16909479 -0.48894966 0.094956756
0.15894455 -0.30041635 -0.00023174973 -0.73105907 0.17495899 -0.65950131 0.083622701
0.16420041 -0.30594972 -0.0065794657 -0.85514939 0.099931747 -0.50865817 0.098069519
-0.1639881 -0.29483977 -0.001174111 0.80517727 0.13642286 -0.57712936 0.07957264
0.16383433 -0.29284033 -0.0039764862 -0.85366017 0.16070466 -0.4954173 0.08291053
-0.16728762 -0.28725973 -0.003598189 0.8585642 0.20300432 -0.47080433 0.090588473
0.16522047 -0.28536671 -0.0044901664 -0.89815027 0.20015424 -0.39148995 0.104257
-0.17240646 -0.27122223 -0.0090221157 0.9591729 0.15949211 -0.23355864 0.08627975
-0.16757607 -0.27736005 -0.0021258439 0.81687945 0.099776335 -0.56811327 0.055096608
0.16580144 -0.27689022 -0.0040109493 -0.90171069 0.10913934 -0.41833764 0.099980079
-0.17201082 -0.26372251 -0.0069625475 0.90354067 0.10767187 -0.41475406 0.056373645
-0.1677426 -0.26931497 -0.0012036129 0.73400623 0.098523587 -0.67195827 0.029598741
0.16643596 -0.26746029 -0.0037335888 -0.87001115 0.11599551 -0.47919261 0.044318117
-0.1733633 -0.25897628 -0.00997651 0.93953949 0.09358108 -0.32940573 0.041842729
0.16804947 -0.25421149 -0.0041488446 -0.82397163 0.055994716 -0.56385756 0.027562274
-0.17213321 -0.24742639 -0.0053602858 0.82537752 0.055455171 -0.56185114 0.02340316
0.16782866 -0.24397412 -0.002683992 -0.83215493 0.047783665 -0.55248064 0.027539076
-0.17332399 -0.23237282 -0.0061626164 0.85167789 0.067746721 -0.51966822 0.021815199
0.16699183 -0.23870364 -0.00075281219 -0.79338765 0.064450435 -0.60529506 0.027689658
0.17093137 -0.23212573 -0.0073742159 -0.89054477 0.083422542 -0.44718072 0.019443139
-0.17364161 -0.22360618 -0.0058397027 0.85604775 0.083654001 -0.51008254 0.020899128
0.16855034 -0.22346899 -0.0015513973 -0.80217433 0.085956968 -0.5908702 0.030557787
0.1707388 -0.2252385 -0.0058476799 -0.89975256 0.046568047 -0.43390861 0.014732885
-0.1745854 -0.21908988 -0.0076558855 0.87993252 0.07545232 -0.46906903 0.017110949
0.16856468 -0.21095365 -0.00037671847 -0.81608963 0.055310126 -0.57527256 0.025761848
0.17175651 -0.21326204 -0.0077471007 -0.91090089 0.053831913 -0.40909857 0.016389722
-0.17486537 -0.20546626 -0.0071846074 0.90889394 0.04069468 -0.41503695 0.014527066
0.16940753 -0.20345998 -0.0010685342 -0.84905368 0.042295586 -0.52661079 0.020162769
0.17202342 -0.20376039 -0.00737534 -0.92716807 0.022040259 -0.37399676 0.014059407
-0.17399514 -0.19574746 -0.003772981 0.88100392 0.026475912 -0.47236761 0.018166482
0.17195265 -0.19281693 -0.0055183819 -0.91556889 0.037838422 -0.40037721 0.010966233
-0.17425819 -0.18367426 -0.0050281147 0.90005475 0.05567183 -0.43220603 0.019258689
0.17138262 -0.18152568 -0.0033722539 -0.8782025 0.04654396 -0.47601897 0.0094182249
-0.17492658 -0.17398657 -0.0034024881 0.90424842 0.069496229 -0.42131358 0.013047032
0.17195094 -0.1716772 -0.0041951039 -0.89912832 0.062675484 -0.43317443 0.010699219
-0.17619435 -0.16347651 -0.0064333281 0.93494284 0.058267545 -0.3499811 0.0070959916
0.1728961 -0.16555879 -0.0062961951 -0.91701216 0.04673782 -0.39611149 0.0098580085
-0.1756953 -0.15384847 -0.0026689649 0.91475582 0.042312883 -0.40178531 0.0059664664
0.17304069 -0.15785263 -0.0051704473 -0.92627341 0.041601274 -0.37454891 0.007550803
-0.17569456 -0.14718208 -0.0025578546 0.93489134 0.089278109 -0.34352243 0.015916875
0.1731025 -0.14752446 -0.0042206403 -0.93034172 0.027234336 -0.36568105 0.0078331213
-0.17658177 -0.13448025 -0.0038542156 0.95369148 0.061464831 -0.29443958 0.024654921
0.17403701 -0.13165078 -0.005790527 -0.94984066 0.057789214 -0.30734837 0.030090418
-0.17704645 -0.12368213 -0.0043110419 0.97896844 0.035107009 -0.20096831 0.04795295
0.17411664 -0.12509394 -0.0056827003 -0.96661562 0.10332837 -0.23447299 0.056494892
-0.17712392 -0.11631355 -0.0035714272 0.98067188 0.030367658 -0.19328825 0.053812973
0.17393707 -0.11697324 -0.0031578678 -0.97556275 0.011258251 -0.21943249 0.096954681
-0.17752063 -0.10424542 -0.0036055329 0.95395315 -0.036298726 -0.29775101 0.053154968
0.17476499 -0.10518461 -0.005193505 -0.96070296 -0.050300527 -0.27298307 0.053193841
-0.17771481 -0.098620787 -0.0036499086 0.94712973 0.008331418 -0.32074285 0.026907891
0.17540738 -0.099133663 -0.0072268844 -0.95140094 -0.011768828 -0.30773002 0.023814574
-0.17841314 -0.08725296 -0.0051571545 0.93583441 0.027353173 -0.35137698 0.0093385112
0.17513523 -0.084358364 -0.0037791575 -0.90999788 0.025735786 -0.41381341 0.011114457
-0.17899169 -0.071714759 -0.0054986351 0.94924027 0.03313937 -0.31280136 0.0086330343
0.17538469 -0.076272294 -0.0037171792 -0.91847163 0.021872539 -0.3948817 0.0088137379
-0.18013993 -0.060090143 -0.0091356328 0.96165305 0.031940874 -0.27240273 0.0095538357
-0.17982797 -0.064281128 -0.0082417382 0.95973366 0.055574942 -0.27535939 0.00941943
0.17675138 -0.065147847 -0.0083539505 -0.95114988 0.012153878 -0.30849022 0.0087170489
-0.18019649 -0.052666597 -0.0084886597 0.95163494 0.046541542 -0.30368534 0.012385211
-0.17938434 -0.054275203 -0.0048636319 0.94257665 0.046646617 -0.33071643 0.011847032
0.17572314 -0.058945347 -0.0027200605 -0.93967396 0.015989056 -0.34169745 0.0080861645
-0.17920482 -0.045644686 -0.0029681786 0.92768615 0.037647258 -0.37145796 0.012943624
-0.1805335 -0.034254715 -0.0077777756 0.94795769 0.01283387 -0.31813756 0.016720768
-0.17913592 -0.036887746 -0.002004151 0.91227752 0.035707027 -0.40801331 0.014191084
0.17707331 -0.032823525 -0.0061167069 -0.94830203 0.039483231 -0.31490374 0.012077919
-0.18063626 -0.025057591 -0.0072329468 0.95387441 -0.0067098769 -0.30013105 0.012793836
-0.17998768 -0.029662855 -0.0046190247 0.94152415 0.022144508 -0.33621705 0.01318965
0.1771875 -0.026441738 -0.0061412291 -0.95236027 0.034501206 -0.30301732 0.010943213
-0.18164763 -0.012662912 -0.0045454241 0.95459509 0.0096792998 -0.2977491 0.0158442
0.17860165 -0.013970775 -0.0060944082 -0.94675517 0.030338684 -0.32052183 0.011708512
-0.18194526 -0.0042135962 -0.0046900674 0.94067395 0.024486024 -0.33842719 0.017029494
-0.17904121 -0.0018417875 -0.009259291 0.96440822 0.018993139 -0.26373479 0.010581492
0.17746413 -0.00592322 -0.0045394278 -0.93371052 0.022537077 -0.35731882 0.012144128
-0.18255013 0.0067283479 -0.0041413028 0.93156731 -0.0031075897 -0.36355552 0.016878603
-0.17856802 0.0052693896 -0.0084427465 0.95407653 0.02631359 -0.29840505 0.013410092
0.17830773 0.0055867746 -0.0058446969 -0.93865728 -0.0019946417 -0.34484568 0.010559373
0.18013534 0.0051598758 -0.0053349491 -0.93844908 -0.010723177 -0.34525117 0.011120783
-0.18103635 0.014388263 -0.0074649826 0.98175555 -0.021997498 -0.18887068 0.0064381426
-0.17996879 0.014541455 -7.632529e-05 0.91185689 -0.02569825 -0.40970296 0.01732461
0.17770851 0.010406413 -0.0078466143 -0.96290398 -0.026285691 -0.26856098 0.011139162
-0.18078142 0.023817955 -0.0065438077 0.96383464 -0.030260131 -0.26477745 0.010107809
