# .PCD v0.7 - Point Cloud Data file format
VERSION 0.7
FIELDS x y z normal_x normal_y normal_z curvature
SIZE 4 4 4 4 4 4 4
TYPE F F F F F F F
COUNT 1 1 1 1 1 1 1
WIDTH 569
HEIGHT 1
VIEWPOINT 0 0 0 1 0 0 0
POINTS 569
DATA ascii
-0.32487789 0.035125993 0.045514617 0.14868218 -0.019811397 -0.98868656 0.00020057087
-0.31227073 0.033648837 0.047409572 0.12272806 -0.014886833 -0.9923287 0.00020804178
-0.30470955 0.035036121 0.048076045 0.1025181 -0.022758041 -0.99447078 0.00016278216
-0.29573509 0.034115009 0.048874889 0.09136685 -0.020347029 -0.9956094 0.00012461349
-0.28759122 0.033996578 0.049597133 0.087286495 -0.020335613 -0.99597561 0.00011627249
0.47028685 0.03657278 0.046441004 -0.93182558 -0.07382679 -0.35531798 0.057680596
-0.35286704 0.043796517 0.040484555 0.17012347 -0.020123588 -0.98521721 8.2372491e-05
-0.34329358 0.042033494 0.042205099 0.16746761 -0.021591991 -0.985641 9.5983152e-05
-0.33586913 0.044312611 0.043452404 0.1647989 -0.025318574 -0.98600215 7.0034133e-05
-0.32378882 0.045905374 0.045395568 0.14423168 -0.035539676 -0.98890555 0.00017130977
-0.31504181 0.043901421 0.046754517 0.12677898 -0.035407737 -0.99129885 0.00024824654
-0.3053017 0.043009106 0.047748893 0.10145757 -0.03610424 -0.99418455 0.00014882871
-0.2954832 0.045050792 0.048484106 0.089198455 -0.041324258 -0.99515623 6.9008092e-05
-0.28192893 0.047543067 0.049522471 0.086926728 -0.045110308 -0.99519283 7.2495211e-05
0.46987432 0.049046863 0.042849511 -0.97773361 -0.060383342 -0.2009747 0.028912218
0.4701581 0.041170049 0.046325937 -0.95461583 -0.050607715 -0.29350895 0.05127684
-0.35251978 0.053131498 0.04032227 0.16484395 -0.034081746 -0.98573065 9.8743258e-05
-0.34799051 0.058418769 0.040809724 0.16311094 -0.044367805 -0.98560959 5.9202022e-05
-0.33434334 0.054063022 0.043245919 0.16095062 -0.040864225 -0.98611611 7.4773445e-05
-0.32449827 0.054018266 0.044823725 0.14591829 -0.047561448 -0.98815268 9.4839779e-05
-0.31445536 0.055413395 0.046211567 0.12086847 -0.047720149 -0.99152082 0.00015361507
-0.30443519 0.056960568 0.047052499 0.10201177 -0.051755533 -0.99343598 0.00011110318
-0.29317337 0.057333227 0.047970798 0.086646736 -0.053897198 -0.99478012 8.1062872e-06
-0.28280884 0.054615043 0.048997637 0.085336156 -0.04942511 -0.99512559 4.705524e-05
-0.27645889 0.056744225 0.049423676 0.085729554 -0.055854164 -0.99475163 9.1621077e-06
0.46942091 0.055758517 0.045813479 -0.93417025 -0.1347363 -0.33041194 0.045101933
-0.35058227 0.064387262 0.040048879 0.16071154 -0.048710972 -0.98579872 3.7481754e-05
-0.34515885 0.066963963 0.040767178 0.1602354 -0.052386664 -0.98568767 2.3956245e-05
-0.33287087 0.06538064 0.042825088 0.15045121 -0.053783428 -0.98715341 7.3102339e-05
-0.32755083 0.065200895 0.043686725 0.14892405 -0.055162992 -0.98730886 7.1979957e-05
-0.31318548 0.064813919 0.045842227 0.11560054 -0.057166919 -0.99164939 0.00018759817
-0.30363259 0.064338647 0.046719734 0.10022002 -0.055209856 -0.99343234 0.00011356125
-0.2941502 0.065292917 0.047458246 0.086429536 -0.056363516 -0.99466228 6.2652402e-06
-0.28512746 0.066493303 0.048145123 0.083701439 -0.056651391 -0.99487925 5.0432072e-06
-0.27398691 0.06403061 0.049207915 0.084522463 -0.057400078 -0.99476689 5.3087228e-06
-0.26728246 0.066786952 0.0496163 0.084875226 -0.058936838 -0.99464703 2.7410995e-06
0.46908441 0.063579865 0.043894548 -0.93745965 -0.11313821 -0.32919469 0.043117642
-0.34375492 0.075446367 0.040499825 0.15772513 -0.061065957 -0.98559308 2.4722392e-05
-0.33906379 0.078984968 0.04104517 0.15652405 -0.065136895 -0.98552394 3.8656504e-05
-0.32396883 0.073728874 0.043765221 0.14186652 -0.058972113 -0.98812765 0.00011084873
-0.31762221 0.071374841 0.044917215 0.12951371 -0.059874326 -0.98976827 0.0001763391
-0.30501178 0.075296439 0.04601125 0.10559221 -0.060681283 -0.99255639 0.00013734825
-0.29564264 0.075653695 0.046772666 0.090302303 -0.061245944 -0.99402934 7.0365182e-05
-0.28460357 0.075867243 0.04768103 0.084365532 -0.062504835 -0.9944725 5.4438475e-05
-0.2750729 0.074427851 0.048553213 0.083850309 -0.058100596 -0.9947831 5.5551527e-06
-0.26481748 0.076497525 0.049295727 0.083573014 -0.06663987 -0.99427086 0.0001037784
-0.25995377 0.074720204 0.049797304 0.084175967 -0.06435395 -0.99437064 5.7075973e-05
0.468449 0.075892359 0.043832157 -0.95054537 -0.093000621 -0.29633462 0.036789458
-0.34217975 0.082712494 0.040330421 0.15698597 -0.066255152 -0.98537588 4.052385e-05
-0.33973828 0.087237418 0.040458616 0.15583348 -0.074868992 -0.9849419 7.3237061e-05
-0.32355556 0.083632983 0.043256901 0.13740174 -0.070732385 -0.98798668 0.00013756858
-0.31636143 0.083010346 0.044433724 0.12535387 -0.068467617 -0.98974675 0.00018357474
-0.30457497 0.085982747 0.045468815 0.097723827 -0.074355848 -0.992432 0.0001466097
-0.29480314 0.085209988 0.046324998 0.086695664 -0.07338389 -0.99352849 0.00014290317
-0.28599438 0.084258765 0.04711058 0.083888426 -0.069272086 -0.99406445 0.00010438944
-0.27609414 0.086478867 0.047815345 0.080842353 -0.078826346 -0.99360502 0.0001777232
-0.26487249 0.084302843 0.048868354 0.084595405 -0.082045063 -0.9930318 0.00025319448
-0.25734892 0.083793439 0.049522907 0.0829807 -0.078174025 -0.99348027 0.00019405986
-0.24829575 0.088992342 0.049995732 0.083905421 -0.091892131 -0.99222767 0.00025977753
0.46794847 0.083405659 0.04696434 -0.85624433 -0.066413529 -0.5122841 0.065179467
-0.33469453 0.093882918 0.040808026 0.15446906 -0.079414636 -0.98480082 7.1599185e-05
-0.32530811 0.096158363 0.042084929 0.13926703 -0.085138693 -0.98658806 0.00015142809
-0.31229621 0.09475816 0.044193182 0.11346605 -0.086208798 -0.98979467 0.0002084522
-0.30352613 0.097876117 0.044525553 0.095712729 -0.093633831 -0.99099529 0.00018538852
-0.29507047 0.095099762 0.045569275 0.078420378 -0.091389865 -0.99272263 0.00015470262
-0.28515446 0.093151011 0.04660093 0.080504514 -0.090612113 -0.99262708 0.00019021043
-0.27349383 0.093379743 0.047523528 0.082199037 -0.089880362 -0.99255466 0.00022490743
-0.26400751 0.095128126 0.048149951 0.084560074 -0.096004046 -0.99178261 0.00026570592
-0.2555255 0.093236208 0.049077101 0.080703974 -0.092020087 -0.99248129 0.0002839212
-0.2494843 0.099671341 0.048705582 0.084351741 -0.11150698 -0.99017721 0.00023852367
-0.23466933 0.099741772 0.049929462 0.093436733 -0.12302917 -0.98799467 0.00094916846
0.46734703 0.095642895 0.046297219 -0.89621693 -0.032228529 -0.44244388 0.056464266
-0.32576439 0.10541163 0.041035391 0.14202237 -0.094999932 -0.98529422 0.0001347267
-0.31476831 0.10447243 0.04284995 0.11848786 -0.099082485 -0.98799962 0.00026866098
-0.30365524 0.10495824 0.043767441 0.095861338 -0.098250091 -0.99053395 0.00021168203
-0.29819864 0.10512787 0.044099465 0.085494734 -0.10172388 -0.99113214 0.00015593586
-0.28535119 0.10540597 0.044928178 0.07332097 -0.10642647 -0.99161357 8.2917708e-05
-0.27661353 0.10498626 0.045637153 0.075693481 -0.11206611 -0.99081367 6.6213295e-05
-0.26396546 0.10528102 0.046646371 0.080161273 -0.11746452 -0.98983651 0.00011703628
-0.25533184 0.102958 0.047718842 0.083639979 -0.11291546 -0.99007803 0.00018288376
-0.24536939 0.10622019 0.048053324 0.080250174 -0.12714815 -0.98863196 0.00010624767
-0.23498176 0.10380612 0.049285807 0.092313707 -0.13392977 -0.98668182 0.00090647134
-0.2278242 0.10553352 0.049619768 0.10840927 -0.14747581 -0.98310643 0.0011901505
0.46683598 0.10596609 0.045192014 -0.92114216 -0.075348347 -0.38186362 0.055905629
-0.32257813 0.11384239 0.040635657 0.13191916 -0.10112483 -0.98608875 0.00025072144
-0.31547818 0.11611656 0.04152853 0.12486484 -0.099520221 -0.98716992 0.00022889764
-0.30450764 0.11451356 0.042726703 0.094958916 -0.10081172 -0.99036348 0.00021186583
-0.29508165 0.11443757 0.043338347 0.075455979 -0.10509241 -0.99159569 9.3130417e-05
-0.28501174 0.11614199 0.043807488 0.06711179 -0.10898823 -0.99177498 2.9463718e-05
-0.27442005 0.1165831 0.044440437 0.0674676 -0.11454301 -0.99112457 5.4743916e-05
-0.26515287 0.11329141 0.045385934 0.072908744 -0.11915368 -0.99019527 7.06836e-05
-0.25463805 0.1119748 0.046406459 0.077850997 -0.12412252 -0.98920822 9.252278e-05
-0.24254979 0.11339436 0.047198098 0.076183677 -0.13156319 -0.98837602 6.9564099e-05
-0.2341122 0.11299349 0.047962144 0.082765758 -0.13646936 -0.98718077 9.529735e-05
-0.22604394 0.11563551 0.048233014 0.098467454 -0.15722366 -0.98264176 0.0010115968
-0.21722107 0.11467194 0.049114678 0.16838858 -0.19215629 -0.96680987 0.0047396892
-0.20742276 0.11704227 0.049571007 0.28168693 -0.23245287 -0.93092328 0.0083525386
0.46641031 0.11505505 0.043506712 -0.91407979 -0.069415435 -0.39954937 0.060130309
-0.32012913 0.12165704 0.040184252 0.1305006 -0.10256132 -0.98612922 0.00023163939
-0.31200373 0.12394553 0.041211314 0.10767636 -0.10466751 -0.98866099 0.00032579177
-0.30506092 0.12416375 0.041695341 0.092645071 -0.10100011 -0.99056339 0.00024304981
-0.29492742 0.12395214 0.042366296 0.072242312 -0.10528363 -0.99181467 0.00011276785
-0.28507778 0.12430624 0.042960688 0.063203901 -0.10854153 -0.99208063 5.3805703e-05
-0.27555948 0.12462808 0.043537181 0.063524202 -0.11978911 -0.99076504 0.00020068009
-0.26614353 0.1247685 0.044125851 0.065297335 -0.12424922 -0.9901002 0.00022348356
-0.25244734 0.12507281 0.044971779 0.068230912 -0.14524366 -0.98704052 0.00055603392
-0.24641459 0.12254515 0.045640051 0.071818031 -0.13402145 -0.98837262 7.4459516e-05
-0.23365055 0.12570684 0.046162907 0.071159467 -0.15726106 -0.98499006 0.00056825916
-0.22499678 0.12470978 0.046958081 0.088865027 -0.17418942 -0.98069417 0.0014370151
-0.21548969 0.12502091 0.047686324 0.1341076 -0.20652661 -0.96920687 0.0038294224
-0.20452921 0.12689513 0.048314888 0.24930288 -0.27316615 -0.92910081 0.0097012185
-0.19688398 0.12954696 0.049773429 0.29438445 -0.31521735 -0.90220612 0.011835663
0.46575949 0.12524931 0.046296231 -0.87738329 -0.087306961 -0.4717797 0.052568689
-0.31101555 0.13516265 0.040178787 0.11539771 -0.1604089 -0.98028177 0.0019239358
-0.30666497 0.13538721 0.040434293 0.10084505 -0.16511197 -0.98110569 0.0021702659
-0.29471079 0.13495475 0.041244671 0.066574849 -0.18339144 -0.98078305 0.0032336514
-0.28460619 0.13298734 0.042094983 0.056302778 -0.13980334 -0.98857725 0.0010999708
-0.27571341 0.1345387 0.042504523 0.049663767 -0.17907864 -0.98258048 0.003119163
-0.26615983 0.13456023 0.043114275 0.049776714 -0.16921185 -0.98432189 0.0018683076
-0.25594136 0.13374314 0.043853156 0.062192768 -0.16458067 -0.98440099 0.0016708773
-0.24742317 0.13361585 0.044411946 0.04923556 -0.18029125 -0.98238021 0.0017772263
-0.23436622 0.13492279 0.045113448 0.053173877 -0.24658398 -0.9676615 0.0040100338
-0.22458605 0.13458119 0.04577519 0.078664519 -0.23024489 -0.96994805 0.0027792207
-0.21459948 0.13645849 0.046249088 0.056069642 -0.28033802 -0.95826238 0.0054354998
-0.20651206 0.13674748 0.046729073 0.14213289 -0.31667325 -0.93782532 0.01026668
-0.19780456 0.13205186 0.04836775 0.28503245 -0.32814708 -0.90059757 0.011398531
0.46524632 0.13396825 0.047509465 -0.84297621 -0.15820153 -0.51416284 0.063582346
-0.29179239 0.14468956 0.040426962 0.068960086 -0.29335013 -0.9535147 0.0078709368
-0.28527445 0.14332426 0.040952127 0.045228206 -0.29379073 -0.95479918 0.010873219
-0.27492192 0.14500755 0.041474085 0.036844682 -0.32086563 -0.94640779 0.012679048
-0.26310137 0.14391083 0.041933652 0.031560276 -0.32970566 -0.94355613 0.014520377
-0.25708017 0.14566247 0.041994289 0.025632543 -0.38210952 -0.92376149 0.015428321
-0.24321406 0.14456202 0.042979661 0.050427176 -0.37350705 -0.9262557 0.012351416
-0.23356859 0.14453644 0.043261956 0.055175859 -0.38517544 -0.92119247 0.012910331
-0.22709809 0.14588666 0.043145001 0.044317104 -0.42848781 -0.9024601 0.017471399
-0.21407077 0.14613777 0.043512311 0.030584587 -0.41491246 -0.90934718 0.014133855
-0.20393923 0.14520998 0.044321604 0.095086165 -0.4122411 -0.90609932 0.016438179
-0.19521518 0.14696343 0.043823652 0.13192494 -0.55404514 -0.82196701 0.021672394
-0.18300425 0.14413235 0.048416577 0.26592794 -0.53846157 -0.79958838 0.017205162
-0.17596316 0.14869101 0.046985056 0.24430649 -0.63472664 -0.73310059 0.014095367
0.42785382 0.14890561 0.04843948 0.017631663 -0.69043863 -0.72317612 0.038470965
0.45749545 0.1497587 0.049591154 -0.30992866 -0.6440537 -0.69938481 0.076964989
0.46462268 0.1460318 0.047104139 -0.72136056 -0.46996349 -0.50869745 0.10827006
-0.22657306 0.15210484 0.040200826 0.059719656 -0.49968401 -0.86414671 0.023527125
-0.21559374 0.15241854 0.040461749 0.046192434 -0.51673442 -0.85489875 0.024532037
-0.20604499 0.1520281 0.041004807 0.048403636 -0.53227574 -0.84518617 0.022124114
-0.1954145 0.15391289 0.040503848 0.10170092 -0.61655462 -0.78071594 0.024631688
-0.18415356 0.15260164 0.041549806 0.15330419 -0.67998636 -0.71701902 0.019390749
-0.17258647 0.15478592 0.042620797 0.15753077 -0.76161408 -0.62859213 0.010754296
-0.16510555 0.15505393 0.04536112 0.211825 -0.75056422 -0.62592614 0.0078278128
-0.15601082 0.15804932 0.044555154 0.17115253 -0.8331098 -0.52596098 0.0059659998
-0.14450295 0.15875475 0.046434611 0.16105217 -0.83717841 -0.52268016 0.0039931904
-0.13554336 0.15902284 0.048333656 0.12979949 -0.86197525 -0.49005175 0.0040313187
-0.12515855 0.15979879 0.048854042 0.071447395 -0.88569874 -0.45872977 0.003023566
-0.11936862 0.15935124 0.04989931 0.049508967 -0.8918255 -0.44966227 0.0016037219
-0.09583956 0.15977374 0.049803436 0.0098942406 -0.90929389 -0.41603678 0.0010607396
-0.083698697 0.15990609 0.049917914 0.017589277 -0.90816098 -0.41825151 0.0010561185
0.31304663 0.15937772 0.049994431 -0.15689406 -0.84907043 -0.50444376 0.010096853
0.32198486 0.15945016 0.047003556 -0.1334855 -0.84827483 -0.51245624 0.014941636
0.33566698 0.15823464 0.047168303 -0.10469376 -0.79351556 -0.5994767 0.029709926
0.34640586 0.15730816 0.047510631 -0.079216041 -0.78346115 -0.61637115 0.033193927
0.35521224 0.15758903 0.044942494 -0.048389267 -0.80602497 -0.58990014 0.036310527
0.36490273 0.15708701 0.04531138 -0.063088834 -0.8176018 -0.57231736 0.03374704
0.37778154 0.15675029 0.044746596 -0.071291797 -0.79779559 -0.5986982 0.03506824
0.38288313 0.1565112 0.045081802 -0.08972045 -0.81406909 -0.57379603 0.036204647
0.39536336 0.15550865 0.047385816 -0.12089982 -0.80697769 -0.57807451 0.038690254
0.40619969 0.15443113 0.046072833 -0.054648932 -0.84539473 -0.53133911 0.030139836
0.41502699 0.15458217 0.046824027 -0.044446912 -0.81550205 -0.57704496 0.034000155
0.42627722 0.15413158 0.046076003 -0.022950344 -0.81029707 -0.58556968 0.03295375
0.43445981 0.1530567 0.045414731 -0.00020705379 -0.84605306 -0.53309858 0.030639824
0.44535562 0.15305699 0.045434985 -0.180674 -0.84675032 -0.50037068 0.052448519
0.45216486 0.1543534 0.043874603 -0.19995098 -0.84141469 -0.50203693 0.052087318
0.46320981 0.1530531 0.043438278 -0.57735902 -0.69774151 -0.42404407 0.089719154
-0.14415464 0.16194469 0.041580215 0.11663243 -0.88646913 -0.44784963 0.0032441644
-0.13368894 0.16157492 0.044701442 0.098072633 -0.88624662 -0.45271254 0.0039168494
-0.12347786 0.16140719 0.045838505 0.045491789 -0.90134031 -0.43071574 0.0022377376
-0.11620218 0.16174895 0.045404658 0.024289833 -0.91104639 -0.41158772 0.0017906285
-0.10578749 0.16271389 0.043872826 0.0089873252 -0.91849196 -0.39533767 0.00160885
-0.094923399 0.16253582 0.044542938 0.01453405 -0.92316359 -0.38413244 0.0014654052
-0.083722524 0.16327825 0.043432355 0.015817236 -0.92896205 -0.36983678 0.0014581083
-0.073692456 0.16223995 0.045750242 0.01484352 -0.91942322 -0.39298925 0.0014202221
-0.066276707 0.16263175 0.045173489 0.00011513155 -0.92350143 -0.38359499 0.0016507326
-0.05468303 0.16263694 0.0454752 0.0065466221 -0.92036003 -0.39101738 0.0014353257
-0.045019463 0.1635161 0.044180766 0.0020301759 -0.9293232 -0.36926183 0.0014282736
-0.035951044 0.16334197 0.044722728 0.008485564 -0.92996055 -0.36756152 0.0014850372
-0.023171773 0.16206399 0.047620293 0.0094419224 -0.92183799 -0.3874605 0.0016696468
-0.013865411 0.16277531 0.04649429 0.023929497 -0.91986352 -0.39150801 0.0015285548
-0.0037667316 0.16413653 0.044092 0.014418724 -0.93101364 -0.36469948 0.0018038976
0.004705017 0.16420458 0.043998748 0.013735505 -0.93575454 -0.35238439 0.0017258468
0.015160912 0.16410449 0.044327855 0.007522386 -0.93562049 -0.35292739 0.0017736866
0.022026062 0.16321765 0.04675613 0.005019262 -0.92854017 -0.37119794 0.0018876955
0.033956517 0.16443224 0.044348534 0.0018928086 -0.93249792 -0.36117038 0.00192273
0.044093478 0.1642724 0.04494334 0.0028769374 -0.9318313 -0.36288044 0.0018992698
0.054598708 0.16423444 0.044914197 0.0068953284 -0.93694687 -0.34940383 0.001829239
0.065839104 0.16418803 0.045280617 0.0062943813 -0.93605721 -0.35179165 0.0018265458
0.074657135 0.16503997 0.043368656 0.012583629 -0.94104862 -0.33803716 0.001923122
0.085702002 0.16383593 0.04685837 0.015225331 -0.9287349 -0.37043184 0.0022594796
0.095293932 0.1650292 0.043655459 0.0072034472 -0.94506562 -0.3268013 0.0020273388
0.10302824 0.16462387 0.045173615 0.0069187251 -0.93815655 -0.34614241 0.002323874
0.1149508 0.1647485 0.045742974 0.0042283568 -0.93934828 -0.34293869 0.0022009958
0.12526087 0.16536097 0.043969333 0.0048410804 -0.94593334 -0.32432508 0.0019481968
0.13740167 0.16555029 0.043765426 0.013838031 -0.94484979 -0.32721159 0.0020472794
0.14590374 0.16465369 0.047038045 0.013757017 -0.93550211 -0.35305309 0.0025305159
0.15560991 0.16564387 0.043676585 -0.0026472572 -0.94444466 -0.32866001 0.0019170562
0.16577126 0.16559462 0.044050049 0.0031371897 -0.94707495 -0.32099724 0.0022155975
0.17240694 0.16474067 0.047444683 -0.0032549342 -0.93531382 -0.35380432 0.0029390431
0.18772602 0.16573329 0.044168506 0.014036183 -0.94751221 -0.31941137 0.0022386785
0.19398585 0.1654112 0.045527805 0.0065404982 -0.94386786 -0.33025852 0.0024965114
0.20386542 0.16541541 0.045892145 0.0059640389 -0.93571365 -0.35271004 0.0033968417
0.2161306 0.16565123 0.045184735 -0.010014738 -0.9425084 -0.33403239 0.0027469913
0.2229179 0.16646065 0.041664053 -0.0018900235 -0.9523114 -0.3051219 0.0023577409
0.23514137 0.16604902 0.043809738 -0.0051050182 -0.94377154 -0.33055922 0.0033737263
0.24657664 0.16535656 0.04715097 -0.0013376009 -0.92647129 -0.37636301 0.0044955024
0.25571853 0.16573882 0.045684185 -0.016495306 -0.93179947 -0.36259854 0.0038358588
0.26589644 0.1657448 0.044298638 -0.0305277 -0.93538421 -0.35231301 0.0035507609
0.27644607 0.16439512 0.045542005 -0.059157398 -0.91329867 -0.40297124 0.004350055
0.28497231 0.16293028 0.047517639 -0.064140566 -0.90967035 -0.41034836 0.0038207152
0.2951403 0.16284141 0.04461753 -0.084938109 -0.91242397 -0.40033478 0.0035815653
0.30459481 0.16217607 0.043768212 -0.11328919 -0.91030592 -0.39813158 0.0047549931
0.31431851 0.16093281 0.044666681 -0.11374624 -0.90151483 -0.417532 0.007751219
0.32502663 0.16109207 0.04106706 -0.10143556 -0.89746851 -0.42925644 0.013961869
0.33439806 0.16058211 0.040175438 -0.0988748 -0.8911745 -0.44275469 0.017172614
-0.046499394 -0.16033773 0.050221588 0.0060588461 0.91167253 -0.41087267 0.0010746429
-0.011169324 -0.16021439 0.051526591 0.019541698 0.91289246 -0.40773213 0.0012651045
-0.0072936565 -0.16058703 0.05092743 0.013258135 0.91336405 -0.40692806 0.0013468955
0.0020943712 -0.16045618 0.051458634 0.0076537621 0.91387898 -0.40591452 0.0014310335
0.017789414 -0.16087341 0.051126674 0.010108408 0.91899717 -0.39413455 0.0013940014
0.024657212 -0.16135268 0.050412256 0.0079667484 0.91882664 -0.39458081 0.0015930677
0.035616092 -0.16053194 0.052102655 0.007933774 0.91320628 -0.40742028 0.0015893363
0.04520591 -0.16050851 0.052330475 0.0058604274 0.91045725 -0.41356161 0.0014879304
0.054133359 -0.16080293 0.051937226 0.0078461859 0.91016203 -0.41417813 0.0014274876
0.065718755 -0.16127932 0.051363282 0.014659054 0.9138872 -0.40570346 0.0016251373
0.074375339 -0.16103655 0.052088059 0.014713407 0.91259336 -0.40860358 0.0015464206
0.086131133 -0.16037075 0.053703751 0.016853953 0.91296738 -0.40768418 0.0018277372
0.095397994 -0.16132557 0.052197766 0.010002179 0.91531062 -0.40262446 0.0019903006
0.10475323 -0.16128744 0.052559812 0.014319137 0.91821688 -0.39581904 0.0020690481
0.1142057 -0.16168721 0.05210232 0.0014478746 0.92089432 -0.38980949 0.0021799242
0.12501688 -0.16188072 0.052074388 0.012503121 0.92224526 -0.38640311 0.0021031096
0.13332243 -0.16175656 0.052565467 0.0063190479 0.91886586 -0.39451933 0.0023378129
0.14482805 -0.16178221 0.052874457 0.001366174 0.91896582 -0.39433491 0.0024572555
0.15369351 -0.16183412 0.052992385 -0.0012964774 0.91745281 -0.39784241 0.002250643
0.16414964 -0.16161163 0.053438213 0.013572593 0.91530192 -0.40253988 0.0024603035
0.17488445 -0.16148874 0.053901624 0.0035324018 0.90912557 -0.41650721 0.0025310339
0.18613383 -0.16160956 0.053885736 0.0063234097 0.91127706 -0.41174516 0.0029669537
0.19558074 -0.16149324 0.054146037 0.0045006392 0.91138744 -0.41152477 0.0031866126
0.20367575 -0.16230829 0.053004682 -0.0014679483 0.91323358 -0.40743375 0.0031629382
0.21501701 -0.16100781 0.055386037 0.0060692425 0.90397191 -0.42754871 0.0028359052
0.22445965 -0.16261061 0.052899282 -0.0011461925 0.91682982 -0.39927664 0.003433852
0.23633891 -0.16170913 0.054626875 -0.0035769269 0.9052729 -0.42481545 0.0046970276
0.24354072 -0.16179588 0.054620314 -0.026533907 0.89793754 -0.43932232 0.0044580312
0.25596344 -0.16203409 0.053919688 -0.030757431 0.89446545 -0.446078 0.0050970558
0.26386639 -0.16277458 0.052148122 -0.042760655 0.89756358 -0.43880653 0.0053304457
0.27268571 -0.16102934 0.053752404 -0.046244804 0.87325281 -0.48506793 0.0038599337
0.28417343 -0.16111177 0.052556373 -0.070970647 0.87543792 -0.47809178 0.0044173342
0.29798967 -0.16023919 0.051974945 -0.095240839 0.85528171 -0.5093351 0.0062038102
0.30321795 -0.16016482 0.050574616 -0.12322915 0.86482495 -0.48671582 0.0076668696
-0.16086918 -0.1521749 0.050189428 0.21940552 0.74117416 -0.63444626 0.0062080533
-0.15398777 -0.15231712 0.053289089 0.21054356 0.75246555 -0.62407291 0.0039508343
-0.14751022 -0.153055 0.054492313 0.20747177 0.77742743 -0.59376937 0.0034019733
-0.13582791 -0.15442611 0.055384994 0.16842695 0.80827838 -0.56419718 0.0038694255
-0.12463386 -0.15609504 0.0555862 0.085935548 0.86401939 -0.49607018 0.0018846415
-0.11531627 -0.1585266 0.051600888 0.052417941 0.88454741 -0.46349582 0.0014338063
-0.10463428 -0.1591166 0.05079497 0.019553769 0.90049928 -0.43441746 0.0012089524
-0.094430625 -0.15726547 0.054648336 0.012423162 0.89256585 -0.450746 0.00021195824
-0.08550559 -0.156909 0.055601232 0.015630515 0.89287764 -0.450028 0.00016226094
-0.07595174 -0.15777814 0.054226734 0.018450808 0.90252483 -0.4302423 0.00067984965
-0.063063093 -0.1578415 0.054495953 0.015538421 0.90037686 -0.43483338 0.00063680607
-0.054377075 -0.15671542 0.056915149 0.012922945 0.89721555 -0.44140366 0.00037328491
-0.044525124 -0.15735511 0.056001306 0.015889475 0.8963517 -0.44305891 0.00037030055
-0.034608513 -0.1578351 0.05539133 0.014271743 0.90190989 -0.4316884 0.00052712834
-0.024320194 -0.15740156 0.056530092 0.014194271 0.90014255 -0.43536416 0.00056360476
-0.015403482 -0.15774482 0.056137729 0.016595999 0.90126497 -0.43295041 0.00060093327
-0.0034670825 -0.15721111 0.057517827 0.015830478 0.89724648 -0.44124612 0.00049426366
0.0056962008 -0.15778063 0.056698792 0.0090419194 0.90006226 -0.43566743 0.0006817368
0.013443147 -0.15733944 0.057776377 0.0094539663 0.89679515 -0.44234493 0.00051779725
0.027041698 -0.15852462 0.055801284 0.0058619413 0.90147096 -0.43279982 0.00073034735
0.036994938 -0.1582371 0.056461308 0.0053266077 0.9002893 -0.43525961 0.00073021237
0.046290468 -0.15795387 0.057173956 0.0082617672 0.89726496 -0.44141528 0.00068341155
0.054414548 -0.15847135 0.056349754 0.0091405092 0.90201408 -0.43160987 0.00085036986
0.065371543 -0.15882263 0.055967491 0.010322457 0.90429318 -0.42678714 0.0011302357
0.075703479 -0.15873314 0.056456339 0.016899219 0.9059785 -0.42298621 0.0012163933
0.083730735 -0.1591275 0.055964749 0.012302314 0.89733541 -0.4411777 0.00067284954
0.094876327 -0.15925735 0.056066815 0.0085596899 0.90361941 -0.42825079 0.0014822037
0.10141286 -0.1587065 0.057304524 0.011010756 0.9006108 -0.43448702 0.00096082268
0.11300993 -0.15863948 0.057790443 0.010308195 0.90034401 -0.43505692 0.0010411498
0.12525313 -0.15876187 0.057940613 0.012469277 0.90136051 -0.43289003 0.0012100931
0.13424197 -0.15840602 0.058888137 0.0043601482 0.89881349 -0.43830937 0.0012868787
0.14613716 -0.15921968 0.057728931 0.0052561774 0.89999837 -0.43586156 0.0012701674
0.15583932 -0.15925634 0.05762513 -0.001259889 0.90247518 -0.43074 0.0015865924
0.16627839 -0.15901342 0.058102328 0.0076482608 0.89599854 -0.44399109 0.001255255
0.17626715 -0.15881853 0.058676649 0.0033814358 0.89113325 -0.45372915 0.0016731896
0.18274757 -0.15942475 0.057747703 0.00086311443 0.89604825 -0.44395587 0.0017393481
0.19034636 -0.15929484 0.057606168 0.0019899255 0.89486611 -0.44633016 0.0018381769
0.21049264 -0.1594246 0.057934307 0.0079273665 0.89246094 -0.45105514 0.0017359705
0.22304198 -0.15916021 0.058614455 -0.00082833762 0.88579023 -0.46408498 0.0027966413
0.23911779 -0.158986 0.059212007 -0.020935632 0.87263489 -0.48792428 0.0036326225
0.25349596 -0.15881871 0.058386784 -0.040269807 0.87014413 -0.49114913 0.0036047022
0.26569924 -0.15838762 0.057923794 -0.050391942 0.86202174 -0.5043602 0.0034089903
0.27436665 -0.15839797 0.057166874 -0.055217717 0.85513866 -0.51545012 0.0028462368
0.28512487 -0.15764721 0.057260085 -0.07231503 0.85111624 -0.51997262 0.0037410916
0.296442 -0.15746646 0.056534495 -0.11408776 0.82925177 -0.54710656 0.008616684
0.3062216 -0.15816426 0.054263152 -0.12028418 0.82843131 -0.54702216 0.010535812
0.31583077 -0.15627441 0.056041829 -0.1881202 0.76470321 -0.61631143 0.017914396
0.32464027 -0.15445669 0.055908181 -0.20887184 0.72969067 -0.6510945 0.015273986
0.33579421 -0.15372264 0.054550041 -0.15186489 0.68504369 -0.71249717 0.027998244
0.34495926 -0.1549138 0.053365532 -0.11557415 0.70529938 -0.69942498 0.036429487
0.35470334 -0.15347646 0.053033866 -0.074212603 0.63712806 -0.76717687 0.036849167
0.3655276 -0.15373394 0.052541465 -0.060797982 0.68208593 -0.72874022 0.042694137
0.37690756 -0.15217389 0.05193213 -0.048279658 0.66763461 -0.74292195 0.040494494
0.38275218 -0.15343176 0.051177535 -0.074991629 0.71507096 -0.69501781 0.036133818
-0.183226 -0.14199257 0.050452996 0.27250516 0.5073489 -0.81751943 0.013384164
-0.1737482 -0.14285184 0.053790163 0.33653387 0.59388882 -0.73078114 0.0081876768
-0.16406538 -0.14509434 0.055838224 0.30382904 0.65538806 -0.69148707 0.0083728703
-0.15678738 -0.14574891 0.05840607 0.29810578 0.67707652 -0.67283016 0.0072445632
0.32775742 -0.14709243 0.059452064 -0.23823324 0.61471516 -0.75191104 0.018103221
0.3368158 -0.14606233 0.056914717 -0.2459102 0.58245116 -0.77477658 0.020331999
0.34694815 -0.14432311 0.056130104 -0.18440804 0.50531375 -0.84300154 0.027259542
0.3571741 -0.14384528 0.055388536 -0.094588831 0.47189477 -0.87656623 0.028927641
0.36548352 -0.14816588 0.053759202 -0.077371597 0.55780101 -0.82636052 0.036304798
0.37353942 -0.14503478 0.05377565 -0.060634438 0.5136258 -0.85586917 0.036201563
0.38708967 -0.14268336 0.05381589 -0.060996637 0.43747059 -0.89716166 0.024926869
0.39385152 -0.1449955 0.052104261 -0.057189088 0.52595085 -0.84859002 0.033225086
0.40518755 -0.14514789 0.051495515 -0.032245882 0.58361888 -0.81138718 0.036558487
0.41509601 -0.14405289 0.052757036 -0.0058794688 0.48442748 -0.87481171 0.023305465
0.4225691 -0.14569631 0.051110886 -0.0043917052 0.60845608 -0.79357547 0.029367099
0.43631956 -0.14473757 0.053242385 -0.056384798 0.5143646 -0.85571599 0.026621187
0.44514519 -0.14430518 0.05323163 -0.19083379 0.4634544 -0.86532795 0.042227238
0.45454007 -0.1421786 0.053777438 -0.3382912 0.3656283 -0.86710727 0.059829652
0.46283951 -0.14319773 0.052478276 -0.63112301 0.39051998 -0.67020738 0.072494254
-0.19463041 -0.13108544 0.050514489 0.31380826 0.31644762 -0.89520121 0.011500113
-0.18506742 -0.13646722 0.05434126 0.3526344 0.4444862 -0.8234567 0.012830101
-0.17769195 -0.13607964 0.058518816 0.39174414 0.50691569 -0.76783663 0.0083958553
0.33904612 -0.13848098 0.059869349 -0.25695953 0.43318692 -0.86389869 0.010190848
0.34677792 -0.13574895 0.058405351 -0.22047809 0.39245942 -0.89295298 0.013162941
0.35449257 -0.13386612 0.057912994 -0.18830197 0.34807754 -0.91835958 0.011393914
0.36379078 -0.13195068 0.058046803 -0.11190582 0.26328373 -0.95820612 0.0048260675
0.37450305 -0.13549238 0.056645889 -0.076300159 0.27656436 -0.95796162 0.0049689519
0.38467783 -0.13461368 0.056824371 -0.054001857 0.26163042 -0.96365625 0.0042823302
0.39520669 -0.13514683 0.056632984 -0.039314795 0.3205255 -0.94642365 0.010433065
0.40564069 -0.13558625 0.056257427 -0.01874996 0.31608447 -0.94854575 0.010714605
0.41469917 -0.13589585 0.055942245 -0.030834235 0.29567724 -0.95479006 0.0052140309
0.42595196 -0.13529174 0.055700116 -0.028751366 0.29934838 -0.95371062 0.0070455042
0.43423671 -0.13299815 0.055769436 -0.048144698 0.25688064 -0.96524322 0.0081038317
0.44454771 -0.13408139 0.055199593 -0.15636772 0.27067509 -0.94988632 0.026389025
0.45404604 -0.13446976 0.054622147 -0.30172533 0.28894624 -0.90855485 0.049868569
0.46491957 -0.13359135 0.053252745 -0.78237045 0.21072966 -0.58607978 0.071216963
-0.20148203 -0.1208363 0.05022265 0.30534202 0.26249975 -0.91534698 0.01025538
-0.19393352 -0.12698698 0.052353788 0.3553752 0.33543694 -0.87246233 0.0096966745
-0.18539105 -0.12604681 0.057546619 0.43374521 0.36145094 -0.82535946 0.0053019077
0.35572237 -0.12731022 0.059061371 -0.19894037 0.28490153 -0.93768537 0.0070488122
0.36564553 -0.12489586 0.059057906 -0.12936197 0.25313997 -0.95874172 0.0044771177
0.3764326 -0.12312031 0.059006594 -0.065987237 0.21049727 -0.97536492 0.0017896395
0.38470945 -0.12445991 0.058558919 -0.04593078 0.20572121 -0.97753215 0.00099642621
0.39524209 -0.1249986 0.058165442 -0.042082146 0.19431201 -0.98003674 0.0015138576
0.40268698 -0.12526061 0.05790526 -0.040393677 0.18932782 -0.98108274 0.0018133238
0.41516453 -0.12724593 0.05723555 -0.03644884 0.21790016 -0.97529024 0.0035539358
0.42597055 -0.1243815 0.057280343 -0.026188847 0.18159181 -0.98302519 0.0026157079
0.43411294 -0.12369356 0.056900326 -0.037199523 0.17145084 -0.9844901 0.0032517822
0.44541851 -0.12346534 0.056262463 -0.19149338 0.15069912 -0.96985567 0.025559213
0.45543656 -0.12268757 0.055753227 -0.41108292 0.11537722 -0.90426713 0.057844523
0.46402803 -0.12148719 0.054621749 -0.73771477 0.1057726 -0.66677523 0.07636939
-0.21271095 -0.11057508 0.050113093 0.23300785 0.20681049 -0.95022982 0.007558018
-0.20376354 -0.11590749 0.050659083 0.29045495 0.22849776 -0.92920649 0.0078783222
-0.19706941 -0.11437749 0.055007566 0.38341737 0.24947913 -0.88924193 0.0059418334
-0.18898708 -0.11686538 0.058731817 0.43713653 0.29668373 -0.84905267 0.0020858578
0.36264664 -0.11965182 0.059939194 -0.17007028 0.26799777 -0.94828963 0.0054591545
0.37745041 -0.11819671 0.059720442 -0.072342992 0.1922996 -0.97866613 0.002125521
0.38714504 -0.11733818 0.059562925 -0.040867321 0.16892453 -0.98478138 0.00086494832
0.39465213 -0.11554304 0.05961176 -0.036790639 0.14470963 -0.98878998 0.00042373774
0.40431094 -0.11444739 0.059480514 -0.042705227 0.12338275 -0.99143988 0.0001544166
0.41494808 -0.11499183 0.058901757 -0.048730712 0.12779729 -0.99060243 0.00041772495
0.42607084 -0.11497702 0.058274351 -0.050302427 0.11400128 -0.99220628 8.2618273e-05
0.43605384 -0.11472244 0.05771333 -0.062402442 0.10551104 -0.99245822 9.7919787e-05
0.44478035 -0.11445459 0.057227578 -0.15341644 0.089436233 -0.984106 0.011315634
0.4529174 -0.11792047 0.056392144 -0.39362037 0.08133018 -0.91566831 0.059987906
0.46436059 -0.11585218 0.05510471 -0.68430579 0.052749485 -0.72728473 0.08088287
-0.2265026 -0.10354293 0.050032396 0.11389391 0.14917068 -0.98223031 0.0018669029
-0.21496251 -0.10519889 0.050742429 0.2318801 0.17746757 -0.95641881 0.0077772299
-0.20563057 -0.10638587 0.053142942 0.32464167 0.23448245 -0.91631097 0.0068447697
-0.19719099 -0.10593852 0.057908889 0.43590793 0.2596764 -0.86171478 0.0031267989
0.4093962 -0.10791545 0.059982143 -0.049391098 0.11443581 -0.9922021 0.00012724943
0.41934365 -0.10477738 0.059720036 -0.054158766 0.10251947 -0.99325556 6.4463238e-05
0.42439005 -0.10413149 0.059489675 -0.059290361 0.096941426 -0.99352247 4.2016265e-05
0.43468451 -0.10541695 0.058751792 -0.058944408 0.097249836 -0.99351299 4.6315923e-05
0.44444525 -0.10506896 0.058213457 -0.17640856 0.087889664 -0.98038536 0.012198402
0.45657462 -0.10533838 0.057472233 -0.43755749 0.022903766 -0.89889866 0.059360322
0.46546364 -0.10523152 0.055611495 -0.76623309 0.055072486 -0.64019841 0.069964528
-0.24392191 -0.090271458 0.050290935 0.086407043 0.095175274 -0.99170333 0.00035327103
-0.23435085 -0.094557375 0.05069777 0.10703906 0.11085438 -0.98805565 0.0014456805
-0.22411315 -0.092427768 0.051718447 0.15510055 0.12447775 -0.98002505 0.0039799665
-0.21326208 -0.094738953 0.052868262 0.28104818 0.20717143 -0.9370656 0.0069379197
-0.20488627 -0.094677858 0.057410505 0.38885862 0.20954499 -0.89715093 0.0067910827
0.42962688 -0.098813787 0.05972904 -0.059055727 0.087062567 -0.99445087 6.166174e-05
0.43669024 -0.095680773 0.059624065 -0.07337825 0.08412794 -0.9937495 0.00053320068
0.44464526 -0.096485615 0.059069633 -0.19355543 0.069046058 -0.97865665 0.015037644
0.45507762 -0.095682688 0.058535099 -0.41146186 0.046342082 -0.91024798 0.051228762
0.46546668 -0.095223509 0.054745145 -0.71806365 0.034303766 -0.69513148 0.067686491
-0.25148633 -0.083586916 0.050022647 0.084865421 0.074064434 -0.99363589 0.00015501841
-0.24467017 -0.082703657 0.050638501 0.081639782 0.076285586 -0.99373817 0.00016945221
-0.23527865 -0.081162967 0.051515337 0.13181618 0.082436495 -0.98784047 0.0018684166
-0.22571175 -0.084994547 0.052118123 0.17333318 0.11368591 -0.97827965 0.0050040064
-0.21455413 -0.085567757 0.053769641 0.2940889 0.13757014 -0.94582564 0.006827252
-0.20696513 -0.088499866 0.057575308 0.37687251 0.18185927 -0.90823698 0.0078298226
0.4440459 -0.086805232 0.0598258 -0.17677015 0.089292184 -0.98019344 0.014382501
0.45399648 -0.083102599 0.05944749 -0.3625904 0.089712508 -0.92762053 0.047862947
0.46488789 -0.083979614 0.056358028 -0.67180538 0.16527537 -0.72205365 0.058957364
-0.2548373 -0.074147031 0.050254729 0.084898166 0.063721389 -0.99434996 3.6587815e-05
-0.24686702 -0.07608787 0.050826386 0.085449174 0.064552873 -0.99424917 3.8247912e-05
-0.234116 -0.07425458 0.052052151 0.13224593 0.073207431 -0.98850983 0.0017232621
-0.22589405 -0.073774897 0.052807953 0.20009235 0.073403761 -0.97702348 0.0048664804
-0.21358174 -0.075688943 0.055454094 0.3612034 0.12879887 -0.92354912 0.0059478329
-0.20809563 -0.075920671 0.05864919 0.40236458 0.13164647 -0.90596467 0.0050790384
0.45631433 -0.074240915 0.059773404 -0.39563477 0.14653799 -0.90664202 0.052932777
0.46684653 -0.075579554 0.055216797 -0.7719692 0.081274778 -0.63044268 0.066969603
-0.26237875 -0.06376414 0.050221749 0.085426681 0.057549212 -0.99468106 2.0441369e-06
-0.25589651 -0.06399069 0.05077938 0.085933566 0.058979753 -0.99455363 0
-0.24584405 -0.063222222 0.051714957 0.08790642 0.060825281 -0.99426991 1.0351327e-05
-0.23590665 -0.064933099 0.052483603 0.12438252 0.07387761 -0.9894802 0.001156413
-0.22631165 -0.065844193 0.053272605 0.20950894 0.091055863 -0.97355777 0.0049980888
-0.21354508 -0.064943843 0.056961007 0.37610364 0.10635237 -0.92045379 0.0044718762
0.45925689 -0.067315534 0.0599574 -0.55967861 0.09937346 -0.82273006 0.077219151
0.46714792 -0.064729445 0.056473937 -0.80648768 0.16069496 -0.56899452 0.068581566
-0.26612926 -0.054941345 0.050448734 0.087147899 0.055210251 -0.99466425 1.210526e-05
-0.2541022 -0.054728433 0.051523406 0.086751208 0.057484686 -0.99457008 9.4321131e-06
-0.24705295 -0.055520084 0.052095342 0.087314606 0.057930492 -0.99449497 1.7467208e-05
-0.23300147 -0.054587446 0.053394157 0.15866494 0.070543811 -0.9848091 0.0022986413
-0.22711903 -0.055526525 0.05385381 0.23971243 0.070401721 -0.96828794 0.00555391
-0.21117377 -0.058584332 0.059235014 0.39485613 0.10102037 -0.91317219 0.0047727367
0.46911287 -0.053860825 0.057189438 -0.81632876 0.14155629 -0.55997241 0.067277245
-0.27323124 -0.047159702 0.050314158 0.087582409 0.045498937 -0.99511766 6.7932393e-05
-0.2661553 -0.045478132 0.051044844 0.086606361 0.041662417 -0.9953711 8.7961125e-05
-0.25659126 -0.04486518 0.051927488 0.08613164 0.040637754 -0.99545467 9.9419951e-05
-0.24594514 -0.046204682 0.052782148 0.088605195 0.044238143 -0.99508405 0.00010083457
-0.23543158 -0.04477058 0.053800505 0.16381626 0.04122173 -0.98562926 0.0025120776
-0.22343995 -0.045024835 0.055031821 0.30178097 0.032902811 -0.95280933 0.0068416661
-0.21649826 -0.043922748 0.058129713 0.41283056 0.041359577 -0.90986824 0.0048218537
0.46968037 -0.044745293 0.054517984 -0.87273216 0.1064936 -0.47644275 0.071568452
-0.28219545 -0.031649373 0.050073229 0.087737694 0.02071576 -0.99592823 0.0001061498
-0.2755461 -0.032985397 0.050654594 0.088097773 0.021851921 -0.99587208 0.00011671543
-0.26596072 -0.034774806 0.051505703 0.085543238 0.026728852 -0.99597585 0.00011462703
-0.2546882 -0.035586335 0.052488834 0.088506512 0.032599472 -0.99554199 0.00010203569
-0.24528389 -0.031570744 0.053330135 0.10087924 0.017022319 -0.994753 0.00044069078
-0.23285609 -0.033029385 0.054426711 0.17339681 0.023111124 -0.98458081 0.0036078233
-0.22645223 -0.032951608 0.054991752 0.25839132 -0.00039083548 -0.96604025 0.0070059574
-0.21858403 -0.034822218 0.057616416 0.36010811 0.031180486 -0.93238938 0.0074515659
0.46992052 -0.037626106 0.056260865 -0.82546753 0.0092753014 -0.56437331 0.076711923
0.47010627 -0.034517735 0.051704478 -0.88267416 0.06458988 -0.46552607 0.073297888
-0.27587396 -0.024716029 0.050631005 0.087852381 0.011631829 -0.99606556 6.1719606e-05
-0.26414475 -0.024871552 0.051665936 0.087013125 0.0076761297 -0.99617761 3.66409e-05
-0.2567375 -0.024633678 0.052319523 0.087404512 0.0085161766 -0.99613649 3.4702913e-05
-0.24644603 -0.025084233 0.053227592 0.10041589 0.004780028 -0.99493408 0.00035943536
-0.2346776 -0.024454875 0.054265987 0.1633236 0.0014196744 -0.98657149 0.0031573065
-0.22269326 -0.024472238 0.055823456 0.32924953 0.016215056 -0.94410378 0.0083098533
-0.21677491 -0.02173846 0.058721907 0.4013992 0.030152289 -0.91540682 0.0057790373
0.46989965 -0.025853535 0.057488542 -0.77246565 0.029486811 -0.6343717 0.067591675
0.47008514 -0.02454366 0.052295413 -0.87863761 0.034631431 -0.47623175 0.069005691
-0.27572021 -0.015128804 0.050644577 0.08789143 0.00012396013 -0.99613005 1.5933365e-06
-0.26598796 -0.016289918 0.051503301 0.087755606 0.0020405711 -0.99613994 9.733727e-06
-0.25515544 -0.015702473 0.052459113 0.088034309 0.0021356991 -0.99611521 1.2088956e-05
-0.2458258 -0.017079143 0.05328232 0.11240787 0.0037800416 -0.99365497 0.00082308933
-0.23486793 -0.015931213 0.054249197 0.17280343 -0.0068744342 -0.9849323 0.0032819484
-0.22465074 -0.016039124 0.055211835 0.30802679 0.013758951 -0.95127821 0.006940553
-0.21694142 -0.019164309 0.058623962 0.39802095 0.018706871 -0.91718554 0.0056738998
0.46994269 -0.01611837 0.056285139 -0.82818967 -0.0093381107 -0.56037009 0.070129462
0.47004128 -0.017106608 0.053524558 -0.85772747 -0.026430693 -0.51342475 0.073640659
-0.28267223 -0.00098309433 0.050031163 0.087871104 6.5915862e-07 -0.9961319 1.539844e-06
-0.27609399 -0.0042921202 0.050611597 0.087886833 2.0249363e-05 -0.99613047 0
-0.2649284 -0.0048137945 0.051596791 0.08786197 -4.0318519e-06 -0.99613267 3.3238107e-06
-0.25523105 -0.0050298055 0.052452449 0.087912925 2.1197316e-06 -0.99612814 0
-0.24416043 -0.005205892 0.053429265 0.10140853 -0.00095834734 -0.99484444 0.00038858477
-0.23431179 -0.0072506918 0.054298259 0.16152889 0.0048053898 -0.98685628 0.0025958477
-0.22381742 -0.0042136898 0.055494029 0.31809169 -0.0077249226 -0.9480285 0.0062337616
-0.21780381 -0.0056640999 0.058116682 0.40007856 0.00035790325 -0.91648078 0.0047257617
0.46986043 -0.0053206505 0.058588393 -0.79397243 0.0020163036 -0.60795039 0.073169447
0.47009662 -0.0047924952 0.05197474 -0.89657736 0.028065596 -0.44199699 0.068656623
-0.28087953 0.0057213982 0.050189335 0.087867275 4.7622368e-07 -0.99613225 1.395204e-06
-0.27420598 0.0057552652 0.050778188 0.087897688 -2.6916038e-07 -0.99612951 0
-0.26448494 0.0051135467 0.051635928 0.087879151 -3.2162927e-07 -0.99613118 4.893144e-07
-0.25686747 0.0052533234 0.052308057 0.087896354 -4.1438977e-08 -0.99612963 0
-0.24625988 0.0062123686 0.053244017 0.10504594 0.0030499594 -0.99446273 0.00048649154
-0.23501897 0.0034043698 0.054235864 0.1631749 0.0030277453 -0.98659247 0.002717711
-0.22749621 0.0033966214 0.054899637 0.24099277 0.011288289 -0.97046125 0.0059282314
-0.21763261 0.0083609885 0.058217373 0.38627166 -0.01810592 -0.92220742 0.0053134095
0.46989018 0.0039905999 0.05775483 -0.72504061 -0.00078350498 -0.68870574 0.077733718
0.47010645 0.0049378471 0.051699929 -0.8866936 0.015297512 -0.46210435 0.077370428
-0.28195509 0.010205644 0.050094441 0.08788038 -0.00014666375 -0.996131 0
-0.2773324 0.01430923 0.050502323 0.08767733 -0.0013856034 -0.99614793 6.2692579e-06
-0.2641387 0.01479319 0.051666472 0.087778412 -0.0017391026 -0.99613851 7.4009536e-06
-0.25536361 0.0162466 0.052440751 0.088468514 -0.0032139325 -0.99607378 9.1232696e-06
-0.23347387 0.015003297 0.054372199 0.17475009 -0.0055247997 -0.98459733 0.0031243458
-0.22648935 0.016854078 0.054988477 0.25463387 -0.0017420548 -0.96703601 0.0068261009
-0.21924724 0.018265788 0.05726761 0.35629559 -0.005405067 -0.93435764 0.0070937225
0.4699277 0.012761116 0.056703519 -0.75711316 -0.030940879 -0.65255064 0.075401545
0.47009969 0.011167009 0.051889606 -0.90352136 -0.011593131 -0.42838636 0.068598002
-0.28014803 0.025710272 0.050253883 0.087894551 -0.011772323 -0.99606025 8.2760635e-05
-0.27488905 0.026259474 0.050717909 0.089291781 -0.011953484 -0.99593377 7.5476455e-05
-0.26465616 0.024392549 0.051620819 0.089169636 -0.0094449623 -0.99597168 5.8325666e-05
-0.2533243 0.024247767 0.052620683 0.089731656 -0.0058560059 -0.99594879 3.2128159e-05
-0.24695317 0.025254769 0.053182852 0.095827982 -0.008452679 -0.99536204 0.00022644573
-0.23562817 0.025607735 0.054182112 0.1652853 -0.027761482 -0.98585498 0.0032455793
-0.22418709 0.023250435 0.055474073 0.26921597 -0.010795597 -0.96301931 0.0076129688
-0.21672288 0.023658913 0.058752514 0.39995557 -0.013230033 -0.91643894 0.0047274106
0.46990168 0.023189791 0.05743346 -0.71816456 -0.07832779 -0.69145095 0.064581342
0.4700864 0.026531573 0.052260667 -0.88834548 0.018234124 -0.45881355 0.069811217
-0.28070754 0.037573054 0.050180919 0.088082261 -0.028741851 -0.99569845 0.00014717309
-0.27781352 0.036291532 0.050445415 0.087504506 -0.026477916 -0.99581218 0.00014001857
-0.26422876 0.036875498 0.051643383 0.089549325 -0.03085449 -0.99550432 0.00013020482
-0.2533325 0.035864748 0.052615155 0.087402172 -0.027109893 -0.99580413 0.00012310412
-0.24595267 0.036335893 0.053252902 0.10320909 -0.027041977 -0.99429202 0.00061371643
-0.23672104 0.034730062 0.054085683 0.14207006 -0.032606911 -0.98931944 0.0028772624
-0.22550496 0.034923993 0.055228442 0.24405779 -0.015438542 -0.96963775 0.0063432297
-0.21777017 0.036193412 0.058135509 0.36422759 -0.02484408 -0.93097848 0.0083654393
0.46997538 0.034629092 0.055369198 -0.82917297 -0.064353853 -0.55527532 0.075211063
0.47009692 0.03435491 0.051966548 -0.85967886 -0.050445441 -0.50833797 0.077302858
-0.27418584 0.043721884 0.050447322 0.089119568 -0.041262668 -0.99516582 0.00011017812
-0.26492795 0.043784447 0.05126024 0.086227231 -0.040595256 -0.99544805 0.00014630682
-0.2547217 0.044091158 0.052141394 0.085549966 -0.044118688 -0.99535656 0.00011333089
-0.24518266 0.044698939 0.052944645 0.10508157 -0.048950069 -0.99325818 0.00051848567
-0.234852 0.044074528 0.05389566 0.15792079 -0.040159784 -0.98663479 0.0024579505
-0.22298369 0.042417377 0.055047654 0.28859249 -0.038042527 -0.95669591 0.0069643678
-0.21917076 0.048892166 0.055870708 0.31934282 -0.065849356 -0.94534862 0.007362809
0.46961462 0.046468694 0.053860717 -0.84772378 -0.099244043 -0.52107102 0.079113491
-0.27078092 0.053617336 0.050122008 0.086780354 -0.050500836 -0.99494666 6.2833205e-05
-0.26516101 0.056078348 0.050462265 0.086290859 -0.058266528 -0.99456471 3.976289e-06
-0.25422132 0.055392761 0.051470891 0.086305544 -0.058977928 -0.99452144 3.1784116e-06
-0.24445347 0.055249419 0.052341819 0.10037001 -0.059329625 -0.99317968 0.00033499754
-0.23555104 0.055081531 0.053137943 0.13446739 -0.056218125 -0.98932195 0.0017448203
-0.21524134 0.056589853 0.057118036 0.36494651 -0.08717218 -0.92693859 0.0064926455
0.46910912 0.056419581 0.053585619 -0.84285104 -0.095431402 -0.52961767 0.065575428
-0.26018563 0.069557808 0.050057612 0.085504971 -0.059517354 -0.99455851 1.3905998e-06
-0.25575224 0.066628106 0.05062557 0.086016402 -0.059880786 -0.99449259 1.5818858e-06
-0.24445228 0.066172704 0.051651184 0.08635892 -0.059947718 -0.99445885 1.8170757e-06
-0.23617542 0.067403346 0.052303683 0.11124347 -0.067793556 -0.99147815 0.00052706472
-0.22345424 0.065697134 0.053534031 0.25312573 -0.073316135 -0.96465129 0.0051720138
-0.21404377 0.065123133 0.056642883 0.37281537 -0.088272303 -0.92369735 0.0053694239
0.46600509 0.065342054 0.058734003 -0.70693862 -0.118465 -0.69728309 0.063194506
-0.25553998 0.072089598 0.050311338 0.085135601 -0.061590362 -0.99446392 2.1136781e-05
-0.24676648 0.075885013 0.050841618 0.085867435 -0.067705177 -0.99400342 5.6034987e-05
-0.23449491 0.073855124 0.052043978 0.12527716 -0.077546313 -0.98908651 0.0015623866
-0.22721612 0.075480409 0.052583445 0.19859062 -0.088131152 -0.97611201 0.0042388644
-0.2153918 0.074904934 0.054680962 0.34550112 -0.09252996 -0.9338454 0.0048558456
-0.20663197 0.076200143 0.059471536 0.40424538 -0.12233109 -0.90643305 0.0060256445
0.45519361 0.077080891 0.059692573 -0.40108049 -0.042724907 -0.91504592 0.050806101
0.46730122 0.074233547 0.055450153 -0.75550836 -0.12024184 -0.64401013 0.074603729
-0.24577399 0.085098304 0.050416809 0.083376788 -0.084824473 -0.99290138 0.00022697325
-0.23398794 0.085365541 0.0513868 0.13628758 -0.10539841 -0.98504663 0.0022755656
-0.22570114 0.083694972 0.052197676 0.19162352 -0.10416128 -0.97592568 0.0049679126
-0.20639145 0.084744588 0.058431864 0.40356722 -0.14599195 -0.90322751 0.0061250213
0.44771498 0.083899915 0.05978043 -0.20564748 -0.071245007 -0.97602934 0.019326095
0.45563784 0.084606372 0.059256874 -0.40199405 -0.060859509 -0.91361755 0.043899417
0.4658117 0.085667811 0.055250149 -0.67799109 -0.08643344 -0.72997081 0.058204778
-0.24183087 0.093130879 0.050270882 0.085459031 -0.094159022 -0.9918825 0.00029166628
-0.23696135 0.096217923 0.050273951 0.093655221 -0.11444985 -0.98900449 0.00099855312
-0.22480638 0.094940051 0.051439904 0.16750264 -0.13570659 -0.97648686 0.0045940769
-0.21690497 0.09551844 0.05220158 0.24686736 -0.18461722 -0.95130068 0.0066536339
-0.20748407 0.095292576 0.055752657 0.32901904 -0.20731305 -0.92128587 0.0082614264
0.42575833 0.099272691 0.059909374 -0.058145002 -0.088162608 -0.99440759 7.5400552e-05
0.43499374 0.096217439 0.059659582 -0.05974656 -0.085174799 -0.99457312 6.5053879e-05
0.44317612 0.091684572 0.059589952 -0.15056542 -0.078831382 -0.985452 0.01132658
0.45523292 0.092630245 0.058811367 -0.47303888 -0.11592123 -0.87338227 0.055743732
0.46601367 0.095449015 0.054692727 -0.75231129 -0.090836622 -0.65251541 0.067830607
-0.2264324 0.10187861 0.050291155 0.13600586 -0.13922371 -0.98087674 0.0030606561
-0.2132377 0.10678078 0.050645776 0.24009266 -0.21826415 -0.94589448 0.0061627747
-0.20329311 0.10499268 0.054768823 0.36686295 -0.25579491 -0.89441633 0.0061581647
-0.19789113 0.10446627 0.058028627 0.4111383 -0.26121646 -0.8733449 0.004275219
0.4083119 0.10958158 0.059874423 -0.047013287 -0.11707367 -0.99200982 0.00014870088
0.41870031 0.10757013 0.059470404 -0.053170506 -0.10639373 -0.9929015 0.00011294336
0.42528298 0.10501494 0.059346218 -0.055562586 -0.099343941 -0.99350065 7.6091863e-05
0.43553457 0.10525474 0.058718503 -0.060439758 -0.095155671 -0.99362588 8.4629923e-05
