# .PCD v0.7 - Point Cloud Data file format
VERSION 0.7
FIELDS x y z normal_x normal_y normal_z curvature
SIZE 4 4 4 4 4 4 4
TYPE F F F F F F F
COUNT 1 1 1 1 1 1 1
WIDTH 587
HEIGHT 1
VIEWPOINT 0 0 0 1 0 0 0
POINTS 587
DATA ascii
-0.014635121 0.38627827 -0.11083849 0.027777078 -0.010850759 0.99955529 0.0048612677
-0.002164138 0.3843542 -0.11083849 -0.007735562 -0.0074516973 0.99994236 0.0037780656
0.003677452 0.38415006 -0.11083849 -0.0072938004 -0.0064088842 0.99995291 0.0039301123
0.013768469 0.3847689 -0.11083849 -0.041734617 -0.0058171973 0.99911177 0.0062040505
0.027516741 0.38078925 -0.11083849 -0.082281612 -0.002860426 0.99660504 0.01441164
0.033006426 0.38517368 -0.11083849 -0.11684016 -0.020082232 0.9929477 0.018747263
0.043851923 0.38606977 -0.1108385 -0.097916476 -0.017553452 0.99503988 0.032398432
0.065377571 0.38344637 -0.1108385 -0.10998901 0.0281536 0.99353397 0.12242054
0.076197423 0.38575032 -0.1106976 0.052312013 -0.00093254796 0.9986304 0.16069032
0.081112124 0.38840029 -0.11051963 0.19473085 -0.044851575 0.97983074 0.14281389
0.094671607 0.38315895 -0.1108385 0.2294628 -0.020436117 0.97310287 0.098887309
0.10404927 0.38531587 -0.11083848 0.13380721 -0.014651485 0.99089909 0.05088317
0.11363066 0.38660163 -0.11083849 0.024382174 -0.0016400747 0.99970138 0.01008004
0.12802678 0.38636553 -0.11083848 -0.29740137 0.023778504 0.95445639 0.042709388
0.13544251 0.3861647 -0.11083849 -0.46361768 0.06304086 0.88378984 0.049454603
-0.14053091 0.39342332 -0.11014114 0.57188225 -0.069297008 0.81740361 0.060876373
-0.13535552 0.394631 -0.1108385 0.43911684 0.020744806 0.89819044 0.051644653
-0.12531897 0.39404705 -0.1108385 0.2476792 -0.023890613 0.96854752 0.034490302
-0.11215054 0.39747411 -0.11083849 -0.12410308 0.0020971217 0.99226713 0.040828452
-0.10505939 0.39449194 -0.1108385 -0.17854136 -0.048168406 0.98275262 0.090984106
-0.094757304 0.39633724 -0.11083849 -0.26094604 0.0021677886 0.96535093 0.13076647
-0.08297573 0.39396787 -0.11078162 -0.044372998 -0.043777004 0.9980554 0.15352909
-0.075802758 0.39368781 -0.11083849 0.085629083 0.019426707 0.99613768 0.12872157
-0.064013213 0.39455765 -0.11083849 0.092285022 0.082638524 0.99229747 0.085404314
-0.056321066 0.39306459 -0.11083849 0.081278086 0.032669421 0.99615592 0.055234533
-0.046299897 0.39599118 -0.11083849 0.092546113 0.016050784 0.99557906 0.032278843
-0.033005968 0.39065975 -0.11083849 0.073207133 -0.0031135939 0.99731189 0.015113762
-0.024532514 0.39637712 -0.1108385 0.061893038 0.010350216 0.99802917 0.0086762151
-0.016868165 0.39664084 -0.11083849 0.032315489 0.0046553416 0.99946684 0.0061998833
-0.0065069459 0.39166868 -0.11083848 0.0071583483 0.0010856156 0.99997383 0.0035973
0.0052792295 0.39468658 -0.11083849 -0.018922834 -0.0041472516 0.9998123 0.0043477574
0.015139133 0.39135385 -0.11083849 -0.039738271 -0.0065551712 0.99918866 0.0063396469
0.024789685 0.39384255 -0.11083849 -0.084124669 -0.0041927285 0.99644637 0.011972879
0.037440889 0.39695281 -0.11083849 -0.10694903 0.023725634 0.99398142 0.028792856
0.045050807 0.3955048 -0.11083849 -0.11536349 -0.018453056 0.9931519 0.036271386
0.058182936 0.39283848 -0.1108385 -0.050840724 -0.019831654 0.99850994 0.079884276
0.066346876 0.3940382 -0.1108385 -0.12127049 -0.0075677335 0.99259061 0.11177499
0.076398164 0.39570951 -0.11072034 0.11531185 0.068012811 0.99099827 0.13677435
0.085595131 0.39504099 -0.1108385 0.20913002 -0.035808232 0.97723198 0.12947011
0.096954644 0.3969436 -0.1108385 0.25197655 0.050548859 0.96641225 0.11056211
0.10593642 0.39681792 -0.11083848 0.1030193 -0.0044603772 0.99466932 0.03449617
0.11443406 0.39305976 -0.11083849 0.04044899 -0.00047720832 0.99918145 0.024039619
0.12559846 0.39563569 -0.1108385 -0.19890167 0.049234752 0.97878194 0.034768175
0.14041212 0.39383695 -0.11055384 -0.6554091 0.027684009 0.75476652 0.07080327
-0.13451165 0.40294552 -0.11083849 0.44377106 -0.052218266 0.8946175 0.049799513
-0.12246093 0.40665469 -0.1108385 0.19938278 -0.0098855505 0.97987181 0.025396176
-0.11397918 0.40365019 -0.1108385 -0.10500861 0.00081706641 0.99447095 0.037763376
-0.10526785 0.40414247 -0.11083849 -0.21219577 -0.0046864781 0.97721595 0.085415579
-0.092037328 0.40677872 -0.1108385 -0.27734679 0.0024610371 0.96076673 0.13623683
-0.085148878 0.40555823 -0.11080489 -0.12052889 -0.012269238 0.992634 0.13741235
-0.078685865 0.40330058 -0.11083849 0.040951021 -0.050888445 0.99786437 0.13671847
-0.068800971 0.40327144 -0.11083849 0.12801823 -0.048864577 0.99056727 0.10181148
-0.055124197 0.40385458 -0.1108385 0.066368528 0.028818557 0.99737895 0.048982803
-0.041727573 0.40431571 -0.11083849 0.086325236 0.064777836 0.9941588 0.024211725
-0.033555292 0.40533686 -0.1108385 0.071719974 0.039571241 0.99663955 0.017124405
-0.026131425 0.40453538 -0.11083848 0.070690006 0.0062713018 0.9974786 0.011497018
-0.014510695 0.40433052 -0.11083848 0.021503516 0.0078260768 0.9997381 0.0045005265
-0.00046592951 0.40155011 -0.11083849 -0.0071108416 0.009893287 0.99992579 0.0037556658
0.0058724778 0.40465322 -0.11083849 -0.039133325 0.0055848192 0.9992184 0.0047673397
0.015396928 0.40515327 -0.11083849 -0.049129263 0.010287907 0.99873942 0.0070441528
0.021494163 0.40349659 -0.1108385 -0.064586267 0.013421159 0.99782193 0.01103906
0.045553252 0.40437183 -0.1108385 -0.13180494 0.057929877 0.98958147 0.039822988
0.055394188 0.40634364 -0.11083849 -0.011543597 0.084775604 0.99633324 0.061271869
0.063511655 0.40590423 -0.11083849 -0.12586834 0.12332831 0.98435122 0.10232811
0.076589875 0.40642524 -0.11079983 0.055192634 0.076823063 0.99551594 0.1500062
0.084723286 0.40230459 -0.11066921 0.17659749 0.089760728 0.98018181 0.13883156
0.094643801 0.40398234 -0.11083849 0.22815798 -0.013920511 0.97352463 0.12037551
0.10434201 0.40532112 -0.11083849 0.12099981 0.030185649 0.99219346 0.062231615
0.11241481 0.40470237 -0.11083849 0.072345935 0.0045487517 0.99736923 0.027489832
0.12317398 0.40293056 -0.11083849 -0.14367931 0.0094530378 0.98957914 0.026443968
0.13676129 0.40605488 -0.1108385 -0.56808263 -0.016389078 0.82280833 0.067790143
-0.13343212 0.41503301 -0.11083849 0.36401492 0.0020111755 0.93139094 0.049232773
-0.12466089 0.41482109 -0.11083849 0.20336199 -0.041196022 0.97823656 0.027596038
-0.11095637 0.41728315 -0.1108385 -0.18867823 0.033563841 0.98146528 0.060529158
-0.10630145 0.4162322 -0.11083848 -0.22615008 -0.0047844774 0.97408074 0.075109147
-0.097027846 0.41713753 -0.1108385 -0.29720271 0.043814387 0.95380861 0.12718067
-0.087181658 0.41927642 -0.11003867 -0.11295029 0.042388238 0.99269611 0.13862087
-0.078439862 0.41087443 -0.11083849 0.098236196 0.043194633 0.99422532 0.13330963
-0.060095392 0.41767621 -0.11083849 0.085968718 0.040515453 0.99547368 0.05555417
-0.054341082 0.41551438 -0.1108385 0.097284228 0.05717982 0.99361265 0.045854546
-0.044301108 0.4160178 -0.11083848 0.074457712 0.075227253 0.99438268 0.026142871
-0.034785785 0.41557255 -0.11083849 0.049744636 0.066998951 0.99651223 0.014620285
-0.024294661 0.4154546 -0.11083848 0.048973896 0.033467494 0.99823916 0.0088225836
-0.014094621 0.41820881 -0.11083849 0.030869691 0.035922602 0.99887764 0.0044034473
-0.0044286307 0.4142741 -0.1108385 -0.00088024838 0.025669603 0.99967009 0.0034738216
0.0053887293 0.41670197 -0.11083849 -0.0062858919 0.025604969 0.99965239 0.0033794399
0.010640271 0.41219008 -0.11083849 -0.035207741 0.023690211 0.9990992 0.0048274025
0.025256839 0.4161709 -0.11083849 -0.04975491 0.049731694 0.99752253 0.0096582333
0.034018286 0.41511437 -0.11083849 -0.10153269 0.073733896 0.99209589 0.022965053
0.045797251 0.41323233 -0.11083848 -0.089809462 0.12356383 0.98826426 0.039999887
0.054684397 0.4150174 -0.11083848 -0.083459839 0.087203711 0.9926883 0.057383962
0.066285938 0.41752195 -0.11083849 -0.097888157 0.031566363 0.99469668 0.11782491
0.077458419 0.41488948 -0.1108385 0.077405624 -0.024978589 0.99668676 0.13637923
0.085673228 0.41328472 -0.11083849 0.20031407 -0.0045279139 0.97972125 0.13774616
0.093888752 0.41254163 -0.1108385 0.19632059 0.0082877064 0.98050475 0.11349893
0.10338791 0.41183451 -0.1108385 0.20660916 0.0067067617 0.97840059 0.07090044
0.11290634 0.41438627 -0.1108385 0.045026664 0.017206084 0.99883759 0.013929157
0.12225173 0.41379949 -0.11083849 -0.1416079 0.0054497803 0.98990786 0.025078829
0.13655619 0.41446286 -0.11083849 -0.63526607 0.026144121 0.77185065 0.058782138
0.14052096 0.41278329 -0.11017572 -0.62825805 -0.0084582027 0.77795899 0.063687585
-0.13310878 0.42394635 -0.11083848 0.37815416 0.023852346 0.9254353 0.047870491
-0.12231749 0.42452988 -0.1108385 0.17124078 0.04433921 0.98423094 0.02027202
-0.11488959 0.42506129 -0.11083849 -0.062838003 -0.03525823 0.9974007 0.034741711
-0.10760071 0.42743361 -0.1108385 -0.17858754 0.0088231415 0.98388445 0.060279671
-0.097716741 0.42597914 -0.1108385 -0.2433818 0.0014940597 0.96992946 0.1051921
-0.085419349 0.42417756 -0.11081444 -0.0955403 0.00013996262 0.99542552 0.14480361
-0.07663437 0.42312232 -0.11083848 0.12301651 -0.013956172 0.99230647 0.12614976
-0.065658152 0.42389542 -0.11083849 0.091311283 0.091092676 0.9916473 0.072951339
-0.053771015 0.4256978 -0.11083848 0.12617111 0.12866862 0.98362863 0.036625355
-0.045450568 0.42763549 -0.11083849 0.093655303 0.091511287 0.99139017 0.017936571
-0.039406136 0.4287892 -0.11083849 0.006424461 0.063509695 0.99796057 0.0077149416
-0.024989732 0.42543954 -0.11083849 0.017147243 0.047735281 0.99871278 0.0055228258
-0.013390914 0.4278183 -0.11083849 0.021592416 0.042486496 0.9988637 0.0026165594
-0.0076197218 0.4272019 -0.11083849 0.0006948018 0.032522731 0.99947071 0.0020551034
0.0057204366 0.42511541 -0.11083849 -0.0090754041 0.037244596 0.99926496 0.0025710489
0.01316599 0.42826867 -0.11083849 -0.02759528 0.039130736 0.99885297 0.0034161299
0.035699576 0.42553946 -0.11083849 -0.057635527 0.079438955 0.9951722 0.017456437
0.045363314 0.42299628 -0.11083849 -0.080060594 0.088931747 0.9928149 0.032879703
0.054522362 0.42573071 -0.11083848 -0.18797015 0.03070968 0.98169452 0.093451828
0.062744588 0.42612937 -0.11083848 -0.12591551 0.030586967 0.99156928 0.09525758
0.073215365 0.4248766 -0.11083849 -0.090456128 -0.016563121 0.99576271 0.13429773
0.086278833 0.42654338 -0.11083848 0.23965128 -0.056937877 0.96918803 0.13228759
0.0936611 0.42204678 -0.11083849 0.19143599 0.014413006 0.98139924 0.10872088
0.10506205 0.42345083 -0.11083849 0.11243271 -0.0088210758 0.99362022 0.0352524
0.1259232 0.42622501 -0.11083849 -0.23516527 0.027638709 0.97156233 0.040728323
0.13463278 0.42405546 -0.1108385 -0.37182778 0.052259032 0.92682958 0.057439707
-0.13664971 0.43612546 -0.11083849 0.57767177 0.00072895066 0.81626886 0.058190733
-0.12325598 0.43291757 -0.1108385 0.20625633 0.017770728 0.97833657 0.031332366
-0.11542621 0.43422535 -0.11083848 -0.042965755 0.0010562559 0.99907607 0.023189517
-0.10411906 0.43410817 -0.11083848 -0.13631888 -0.05885743 0.98891509 0.078305833
-0.093399689 0.43542656 -0.11083849 -0.25278956 -0.0050859572 0.9675079 0.12034249
-0.081487566 0.43460882 -0.11060303 0.079702266 -0.11972652 0.98960251 0.14783221
-0.076410875 0.43425232 -0.11083849 0.15596914 -0.10695352 0.9819544 0.14162616
-0.065093093 0.43623924 -0.11083848 0.17653506 0.039277334 0.98351043 0.081278384
-0.052030634 0.43588024 -0.11083849 0.098902732 0.088376552 0.99116492 0.02748191
-0.04447319 0.4394151 -0.11083849 0.043328837 0.034136686 0.99847746 0.013192211
-0.036238879 0.43472672 -0.11083849 0.015234949 0.064524807 0.99779981 0.0062586521
-0.025878796 0.43526161 -0.11083848 0.0054814876 0.059983771 0.99818432 0.0033391844
-0.014141074 0.43227711 -0.1108385 0.012750595 0.040528752 0.99909699 0.0018741129
-0.0052976757 0.43566701 -0.1108385 0.0089567266 0.036666203 0.99928743 0.0013876793
0.0045593181 0.43554726 -0.11083848 -0.0063835625 0.030263839 0.99952149 0.0012295
0.015641514 0.43293139 -0.11083849 -0.02218394 0.040105108 0.99894917 0.0032146308
0.023519726 0.43574497 -0.11083849 -0.01552401 0.044497035 0.99888891 0.0036101765
0.035980258 0.43228677 -0.11083849 -0.035575826 0.10246697 0.99410003 0.015976191
0.044590916 0.43545392 -0.11083849 -0.12107401 0.071225241 0.99008489 0.025504798
0.053619154 0.43517661 -0.11083849 -0.2202141 0.025641534 0.97511441 0.064705372
0.065776147 0.4329555 -0.1108385 -0.2051912 -0.036842331 0.97802824 0.12140437
0.076017223 0.43526992 -0.11061829 -0.058188293 -0.040876638 0.99746841 0.16504227
0.085010074 0.43498787 -0.11083848 0.27548522 -0.084278747 0.95760381 0.1457729
0.09586966 0.43251371 -0.11083849 0.22592105 -0.056968153 0.97247851 0.10432994
0.10859504 0.43540734 -0.11083849 0.10811688 0.042000409 0.99325055 0.030631103
0.11494147 0.43586722 -0.11083848 -0.016578428 0.0091503011 0.99982071 0.0064552096
0.12423174 0.43458071 -0.11083849 -0.176356 0.0021607771 0.9843241 0.040346563
0.13472886 0.43488106 -0.1108385 -0.51403666 -0.045264035 0.85657316 0.076912999
0.14030567 0.43984234 -0.11083849 -0.70764583 0.01593799 0.70638758 0.061674755
-0.14044365 0.44398451 -0.11044431 0.6836102 -0.0061859554 0.72982121 0.080132112
-0.13768859 0.44407722 -0.1108385 0.5643574 0.0087642632 0.82548398 0.079829141
-0.12722172 0.44485405 -0.11083848 0.27092135 -0.024943108 0.96227831 0.076300859
-0.1144357 0.44326973 -0.11083848 -0.061659072 -0.11470172 0.99148458 0.046948008
-0.0953658 0.44760075 -0.1108385 -0.29595059 0.011422221 0.95513499 0.14565046
-0.085153624 0.4436678 -0.11062022 -0.06699729 0.047906969 0.99660236 0.15192661
-0.076862417 0.44415116 -0.1108385 0.16728339 0.014004129 0.98580939 0.15201986
-0.063691832 0.4441027 -0.11083849 0.1999688 -0.12773171 0.97144079 0.091239765
-0.053137697 0.44600135 -0.11083848 0.16310801 -0.079455748 0.98340356 0.061202005
-0.045366619 0.44436151 -0.11083849 0.078350797 -0.052872423 0.99552286 0.041324079
-0.03213077 0.44914991 -0.11083849 -0.016731316 -0.094372906 0.99539626 0.069059104
-0.024084525 0.44423997 -0.11083848 -0.017544912 -0.05248335 0.99846768 0.023654284
-0.014900506 0.4445307 -0.11083848 -0.010889381 -0.11231031 0.99361354 0.033439074
-0.0062730336 0.44480681 -0.11083848 0.0033255364 -0.08429984 0.99643487 0.04007674
0.0064017661 0.44533837 -0.11083849 0.014962015 -0.088291824 0.99598229 0.055251051
0.013174403 0.44317707 -0.11083849 -0.030718571 -0.092468902 0.99524164 0.042000882
0.025491767 0.44541979 -0.1108385 0.013532717 -0.093719713 0.99550664 0.04845766
0.031533666 0.44686499 -0.11083848 0.019497944 -0.10787784 0.99397296 0.067459747
0.046317667 0.44865784 -0.1108385 -0.20443545 -0.15980788 0.96574718 0.094051756
0.052205369 0.44465172 -0.11083848 -0.18896893 -0.079073131 0.97879428 0.069484331
0.066268243 0.44457364 -0.11083849 -0.25609598 -0.015068202 0.96653396 0.13701203
0.076083466 0.44390669 -0.11078162 -0.074390553 0.0097037451 0.99718201 0.15629934
0.085608944 0.44574189 -0.11080406 0.22634368 0.16069502 0.96070057 0.14535642
0.095856071 0.44513869 -0.11083849 0.19089666 -0.00669839 0.98158735 0.11565989
0.10656452 0.44557214 -0.11083848 0.14531516 -0.10786945 0.98348749 0.077376172
0.11619191 0.44583777 -0.11083849 -0.046820618 -0.10205225 0.9936766 0.080946177
0.12333676 0.44537497 -0.1108385 -0.16471443 -0.06850107 0.98395973 0.082029179
0.13240647 0.44385043 -0.1108385 -0.35934767 -0.058812253 0.93134868 0.076156653
0.14028178 0.44279554 -0.11065669 -0.63587254 -0.0028167877 0.77178901 0.071420148
-0.13239431 0.45523968 -0.11083849 0.3532092 -0.046262927 0.93439984 0.13677752
-0.12553257 0.45702067 -0.1108385 0.17925495 -0.13403209 0.97462976 0.18219171
-0.11349975 0.45770323 -0.11083849 -0.030430794 0.043207433 0.99860257 0.15527563
-0.1062551 0.45196021 -0.11083849 -0.12519343 -0.088000201 0.98822194 0.13638234
-0.094443403 0.45498791 -0.1108385 -0.13924579 0.15946552 0.97733372 0.16933604
-0.08297053 0.45532671 -0.11079212 0.090658747 -0.23543474 -0.96765256 0.20065132
-0.075429134 0.45605296 -0.11083848 0.16664353 0.17589658 0.97020119 0.19850786
-0.063685246 0.4529179 -0.1108385 0.19293495 0.031489324 0.9807061 0.12560555
-0.056173809 0.45954901 -0.11083849 0.052618496 0.17012936 0.98401588 0.17743559
-0.043793928 0.4551782 -0.11083849 -0.027074359 -0.12843403 0.99134839 0.14918932
-0.035300739 0.45262042 -0.11083849 -0.088086806 -0.077972397 0.99305642 0.10214663
-0.022877775 0.45785913 -0.1108385 0.015524322 0.0010168522 0.99987894 0.11631799
-0.012828745 0.45420301 -0.11083849 0.016121924 -0.025412535 0.999547 0.070138142
-0.0041082054 0.4543553 -0.11083849 0.01037114 -0.070118189 0.99748474 0.08266601
0.0016426593 0.45621592 -0.11083849 -0.018518806 -0.06723088 0.99756563 0.11707752
0.013191992 0.4540422 -0.11083849 -0.055309426 -0.056076858 0.99689329 0.12790246
0.026702354 0.45476094 -0.1108385 -0.048700552 -0.037509553 0.99810886 0.11823448
0.035898242 0.45677352 -0.11083848 -0.080644466 0.03374308 0.99617159 0.16484368
0.043344982 0.45642847 -0.11083849 -0.13319045 0.030319139 0.99062663 0.15988211
0.054244936 0.45655078 -0.11083849 -0.13200699 0.027457362 0.99086845 0.16534054
0.062067255 0.45632559 -0.11083849 -0.11909001 0.050779078 0.99158406 0.15377676
0.074950509 0.45709062 -0.11083848 -0.027488882 -0.24385692 -0.96942157 0.14337322
0.082977749 0.45664373 -0.1108385 0.024844009 -0.24066693 -0.97028971 0.14104509
0.094867282 0.45525205 -0.11083848 0.12426327 0.12645397 0.98415852 0.14568381
0.10155722 0.45155671 -0.11083849 0.14793684 -0.045482468 0.98795044 0.12552606
0.11341646 0.4554722 -0.1108385 0.006669757 -0.051709276 0.99863988 0.10309971
0.12754257 0.45443857 -0.1108385 -0.18590164 -0.078590564 0.97942024 0.14496067
0.13813946 0.45089555 -0.11083848 -0.58964676 -0.024927959 0.80727649 0.12008289
-0.1403302 0.46699667 -0.1140793 0.45769173 0.15748736 0.87505203 0.11861296
-0.13494337 0.46657586 -0.11673155 0.36191139 0.17274822 0.91606671 0.108646
-0.1264125 0.46527228 -0.11400245 0.15683028 0.23113379 0.96019864 0.12858805
-0.11502652 0.4641172 -0.11231254 -0.030522566 -0.32997677 -0.94349545 0.15702343
-0.10420866 0.46627125 -0.11448643 -0.08205194 -0.37058195 -0.92516834 0.10321219
-0.094204374 0.46388888 -0.11191369 -0.0023541399 -0.42918664 -0.90321273 0.15344395
-0.085141957 0.46584764 -0.11457308 -0.022443321 -0.42756829 -0.90370446 0.11589231
-0.076073579 0.46860489 -0.11673471 0.076551281 -0.34751719 -0.93454349 0.081808351
-0.064343601 0.4642159 -0.1128039 -0.01134702 -0.27612215 -0.96105552 0.13102424
-0.052957315 0.46642676 -0.11432121 0.11169868 0.23532705 0.96547639 0.098194957
-0.04322955 0.4660019 -0.1147693 -0.051811017 -0.27320829 -0.96055859 0.13454823
-0.035791494 0.46466458 -0.11214875 0.028118363 0.21286479 0.97667706 0.16456504
-0.027337506 0.46342176 -0.11110288 -0.0035454726 0.17829241 0.98397112 0.11649178
-0.015393521 0.46618366 -0.1128039 0.034838166 -0.27505779 -0.9607963 0.095477529
-0.004021829 0.46368176 -0.11342804 0.014248488 0.15792325 0.98734862 0.094428927
0.0057200827 0.46739522 -0.11626013 0.041955352 -0.26141053 -0.96431547 0.090919547
0.014933674 0.46472737 -0.11392787 0.0056182975 0.22329022 0.97473586 0.097109899
0.024741927 0.46610534 -0.11468757 0.040546332 -0.27555791 -0.96042895 0.098405108
0.034965023 0.46462139 -0.1136125 -0.011429722 -0.40082565 -0.91608298 0.14038812
0.044473961 0.46447042 -0.11268608 0.052602392 -0.30083036 -0.95222586 0.16850464
0.054833595 0.46544069 -0.11269694 -0.019610325 -0.45836321 -0.88854855 0.15067732
0.063598022 0.46463102 -0.11239253 -0.011474869 -0.34169188 -0.93974197 0.12757443
0.076915219 0.46546668 -0.1133071 -0.10389615 -0.38325965 -0.91777873 0.10390806
0.086715288 0.4630706 -0.11107212 0.0043989439 -0.35199243 -0.93599254 0.16258368
0.096710198 0.46353793 -0.11204889 0.003270403 -0.43262488 -0.90156806 0.14470303
0.10878819 0.46578419 -0.11413696 0.001599892 -0.36727297 -0.93011183 0.1380908
0.11365882 0.46419111 -0.11280388 0.012967477 0.16899586 0.98553139 0.11467056
0.12620428 0.46580154 -0.1147644 -0.12616669 0.14226072 0.98175555 0.15493672
0.13479988 0.46569249 -0.11478154 -0.29426324 0.17380735 0.93978721 0.13501707
0.1404586 0.4671832 -0.11039238 -0.72125816 0.12613343 0.68108523 0.15871164
-0.13625367 0.47395337 -0.11673471 0.42615253 0.23604059 0.8733148 0.10544357
-0.12470288 0.47560513 -0.11673471 0.10821876 0.18612653 0.97654778 0.094975479
-0.11249099 0.47403845 -0.11673471 -0.024853801 0.21217631 0.9769153 0.071036197
-0.10327013 0.47410613 -0.11673471 0.065591283 0.20963594 0.97557712 0.089589737
-0.093971476 0.47266251 -0.11673471 -0.041376825 -0.26328921 -0.96382916 0.064266905
-0.082378186 0.47645235 -0.11673471 0.013917947 0.24009961 0.97064853 0.079427481
-0.076132566 0.47370705 -0.11673471 0.057671092 -0.2573542 -0.9645946 0.072455771
-0.065224461 0.47376701 -0.11673471 -0.020231636 -0.26369214 -0.96439469 0.083813965
-0.052833032 0.47437549 -0.11673471 0.0094777215 0.17958894 0.98369604 0.082708061
-0.041598752 0.477413 -0.11673471 -0.04978469 0.13194148 0.99000651 0.083412521
-0.036681592 0.47705579 -0.11673471 -0.039875381 0.15930618 0.98642355 0.083263077
-0.024265271 0.47616377 -0.11673472 -0.031158578 0.11354057 0.99304467 0.084570117
-0.014078746 0.47530288 -0.11673472 -0.018710369 0.17504862 0.98438203 0.072634421
-0.0031292555 0.47466192 -0.11673471 0.091513202 0.22008948 0.97117764 0.064694211
0.0056924485 0.47235197 -0.11673471 0.062292192 -0.28466356 -0.95660138 0.081760459
0.016411206 0.47327504 -0.11673472 -0.053819597 -0.2587879 -0.96443361 0.094878346
0.026236016 0.4749158 -0.11673471 0.031264905 0.17611501 0.98387289 0.078958206
0.037741825 0.47397199 -0.11673471 0.00034715526 0.13794987 0.99043912 0.086943984
0.044301305 0.47583571 -0.11673472 0.024621356 0.12378471 0.99200356 0.070830494
0.052601255 0.47807822 -0.11673471 -0.02302579 0.19122191 0.98127675 0.085790448
0.068228357 0.47266483 -0.11673471 0.027724151 -0.29896489 -0.9538613 0.075148024
0.076785579 0.4772622 -0.11673471 -0.000541988 0.20902102 0.97791106 0.068756208
0.087794244 0.47089148 -0.11673471 -0.045534197 -0.27942511 -0.95908713 0.064027689
0.092782199 0.4745267 -0.11673471 -0.036734592 0.13145025 0.99064195 0.064410813
0.10706311 0.47477454 -0.11673472 0.14051208 0.14389846 0.97956598 0.088680975
0.11655218 0.47457331 -0.11673473 -0.056353703 0.21178196 0.9756909 0.06239732
0.12478469 0.47293746 -0.11673471 -0.027472254 0.17011073 0.98504192 0.069936015
0.13595352 0.47633386 -0.11673472 -0.43582508 0.068379022 0.89743012 0.090090193
0.14028542 0.47422382 -0.11587954 -0.54876035 0.15086114 0.8222549 0.09000288
-0.1403302 0.48688579 -0.11310966 0.7083962 -0.14600064 0.69054949 0.10716297
-0.13433667 0.48698938 -0.11673471 0.40756115 -0.2111446 0.88843226 0.10192604
-0.12303337 0.48688895 -0.11673471 0.14243113 -0.13640125 0.98036116 0.093726397
-0.11609142 0.48797518 -0.11673471 0.013321936 -0.21200633 0.9771775 0.096679829
-0.10812912 0.48548627 -0.11673471 -0.044513855 -0.083592154 0.99550533 0.11407835
-0.094548501 0.48407313 -0.11673471 0.0063157082 -0.044312835 0.99899775 0.10666072
-0.085826658 0.48744369 -0.11673471 -0.027402429 -0.11200336 0.99332994 0.088180155
-0.066778973 0.48522949 -0.11673471 -0.026315609 -0.19422428 0.98060417 0.0985194
-0.05435662 0.48502332 -0.11673473 -0.027863406 -0.074852541 0.99680531 0.07726384
-0.04580405 0.48520052 -0.11673471 -0.025935229 -0.16916907 0.98524576 0.096122183
-0.035001796 0.48512828 -0.11673472 0.0080893748 -0.13337158 0.99103308 0.096351042
-0.023402821 0.4843553 -0.11673471 -0.041657891 -0.010029422 0.99908161 0.099920943
-0.013408765 0.48621526 -0.11673471 0.021201428 -0.10696772 0.99403638 0.10208062
-0.0044392273 0.48841769 -0.11673471 0.083859585 -0.2486528 0.96495575 0.10381721
0.004719656 0.48393923 -0.11673471 0.041989461 0.075728148 0.99624401 0.10392219
0.016908966 0.48280248 -0.11673472 0.00023802352 0.10353997 0.99462527 0.087317392
0.024748554 0.48330778 -0.11673471 -0.020456988 0.017089875 0.99964464 0.089063048
0.036225107 0.48476455 -0.11673473 0.022054488 -0.11594946 0.99301022 0.11316414
0.044896919 0.48341775 -0.11673473 -0.023307569 0.01317138 0.9996416 0.08472047
0.052915268 0.48229367 -0.11673471 0.020236826 -0.00054584118 0.99979502 0.10424513
0.065795965 0.48869032 -0.11673471 0.0081693595 -0.25973916 0.96564424 0.086106069
0.075761728 0.48509988 -0.11673471 -0.047963481 -0.091045879 0.99469101 0.093842186
0.087031081 0.48222178 -0.11673471 -0.095098481 -0.022716306 0.99520868 0.088441022
0.094071031 0.48213127 -0.11673471 -0.082186311 0.024321826 0.99632019 0.080785803
0.10398861 0.48646116 -0.11673471 -0.0061197816 -0.065521292 0.99783242 0.099172749
0.11382845 0.48139116 -0.11673471 0.036813263 -0.017759705 0.99916434 0.09220729
0.12571263 0.48567027 -0.11673471 -0.23545378 -0.1253401 0.96376932 0.088769503
0.13612179 0.4840897 -0.11673471 -0.52250218 -0.21800645 0.82429647 0.11269563
0.1403302 0.48764312 -0.11314429 -0.63018453 -0.19447121 0.75169706 0.1135115
-0.1403302 0.49151981 -0.11420892 0.64189792 -0.29343772 0.70842177 0.094607577
-0.13325475 0.49244523 -0.11673471 0.35753003 -0.36177954 0.86098069 0.078847602
-0.12451503 0.49380025 -0.11673471 0.19883612 -0.43871096 0.8763544 0.077104382
-0.11451092 0.49450529 -0.11673472 -0.036163799 -0.58777529 0.80821556 0.068153419
-0.10462263 0.49625486 -0.11673471 -0.041205261 -0.59459478 0.80296898 0.073467568
-0.094850443 0.49211618 -0.11673471 -0.0071492041 -0.24426368 0.96968251 0.073622085
-0.082920715 0.49211258 -0.11673471 0.005820211 -0.32093373 0.94708377 0.081147417
-0.075175568 0.49452814 -0.11673473 0.037848946 -0.57696861 0.81588888 0.078673974
-0.066073909 0.49512318 -0.11673472 0.030301219 -0.57477552 0.81774992 0.085519552
-0.052223995 0.49336332 -0.11673471 -0.0090126283 -0.42535442 0.90498197 0.10563077
-0.042206604 0.49625278 -0.11673471 -0.011775347 -0.64251882 0.76617944 0.067501217
-0.034773797 0.49335694 -0.11673471 0.053340301 -0.3368454 0.94004786 0.092475593
-0.028065894 0.49332097 -0.11673471 0.018310383 -0.64163035 0.76679546 0.069820195
-0.015243264 0.49511358 -0.11673473 0.012849687 -0.4641068 0.8856861 0.073596045
-0.004428559 0.49674332 -0.11673471 0.044150982 -0.61472774 0.78750271 0.080693357
0.0065875375 0.49468878 -0.11673472 0.010426532 -0.53811109 0.84280956 0.095052667
0.013737984 0.4932124 -0.11673471 -0.052262042 -0.44846472 0.8922714 0.10734205
0.021544795 0.49672478 -0.11673471 -0.062906332 -0.66074669 0.74796832 0.083486319
0.037783317 0.49472943 -0.11673472 0.033644408 -0.60785341 0.79333615 0.075139523
0.042913258 0.49171966 -0.11673471 0.015137236 -0.37141141 0.92834502 0.113275
0.059241481 0.49783874 -0.11673471 0.029589457 -0.63881475 0.76879144 0.078132696
0.066685498 0.4928652 -0.11673471 0.016882373 -0.29364264 0.9557662 0.098232411
0.074049465 0.4958137 -0.11673471 -0.023189072 -0.54485393 0.83821028 0.08657337
0.084361911 0.49573049 -0.11673472 -0.076786339 -0.59200627 0.80226707 0.085155196
0.092836015 0.49436983 -0.11673472 -0.013084598 -0.54708183 0.83697695 0.077411816
0.10721602 0.498577 -0.11673471 0.04511486 -0.58109081 0.81258726 0.078088135
0.11698363 0.49600804 -0.11673471 -0.055156998 -0.52115232 0.85167956 0.06903287
0.12493923 0.49412474 -0.11673471 -0.053073764 -0.43875635 0.89703733 0.078606404
0.13477419 0.49673817 -0.11673473 -0.40096062 -0.41571617 0.81633979 0.12289872
0.1403473 0.49445757 -0.11329845 -0.59918088 -0.37208563 0.7088967 0.11976521
-0.13551933 0.5 -0.11204752 0.42596507 -0.78289157 0.45346957 0.10387621
-0.11534255 0.5 -0.11270809 -0.0021713914 -0.68276972 0.73063046 0.062570073
-0.1049583 0.5 -0.1133884 -0.069944188 -0.76417524 0.64120519 0.091724999
-0.071386836 0.5 -0.1141839 0.051456451 -0.76690936 0.63968915 0.07581497
-0.052045591 0.5 -0.11353475 0.025731413 -0.70196801 0.71174347 0.079296306
-0.034293491 0.5 -0.11047405 0.053979535 -0.83343852 0.54996949 0.080630757
-0.015141664 0.5 -0.11537494 -0.0078227408 -0.71912163 0.69484025 0.072474279
-0.0076901526 0.5 -0.11204346 0.0065011531 -0.84694076 0.53164756 0.084307596
0.0096216854 0.5 -0.1157484 -0.02069876 -0.75023949 0.66084212 0.085356459
0.030700758 0.5 -0.1127809 0.0025362964 -0.74353069 0.668697 0.085055336
0.047551494 0.5 -0.11164102 0.099290766 -0.80240369 0.58846378 0.083862826
0.054717325 0.5 -0.11507187 0.070968799 -0.74639791 0.66170514 0.069883183
0.066243231 0.5 -0.11489223 0.011132089 -0.78435624 0.62021071 0.0914298
0.074271716 0.5 -0.11128996 -0.011608237 -0.844024 0.53617984 0.10009868
0.081198707 0.5 -0.1142839 -0.098685734 -0.65129888 0.75237685 0.082194299
0.10128459 0.5 -0.11016872 -0.05018726 -0.74639058 0.66361302 0.075913772
0.11513631 0.5 -0.11461749 0.032816168 -0.69075149 0.7223472 0.081760727
0.1238484 0.5 -0.11364929 -0.05569144 -0.66812533 0.7419616 0.098553337
0.13286783 0.5 -0.11498213 -0.36419857 -0.55465502 0.74814254 0.11614823
0.14000145 0.5 -0.11294313 -0.56581539 -0.62848884 0.53371787 0.11810806
-0.13332179 -0.49219561 -0.10653169 0.31969464 0.71232784 0.62480754 0.074144147
-0.12888214 -0.49236277 -0.10541639 0.2702055 0.74005467 0.61587983 0.078809239
-0.11409417 -0.49196649 -0.10802606 -0.035328116 0.63668704 0.77031267 0.075859398
-0.10502572 -0.49255913 -0.10412312 -0.05702924 0.74204379 0.66792119 0.05792756
-0.086181298 -0.49167281 -0.10995983 0.028422769 0.68624908 0.72681117 0.076831169
-0.075106367 -0.4922744 -0.10599855 0.027280582 0.73536992 0.67711651 0.07247746
-0.052050501 -0.49211466 -0.10705029 0.0037125123 0.70045418 0.71368784 0.076210678
-0.044741791 -0.49266505 -0.10342565 0.042290669 0.79678285 0.60278398 0.080184482
-0.037333742 -0.49245387 -0.10481618 0.017215835 0.76914549 0.63884175 0.077794462
-0.025027208 -0.49266222 -0.10344423 -0.047433615 0.78953624 0.61186802 0.074244738
-0.015101874 -0.49244478 -0.10487631 -0.089889869 0.76271445 0.64045805 0.082740061
0.012566605 -0.49230355 -0.10580622 0.043332014 0.69123912 0.7213257 0.07050173
0.034133364 -0.49244869 -0.10485078 -0.011756598 0.75867891 0.65135854 0.08154165
0.042827867 -0.49223375 -0.10626593 -0.024160862 0.74109191 0.67096871 0.082337312
0.056507003 -0.49229249 -0.10587899 -0.031310372 0.76271659 0.64597446 0.06700971
0.078383371 -0.49170876 -0.1097237 0.10079752 0.67179728 0.73384488 0.071036078
0.093928501 -0.49218771 -0.10656935 0.030283973 0.60498106 0.79566377 0.069907926
0.10361903 -0.49249434 -0.10454967 0.0011598958 0.64741069 0.76214039 0.074171461
0.11573604 -0.49267644 -0.10335051 -0.10086148 0.78683007 0.60887229 0.033829756
0.14348495 -0.49049103 -0.10093039 -0.5591405 0.596524 0.5757786 0.072166525
-0.14209846 -0.48557192 -0.10469508 0.70848799 0.38820812 0.58935493 0.066556685
0.1413587 -0.48490992 -0.10726518 -0.5268504 0.43895066 0.72784001 0.090106398
-0.14237839 -0.47495353 -0.10372251 0.77274781 0.15685186 0.61502707 0.059311498
0.14281113 -0.47600317 -0.10221904 -0.72637028 0.17768118 0.66393942 0.06363184
-0.14085308 -0.46065298 -0.10902184 0.57695973 -0.056154281 0.8148399 0.055306863
0.14135154 -0.46590739 -0.10729007 -0.6139645 0.0025433372 0.78932953 0.060891114
-0.14195378 -0.45563874 -0.10519771 0.70063823 -0.025490532 0.71306127 0.066766568
0.14106408 -0.45968461 -0.1082888 -0.58490843 -0.035175063 0.81033629 0.069466121
-0.14241333 -0.44153118 -0.10360114 0.62764299 -0.036345836 0.77765238 0.091201738
0.14220236 -0.44619408 -0.10433409 -0.82184905 0.092282645 0.56218153 0.079950511
-0.14240149 -0.4340761 -0.10364224 0.69858342 0.06477116 0.71259093 0.11953155
0.14149293 -0.43799007 -0.10679883 -0.62324905 0.20152402 0.75561148 0.14464861
-0.14320078 -0.4236958 -0.10505149 0.53589237 0.48074469 0.69404894 0.20905986
-0.1374044 -0.42010868 -0.10221194 0.59656054 0.48003659 0.64317995 0.23491825
0.11821619 -0.42190853 -0.10598061 -0.38220382 -0.30543253 0.87214178 0.2407161
0.12269227 -0.42196769 -0.10572157 -0.41538638 -0.04390166 0.90858507 0.27225831
0.13638946 -0.42247736 -0.10264388 -0.4748292 -0.041717611 0.87908864 0.25181007
0.14397617 -0.42376268 -0.10365251 -0.86059594 0.32247028 0.39419234 0.24714619
0.15375167 -0.42235959 -0.10400441 -0.94477701 0.28058043 0.16932534 0.14313115
-0.15338507 -0.4193036 -0.10370746 0.86252314 0.43986085 0.25015265 0.16623217
-0.14303103 -0.41749531 -0.10513324 0.62251896 0.61700439 0.48143101 0.22151689
-0.13304344 -0.41910964 -0.10661848 0.31369457 0.38305703 0.86882854 0.24003358
-0.12163851 -0.41924596 -0.10602116 0.39126781 -0.058434382 0.91841984 0.19947851
-0.11587265 -0.41567576 -0.1041892 -0.16445066 0.28880486 -0.94315839 0.26475295
0.14160213 -0.41572046 -0.1064195 -0.40809718 0.7608071 0.50460804 0.23908176
0.15837264 -0.41462478 -0.10392419 -0.94097155 0.28872305 0.17666797 0.14925496
-0.15837266 -0.40646243 -0.10654872 0.89698255 0.43132144 0.096871443 0.14212158
-0.1412555 -0.4021886 -0.10762376 0.41987997 -0.065071635 0.90524387 0.24243039
-0.11587265 -0.40188998 -0.10748355 0.64899564 -0.28262055 0.70634997 0.21680863
0.11587264 -0.40287578 -0.10447764 0.89613479 0.40160593 -0.18882591 0.25465119
0.141684 -0.40264902 -0.10613503 -0.30991641 0.098903067 0.94560564 0.23883247
-0.15837266 -0.3994512 -0.10690165 0.9722445 0.23352218 -0.014418213 0.15250511
-0.14220218 -0.39775091 -0.10433468 0.34800363 -0.017953571 0.93732125 0.23708276
-0.11587265 -0.39304328 -0.10446647 0.173178 -0.17608477 0.96902192 0.21150015
0.14122875 -0.39951932 -0.10771668 -0.27041039 -0.023888512 0.96244878 0.20446421
-0.14232261 -0.3835113 -0.10391629 0.27124244 -0.16153567 0.94885921 0.24165846
-0.11587265 -0.38007525 -0.10735278 0.084449284 0.058847323 0.99468851 0.23315829
0.11587264 -0.38327622 -0.10552452 -0.061631545 0.283564 0.95697075 0.25457248
0.14199267 -0.38593349 -0.10506258 -0.24730223 0.17701513 0.95263183 0.20619179
0.15837266 -0.38607487 -0.10691353 -0.9987883 0.049176913 -0.0019186534 0.16122101
-0.15837264 -0.37649646 -0.10274172 0.99979395 -0.020088045 0.0029157065 0.13056016
-0.14089261 -0.37625015 -0.10888454 0.15115798 0.13280192 0.97954839 0.16212836
-0.11587265 -0.37776983 -0.10543623 0.029249372 0.049894769 0.99832606 0.2075161
0.14143537 -0.37614933 -0.1069988 -0.11070602 0.0069529102 0.99382895 0.16848116
0.15837266 -0.37941226 -0.1054297 -0.995489 0.089349933 0.031910673 0.16661717
-0.15837266 -0.36779118 -0.10138766 0.99814016 -0.058218997 -0.018078405 0.13018967
-0.1414572 -0.36339012 -0.10692299 0.2144396 0.10003312 0.97160125 0.20169678
-0.11587265 -0.36667684 -0.10772742 0.031187389 0.0085707707 0.99947673 0.20234939
0.11587264 -0.36232984 -0.10498895 -0.18317065 -0.037314951 0.9823727 0.21104047
0.14174166 -0.36298931 -0.1059347 -0.30949873 -0.035045829 0.95025384 0.18610625
0.15837266 -0.36858511 -0.10428037 -0.99919844 0.03051446 0.02590986 0.15658465
-0.15837266 -0.35885456 -0.10252018 0.99490041 0.081287943 0.059712544 0.15464519
-0.14161056 -0.35587668 -0.10639018 0.21530685 0.034895569 0.97592276 0.20385972
-0.11587264 -0.35461804 -0.10315792 0.046874281 -0.10672743 0.99318284 0.2622456
0.11587264 -0.35280478 -0.1029711 -0.22195944 -0.22766955 0.94810373 0.25476962
0.14231268 -0.35499722 -0.10395082 -0.33995289 -0.0016281538 0.94044107 0.20197958
0.15837266 -0.35728815 -0.10191697 -0.99620956 -0.079109088 0.036170151 0.15814014
-0.15837266 -0.34916115 -0.10117964 0.98090917 -0.15993282 0.1106286 0.13718306
-0.14060326 -0.34384966 -0.1098898 0.062802263 -0.038160291 0.99729621 0.19459446
0.11587264 -0.34519881 -0.1046134 -0.14466217 -0.10033657 0.98438072 0.22576173
0.14266387 -0.34346971 -0.10273073 -0.32308614 -0.16163725 0.93246382 0.19648294
0.15837266 -0.34806317 -0.10826039 -0.99128824 -0.017311502 -0.130567 0.16828817
-0.15837266 -0.33627927 -0.10514362 0.99029982 -0.012747336 -0.13836113 0.15300971
-0.14082944 -0.33509541 -0.10910395 0.1315235 0.0051388498 0.99129975 0.1586863
-0.11587265 -0.33782625 -0.10119666 0.99575382 -0.084771775 -0.035889544 0.26453564
0.11587264 -0.3350032 -0.10375956 -0.42236367 0.014129869 0.90631628 0.23490745
0.14311896 -0.33402041 -0.10114958 -0.48009411 0.16637982 0.86129397 0.25757933
-0.14185387 -0.3232713 -0.1055448 0.22000514 -0.14881343 0.96408111 0.25338921
-0.11587265 -0.32337308 -0.10206143 -0.021229679 0.14405683 0.98934162 0.28877234
0.11587264 -0.32573903 -0.10104508 -0.22928986 0.19465835 0.95369506 0.25147572
0.14221096 -0.3234666 -0.10430425 0.075740337 0.23948966 0.96794015 0.2013391
0.15837266 -0.32691017 -0.10263427 -0.99918211 -0.029943626 -0.02717662 0.14067581
-0.15837266 -0.31627575 -0.10849219 0.99023032 -0.084522687 -0.11090487 0.12542433
-0.14274544 -0.31638396 -0.10244729 0.38698548 -0.20018385 0.90009362 0.2384993
0.11587264 -0.31638893 -0.10528225 -0.88457924 0.28810742 0.36676115 0.26656651
0.14259242 -0.31574193 -0.10297895 -0.010147818 0.78815997 0.61538684 0.28744563
0.15837266 -0.31240135 -0.10553213 -0.95280641 -0.27834937 -0.12116754 0.16205651
-0.15837266 -0.30629033 -0.10569156 0.95104259 -0.30529439 -0.048097134 0.1412273
-0.14059237 -0.3016389 -0.10992762 -0.40311632 0.90830231 -0.11173259 0.2558955
-0.11587265 -0.30533746 -0.10034493 0.78786743 0.53618139 0.30294308 0.25094008
0.11587264 -0.3088094 -0.10255709 -0.92924601 0.19731034 0.31236276 0.2846033
0.14276546 -0.30708823 -0.10237777 0.29982713 0.95046717 -0.081950665 0.23385035
0.15837267 -0.3084203 -0.10708348 -0.92531586 -0.37633553 -0.046498451 0.15666993
-0.15632935 -0.29492718 -0.10456412 -0.88003039 0.47429487 0.024306737 0.12684612
-0.14354186 -0.29516998 -0.10379151 -0.52317178 0.75537896 -0.39458063 0.24498019
-0.13388303 -0.29296747 -0.10324147 0.37365919 0.19428702 0.90699029 0.20447443
-0.12444472 -0.29324049 -0.10497998 0.24824151 0.37513793 0.89311123 0.23483597
-0.11746004 -0.29459721 -0.10475469 0.26850238 0.27253181 0.92392248 0.21272022
0.12693898 -0.29623851 -0.10649029 -0.18791586 0.98180747 0.027233928 0.24372634
0.13622849 -0.29613638 -0.10604295 0.033913173 0.65687251 -0.75323874 0.25914881
0.14261396 -0.29494426 -0.10296828 0.47236475 0.73038244 -0.49336913 0.22389176
0.15503396 -0.29549819 -0.10324685 0.71937561 0.625678 -0.30170476 0.13524657
-0.1420949 -0.28541312 -0.10470748 -0.54723704 0.51767898 -0.65767783 0.24171239
0.14221017 -0.28416491 -0.10430696 -0.70447171 -0.32468015 0.6311121 0.21269473
-0.14221793 -0.27030101 -0.10427998 0.65512466 -0.16362894 0.73758882 0.091991834
-0.14284518 -0.26239872 -0.10210077 0.77575886 -0.19390228 0.60049993 0.12289108
0.14113134 -0.26472703 -0.10805511 -0.70928639 -0.042931166 0.70361191 0.11388336
-0.14282791 -0.25222984 -0.10123068 0.7893855 0.027011547 0.61330324 0.11814184
-0.12759832 -0.25004488 -0.10149974 0.25715902 0.15243064 0.95427155 0.15108581
-0.076525137 -0.25031012 -0.1006681 0.011078653 0.24811293 0.96866775 0.17126465
-0.060891788 -0.2501491 -0.10117305 0.19112869 0.44473356 0.87503248 0.20386545
-0.054991104 -0.25031933 -0.10063926 -0.092608146 0.22267994 0.97048306 0.19963486
0.037867356 -0.25076386 -0.10118595 -0.11868589 -0.021093452 0.99270779 0.27625605
0.057316586 -0.25038013 -0.10238919 0.038722277 0.49008849 0.87081212 0.19620305
0.072095424 -0.25069615 -0.1013983 0.17746513 0.58914596 0.78829765 0.2170742
0.082774669 -0.25041756 -0.10227182 -0.023046881 0.36842766 0.9293707 0.20828372
0.092198893 -0.25111753 -0.10007706 -0.050264966 0.80977428 0.58458453 0.22119036
0.10696593 -0.25063488 -0.10159039 -0.087837622 0.51671958 0.85163683 0.22971228
0.11112367 -0.25074831 -0.10123472 0.069374785 0.52058774 0.85098499 0.19066249
-0.14227293 -0.24690147 -0.1031482 0.69036263 0.14048035 0.70969337 0.12727612
-0.12567544 -0.24896407 -0.10488867 0.25717103 0.15258321 0.9542439 0.15108863
-0.11295383 -0.24952565 -0.10312784 0.072493382 0.34963515 0.93407708 0.16975063
-0.10514152 -0.2491506 -0.10430378 -0.0020997711 0.20587391 0.97857624 0.17311437
-0.098130889 -0.24870017 -0.10571609 0.037056051 0.25607559 0.96594626 0.14387041
-0.084542468 -0.24878418 -0.10545264 -0.021867976 0.22181873 0.97484267 0.13302363
-0.068442188 -0.24972698 -0.10249655 -0.047333248 0.31308296 0.94854558 0.18154891
-0.054668639 -0.24883208 -0.10530252 -0.048236392 0.066615827 0.99661201 0.10845973
-0.044121593 -0.24931544 -0.10378693 -0.24745233 0.067332372 0.96655768 0.17149116
-0.024983861 -0.24298464 -0.10559899 0.13769917 -0.042301845 0.98957038 0.18484345
0.029864615 -0.24253343 -0.10676608 -0.05952749 0.069672607 0.99579227 0.16454732
0.035336193 -0.24918708 -0.10612991 -0.072110735 -0.030665411 0.99692518 0.18473954
0.043052096 -0.2489953 -0.10673127 0.097296715 -0.024226261 0.99496049 0.16580945
0.05437322 -0.24919255 -0.10611279 0.033818904 0.14610723 0.98869056 0.12420052
0.08378423 -0.24940483 -0.10544717 -0.014170939 0.14049643 0.98997974 0.1565401
0.12465742 -0.24807405 -0.10961981 -0.14678089 0.19089966 0.97057343 0.11554929
0.13701324 -0.24965954 -0.10464858 -0.60453987 0.29698691 0.73914152 0.16608429
0.14207387 -0.24526477 -0.10478052 -0.71955574 0.12561509 0.68297905 0.10332182
-0.14292248 -0.23400696 -0.10183227 0.79274029 0.10355008 0.60069984 0.052020483
-0.024983861 -0.23493838 -0.10287803 0.67441183 -0.20819317 0.70839566 0.24205735
0.029864613 -0.23918201 -0.1011637 -0.51320481 -0.2825973 0.81040698 0.27491105
0.1426487 -0.23660982 -0.1027834 -0.77599144 0.12153748 0.61892319 0.077480882
-0.14274015 -0.22379783 -0.1024657 0.81263286 0.036015354 0.58166206 0.036943361
-0.024983861 -0.22611007 -0.10646287 0.076851778 0.049631201 0.99580652 0.19130583
0.029864613 -0.22626165 -0.10559139 0.27148771 0.16064107 0.94894093 0.20289411
0.14153856 -0.22684652 -0.10664032 -0.69438726 0.072266929 0.71596354 0.058964144
-0.14185032 -0.21689478 -0.10555719 0.71124703 0.072996691 0.69914174 0.052273143
-0.024983861 -0.21947469 -0.10887878 -0.13289455 -0.060739245 0.98926729 0.15959588
0.029864615 -0.21631379 -0.10920897 0.13739908 0.0042455751 0.99050665 0.13339376
0.14186963 -0.21543808 -0.10549007 -0.77662444 0.01252539 0.62983948 0.061952323
-0.14210273 -0.20600046 -0.10468023 0.77232492 -0.029992614 0.63451922 0.046264648
-0.024983861 -0.2020323 -0.10104787 -0.61852562 0.15960738 0.76938385 0.16433531
0.029864615 -0.20497876 -0.10693642 0.23746479 0.014581094 0.97128671 0.1262257
0.14225489 -0.20685332 -0.10415161 -0.77986103 -0.018146776 0.62568963 0.059130605
-0.14195064 -0.19419184 -0.10520868 0.78533196 -0.028911404 0.61839938 0.052846506
-0.024002416 -0.19615516 -0.10431308 -0.38923502 0.17127781 0.9050746 0.1548937
-0.013414879 -0.19751485 -0.10514531 -0.30343059 0.13588807 0.9431141 0.1861144
0.0079914294 -0.19774061 -0.10443746 -0.06243423 0.49201414 -0.86834568 0.2210962
0.019302856 -0.19690505 -0.10705736 0.2837283 -0.054223143 0.95737034 0.17596616
0.02803616 -0.19593953 -0.10639194 0.37485126 0.047214657 0.92588186 0.14206019
0.14170964 -0.19550793 -0.10604594 -0.76310641 -0.01071329 0.64618397 0.068814486
-0.14229283 -0.18494013 -0.1040198 0.78717649 -0.0076089934 0.61668092 0.054988887
-0.024983861 -0.18578406 -0.10143144 -0.44105142 0.19002995 0.87713295 0.11156191
0.029864615 -0.18633708 -0.10933562 0.20107688 0.019780677 0.97937572 0.080390617
0.14281619 -0.18509845 -0.10220149 -0.83357316 -0.043220833 0.55071574 0.064262316
-0.14231898 -0.17363946 -0.103929 0.74012005 -0.0096053425 0.67240614 0.070635512
-0.024983861 -0.17363897 -0.10515066 0.004600835 -0.049993251 0.99873894 0.087959617
0.029864615 -0.17601217 -0.10022768 0.056476183 -0.060160108 0.99658978 0.17913167
0.14171347 -0.17686659 -0.10603262 -0.71993411 -0.12444124 0.68279517 0.094247676
-0.1418391 -0.16244683 -0.10559616 0.67163897 -0.11926347 0.73121631 0.11894732
-0.023557466 -0.16431883 -0.10784131 0.021298597 0.01696606 0.99962914 0.10465343
-0.016611433 -0.16493678 -0.10562023 -0.004287709 0.11139125 0.99376738 0.083577558
-0.005136793 -0.16447173 -0.10622308 -0.0016495422 0.30509073 0.95232183 0.12071938
0.0022460399 -0.16668971 -0.10334785 -0.040424343 0.42207491 0.9056592 0.10334308
0.014203307 -0.16280703 -0.10838109 -0.065341741 0.12019297 0.99059784 0.063319497
0.027168125 -0.16738452 -0.10523879 -0.071423672 0.021060813 0.99722368 0.13834667
0.14225173 -0.16310945 -0.10416257 -0.80581182 0.0061921929 0.59213918 0.12292688
-0.14295462 -0.15375105 -0.10172065 0.86433023 -0.07801462 0.49683702 0.15386832
-0.12381712 -0.15184973 -0.10379858 0.26731676 0.061151125 0.96166641 0.21077594
0.03679058 -0.15423286 -0.10001332 -0.505045 -0.3189373 0.80200279 0.27255413
0.13802163 -0.15139334 -0.10365 -0.79055434 0.091287337 0.60554975 0.12662937
0.14302248 -0.15375906 -0.10148478 -0.84359515 0.052918691 0.53436577 0.10702683
-0.14216015 -0.14651562 -0.10448075 0.81556243 -0.095136255 0.57079524 0.11878043
-0.025130099 -0.14386708 -0.10435352 0.22279269 -0.016463496 0.97472686 0.16316786
0.03271674 -0.14534877 -0.10377499 -0.37913451 0.068671696 0.92278999 0.21956332
0.13941868 -0.14207016 -0.10187178 -0.83844936 0.11177706 0.5333935 0.085975319
0.1423903 -0.14485466 -0.10368118 -0.78266817 0.091570199 0.61566663 0.080449462
-0.14142193 -0.13055131 -0.10704555 0.75416553 0.0036246125 0.65667439 0.1140368
-0.024986977 -0.1382592 -0.10964008 0.015612564 -0.077309266 0.99688488 0.11048871
0.03271674 -0.13231066 -0.10275198 0.97116786 0.132975 0.19786519 0.23501582
0.13941866 -0.13539654 -0.10474735 -0.8625043 0.035324048 0.50481528 0.08124017
0.1412655 -0.1342406 -0.10758896 -0.76573962 0.034091394 0.64224654 0.073840626
-0.14174382 -0.12690781 -0.10592718 0.7735405 -0.059276074 0.63096869 0.11056438
-0.13168889 -0.12272428 -0.10312282 0.70298213 -0.020696407 0.71090633 0.12692647
-0.024986975 -0.12458631 -0.10335279 -0.066721149 -0.038347445 0.99703443 0.22493629
0.13941866 -0.12453897 -0.1063168 -0.73698878 -0.016737597 0.67569762 0.064165071
0.14219302 -0.12480132 -0.10436656 -0.83577561 -0.016196886 0.54883218 0.066621155
-0.14221527 -0.11456632 -0.10428926 0.82066673 0.083706588 0.56524271 0.097944468
-0.13168889 -0.11648251 -0.10479351 0.67565894 0.14799435 0.72220683 0.121339
-0.024986977 -0.11372792 -0.10389873 -0.20081434 -0.021998923 0.97938222 0.18818204
0.03271674 -0.11422014 -0.10587112 -0.076774955 -0.0061723753 0.99702936 0.15914048
0.13941866 -0.11528556 -0.10568029 -0.77349937 7.3083254e-05 0.63379705 0.078250483
0.1419846 -0.11568188 -0.10509063 -0.83228505 -0.017702056 0.55406523 0.062944867
-0.14216016 -0.10161538 -0.10448071 0.84284532 0.025123255 0.53756911 0.078674525
-0.13168889 -0.10727173 -0.10541403 0.55956107 -0.031951789 0.82817292 0.13941239
-0.024986975 -0.10444203 -0.10577855 -0.10570348 -0.05821991 0.99269187 0.21011877
0.03271674 -0.10445736 -0.10637055 -0.030479854 0.059824996 0.99774349 0.16069248
0.13941866 -0.10127716 -0.10233429 -0.82725126 0.010455634 0.56173486 0.079183966
0.14251992 -0.10554545 -0.10323078 -0.83806503 -0.032413825 0.54460657 0.068570882
-0.14195131 -0.095492601 -0.10520636 0.79608482 0.044362232 0.60355681 0.086102925
-0.13168889 -0.09507589 -0.10432304 0.64720446 0.012395094 0.76221567 0.13639989
-0.024986975 -0.095755637 -0.10409488 -0.091124319 -0.060420711 0.99400491 0.2350354
0.03271674 -0.098369926 -0.10463041 0.0083610201 0.03743596 0.99926412 0.14501402
0.13941866 -0.095109493 -0.10843752 -0.74473906 -0.017925635 0.66711497 0.081870623
0.14157704 -0.094920456 -0.1065066 -0.78216052 -0.034278497 0.62213331 0.074059568
-0.14097556 -0.088173427 -0.10859634 0.68699187 -0.062291898 0.72399026 0.091784112
0.03271674 -0.080678225 -0.10192108 -0.091110922 -0.0057397475 0.99582428 0.21515948
0.13941866 -0.088207364 -0.10989779 -0.75903219 -0.044678386 0.64951819 0.072019823
0.14144348 -0.085101098 -0.10697065 -0.776142 -0.033146214 0.62968642 0.084379025
-0.14240487 -0.076975569 -0.10363056 0.85696667 -0.05756269 0.51214719 0.10739964
-0.13168889 -0.074952386 -0.10321734 0.66640198 -0.13116093 0.7339654 0.14405026
-0.024986975 -0.074346825 -0.1042824 0.77480912 0.13125858 0.61841893 0.23167865
0.03271674 -0.077151977 -0.10256054 -0.072397433 -0.13283055 0.98849106 0.22137867
0.13941866 -0.073227935 -0.10283951 -0.79565346 -0.1135608 0.59501219 0.10705733
0.14164302 -0.074936174 -0.10627737 -0.78734404 -0.10844607 0.60690093 0.065944962
-0.14257918 -0.062315684 -0.10302497 0.79231435 -0.0044656103 0.61009663 0.11251266
-0.024986979 -0.063061208 -0.10626471 0.22056314 0.17148051 0.96018034 0.22205195
0.03271674 -0.064144365 -0.10713803 -0.21337435 -0.052437022 0.97556227 0.18189618
