# .PCD v0.7 - Point Cloud Data file format
VERSION 0.7
FIELDS x y z normal_x normal_y normal_z curvature
SIZE 4 4 4 4 4 4 4
TYPE F F F F F F F
COUNT 1 1 1 1 1 1 1
WIDTH 568
HEIGHT 1
VIEWPOINT 0 0 0 1 0 0 0
POINTS 568
DATA ascii
0.18939801 0.14386314 0.10220731 -0.018055053 -0.78228658 -0.62265706 0.0097210463
0.19963494 0.14027557 0.10478579 -0.10093214 -0.6485588 -0.75444293 0.011455166
0.20462108 0.14384645 0.10064916 -0.083046496 -0.74175358 -0.66551107 0.0056886179
0.21592826 0.14248416 0.1007989 -0.16235644 -0.69724369 -0.69820595 0.015766453
0.074781172 -0.14042301 0.11343712 0.03411895 0.80080807 -0.59794843 0.01986648
0.096061207 -0.14092936 0.11196573 0.008534993 0.86569524 -0.50049865 0.016886014
0.10526671 -0.1403188 0.1120989 0.0036307152 0.82285923 -0.56823373 0.020188684
0.11274848 -0.14079906 0.11147984 -0.035051186 0.83603001 -0.54756308 0.013743525
-0.072404101 -0.13030353 0.11075474 0.40277177 0.52609354 -0.74899966 0.023767374
-0.061035261 -0.1343009 0.11414474 0.21512584 0.67195493 -0.70865887 0.025994064
-0.054651976 -0.1331484 0.11514413 0.15816699 0.64726812 -0.74567235 0.02566153
-0.044633448 -0.13393988 0.11483749 0.054315578 0.72143644 -0.69034719 0.018900488
-0.035481371 -0.13400412 0.1148512 0.030798487 0.73934537 -0.67262173 0.023023712
-0.024355581 -0.13497806 0.11406779 0.034417428 0.76635784 -0.64149129 0.027183693
-0.015671564 -0.13463932 0.1159254 0.027919268 0.77729434 -0.62851727 0.020872245
-0.0046184729 -0.13471407 0.11500217 0.021422653 0.82211852 -0.56891316 0.017299892
0.0059657921 -0.13508549 0.11567684 0.028821932 0.80314648 -0.59508395 0.019650655
0.015563612 -0.13479258 0.11546797 0.043865893 0.80906677 -0.58607739 0.016363218
0.02697538 -0.13530974 0.11584226 0.0020390099 0.79111356 -0.61166596 0.018267134
0.035875201 -0.13616399 0.11417687 -0.029788952 0.81414706 -0.57989407 0.016253132
0.044424329 -0.13600932 0.11567317 -0.018350691 0.78007817 -0.62541294 0.01909476
0.055119008 -0.13605642 0.11302614 0.009175038 0.80693197 -0.59057307 0.021535574
0.066035174 -0.13604333 0.11535132 0.026183764 0.77875066 -0.62678689 0.018323295
0.075066417 -0.13451126 0.11540134 -0.0053382604 0.72575963 -0.68792766 0.030518064
0.086807333 -0.13580932 0.1148067 0.0099440245 0.72337705 -0.69038159 0.028156962
0.093503952 -0.13510349 0.11515404 0.01584113 0.72450709 -0.68908542 0.02913909
0.10549386 -0.13461961 0.11587738 0.016542366 0.68636703 -0.72706717 0.023125799
0.11387813 -0.13608077 0.11433444 -0.035633646 0.74362844 -0.66764277 0.025018185
0.12565596 -0.13139983 0.11775808 -0.022730092 0.58453119 -0.81105286 0.02439709
0.13350514 -0.13389999 0.11560916 -0.073700517 0.66338181 -0.74464279 0.016694196
0.14409818 -0.13274574 0.11565281 -0.05319494 0.62541384 -0.77847797 0.016707746
0.15604752 -0.13250844 0.11518659 -0.042493012 0.58678001 -0.8086307 0.01339289
0.16347249 -0.13261887 0.11456893 -0.084561817 0.58449495 -0.80697894 0.010839872
0.17597315 -0.13486849 0.11185582 -0.060784616 0.60944617 -0.79049397 0.013059474
0.1858792 -0.13239792 0.11237166 -0.086169936 0.541215 -0.83645743 0.011016655
0.19499537 -0.13185543 0.11141025 -0.12078852 0.47120252 -0.87371534 0.013796709
0.20363849 -0.13167658 0.11036906 -0.1550539 0.46581268 -0.87119275 0.014024701
-0.072571717 -0.12498143 0.11248978 0.42140293 0.45961508 -0.78177589 0.018817103
-0.066704817 -0.12699284 0.11617361 0.31557822 0.51063526 -0.79978871 0.026530232
-0.054617614 -0.12758489 0.11949277 0.17690933 0.56141078 -0.80840653 0.030942213
-0.047333248 -0.12850365 0.11958104 0.097697973 0.55413091 -0.82667655 0.02770723
-0.021418126 -0.12973939 0.11994852 0.033604257 0.64157033 -0.7663278 0.028105203
0.11563097 -0.12880331 0.11968821 -0.022120139 0.52602154 -0.85018349 0.018020321
0.126101 -0.12770781 0.11998704 -0.017789725 0.52315068 -0.85205454 0.017670063
0.13460718 -0.12845406 0.11919077 -0.034747344 0.53895402 -0.84161824 0.016293585
0.14687304 -0.12659524 0.11943203 -0.069313906 0.51468366 -0.85457373 0.016320579
0.1592768 -0.12414207 0.11927372 -0.078802839 0.4428083 -0.89314663 0.0097609544
0.17171365 -0.12530865 0.1176452 -0.10929992 0.44176888 -0.89044589 0.011994261
0.18171206 -0.12561287 0.11631466 -0.13943239 0.33776572 -0.93084526 0.0056057973
0.19527023 -0.12215872 0.11530114 -0.14203256 0.30181709 -0.94272643 0.0070848423
0.20724699 -0.12964498 0.11071968 -0.19518794 0.39563954 -0.8974247 0.016582178
0.2181396 -0.12432665 0.11111454 -0.29861918 0.26866689 -0.91577542 0.018752651
-0.07417912 -0.11582305 0.11544363 0.45731613 0.3238048 -0.82825869 0.0084780119
0.17170373 -0.11776038 0.11987346 -0.11813087 0.2620275 -0.95780307 0.0041460055
0.18629654 -0.11514706 0.11825209 -0.14723606 0.22721113 -0.96265084 0.0034548834
0.19529316 -0.11272107 0.11715813 -0.16509746 0.19442864 -0.96692306 0.0034303458
0.2050615 -0.11418267 0.11538186 -0.23085795 0.18170573 -0.95587003 0.0057258052
0.21496858 -0.11404709 0.1136509 -0.34274676 0.11489109 -0.93237585 0.010929582
0.22267184 -0.11688837 0.11023712 -0.40036184 0.11030845 -0.90969372 0.011744979
-0.082851931 -0.10398979 0.11201428 0.55925822 0.20860785 -0.80231726 0.0017118286
0.18600401 -0.10727817 0.11931559 -0.16112868 0.15632714 -0.97447389 0.0016475747
0.19391212 -0.10325497 0.11834293 -0.19069903 0.11322293 -0.97509718 0.0020096183
0.20508584 -0.1077333 0.11596979 -0.27280247 0.12148153 -0.95436949 0.0071305255
0.21073802 -0.10366466 0.11539313 -0.33666426 0.082596272 -0.9379952 0.0087795733
-0.083927982 -0.094810218 0.11371254 0.5586679 0.15775579 -0.81425017 0.0016184218
-0.076283157 -0.093888327 0.11993212 0.47629243 0.14850758 -0.86665499 0.0063285269
0.19513232 -0.097814977 0.1187757 -0.19612041 0.083068624 -0.97705489 0.0010861638
0.20651647 -0.095228836 0.11691288 -0.30947161 0.061888199 -0.94889259 0.0078287553
0.21570547 -0.09508732 0.11400545 -0.43968982 0.020449162 -0.89791685 0.0067939116
0.22075625 -0.096886784 0.11050036 -0.47001854 -0.00229184 -0.88265359 0.0061572441
-0.085134856 -0.08314506 0.11439218 0.55747986 0.11183508 -0.82262337 0.0022884428
0.19560057 -0.086061269 0.1195248 -0.2151456 0.057093155 -0.97491169 0.0011084928
0.20459193 -0.085407637 0.11783818 -0.31203344 0.049228977 -0.94879484 0.0062244716
0.21458916 -0.083769344 0.11544339 -0.44603851 0.028640041 -0.89455539 0.0070581241
-0.091412038 -0.076900162 0.11040434 0.59171581 0.10680766 -0.79903972 0.00054244482
-0.085075244 -0.074070208 0.11579227 0.55619383 0.10334428 -0.82460195 0.0025354698
0.19745302 -0.075887799 0.11953868 -0.23547614 0.042732976 -0.97094017 0.0030333223
0.20681079 -0.073657677 0.11783914 -0.34310466 0.023851236 -0.93899435 0.0076320427
0.212523 -0.076595068 0.11664657 -0.40403217 0.013743359 -0.91464144 0.0087118838
-0.092646047 -0.062128842 0.11070846 0.59532762 0.080186926 -0.79947174 0.00067255693
0.2061044 -0.068264619 0.11816763 -0.32385406 0.016344078 -0.94596589 0.0068414775
0.21634881 -0.065530151 0.1137931 -0.4814164 0.0060680523 -0.87647104 0.0062278891
-0.085976742 -0.054317202 0.11695365 0.53772283 0.057630859 -0.84114975 0.0046578636
0.20646739 -0.054415077 0.11857037 -0.3631275 0.01869682 -0.93155187 0.0071177385
0.21611521 -0.056854818 0.11420271 -0.48883051 0.0052300673 -0.87236309 0.0061381292
-0.092508443 -0.042420968 0.1124398 0.58969527 0.035586983 -0.80684137 0.0016931518
-0.086285196 -0.047610078 0.11743023 0.53309596 0.042453703 -0.84498894 0.0051441425
0.20602804 -0.047309514 0.11876289 -0.35427314 0.0099063599 -0.93508953 0.0066459826
0.21493003 -0.043178178 0.11471699 -0.48485291 0.020750839 -0.87434947 0.0059318831
-0.094047055 -0.032990016 0.11173546 0.58392835 0.027073575 -0.81135362 0.0013371257
-0.087351121 -0.038814347 0.11777232 0.52291024 0.033091486 -0.85174519 0.0052299662
0.21401195 -0.031833455 0.11577155 -0.47568303 0.0015100683 -0.87961549 0.0067771524
-0.087616667 -0.026720207 0.11728807 0.52921045 0.012482788 -0.84839875 0.0047406727
0.20567806 -0.025049411 0.11903679 -0.38822684 0.017000055 -0.9214071 0.008314142
0.2155406 -0.023923781 0.11470628 -0.48706016 0.020706652 -0.87312299 0.0059272172
-0.094584778 -0.014662235 0.11168196 0.58542752 0.008225631 -0.81068301 0.0011577363
-0.087800741 -0.014701139 0.11647652 0.53259456 0.0099976296 -0.84631151 0.0040273163
0.20318212 -0.013411256 0.11962767 -0.3349849 0.0016547444 -0.942222 0.0085634487
0.21295694 -0.014184043 0.11691575 -0.45642087 0.016837077 -0.88960469 0.0079648672
-0.093233131 -0.0036620616 0.11286762 0.58025706 0.001349487 -0.81443232 0.0010988644
-0.088449202 -0.0031121757 0.11659633 0.51906562 0.0018999511 -0.85473222 0.0046606325
0.20434095 -0.0043517575 0.11947269 -0.33912095 0.011411468 -0.94067359 0.0080921538
0.21568751 -0.0042494065 0.1148394 -0.51758331 -0.0036713902 -0.85562497 0.0046902881
-0.093240909 0.0054123444 0.11282016 0.58170426 -0.003289941 -0.81339371 0.0010637973
-0.088046588 0.0069390149 0.11781333 0.52761906 -0.010159149 -0.84942031 0.0039418535
0.20593587 0.0025379057 0.11917378 -0.36836553 -0.0018002817 -0.92967927 0.0096759228
0.21540496 0.004408611 0.11531811 -0.51620704 0.0094003724 -0.85641223 0.0049226009
-0.091352455 0.013816538 0.11398083 0.55675077 -0.00856419 -0.83063543 0.0028584462
-0.087068409 0.013857933 0.11888425 0.53214127 -0.0086457506 -0.84661144 0.0040475796
0.20493311 0.016657736 0.11923537 -0.32693303 0.025005085 -0.94471663 0.0086559784
0.2146024 0.017242923 0.11537395 -0.4992159 0.00072529755 -0.86647731 0.0061140079
-0.091989115 0.025393749 0.11332532 0.57051897 -0.025942145 -0.82087463 0.0019301828
-0.087786235 0.026560904 0.1173353 0.53294539 -0.026119085 -0.84574646 0.0037186828
0.20596872 0.023363316 0.11897427 -0.36877465 -0.010741537 -0.92945677 0.0088276425
0.21217602 0.024483122 0.11777179 -0.46146464 -0.020363839 -0.88692486 0.0076916483
-0.092639625 0.031404577 0.11275876 0.5735746 -0.027685516 -0.81868535 0.0019890775
-0.087565497 0.032045566 0.11740197 0.52924109 -0.026463836 -0.84805864 0.0041410294
0.20562668 0.034162443 0.11893978 -0.31817016 -0.031590268 -0.94750714 0.0073206341
0.21535657 0.033005513 0.11453969 -0.49046746 -0.015625628 -0.87131935 0.0059548961
-0.09296374 0.046850145 0.11174347 0.59517157 -0.050885886 -0.80198604 0.00093635794
-0.086547807 0.046686687 0.11664033 0.53685105 -0.035865691 -0.8429144 0.0046159811
0.20686173 0.045752048 0.11860127 -0.36763304 -0.035283569 -0.92930138 0.0088575054
0.21409017 0.046004418 0.11550479 -0.4750075 -0.0087048924 -0.87993872 0.0081272284
-0.092583254 0.053810414 0.11142296 0.59298301 -0.05974678 -0.80299532 0.00077978661
-0.086817168 0.053855907 0.11595867 0.54434258 -0.062906116 -0.836501 0.0041801655
0.20365411 0.055111695 0.11910648 -0.32958204 -0.016795995 -0.94397753 0.0068667862
0.21695332 0.055986375 0.11358653 -0.49833244 0.0061238566 -0.86696446 0.0064882822
-0.091984332 0.063446335 0.11107684 0.59573811 -0.077592261 -0.79942203 0.00064995268
-0.085264303 0.060391191 0.11776978 0.53279471 -0.06805791 -0.84350336 0.0049453545
0.20628753 0.064576752 0.11828977 -0.33734488 -3.6462763e-05 -0.94138116 0.0081793871
0.2156933 0.064220041 0.11541224 -0.45846146 0.0074352063 -0.88868314 0.0083138309
-0.092023686 0.071538098 0.11039738 0.59486312 -0.085203327 -0.79929858 0.00050780241
-0.084481381 0.076188631 0.1164023 0.54254854 -0.094532669 -0.83468831 0.0035552108
0.19646613 0.077677339 0.11970919 -0.20166437 -0.043838248 -0.97847313 0.00034015911
0.20332608 0.078244582 0.1183731 -0.30908844 -0.0097293844 -0.95098358 0.0082191071
0.2160071 0.075811177 0.11452264 -0.47269809 -0.0065117353 -0.88120037 0.0066584344
-0.082653202 0.083664417 0.11703876 0.53959 -0.10788287 -0.8349874 0.0037714192
-0.078523405 0.089879438 0.11928764 0.47211292 -0.12776525 -0.87223011 0.0068632555
0.19522397 0.0828242 0.11974407 -0.1944453 -0.052282307 -0.97951907 0.00040321914
0.20661564 0.085191399 0.11748376 -0.32080871 -0.05450451 -0.94557446 0.008389025
0.21644959 0.084092036 0.11493047 -0.46333125 -0.0092044957 -0.88613737 0.00796506
-0.080963999 0.097434722 0.11521221 0.5097174 -0.16616727 -0.84414256 0.0050504436
-0.075722843 0.096161656 0.11995365 0.45983544 -0.14477631 -0.87612283 0.0070424788
0.19570501 0.0927248 0.11923745 -0.20031185 -0.07565102 -0.97680706 0.0010623665
0.20667458 0.093817808 0.11709971 -0.32709271 -0.050400063 -0.94364733 0.0077601862
0.2153701 0.093892761 0.11441146 -0.41192958 -0.069221348 -0.90858269 0.0091116922
-0.083477408 0.10200305 0.11208334 0.54920441 -0.19105698 -0.813555 0.0031265549
-0.076683767 0.10675444 0.1165562 0.47712839 -0.21492504 -0.85214776 0.0059230071
0.18774268 0.10817568 0.11907212 -0.15888804 -0.14619315 -0.97641295 0.0017236714
0.19128804 0.10883857 0.11839877 -0.17029683 -0.14950337 -0.97398543 0.0015764592
0.20639686 0.10021558 0.11662038 -0.2925604 -0.089579865 -0.95204198 0.0051941313
0.21763065 0.1038434 0.11352954 -0.42673692 -0.055149734 -0.90269274 0.0079898145
0.22023544 0.10182285 0.11022408 -0.4791047 -0.027339183 -0.87733191 0.0061605321
-0.080895446 0.11329049 0.11085571 0.53353137 -0.30027992 -0.79068083 0.0019042373
-0.07634598 0.11451304 0.11398413 0.47187358 -0.29859841 -0.82956272 0.0058422778
0.17566416 0.11586805 0.1198983 -0.11662027 -0.2776067 -0.95359015 0.0046658991
0.18213558 0.11804974 0.1185357 -0.12017629 -0.26534665 -0.9566341 0.0051231077
0.19345833 0.11365476 0.11743589 -0.16843453 -0.19028248 -0.96717244 0.0028255065
0.20004342 0.1135402 0.11636508 -0.22035235 -0.19331697 -0.95607185 0.0048315539
0.21337788 0.11534629 0.11389527 -0.33812517 -0.13886791 -0.93079919 0.013337165
-0.074349433 0.12314487 0.11067553 0.47079393 -0.38261694 -0.79495752 0.008401853
-0.064097129 0.12634945 0.11776404 0.30580059 -0.45032573 -0.83886385 0.018541461
-0.052305643 0.12919471 0.11890133 0.1437501 -0.60426146 -0.78371173 0.027460249
-0.036650755 0.12913209 0.11937625 0.008511479 -0.58574861 -0.81044811 0.028318698
-0.025386237 0.12964256 0.11953904 -0.022284899 -0.61424524 -0.78880054 0.033292782
0.11268549 0.12895361 0.11979995 -0.041282941 -0.52611721 -0.8494094 0.019236982
0.12608898 0.12826866 0.11969016 -0.04217612 -0.51669139 -0.85513222 0.021180345
0.13117272 0.12951401 0.11872886 -0.039609764 -0.51617044 -0.85556948 0.018193126
0.14539266 0.12922533 0.11798885 -0.047649514 -0.51742923 -0.85439831 0.016684072
0.15654518 0.12583795 0.11907342 -0.087939985 -0.41676801 -0.90474916 0.0082313521
0.16644633 0.12260845 0.11912031 -0.10883803 -0.36097458 -0.92620283 0.0097972592
0.17457731 0.12471968 0.11746605 -0.12933064 -0.41056234 -0.90261412 0.0079807062
0.18445687 0.12780045 0.11524183 -0.10696121 -0.46202409 -0.88039368 0.011878669
0.20298457 0.12547195 0.113143 -0.1972831 -0.3422865 -0.91865081 0.013767459
0.21299547 0.12696968 0.11122753 -0.24465622 -0.34386748 -0.90658617 0.017806418
-0.064354591 0.13412513 0.11183563 0.26489493 -0.62751299 -0.73215997 0.028430613
-0.05439027 0.13426687 0.11502789 0.12600473 -0.69975001 -0.70318753 0.0263601
-0.046159595 0.13469344 0.11291464 0.064568594 -0.73149711 -0.6787805 0.021601407
-0.034737397 0.13436267 0.11442403 0.023591671 -0.7616955 -0.64750558 0.018939501
-0.025996808 0.13347779 0.11521585 -0.0040449663 -0.79965514 -0.60044593 0.017793583
-0.016313976 0.13418153 0.11516098 -0.0108545 -0.80205822 -0.59714729 0.01263977
-0.0052802647 0.13422891 0.11491529 -0.0082339849 -0.79686129 -0.60410613 0.015881384
0.0052180402 0.13495241 0.11522409 0.020672051 -0.77783459 -0.62812895 0.017962104
0.015390819 0.13594101 0.11551361 0.05220617 -0.7924189 -0.60773909 0.016951311
0.026642572 0.13600591 0.11480876 -0.0023785043 -0.77875203 -0.62732738 0.01954297
0.035408691 0.13538314 0.11622839 0.0030674862 -0.75213593 -0.65900099 0.019953724
0.046359271 0.13494854 0.11587492 0.0099355979 -0.76065046 -0.64908564 0.022192026
0.054571595 0.13580155 0.11462017 -0.0015829476 -0.77568901 -0.63111329 0.022296468
0.063992158 0.13640662 0.11379416 0.0061410088 -0.79313725 -0.60901189 0.021470895
0.076912999 0.13558383 0.11507571 0.04233047 -0.74461555 -0.66614997 0.025025258
0.086134546 0.13549219 0.11551734 0.064718403 -0.70536798 -0.7058807 0.026752988
0.094889492 0.13708128 0.11317514 0.014581972 -0.77034229 -0.63746381 0.028869495
0.10565564 0.13400808 0.11581758 -0.028086517 -0.74195516 -0.66986096 0.025206046
0.11313851 0.13646638 0.11399228 -0.035577763 -0.72841686 -0.68420982 0.022680443
0.12598656 0.13244005 0.11687847 -0.043951672 -0.62996119 -0.77538198 0.022728315
0.13654849 0.13525991 0.11442715 -0.026546981 -0.67852503 -0.73409748 0.023835035
0.14538923 0.13207883 0.11624593 -0.039472919 -0.54266584 -0.83902061 0.0157919
0.15590318 0.13421208 0.11380218 -0.066066086 -0.62872577 -0.77481556 0.017821008
0.16292493 0.13580933 0.11216706 -0.05122982 -0.61831903 -0.7842558 0.017821671
0.17378299 0.13457617 0.11234951 -0.10151967 -0.60946691 -0.78628486 0.013521015
0.18634138 0.13375872 0.11165827 -0.076554239 -0.55627269 -0.82746613 0.014050874
0.20503609 0.13148922 0.11048651 -0.13693158 -0.51398569 -0.84679896 0.016106388
0.073487468 0.1400121 0.1133202 0.059828348 -0.81742996 -0.57291257 0.022596341
0.087723345 0.14052287 0.11272074 0.041473679 -0.80488169 -0.59198427 0.021388555
0.09666314 0.14068532 0.11317676 -0.0076048891 -0.81248885 -0.58292711 0.026884731
0.10103789 0.14042355 0.11338309 -0.032770142 -0.78711736 -0.61593199 0.026521906
0.11288575 0.14100322 0.11155905 -0.03859495 -0.81228667 -0.58198005 0.023760259
0.0092662685 -0.1300512 0.12059107 0.053081196 0.64160371 -0.76519746 0.036918789
0.020855421 -0.13041726 0.12025689 0.0014746229 0.69447917 -0.71951127 0.035465114
0.044024028 -0.13045757 0.12011012 -0.028259875 0.65446281 -0.755566 0.031926159
0.060024127 -0.13036267 0.12002923 -0.0056854226 0.6493367 -0.76047987 0.031872217
-0.052464332 -0.1258709 0.1206471 0.13480379 0.53497905 -0.83404154 0.028206389
-0.04897318 -0.12339391 0.12163383 0.11918372 0.41800851 -0.90059102 0.018404881
-0.036374282 -0.12299994 0.12250342 0.038210809 0.42160636 -0.90597349 0.023339719
-0.024130978 -0.12411336 0.12267741 0.05512448 0.47856224 -0.87632161 0.023352819
-0.01311441 -0.12886599 0.12075044 0.058820412 0.60671598 -0.79273957 0.030633586
-0.0044498476 -0.12498818 0.12298137 0.048673529 0.53453135 -0.84374589 0.023708493
0.0040688734 -0.12589869 0.12280934 0.021379014 0.56900102 -0.8220588 0.028103365
0.013635255 -0.12710965 0.12218995 0.045317773 0.57598662 -0.81620193 0.02790674
0.025043344 -0.12672582 0.12238693 0.0057107285 0.58858758 -0.80841327 0.023836592
0.030451566 -0.12900785 0.12115037 -0.022748746 0.67349064 -0.73884565 0.026230173
0.041700736 -0.12755239 0.12197533 -0.034311038 0.59897017 -0.80003601 0.02646629
0.053238284 -0.12486976 0.12340197 -0.021988682 0.50920415 -0.86036485 0.025113788
0.065185718 -0.12651759 0.12242527 0.014340517 0.53579867 -0.84422398 0.022866871
0.075224422 -0.12723425 0.12188166 0.0044849715 0.54461849 -0.83867192 0.022036843
0.086407669 -0.12514865 0.12290265 -0.037154716 0.52223825 -0.85198987 0.0202046
0.091519833 -0.12678099 0.12188836 -0.015484237 0.51558578 -0.85669804 0.017594229
0.1066516 -0.12454455 0.12227681 0.022311907 0.49440429 -0.8689456 0.016979907
0.11521202 -0.12490807 0.12181319 -0.023386998 0.50113976 -0.86505014 0.019132214
0.12529953 -0.12294073 0.12231447 -0.012809621 0.42047316 -0.90721452 0.015496983
0.13434646 -0.1232539 0.12172289 -0.05527522 0.40557855 -0.91238737 0.013211237
0.14927754 -0.12086892 0.12104449 -0.091717161 0.39333019 -0.91481107 0.013775342
0.15312013 -0.12107673 0.12061778 -0.092607595 0.35552904 -0.93006611 0.011232375
-0.061751071 -0.11688462 0.1220137 0.27528432 0.30545878 -0.9115445 0.014164213
-0.053538673 -0.11660998 0.12314742 0.16325428 0.34691039 -0.92358071 0.0177719
-0.044456888 -0.11551454 0.1240582 0.069585361 0.32434294 -0.94337666 0.016744686
-0.032287028 -0.11650763 0.12457749 0.030464074 0.3418977 -0.93924332 0.016261894
-0.028169688 -0.11259717 0.12538026 0.045350507 0.2551927 -0.96582603 0.0064273854
-0.0058398419 -0.11477612 0.12628901 0.022604186 0.27224666 -0.96196198 0.0065974472
0.0018586898 -0.11761532 0.12628433 0.01652791 0.31408328 -0.94925159 0.014704527
0.013628756 -0.11375947 0.12685724 -0.021227978 0.25519824 -0.96665567 0.0073174592
0.025930591 -0.11776644 0.12614229 0.00572294 0.33384195 -0.94261169 0.013706088
0.046196327 -0.11495585 0.12644494 0.024977574 0.27895027 -0.95998073 0.0077280104
0.053303894 -0.11506782 0.12635806 -0.0053314553 0.34194669 -0.9397043 0.011760849
0.065690689 -0.11676228 0.12591606 0.019804692 0.35120279 -0.93608993 0.010734204
0.075326152 -0.11444134 0.12629321 -0.029387571 0.29311472 -0.95562547 0.0071258568
0.085661761 -0.11194168 0.12669611 -0.019327274 0.24463035 -0.96942371 0.0067723077
0.093579322 -0.11361146 0.12610251 -0.026854198 0.26368919 -0.96423382 0.0064778458
0.10324978 -0.11411103 0.1256084 -0.028587705 0.28539076 -0.95798481 0.0062033618
0.11415031 -0.11227672 0.12556775 -0.030950431 0.23665792 -0.97109991 0.0040675537
0.12620474 -0.11632866 0.12420487 -0.024191042 0.29981875 -0.9536894 0.0066179652
0.13656747 -0.1166447 0.12348749 -0.058332674 0.27519095 -0.95961827 0.0047465088
0.14224239 -0.11649907 0.12291189 -0.077633157 0.27857029 -0.95727307 0.0040973267
0.15693331 -0.11671361 0.12155698 -0.092156373 0.28335425 -0.95457721 0.0058177738
0.16411887 -0.11851418 0.12033799 -0.12095724 0.26995951 -0.955244 0.0047867219
0.17517744 -0.11291181 0.12045114 -0.13453487 0.21427207 -0.96746469 0.0034220051
-0.07050544 -0.10837938 0.12048042 0.38136944 0.20963541 -0.90033907 0.0088926051
-0.063226573 -0.10472751 0.12341178 0.28419405 0.18284225 -0.94117075 0.0073438883
-0.055482671 -0.10321877 0.12492003 0.15251936 0.14212821 -0.97802722 0.0024547628
-0.041479409 -0.10396908 0.12570171 0.084151402 0.13654409 -0.98705328 0.001087748
-0.035622094 -0.10473882 0.12593845 0.055701591 0.13913453 -0.98870564 0.0013964103
-0.024122467 -0.10766795 0.12627216 0.055759445 0.19183527 -0.97984189 0.0050793956
-0.017730292 -0.10499682 0.12694667 0.050531957 0.14704186 -0.98783863 0.0018944071
-0.00053007528 -0.10474754 0.12802961 0.025490751 0.15706505 -0.98725921 0.0021406461
0.002523643 -0.10422001 0.12812535 0.02215643 0.1498556 -0.98845965 0.0021234325
0.012729243 -0.10510899 0.12803958 0.0011307731 0.16364862 -0.98651803 0.0023923435
0.033434082 -0.10523191 0.12792046 0.006634078 0.18276401 -0.98313451 0.0023862633
0.047147866 -0.1033756 0.12806578 -0.0061842501 0.15775618 -0.98745871 0.0022092687
0.056894273 -0.10781662 0.12752855 0.0079654185 0.1811824 -0.98341721 0.0024086214
0.064642653 -0.10349436 0.12793443 -0.0042705587 0.15092807 -0.98853552 0.0022087267
0.077356748 -0.10775717 0.12739599 -0.005519676 0.19320163 -0.98114353 0.0042098677
0.083827816 -0.10562348 0.12756728 -0.012970187 0.15045376 -0.98853195 0.0013427027
0.095889278 -0.10527921 0.12728764 -0.030950602 0.15753444 -0.98702836 0.0010745578
0.10533214 -0.10335549 0.12715879 -0.038683664 0.15557171 -0.98706686 0.0014138285
0.11585993 -0.10559106 0.12643352 -0.050397225 0.17523284 -0.98323619 0.0019609313
0.12017979 -0.10390576 0.12646416 -0.053618178 0.17004332 -0.98397678 0.0018931485
0.13459441 -0.10558114 0.12559794 -0.064542696 0.17854129 -0.98181325 0.0015685871
0.14534493 -0.10838285 0.12416856 -0.077057078 0.20545527 -0.97562814 0.0026975821
0.15280031 -0.1019756 0.1241737 -0.098883912 0.13975331 -0.98523653 0.00064359186
0.16638283 -0.10208795 0.12272453 -0.12159479 0.13071255 -0.98393542 0.00056059548
0.18026786 -0.10036409 0.12121024 -0.14789426 0.10745585 -0.98314834 0.00060403766
-0.072526142 -0.097836301 0.12134299 0.39082366 0.14360315 -0.90919471 0.0091316449
-0.064930253 -0.094179682 0.12395896 0.31246984 0.10753205 -0.94382167 0.0080549149
-0.053473257 -0.093834877 0.12585907 0.13362621 0.081890494 -0.98764259 0.0015069321
-0.045295313 -0.09572117 0.12621248 0.097673006 0.10034253 -0.99014711 0.00090286136
-0.0333004 -0.092193663 0.12718943 0.061111052 0.077355422 -0.99512893 0.0001418316
-0.024130004 -0.097799286 0.12726718 0.058606986 0.10033721 -0.99322587 0.00051141996
-0.015507999 -0.09514986 0.12796867 0.049957208 0.084186137 -0.99519694 0.00013150598
-0.003506959 -0.094378054 0.12871063 0.038396195 0.081584029 -0.99592656 0.00014624896
0.01669756 -0.091966018 0.12923878 0.0070861564 0.078892529 -0.99685794 0.00019531843
0.022353992 -0.0970698 0.12882212 0.00048642157 0.093278445 -0.99563992 0.0001223263
0.03316864 -0.097008742 0.12878859 -0.0031576534 0.093982056 -0.99556893 0.00014847184
0.046340048 -0.095690727 0.1288671 -0.0077893417 0.087817654 -0.99610609 0.0002013069
0.056296028 -0.095641568 0.12881389 -0.0054988028 0.10249342 -0.99471849 0.00065683865
0.065255024 -0.095095612 0.12882115 -0.0034749603 0.086418256 -0.99625289 0.0002240602
0.086431958 -0.09155193 0.12901781 -0.021006724 0.08251632 -0.99636829 0.00027895658
0.093225777 -0.094221719 0.12855832 -0.025919797 0.088750355 -0.99571657 0.00020179471
0.10451777 -0.093191102 0.12829062 -0.031274594 0.083140604 -0.99604696 0.0002454271
0.11641078 -0.095024794 0.1276958 -0.046182744 0.10184519 -0.99372774 0.00053607713
0.12129951 -0.093631759 0.12767288 -0.049418706 0.092908129 -0.99444753 0.00037222757
0.13183574 -0.095024474 0.12709333 -0.065824226 0.11721236 -0.99092305 0.00055758393
0.14469591 -0.096292719 0.12576103 -0.091775887 0.1109669 -0.98957747 0.00058529235
0.15729362 -0.094080418 0.12468665 -0.10519696 0.10185716 -0.98922127 0.0005038972
0.16474624 -0.094492853 0.12383401 -0.11945499 0.099371977 -0.98785406 0.00058848219
0.17724501 -0.095916577 0.12225831 -0.14686392 0.093065865 -0.98476887 0.00046118442
0.18328391 -0.096526332 0.12111785 -0.1550317 0.10054143 -0.98278004 0.00053149625
-0.073862106 -0.08912611 0.12167317 0.35944775 0.11891863 -0.92555696 0.0095607145
-0.064506173 -0.082864545 0.12489811 0.27179769 0.064466365 -0.96019274 0.004906517
-0.055055112 -0.084426537 0.12625036 0.14391962 0.064944603 -0.98745602 0.0016226175
-0.046572931 -0.085717738 0.1268364 0.10225289 0.070043199 -0.99228942 0.00092013495
-0.033881586 -0.085689247 0.12760398 0.057307597 0.068086013 -0.99603224 8.0221718e-05
-0.025580967 -0.082235478 0.12834345 0.058186181 0.060670502 -0.9964605 6.4091371e-05
-0.016698334 -0.083371997 0.12880072 0.057009671 0.060022313 -0.99656773 9.546394e-05
-0.0023766709 -0.083408669 0.12962759 0.033757176 0.060093891 -0.99762177 0.0001245702
0.0079830894 -0.088435896 0.12953241 0.019888006 0.07234779 -0.99718112 0.00019499156
0.016834021 -0.084863044 0.12980965 0.0073737022 0.065515682 -0.99782431 0.00013032618
0.028106917 -0.085123003 0.12977608 -0.0032666561 0.060821179 -0.99814332 0.00010939083
0.033178281 -0.088857606 0.12947011 -0.0038538598 0.074739806 -0.99719566 0.000253334
0.040961947 -0.085688286 0.12971616 -0.0062590968 0.067792147 -0.99767983 0.00019414212
0.054792617 -0.084588893 0.12974358 -0.0016103131 0.060230408 -0.99818319 0.00013658423
0.064415313 -0.084673293 0.12975155 -0.0035198908 0.06347809 -0.99797702 0.00014752433
0.074283682 -0.08558102 0.12965885 -0.011819717 0.074204691 -0.99717301 0.00019454982
0.087135732 -0.084201962 0.12960009 -0.018632974 0.067795038 -0.99752522 0.0001742607
0.091512658 -0.084152155 0.12953345 -0.024242742 0.070503898 -0.99721688 0.00022735987
0.10247068 -0.086077273 0.12899223 -0.033664566 0.07667233 -0.99648786 0.00024781295
0.11382325 -0.085351616 0.12861297 -0.041564714 0.071758129 -0.99655563 0.00018043927
0.12719339 -0.084230036 0.12816557 -0.054349352 0.062827125 -0.99654347 0.00021691574
0.13320395 -0.083482146 0.12797168 -0.071554661 0.064629443 -0.99534065 0.0002975986
0.1434755 -0.086325407 0.12686051 -0.088979848 0.069128007 -0.99363166 0.00021615639
0.15449481 -0.086497054 0.12561005 -0.10681622 0.065084718 -0.99214631 0.00017381534
0.16577187 -0.084595487 0.12441077 -0.12729986 0.054089151 -0.99038839 0.00018341716
0.17263365 -0.086003512 0.12358173 -0.13920069 0.063267738 -0.98824102 0.00025892319
0.18449774 -0.085549042 0.12165727 -0.16594781 0.063521743 -0.98408651 0.00027633304
0.19215791 -0.089622267 0.12005138 -0.17721905 0.068957336 -0.98175263 0.00027462904
-0.080129735 -0.072313793 0.12023296 0.48126996 0.090112075 -0.87192839 0.0072562653
-0.074711375 -0.073240288 0.12269694 0.4090293 0.070479654 -0.9097954 0.0085977465
-0.062655605 -0.076758564 0.12570457 0.21787816 0.048041757 -0.97479284 0.0043422729
-0.053759087 -0.075256929 0.12702623 0.13162012 0.056281973 -0.98970115 0.0014556661
-0.048062645 -0.078338876 0.12725472 0.10806026 0.053547006 -0.99270123 0.0008782855
-0.036488514 -0.071359694 0.12816419 0.061648365 0.045393653 -0.99706513 5.1234369e-05
-0.025945729 -0.076576926 0.12860359 0.057926316 0.052730706 -0.99692726 6.6804656e-05
-0.011361019 -0.07109201 0.12963839 0.049283534 0.045760293 -0.99773604 5.7853635e-05
-0.0062676221 -0.07653074 0.12975258 0.04236747 0.049872432 -0.99785662 0.00011398194
0.058490518 -0.079286709 0.12997484 -0.0016651178 0.056059834 -0.99842608 0.00013314375
0.075358436 -0.078121379 0.12995188 -0.0082631037 0.057121564 -0.9983331 0.00014543849
0.08160641 -0.077932633 0.12993512 -0.0155704 0.049880534 -0.9986338 0.00011300055
0.095249981 -0.07160297 0.12982249 -0.027442157 0.039629977 -0.99883753 4.0400795e-05
0.10696779 -0.076753445 0.12920481 -0.036322296 0.047326997 -0.99821877 6.4565618e-05
0.11282484 -0.075393729 0.12902963 -0.039964639 0.049934365 -0.99795258 9.7078242e-05
0.12417424 -0.077269703 0.12853238 -0.050880387 0.052884813 -0.99730355 0.0001861265
0.13574451 -0.075195417 0.12804066 -0.074110918 0.045776296 -0.99619877 0.00021225473
0.14238429 -0.07207565 0.12749547 -0.089830205 0.042620577 -0.99504471 0.00015379708
0.15814494 -0.070533529 0.12581614 -0.11420866 0.040302139 -0.99263895 7.8077574e-05
0.16591652 -0.076014593 0.12472668 -0.12815766 0.05096788 -0.99044329 0.000152156
0.17535014 -0.075423025 0.12363418 -0.1455971 0.044679809 -0.98833454 0.00016227957
0.18549852 -0.075316951 0.12185675 -0.16665748 0.044154957 -0.9850257 0.00016926034
0.19280922 -0.074356981 0.12048117 -0.1966906 0.035347361 -0.97982824 0.00084564311
-0.0822988 -0.065729626 0.12020332 0.48275888 0.068799347 -0.87304664 0.0069924127
-0.073718555 -0.064082213 0.12344071 0.35167232 0.078763805 -0.93280369 0.0094174808
-0.056388516 -0.063312016 0.12725051 0.16204104 0.041761059 -0.98589993 0.0019034351
-0.044787712 -0.064771824 0.12791963 0.084942475 0.040757451 -0.99555188 0.0004892656
-0.034626607 -0.066745222 0.12842786 0.061151002 0.04093096 -0.99728894 4.2447165e-05
-0.025421552 -0.062863931 0.12909508 0.05787269 0.03398085 -0.99774545 9.1114007e-06
-0.011022937 -0.063564479 0.12991112 0.047924649 0.034875233 -0.9982419 7.0053939e-05
-0.009796368 -0.067813076 0.12983984 0.04607448 0.041164543 -0.99808949 8.1186401e-05
0.094289601 -0.068418279 0.12996659 -0.027353197 0.037311807 -0.99892926 6.1987885e-05
0.10637955 -0.06699466 0.12956406 -0.036635194 0.036169909 -0.99867398 3.4299985e-05
0.11257914 -0.065913707 0.1293696 -0.038139191 0.035759788 -0.99863243 2.9300116e-05
0.12220097 -0.063929304 0.12907407 -0.047589961 0.031375129 -0.99837404 7.7400815e-05
0.13223583 -0.063988395 0.12869039 -0.066070847 0.033356931 -0.99725717 0.00016865536
0.1465942 -0.066838667 0.12721702 -0.09700226 0.036431961 -0.9946171 8.1832666e-05
0.15457368 -0.063577525 0.12645617 -0.10644602 0.032740105 -0.9937793 1.9993451e-05
0.16317616 -0.06897518 0.12530856 -0.12016863 0.037534412 -0.99204367 7.5544856e-05
0.17297614 -0.063564502 0.12441188 -0.14281565 0.034724705 -0.98913997 0.0001548155
0.18529971 -0.06658262 0.12223662 -0.16631535 0.032568429 -0.98553467 0.00014605621
0.19437958 -0.063093603 0.12061766 -0.21688564 0.018806079 -0.97601581 0.00088387629
-0.08080174 -0.057830423 0.12092712 0.46903417 0.076796949 -0.87983483 0.0080935508
-0.075921848 -0.050944656 0.12361977 0.38834357 0.047658753 -0.92028147 0.0069842152
-0.064081587 -0.052996319 0.12632625 0.22852951 0.033567492 -0.97295809 0.0033409363
-0.055512413 -0.054983713 0.12757812 0.14128119 0.03709019 -0.9892745 0.0014878518
-0.045767829 -0.057085462 0.12814638 0.081061684 0.034427635 -0.99611431 0.00046271508
-0.039224681 -0.055081673 0.1285903 0.0643709 0.030145852 -0.99747062 6.5801934e-05
-0.025767539 -0.055844225 0.1293242 0.056981556 0.029566871 -0.99793732 2.9351439e-05
-0.019902507 -0.050798029 0.12984121 0.056020644 0.027366102 -0.9980545 4.4401372e-06
0.10915114 -0.055011779 0.12986805 -0.037480038 0.02460246 -0.99899447 5.9436138e-06
0.11952543 -0.052517261 0.12956591 -0.043570731 0.023756623 -0.99876785 5.1357525e-05
0.12685218 -0.056359887 0.12916103 -0.055068251 0.0271334 -0.99811387 0.00013074686
0.13568357 -0.057748079 0.12866609 -0.076210871 0.026513232 -0.99673915 0.00017157498
0.14323626 -0.054320648 0.1280231 -0.087151907 0.023919962 -0.99590784 0.00012703444
0.15809609 -0.055011835 0.12636958 -0.11657792 0.024119053 -0.99288869 7.3330222e-05
0.16234878 -0.058328856 0.12578726 -0.12206406 0.028100789 -0.99212432 6.9525631e-05
0.17352279 -0.054260403 0.12468357 -0.14386205 0.025935106 -0.98925787 0.00020394631
0.18549074 -0.054689299 0.12263773 -0.16644116 0.026050182 -0.98570722 0.00014495221
0.19460273 -0.059434079 0.12071757 -0.21256784 0.01711493 -0.97699642 0.00092493684
-0.083747111 -0.042126622 0.12070464 0.49675488 0.029976394 -0.86737305 0.0073319436
-0.076589525 -0.043307349 0.12378693 0.38427493 0.052941237 -0.92169952 0.0072863074
-0.063664183 -0.043646649 0.12677464 0.20589751 0.045777775 -0.97750223 0.0039588707
-0.054309506 -0.045493569 0.12808691 0.12649949 0.029947855 -0.9915145 0.00070248963
-0.043410912 -0.045076832 0.12871285 0.067757122 0.024548536 -0.99739981 0.00013024773
-0.034200121 -0.044892609 0.12922706 0.059628036 0.024679588 -0.99791557 5.3009084e-05
0.11637917 -0.044958234 0.1298238 -0.044666179 0.017398888 -0.99885046 5.1861905e-05
0.12554586 -0.04663825 0.12945934 -0.051769663 0.018861063 -0.99848092 9.3842784e-05
0.13391332 -0.041963231 0.12913211 -0.072440617 0.014114429 -0.99727285 0.00015457981
0.1448946 -0.047357414 0.12799083 -0.092745841 0.017586997 -0.99553448 0.00010548914
0.1561943 -0.044836007 0.12675203 -0.11421879 0.015304352 -0.99333775 5.1996944e-05
0.16690178 -0.049548991 0.12552324 -0.12782194 0.020892801 -0.99157703 0.00011076602
0.17496265 -0.044970602 0.12463012 -0.14730677 0.016954109 -0.9889456 0.00018246491
0.18429542 -0.044146128 0.12303223 -0.16213873 0.015393925 -0.9866479 0.00018145834
0.19960004 -0.041428998 0.12007213 -0.28482753 0.011273514 -0.95851249 0.0056722909
-0.084578693 -0.035688307 0.12089342 0.48242769 0.028931662 -0.87545782 0.0072387233
-0.073088996 -0.034403224 0.12490384 0.31242013 0.022799376 -0.94967037 0.0071290405
-0.065899558 -0.034509096 0.12648222 0.24196635 0.037743069 -0.96955025 0.0038932962
-0.057448361 -0.036318164 0.12808958 0.14940654 0.021424863 -0.98854369 0.0017218705
-0.047907606 -0.031903982 0.12868935 0.085218087 0.015422281 -0.996243 0.00040445366
-0.035508867 -0.034736279 0.12933999 0.059635159 0.019588528 -0.99802804 5.8289865e-05
-0.025308168 -0.036089551 0.12989002 0.0560629 0.018994521 -0.99824655 2.8894349e-06
0.11632635 -0.036158249 0.1299008 -0.043981597 0.013775741 -0.99893737 2.2716093e-05
0.12204156 -0.034464467 0.12969692 -0.048276674 0.013574019 -0.99874175 4.704258e-05
0.13398814 -0.035453353 0.12921023 -0.073992707 0.0095341122 -0.99721318 0.00013622188
0.145945 -0.033177178 0.12798657 -0.094027966 0.010724218 -0.99551183 9.949076e-05
0.15537196 -0.030380089 0.1269554 -0.10900265 0.0090817716 -0.99400002 4.3048316e-05
0.16590172 -0.033616677 0.12575781 -0.13153727 0.0082137408 -0.99127722 0.00015760705
0.17184462 -0.035968281 0.12507784 -0.13929006 0.0092351055 -0.99020851 0.00020028542
0.18317048 -0.033829302 0.12332889 -0.15960576 0.0058024069 -0.98716372 0.00018363904
0.19332345 -0.035967167 0.12134796 -0.20934394 0.0096518146 -0.97779441 0.00080436142
-0.084881783 -0.025888231 0.12082203 0.49524578 0.0106873 -0.86868709 0.0056803958
-0.073540032 -0.023744637 0.12497368 0.34776652 0.025572518 -0.93723232 0.0093871392
-0.06588643 -0.024794796 0.12660468 0.24698934 0.0089224894 -0.96897715 0.003956994
-0.05250524 -0.025366779 0.12852544 0.10271053 0.0088023031 -0.99467236 0.00061021687
-0.045492869 -0.026396498 0.12888686 0.084006056 0.01658408 -0.99632722 0.00041061349
-0.033766542 -0.021582685 0.1295727 0.054748114 0.010712313 -0.99844271 1.2607977e-05
-0.026874036 -0.026145503 0.12990044 0.054567207 0.013707525 -0.99841601 7.7615432e-06
0.11822522 -0.021610279 0.12995222 -0.042788405 0.0073578949 -0.99905705 2.9290046e-05
0.12677889 -0.025749534 0.12959023 -0.063934065 0.010088058 -0.99790311 0.0001808357
0.13752976 -0.02627882 0.12896141 -0.08076743 0.0091063613 -0.99669135 0.00017299285
0.15647866 -0.023472935 0.12688708 -0.11167514 0.0076122237 -0.99371564 6.8596601e-05
0.16240807 -0.02414397 0.12622011 -0.12366955 0.0077633131 -0.99229312 7.03724e-05
0.17590101 -0.025925618 0.12462733 -0.15000157 0.0059739505 -0.98866773 0.00018583027
0.18811396 -0.024175543 0.12244811 -0.19233014 0.0074169952 -0.98130226 0.00079078792
0.19373778 -0.028007843 0.1213396 -0.20985423 0.014034472 -0.97763193 0.00087700639
-0.081683591 -0.011466014 0.1221464 0.44617918 0.011301067 -0.89487225 0.0055928403
-0.074901626 -0.015334101 0.12458219 0.37772223 0.0031886681 -0.92591345 0.0077675837
-0.064742036 -0.017619215 0.12693767 0.23729013 -0.0080956351 -0.97140509 0.0043853256
-0.056403853 -0.013045501 0.12840629 0.14002553 0.0043736277 -0.99013823 0.0013781246
-0.044093512 -0.014576834 0.12910886 0.071255699 0.012564759 -0.99737895 0.00016972044
-0.028420707 -0.016256636 0.1299244 0.054206621 0.0099587236 -0.99848008 0
0.12611717 -0.013665753 0.12971844 -0.057819989 0.0062091839 -0.99830776 0.0001128978
0.13154119 -0.013643545 0.12951145 -0.068128392 0.0080176555 -0.99764431 0.00017130275
0.14774753 -0.011857067 0.12796579 -0.099939592 0.0051554604 -0.99498016 5.1937648e-05
0.15511492 -0.01669915 0.12709713 -0.1052876 0.0072157895 -0.9944157 3.5695095e-05
0.16429189 -0.015592963 0.12607804 -0.12265944 0.0079111848 -0.99241728 7.7038014e-05
0.17398739 -0.015710838 0.12498301 -0.14888807 0.0067089479 -0.98883122 0.0002030194
0.18520984 -0.016551014 0.12306003 -0.1680198 0.0058320807 -0.98576635 0.00022753012
0.1966719 -0.012978537 0.12088419 -0.24953865 -0.0014671631 -0.9683637 0.0027248629
0.20116363 -0.010599636 0.12003847 -0.30717307 0.0081212968 -0.95161903 0.0069740205
-0.083468959 -0.0034830479 0.12137997 0.47754186 0.013553888 -0.87850446 0.0069570672
-0.074577942 -0.0061078519 0.12494874 0.36939108 -0.004728795 -0.92926192 0.0078127431
-0.064618021 -0.0050154869 0.12710984 0.23089106 -0.0034289716 -0.97297359 0.0045607802
-0.051526703 -0.0022355623 0.12886597 0.10438974 0.0019291551 -0.99453455 0.00055187312
-0.042772204 -0.0047764736 0.12930153 0.067021541 0.0035384847 -0.99774522 0.00011936328
-0.034711871 -0.0064666024 0.12971064 0.053840615 0.0060295174 -0.99853134 4.3741716e-06
0.12460343 -0.0044289487 0.12986717 -0.056550048 0.002225226 -0.99839729 0.00011696577
0.13447836 -0.0057031461 0.12938699 -0.077816248 0.0018662588 -0.996966 0.00014388855
0.14216991 -0.0038358232 0.12866051 -0.087525263 0.0041803611 -0.99615347 0.00011718272
0.15773329 -0.006891639 0.12688664 -0.11546471 0.0038408155 -0.99330413 4.8862828e-05
0.16772053 -0.0052909437 0.12577865 -0.12509289 0.0030867646 -0.99214029 7.5352087e-05
0.17666429 -0.0031874764 0.12468295 -0.15356842 0.0023676057 -0.98813516 0.00019515652
0.18353185 -0.0035447176 0.12347474 -0.16571988 0.0016780635 -0.98617142 0.00013369937
-0.08334554 0.007950278 0.12138822 0.49825683 -0.0048458339 -0.86701596 0.0049170591
-0.073143348 0.0038566305 0.1252801 0.33996847 -0.012948287 -0.94034767 0.0082992697
-0.064389117 0.0075196698 0.127123 0.21973261 0.00027475174 -0.97556007 0.0040548323
-0.050173346 0.0050639636 0.12891673 0.098930582 -0.0065286448 -0.99507302 0.00057803845
-0.044424966 0.0022065958 0.12925136 0.078421757 -0.00026029712 -0.99692023 0.00030472557
-0.032300852 0.0051202765 0.12987004 0.054131608 -0.0017971627 -0.99853218 2.5610287e-05
-0.029964242 0.0080508394 0.1299662 0.054267287 -0.0026799594 -0.99852288 1.7467391e-05
0.1267692 0.0087744752 0.12975188 -0.061342392 -0.0040395116 -0.99810857 0.00011721489
0.13573581 0.0038515544 0.12930538 -0.076919794 0.0015863329 -0.99703604 0.00018072914
0.1442029 0.0049678124 0.12842651 -0.095356382 -0.0020060251 -0.9954412 9.3699651e-05
0.15264857 0.0054371413 0.1274744 -0.10381363 -0.0022375244 -0.99459428 5.842224e-05
0.16603896 0.0041930033 0.12598018 -0.12380188 -0.0012697055 -0.99230611 7.4763462e-05
0.17281735 0.0058120429 0.12520641 -0.14165442 -0.0041344585 -0.98990756 0.00021136753
0.18445659 0.0068926262 0.1232584 -0.17156084 -0.00334594 -0.9851678 9.7893877e-05
0.19629049 0.0058876351 0.12099507 -0.25501645 0.007357657 -0.96690869 0.004825566
0.20129201 0.00890336 0.12000656 -0.32123801 0.016046096 -0.94686252 0.0092848307
-0.083125427 0.01477963 0.12141131 0.46564388 -0.014196703 -0.88485837 0.0073458496
-0.074367523 0.01533538 0.12474816 0.35302198 0.0047148746 -0.93560314 0.0068672844
-0.06651587 0.01467402 0.12657584 0.25779545 0.0029014905 -0.96619517 0.0057046781
-0.054283082 0.016402703 0.12855022 0.12407088 -0.0090013398 -0.9922325 0.0010954484
-0.042136073 0.0131529 0.12926309 0.073450647 -0.0074556354 -0.997271 0.00021444315
-0.038992032 0.01666167 0.12939337 0.065519825 -0.0084348638 -0.99781561 0.00014866971
-0.029438365 0.019864779 0.12987918 0.054291096 -0.010343069 -0.99847156 0
0.12627985 0.015098318 0.12971769 -0.060607847 -0.0061241677 -0.99814284 0.00010740179
0.13410962 0.013433686 0.12935624 -0.073854089 -0.0079076905 -0.99723768 0.00017667614
0.14470641 0.013530549 0.12830074 -0.092326917 -0.0046878038 -0.9957177 0.00014146809
0.15458281 0.01605764 0.12717511 -0.10838385 -0.0050901985 -0.9940961 4.8297574e-05
0.16256909 0.01483165 0.12628767 -0.12054167 -0.0054624905 -0.99269331 5.0391543e-05
0.17639679 0.015259893 0.12463111 -0.15117341 -0.0078830738 -0.9884758 0.00023402261
0.18240458 0.011507297 0.12361585 -0.16540645 -0.0056675989 -0.98620921 0.00016051871
0.19693565 0.016574955 0.12077201 -0.24127544 0.00024292561 -0.9704566 0.0030613346
-0.072271682 0.025840942 0.1252138 0.32984665 -0.018340666 -0.9438563 0.0074128876
-0.067833453 0.025125906 0.12616836 0.28604156 -0.00025468177 -0.9582172 0.0080021713
-0.053389929 0.025843468 0.128482 0.10776605 -0.008528349 -0.99413973 0.00050200784
-0.044889633 0.024634773 0.12896758 0.082590863 -0.013407236 -0.9964934 0.00029822753
-0.03713607 0.024826961 0.12939435 0.059669934 -0.014422791 -0.99811399 6.6139764e-05
0.12564875 0.024385829 0.12966394 -0.052099135 -0.0096419705 -0.99859536 8.0741775e-05
0.13429534 0.025505316 0.12927014 -0.075085469 -0.010012837 -0.99712688 0.00019585577
0.14600369 0.025062639 0.12806006 -0.098445393 -0.0086291824 -0.99510503 7.4386713e-05
0.15657437 0.02661898 0.12686872 -0.11624692 -0.0095760627 -0.99317414 5.5464974e-05
0.16245311 0.022249335 0.12624338 -0.11955925 -0.0075492025 -0.99279839 6.8139627e-05
0.17287154 0.023433063 0.12506419 -0.1425765 -0.010803171 -0.98972481 0.00016424494
0.18528651 0.021940103 0.12297892 -0.16677038 -0.010303285 -0.98594195 0.00016001544
0.19260214 0.022897331 0.12154802 -0.20727311 -0.010006367 -0.97823191 0.00079324312
-0.084807456 0.037029553 0.1208 0.50247014 -0.026510132 -0.86418808 0.0052415831
-0.074444413 0.036602214 0.12453364 0.39073253 -0.02924802 -0.92003942 0.0082413694
-0.064112075 0.035740614 0.12684269 0.21698433 -0.019945975 -0.97597128 0.0042668162
-0.058244903 0.034784187 0.12805994 0.14925416 -0.020952715 -0.98857683 0.0014845821
-0.041557774 0.038439695 0.12897997 0.072625555 -0.021510778 -0.99712735 0.00020387668
-0.036078189 0.035432603 0.12932074 0.062510431 -0.019021194 -0.99786311 8.0164646e-05
0.1174905 0.035478063 0.1298894 -0.042933524 -0.013471586 -0.99898714 1.5968837e-05
0.12470559 0.033011429 0.12962838 -0.051845584 -0.012135678 -0.99858141 7.4852331e-05
0.13354312 0.033363324 0.12926997 -0.072686054 -0.010940352 -0.99729484 0.00015553081
0.14152782 0.035151329 0.1284723 -0.084406704 -0.0077677313 -0.99640113 0.00015788553
0.15496741 0.035294827 0.12697515 -0.11097802 -0.012782807 -0.99374068 5.2212541e-05
0.16316599 0.032365277 0.1260851 -0.12093002 -0.010884074 -0.99260139 7.7179931e-05
0.17636846 0.034596737 0.12451164 -0.15157185 -0.011474526 -0.98837966 0.00017350516
0.18361995 0.034206517 0.12321764 -0.16212392 -0.0102695 -0.98671699 0.00016182402
0.19297284 0.033910733 0.1213939 -0.20842786 -0.01016659 -0.97798491 0.00082810223
-0.083263509 0.041214038 0.12100019 0.49821532 -0.030056203 -0.86653227 0.0057784212
-0.076894976 0.044774871 0.12339737 0.42033151 -0.047318853 -0.90613592 0.0084824013
-0.064378776 0.043761831 0.12660916 0.23002344 -0.036366653 -0.97250539 0.0045283148
-0.053155363 0.045169793 0.12813275 0.11515225 -0.026934313 -0.99298269 0.00081851665
-0.043562487 0.042781372 0.12879115 0.070359282 -0.026053837 -0.99718136 0.0001234025
-0.031574894 0.04209584 0.12948099 0.05618944 -0.022380454 -0.99816924 2.4598407e-05
-0.025454104 0.045217812 0.12972273 0.055571772 -0.024971345 -0.99814236 2.0857377e-05
0.11603945 0.04499346 0.12984551 -0.043157913 -0.019863164 -0.99887073 4.0368486e-05
0.12653863 0.04312418 0.12946486 -0.058387145 -0.016035855 -0.99816525 0.00017200336
0.13560103 0.04546972 0.12898871 -0.071732022 -0.01713044 -0.99727678 0.00017466552
0.14599289 0.044653513 0.12789434 -0.097184822 -0.016832443 -0.99512398 9.1686401e-05
0.15491684 0.044164106 0.1269052 -0.10602561 -0.016885404 -0.99422002 4.1580155e-05
0.16589065 0.044178508 0.12568358 -0.13152644 -0.015430238 -0.99119258 0.00012773897
0.18843639 0.045022007 0.12220006 -0.18278798 -0.014957512 -0.9830386 0.00033456896
0.19267617 0.046977732 0.12135791 -0.21070191 -0.020911418 -0.97732669 0.0010139454
-0.081447199 0.056051295 0.12081977 0.45772746 -0.048735797 -0.88775581 0.0079388088
-0.074452505 0.058171928 0.12352253 0.36105359 -0.046222731 -0.93139881 0.0088515664
-0.065351993 0.05382603 0.12602539 0.24092434 -0.03842257 -0.96978307 0.0043850229
-0.052998371 0.054187465 0.12785336 0.13128954 -0.033812184 -0.99076736 0.0015562016
-0.047756575 0.054253466 0.12815753 0.084710583 -0.035742838 -0.99576432 0.00045847683
-0.035222962 0.054647572 0.12886961 0.060641903 -0.032217845 -0.99763948 4.2889744e-05
-0.022727679 0.052675445 0.12964213 0.054835424 -0.028606527 -0.9980855 2.4599231e-05
-0.018378377 0.055413239 0.12979558 0.055168454 -0.031173192 -0.99799031 1.4020619e-05
0.10721065 0.056113809 0.12989612 -0.037742063 -0.027886199 -0.99889833 4.9103255e-06
0.11468948 0.053035088 0.12972517 -0.041920081 -0.024364663 -0.99882382 3.2191507e-05
0.12942018 0.057645664 0.12901501 -0.060021162 -0.027328122 -0.99782294 0.00013313351
0.13450631 0.055686377 0.12880032 -0.071645655 -0.026376519 -0.99708134 0.00019285652
0.1442928 0.054099333 0.12790261 -0.09121193 -0.023158275 -0.9955622 0.00012591205
0.16725406 0.05540188 0.12532724 -0.13238782 -0.024017256 -0.99090701 0.00011357318
0.17370066 0.056783028 0.12453204 -0.13812441 -0.024583032 -0.9901098 0.00014377573
0.18588734 0.053439286 0.12260988 -0.17068507 -0.022400727 -0.98507094 0.00011163332
0.19880916 0.053481434 0.12011365 -0.28502038 -0.010729299 -0.95846146 0.0051181414
-0.081925586 0.066666931 0.1201203 0.48361322 -0.079170287 -0.87169397 0.0075657363
-0.076171398 0.065169886 0.12259085 0.43664435 -0.06021617 -0.89761674 0.00819204
-0.062603936 0.065630168 0.1261677 0.21876015 -0.043911904 -0.97479016 0.004207728
-0.055031106 0.063488379 0.12738073 0.15023702 -0.049040295 -0.98743302 0.0015447352
-0.045485448 0.063861698 0.12793742 0.087057203 -0.036700167 -0.99552709 0.00040213426
-0.03747781 0.065966815 0.12832843 0.064925194 -0.043784495 -0.99692911 8.0037207e-05
-0.023748681 0.064772651 0.12917376 0.057987381 -0.040346716 -0.99750167 3.3990902e-05
-0.014099803 0.066120334 0.12967718 0.051773373 -0.041645937 -0.99779016 6.9780544e-05
-0.009609581 0.065477349 0.12995222 0.046803594 -0.03797758 -0.99818194 7.8013443e-05
