# .PCD v0.7 - Point Cloud Data file format
VERSION 0.7
FIELDS x y z normal_x normal_y normal_z curvature
SIZE 4 4 4 4 4 4 4
TYPE F F F F F F F
COUNT 1 1 1 1 1 1 1
WIDTH 577
HEIGHT 1
VIEWPOINT 0 0 0 1 0 0 0
POINTS 577
DATA ascii
-0.38187635 0.13781038 -0.0870848 0.78488964 0.51064992 -0.35097694 0.072487734
-0.37275696 0.13367531 -0.085962795 0.50954705 0.7934761 -0.3328025 0.066102609
-0.36522117 0.13367531 -0.085125014 -0.37319618 -0.88808632 0.26837879 0.076917022
-0.34575146 0.13367532 -0.083600044 -0.10075413 -0.9905057 0.093525812 0.02101187
-0.3344366 0.13367531 -0.085138187 -3.4446128e-07 -1 3.9745214e-06 0
-0.32564455 0.13367531 -0.086307369 1.8514902e-05 -1 2.1783346e-06 0
-0.31605521 0.13367531 -0.088048138 1.802905e-05 -1 -1.267159e-06 0
-0.30394295 0.13367531 -0.084594101 0.0020862871 -0.99998122 0.0057566385 9.0279937e-05
-0.29459825 0.13367531 -0.084022909 0.075462215 -0.99066925 0.11348984 0.016614692
-0.28469744 0.13367532 -0.086393192 0.25270516 -0.94715255 0.19759098 0.059445128
-0.27509817 0.13367531 -0.084099658 0.3601847 -0.8859241 0.29224205 0.077930897
-0.2639443 0.13566402 -0.082553349 0.72429413 -0.5482173 0.41815773 0.077684984
-0.25973392 0.13555649 -0.087749228 0.75496256 -0.55043447 0.35644537 0.070699126
0.22939113 0.13944523 -0.088471532 -0.73952067 -0.57170618 0.35533249 0.088508971
0.233668 0.13489154 -0.084166721 -0.61864817 -0.72645992 0.29921612 0.069901519
0.24396241 0.13367532 -0.082894519 -0.42528886 -0.86306679 0.27247983 0.052131686
0.2560041 0.13367531 -0.086030163 -0.19919589 -0.96579969 0.16598764 0.035741799
0.26391989 0.13367531 -0.083881482 -0.12759456 -0.9841246 0.12336306 0.021663234
0.27593526 0.13367531 -0.085120238 -0.006451075 -0.99994791 0.0079148412 0.00028188637
0.28333282 0.13367531 -0.08310502 -5.2126834e-05 -1 -1.7057358e-06 0
0.2939297 0.13367531 -0.087997966 -1.6511491e-05 -1 5.8633277e-06 0
0.30391473 0.13367531 -0.084193289 0.0055245073 -0.9999634 0.0065318127 0.00016873133
0.31448245 0.13367531 -0.083130136 0.079067022 -0.9959138 0.043635454 0.011216803
0.32643142 0.13367531 -0.08374922 0.23864749 -0.94738591 0.2133248 0.067831621
0.33597341 0.13367531 -0.084814295 0.39309391 -0.87808472 0.27284497 0.0867422
0.34743226 0.13611396 -0.085049845 -0.69708228 0.58692521 -0.41181922 0.09058708
0.35127825 0.13625062 -0.086516485 -0.76252484 0.49739477 -0.41370809 0.080022767
0.49902955 0.13678923 -0.084259257 -0.88530451 -0.012333811 0.46484807 0.034682665
-0.4994922 0.14555024 -0.08026465 0.99310648 0.011694783 -0.11663048 0.016622167
-0.38207194 0.14485845 -0.087941863 0.84294194 0.34719315 -0.41098157 0.064634353
-0.37769943 0.14635304 -0.081805669 0.80625927 0.36428449 -0.46609321 0.068782024
-0.26229963 0.14636618 -0.084016204 0.83413047 -0.32626328 0.44472313 0.069003567
-0.25955218 0.14225847 -0.088545509 0.84180319 -0.37379777 0.38941318 0.062993117
0.22977848 0.14623287 -0.086954474 -0.84568256 -0.34367758 0.40829718 0.066026568
0.2315899 0.14313301 -0.084683053 -0.78822637 -0.41344851 0.45580655 0.077145308
0.3496874 0.14411885 -0.084521636 -0.83724219 0.34236827 -0.42639127 0.073602125
0.35049421 0.14370781 -0.085533336 -0.83720595 0.34241009 -0.42642888 0.07363154
0.49881706 0.14594886 -0.08671207 -0.84678054 -0.0033258768 0.53193212 0.038186677
-0.49972507 0.15173039 -0.089110367 0.99354792 -0.0034689729 0.11336008 0.011044365
-0.38211739 0.15411276 -0.088268258 0.89140999 0.17419665 -0.41838226 0.031141955
-0.37800065 0.15271696 -0.082183346 0.84192163 0.15788224 -0.51598567 0.02944582
-0.26525691 0.1553095 -0.080307886 0.82681364 -0.14317951 0.54394746 0.035594042
-0.25922868 0.15091446 -0.089962885 0.91005385 -0.18701403 0.36990234 0.0406873
0.23239033 0.15447903 -0.083679333 -0.85442299 -0.090869077 0.51157039 0.014787405
0.34810215 0.1552949 -0.082533836 -0.86218673 0.066864274 -0.5021584 0.014656345
0.35079324 0.15146361 -0.085908271 -0.87789363 0.11233571 -0.46549276 0.021407781
0.49929351 0.15691882 -0.084859267 -0.85242295 0.014876627 0.5226413 0.041891083
-0.38151056 0.16579509 -0.086678423 0.89296055 0.033068832 -0.44891861 0.081241488
-0.37674227 0.16911013 -0.080605395 0.83150309 -0.0099597536 -0.55543077 0.11126547
-0.26357704 0.16622686 -0.082414351 0.84299916 -0.076616131 0.53243059 0.10026123
-0.25925583 0.16276464 -0.089843884 0.92061359 -0.022989774 0.38979739 0.06632226
0.22951856 0.16012731 -0.087913238 -0.91401845 -0.058870897 0.40137812 0.02042844
0.23335266 0.1673425 -0.0824726 -0.84949261 -0.025399575 0.52698874 0.12324956
0.34814 0.16474611 -0.082581282 -0.86328965 0.066319406 -0.50033265 0.078219093
0.35191184 0.16601741 -0.088020027 -0.8981908 0.061388105 -0.43529862 0.08008685
0.4966979 0.16189553 -0.089855865 -0.81777018 -0.055747855 0.57283854 0.044433139
-0.49959621 0.17395118 -0.084214881 0.92287701 -0.37885863 -0.069023013 0.058239818
-0.38153648 0.17336579 -0.086643182 0.8762067 0.21419524 -0.43171996 0.22100465
-0.37748995 0.17653456 -0.081542976 0.76755494 -0.23335761 -0.59699553 0.27563438
-0.26303285 0.17419505 -0.083096743 0.86367381 -0.15740596 0.4788433 0.21795544
-0.25943679 0.17119038 -0.089051157 0.90508264 -0.055922847 0.42154241 0.19042292
0.22980958 0.17205444 -0.086915478 -0.81610125 -0.10073502 0.56906158 0.19507743
0.23068438 0.17315555 -0.085818522 -0.86964673 0.070948839 0.48854965 0.18477626
0.34835845 0.17164814 -0.082855187 -0.84942353 0.10956974 -0.51621133 0.13420403
0.35222375 0.1730931 -0.08938662 -0.94332826 0.11117226 -0.31268585 0.16514458
0.49927643 0.17080647 -0.085799053 -0.85744095 -0.25954643 0.44433182 0.056554452
-0.49053055 0.18676162 -0.086165607 0.49126828 -0.87099493 0.0048315288 0.062762558
-0.48387709 0.18676162 -0.083831914 0.37172556 -0.92833489 -0.0038010583 0.050009765
-0.46479338 0.18676162 -0.085242555 -0.0012817453 -0.99729943 0.073431648 0.0025955287
-0.45488325 0.18676162 -0.084438287 -0.0025310365 -0.99811047 0.061393637 0.0023383896
-0.44670528 0.18676162 -0.084245883 -0.0022566123 -0.99914545 0.041270033 0.0010284627
-0.42578858 0.18676162 -0.085768715 -0.00343715 -0.99825358 0.058974277 0.0025632968
-0.41596383 0.18676162 -0.085727982 -0.00331196 -0.99781239 0.066026181 0.0031733103
-0.40692729 0.18676162 -0.084356338 -0.093893357 -0.99263364 0.076567166 0.014987456
-0.39601883 0.18676162 -0.086272031 -0.21085297 -0.96963125 0.12392028 0.081435159
-0.38348517 0.18591067 -0.085012034 -0.089061663 -0.99535316 0.036608092 0.11344008
-0.37646908 0.18369704 -0.082448028 0.0293341 -0.99919558 -0.027345603 0.16178013
-0.36650601 0.18676162 -0.083790556 0.17986168 -0.98071402 -0.076483928 0.083715826
-0.35559642 0.18676162 -0.084099732 0.16041364 -0.98346168 -0.084085658 0.049399994
-0.34604692 0.18676162 -0.08211191 0.059139229 -0.99159777 -0.11504966 0.017062448
-0.3355307 0.18676162 -0.083891563 7.4545991e-05 -1 2.093313e-05 0
-0.32389125 0.18676162 -0.083473615 7.11666e-05 -0.9999972 -0.0023697233 1.5253822e-05
-0.31343129 0.18676162 -0.084037274 0.00017284046 -0.9999938 -0.0035122074 3.8182337e-05
-0.30576283 0.18676162 -0.086199969 1.7955106e-05 -1 9.8747307e-07 0
-0.29681396 0.18676162 -0.082312115 -0.08325053 -0.98998821 -0.11398559 0.020519443
-0.28476435 0.18676162 -0.085283376 -0.23521705 -0.95411956 -0.18528034 0.055525143
-0.27482289 0.18676162 -0.085894451 -0.25970659 -0.93869108 -0.22674093 0.1315756
-0.26326224 0.18596791 -0.08561936 0.086160384 -0.99602604 -0.022547873 0.14099467
-0.25089878 0.18676162 -0.084220067 0.14996594 -0.98730105 0.052410945 0.085520245
-0.24473044 0.18676162 -0.083585106 0.23709199 -0.96533924 0.10912138 0.061707813
-0.237707 0.18676162 -0.085943058 0.10819873 -0.99097717 0.079103522 0.025813889
-0.2249383 0.18676162 -0.084698997 -0.0086732479 -0.9979521 0.06337475 0.0023525248
-0.21510573 0.18676162 -0.084426634 0.0025444536 -0.99847192 0.055202361 0.0024837446
-0.20507026 0.18676162 -0.083905868 0.00056424446 -0.99909484 0.042534072 0.0014385007
-0.19337928 0.18676162 -0.084933385 0.0040071364 -0.99634767 0.085295022 0.0035097259
-0.18463373 0.18689813 -0.086167894 -0.0025742417 -0.9956454 0.093185745 0.0039779162
-0.17480189 0.18676162 -0.084262341 0.004919685 -0.99879003 0.048932794 0.0021026998
-0.16421115 0.18692087 -0.082259096 0.0024311855 -0.99913424 0.041531943 0.0017618088
-0.15509041 0.18684125 -0.084814474 0.0026845899 -0.99722582 0.074387223 0.0031330062
-0.14276172 0.18697397 -0.084694177 0.0019422395 -0.99833673 0.057618439 0.0025092165
-0.13262087 0.18676162 -0.084348656 0.0065873507 -0.99742627 0.071395703 0.0030685852
-0.12372393 0.18685262 -0.085862227 0.0015640893 -0.99737477 0.072396226 0.0030418369
-0.11559986 0.18682532 -0.084963202 -0.0040955953 -0.99801284 0.06287875 0.0026252354
-0.10509364 0.18676162 -0.082625329 0.0023192747 -0.9992407 0.038892429 0.0013944012
-0.094076164 0.18694364 -0.087016858 0.0055840057 -0.99678016 0.079988062 0.0034081873
-0.083506048 0.18684125 -0.083908834 0.010334842 -0.99916536 0.039518919 0.0017059932
-0.076574981 0.18676162 -0.087614484 0.00700102 -0.99344367 0.11410798 0.0059106746
-0.06673222 0.18676162 -0.085461579 -0.0064762547 -0.99677652 0.07996659 0.0040829484
-0.053473633 0.18686779 -0.086800791 0.00027063719 -0.99708074 0.076353349 0.0034066122
-0.043998141 0.18676162 -0.085298844 -0.0038050902 -0.99905056 0.043400921 0.0020225695
-0.032490436 0.18676162 -0.086826026 0.016418081 -0.99582422 0.089802377 0.0035636271
-0.024660243 0.18676162 -0.08392249 -0.0015854703 -0.99812621 0.061168101 0.0024835027
-0.014164126 0.18676162 -0.080953389 -0.0014272451 -0.99981225 0.019325301 0.00042607923
-0.0046289251 0.18676162 -0.085395388 0.0041992995 -0.99771905 0.067373097 0.0021719176
0.0052501368 0.18678816 -0.086920463 0.0021794988 -0.99723184 0.074322633 0.0028234369
0.016370527 0.18681471 -0.085426986 0.0035499583 -0.99873674 0.050122593 0.001806078
0.024777561 0.18676162 -0.085515924 -0.0012318811 -0.99719876 0.074787147 0.0032759884
0.03523029 0.18680143 -0.084161155 0.0050633275 -0.99805379 0.062152911 0.00268582
0.044368356 0.18676162 -0.08345598 -0.0030434062 -0.99964941 0.026304897 0.00048494444
0.057303414 0.18684125 -0.084896833 -0.0025248602 -0.99860936 0.052658014 0.0021894155
0.064052038 0.1868324 -0.085711583 0.0007504645 -0.99831641 0.057998661 0.0022454388
0.078689054 0.18676162 -0.084335387 0.0042501329 -0.99888718 0.046970725 0.0024814322
0.086436488 0.1869064 -0.086510934 0.0046910909 -0.99852109 0.054163367 0.0022586694
0.095215909 0.18676162 -0.08558166 -0.0079587484 -0.99844086 0.055249099 0.0024486165
0.10473002 0.18680713 -0.085189477 0.0051471828 -0.99769872 0.067607768 0.0027421096
0.11337534 0.18681471 -0.087533511 -0.0015099479 -0.99715638 0.075344838 0.003478793
0.1225385 0.18676162 -0.087405145 -0.0063871536 -0.99672717 0.080585919 0.0036629797
0.13701899 0.18708013 -0.086326636 -0.0009890846 -0.99706614 0.076538436 0.0036123598
0.14376692 0.18676162 -0.085959233 0.0080469092 -0.9970578 0.076230146 0.0035606583
0.15493551 0.18676162 -0.087128714 -0.0032904793 -0.99807763 0.061889306 0.0033454527
0.16461605 0.18676162 -0.083241716 -0.0032560662 -0.99953365 0.030361867 0.0017691765
0.17371708 0.18676162 -0.085170314 0.0038321279 -0.99867934 0.051234584 0.0029346026
0.1861361 0.18676162 -0.085514814 -0.0064791124 -0.99894911 0.045373794 0.001810011
0.19587046 0.18693858 -0.084086776 -0.0067359908 -0.99897593 0.044739842 0.0018886587
0.20396458 0.18681471 -0.085160099 -0.11167163 -0.9910031 0.073771648 0.018416297
0.21475716 0.18676162 -0.085203819 -0.21692748 -0.97477156 0.052563261 0.060357071
0.22811928 0.18449336 -0.088553429 -0.054622971 -0.99823672 -0.023230886 0.1238833
0.23481555 0.18505792 -0.083272807 -0.0015417773 -0.99874288 -0.050103482 0.17484228
0.24607475 0.18676162 -0.084231474 0.29218549 -0.94122905 -0.16945656 0.10901675
0.25651959 0.18676162 -0.081778377 0.21178249 -0.96342164 -0.16421607 0.079481773
0.26567361 0.18676162 -0.085406356 0.066810705 -0.99601853 -0.059020154 0.012862436
0.27518108 0.18676162 -0.085231818 0.0033900414 -0.99997634 -0.0059740841 0.00013485247
0.28282413 0.18676162 -0.084523953 4.1330492e-07 -1 8.6624159e-06 0
0.29612565 0.18676162 -0.085047133 -1.7058455e-05 -1 -6.194665e-07 0
0.30532393 0.18676162 -0.08486253 -2.2043303e-06 -1 -1.8600096e-05 8.7739854e-06
0.31637526 0.18676162 -0.085649505 -0.050644398 -0.99765402 -0.046060462 0.014331804
0.32003108 0.18676162 -0.086181246 -0.092571333 -0.991193 -0.094694942 0.030360814
0.33768016 0.18676162 -0.08736629 -0.20087512 -0.97429526 -0.10196984 0.10953706
0.34701988 0.18526047 -0.083403736 -0.040091716 -0.99918556 -0.0045775464 0.17866571
0.3545261 0.18513854 -0.085838966 0.18904418 -0.97945607 0.070200108 0.16704524
0.36489004 0.18676162 -0.086309768 0.22371057 -0.96388924 0.14446867 0.07893464
0.37591305 0.18676162 -0.086110972 0.085163862 -0.99151647 0.098194644 0.017465461
0.38497648 0.18676162 -0.085860915 8.2111859e-05 -0.99791098 0.064603642 0.0030837546
0.39690167 0.18676162 -0.08334215 0.0017541009 -0.99959737 0.028319582 0.0010394959
0.40618545 0.18676162 -0.084449872 -0.0062558353 -0.99637401 0.084850989 0.006721253
0.4109405 0.18676162 -0.083985418 -0.0038925614 -0.99650097 0.083491117 0.0075456649
0.42434707 0.18676162 -0.084158309 -0.010220804 -0.99099445 0.13351244 0.020089315
0.43507117 0.18676162 -0.082945451 -0.017298132 -0.992226 0.12324049 0.01460696
0.44222221 0.18676162 -0.084325999 -0.021188825 -0.99341393 0.11260506 0.014053188
0.45292222 0.18676162 -0.087465964 -0.029768856 -0.94936275 0.31276852 0.059898954
0.46467695 0.18676162 -0.084482476 -0.060341623 -0.97013676 0.23493291 0.041603737
0.47425058 0.18676162 -0.085970469 -0.17522986 -0.88844228 0.42422268 0.084726334
0.48216629 0.18676162 -0.086219765 -0.35653821 -0.86026347 0.36445469 0.070516542
0.49937919 0.1844894 -0.080149367 -0.80225945 -0.54173326 0.25080872 0.062653653
-0.49671936 -0.1854358 -0.072712116 0.78566897 0.55248278 -0.27836496 0.078491151
-0.48315844 -0.18749686 -0.077997029 0.34565628 0.93490046 -0.080516011 0.053951081
-0.47601184 -0.18749686 -0.072471067 0.19711062 0.97338915 -0.11687972 0.042268369
-0.46409932 -0.18749686 -0.075846314 0.012271448 0.99992234 0.0021582404 0.00073933782
-0.45403764 -0.18749686 -0.075335488 2.9528695e-05 1 -1.4741674e-06 0
-0.44279498 -0.18749687 -0.077176787 -0.00074751483 0.99993265 0.011584956 0.00021264794
-0.43204492 -0.18749686 -0.077366471 0.00098095904 0.99997306 0.007276719 0.00016327706
-0.42105353 -0.18749687 -0.075472847 -0.001063307 0.9999904 0.0042483783 6.1859871e-05
-0.41530699 -0.18749687 -0.076772258 -0.0030223038 0.99995929 0.0085028419 0.00012740729
-0.40429139 -0.18749687 -0.07369113 -0.0470802 0.99855387 0.025954908 0.0088096466
-0.39319026 -0.18749686 -0.075134479 -0.11636672 0.99007827 0.0787642 0.040091638
-0.38344574 -0.18749686 -0.073725834 -0.076806583 0.9772619 0.19763577 0.10412285
-0.37413612 -0.18507299 -0.077720955 0.081514366 0.99629182 -0.027532607 0.14745939
-0.36488783 -0.18749686 -0.075195961 0.10633155 0.99233776 -0.062923804 0.11657183
-0.35434401 -0.18749686 -0.074995518 0.11614777 0.97683734 -0.17971803 0.090928636
-0.34473318 -0.18749687 -0.074370451 0.13930376 0.9445678 -0.29729792 0.072254017
-0.33659112 -0.18749687 -0.07502199 0.043208096 0.9938246 -0.10220393 0.02387782
-0.32500815 -0.18749684 -0.073297091 -0.0014735822 0.99407709 -0.10866765 0.021150626
-0.3151677 -0.18749684 -0.074755453 0.0018502056 0.99295872 -0.11844631 0.01922627
-0.30459225 -0.18749686 -0.074845076 -0.060848657 0.98686838 -0.14962731 0.02842636
-0.2963492 -0.18749686 -0.076019213 -0.14491132 0.96684283 -0.21027535 0.047400292
-0.28930366 -0.18749687 -0.07409443 -0.14009647 0.9502396 -0.27824026 0.099488497
-0.27297729 -0.18613283 -0.075082295 -0.075093888 0.99329144 -0.087937817 0.18079399
-0.26539356 -0.18434851 -0.072843075 0.37316275 0.88755572 0.27017474 0.18559156
-0.25619403 -0.18749686 -0.073731251 0.24110599 0.95899194 0.14900485 0.099114306
-0.24590099 -0.18749686 -0.07594151 0.16768773 0.97708642 0.13108365 0.055197354
-0.23541671 -0.18749686 -0.075321056 0.014958899 0.99986798 0.0063529974 0.00063042337
-0.22661561 -0.18749686 -0.078248911 -0.0027491327 0.99996567 0.0078190295 9.916303e-05
-0.21723965 -0.18749687 -0.073698781 1.3616386e-07 1 -4.1514536e-06 0
-0.1949774 -0.18749686 -0.074114554 1.7465149e-05 1 -2.3766008e-08 0
-0.18475743 -0.18749687 -0.075968578 0.0009415992 0.99998581 0.0052481084 2.7263366e-05
-0.17322993 -0.18749684 -0.077768803 0.00069971668 0.99998647 0.0051498269 4.2324667e-05
-0.16354974 -0.18749684 -0.073973842 2.4322631e-05 0.99999946 0.0010293134 7.6912611e-06
-0.15587661 -0.18749686 -0.078974053 -0.00054121244 0.99996597 0.0082306918 0.00013539243
-0.14213312 -0.18749686 -0.074652776 0.00027604186 0.99999952 0.00091156701 0
-0.13377352 -0.18749686 -0.07397306 0.00088412047 0.99999958 -0.00011952009 0
-0.12287617 -0.18749686 -0.076341137 0.0005944873 0.99999982 -0.00019114907 0
-0.11161876 -0.18760304 -0.073966675 0.0005403423 0.99999982 -0.00019570751 0
-0.10604341 -0.18754993 -0.077129744 0.00017822183 0.99995369 0.0096171368 0.00011607732
-0.094349921 -0.18749684 -0.073201753 0.0007551384 0.99999976 -9.4988434e-05 1.6753071e-05
-0.084844597 -0.18760301 -0.074006371 0.0016335997 0.99999863 0.00028385123 0
-0.07631065 -0.18756054 -0.075469598 0.0020678823 0.9999944 0.002643035 2.6509837e-05
-0.064735122 -0.1877092 -0.074103288 0.0017103005 0.99999833 0.0005970294 1.4673713e-05
-0.053469159 -0.18749686 -0.073664166 -0.00012314002 0.99999958 0.00084746658 1.5862863e-05
-0.047981665 -0.18749686 -0.07353761 -0.00083770294 0.99999911 0.0010787622 8.3341229e-06
-0.034996975 -0.18753226 -0.074949145 -0.0016908635 0.9999907 0.003979241 1.8524292e-05
-0.024486048 -0.18757647 -0.074114799 0.00052427978 0.99999845 0.001674645 1.5021217e-05
-0.017921034 -0.18762425 -0.07721971 0.0005436698 0.99995279 0.0096995579 0.00011778343
-0.0029990252 -0.18757647 -0.072817005 -0.00079264207 0.99999911 0.0010815334 2.4183912e-05
0.0028415381 -0.18758787 -0.075042114 -0.00067171833 0.99999881 0.0013621396 1.6096734e-05
0.016703473 -0.18762425 -0.075727269 -0.00048559243 0.99997848 0.0065371785 0.00014778679
0.020290283 -0.18749686 -0.073770389 -0.00048845733 0.99999988 0.00025012286 9.0576186e-06
0.035318013 -0.18749686 -0.073952362 0.0004793363 0.99999869 0.0015421874 0
0.043814719 -0.18758787 -0.073519625 0.00017911789 0.99999726 0.0023148409 1.3661965e-05
0.056068864 -0.18760303 -0.073722437 -0.0009783546 0.99999738 0.0020714588 3.687153e-05
0.063402213 -0.18760304 -0.072737686 -0.001604783 0.99999863 0.00048883242 2.3189556e-05
0.074025705 -0.18749686 -0.076101705 0.0013076701 0.99995899 0.0089571355 0.00021540877
0.087318227 -0.18749687 -0.075023487 0.00066144648 0.99998134 0.006070334 7.6659577e-05
0.095950343 -0.18767381 -0.075961687 0.00049858663 0.99997658 0.0068233889 9.4874835e-05
0.10412978 -0.18749687 -0.074564651 0.00066196785 0.99999934 0.00091680943 0
0.11480682 -0.18749686 -0.075855732 -0.0003814724 0.99998915 0.0046363622 4.7402304e-05
0.1253131 -0.1876561 -0.075243711 0.0013993602 0.99999124 0.0039389539 6.5872708e-05
0.13745816 -0.1876561 -0.07076513 0.0013515337 0.99999893 -0.00054795435 1.6631362e-05
0.1437455 -0.18757649 -0.076019175 0.00065788202 0.99999952 0.00079282461 1.7010763e-05
0.15429549 -0.18753226 -0.074541889 -0.00029300232 0.9999994 0.0010595866 3.6965197e-05
0.16499268 -0.18757649 -0.077086389 0.00075164618 0.99986821 0.016216807 0.00027537593
0.17596497 -0.18756056 -0.074702859 -0.00038427103 0.99999923 0.0011970712 1.7128576e-05
0.18386094 -0.18758787 -0.07426583 0.00049530249 0.99999857 0.0015873936 7.5072408e-06
0.19452591 -0.18749686 -0.076630495 -0.0019092615 0.99992305 0.012254101 0.00016724253
0.20492868 -0.18763335 -0.076316319 -0.019803487 0.99960804 0.019789394 0.00064075581
0.21465427 -0.18749686 -0.074572086 -0.14838763 0.98482519 0.090002246 0.037601661
0.22135769 -0.18749686 -0.071589664 -0.20338511 0.96877974 0.1417757 0.06619709
0.23784459 -0.18375377 -0.076839902 0.064104617 0.99342495 -0.094854504 0.2341035
0.24364173 -0.18619296 -0.074469909 0.012803658 0.99864691 -0.050403528 0.1324615
0.25651923 -0.18749686 -0.076235622 0.2137069 0.96496379 -0.15223075 0.091017194
0.26280829 -0.18749686 -0.078599773 0.10762628 0.98137951 -0.15909381 0.038972046
0.27538913 -0.18749687 -0.076369144 0.082918294 0.99120951 -0.10309266 0.023105871
0.28410935 -0.18749686 -0.07757061 0.0069791027 0.99986279 -0.015024262 0.00028698056
0.29387486 -0.18749686 -0.075362921 -0.01088508 0.99848193 -0.053994883 0.0076973466
0.30503333 -0.18749686 -0.072330207 -0.093052998 0.97655559 -0.19411434 0.054709535
0.31363907 -0.18749686 -0.073710337 -0.09404768 0.96207774 -0.25604972 0.060478456
0.32407612 -0.18749686 -0.070555523 -0.19742563 0.96596587 -0.16713202 0.14899981
0.33586681 -0.18645166 -0.076810375 -0.17080228 0.98212701 -0.079076663 0.13326885
0.34306875 -0.18593419 -0.076563045 -0.054302379 0.99851233 0.0049338937 0.14857271
0.35658866 -0.18749684 -0.072595157 0.22070526 0.96463597 0.14410622 0.08921019
0.36550388 -0.18749686 -0.074700654 0.15486141 0.98281783 0.10043442 0.049142729
0.3776812 -0.18749686 -0.078524373 0.049239211 0.99843776 0.026410326 0.0059153065
0.38337317 -0.18749686 -0.073910862 7.0345239e-05 1 -1.0285125e-05 8.2976358e-06
0.39941373 -0.18749686 -0.072902136 6.4898653e-05 1 -1.0350773e-05 8.5164147e-06
0.40212333 -0.18749686 -0.07633847 -0.00023887456 0.99999613 0.0027526976 3.6515357e-05
0.41416913 -0.18749686 -0.07438761 6.0157828e-07 1 9.4153202e-06 0
0.42671052 -0.18749684 -0.076675251 0.00043822255 0.99997497 0.0070585338 0.00013081703
0.43010229 -0.18749686 -0.076362282 2.8474069e-05 1 -7.6139313e-06 8.6078935e-06
0.44437802 -0.18749686 -0.073484987 0.00011134798 1 9.3044891e-06 0
0.45664814 -0.18749684 -0.07493601 -0.005982582 0.99940717 0.033903807 0.0025447211
0.46448442 -0.18749686 -0.076847017 -0.013322374 0.9955833 0.0929325 0.015902428
0.47373849 -0.18749687 -0.07515569 -0.072688319 0.98822969 0.13460518 0.025040127
0.48423997 -0.18749686 -0.075403728 -0.34017056 0.93643266 0.085893355 0.054982383
0.4958218 -0.18634728 -0.074608207 -0.73678046 0.66641927 0.11419224 0.07004673
-0.49934965 -0.17671697 -0.07485114 0.88165122 0.38855782 -0.26779461 0.061978314
-0.37279993 -0.17445543 -0.075661831 0.76101321 -0.087434173 -0.64281738 0.19752888
-0.36918294 -0.17588167 -0.071126342 0.70430702 0.093473226 -0.70371461 0.22756475
-0.27184036 -0.17347853 -0.072052486 0.71621108 0.041265689 0.69666266 0.16732442
-0.26589835 -0.17557125 -0.079503529 0.84855312 -0.010857947 0.52899885 0.15931559
0.23714264 -0.17657174 -0.077720135 -0.8111645 0.13060139 0.57004857 0.2547459
0.24164368 -0.17413467 -0.072076015 -0.72117537 -0.042147867 0.69146919 0.16879398
0.33839732 -0.17386803 -0.070364326 -0.75962812 0.0067510386 -0.65032268 0.14932194
0.34385574 -0.17148165 -0.077208944 -0.78489316 -0.096875258 -0.61201137 0.15175711
0.4994278 -0.17101459 -0.077474818 -0.9549312 0.18457617 0.23246093 0.031546075
-0.49940383 -0.16629252 -0.076907128 0.95910043 0.18085365 -0.21775784 0.039761238
-0.2732321 -0.16503765 -0.070307314 0.7149452 0.058637228 0.69671732 0.075510062
-0.26849377 -0.16628252 -0.076248974 0.79941112 -0.0071397335 0.60074198 0.08876209
0.23535757 -0.16738534 -0.079958551 -0.82650357 0.01392336 0.56275916 0.14263529
0.24077064 -0.1659876 -0.073170759 -0.74455225 0.068181619 0.66407323 0.097940952
0.342673 -0.16499673 -0.075725891 -0.80970925 0.010466683 -0.58673793 0.065217279
0.4994503 -0.16101253 -0.076238409 -0.9755078 0.043768104 0.21556629 0.017971715
-0.49933022 -0.15397999 -0.07411059 0.94408363 0.021929312 -0.32897598 0.024474697
-0.37210068 -0.15464592 -0.074785054 0.74606812 -0.14266013 -0.65040797 0.025904594
-0.36900783 -0.15088566 -0.070906743 0.67294735 -0.20559125 -0.71054494 0.032351982
-0.26775366 -0.1550425 -0.077177055 0.77070653 0.18830207 0.60873121 0.031917747
0.2376436 -0.15437943 -0.077091962 -0.79217929 0.16638312 0.58717006 0.039850242
0.24243827 -0.15607843 -0.071079634 -0.72264099 0.091983818 0.68507582 0.016807698
0.3386336 -0.15100342 -0.070660621 -0.66981131 -0.28737503 -0.68466657 0.053989585
0.34301761 -0.15316965 -0.076157995 -0.76840097 -0.17839439 -0.61460179 0.034633882
0.49950588 -0.15390895 -0.07318408 -0.98284078 0.015964147 0.18376397 0.018405866
-0.49932542 -0.14770328 -0.073929213 0.95189726 -7.6417149e-05 -0.30641717 0.02389453
-0.37380689 -0.14692155 -0.076924562 0.76411593 -0.34958184 -0.54214334 0.078796387
-0.27086315 -0.14715183 -0.073277913 0.69262928 0.36009634 0.62497616 0.066676795
-0.26778942 -0.14690852 -0.07713221 0.73753381 0.3506988 0.5771085 0.066194043
0.23876905 -0.14771339 -0.075680673 -0.75837559 0.26537907 0.59534895 0.065151349
0.24161391 -0.14519945 -0.07211335 -0.68086737 0.3320514 0.65281039 0.06349659
0.33952475 -0.14106877 -0.071778066 -0.62783402 -0.50904059 -0.5888142 0.066729188
0.34498498 -0.14645019 -0.078624964 -0.79247403 -0.2810896 -0.54127026 0.056319494
0.49943605 -0.14496723 -0.077021345 -0.96798289 -0.0003141207 0.2510159 0.017791402
-0.49939519 -0.13495041 -0.076578751 0.97776276 0.015014694 -0.20917577 0.026867351
-0.37261903 -0.13689791 -0.075583868 0.58088124 -0.67001653 -0.46222809 0.083160654
-0.36696848 -0.13441055 -0.073893555 0.48296106 -0.7583757 -0.43773842 0.068629622
-0.35414267 -0.13441055 -0.074295945 -0.34364378 0.86090606 0.37516618 0.071731329
-0.34506178 -0.13441055 -0.074040212 -0.19233252 0.94214547 0.27453622 0.06560979
-0.33307964 -0.13441055 -0.073942572 -0.040011678 0.98512095 0.16713972 0.024317859
-0.32265469 -0.13441055 -0.076939486 0.0021744722 0.99574745 0.092099831 0.015762936
-0.31183743 -0.13441055 -0.074614346 0.0053829895 0.99227506 0.1239402 0.019456457
-0.30570418 -0.13441055 -0.076310553 0.053955398 0.99307668 0.1043434 0.017085377
-0.29793772 -0.13441055 -0.075203471 0.14594592 0.96442574 0.22041512 0.049958915
-0.28347465 -0.13441055 -0.076396361 0.28554013 0.89381832 0.34576815 0.079769209
-0.2742162 -0.13441055 -0.076178998 0.48621494 0.79125017 0.37083435 0.088869087
-0.26815587 -0.1399435 -0.076672733 0.70966488 0.46484309 0.52943039 0.071872413
0.23727377 -0.13631529 -0.078248404 -0.60148311 0.67495 0.4273881 0.095036253
0.24604923 -0.13441055 -0.073572934 -0.41282427 0.78896052 0.45510161 0.079949521
0.25661999 -0.13441053 -0.074742734 -0.28517511 0.89056289 0.35436267 0.086576678
0.26353025 -0.13441055 -0.073007874 -0.14019156 0.95157641 0.27358466 0.054061938
0.27369842 -0.13441055 -0.074534535 -0.096473321 0.9706589 0.22025941 0.043498334
0.28726211 -0.13441055 -0.0744702 -0.016357601 0.99510127 0.097498305 0.014851244
0.29632705 -0.13441055 -0.07616958 -0.019099209 0.99475873 0.10045022 0.014448022
0.30385724 -0.13441055 -0.0752865 -0.0021272183 0.99524778 0.097351409 0.013471108
0.31546417 -0.13441053 -0.075484961 0.14759929 0.96921331 0.19707897 0.048883237
0.32478157 -0.13441055 -0.070845596 0.29953754 0.88275671 0.3619639 0.084064119
0.33373016 -0.13441055 -0.077240996 0.32429364 0.91876853 0.22516227 0.053260837
0.34317064 -0.13798583 -0.076349869 -0.6275152 -0.61903638 -0.47224844 0.080824867
0.49944273 -0.13669096 -0.076656327 -0.96568382 0.0044788709 0.25968209 0.017649436
-0.49931186 -0.12435067 -0.07341361 0.93746912 -0.018433824 -0.34757996 0.025709663
0.49951571 -0.12646733 -0.072643369 -0.98997748 -0.00033711272 0.14122491 0.012450168
-0.49940789 -0.11208983 -0.077062711 0.97471714 0.0026892645 -0.22342618 0.031097231
0.49947098 -0.1157908 -0.075101316 -0.98075026 0.011856681 0.19490613 0.014786729
-0.49930531 -0.10630354 -0.073164023 0.9495436 -0.022390693 -0.31283492 0.021608278
0.49948218 -0.10648674 -0.074486263 -0.97927743 0.022618992 0.20125629 0.021615244
-0.49929118 -0.095028989 -0.072628051 0.94826895 -0.043733902 -0.31444123 0.021891547
0.49945998 -0.095706865 -0.075704448 -0.97410536 -0.017636599 0.22540569 0.024900297
0.49952328 -0.085420288 -0.072226316 -0.99672306 0.012004608 0.079994284 0.0059831901
-0.49935269 -0.071278796 -0.074964583 0.95068377 0.0099826735 -0.3100009 0.019702094
0.49944991 -0.073410027 -0.076260068 -0.97875619 0.013277446 0.20459704 0.02035314
-0.49935371 -0.062276028 -0.075003818 0.96548724 0.049292717 -0.25574321 0.022628643
0.49946833 -0.065084137 -0.075247258 -0.97989088 -0.0074162185 0.19939595 0.02018013
-0.49933967 -0.055469874 -0.07446935 0.95095044 0.017515874 -0.3088468 0.023796236
0.49941638 -0.055300917 -0.078104459 -0.95908469 -0.022944685 0.28218812 0.028388485
-0.49937889 -0.043017674 -0.075960167 0.96784055 -0.011805384 -0.25128728 0.02238014
0.49952254 -0.046325397 -0.072266996 -0.98852742 -0.010948713 0.15064417 0.009075556
-0.49928975 -0.034662221 -0.072573088 0.93672264 -0.028723098 -0.34889221 0.023112325
0.49949852 -0.036809742 -0.073588304 -0.98514187 0.0067056315 0.17161153 0.014351041
-0.4993397 -0.024245145 -0.074471839 0.96219665 -0.0066935457 -0.27227354 0.022721302
0.49950418 -0.026309246 -0.073276274 -0.98725754 -0.0084027667 0.15890861 0.013084391
-0.49947605 -0.01485617 -0.07965105 0.9884572 0.0017798208 -0.15148988 0.018533446
0.49949691 -0.015611707 -0.073676042 -0.98201764 -0.00065172074 0.18878818 0.013684048
0.49944252 -0.009743847 -0.07666745 -0.9642483 -0.0047708233 0.26495749 0.020734085
-0.49942231 0.0040814835 -0.077609323 0.97936869 -0.011572251 -0.20174995 0.028914765
0.49951285 0.0055944063 -0.072799146 -0.98648071 -0.010887046 0.16351525 0.013244884
-0.4993633 0.013607845 -0.075368904 0.96484262 0.016266154 -0.26232442 0.027089754
0.4995147 0.013765238 -0.072698355 -0.99160951 0.005167651 0.12916623 0.0099230744
-0.49933314 0.024230719 -0.074222259 0.95915037 -0.0056087673 -0.28284091 0.021426031
0.4994626 0.025106736 -0.075560942 -0.97154093 0.0097081596 0.23667276 0.01759447
-0.4993045 0.034412324 -0.073134646 0.94901401 0.01886205 -0.31466919 0.022390241
0.4994958 0.03358512 -0.073736355 -0.98426855 -0.018096827 0.17574947 0.014566211
-0.49927285 0.048438076 -0.071932144 0.95068729 -0.0097078644 -0.30999899 0.022366323
0.49947557 0.045219861 -0.074852489 -0.97289062 0.0034147995 0.23124063 0.015173079
-0.49940246 0.050403222 -0.076855779 0.97713852 -0.025118686 -0.21111442 0.023111492
0.49947491 0.05374245 -0.074885383 -0.97650295 0.0062684799 0.21541281 0.011838688
-0.49934307 0.064262331 -0.074599572 0.95400506 -0.0012298553 -0.29978791 0.019844519
0.49946347 0.067840315 -0.075514942 -0.97772539 0.027081769 0.20813373 0.016959229
-0.49931812 0.072800517 -0.073651537 0.94990975 -0.029250858 -0.3111527 0.020585142
0.4994866 0.074808806 -0.074242525 -0.98659158 0.019687483 0.16201709 0.014728551
-0.4993569 0.082818098 -0.075125806 0.96076429 0.020758126 -0.27658829 0.023291936
0.49946806 0.085022986 -0.075264387 -0.98073769 0.038300026 0.1915376 0.020376084
-0.4993442 0.0946915 -0.074641898 0.96325427 0.010484156 -0.26838624 0.022747215
0.49940181 0.096913397 -0.07890486 -0.94806385 -0.0018637002 0.31807455 0.031036014
-0.49933273 0.10451309 -0.074204817 0.95024902 -0.016266812 -0.31106639 0.020548299
0.49939162 0.10243937 -0.079465389 -0.94818348 -0.00070257083 0.31772238 0.030463263
-0.49928802 0.11828739 -0.072508305 0.94591838 0.011859217 -0.32418776 0.022053175
0.49946326 0.11373104 -0.075525261 -0.97732407 -0.0087238392 0.211569 0.015753966
-0.49938208 0.12463011 -0.076080471 0.97349244 -0.027690606 -0.22703691 0.022899544
0.49950162 0.12565391 -0.073418453 -0.98053521 -0.014883231 0.19577813 0.017689489
-0.49939874 0.1365298 -0.076714016 0.97671187 0.028932424 -0.21259569 0.026524112
-0.37210444 0.1361099 -0.075193033 0.54103875 0.69670075 -0.47104695 0.066903584
-0.36471328 0.13367532 -0.077574767 0.42250338 0.81896913 -0.38830453 0.077050626
-0.35218585 0.13367531 -0.075933009 -0.23511183 -0.93125397 0.27836761 0.060808022
-0.34462094 0.13367531 -0.074381538 -0.1522803 -0.93727666 0.31356522 0.052046545
-0.32713246 0.13367531 -0.071579799 -0.0039859544 -0.97800845 0.20852727 0.032192405
-0.31628752 0.13367531 -0.074341692 0.00094717753 -0.99030256 0.13892445 0.016282942
-0.30287537 0.13367531 -0.078651428 0.045518901 -0.99193609 0.11828282 0.017835995
-0.2940945 0.13367531 -0.075432941 0.14979018 -0.94978315 0.27472693 0.054439053
-0.28414384 0.13367531 -0.075276121 0.31268775 -0.85957539 0.40417382 0.075948358
-0.27466184 0.13508679 -0.074883111 0.51982731 -0.66304541 0.53865618 0.084047183
-0.26824299 0.13620184 -0.077526234 0.61898047 -0.62334532 0.47781155 0.0944677
0.24334998 0.1348287 -0.073959634 -0.54415542 -0.71243387 0.44309455 0.089410566
0.25740665 0.13367531 -0.07318382 -0.23234634 -0.90820205 0.34811515 0.05804874
0.26501545 0.13367531 -0.074406177 -0.18388101 -0.9397918 0.28806126 0.051758334
0.27442801 0.13367531 -0.074227616 -0.082506023 -0.97657293 0.19874109 0.035815503
0.28449968 0.13367531 -0.07257361 -0.010084048 -0.98767263 0.15620835 0.020938927
0.29345492 0.13367531 -0.075057089 0.0040962379 -0.99288231 0.1190296 0.017046474
0.31559336 0.13367531 -0.072159588 0.17824936 -0.95279467 0.24578366 0.065303572
0.32598567 0.13367531 -0.07448566 0.29953548 -0.85299134 0.42741588 0.08997377
0.33607328 0.1342721 -0.072887883 -0.51559108 0.62285459 -0.58840293 0.082887337
0.34275705 0.13692081 -0.076514632 -0.63234425 0.58897251 -0.50324172 0.08907792
0.49946177 0.13558398 -0.075609453 -0.97312617 0.025292184 0.22887954 0.019323649
-0.49930742 0.1462905 -0.073246323 0.96005034 0.0061210096 -0.27976042 0.019729637
-0.3727057 0.14313817 -0.075543664 0.65821224 0.44911084 -0.60419863 0.073344171
-0.36928827 0.14681093 -0.071258374 0.6655646 0.36120826 -0.65310967 0.057260614
-0.27014464 0.14106707 -0.074178867 0.66026455 -0.44227377 0.60699636 0.074217908
-0.26615223 0.1428172 -0.079185203 0.74760902 -0.43646723 0.50057685 0.075612925
0.23796445 0.14365762 -0.076689616 -0.69886625 -0.45316431 0.55337876 0.077679895
0.24139155 0.14456838 -0.072392181 -0.68033177 -0.42580891 0.59651947 0.071762197
0.33852398 0.14509416 -0.070523158 -0.64631891 0.29318383 -0.70449632 0.055339236
0.34180051 0.14584042 -0.074631833 -0.71173477 0.20920187 -0.67057306 0.03607168
0.49946812 0.14408191 -0.07525862 -0.97883743 0.056193605 0.19677272 0.015621246
-0.49923921 0.15737519 -0.070653543 0.93468595 -0.018446101 -0.35499579 0.023362821
-0.37233636 0.15734279 -0.075080588 0.77926672 0.071160279 -0.6226393 0.011947048
-0.36874869 0.1537611 -0.070581831 0.7049768 0.13019766 -0.69717735 0.020385332
-0.27081695 0.15288158 -0.073335789 0.74725574 -0.1657844 0.643525 0.031306442
-0.26738554 0.15471709 -0.077638648 0.78344691 -0.14346583 0.60467225 0.03542402
0.23659413 0.15407255 -0.078407936 -0.7847743 -0.17586979 0.59430552 0.034962412
0.33891985 0.1552946 -0.071019575 -0.70845592 0.12565231 -0.69447941 0.026629835
0.34124202 0.15519504 -0.073931456 -0.74922127 0.14131716 -0.6470679 0.030182987
0.49947113 0.1573638 -0.075094067 -0.97145009 -0.048965611 0.23213613 0.021766365
-0.49939913 0.16383047 -0.076729029 0.96276891 -0.17414068 -0.20676319 0.030763539
-0.37499708 0.16753712 -0.078416973 0.7675119 0.014313649 -0.64087474 0.10706554
-0.27207884 0.16321641 -0.071753442 0.78058887 -0.011727634 0.62493479 0.058316451
-0.26803488 0.16176793 -0.076824419 0.80662757 -0.019345345 0.59074336 0.023321131
0.23854084 0.16346209 -0.07596688 -0.7510193 -0.016128665 0.66008329 0.05926507
0.24184421 0.16367757 -0.071824551 -0.74915421 -0.0075498 0.66235262 0.059548337
0.3438603 0.16664796 -0.077214681 -0.83650666 0.035618868 -0.54679781 0.084721997
0.49946532 0.16395821 -0.075412579 -0.96536756 -0.14237705 0.21861887 0.0363212
-0.49937993 0.17420879 -0.075999327 0.91285849 -0.33057842 -0.23959813 0.053728405
-0.37335497 0.17430466 -0.076357856 0.82165527 0.14482783 -0.551278 0.18552773
-0.27016991 0.17575338 -0.074147172 0.63328749 -0.0099502718 0.77385277 0.24928336
-0.26837838 0.17885487 -0.076393709 0.61013991 -0.76322395 0.21264625 0.26009452
0.23601477 0.17166582 -0.079134427 -0.78791809 0.066279188 0.6122027 0.14681111
0.24244626 0.17575003 -0.071069598 -0.77074111 0.22840904 0.59480035 0.21847424
0.33909538 0.17037396 -0.071239658 -0.779275 -0.0064695547 -0.62664866 0.14121237
0.34248978 0.17436144 -0.0754961 -0.73476481 0.08721482 -0.6726917 0.19097553
0.49946943 0.1729527 -0.075187348 -0.93357354 -0.3106527 0.17870492 0.052613225
-0.49775919 0.18578987 -0.075559951 0.73426479 -0.65697122 -0.171009 0.061585307
-0.48414305 0.18676162 -0.075240247 0.37230095 -0.91927767 -0.12775183 0.068297423
-0.47640854 0.18676162 -0.075274259 0.20863196 -0.97343677 -0.094306141 0.041966248
-0.46634546 0.18676162 -0.075691454 0.032155264 -0.99903107 -0.030051315 0.0072989389
-0.45586896 0.18676162 -0.07302916 3.8479589e-05 -1 -1.0983093e-05 9.2123155e-06
-0.44378272 0.18676162 -0.074625961 3.6755959e-05 -1 4.4103631e-06 0
-0.43527281 0.18676162 -0.072344095 6.8857473e-05 -1 2.9273903e-07 0
-0.42499074 0.18676162 -0.07557945 0.00093642145 -0.99996436 0.0083902478 0.00018347944
-0.41131008 0.18676162 -0.073989302 -0.0040586381 -0.99998999 0.0018808828 5.2488813e-05
-0.40486902 0.18676162 -0.077079259 -0.08795663 -0.9957611 0.026897362 0.015261016
-0.39555106 0.18676162 -0.073771268 -0.2037566 -0.97266459 0.11138602 0.051129948
-0.38246071 0.18676162 -0.074240461 -0.082999185 -0.98843682 0.12690081 0.070570417
-0.3769024 0.18637408 -0.076073885 -0.1114333 -0.98966873 0.090213433 0.17427672
-0.36871344 0.18567032 -0.07512258 0.050981436 -0.99659067 -0.064868689 0.13747671
-0.35493934 0.18676162 -0.075648353 0.18234789 -0.94804829 -0.26067951 0.090489581
-0.34616721 0.18676162 -0.079858005 0.083654188 -0.9867388 -0.13909908 0.027355101
-0.33528763 0.18676162 -0.077659369 0.065483034 -0.99283767 -0.099926643 0.016373094
-0.32501024 0.18676162 -0.074717693 -0.0052304729 -0.99477381 -0.10196936 0.013891049
-0.31472617 0.18676162 -0.073733374 -0.019481149 -0.98950374 -0.14318785 0.021064544
-0.30824399 0.18676162 -0.072126888 -0.062635884 -0.98311281 -0.17194755 0.036597118
-0.29517695 0.18676162 -0.077060372 -0.12538826 -0.97291666 -0.19419311 0.034549635
-0.28578258 0.18676162 -0.076673962 -0.13591541 -0.96954054 -0.20376016 0.079843998
-0.27607483 0.18676162 -0.07767123 -0.11248903 -0.97697121 -0.18131065 0.12963961
-0.26680693 0.18455304 -0.077737562 0.16291016 -0.98656893 -0.011917461 0.22517185
-0.2503351 0.18676162 -0.079399057 0.15373725 -0.98154533 0.11372671 0.083472274
-0.2483732 0.18676162 -0.07343664 0.12436433 -0.98828739 0.08843939 0.045893952
-0.23455162 0.18676162 -0.077771209 0.0030235241 -0.99994856 0.0096846754 0.00021269244
-0.2254155 0.18676162 -0.07701315 -0.00085224019 -0.99996829 0.0079152407 0.00013681929
-0.21604156 0.18676162 -0.077706695 0.00074415089 -0.99993074 0.011747394 0.00021518632
-0.20628092 0.18676162 -0.0745451 0.0025093339 -0.99999684 -0.00010166861 4.7981671e-06
-0.19592765 0.18676162 -0.074563183 0.0016455241 -0.99999851 -0.0005612789 0
-0.18491106 0.18692087 -0.075295389 0.0018692138 -0.99997824 0.0063184104 0.00015933394
-0.17539628 0.18676162 -0.07522998 0.0014089798 -0.99999803 -0.0014036859 0
-0.16356118 0.18676162 -0.073361091 -0.00070477661 -0.99999934 -0.00085386256 3.3198077e-05
-0.15454806 0.18693858 -0.075211212 0.00050285313 -0.99999982 0.00023960098 2.6500673e-05
-0.14470749 0.18692088 -0.074476957 0.00047089651 -0.99999964 0.00075306947 0
-0.13595758 0.18676162 -0.077371255 -0.00023298935 -0.9999665 0.0081814285 0.00016174307
-0.12553339 0.18681471 -0.077258632 0.0017551336 -0.99980724 0.019552486 0.00052652333
-0.11374486 0.18692088 -0.073484488 5.9612732e-05 -0.99999982 -0.00058145559 8.6860782e-06
-0.10657793 0.18685262 -0.074027538 -0.0001226262 -0.99999952 -0.00096078624 0
-0.094914436 0.18697397 -0.074381411 -0.0035820974 -0.99999285 -0.0011872503 1.1779143e-05
-0.08565186 0.18676162 -0.077136315 -0.0039926632 -0.99996638 0.0071640015 0.0001301455
-0.078147389 0.18676162 -0.074281871 -0.0011365045 -0.99999779 0.0017742991 3.549461e-05
-0.065906823 0.18676162 -0.075865746 6.6017696e-05 -0.99999601 0.0028307308 4.7057441e-05
-0.054795206 0.18681471 -0.075455956 -0.00016019768 -0.99999958 0.00093403249 1.5514022e-05
-0.046395577 0.18676162 -0.072437704 -0.0011862647 -0.99999934 0.00022447384 0
-0.036912676 0.18676162 -0.075777553 -0.0014054173 -0.99997181 0.0073738573 0.00014492888
-0.02625522 0.18680713 -0.075966701 -0.00025386253 -0.99999142 0.0041443361 4.2618245e-05
-0.015070728 0.18684125 -0.072353765 0.0018322881 -0.99999821 0.00044011869 7.0397896e-06
-0.004368979 0.18692088 -0.07661584 0.0001652111 -0.99997103 0.0076036868 8.2621002e-05
0.0041878284 0.18686779 -0.072735988 0.0013561611 -0.99999899 0.00040866542 7.6224019e-06
0.015053381 0.18676162 -0.073290378 0.0011187186 -0.9999994 -0.00016339679 2.573518e-05
0.022732522 0.18676162 -0.079936333 0.0028092666 -0.99985451 0.016826833 0.00043070194
0.038160924 0.18686779 -0.076913305 -0.00092722173 -0.99997765 0.0066209342 0.0001286339
0.04390803 0.18702704 -0.073642999 0.00053873885 -0.99999988 7.8286444e-05 0
0.057459917 0.18676162 -0.074189223 -0.0010068697 -0.99999946 0.00027354632 3.5367077e-05
0.063609235 0.18682532 -0.07615082 -0.00058870128 -0.9999671 0.0080854231 0.00013898486
0.078399107 0.18676162 -0.072937503 -0.00036071293 -0.99999911 -0.0012776504 7.7643726e-06
0.084704004 0.18684125 -0.074998222 -0.00061481912 -0.99999976 -0.00049064221 8.0414738e-06
0.095313855 0.18680713 -0.073547877 0.0016701532 -0.99999845 0.00041380673 0
0.10605226 0.18679701 -0.074026003 0.0012349078 -0.99999863 0.0011432919 0
0.11412722 0.18682532 -0.07579267 0.0024450701 -0.99999702 -0.00010740304 4.9759497e-06
0.12583366 0.18676162 -0.075392261 -2.0201111e-05 -0.99999994 -0.00043074071 0
0.13529481 0.18689813 -0.074780904 -0.0018661781 -0.99999267 0.0033551187 5.2850773e-05
0.14189522 0.18692088 -0.075444989 -0.001675715 -0.99999326 0.0032742301 8.6031432e-05
0.15568662 0.18688902 -0.073475137 -0.0029151258 -0.99999559 -0.00056719664 0
0.16615561 0.18682532 -0.07453759 -0.0013468413 -0.99999815 0.0013559654 0
0.17393181 0.18682532 -0.073172241 0.0012948727 -0.99999911 -6.7828354e-05 0
0.18938956 0.18676162 -0.077995375 -0.001275079 -0.99993986 0.010895647 0.0002379057
0.19629675 0.18690318 -0.075952768 -0.00016413248 -1 -1.8575167e-06 0
0.20612283 0.18676162 -0.074826032 -0.023195591 -0.99960917 0.015605027 0.00051703822
0.21104014 0.18676162 -0.077500328 -0.16863643 -0.98336315 0.06751889 0.037722684
0.22631624 0.18676162 -0.074667826 -0.29617772 -0.92410576 0.24146907 0.1412237
0.23435114 0.18676162 -0.076212578 -0.14585334 -0.97933793 0.14008585 0.1771089
0.24466154 0.18593654 -0.075718604 0.19399297 -0.97563428 -0.10249103 0.12435225
0.25483641 0.18676162 -0.073779739 0.16432679 -0.9618091 -0.2189064 0.11860757
0.26604763 0.18676162 -0.075040117 0.10436269 -0.95236081 -0.28656119 0.072966032
0.27357852 0.18676162 -0.07389646 0.0097589921 -0.98225939 -0.1872732 0.042358249
0.28253719 0.18676162 -0.072480187 0.0295683 -0.98723173 -0.15652186 0.033247795
0.30434704 0.18676162 -0.070590131 -0.084259242 -0.97950971 -0.18292357 0.066251598
0.31575584 0.18676162 -0.075551294 -0.11443932 -0.97185713 -0.20590614 0.059397906
0.32623658 0.18676162 -0.076438986 -0.19154832 -0.96492565 -0.1795214 0.093220405
0.33869904 0.18676162 -0.075090781 -0.044218753 -0.99747151 0.055635553 0.136957
0.34449825 0.18577221 -0.074975669 0.030806784 -0.99396986 0.10523727 0.12394279
0.3569428 0.18676162 -0.075491197 0.24127732 -0.95666337 0.16303481 0.086585611
0.36491016 0.18676162 -0.075655565 0.17858644 -0.97732323 0.11378124 0.069384098
0.37664086 0.18676162 -0.076262757 0.011108058 -0.99977839 0.017881177 0.00037416539
0.38422245 0.18676162 -0.074729718 -0.00026012911 -0.99997908 0.0064578033 9.4610717e-05
0.39382842 0.18676162 -0.072442017 -6.9535949e-05 -1 2.1757523e-05 0
0.40104079 0.18676162 -0.073592551 -2.9276318e-05 -1 1.1708963e-05 0
0.41927871 0.18676162 -0.078122705 -0.0017706746 -0.99992037 0.012493854 0.00035996444
0.42361724 0.18676162 -0.07439144 -5.7821624e-05 -1 1.6874299e-05 0
0.43026638 0.18676162 -0.07005015 -0.00015136786 -1 1.5354521e-05 0
0.44528523 0.18676162 -0.073093981 -7.8261066e-05 -1 2.2821834e-05 0
0.45502234 0.18676162 -0.073027141 -7.745708e-05 -1 1.356445e-05 0
0.46352658 0.18676162 -0.074349858 -0.0050907889 -0.99947023 0.032143582 0.0014280529
0.47631165 0.18676162 -0.073641561 -0.15778795 -0.98374206 0.085757963 0.024326477
0.48173624 0.18676162 -0.073898427 -0.28721267 -0.95325279 0.093904167 0.04628149
0.49550292 0.18647678 -0.074437499 -0.71774077 -0.67894483 0.15453832 0.066687644
-0.49638519 -0.1841733 -0.064324774 0.79849827 0.52409309 -0.29618746 0.068549499
-0.48578197 -0.18749687 -0.064075634 0.52041614 0.83048838 -0.19863556 0.081803069
-0.46429119 -0.18749686 -0.066174127 0.088842615 0.99288112 -0.079335161 0.015177826
-0.45368046 -0.18749686 -0.061946347 0.005041603 0.9999845 -0.0023333353 9.65734e-05
-0.4456481 -0.18749686 -0.066210471 -3.602618e-05 1 -3.7016162e-06 0
-0.43494657 -0.18749684 -0.066719577 -3.5364679e-05 1 -9.5799069e-06 8.2130355e-06
-0.42639792 -0.18749684 -0.064071171 -0.00012772586 1 -1.7760638e-05 1.5760437e-05
-0.4169268 -0.18749686 -0.064580843 -5.773703e-05 1 1.9671837e-07 8.2714732e-06
-0.40721411 -0.18749687 -0.065386437 -2.2376213e-07 1 -1.5664726e-05 0
-0.39497057 -0.18749686 -0.066420443 -0.13311672 0.98818886 0.075912677 0.028123869
-0.38698545 -0.18749686 -0.065512411 -0.10583375 0.99096322 0.082408957 0.033858147
-0.37424633 -0.18749684 -0.062789425 -0.13321868 0.98502892 0.10941125 0.082145289
-0.36433774 -0.18580276 -0.0665932 -0.047274511 0.99870348 0.018879257 0.15234704
-0.35592288 -0.18665293 -0.065582089 0.018110236 0.98370039 -0.17890064 0.18304604
-0.34781078 -0.18749687 -0.063169599 0.16366518 0.98179257 -0.09642116 0.14296867
-0.33313859 -0.18749686 -0.063555785 0.037650365 0.98331988 -0.17794549 0.10043237
-0.32557207 -0.18749686 -0.066364095 -0.010075457 0.96579421 -0.25911406 0.087200694
-0.31414351 -0.18749686 -0.06873887 -0.042077024 0.98440176 -0.17082955 0.050868269
-0.30549771 -0.18749686 -0.065576002 -0.12663385 0.9625234 -0.23981801 0.086963162
-0.29352897 -0.18749686 -0.063033871 -0.070217691 0.98831344 -0.1353001 0.12067334
-0.28242442 -0.18606174 -0.062545702 0.010842456 0.97776157 0.20943898 0.19291058
-0.27688238 -0.18559048 -0.063957654 0.042773969 0.98985034 0.13552403 0.18845676
-0.26726827 -0.18749686 -0.064683199 0.21567714 0.96006715 0.17819756 0.10939045
-0.25571463 -0.18749686 -0.063368134 0.16200802 0.97797477 0.13160037 0.057023037
-0.24277483 -0.18749686 -0.063496977 0.017787263 0.99972194 0.015481957 0.00092793751
-0.23647715 -0.18749686 -0.060805779 -0 1 -0 0
-0.22703493 -0.18749686 -0.063442551 -6.5830449e-05 1 -5.0045787e-06 0
-0.21430951 -0.18749686 -0.065387264 1.663026e-05 1 -1.1737292e-05 0
-0.2063158 -0.18749686 -0.066355042 3.536785e-07 1 9.1769189e-06 0
-0.19713406 -0.18749684 -0.062756702 -1.381479e-09 1 -8.1389971e-06 7.5019952e-06
-0.18342173 -0.18749686 -0.065478317 3.6488476e-05 1 6.4538895e-08 0
-0.17304999 -0.18749686 -0.063736901 -3.565531e-05 1 -1.5605696e-05 8.4834119e-06
-0.16600488 -0.18749686 -0.066690914 -1.5716068e-05 1 -1.2643682e-05 0
-0.15269995 -0.18749686 -0.065746449 -0 1 -0 0
-0.14720206 -0.18749686 -0.066673905 -2.5503774e-05 1 -2.7916328e-06 0
-0.12489716 -0.18749684 -0.065604739 0.00068165269 0.99999976 -0.00028959537 1.609243e-05
-0.11417979 -0.18754995 -0.064081557 0.00011815198 1 -0.00034380829 0
-0.10656244 -0.18749686 -0.064850897 -8.4679659e-06 0.99999982 -0.00059755275 8.1155895e-06
-0.097038805 -0.18749686 -0.063429095 0.00029287068 0.99999911 -0.0013094551 1.6462209e-05
-0.084220074 -0.18754995 -0.064855672 0.0017334464 0.9999975 -0.0013570162 0
-0.076257527 -0.18758786 -0.067009993 0.002689478 0.9999963 -0.00023056417 2.1369653e-05
-0.06355603 -0.18749686 -0.06481088 0.0018836969 0.99999809 -0.00043049079 3.3699129e-05
-0.056530435 -0.18775167 -0.064366616 0.0006421213 0.99999976 -0.000317192 2.4085613e-05
-0.044812694 -0.18756765 -0.065055124 -0.001154708 0.99999928 -6.7811554e-05 3.0624549e-05
-0.030714154 -0.18749686 -0.063036464 -0.00053504843 0.99999982 -7.2236078e-05 4.978578e-05
