# .PCD v0.7 - Point Cloud Data file format
VERSION 0.7
FIELDS x y z normal_x normal_y normal_z curvature
SIZE 4 4 4 4 4 4 4
TYPE F F F F F F F
COUNT 1 1 1 1 1 1 1
WIDTH 575
HEIGHT 1
VIEWPOINT 0 0 0 1 0 0 0
POINTS 575
DATA ascii
0.11429205 0.33535457 -0.02478784 -0.10849854 -0.8383407 -0.5342406 0.1902196
0.12194192 0.33289608 -0.025410136 -0.0085928012 -0.85891229 -0.51205069 0.17050874
0.13669376 0.33383477 -0.023901649 -0.015511749 -0.87791026 -0.47857398 0.13428017
0.14634998 0.33419615 -0.024813509 -0.047058288 -0.8714484 -0.48822454 0.12984681
0.15405613 0.33282286 -0.02307638 0.034912884 -0.8401233 -0.54127067 0.12279505
0.16650194 0.33461541 -0.025124978 0.12433947 -0.84938753 -0.5129137 0.1110769
0.17475095 0.33591452 -0.024761369 0.24660154 -0.82825494 -0.50317144 0.120974
0.18697442 0.33563504 -0.024755342 0.53521472 -0.66119599 -0.52570438 0.12963408
0.19236171 0.33949178 -0.026088711 0.69534731 -0.53933388 -0.47498536 0.13634609
-0.19464622 0.34404066 -0.024138898 0.85680163 0.35368162 0.37523371 0.058582559
-0.18033332 0.34326747 -0.024349779 -0.5640285 -0.65522999 -0.50253898 0.11258976
-0.17659736 0.34037182 -0.02704013 -0.51316381 -0.75954324 -0.39969617 0.13200442
-0.16267748 0.34299612 -0.024479985 0.018521113 -0.88433784 -0.46647987 0.12056965
-0.15415494 0.34325987 -0.025033526 0.025238525 -0.87257165 -0.48783374 0.13657591
-0.14822423 0.34475195 -0.028973464 0.0832543 -0.87934572 -0.46884978 0.11480518
-0.13786276 0.34366971 -0.02776318 0.078171939 -0.9028917 -0.42270038 0.13270888
-0.12500353 0.34226963 -0.022526346 -0.081197731 -0.9082877 -0.41039047 0.17102398
-0.11801893 0.34319916 -0.024892591 0.08848431 -0.90730488 -0.41105744 0.17984006
-0.10845129 0.34103298 -0.027822863 0.090366326 -0.89960343 -0.4272559 0.13602494
-0.082424313 0.34109539 -0.027822379 0.037965629 -0.79471576 -0.60579318 0.012932198
-0.073648617 0.34042698 -0.027099775 0.033203438 -0.75177127 -0.65858746 0.019560475
-0.068340778 0.34088597 -0.027595993 0.0098429304 -0.80583602 -0.59205699 0.013984246
-0.05653476 0.341941 -0.028832279 0.0037563138 -0.8521409 -0.52329904 0.0081535233
-0.044314422 0.34164318 -0.028450865 -0.025186075 -0.80261302 -0.59596819 0.010021418
-0.030740067 0.34074974 -0.027448723 -0.012377473 -0.78531319 -0.61897498 0.016043786
-0.025197491 0.34142712 -0.028228015 0.008341562 -0.81506348 -0.57931161 0.016067743
0.0094233677 0.34200898 -0.028973259 -0.013481741 -0.83091623 -0.55623406 0.0071325558
0.016863361 0.34149545 -0.028254954 -0.008411834 -0.8159821 -0.57801604 0.0081341574
0.023642018 0.34155926 -0.028323947 -0.00079305691 -0.81627244 -0.5776667 0.0067369523
0.04455664 0.34012842 -0.026777009 0.0086528808 -0.7677626 -0.64067602 0.012623716
0.05828955 0.3414329 -0.028187286 0.015073254 -0.81678462 -0.57674575 0.011727607
0.067071274 0.34093273 -0.027646583 0.014304327 -0.80277944 -0.59610456 0.012221043
0.070979893 0.34219682 -0.029362673 -0.0051444783 -0.82459962 -0.56569344 0.0090778815
0.089780509 0.34041953 -0.027091689 0.024489176 -0.73900765 -0.67325175 0.02482033
0.098234475 0.34118539 -0.027919725 -0.090740025 -0.86353558 -0.49605691 0.073916547
0.10896596 0.34119809 -0.027933441 -0.1033451 -0.88192338 -0.45992503 0.12969586
0.11761572 0.34086049 -0.02795119 -0.064393431 -0.93051946 -0.36053699 0.14017862
0.12333425 0.34239519 -0.025555685 -0.024122477 -0.89505965 -0.44529355 0.14054529
0.13534334 0.34272465 -0.023823462 0.0082896249 -0.87817842 -0.47826147 0.12602843
0.14639761 0.34292117 -0.027219109 0.051263805 -0.88845247 -0.45609671 0.11731993
0.15454686 0.34152964 -0.025066191 -0.0047293329 -0.85827208 -0.5131731 0.12291049
0.16376443 0.3425822 -0.025823474 0.035762269 -0.88318884 -0.46765208 0.10040298
0.17510509 0.34257099 -0.026548479 0.41069824 -0.82309806 -0.39221987 0.13616905
0.18155129 0.34218526 -0.029338727 0.52296746 -0.77852756 -0.3469868 0.12211143
0.19367939 0.34473968 -0.02582931 0.73308784 -0.48149917 -0.48035473 0.14138693
-0.19339287 0.35739559 -0.026918646 0.94232416 0.20027749 0.26816803 0.049061913
0.19381507 0.35878795 -0.022759547 -0.95959538 0.16426578 0.22845896 0.05577267
-0.19336158 0.36495525 -0.024536477 0.97482485 0.11625659 0.19026537 0.033980504
0.19296403 0.36316156 -0.027128901 -0.96712148 0.11422711 0.22721837 0.043336321
-0.19244382 0.3727546 -0.026014451 0.98354876 -0.066537507 0.1679419 0.0014177945
0.1924009 0.37424728 -0.025860574 -0.98421717 -0.066759288 0.16388965 0.0014185379
0.19147789 0.38344285 -0.027507076 -0.98057765 -0.066805787 0.18440285 0.0010655742
-0.19153804 0.39628428 -0.022808393 0.98826981 -0.066657364 0.13740294 0.0020195888
-0.18976197 0.39956665 -0.02912296 0.97648489 -0.063729659 0.20595099 0.0014194789
0.19130082 0.39552996 -0.023909166 -0.98454261 -0.067373961 0.1616683 0.0016242443
-0.18941364 0.40795213 -0.02786709 0.97861081 -0.076633662 0.19091414 0.00073388306
0.19081511 0.4041875 -0.023327624 -0.98627514 -0.06449075 0.15199468 0.0017101566
-0.18997529 0.41999346 -0.021290477 0.983163 -0.079773359 0.16439809 0.0014167543
0.18937485 0.4133741 -0.026615247 -0.97988969 -0.076854296 0.18414582 0.00073112751
0.19022176 0.41485989 -0.022125788 -0.98559368 -0.075273238 0.15145615 0.0017788725
-0.18807682 0.42379907 -0.028521443 0.96720314 -0.10322101 0.23208492 0.0025373434
0.18857269 0.42527756 -0.025854737 -0.97928083 -0.097079888 0.17772025 0.00092008727
-0.18776579 0.43592834 -0.024571227 0.96678597 -0.11878812 0.22630587 0.0029810655
0.18756267 0.4367156 -0.025902387 -0.97265255 -0.11671542 0.20080964 0.002825666
-0.18692835 0.44211632 -0.026149079 0.96241665 -0.13399516 0.23621911 0.0039047655
0.1864543 0.44357282 -0.028005827 -0.95019394 -0.15069449 0.27280512 0.0074023898
-0.18399167 0.45922083 -0.028258577 0.82925534 -0.37571934 0.41372752 0.022378515
0.18533969 0.45533696 -0.025716623 -0.90184325 -0.2793102 0.32964307 0.0225442
-0.18397242 0.46471018 -0.023776259 0.80247498 -0.41533604 0.42840385 0.030068643
0.18390623 0.463613 -0.024527337 -0.83624589 -0.39100221 0.38446081 0.025267985
-0.16635732 0.47937402 -0.027871275 0.37071756 -0.74532938 0.55412322 0.049841609
-0.1575847 0.4796077 -0.025366878 0.21730401 -0.81818002 0.53231615 0.048954211
-0.12512396 0.4799358 -0.027145963 -0.017285386 -0.97462916 0.22315733 0.083946265
0.14665161 0.47976893 -0.025007848 -0.13970482 -0.94438642 0.29768574 0.058290407
0.15730909 0.479776 -0.024979556 -0.1285861 -0.86894369 0.47791478 0.051619861
0.16756879 0.47896948 -0.02648586 -0.32881376 -0.75857258 0.56253815 0.064374588
0.17341965 0.47815734 -0.023879325 -0.48215201 -0.65388292 0.58306664 0.055159483
0.18228574 0.472231 -0.022056384 -0.77498955 -0.46374789 0.42933562 0.038136791
-0.17146331 0.48320878 -0.02501509 0.41387796 -0.76991785 0.48572785 0.069529958
-0.16174674 0.489898 -0.02091915 0.24882425 -0.88139009 0.40154472 0.06865748
-0.15657173 0.48514143 -0.026018579 0.24416304 -0.81641847 0.52330238 0.049219668
-0.1467253 0.48919088 -0.023132037 0.057770301 -0.94688129 0.31635162 0.074572414
-0.13564856 0.48817253 -0.024901981 0.042825203 -0.98931009 0.13939703 0.081040718
-0.1247227 0.48273152 -0.027295742 -0.081864573 -0.98351967 0.16120541 0.074775204
-0.11195207 0.48575345 -0.024647435 -0.074526593 -0.96405977 0.25501892 0.058558859
-0.10500978 0.48103869 -0.025573594 -0.11708689 -0.90203428 0.4154813 0.049621537
-0.094340205 0.48637956 -0.026444329 0.046452068 -0.91798121 0.39389426 0.047649421
-0.08432734 0.48192927 -0.026023114 0.041872472 -0.898256 0.43747324 0.051704317
-0.074407138 0.48266399 -0.025975386 0.057518557 -0.90125173 0.42946112 0.056781575
-0.063835829 0.48318639 -0.023462161 0.074812539 -0.92655492 0.36864498 0.077403665
-0.054136962 0.48627058 -0.025424 0.047815066 -0.91738796 0.39511156 0.062199671
-0.044236552 0.48349667 -0.025136629 -0.0061688786 -0.9670977 0.25433052 0.07788004
-0.03585184 0.48366222 -0.027264452 0.042049639 -0.96276748 0.26704058 0.070737332
-0.026830321 0.4872506 -0.025405491 -0.0016096847 -0.99728572 0.073611282 0.075326093
-0.014058347 0.48518896 -0.022030396 0.06374146 -0.99360818 0.09316536 0.07483618
-0.0024896902 0.48519805 -0.023988374 -0.054115523 -0.96310216 0.2636393 0.041891992
0.0018998502 0.48477271 -0.029820586 -0.032247432 -0.94171762 0.33485526 0.036412839
0.013875929 0.48479939 -0.024028668 -0.026737541 -0.97648054 0.21394095 0.059560567
0.025566228 0.48569596 -0.026848357 -0.015941091 -0.9628678 0.26950216 0.055750318
0.030121956 0.48413163 -0.02456015 -0.0052124695 -0.9793058 0.20231897 0.060132489
0.055047758 0.48468769 -0.025305998 -0.038731284 -0.90718877 0.41893724 0.061180975
0.065139689 0.48635426 -0.025495155 -0.0035833812 -0.9523133 0.30510101 0.080339111
0.073400058 0.4860011 -0.02641491 -0.041155547 -0.90719616 0.41869006 0.078655727
0.082255773 0.48514473 -0.027025517 -0.057945456 -0.90806144 0.41480926 0.061201081
0.098345987 0.48306394 -0.027164493 -0.030211978 -0.92733961 0.37299931 0.064339183
0.10421979 0.4836072 -0.027014192 0.094406657 -0.93793929 0.33370221 0.071861319
0.11213924 0.48084992 -0.024742655 -0.014618894 -0.97836739 0.20635815 0.080884837
0.12394327 0.48653302 -0.02743645 -0.10267818 -0.97373468 0.20321907 0.068130799
0.13434577 0.48430365 -0.024117943 -0.11686655 -0.97699124 0.17841077 0.067311265
0.14552566 0.48670402 -0.022166498 -0.13023053 -0.97313017 0.18988842 0.069536999
0.1525203 0.48015338 -0.021962743 -0.0087682996 -0.9655847 0.25994116 0.064386301
0.16645117 0.48577157 -0.024567133 -0.2622872 -0.82464451 0.50116557 0.072516531
0.17021556 0.48720464 -0.021538822 -0.26393306 -0.86526567 0.42620975 0.082664192
-0.15740462 0.49069545 -0.020687703 0.17481855 -0.92228389 0.34471866 0.082344271
-0.14080182 0.49070874 -0.021786451 0.059725001 -0.98060548 0.18667014 0.073323071
-0.12526995 0.49532929 -0.024444364 -0.061103448 -0.99667299 0.053938914 0.073976427
-0.11555497 0.49066937 -0.023292586 -0.028399101 -0.99030203 0.13599792 0.07483995
-0.095885493 0.49119201 -0.023778344 0.029166006 -0.93191212 0.36150938 0.050679591
-0.075953662 0.49395123 -0.021618146 0.034386028 -0.98103261 0.19076844 0.070789106
-0.067451179 0.49015105 -0.026293905 0.015509165 -0.91892529 0.39412674 0.053604316
-0.052413486 0.49587491 -0.020558454 0.038559206 -0.96967 0.24135715 0.05601117
-0.045469232 0.49242949 -0.024846325 0.10265902 -0.96607798 0.23696947 0.049004789
-0.034962632 0.49342901 -0.024309203 0.11586913 -0.99279344 -0.030585598 0.078158975
-0.022849157 0.49014187 -0.028865516 0.03841649 -0.95653963 0.28906053 0.056372475
-0.016405294 0.49574354 -0.02257381 -0.012671285 -0.99056888 0.13642864 0.065968022
-0.0080078859 0.49582374 -0.022926122 -0.07622017 -0.98039824 0.18168616 0.053110741
0.0056977225 0.49290043 -0.026557211 -0.0062964675 -0.95524716 0.29574171 0.050084069
0.013546268 0.49389935 -0.024952292 -0.02674713 -0.97647667 0.21395774 0.059596337
0.02842126 0.49336615 -0.024862282 0.020270826 -0.97234136 0.23268306 0.064793684
0.032530442 0.49023914 -0.028379872 -0.018142816 -0.95471728 0.29696077 0.05645214
0.046252973 0.49305704 -0.024368288 -6.3795749e-05 -0.97151804 0.23696578 0.059548046
0.055467688 0.49448335 -0.022226816 -0.033279046 -0.95664954 0.28933385 0.058107257
0.064406715 0.49270973 -0.023871494 0.0025377388 -0.97012824 0.24257943 0.074301258
0.075574785 0.49267685 -0.023288732 -0.038973391 -0.96605033 0.25539711 0.06441126
0.084962465 0.49275756 -0.022690825 -0.054705024 -0.96919668 0.24013595 0.063668318
0.1024984 0.49276358 -0.021722535 -0.026944419 -0.99882323 -0.040325761 0.081304468
0.12359991 0.49295524 -0.023312366 -0.083043195 -0.98891407 0.12309679 0.069173552
-0.17500739 -0.477018 -0.013144742 0.56362784 0.82573056 -0.022197479 0.091819748
-0.16237681 -0.47284159 -0.015450772 0.10206047 0.99417442 -0.034653872 0.090771221
-0.15602989 -0.4744103 -0.010421716 -0.043373689 0.99904066 -0.006037727 0.068001226
-0.13589686 -0.47172934 -0.013064853 -0.19701661 0.94882429 -0.24681391 0.13843028
0.0035119199 -0.47248089 -0.013500485 -0.49052003 0.84774411 -0.20179182 0.23052643
0.13562796 -0.47167513 -0.012796904 0.18151876 0.9448806 -0.27249134 0.13859937
0.14333291 -0.4734256 -0.0144818 0.086157694 0.95796502 -0.273642 0.11621966
0.15529813 -0.4740189 -0.014765735 0.028856536 0.98189479 -0.18721606 0.066930458
0.16382538 -0.47261238 -0.01365839 -0.11098299 0.98386502 -0.14032988 0.098510854
0.17487483 -0.47577873 -0.015320241 -0.3222293 0.92621213 -0.19570251 0.12652797
-0.1802478 -0.46170089 -0.01845409 0.865044 0.50168163 -0.0038135238 0.075164124
-0.16362357 -0.46510917 -0.011269267 0.33366412 0.94157523 0.045873191 0.10727544
-0.15705438 -0.4632051 -0.01682278 0.16875203 0.9832375 -0.069042228 0.087202355
-0.14194191 -0.46515092 -0.016756643 -0.30759409 0.84544003 -0.43659714 0.094949253
-0.13956089 -0.46641296 -0.015009227 -0.26090029 0.87789202 -0.40154281 0.10940137
-0.12848787 -0.46638379 -0.017521283 -0.26583284 0.86955464 -0.41618222 0.15524702
-0.0067921476 -0.46309543 -0.014901251 0.39281386 0.91219592 0.11660156 0.23921135
0.0058475514 -0.4654915 -0.018723927 -0.2613461 0.85249156 -0.45272112 0.22949357
0.12800971 -0.46489656 -0.017297655 0.38194117 0.86318439 -0.33020225 0.16290146
0.13442878 -0.46886379 -0.011336035 0.32701045 0.93523324 -0.13565728 0.15589306
0.14658353 -0.4628078 -0.015943546 0.20001085 0.9669475 -0.15814023 0.091671929
0.15758818 -0.46451169 -0.018658161 -0.10221111 0.97888148 -0.17704229 0.083080791
0.16448945 -0.46747142 -0.016903285 -0.23287521 0.95954847 -0.15822722 0.10809068
0.17920637 -0.46689963 -0.017241601 -0.64273024 0.75632507 -0.12194448 0.12574022
-0.18302083 -0.45144314 -0.010824498 0.91486549 0.40008086 -0.05437398 0.063912451
-0.12421162 -0.45003176 -0.010839389 -0.50227022 0.84550917 0.1812149 0.12026206
0.0097274911 -0.45341554 -0.016093578 -0.19121513 0.91795248 -0.34756288 0.16309157
0.1251847 -0.4530538 -0.01749278 0.46875316 0.88330519 -0.006504023 0.15651292
0.15359256 -0.45926666 -0.011844642 0.017387524 0.9935568 -0.11199311 0.071173556
0.18220812 -0.45541805 -0.014941947 -0.91140753 0.41145721 -0.0062669301 0.081903487
-0.18325992 -0.44604552 -0.018699676 0.9745602 0.21570419 0.060862366 0.021584487
-0.12181031 -0.44593912 -0.011248205 -0.4194645 0.86900812 0.26243928 0.11135706
-0.10456295 -0.4456194 -0.017179262 -0.016525971 0.99942386 -0.029642524 0.13404432
-0.086716026 -0.44563907 -0.016429661 0.0073079877 0.99951977 -0.030114895 0.10418992
-0.06038785 -0.44565582 -0.016128564 -0.069447294 0.9888134 -0.13200414 0.10401528
-0.054603554 -0.44567913 -0.013407129 -0.089745805 0.98276818 -0.16159353 0.122215
-0.042205211 -0.44566005 -0.015855255 0.041266941 0.99585295 -0.081080645 0.1284178
-0.025839821 -0.44566345 -0.015418913 0.2333352 0.970393 0.062386706 0.14115235
-0.014573848 -0.44636166 -0.017444059 0.32241839 0.92790413 0.18719044 0.10300692
0.015076319 -0.4458445 -0.012671106 -0.20201498 0.92039311 -0.33476305 0.11823455
0.025029114 -0.44563854 -0.018580601 -0.18971449 0.9340719 -0.30251968 0.1619211
0.037755072 -0.44569111 -0.011920535 -0.025578804 0.92682165 0.37462965 0.13447759
0.04583754 -0.44567135 -0.014422392 -0.045620658 0.97400028 0.22190598 0.14810219
0.05709146 -0.44565797 -0.016025424 -0.022683742 0.99963868 0.014427241 0.13766944
0.062369026 -0.4456349 -0.018672962 -0.020821238 0.99975783 0.0071316152 0.11818945
0.076421238 -0.44568521 -0.011562859 -0.12049145 0.95555341 0.26907179 0.13327439
0.083765909 -0.44566357 -0.013915313 -0.062457204 0.96515018 0.25413421 0.10634798
0.094510086 -0.44563252 -0.016493635 -0.062757783 0.99649632 0.055286776 0.1178358
0.10805205 -0.44560742 -0.018313704 0.20087717 0.97896844 0.035626534 0.11931983
0.11560762 -0.44566655 -0.01121917 0.34842297 0.84616292 0.40324882 0.12619425
0.12332243 -0.44762951 -0.016164582 0.49180207 0.87069172 0.0051590251 0.12656845
-0.18494385 -0.43687269 -0.011454696 0.99130726 0.13118917 0.0099647548 0.0043246229
0.18508065 -0.43611494 -0.012799474 -0.99098963 0.12526217 0.047421999 0.0031564841
-0.18611622 -0.42352945 -0.014664061 0.99468809 0.10162021 0.016397815 0.0035362414
0.18628934 -0.42276067 -0.014549898 -0.9948023 0.095946848 0.03409677 0.0044997176
-0.18691847 -0.41367742 -0.01906717 0.99498862 0.068304397 0.073020816 0.0043079625
0.18694599 -0.41442251 -0.016072316 -0.99459022 0.088430025 0.054501262 0.0029558321
-0.1874586 -0.40799052 -0.015523831 0.99705732 0.076520532 0.0046081804 0.0017507849
0.18756542 -0.40624148 -0.013895053 -0.99703234 0.076347791 0.0098719867 0.0034035956
0.18851009 -0.39295912 -0.012758482 -0.99598455 -0.027887743 0.085071295 0.019858867
-0.18929549 -0.38374272 -0.012542941 0.98571271 -0.10702099 0.13006556 0.053955924
-0.116721 -0.38330075 -0.015517619 0.060697384 0.76406801 -0.64227408 0.10252822
0.18888751 -0.38692865 -0.015383089 -0.97796488 -0.12877053 0.16432582 0.04663258
-0.18349308 -0.37014449 -0.017149897 -0.74916458 0.4406226 -0.49457473 0.16731986
-0.16262358 -0.37023884 -0.017333472 -0.082807571 0.79850078 -0.59627116 0.11736485
-0.15318146 -0.37062982 -0.018094243 -0.0044636298 0.81738305 -0.57607722 0.14398062
-0.14390734 -0.37071171 -0.018253574 0.018559748 0.82843083 -0.55978376 0.14450337
-0.116721 -0.37547374 -0.016184604 0.082283832 0.70327795 -0.70613694 0.13503373
0.11672097 -0.37668529 -0.013546037 -0.049972035 0.81422561 -0.57839382 0.093334705
0.13532075 -0.37066966 -0.018171813 -0.0062966472 0.83338165 -0.55266201 0.11582001
0.17513758 -0.370186 -0.017230678 0.61379862 0.6077289 -0.50390166 0.14625654
0.18961021 -0.37772393 -0.015060732 -0.91976964 -0.24308972 0.30810916 0.071836382
-0.19020785 -0.36939779 -0.0142355 0.89766574 -0.22203407 0.38065356 0.14083159
-0.18354294 -0.36415792 -0.014831051 -0.51878518 0.56907344 -0.63797909 0.15823252
-0.17402712 -0.36459494 -0.018281765 -0.24012353 0.74976599 -0.61659682 0.13110739
-0.16448572 -0.36189246 -0.018259536 -0.14861624 0.78393322 -0.60279518 0.12678103
-0.15470283 -0.3632237 -0.018739438 -0.069282793 0.79802066 -0.59863418 0.1333071
-0.14659649 -0.36073488 -0.017752949 -0.031506456 0.82972652 -0.5572803 0.13965923
-0.13307121 -0.36635813 -0.016049199 -0.00059439661 0.69805288 -0.71604604 0.14438741
-0.1266524 -0.36448225 -0.017945755 0.0055185677 0.74576461 -0.66618663 0.16097973
-0.11614684 -0.36361504 -0.01912652 0.098954134 0.66983241 -0.73588896 0.14891835
-0.105038 -0.36219862 -0.017809926 0.034401935 0.44771427 -0.89351463 0.096224315
-0.077631362 -0.36327824 -0.018321009 -0.012624327 0.52535379 -0.8507902 0.016057456
-0.05101322 -0.36489284 -0.0190854 0.028153226 0.56064832 -0.82757533 0.010274949
-0.042927552 -0.36615866 -0.01968462 0.0061413581 0.57142282 -0.82063287 0.01854156
-0.034785483 -0.36364737 -0.018495781 -0.0015806718 0.4861325 -0.87388366 0.011392128
-0.02967149 -0.36342233 -0.018389251 -0.010694161 0.5165776 -0.85617363 0.0093875909
-0.015470261 -0.36520591 -0.019233596 -0.0027572606 0.54577017 -0.83793044 0.010875202
0.0049046371 -0.36414766 -0.018732622 -0.0071514691 0.58039278 -0.81430525 0.015468519
0.010434143 -0.36202985 -0.017730046 0.011167125 0.52825087 -0.84901494 0.012480481
0.026422799 -0.36280692 -0.01809792 0.0023255239 0.44285321 -0.89659119 0.010262905
0.032843523 -0.36359262 -0.018469878 -0.027345598 0.41629881 -0.90881652 0.0077315089
0.043612573 -0.36444348 -0.018872675 -0.017411659 0.46987635 -0.88256049 0.0082025602
0.055687036 -0.36659184 -0.019889712 -0.028942071 0.57022929 -0.8209756 0.013595268
0.069322109 -0.36208972 -0.017758388 -0.013981804 0.49391264 -0.86939919 0.0098484559
0.074454695 -0.36401147 -0.018668152 -0.025588676 0.5224883 -0.85226238 0.011246442
0.082253858 -0.36212948 -0.017777216 -0.010615882 0.48425871 -0.87486041 0.012454032
0.095335141 -0.36409447 -0.018707454 0.007059148 0.52725571 -0.84967726 0.039023299
0.10703789 -0.36088464 -0.017187899 0.017192144 0.52656215 -0.84996271 0.1350009
0.11672097 -0.36724222 -0.011962382 0.019692197 0.75311005 -0.65759981 0.14304753
0.12380829 -0.3650319 -0.01564214 0.023126708 0.75247264 -0.65821725 0.14199118
0.13626999 -0.36441955 -0.016080413 -0.01059311 0.78631437 -0.61773574 0.12623107
0.14578292 -0.36642721 -0.017173257 0.0026395498 0.83574522 -0.54911107 0.12504432
0.15302125 -0.36333841 -0.01653854 0.042554971 0.7971015 -0.60234404 0.11338516
0.16629907 -0.36573499 -0.015734883 0.19732487 0.80144584 -0.56457728 0.12135419
0.17375129 -0.3655023 -0.016205372 0.45146978 0.69635856 -0.55790669 0.16220936
0.18384062 -0.36421481 -0.016981488 0.69622296 0.46954185 -0.54295868 0.13248159
0.19037263 -0.36634549 -0.013496044 -0.90576881 -0.27665547 0.32100546 0.11206499
-0.19112588 -0.3572517 -0.015159385 0.83409011 -0.33921647 0.43500093 0.14494522
-0.18255906 -0.35480988 -0.013646242 -0.55019224 0.44977692 -0.70355475 0.17096435
-0.17613281 -0.35542995 -0.015213462 -0.26422453 0.61829257 -0.74020255 0.14223656
-0.16322684 -0.35779929 -0.015218616 -0.088803768 0.7406292 -0.66601974 0.12665835
-0.1574925 -0.35475373 -0.013313698 -0.029062228 0.73545635 -0.67694855 0.1376414
-0.14339422 -0.35663533 -0.013833118 -0.027693052 0.75374079 -0.65658814 0.13202074
-0.13300705 -0.35665038 -0.013756392 -0.067086868 0.671803 -0.73768568 0.13239157
-0.12233854 -0.35545981 -0.01252948 -0.10771155 0.56746918 -0.81631917 0.15959831
-0.11527368 -0.35350943 -0.015971996 -0.082993962 0.48124796 -0.87264681 0.19881599
-0.10689335 -0.35543704 -0.015186732 -0.00076067995 0.43888769 -0.89854163 0.14295986
-0.09059874 -0.35393128 -0.0146113 0.058729582 0.32990485 -0.94218552 0.019651014
-0.083177894 -0.35682684 -0.015488843 -0.037921626 0.39526048 -0.917786 0.0092334198
-0.072447643 -0.35354567 -0.014527477 5.6688612e-05 0.31611297 -0.94872159 0.0066792355
-0.056019623 -0.35166919 -0.014119595 0.0034114872 0.27953866 -0.96012837 0.0051681721
-0.045803763 -0.35708517 -0.015389227 0.021451011 0.40188265 -0.9154399 0.012280256
-0.034059491 -0.35361367 -0.014542254 0.014397752 0.31121966 -0.95022893 0.004445062
-0.027433921 -0.35706747 -0.015539965 -0.025128551 0.41743076 -0.9083612 0.013449519
-0.014049568 -0.35667706 -0.015506575 -0.018479744 0.40001303 -0.91632318 0.01019941
-0.0092888847 -0.35462633 -0.014762377 -0.0087332278 0.33344853 -0.94272786 0.0080082892
0.0048435554 -0.3535409 -0.014526442 -0.0012570367 0.31420076 -0.94935572 0.0058726743
0.017262043 -0.35243228 -0.01428546 0.003925113 0.3011995 -0.95355308 0.0049834414
0.024384053 -0.35165438 -0.014116365 0.010335474 0.2880294 -0.95756578 0.0044087758
0.038196132 -0.35242814 -0.014284554 -0.0035437222 0.32031992 -0.94730276 0.0066818171
0.052477892 -0.35578769 -0.01511403 -0.0045749485 0.37554038 -0.92679477 0.010853061
0.062916853 -0.35758823 -0.015709808 -0.0059367465 0.39683732 -0.91786975 0.012123485
0.075280719 -0.35417095 -0.014663392 0.011141146 0.32035357 -0.94723254 0.0073619578
0.08732567 -0.35832933 -0.015978191 -0.006265155 0.43757492 -0.89916009 0.010562991
0.097607389 -0.35051969 -0.013869721 0.0016448364 0.24594745 -0.96928179 0.063601464
0.10666296 -0.35588574 -0.01520475 0.031279854 0.48450446 -0.87422937 0.12128473
0.11005057 -0.35545948 -0.014943474 0.012569486 0.55629778 -0.83088797 0.16849336
0.12598991 -0.35686353 -0.014311226 0.12123972 0.66800821 -0.73421115 0.14396867
0.1344503 -0.35514918 -0.013967225 0.091445081 0.72299498 -0.68477446 0.14895095
0.14619267 -0.35544297 -0.014024101 0.026231136 0.73515522 -0.67739105 0.14180811
0.15530019 -0.35746029 -0.013993423 0.052837946 0.75771385 -0.65044445 0.12619153
0.16570888 -0.35482374 -0.013481396 0.12547518 0.67475772 -0.72729498 0.14052041
0.17554012 -0.35519952 -0.013647659 0.1138655 0.60289311 -0.78965473 0.16120251
0.18342945 -0.35573551 -0.014436265 0.61808187 0.38937926 -0.68290448 0.15835239
-0.19154821 -0.34665203 -0.012331975 0.88620639 -0.20972526 0.4131023 0.13799761
-0.18535396 -0.34547734 -0.012773664 0.68646944 -0.32897097 0.64848888 0.16930978
-0.17287874 -0.34491551 -0.014283082 -0.16807823 0.59218329 -0.78807914 0.15453452
-0.16413648 -0.34518674 -0.014469095 0.0078538703 0.60477901 -0.79635459 0.14726183
-0.15305875 -0.34417462 -0.015889924 -0.048792664 0.66328549 -0.74677414 0.15985508
-0.14599553 -0.34301546 -0.014334718 0.0039016581 0.57499295 -0.81814903 0.16271055
-0.13493185 -0.34376103 -0.015933206 -0.15870437 0.57846349 -0.80012065 0.19799465
-0.12697296 -0.34513429 -0.014848084 -0.44670808 0.58819854 -0.67414719 0.18241085
-0.115713 -0.34478328 -0.012154397 -0.34311178 0.46981558 -0.8133558 0.19344923
-0.10503916 -0.3484422 -0.013418144 -0.072900243 0.35501039 -0.9320156 0.13419087
-0.094181843 -0.34480405 -0.012627316 0.0021563196 0.24404198 -0.96976233 0.020462489
-0.081602328 -0.34739101 -0.013189641 0.00037166866 0.2180829 -0.97593015 0.0023398176
-0.075988688 -0.34444183 -0.012548585 -0.011612507 0.1898561 -0.98174328 0.0025441151
-0.041313492 -0.34262288 -0.012153191 0.015596913 0.19411224 -0.98085535 0.0017919651
-0.032319896 -0.34630495 -0.01295357 0.0010876389 0.24736924 -0.96892071 0.004066505
-0.022216417 -0.34660393 -0.013018552 -0.012903252 0.25926918 -0.96571892 0.0038184612
-0.018905051 -0.34894753 -0.013527983 -0.0082968436 0.25763983 -0.96620542 0.0034748018
-0.0089670569 -0.34627935 -0.012948003 0.005916513 0.2414422 -0.97039717 0.0032111653
0.0090317652 -0.34000605 -0.011584383 0.0012681996 0.16900016 -0.98561525 0.0011846295
0.019102968 -0.34956169 -0.013661481 -0.009619439 0.26650551 -0.96378541 0.0041549308
0.025928669 -0.34294963 -0.012224223 0.0058564977 0.2062678 -0.97847801 0.0028188073
0.035548456 -0.34540138 -0.012757155 0.0010696074 0.21905714 -0.97571141 0.0034537117
0.042233102 -0.34075218 -0.011746562 0.0020114563 0.17116536 -0.98524028 0.0013793369
0.053474993 -0.34522116 -0.012717983 -0.011456126 0.21723199 -0.9760527 0.0025653217
0.065195575 -0.34570825 -0.01282386 0.0038450053 0.2331814 -0.97242564 0.0022859918
0.073912516 -0.3445133 -0.012564112 0.0048043272 0.22010556 -0.97546422 0.0023178146
0.085058011 -0.34104514 -0.011810244 0.0056866724 0.17875145 -0.98387784 0.0014423667
0.092971615 -0.34570837 -0.01282389 -0.027776236 0.21542776 -0.9761247 0.0079059694
0.10648187 -0.34790534 -0.01330144 0.016533168 0.31894594 -0.94762874 0.14667957
0.11499976 -0.34526786 -0.014391457 0.49185294 0.31511414 -0.81165493 0.22582522
0.12386962 -0.34424761 -0.013960232 0.51166165 0.43609518 -0.74028593 0.19847634
0.13529453 -0.34429491 -0.017734507 0.3001509 0.6059643 -0.7366932 0.17927803
0.1470371 -0.3456856 -0.016894639 -0.0094205933 0.67936379 -0.73374116 0.1707136
0.15603681 -0.34441283 -0.012542272 0.047389433 0.54575294 -0.83660501 0.15007232
0.16330081 -0.34386849 -0.012423958 0.001783275 0.46403086 -0.88581723 0.13822131
0.17551516 -0.34389666 -0.014683358 0.051748838 0.5235098 -0.8504467 0.15375252
0.18505673 -0.34739754 -0.013191056 -0.69967413 -0.33911175 0.62885559 0.15652452
0.19129819 -0.34308082 -0.012246785 -0.72809488 -0.14112039 0.67079264 0.15483889
-0.19096991 -0.33233935 -0.010736445 0.9079904 -0.015919823 0.41868833 0.18773991
-0.1851126 -0.33211917 -0.010716057 0.76435316 -0.13974236 0.62947303 0.21220309
-0.17326038 -0.33590731 -0.011291633 -0.16008979 0.49183825 -0.85584253 0.18628292
-0.16479377 -0.33640319 -0.01124464 0.040937427 0.50247246 -0.8636235 0.18338466
-0.15439771 -0.33732119 -0.011777343 -0.020917958 0.56299448 -0.8261959 0.16958366
-0.14437211 -0.33665264 -0.011523031 0.058474455 0.5855062 -0.80855626 0.17129268
-0.13406883 -0.33753005 -0.01150677 -0.3267605 0.51523054 -0.79231626 0.18594143
-0.12583883 -0.33699644 -0.011139372 -0.48282549 0.41337401 -0.77201128 0.21949169
-0.11620579 -0.33549708 -0.013082685 -0.59449148 0.45528385 -0.66279447 0.223162
-0.10489953 -0.33455783 -0.010941895 -0.13710745 0.15824595 -0.97783417 0.16347107
-0.093798429 -0.33551073 -0.011031304 0.069282442 0.13237844 -0.98877501 0.027021656
-0.088325068 -0.33891964 -0.011348225 0.0050045415 0.16125165 -0.98690063 0.001334067
-0.072438739 -0.33588746 -0.011065029 0.00062339264 0.15340742 -0.98816282 0.00094238867
-0.066763595 -0.33482397 -0.010966541 -0.00048363308 0.13470834 -0.99088514 0.00036403371
-0.044677585 -0.33503428 -0.010986015 -0.0063729119 0.12958463 -0.99154788 0.00057888124
-0.034936458 -0.33475685 -0.010960326 0.0042533386 0.15447658 -0.98798728 0.00092558807
-0.025208032 -0.33452761 -0.010939095 -0.0053400132 0.13206558 -0.99122661 0.00077435857
-0.013375711 -0.33351076 -0.010844927 0.006720209 0.12511568 -0.99211943 0.00070603809
-0.0048177224 -0.33503503 -0.010986086 0.0024821002 0.12846388 -0.99171108 0.00054168631
0.016152194 -0.33162281 -0.010670092 0.0054856259 0.11407774 -0.9934566 0.00052264507
0.0259807 -0.33116615 -0.010627799 0.0064737336 0.11069179 -0.99383366 0.000687127
0.03611831 -0.33550173 -0.011037923 0.0024437534 0.15848075 -0.98735905 0.0012390648
0.043423131 -0.33508167 -0.010990405 0.00080387964 0.13286777 -0.99113339 0.00032580024
0.054723114 -0.3340351 -0.010893488 -0.0092836367 0.12633033 -0.99194479 0.0007493989
0.064239062 -0.33261916 -0.010762356 0.0023881414 0.12347271 -0.99234509 0.00071047124
0.086136132 -0.33524764 -0.011005774 -0.0016842126 0.15572342 -0.98779929 0.0010172897
0.091405511 -0.33703592 -0.011171378 -0.02916551 0.17240402 -0.98459446 0.00602106
0.10654435 -0.33785388 -0.011247128 0.1996005 0.26280373 -0.94397765 0.19326727
0.11755785 -0.33402082 -0.013488963 -0.61313403 -0.20033345 0.76415515 0.21639304
0.12472789 -0.33640954 -0.011027624 0.56827384 0.27948195 -0.77392161 0.21638338
0.13478011 -0.33528283 -0.011009033 0.20483044 0.30606365 -0.9297148 0.19872305
0.14321588 -0.33580264 -0.011263043 0.12117383 0.32455575 -0.9380728 0.16259231
0.15458612 -0.33681369 -0.011209142 0.058350854 0.34632263 -0.93629891 0.15882987
0.16833912 -0.33704051 -0.011279186 0.024516929 0.37042591 -0.92853838 0.16160779
0.17738493 -0.33020341 -0.010538647 0.10413776 0.31447092 -0.94353771 0.16660447
0.1896755 -0.33298537 -0.010796275 -0.45020571 -0.23913839 0.86030674 0.19735689
0.19152996 -0.33541387 -0.01075846 -0.79817152 -0.075696327 0.59765571 0.18049438
-0.18390727 -0.3251971 -0.010075029 0.8624081 -0.068640284 0.5015384 0.20248356
-0.16806599 -0.32498392 -0.010055289 -0.033437934 0.35667387 -0.93363035 0.19288565
-0.15366483 -0.32560402 -0.010112712 -0.11376361 0.35830203 -0.9266485 0.19549584
-0.116721 -0.32499745 -0.015291594 0.8470605 -0.09741611 0.52249265 0.19475774
-0.1057594 -0.32832456 -0.01036465 -0.15518878 0.25613499 -0.9541024 0.14885023
-0.09262991 -0.32732528 -0.010272112 0.050453845 0.083035871 -0.99526846 0.01703798
-0.083630621 -0.32853532 -0.010384168 0.00064976304 0.10767975 -0.99418545 0.001083313
-0.074198402 -0.3265886 -0.010203891 0.0011118043 0.085410409 -0.99634528 0.00093962479
-0.068720192 -0.32553789 -0.010106587 -0.00053046888 0.083688483 -0.99649185 0.0010591978
-0.057835404 -0.32545087 -0.01009853 0.00050917012 0.078413323 -0.99692076 0.00076727319
-0.049097937 -0.32862505 -0.01039248 -0.0076394989 0.1173099 -0.99306595 0.0007100525
-0.016464822 -0.32615685 -0.010163911 -0.0011417919 0.08842539 -0.99608219 0.00079281005
-0.0080660861 -0.32715949 -0.010256761 0.00057299319 0.10286161 -0.99469554 0.00078698213
0.0058393329 -0.32562673 -0.010114816 0.002880034 0.10212564 -0.99476731 0.00074852235
0.015587114 -0.32887504 -0.01041563 0.0014306426 0.1064216 -0.99432003 0.00067582016
0.023563873 -0.32740682 -0.010279667 0.0034739235 0.10628331 -0.99432981 0.00070403994
0.03262347 -0.32670039 -0.010214242 0.00066736847 0.099733546 -0.99501395 0.00071642984
0.053852648 -0.32902166 -0.01042921 -0.0029334014 0.1161726 -0.99322474 0.00062606263
0.062613755 -0.3287763 -0.010406486 -0.0022350373 0.10729432 -0.99422479 0.00097489363
0.071649648 -0.32753858 -0.010291865 0.0012870437 0.088330343 -0.99609035 0.0007389558
0.086632863 -0.32474664 -0.010033312 -0.0069885212 0.082521625 -0.99656481 0.00070832059
0.095620684 -0.32742471 -0.01028132 -0.066974603 0.093964972 -0.99332017 0.028583907
0.11672097 -0.32501924 -0.012294052 -0.69972682 -0.029260961 0.71381104 0.23491436
0.12562571 -0.32595885 -0.010145573 0.54269141 0.42442995 -0.72480702 0.23546955
0.13302653 -0.32568157 -0.010119893 0.42538345 0.28603351 -0.85862321 0.21924418
0.14508563 -0.32705688 -0.010247258 0.10289667 0.37430832 -0.92157769 0.18662506
0.15379614 -0.32873768 -0.010402909 0.012913054 0.29277197 -0.95609504 0.17542088
0.16343665 -0.32820994 -0.010354038 -0.0033778844 0.35119122 -0.93629766 0.16858704
0.17277622 -0.32883829 -0.010412226 0.087178268 0.27404776 -0.95775664 0.16011283
-0.116721 -0.31672847 -0.011096478 0.78768563 -0.13810855 0.60039765 0.21941759
0.11672097 -0.31571794 -0.013754005 -0.78264713 -0.16523536 0.6001339 0.19921432
0.11672097 -0.30740377 -0.017301669 -0.94683063 0.098971404 0.30613157 0.22869071
-0.116721 -0.29827464 -0.013548691 0.84109682 0.16742755 0.51431918 0.20971079
0.11672097 -0.29006788 -0.011538332 -0.77427864 -0.14474678 0.61606896 0.20319425
-0.1875249 -0.28260246 -0.010366726 0.3041032 0.17304787 0.93679005 0.19550478
-0.1765734 -0.28358901 -0.010262499 -0.10927252 0.2397701 0.96466047 0.18029003
-0.16628106 -0.28344205 -0.010278025 0.0071157096 0.22182015 0.97506166 0.17422909
-0.15831557 -0.28559744 -0.010050304 0.031981137 0.18724471 0.98179257 0.19004728
-0.14419636 -0.28350356 -0.010271526 0.040435985 0.20023367 0.97891337 0.18334195
-0.13238354 -0.2818304 -0.010448297 0.45093066 0.22414641 0.86395597 0.2263869
-0.12649281 -0.28242373 -0.010385607 0.6554814 0.28559324 0.69912851 0.20404463
-0.116721 -0.28468558 -0.012461165 0.56600702 0.22809556 0.79221743 0.22167204
-0.084278941 -0.28353336 -0.01026838 -0.0052673351 0.11820377 0.99297535 0.0014935359
-0.078213766 -0.283645 -0.010256585 0.0012710434 0.10808282 0.9941411 0.0010317129
-0.066168703 -0.2829639 -0.010328543 -0.005457229 0.12314987 0.99237311 0.0014611466
-0.053582635 -0.28054184 -0.010584437 -0.0019093475 0.12757324 0.99182731 0.00145674
-0.040398408 -0.28094572 -0.01054177 -0.0055755544 0.11601437 0.99323189 0.001421288
-0.034029692 -0.281564 -0.010476448 -0.0053054672 0.1131381 0.99356508 0.0012690352
-0.011462372 -0.28540927 -0.010070192 0.0016319653 0.082682662 0.99657458 0.00049587333
-0.0064111948 -0.28364524 -0.010256564 0.00038402667 0.10771785 0.99418145 0.001335619
0.0035731867 -0.28380024 -0.010240186 -0.0014198611 0.091748759 0.99578118 0.000896474
0.01254347 -0.28440374 -0.010176426 0.0011133153 0.09725605 0.99525881 0.00086056592
0.025405096 -0.28500909 -0.010112474 -0.0023759359 0.093096681 0.99565428 0.00049836782
0.033812143 -0.28181869 -0.010449541 0.0019430423 0.12251745 0.99246442 0.0011220879
0.047276046 -0.28048819 -0.010590108 -0.0044550789 0.12585193 0.99203902 0.0015221928
0.053584956 -0.28379765 -0.010240464 0.0028633336 0.11274686 0.99361956 0.0012486775
0.063460119 -0.28377846 -0.010242492 -0.0022663118 0.080728911 0.99673355 0.00051288254
0.071110554 -0.28279677 -0.010346205 -0.0013656709 0.12181707 0.99255162 0.0015814704
0.086133018 -0.28283292 -0.010342387 0.012742503 0.11863542 0.99285609 0.0017707212
0.095961221 -0.28567842 -0.01004176 0.078850828 0.058910836 0.99514425 0.056901105
0.12374729 -0.28339553 -0.010282946 -0.611323 0.29119346 0.73586047 0.20744684
0.13582838 -0.28331974 -0.010290954 -0.39940646 0.45577508 0.79545188 0.22662468
0.14685726 -0.28150851 -0.010482311 0.034529883 0.50489002 0.86249274 0.17134255
0.15385734 -0.28154144 -0.010478832 0.057043038 0.28877079 0.95569742 0.18177086
0.16412464 -0.28365812 -0.010255205 -0.0094054714 0.26150569 0.96515608 0.18753378
0.17605519 -0.28187093 -0.01044402 -0.13180603 0.27090719 0.95353895 0.19269055
0.18790267 -0.28381523 -0.010238603 -0.64187598 0.15977265 0.74997854 0.20140333
0.19160341 -0.28560513 -0.010049506 -0.85568339 -0.004878534 0.51747674 0.15984371
-0.19096386 -0.27290553 -0.011391213 0.65020221 0.052790564 0.75792497 0.16664246
-0.1883169 -0.27568135 -0.011097947 0.44527149 0.11719361 0.88769305 0.18495494
-0.17306319 -0.27515349 -0.011153717 -0.0036966419 0.30412486 0.95262498 0.18285716
-0.16103745 -0.2704289 -0.012043576 0.03452222 0.38253716 0.9232949 0.16675511
-0.15502684 -0.2729536 -0.010974258 0.05670049 0.41979703 0.90584511 0.1584824
-0.14502755 -0.27673876 -0.010774537 -0.0015725538 0.42920592 0.90320522 0.17644453
-0.13172083 -0.2770699 -0.010951247 0.39597526 0.40436843 0.82443297 0.20177136
-0.12902479 -0.27224636 -0.01060681 0.4486247 0.38011593 0.80885583 0.2003261
-0.1166581 -0.27312237 -0.012230789 0.63867408 0.21624969 0.73846561 0.21070176
-0.10355756 -0.27032989 -0.011663334 0.10679843 0.2823343 0.95335275 0.13778619
-0.095887072 -0.27476144 -0.011195139 0.014559186 0.15689583 0.98750788 0.050966863
-0.074970514 -0.27462804 -0.011209235 0.0053461483 0.14336739 0.98965514 0.0015084817
-0.065647915 -0.27889642 -0.010758277 -0.0019431182 0.12645756 0.99197012 0.0014870858
-0.05679496 -0.27800417 -0.010852545 -0.0038400651 0.14016029 0.99012142 0.0015575313
-0.035019428 -0.27433902 -0.011239768 0.0017799804 0.15989013 0.9871332 0.0017955314
-0.022561722 -0.27578831 -0.011086648 0.0050898655 0.15637586 0.98768449 0.0019292913
-0.014235768 -0.27327392 -0.011352297 0.002138467 0.16503073 0.9862861 0.0014922469
-0.0030503869 -0.2710163 -0.011590814 -0.00028804629 0.20312828 0.97915202 0.0041483478
0.011127472 -0.2717461 -0.011513708 -0.006199894 0.21583962 0.97640914 0.0046297968
0.025994483 -0.27129561 -0.011561304 -0.011096206 0.22676662 0.97388589 0.004232103
0.035552032 -0.27157223 -0.011532076 -0.0079576923 0.19617082 0.98053747 0.0039657229
0.045922473 -0.27349308 -0.011329141 -0.00020696553 0.1731782 0.98489052 0.0024575975
0.054583084 -0.27460134 -0.011212051 0.013804316 0.14987938 0.98860794 0.0018220517
0.064807907 -0.27303785 -0.011377232 -0.0028152387 0.15993129 0.98712415 0.0016697205
0.074386932 -0.27381095 -0.011295554 0.0011546673 0.16034271 0.98706067 0.0017950147
0.08517877 -0.2754645 -0.011120859 -0.006025414 0.14482084 0.98943961 0.002423346
0.093087338 -0.27530667 -0.011137534 0.019414581 0.14986423 0.98851597 0.021743
0.1044395 -0.2748929 -0.011181249 -0.13812552 0.18469113 0.97304183 0.17911096
0.11685016 -0.27363563 -0.01352797 -0.78199083 0.29215842 0.55057597 0.22837347
0.12255383 -0.27215043 -0.011527987 -0.48391554 0.31488141 0.81650198 0.21126363
0.13510901 -0.27268583 -0.01140183 -0.28507563 0.38385507 0.87828648 0.19773883
0.14739576 -0.27205151 -0.011445345 -0.055028524 0.50995642 0.85843825 0.16513328
0.15295644 -0.27338579 -0.010005411 -0.063563749 0.42355159 0.9036392 0.17334373
0.16816062 -0.27372038 -0.010828115 0.071376912 0.38736948 0.91915733 0.17259394
0.17213009 -0.27316669 -0.011363619 -0.092261188 0.32850334 0.93998587 0.16257028
0.18489297 -0.2700049 -0.011697661 -0.37639013 0.30183989 0.87591279 0.19548549
0.19066355 -0.27765933 -0.010888973 -0.93419611 -0.033437308 0.3551895 0.16011205
-0.17317314 -0.26616606 -0.012081542 0.090173431 0.46946716 0.87833321 0.16333118
-0.16442475 -0.26583773 -0.014357615 0.0073388442 0.39366779 0.91922343 0.15193892
-0.15556823 -0.26454854 -0.014617573 0.025791293 0.45705941 0.88906217 0.15936853
-0.14427468 -0.26615104 -0.01600845 0.049923584 0.60806543 0.79231566 0.16429928
-0.13246684 -0.26666322 -0.015533751 0.35833177 0.51824784 0.77654201 0.19656675
-0.12756805 -0.26578021 -0.01573885 0.38711756 0.4973551 0.77638763 0.19690481
-0.11780105 -0.26541606 -0.012679505 0.44134614 0.42685699 0.78930765 0.20342503
-0.10121201 -0.26587784 -0.012747852 0.12130441 0.28069019 0.95210212 0.10393964
-0.092902184 -0.2656512 -0.012824111 -0.021320622 0.24506585 0.96927196 0.036267016
-0.082589231 -0.26615947 -0.012658501 0.0025047138 0.29593435 0.95520496 0.0071337996
-0.066782899 -0.26495054 -0.01304204 0.0052337726 0.29306865 0.95607704 0.0076623145
-0.059242699 -0.26632458 -0.012614118 -0.0054434864 0.25308073 0.96742988 0.0057060416
-0.043453727 -0.26564842 -0.012820634 -0.010143024 0.291379 0.95655394 0.0076607177
-0.033668064 -0.26418883 -0.013283709 -0.017235961 0.33335558 0.94264358 0.0077938568
-0.022331998 -0.26605016 -0.012693172 -0.029830912 0.28810066 0.95713538 0.0079754889
-0.014904641 -0.26600602 -0.012707189 -0.0086962329 0.30734548 0.95155829 0.0077496758
-0.0065337606 -0.2634005 -0.0135338 -0.014263824 0.34116071 0.93989676 0.0095998514
0.0055094697 -0.26506934 -0.013004351 0.010484078 0.27895948 0.96024555 0.0055397106
0.01858633 -0.26729691 -0.012297641 -0.012951842 0.24964653 0.96825045 0.0042032367
0.029051185 -0.26271749 -0.013750498 -0.0035645564 0.29789621 0.95459157 0.0057527763
0.033873253 -0.26491487 -0.013053356 -0.0062214634 0.29617849 0.9551124 0.0056632217
0.046420261 -0.2631906 -0.013600394 0.0020687624 0.31834352 0.94797319 0.0060566962
0.052271146 -0.26905051 -0.011836002 0.013722909 0.26093826 0.96525794 0.0061134323
0.07574375 -0.26477236 -0.013098571 0.0029621874 0.29201332 0.95640969 0.0069253417
0.089041688 -0.26609308 -0.012679563 0.0090641761 0.28618988 0.95813 0.0083710756
0.095983177 -0.26896039 -0.011808016 -0.015805509 0.22805728 0.97351938 0.03627697
0.10193481 -0.26523247 -0.012952588 -0.11297809 0.29743707 0.94803327 0.13348623
0.11459726 -0.26539603 -0.013153441 -0.57176876 0.31692794 0.75672787 0.25073314
0.12266056 -0.26429233 -0.014105147 -0.51879656 0.3277413 0.78957957 0.21000387
0.13432035 -0.26471004 -0.014868761 -0.18290636 0.47340938 0.86164308 0.17488977
0.14592233 -0.26452604 -0.01467029 0.079398222 0.55088127 0.83079833 0.16961481
0.15637468 -0.26653045 -0.013908667 -0.13180272 0.64717263 0.75086331 0.16582842
0.16516015 -0.26459277 -0.015180978 -0.043160684 0.6128757 0.78899962 0.16060475
0.17396016 -0.26757982 -0.013190411 -0.087714665 0.41352844 0.90625626 0.1538391
0.18150043 -0.26416528 -0.013291174 -0.040429454 0.49325848 0.8689428 0.18489201
0.19181892 -0.26427916 -0.012738001 -0.18254231 0.31012508 0.93300635 0.18337192
-0.19110407 -0.25618267 -0.015273903 0.8148616 0.27530226 0.51010698 0.15451536
-0.18723261 -0.25753579 -0.015648721 0.75389612 0.33605617 0.56454122 0.15255173
-0.17538245 -0.25302929 -0.013395399 0.34546345 0.66689336 0.6602335 0.15177475
-0.16533473 -0.25374863 -0.014159642 0.054623712 0.73279589 0.67825234 0.12654446
-0.15380025 -0.25298297 -0.01304187 0.060692959 0.72652906 0.68445009 0.1383685
-0.14552854 -0.25247726 -0.015367268 0.0074161552 0.75765437 0.65261382 0.13481462
-0.13376565 -0.2521669 -0.013144257 0.079774834 0.70333809 0.70636505 0.17719099
-0.12537323 -0.25232038 -0.013736355 0.18887256 0.6960026 0.69275361 0.15417795
-0.11652183 -0.25404528 -0.015735287 0.18612127 0.65192777 0.73508435 0.16830556
-0.10314068 -0.25595579 -0.016265651 0.10882959 0.43106622 0.89573324 0.14481516
-0.090564206 -0.25673181 -0.015649492 0.013681346 0.48280948 0.87561852 0.026370604
-0.088741243 -0.25487602 -0.016852085 0.051775206 0.49911293 0.8649888 0.018838288
-0.072656035 -0.25529999 -0.016411541 0.0069088745 0.45865771 0.88858622 0.015590874
-0.06360884 -0.25719196 -0.015503497 0.03377692 0.43380663 0.90037262 0.01000989
-0.054397464 -0.25747049 -0.015415139 0.015698209 0.42982718 0.90277475 0.0099852355
-0.045577396 -0.25471738 -0.016748177 0.033408832 0.44081113 0.89697796 0.010206157
-0.021446278 -0.254076 -0.017125877 -0.01934614 0.50701398 0.86172068 0.0070304042
-0.015165636 -0.25461012 -0.016798889 -0.041174319 0.50318134 0.86319941 0.0082820216
-0.007922098 -0.25506115 -0.016609816 -0.025310282 0.4892911 0.87175322 0.011220885
0.0041105058 -0.25861412 -0.015052313 0.0039336416 0.38958338 0.92098278 0.010800519
0.016002212 -0.25439915 -0.017101543 -0.010100956 0.51257205 0.85858482 0.0070668799
0.034032576 -0.25067747 -0.019206496 0.024452087 0.53941065 0.8416878 0.0095836958
0.044000499 -0.25535053 -0.01634559 0.015900429 0.40529624 0.91404712 0.0076163108
0.054360833 -0.25571284 -0.016421763 0.021054268 0.44134802 0.89708894 0.011762529
0.06652189 -0.25439861 -0.016947411 -0.0029988859 0.46337706 0.88615614 0.010497196
0.073113576 -0.25558802 -0.016200194 0.018332671 0.43827248 0.89865518 0.0078243278
0.088484071 -0.25504076 -0.016825257 -0.015425882 0.46380734 0.88580179 0.020542547
0.097308613 -0.25583452 -0.016219083 -0.11302999 0.44729245 0.88721687 0.078664601
0.10398134 -0.25287381 -0.01786188 -0.18706141 0.52209342 0.83212173 0.20942879
0.11469003 -0.25708574 -0.015757222 -0.34595862 0.50938076 0.78793645 0.22386365
0.12421652 -0.25307852 -0.014155759 -0.2121859 0.62576795 0.75059414 0.17580713
0.13482581 -0.253829 -0.015794197 -0.0199118 0.66751659 0.74432862 0.16732977
0.14636569 -0.2535342 -0.013817742 -0.0085147023 0.62822968 0.77798122 0.14872251
0.15593185 -0.25245425 -0.015444935 -0.0257707 0.70834082 0.70540005 0.15870319
0.16473314 -0.25141856 -0.015067378 -0.13917802 0.73319328 0.66562539 0.13472766
0.17569523 -0.25487992 -0.015300225 -0.19526082 0.64556766 0.7383194 0.15696466
0.1847263 -0.25175709 -0.014698151 -0.61923736 0.44873476 0.64434636 0.17411941
0.19123232 -0.25360474 -0.010738063 -0.79119468 0.30407101 0.53061461 0.16971886
-0.19101457 -0.24459381 -0.012405318 0.88897687 0.34808293 0.2975876 0.11613742
-0.1839062 -0.24364276 -0.012511469 0.81791043 0.4311538 0.38095802 0.11759483
-0.17554247 -0.24511468 -0.014350986 0.44912681 0.64446467 0.61882979 0.13828382
-0.16367078 -0.24836144 -0.017152056 0.081366651 0.7364046 0.67163068 0.12394022
-0.15315098 -0.24751163 -0.018502992 -0.0072546657 0.8244642 0.56586766 0.12816696
-0.14588945 -0.24557753 -0.014727162 -0.040078156 0.79186988 0.60937327 0.13040599
-0.13626777 -0.24894071 -0.01782381 0.026840007 0.75464243 0.65558702 0.15700117
-0.12369663 -0.24537702 -0.014810905 0.1218366 0.73585641 0.66608649 0.16041438
-0.1163426 -0.24873394 -0.019458296 0.094190076 0.71404958 0.69373006 0.17696606
0.11672097 -0.24450551 -0.013881838 -0.2748839 0.64850068 0.70984912 0.19736387
0.1220502 -0.24546118 -0.013769896 -0.20523193 0.69417673 0.68992645 0.16900574
0.13549089 -0.24261759 -0.013527293 -0.031555802 0.81737244 0.57524467 0.1535777
0.14332882 -0.24743383 -0.015075095 0.089676633 0.70263714 0.70587468 0.14578131
0.15713421 -0.24907093 -0.016308723 -0.034628987 0.73369223 0.67859894 0.13968541
0.16415413 -0.24400194 -0.014030101 -0.016541881 0.79464096 0.60685426 0.10987505
0.17502594 -0.2489236 -0.017086139 -0.33843976 0.70454586 0.6237576 0.15902926
0.18261129 -0.24518643 -0.014183792 -0.74450117 0.4713828 0.47277495 0.16232415
0.19111982 -0.24397063 -0.015793916 -0.88267946 0.26491779 0.38819528 0.12806256
-0.19065186 -0.23313028 -0.01425148 0.93827617 0.26205629 0.22575291 0.072263256
-0.17570704 -0.238442 -0.016059514 0.62125409 0.60694468 0.49564257 0.15129595
-0.1546734 -0.2396438 -0.014194681 0.025986966 0.78898317 0.61386502 0.11229857
-0.13336554 -0.23762971 -0.017319951 0.06421905 0.83007133 0.55394727 0.14141205
-0.1232511 -0.23780225 -0.017052216 0.16267124 0.80761373 0.56683165 0.14561996
-0.11672099 -0.2359286 -0.015507375 0.15813044 0.76217669 0.6277591 0.13522552
0.11672097 -0.23589608 -0.01794997 -0.2529552 0.79409158 0.55265933 0.16344127
0.12832567 -0.2363278 -0.019340146 -0.042596173 0.84276086 0.53660005 0.16085298
0.13572182 -0.23855531 -0.015883699 -0.015452437 0.81539327 0.5787012 0.1435149
0.14007115 -0.23935485 -0.014643048 0.039249003 0.86809474 0.4948445 0.13164736
0.17109218 -0.23710939 -0.018127348 -0.36543623 0.77685839 0.51278406 0.14181419
0.18319124 -0.23821189 -0.017013228 -0.76341975 0.50000364 0.4088847 0.1310631
0.190777 -0.23374061 -0.012636021 -0.94022048 0.25837111 0.22187793 0.081949189
-0.19041173 -0.22640164 -0.015853638 0.97315317 0.1297601 0.19009252 0.04513051
0.19050513 -0.22614965 -0.016948944 -0.94774008 0.22242138 0.22873014 0.082059227
-0.19039345 -0.21367344 -0.012633611 0.99534571 0.082717016 0.049445614 0.026129451
0.19036143 -0.21626952 -0.013754701 -0.99250603 0.11249897 0.047705889 0.031236487
-0.19024582 -0.20163178 -0.015822466 0.99934226 -0.0061566718 0.035738353 0.0012075204
0.19028085 -0.2041629 -0.012171762 -0.99964619 -0.011531094 -0.023968806 0.0016630852
0.19020849 -0.19525686 -0.013048558 -0.99993998 0.0010301269 -0.010907236 0.0015508237
-0.13760908 -0.18263134 -0.016622737 0.6115703 0.78847575 -0.065481126 0.11202753
