# .PCD v0.7 - Point Cloud Data file format
VERSION 0.7
FIELDS x y z normal_x normal_y normal_z curvature
SIZE 4 4 4 4 4 4 4
TYPE F F F F F F F
COUNT 1 1 1 1 1 1 1
WIDTH 573
HEIGHT 1
VIEWPOINT 0 0 0 1 0 0 0
POINTS 573
DATA ascii
-0.24427156 0.13259917 -0.063448392 0.03920342 -0.98073119 0.19138797 0.18587142
-0.22208151 0.13478117 -0.062284451 0.92481452 0.16972147 0.34045964 0.15069985
-0.11869434 0.13334212 -0.063136585 0.95351839 -0.20953046 0.21656315 0.00127718
0.17613646 0.13420638 -0.064225532 -0.95544761 0.29515317 -0.0021489214 0.13823013
0.19696771 0.13259608 -0.06516993 0.060388148 -0.99715465 -0.045121063 0.28301936
0.30892101 0.13149302 -0.066088282 -0.39509994 0.91857594 0.010685825 0.15335333
0.31346053 0.13665539 -0.068382256 0.28187045 -0.95619082 -0.079045177 0.18367517
0.33811131 0.1363975 -0.067794412 -0.79748148 0.054279141 -0.60089684 0.17202389
0.4685494 0.1360026 -0.069506004 -0.39604148 -0.19688749 0.89687592 0.015821731
0.47435796 0.13983566 -0.066790961 -0.6158309 -0.28154987 0.73585463 0.033801623
0.48207393 0.13571666 -0.064576499 -0.71317506 -0.20085643 0.67159367 0.032630712
-0.48193127 0.14431165 -0.067408912 0.79376829 -0.47171623 0.38394752 0.064357981
-0.38170308 0.14230166 -0.064986892 0.85981029 0.35469761 -0.36730883 0.19367661
-0.36345524 0.14903204 -0.065767124 0.63629401 0.41945249 -0.64744854 0.2918818
-0.23822179 0.14236619 -0.066631541 0.57590336 -0.7058872 0.41238168 0.18512772
-0.2220794 0.14433499 -0.064137064 0.93911451 -0.031510029 0.34215662 0.14404903
0.17528644 0.14592747 -0.066980585 -0.93508703 -0.21819218 0.27929279 0.1928709
0.19084275 0.14392538 -0.065909415 -0.98246437 -0.1449829 0.11723365 0.20077367
0.31637791 0.14718726 -0.066362485 -0.58121198 0.78099912 0.22854525 0.28739578
0.33721468 0.14502808 -0.064306952 -0.77501231 0.34815517 -0.52739352 0.20250414
0.45971498 0.14844389 -0.069703929 -0.27857938 -0.41778862 0.8647809 0.016689681
0.46604231 0.14503981 -0.068592839 -0.36109859 -0.38469926 0.84947884 0.019363947
0.47288531 0.14906472 -0.065472297 -0.46243015 -0.48583597 0.74170196 0.031404797
0.48209512 0.14336631 -0.063427433 -0.66521746 -0.31888792 0.67512679 0.039073203
-0.47982395 0.15127321 -0.061117783 0.66541868 -0.71940964 0.19916758 0.068401918
-0.46565557 0.15632664 -0.063564181 0.45845377 -0.87209183 0.17110263 0.052004468
-0.45693031 0.15862489 -0.068109848 0.28306258 -0.86315453 0.41813856 0.016016619
-0.38179836 0.15468889 -0.063826211 0.54220945 0.7036925 -0.45915771 0.20463525
-0.36261353 0.15737751 -0.060044192 0.7004143 -0.71373647 -0.00040137063 0.26322526
-0.22225392 0.15312673 -0.065092862 0.89294893 -0.24515277 0.37754768 0.13472261
0.17509241 0.15617026 -0.063954107 -0.76455688 -0.62175429 0.16992481 0.2045639
0.19120675 0.15960188 -0.060020924 -0.72711003 0.68650639 0.0044545941 0.25392368
0.3159399 0.15885824 -0.062944554 -0.51952893 -0.81973732 0.24108176 0.26788184
0.33654144 0.15463957 -0.062817417 -0.49159986 0.65673757 -0.57186133 0.16873419
0.43072167 0.15960503 -0.069002345 -0.091370836 -0.75154394 0.6533246 0.019251943
0.44533789 0.15494525 -0.068912365 -0.19827501 -0.6498723 0.73372543 0.022457091
0.45420492 0.1538015 -0.067406885 -0.24433091 -0.62497681 0.74142182 0.021389086
0.46565616 0.15379131 -0.064200252 -0.34988475 -0.62662721 0.69636118 0.021768268
0.47389305 0.15077184 -0.064212799 -0.4768272 -0.51960164 0.70897806 0.030303391
-0.45335555 0.16102679 -0.064223148 0.23038825 -0.92087698 0.31449461 0.016686594
-0.44298974 0.16144435 -0.064116552 0.12030461 -0.93614817 0.33038378 0.009306821
-0.43694502 0.16271263 -0.060549155 0.10124919 -0.97775406 0.18369965 0.02305002
-0.42422256 0.16287617 -0.062127739 0.056794997 -0.9602437 0.27332485 0.0033948533
-0.41384944 0.162929 -0.063785024 0.044689946 -0.95116162 0.30544123 0.0024490161
-0.40253082 0.16357009 -0.064078249 -0.2041543 -0.92745769 0.31327814 0.044564683
-0.3943738 0.16384791 -0.063782118 -0.32830253 -0.89030731 0.31554767 0.059627455
-0.38750947 0.1637432 -0.066284321 -0.24486589 -0.90403384 0.35037619 0.088770844
-0.35972595 0.16760841 -0.061629504 0.28661004 -0.95280951 0.10004332 0.12810439
-0.3242383 0.1636326 -0.067964815 -0.049499925 -0.99877256 -0.0018122062 0.034417186
-0.31277025 0.1689994 -0.060554832 0.037070177 -0.9967984 -0.070842601 0.026012933
-0.28466135 0.16813703 -0.064477667 -0.055483721 -0.99820346 -0.022614755 0.025018036
-0.27540234 0.16186027 -0.061335832 0.031650897 -0.9994787 -0.0063644261 0.035746872
-0.26657528 0.16805971 -0.062308516 0.073789462 -0.99718326 0.013440068 0.028056469
-0.22284807 0.16351406 -0.06429562 0.65862423 -0.56100422 0.50148618 0.13085499
-0.19308266 0.1695796 -0.069715261 0.01612374 -0.89620537 0.44334638 0.0048014903
-0.15309641 0.16943739 -0.069306388 0.017893016 -0.8903808 0.45486471 0.005290146
-0.12704711 0.16944528 -0.068827994 -0.03831403 -0.89167428 0.45105329 0.045744039
-0.11694159 0.16902581 -0.069533437 -0.0072924714 -0.87770295 0.47914955 0.050641105
-0.10551453 0.16907978 -0.069217123 -0.0060065128 -0.88122028 0.47266766 0.0045932322
-0.086812183 0.16932914 -0.068359792 -0.011624202 -0.88406426 0.46722078 0.0051241051
-0.074871793 0.16865921 -0.069560811 0.00074132258 -0.88226974 0.47074381 0.0061332961
-0.066066928 0.16957538 -0.067472808 -0.013956437 -0.88382483 0.4676097 0.0047640465
-0.045866746 0.16947342 -0.067329742 -0.012312789 -0.88750559 0.46063241 0.0045737247
-0.035316989 0.16896331 -0.068218425 -0.011497112 -0.88610309 0.46334553 0.0052944799
-0.026274843 0.16942665 -0.067081101 -0.0066231065 -0.8939265 0.44816452 0.0044690403
-0.013312507 0.1686219 -0.068548352 0.0006088416 -0.88528973 0.46503934 0.0044501754
-0.0049221702 0.16884066 -0.067938328 -0.0075737978 -0.8825174 0.47021866 0.0052670455
0.0033470746 0.16844296 -0.068630382 -0.020635886 -0.87931669 0.47579023 0.0050983783
0.016299786 0.16947964 -0.066214718 -0.0096813552 -0.88802016 0.45970267 0.0041707866
0.025843926 0.16935882 -0.066300318 0.0039430996 -0.88086104 0.47335857 0.0044810316
0.037961654 0.16933995 -0.066183135 -0.00010830865 -0.87201238 0.4894838 0.0030545162
0.04684148 0.16908054 -0.066634446 0.0081250872 -0.86985451 0.49324149 0.0035615636
0.0575452 0.16915208 -0.066368312 0.0049177017 -0.85426247 0.51981872 0.0030673854
0.062947504 0.16803592 -0.068663493 -0.0020271421 -0.84494454 0.53485006 0.0033623958
0.073637098 0.16985482 -0.064713329 -0.0090426672 -0.86039174 0.50955302 0.0016401774
0.080846705 0.16820545 -0.06811332 -0.0062626279 -0.85203135 0.52345335 0.0022969416
0.095304742 0.16888133 -0.066532515 -0.013567226 -0.86302382 0.50498092 0.0015403569
0.10560328 0.16962765 -0.064848036 0.0045298594 -0.86462975 0.50238913 0.0019051683
0.116258 0.1688381 -0.06639801 0.0039007247 -0.86842555 0.49580419 0.0017686015
0.1219359 0.16863814 -0.066758499 0.0030995938 -0.86843944 0.49578571 0.0013693289
0.13197342 0.16854078 -0.066855714 -0.0094352206 -0.86650461 0.49907976 0.0014737339
0.14691192 0.16780166 -0.068253174 -0.038142607 -0.84438586 0.53437603 0.0045923931
0.15517046 0.16790842 -0.06793917 -0.18126415 -0.82570291 0.53418911 0.031012908
0.16510524 0.16836217 -0.066875413 -0.28889292 -0.79908288 0.52726412 0.074363202
0.17459092 0.16407573 -0.065101132 -0.29056165 -0.80030054 0.5244931 0.2159674
0.19092789 0.16173479 -0.066938609 0.40638995 -0.88443118 0.22940926 0.23193547
0.21774486 0.16362539 -0.065565534 -0.028238477 -0.99950302 -0.014011987 0.058177099
0.22510678 0.16335635 -0.065701842 -0.10247998 -0.99400681 0.038057487 0.036182567
0.23425618 0.16716577 -0.063210376 0.046049744 -0.99607021 -0.075655065 0.037043069
0.24018043 0.16883567 -0.061410628 0.048260003 -0.99646395 -0.068778574 0.033147313
0.27365601 0.16624016 -0.064614765 -0.027998406 -0.99947989 -0.016004322 0.035119541
0.28559652 0.16596748 -0.063947566 0.095867619 -0.99536997 0.006936071 0.031057928
0.33653736 0.163701 -0.064355537 0.17499036 -0.88339913 0.43472332 0.13317256
0.34367085 0.16482155 -0.065606907 0.31580502 -0.80746943 0.49825728 0.084880397
0.35186705 0.16485612 -0.064864211 0.19711098 -0.85869133 0.47307131 0.051630042
0.3658312 0.16319391 -0.067232117 -0.017328134 -0.86016595 0.50971979 0.0093717584
0.37796441 0.16396712 -0.064608604 -0.057465211 -0.8705433 0.4887251 0.0083301943
0.38565123 0.16296589 -0.066094115 -0.064621672 -0.85394913 0.51632833 0.010075609
0.3925561 0.16355698 -0.064282194 -0.062383085 -0.865538 0.496943 0.0068096002
0.40380424 0.16286419 -0.064809509 -0.05984173 -0.83447093 0.54779297 0.010570589
0.41445583 0.16321714 -0.063204229 -0.069076478 -0.82747298 0.55724037 0.014304741
0.42778373 0.16201921 -0.064441644 -0.051727541 -0.81181031 0.58162558 0.013380106
0.43493631 0.16099651 -0.06582395 -0.10007232 -0.77323139 0.62617791 0.019042147
0.44344443 0.16098371 -0.065030113 -0.14094783 -0.7409063 0.65665174 0.023402497
0.45357466 0.16105758 -0.062362082 -0.24985132 -0.74671739 0.61643124 0.0206169
-0.3562685 0.17234579 -0.064889967 0.4326784 -0.89737487 0.086647734 0.099328242
-0.31311238 0.17065717 -0.063011698 0.079731956 -0.99607652 -0.038397476 0.026561165
-0.30353078 0.17354541 -0.06564378 0.09545967 -0.99221057 -0.080035068 0.021587709
-0.29137409 0.1722797 -0.060983494 -0.013154823 -0.9977529 -0.065696731 0.026004128
-0.26138306 0.17412287 -0.063507631 0.062228858 -0.99805248 -0.0043303906 0.047244988
-0.22501272 0.17766912 -0.060430169 0.30621091 -0.79522049 0.52331567 0.08734484
-0.21546304 0.17341428 -0.061189234 0.3593519 -0.82078302 0.44405115 0.071928531
-0.20550209 0.17454492 -0.063219428 0.16009431 -0.86909211 0.46802655 0.041231588
-0.19571345 0.17339088 -0.064389378 0.010948894 -0.92057323 0.39041638 0.01298347
-0.18544759 0.17451525 -0.064169906 -0.0040337397 -0.92225319 0.38656536 0.0083490796
-0.17602241 0.17290768 -0.064308405 -0.014714977 -0.91844875 0.39526623 0.0083686532
-0.16520667 0.17330027 -0.064125836 0.012840099 -0.91994685 0.39183283 0.0085160965
-0.15484019 0.17617722 -0.061984461 0.016832998 -0.92887968 0.36999878 0.012154215
-0.14450929 0.17292035 -0.063677698 0.0069861696 -0.91373163 0.40625814 0.0097391671
-0.13666071 0.17356682 -0.062307078 -0.0020259188 -0.92071974 0.39021918 0.010543376
-0.12514424 0.17413592 -0.062666371 -0.013496498 -0.91474986 0.40379524 0.010340113
-0.1160391 0.17417014 -0.062385261 -0.023582298 -0.91821206 0.39538655 0.011726211
-0.10787524 0.1756752 -0.061324328 -0.03310892 -0.92352575 0.38210458 0.01037239
-0.09539333 0.17431292 -0.061255325 -0.010901652 -0.91844457 0.39539936 0.0084136296
-0.083175883 0.17429505 -0.062074009 -0.0033545222 -0.91823745 0.39601612 0.0088712974
-0.075787857 0.17302582 -0.063391261 0.012233597 -0.91553164 0.40205997 0.008398531
-0.062976636 0.17349769 -0.061874021 0.0060194414 -0.91285127 0.40824771 0.0084167253
-0.054251242 0.17272364 -0.061622202 -0.011802705 -0.91097003 0.4123036 0.0074828281
-0.046809509 0.17425045 -0.060073812 -0.028872946 -0.92030334 0.39013857 0.0096646575
-0.036193453 0.17212936 -0.062536165 -0.012279751 -0.90493375 0.42537528 0.0058662696
-0.025514971 0.17305824 -0.062087141 8.2287348e-05 -0.912911 0.40815869 0.0072964947
-0.01449923 0.17261136 -0.062919907 -0.00091308419 -0.91187441 0.41046828 0.0080499277
-0.007617963 0.17124385 -0.06291844 0.0040531345 -0.903548 0.42846784 0.0057078819
0.0022070657 0.17382239 -0.062364124 -0.021851093 -0.91241825 0.40867519 0.0070258616
0.019047832 0.17146336 -0.061982904 -0.00098919671 -0.91212171 0.40991834 0.0082475357
0.036833763 0.17108846 -0.062508583 0.017770896 -0.90987742 0.41449642 0.0065454054
0.041536599 0.17133364 -0.061940975 0.00510961 -0.90031314 0.43521267 0.005850866
0.057178319 0.17004952 -0.064480051 0.010946135 -0.87059957 0.49187049 0.0029094408
0.066782698 0.1712075 -0.061935037 0.0042608385 -0.894476 0.4470956 0.0050660279
0.088291384 0.17062123 -0.062939495 -0.013055941 -0.87808442 0.47832769 0.0032854516
0.095084064 0.17076646 -0.062560171 -0.019175872 -0.87074739 0.49135646 0.0021673781
0.10274825 0.17179419 -0.060310695 -0.0081400424 -0.88755018 0.46063912 0.0057931743
0.11521958 0.17088804 -0.062086992 0.0068680709 -0.88730609 0.46112981 0.005388014
0.12668082 0.17105116 -0.061619587 0.0010550505 -0.89223695 0.45156637 0.0050156256
0.13555449 0.17114051 -0.061335657 -0.013727899 -0.87007773 0.49272335 0.0019084545
0.14546311 0.17103596 -0.06144939 -0.0098555768 -0.87379456 0.48619539 0.0024010057
0.15668504 0.17104767 -0.061303835 -0.19727737 -0.84418678 0.49842784 0.031470217
0.16481915 0.17033704 -0.062714577 -0.30115414 -0.80177802 0.51619589 0.055969249
0.19733733 0.17277001 -0.068586037 0.23061711 -0.95705181 0.17569116 0.12227418
0.20413505 0.17441784 -0.067953326 0.20415895 -0.97815961 0.039024681 0.09577997
0.21227175 0.17437276 -0.069414362 0.0056182877 -0.99993569 0.009856998 0.058057383
0.24714835 0.17381823 -0.067062587 0.10863887 -0.9894048 -0.096310861 0.022023752
0.25638527 0.17369676 -0.068843216 -0.065028861 -0.99779367 -0.0133836 0.029722076
0.26039889 0.17336191 -0.066484131 -0.10366845 -0.99174881 -0.075413018 0.023271112
0.29718566 0.17452627 -0.064256683 -0.12590314 -0.98892426 -0.078595124 0.074789122
0.30658373 0.17372632 -0.068192258 -0.5576039 -0.82996732 -0.015238344 0.094014294
-0.22081062 -0.18041638 -0.051515333 0.30633193 0.88471115 0.35135007 0.072882354
-0.2150981 -0.18055649 -0.051982205 0.28985292 0.90197879 0.32003069 0.059972972
-0.20368473 -0.18078388 -0.052560966 0.091527387 0.9545756 0.28356326 0.020477174
-0.19245526 -0.18052974 -0.053546425 0.0069853845 0.95622355 0.29255369 0.016567778
-0.18197119 -0.18094349 -0.051855318 -0.006119275 0.96453565 0.26388201 0.015647106
-0.17459196 -0.18084541 -0.052081376 -0.0083103357 0.96488303 0.26254845 0.015184368
-0.16727421 -0.18091613 -0.051694356 -0.010648205 0.96002889 0.27969855 0.015044353
-0.15642212 -0.18092261 -0.051478434 -0.011531076 0.96519047 0.2612935 0.013698802
-0.14563859 -0.18118358 -0.050337888 0.0022682543 0.97233951 0.23356105 0.014060942
-0.13450961 -0.18061161 -0.052221518 0.012840365 0.95620322 0.292422 0.016074024
-0.12554449 -0.18044642 -0.052663557 0.0070056012 0.95232028 0.3050198 0.014621946
-0.11424052 -0.1808552 -0.050975993 -0.0030498656 0.95399994 0.29979131 0.013654737
-0.090623617 -0.18066087 -0.051264387 0.0070314691 0.96414018 0.2653001 0.013341464
-0.063352317 -0.18057355 -0.051098656 0.0014513319 0.96409369 0.26555833 0.01650043
-0.05344433 -0.18048346 -0.051250756 0.0071614515 0.95826238 0.28580046 0.015619502
-0.044295698 -0.18031196 -0.051712643 -0.010520616 0.9524774 0.3044275 0.018138487
-0.031639006 -0.18027169 -0.0516348 0.0026567387 0.95409024 0.29950753 0.01636577
-0.027826881 -0.18055546 -0.050534748 -0.016526876 0.95958006 0.28095016 0.016453529
0.026158478 -0.18021056 -0.050832711 0.016220223 0.95031446 0.31086874 0.015313727
0.035577361 -0.18026598 -0.050522789 0.0078264419 0.95380861 0.30031294 0.016153846
0.040951181 -0.18018386 -0.050777197 -0.011796275 0.95038527 0.31085157 0.014301132
0.07626605 -0.18019682 -0.050438762 0.014821895 0.95038241 0.31073055 0.014743663
0.08025825 -0.18021731 -0.050331272 -0.016895773 0.9534483 0.3010827 0.015236414
0.1400066 -0.18012522 -0.050173491 0.0047057234 0.9464131 0.32292429 0.014436341
0.15514916 -0.1800552 -0.050303303 -0.040597998 0.94364256 0.3284671 0.01984022
0.16595681 -0.18001236 -0.050369974 -0.22308517 0.87919235 0.42101526 0.050934989
0.17456621 -0.18007383 -0.050075315 -0.28404701 0.87933111 0.38222259 0.065553404
-0.34898645 -0.17431735 -0.052406833 0.22325011 0.96404725 -0.144126 0.11039875
-0.33848673 -0.1741544 -0.056279898 0.029459653 0.99768555 -0.061282512 0.068716943
-0.29386485 -0.17206483 -0.059136033 -0.067305908 0.99736029 -0.027246166 0.033358913
-0.26083761 -0.17452629 -0.057088662 0.067440771 0.99257225 0.10125256 0.046358593
-0.25447604 -0.17437962 -0.053040877 0.017166831 0.99977887 0.01214572 0.096589796
-0.24883436 -0.17399085 -0.054121278 -0.034396943 0.99622995 0.079640843 0.14788748
-0.22760537 -0.17607965 -0.051975738 0.31882766 0.91240066 0.25665918 0.13789532
-0.20458011 -0.17806065 -0.054125071 0.11243736 0.94032079 0.32117718 0.028278831
-0.19519074 -0.17466839 -0.056585718 0.0047749528 0.93539989 0.35355929 0.011902069
-0.18418944 -0.17663625 -0.055342674 0.017287673 0.94657338 0.32202503 0.013951506
-0.17567813 -0.17672555 -0.054255873 -0.014681147 0.96150082 0.27440971 0.014535035
-0.16559161 -0.17776476 -0.05701844 -0.0078162849 0.93758857 0.34765866 0.011871805
-0.1564486 -0.17515782 -0.057785045 -0.015736172 0.92734081 0.37388688 0.010676837
-0.14167593 -0.17693169 -0.053514242 0.00058802863 0.94535172 0.3260518 0.012480337
-0.13469742 -0.17564289 -0.055023845 0.0137218 0.94358546 0.33084443 0.013537317
-0.12477209 -0.17529629 -0.055344854 -0.031434134 0.94239134 0.33303207 0.10369235
-0.11654137 -0.17603183 -0.053898137 0.0088606309 0.94092828 0.33849001 0.082258604
-0.10380544 -0.17745787 -0.053984281 -0.010095094 0.93862045 0.34480414 0.011222842
-0.096321322 -0.17544138 -0.056095116 -0.021140264 0.93795401 0.34611467 0.010336772
-0.08577349 -0.17713496 -0.05614892 -0.0035674886 0.92906708 0.36989403 0.0099723926
-0.074177466 -0.17548685 -0.05604649 -0.00013972462 0.93275511 0.36051062 0.010110087
-0.065131985 -0.17684391 -0.05553234 0.0039922609 0.93686557 0.34966695 0.013078092
-0.054456819 -0.1764598 -0.05674053 0.018230345 0.93290818 0.35965243 0.011819417
-0.04611687 -0.1748988 -0.056160677 -0.0022252752 0.92887461 0.37038761 0.012436599
-0.033850353 -0.17784297 -0.056843232 -0.0074594524 0.93336439 0.35885277 0.013577146
-0.02476511 -0.17645496 -0.056231845 -0.02440259 0.93193793 0.36179581 0.012272275
-0.013777289 -0.17490281 -0.057787042 -0.030425744 0.91894943 0.39320016 0.0088328402
-0.0056161387 -0.17658286 -0.055427209 -0.043074735 0.92942935 0.36647734 0.010927452
0.0053292946 -0.17599039 -0.056271296 -0.0064765215 0.93030387 0.36673266 0.0099190371
0.012800395 -0.17620857 -0.056917727 0.010594881 0.92274642 0.38526204 0.0099222129
0.025953835 -0.17522584 -0.055063833 -0.0040012342 0.9371984 0.34877375 0.012765546
0.035136536 -0.17408736 -0.057353824 -0.013166703 0.92089957 0.38957739 0.0097107608
0.043378964 -0.17680559 -0.053833183 -0.0057911454 0.93471718 0.35534525 0.013519925
0.055781592 -0.17581095 -0.056115389 0.00085759431 0.92197859 0.38723993 0.010097244
0.066480607 -0.17670983 -0.054038301 -0.011378674 0.93836302 0.34546405 0.012376712
0.075734749 -0.17644404 -0.055534009 -0.0048044501 0.92656291 0.37610915 0.011204605
0.085685931 -0.1755738 -0.056601711 -0.02422672 0.92867553 0.37010118 0.010518735
0.094480686 -0.17558959 -0.057457976 -0.018813478 0.92378283 0.38245443 0.010069198
0.10360067 -0.17665398 -0.055148914 -0.013416655 0.93794006 0.34653786 0.011668434
0.11560444 -0.17554659 -0.054836757 0.0014413304 0.93471014 0.35540789 0.010681044
0.12717159 -0.17657505 -0.05505671 0.023488017 0.91955912 0.39224914 0.010930105
0.13405421 -0.17530741 -0.056327619 0.017175723 0.91353977 0.40638652 0.0087588821
0.14508796 -0.17510968 -0.05621117 -0.0051237731 0.91064751 0.4131524 0.0082369754
0.15557623 -0.1759029 -0.054750994 -0.073723391 0.89528108 0.43935934 0.024024582
0.16481204 -0.17580296 -0.054780968 -0.26727581 0.86514014 0.42437744 0.05243475
0.17438686 -0.17534046 -0.054320481 -0.26942134 0.873074 0.40639147 0.058473848
0.20628679 -0.17434442 -0.054172326 0.15651223 0.98766226 -0.0052170628 0.11547902
0.21378355 -0.17452629 -0.055227388 -0.02586714 0.99439216 -0.10254302 0.041334059
0.25451577 -0.17289189 -0.058681812 -0.014357535 0.99731106 -0.071865156 0.028633066
0.29414356 -0.17452627 -0.059566349 -0.093662813 0.99404585 -0.05567944 0.060441598
0.34799933 -0.17052007 -0.05277269 0.18629271 0.90579242 0.38057199 0.038021818
0.36007985 -0.17062594 -0.05108035 0.012850484 0.94333208 0.33160147 0.0052532284
-0.4621785 -0.16115689 -0.054620463 0.36007109 0.9315536 0.05056306 0.053752862
-0.45637345 -0.16419837 -0.051845223 0.27643412 0.96093392 -0.013788621 0.052737072
-0.44384822 -0.16447245 -0.052989129 0.12403013 0.99068314 0.056245219 0.032289267
-0.43478146 -0.16400917 -0.056216683 0.074660465 0.99470383 0.070640534 0.029954964
-0.42570901 -0.16426915 -0.056822393 0.078563601 0.98477393 0.15507434 0.017354907
-0.41573268 -0.1643925 -0.058077894 0.055926219 0.98017991 0.19005153 0.01087456
-0.40730381 -0.16569607 -0.054789387 0.038207449 0.98026609 0.19395491 0.014618797
-0.39436316 -0.16659603 -0.053734619 -0.26599666 0.92112327 0.28421429 0.047876976
-0.38372436 -0.16544634 -0.055949718 -0.21784863 0.91343439 0.34377268 0.12454535
-0.37963247 -0.16463543 -0.054720264 -0.31825817 0.88362592 0.34339052 0.14433584
-0.36026502 -0.16367009 -0.054760069 0.53982556 0.84152329 0.020658202 0.19990817
-0.33309534 -0.16842659 -0.055514365 -0.029236607 0.99703169 -0.071225874 0.051934432
-0.32286361 -0.16188973 -0.053726673 -0.11094257 0.99256605 0.050042916 0.043889888
-0.30568635 -0.16793813 -0.054351732 0.070350751 0.99612314 -0.052815124 0.038121969
-0.29500714 -0.16761917 -0.05393875 -0.0075103813 0.99915451 -0.040421169 0.04214989
-0.27551904 -0.16715312 -0.053205624 0.083783843 0.9964087 0.01224725 0.034228418
-0.26804256 -0.16410078 -0.055692021 -0.0190566 0.99966598 0.017458167 0.052838553
-0.24203762 -0.16411215 -0.052006807 -0.2620326 0.96438974 -0.035935335 0.24204342
-0.22540174 -0.16469973 -0.05633343 0.5722357 0.72377205 0.3856169 0.16178705
0.17617916 -0.16673782 -0.056070071 -0.54336447 0.7123636 0.44417691 0.12467992
0.22333266 -0.16816829 -0.050851051 -0.04443378 0.99853653 -0.030830882 0.034437388
0.23535438 -0.16393077 -0.054717403 -0.026220903 0.9996075 -0.00986744 0.039870694
0.24185741 -0.16503383 -0.051425803 -0.030432813 0.99946672 -0.01183745 0.041119363
0.26577148 -0.16783063 -0.057397962 -0.00071609014 0.99968034 -0.025274605 0.039236516
0.27715683 -0.16713056 -0.050869733 0.029048234 0.99893308 0.035901364 0.03312093
0.2827512 -0.16730972 -0.05271028 0.024998246 0.99967271 0.0054365247 0.031387445
0.314996 -0.1610525 -0.058951866 -0.3177655 0.94804806 0.015166396 0.21053085
0.33582151 -0.16593981 -0.058264446 0.23050761 0.90961796 0.34563196 0.10124151
0.34457377 -0.16880193 -0.057130262 0.37273648 0.80716568 0.45776758 0.0824086
0.36395204 -0.16868515 -0.055790965 -0.020954529 0.93340582 0.35821012 0.0011330532
0.37733856 -0.16800979 -0.05604662 -0.040767312 0.92708862 0.37261885 0.00079724914
0.38738838 -0.16827755 -0.054739088 -0.041829459 0.93082887 0.36305362 0.0014559786
0.39602461 -0.16738048 -0.055763975 -0.04134497 0.92499596 0.37772089 0.001284231
0.40561366 -0.16812415 -0.053442091 -0.040903341 0.92740262 0.37182146 0.0021613687
0.4135991 -0.16628188 -0.056810379 -0.057018176 0.90120393 0.42962831 0.0057204571
0.42621511 -0.16629544 -0.055689443 -0.030387582 0.90326184 0.42801231 0.0062222439
0.43317825 -0.16577217 -0.056236342 -0.087860532 0.89116699 0.44508663 0.0061989846
0.44395489 -0.16601205 -0.054481857 -0.12159422 0.88278103 0.45377591 0.0070810081
0.45566219 -0.16642305 -0.050588824 -0.21410179 0.88739645 0.4082745 0.0080033829
0.46229088 -0.16124383 -0.056509316 -0.30506551 0.80126274 0.51469702 0.01723271
-0.48251557 -0.15187636 -0.056271538 0.77035123 0.63723505 -0.022147149 0.083249658
-0.4761914 -0.15383029 -0.058391251 0.67362344 0.73214662 0.10095948 0.074597575
-0.46672738 -0.15807754 -0.057708059 0.43569377 0.89188963 0.1212593 0.062804468
-0.38019511 -0.15286921 -0.058308575 0.64435256 -0.66436756 -0.37871549 0.14878921
-0.37884721 -0.15551285 -0.053638916 0.58683032 -0.69612503 -0.41357023 0.17706177
-0.36212865 -0.15576023 -0.056747194 0.72766024 0.66488361 -0.16864279 0.24243134
-0.23849149 -0.15169716 -0.057268552 0.98690706 -0.15669416 0.038227469 0.19636598
-0.22560036 -0.15646407 -0.054630965 0.90376806 0.26596943 0.33535579 0.16133195
0.17581968 -0.1558886 -0.058663089 -0.78028882 0.544213 0.3081907 0.15928929
0.19211595 -0.1573437 -0.055071916 -0.97271407 -0.17715274 0.14981391 0.24376251
0.31441498 -0.15390939 -0.055005644 -0.73613566 0.66650987 -0.11776662 0.2817052
0.33500323 -0.15997542 -0.05538553 -0.52808684 -0.71139157 -0.46373093 0.13673165
0.46693403 -0.15907599 -0.056948803 -0.37027058 0.74301791 0.55751598 0.030218538
0.47595847 -0.15614784 -0.055231657 -0.60959601 0.65740949 0.44295099 0.05685911
0.4815397 -0.15268975 -0.053973787 -0.76934779 0.52262229 0.36738259 0.06513638
-0.48498622 -0.14814664 -0.055461634 0.82512742 0.55691046 -0.094949946 0.085114479
-0.37910318 -0.14840364 -0.055541158 0.76864076 -0.52939081 -0.35907769 0.15653709
-0.36095491 -0.1447551 -0.055175688 0.7439099 -0.15195715 -0.65077424 0.25853038
-0.23819456 -0.14856866 -0.059731722 0.99464184 0.10338059 0.00012773006 0.19486406
-0.22488266 -0.14723112 -0.055374485 0.97054511 0.049472392 0.23578511 0.1065867
-0.11934397 -0.14234862 -0.056526572 0.94660825 0.23461093 0.22111203 0.0070998534
0.17795634 -0.14422739 -0.054132659 -0.95397484 -0.24060082 0.17900617 0.15254091
0.19320776 -0.14525115 -0.052339807 -0.90301055 0.39182028 0.17620695 0.2103968
0.31394833 -0.14379141 -0.05504407 -0.40645185 -0.91041362 0.07709673 0.24745943
0.33537444 -0.14646758 -0.054935887 -0.78606176 -0.14095153 -0.60186344 0.20671037
0.48472318 -0.14551438 -0.052639045 -0.8344208 0.41141206 0.36671776 0.076934673
-0.48898584 -0.13574484 -0.055180259 0.96136862 0.2702437 -0.052332599 0.066099413
-0.37750912 -0.13519894 -0.052529063 0.92509836 0.068209611 -0.37355116 0.16283198
-0.36004338 -0.13798176 -0.05855608 -0.24767278 0.95247012 0.17736655 0.26685387
-0.35571921 -0.1347004 -0.052780047 0.12101583 0.85405022 -0.50591832 0.25053027
-0.22495386 -0.13476154 -0.053444028 0.96647602 -0.18331528 0.17977674 0.089189999
-0.12168907 -0.13168249 -0.058986895 0.93547153 0.25986877 0.23950212 0.0037632913
0.17790189 -0.13514474 -0.055640232 -0.88632816 -0.46191448 -0.032520398 0.19894387
0.19657008 -0.13661623 -0.053384241 -0.22830485 0.96230775 -0.14778605 0.27322006
0.30787966 -0.13237447 -0.056199763 0.22074068 0.97212839 -0.078992605 0.20802948
0.33576709 -0.1359632 -0.054586958 -0.92529517 0.26277396 -0.27345714 0.1623776
0.48690197 -0.13387117 -0.051920034 -0.94436955 0.20269661 0.25899845 0.067777984
-0.48935753 -0.12432303 -0.059063256 0.98155904 0.18094775 -0.061642285 0.085393928
-0.37837246 -0.12499613 -0.056828182 0.92910701 0.18707263 -0.31900454 0.12011135
-0.35130307 -0.12999932 -0.055270925 -0.013042687 0.99755096 -0.068715937 0.21197854
-0.33455244 -0.12999932 -0.050537691 -0.20986576 0.97000569 0.12265991 0.023248989
-0.31695518 -0.12999932 -0.054767143 6.8417998e-05 1 4.3363698e-06 0
-0.30812585 -0.12999932 -0.052762542 1.6884582e-05 1 -1.6472294e-06 0
-0.29286742 -0.12999932 -0.054151945 6.2873255e-08 1 -1.6720634e-06 0
-0.28214327 -0.12999932 -0.0564088 1.8799668e-05 1 3.9639222e-06 0
-0.27331579 -0.12999931 -0.055194594 0.0073586879 0.99995446 0.0060649891 0.00011844121
-0.26578295 -0.12999932 -0.054047137 0.12465893 0.98826981 0.088221118 0.0089926673
-0.22400564 -0.12236456 -0.05439901 0.95505875 -0.24258421 0.17034002 0.071671374
-0.12869972 -0.12014476 -0.051386472 0.94542879 0.23210277 0.22867595 0.0046391524
-0.091012545 -0.12308869 -0.052256342 0.56762445 0.53515279 0.6256308 0.14787856
-0.084091097 -0.12272318 -0.052341469 0.48349634 0.50107026 0.71774638 0.12352858
-0.076680712 -0.12630169 -0.052432608 0.21193822 0.49482864 0.8427496 0.095363967
-0.069224834 -0.12099865 -0.052524313 0.099113688 0.34440467 0.9335748 0.059076983
-0.058026772 -0.12250961 -0.052662045 -0.0057598394 0.58447862 0.81138861 0.09921097
-0.036401302 -0.12515631 -0.052730091 -0.076830968 0.61752731 0.78278798 0.092213549
-0.02463962 -0.12425192 -0.052963644 -0.1319281 0.43680096 0.88983142 0.078548439
-0.016331157 -0.1248807 -0.05162178 -0.17147718 0.70553195 0.68761921 0.088462703
0.079025641 -0.12638809 -0.050423324 0.48437238 0.58182448 0.65334797 0.12046506
0.087369427 -0.12825681 -0.050366286 0.2682516 0.75444037 0.59904987 0.091786556
0.10631186 -0.12120879 -0.052190088 0.039679784 0.68388945 0.72850579 0.088634655
0.11433583 -0.12550874 -0.052709639 0.032004062 0.70783454 0.70565295 0.080663845
0.122107 -0.12786189 -0.052173957 0.071757913 0.81793934 0.57081163 0.10396473
0.13473795 -0.12338954 -0.054133359 -0.095717229 0.45789537 0.88383824 0.081460662
0.14412472 -0.12246861 -0.053806819 -0.15882733 0.36203808 0.91853267 0.041691642
0.15885167 -0.12061501 -0.050460018 0.26262367 0.7891131 0.55527407 0.20678066
0.17838465 -0.12351103 -0.055769514 -0.88128281 -0.47208878 -0.021741405 0.18131374
0.18035269 -0.12120113 -0.050511785 -0.88186789 -0.33516964 0.33161774 0.18149763
0.20671201 -0.12999932 -0.052675739 -0.054669846 0.99725807 0.049875628 0.09182258
0.21493462 -0.12999932 -0.055024598 -0.28900033 0.95482516 0.069192745 0.036275461
0.22330141 -0.12999932 -0.054129571 -0.10333145 0.99395227 0.037169207 0.010514819
0.23631762 -0.12999932 -0.053223729 -3.5534616e-05 1 3.3390215e-06 0
0.24670666 -0.12999931 -0.051645525 -1.7262095e-05 1 6.6258522e-06 0
0.26929444 -0.12999932 -0.055867415 1.6419011e-05 1 1.9902745e-06 0
0.28897369 -0.12999932 -0.055898041 0.20871821 0.97573268 0.066200018 0.023521066
0.33584744 -0.12481809 -0.053127103 -0.92887652 0.27620396 -0.24677879 0.10867453
0.48759332 -0.12537809 -0.054323595 -0.90891433 0.12655899 0.39731297 0.048709236
-0.4912529 -0.1147313 -0.057111681 0.95607001 0.16426186 -0.24279229 0.073550351
-0.37808713 -0.11585057 -0.057331458 0.93955576 0.16350579 -0.30083349 0.07034605
-0.22307898 -0.11385923 -0.055832937 0.94958246 -0.13769087 0.28166369 0.030121163
-0.12710959 -0.11938033 -0.058630958 0.9431051 0.18660781 0.27519149 0.0041714702
-0.08830528 -0.11491933 -0.052289635 0.74544519 0.24276806 0.62078583 0.14714137
-0.0743341 -0.1147277 -0.052461468 0.23241854 0.32260734 0.91755438 0.081249543
-0.05318277 -0.11172958 -0.05272162 -0.0041900449 0.21049386 0.97758621 0.042293999
-0.045435738 -0.11696985 -0.052816909 0.040324934 0.26799768 0.96257526 0.045628298
-0.035676152 -0.11352003 -0.053011812 -0.011713134 0.21897607 0.97565997 0.045468003
-0.0238245 -0.11412039 -0.052907526 -0.15586936 0.29005271 0.94423205 0.04970232
-0.014081642 -0.116899 -0.051257715 -0.25469947 0.43961087 0.86131907 0.079039291
0.073634893 -0.11349344 -0.050074279 0.6765036 0.21433818 0.70455801 0.10013039
0.085845567 -0.1144842 -0.050864909 0.46552858 0.2967535 0.83379883 0.11165719
0.093873382 -0.1129799 -0.051384706 0.17810473 0.23513821 0.95550448 0.066462614
0.11761459 -0.11688916 -0.052921936 0.10405853 0.32730541 0.93917149 0.059685364
0.12742154 -0.11426293 -0.053610042 0.038534336 0.27609688 0.96035701 0.051387444
0.14451867 -0.1144802 -0.053786531 -0.12170813 0.19864444 0.97248518 0.033384182
0.15514049 -0.11624227 -0.051566709 0.1495316 0.61669922 0.77286631 0.20851539
0.17823997 -0.11371628 -0.057790339 -0.99495685 -0.041359663 0.091379568 0.14469372
0.33761919 -0.11489386 -0.057483722 -0.96642542 0.043488406 -0.25324032 0.0022829808
0.48869324 -0.11530729 -0.056869082 -0.86682254 0.11396902 0.48541704 0.058278061
-0.49293685 -0.1067097 -0.055154234 0.93880117 0.1381308 -0.31555066 0.067712732
-0.37724662 -0.10591436 -0.056200355 0.96053928 -0.045008659 -0.27447852 0.0023931824
-0.22265837 -0.10366923 -0.055605993 0.95685416 -0.048484635 0.286495 0.0019298705
-0.12783426 -0.1013605 -0.058398187 0.97529215 0.036398478 0.21790011 1.6403147e-06
-0.084322199 -0.10466975 -0.052338623 0.68545347 0.025277585 0.72767746 0.078574769
-0.068056636 -0.10402416 -0.052538682 0.059114721 0.070928164 0.99572819 0.024320655
-0.054150805 -0.10824683 -0.052709714 0.0059986957 0.13270472 0.9911375 0.020135995
-0.040713072 -0.10277487 -0.052874994 8.2228158e-05 0.089747034 0.99596459 0.012081602
-0.031134641 -0.1054519 -0.053215273 -0.064945526 0.091264829 0.99370658 0.013262517
-0.025210395 -0.10348082 -0.053011846 -0.10035645 0.049979709 0.99369544 0.0063408604
-0.014876246 -0.10618061 -0.051376324 -0.266886 0.14868419 0.95218951 0.031546589
0.073892906 -0.10469297 -0.050090987 -0.74082071 -0.10974339 -0.66267717 0.075424403
0.085470855 -0.1030937 -0.050840646 0.36024103 0.050355449 0.93149918 0.063116916
0.10145441 -0.10884216 -0.051875569 0.074322701 0.22636038 0.97120398 0.043436017
0.11066344 -0.10544401 -0.052471854 0.051681865 0.092511401 0.99436945 0.0099600414
0.12370189 -0.10311738 -0.053316079 0.066450007 0.05968282 0.99600321 0.0084364489
0.13441412 -0.1043058 -0.054134209 -0.033051539 0.055653673 0.99790299 0.006602596
0.1438275 -0.10541598 -0.053808786 -0.10593952 0.018077336 0.99420828 0.005479875
0.15399045 -0.1017457 -0.051942624 -0.018196451 0.045601245 0.99879396 0.15530705
0.17867121 -0.10726289 -0.057377398 -0.99976164 0.019835716 0.0091193216 0.13272274
0.18088762 -0.10332856 -0.051455226 -0.91312331 0.1182483 0.39015791 0.13658877
0.3371647 -0.10443629 -0.054335862 -0.96001863 0.047891453 -0.27580878 0.0017489531
0.48959708 -0.10804114 -0.056458268 -0.88601154 0.10326431 0.45201761 0.04376816
0.49080715 -0.10453746 -0.052185137 -0.94461125 0.12376647 0.30395958 0.06203074
-0.49463588 -0.093337975 -0.055538855 0.97194684 0.11081354 -0.20746019 0.086136259
-0.37583154 -0.094856448 -0.053424373 0.94790649 -0.043365929 -0.31558305 0.0019512064
-0.2224541 -0.096176788 -0.055142909 0.95500088 -0.041573733 0.29367504 0.0020997694
-0.081526481 -0.0988966 -0.052373007 0.41577023 -0.037777822 0.90868473 0.074005082
-0.075010315 -0.095812753 -0.052453153 0.24629571 0.0059029111 0.96917671 0.040538397
-0.064469531 -0.095178932 -0.0525828 0.059491023 0.015084036 0.99811488 0.0060651391
-0.053648025 -0.091115549 -0.052715898 0.013938271 0.00061340409 0.99990267 1.2623531e-05
-0.04550698 -0.091573656 -0.05281603 0.013284497 0.00056512188 0.99991161 1.6124115e-05
-0.036481135 -0.098588452 -0.052950419 -0.020644993 0.00039595214 0.99978679 0.00064866821
-0.024605665 -0.094719335 -0.052918725 -0.11782758 -0.002214449 0.99303156 0.0033958142
-0.014875055 -0.094555736 -0.051313292 -0.26532596 0.02624834 0.96380144 0.006120088
0.075879641 -0.097082414 -0.050219625 -0.75736815 0.029303737 -0.65233034 0.10968858
0.082687989 -0.092581943 -0.050660461 0.46361092 -0.026112141 0.88565397 0.073854156
0.09284465 -0.091205008 -0.051318098 0.2213735 -0.008650519 0.97515076 0.03282113
0.10767569 -0.090702176 -0.052278399 0.066039093 -2.9910881e-05 0.99781698 2.2127795e-06
0.11757101 -0.091476992 -0.052919112 0.056681436 0.0017289529 0.99839085 0.00012293138
0.12580715 -0.097186729 -0.053475425 0.015916288 -0.0015530088 0.99987215 0.0012952032
0.13148516 -0.092581637 -0.054000832 0.012121283 0.0067233741 0.99990392 0.0011770357
0.14397715 -0.09577173 -0.053830866 -0.11768939 -0.002659637 0.99304688 0.0035698821
0.15434173 -0.093297154 -0.051844642 -0.018345445 0.0082575558 0.99979758 0.1395196
0.17923741 -0.092748672 -0.057585947 -0.99024439 0.10452823 0.0921413 0.16025688
0.18010229 -0.091752067 -0.055272818 -0.96739674 0.14943552 0.20448151 0.15301466
0.33768448 -0.095327199 -0.054295585 -0.95988303 -0.06795305 -0.27204227 0.019018622
0.49160534 -0.094557963 -0.054841518 -0.92094725 0.1103054 0.37374958 0.054543562
-0.49553338 -0.084015824 -0.056751702 0.97954714 0.12855633 -0.15479232 0.080629423
-0.37626567 -0.08618293 -0.056130815 0.95407897 -0.060760122 -0.29332843 0.0022487284
-0.22172989 -0.08575917 -0.055740695 0.95653546 0.087707356 0.27811405 0.019847104
-0.13015449 -0.084726267 -0.050792892 0.97528881 0.036412578 0.21791263 0
-0.12903039 -0.089061394 -0.055099629 0.97528619 0.036399134 0.21792635 3.3449151e-06
-0.091952324 -0.08242026 -0.050932549 0.87151426 0.14429231 0.46866059 0.095838577
-0.089774251 -0.081365228 -0.052271567 0.65405995 0.13734806 0.74386901 0.099277712
-0.07765761 -0.080334052 -0.052420594 0.39871442 0.044016894 0.91601825 0.076479219
-0.066765718 -0.084615014 -0.052554559 0.077234931 -0.03688914 0.9963302 0.010604728
-0.05543419 -0.085900381 -0.05269393 0.014057181 0.00085038773 0.99990082 3.1180259e-06
-0.043656524 -0.084884524 -0.052838787 -0.00016802325 -0.001282374 0.99999917 0.00029275933
-0.03521549 -0.086150549 -0.053013116 -0.021230046 0.0012322883 0.99977392 0.00060035632
-0.014487091 -0.085188858 -0.051339798 -0.2493137 0.016995335 0.96827364 0.0064826766
0.082726121 -0.087062053 -0.050662927 -0.51870573 0.087862507 -0.85042608 0.079759955
0.097913951 -0.085425586 -0.051646329 0.079989932 0.00064246188 0.99679548 0.00078726897
0.1160201 -0.083381861 -0.052818693 0.063356198 2.3771051e-06 0.99799097 5.0288556e-05
0.12672746 -0.083970025 -0.053555593 0.02656332 0.0073476499 0.99962014 0.00096269225
0.13624069 -0.0847096 -0.054249167 -0.043178443 0.0092804274 0.99902427 0.0031306776
0.1433603 -0.085529186 -0.053884048 -0.10222516 0.006725607 0.99473858 0.0041343295
0.1520139 -0.089188308 -0.052493922 -0.073814794 0.03068467 0.99679983 0.094077535
0.17916341 -0.085366711 -0.058811169 -0.97752982 0.21044213 -0.01223358 0.15761052
0.18135782 -0.086960532 -0.052375056 -0.946904 0.14224002 0.28834113 0.1630806
0.33901948 -0.082058251 -0.055884331 -0.91628051 -0.2959255 -0.26992252 0.048376948
0.49297482 -0.083035685 -0.05549331 -0.9249205 0.11368487 0.36276406 0.060871985
-0.49725232 -0.074938037 -0.055151287 0.95464426 0.065363437 -0.29048577 0.074121378
-0.3758612 -0.075365335 -0.0565142 0.91864592 -0.31729135 -0.23540582 0.056223594
-0.22075614 -0.075006463 -0.056995757 0.88262606 0.42721397 0.19611126 0.087478064
-0.12876865 -0.072543159 -0.059030689 0.97490579 0.02859148 0.22077438 0.00017093742
-0.080129758 -0.072163545 -0.052390192 0.45802942 0.075365119 0.88573653 0.091537595
-0.079303384 -0.075495169 -0.052400354 0.43471473 0.04393585 0.89949578 0.079158738
-0.06189147 -0.077855453 -0.05261451 0.012746943 -0.00016234828 0.99991876 0
-0.058485195 -0.071328759 -0.052656405 0.014908508 -8.1299651e-05 0.9998889 3.2041999e-06
-0.030334106 -0.076342002 -0.053254925 -0.074278347 -0.0011550643 0.99723691 0.0027510389
-0.025174957 -0.07264781 -0.053001441 -0.13502359 0.0021208026 0.9908402 0.0039603305
-0.018066196 -0.076602452 -0.052064408 -0.19045284 -0.0001357633 0.98169637 0.004670687
0.075565428 -0.076890297 -0.050199278 -0.73845488 0.047999743 -0.67259234 0.068060674
0.082977183 -0.078924403 -0.050679188 -0.55500168 0.0039460622 -0.8318398 0.084225804
0.091997266 -0.077240348 -0.051263228 0.23773974 -0.012114076 0.97125334 0.040650818
0.10608635 -0.07899823 -0.052175492 0.065650292 -0.00021899657 0.99784267 1.947423e-06
0.11447855 -0.071707435 -0.052718878 0.066982739 -0.00033833244 0.9977541 2.5493737e-06
0.12589024 -0.073541552 -0.053457778 0.034188684 -0.0030218426 0.99941081 0.00061458873
0.13623708 -0.072899602 -0.054195564 -0.062332705 0.0040678596 0.99804711 0.0034062709
0.14529099 -0.07395687 -0.053688426 -0.13637078 -0.0094102845 0.9906131 0.0034612408
0.15590438 -0.073458768 -0.051408779 -0.13682167 -0.11008736 0.98445952 0.14159214
0.18264744 -0.073742658 -0.050540056 -0.88448375 0.43471324 0.16944867 0.21020858
0.32361835 -0.070135526 -0.056116469 -0.41642934 -0.8847034 -0.20949112 0.073739886
0.33728799 -0.072295479 -0.054728758 -0.81356704 -0.49096704 -0.31154451 0.075546883
0.49425638 -0.075338617 -0.055255231 -0.93654937 0.15246141 0.31564331 0.056486316
-0.49807134 -0.068063401 -0.055458568 0.98173845 0.022791239 -0.18886559 0.071178697
-0.37575179 -0.066915289 -0.057467014 0.86665833 -0.4583846 -0.196944 0.07207033
-0.33320892 -0.060340662 -0.054337367 0.051862068 0.99865389 0.00089158484 2.0135722e-06
-0.32663447 -0.060681116 -0.055484306 0.051840037 0.99865496 0.00089045276 3.5659168e-06
-0.31825557 -0.061118808 -0.052732147 0.051855259 0.99865425 0.00089450722 3.0899259e-06
-0.3034859 -0.061883003 -0.056038689 0.051869817 0.99865347 0.00089650892 0
-0.29423645 -0.062366601 -0.052510154 0.051860005 0.99865395 0.00089138339 8.1231599e-07
-0.28510922 -0.062837839 -0.055676691 0.051845182 0.99865478 0.00089260389 3.3923898e-06
-0.27432081 -0.063399822 -0.053882498 0.051860847 0.99865395 0.00089494564 3.3593533e-06
-0.26685059 -0.063783571 -0.05863446 0.051275093 0.99868244 0.0020464445 1.3298502e-06
-0.25450447 -0.064427711 -0.055444285 0.051946908 0.99864686 0.0024438272 5.1258094e-06
-0.24647094 -0.064843707 -0.056866851 0.12482008 0.99102473 0.047853317 0.0077515333
-0.23569022 -0.065403342 -0.057235837 0.33638832 0.93077528 0.14317952 0.052274689
-0.22240055 -0.066725276 -0.056148812 0.73819029 0.63671118 0.22287652 0.087117754
-0.091342494 -0.063206799 -0.0521181 0.71095031 -0.019457866 0.70297301 0.088207714
-0.089436069 -0.064635672 -0.052275725 0.7139473 -0.054698456 0.69805974 0.092216305
-0.067653976 -0.068901367 -0.052543633 0.12704891 -0.023126146 0.99162686 0.017520886
-0.040614344 -0.063236348 -0.052876204 -0.006542162 0.0021055723 0.9999764 0.00040692466
-0.03295543 -0.064939514 -0.053125076 -0.06338653 -0.00042793454 0.99798894 0.0021564593
-0.023196191 -0.065601245 -0.052825183 -0.14604557 0.0094380984 0.98923284 0.0038380139
-0.014471157 -0.065031178 -0.051336572 -0.25724351 0.002345636 0.96634376 0.0060560466
0.079927847 -0.060309343 -0.050481744 0.48529547 -0.021987915 0.87407374 0.049573023
0.084054247 -0.066275507 -0.050748922 0.38327885 -0.052204359 0.92215627 0.049842037
0.095220596 -0.065516956 -0.051471937 0.15441376 -0.02906288 0.98757875 0.012659392
0.11358896 -0.063046381 -0.052661277 0.066170737 0.00031650334 0.99780828 5.045294e-07
0.12538676 -0.06334161 -0.053462524 0.03342117 -0.0042053438 0.9994325 0.00070731121
0.1355281 -0.064929105 -0.054209679 -0.051684387 -0.0010512943 0.99866295 0.0033609357
0.14479898 -0.062025297 -0.053737491 -0.12559728 -0.0011470916 0.99208063 0.0036353755
0.15335965 -0.06302534 -0.052118562 -0.21958371 -0.018458797 0.97541904 0.12841162
0.18585496 -0.064523205 -0.056445409 -0.86730754 0.47813398 -0.13843955 0.22500938
0.19507059 -0.063461497 -0.052766394 -0.14242366 0.97243559 -0.18461955 0.17395096
0.20216706 -0.063826486 -0.056836028 -0.12228402 0.98431158 0.12719008 0.032463007
0.21486589 -0.064488247 -0.054410338 0.047708098 0.99736285 0.054691594 0.0069693951
0.2266106 -0.065097757 -0.05500393 0.044931378 0.99743903 0.055646643 0.005293522
0.23455118 -0.065510318 -0.054882903 0.052942462 0.99689114 0.058354042 0.0054078014
0.2430499 -0.06595128 -0.055418838 0.054321192 0.99604475 0.070313483 0.0087319631
0.25677484 -0.066666432 -0.052894346 0.053646546 0.99851876 0.009068625 0.00026575223
0.2639904 -0.067036331 -0.058373883 0.026505025 0.99228227 0.12113404 0.02300141
0.27706003 -0.067718923 -0.054188985 0.043648813 0.99836206 0.0369865 0.0040252535
0.28686661 -0.068229571 -0.052756269 0.051633041 0.99760324 0.046063613 0.0052504591
0.29529372 -0.068665966 -0.054240733 0.063828893 0.99550039 0.070034251 0.0069371313
0.30588087 -0.069214992 -0.055244531 0.051245257 0.99131817 0.12108784 0.016620195
0.3151575 -0.069699422 -0.052342333 0.19956762 0.97552723 0.092300236 0.026323849
0.49453837 -0.066872016 -0.057754882 -0.93887377 0.012544787 0.34403285 0.058260057
-0.49751037 -0.057912864 -0.057773221 0.99858642 -0.009650006 -0.052268442 0.076610632
-0.37292296 -0.058410797 -0.054527141 0.66563278 -0.71685278 -0.20749716 0.092032738
-0.36399469 -0.058738708 -0.05755356 0.44712842 -0.88075024 -0.15606093 0.07379967
-0.35442972 -0.059237376 -0.055497587 -0.13332015 0.98654717 0.094606414 0.040055551
-0.34334245 -0.059814841 -0.053749003 0.031972136 0.99943548 0.010315442 0.0011730194
-0.085999399 -0.058097363 -0.052317999 0.61087358 -0.0084451754 0.79168308 0.076367401
-0.073387325 -0.052409329 -0.05247312 0.18675488 -0.12894587 0.97390741 0.073381677
-0.064916976 -0.05400585 -0.052577298 0.05105732 -0.1029444 0.9933759 0.025712447
-0.052794877 -0.053222559 -0.052726395 0.033493597 -0.17518465 0.98396569 0.026031327
-0.047999125 -0.053664632 -0.052785378 0.015774278 -0.11719958 0.9929831 0.014440828
-0.035121609 -0.05648455 -0.053050477 -0.018022541 -0.091581695 0.99563456 0.01318016
-0.026121084 -0.054532159 -0.053080358 -0.12141187 -0.14471246 0.9819966 0.025698744
-0.016086243 -0.052196193 -0.051624067 -0.23178892 -0.1561574 0.96015036 0.033777896
0.073612213 -0.053886916 -0.050072808 -0.61622667 0.061907139 -0.78513205 0.061642732
0.088648617 -0.055787638 -0.051046409 0.26788437 -0.13596027 0.95380962 0.045924082
0.091919124 -0.056973536 -0.051258169 0.23731662 -0.11926773 0.96408296 0.037912518
0.10381883 -0.056039009 -0.052028667 0.048188537 -0.14826737 0.98777258 0.023759041
0.11193197 -0.054198481 -0.052553989 0.07476487 -0.12149685 0.98977208 0.019708358
0.12789589 -0.054195583 -0.053637728 0.027058421 -0.14048001 0.98971373 0.025979554
0.13697623 -0.054753762 -0.054258198 0.0071160356 -0.12291245 0.992392 0.027777312
0.14339958 -0.056197535 -0.053956125 -0.13779445 -0.11535855 0.98371994 0.028208142
0.15617117 -0.05401817 -0.051263351 -0.31554016 -0.2874341 0.9043318 0.11663468
0.49481535 -0.053488385 -0.054971606 -0.96435106 0.045656543 0.26065794 0.063621603
-0.49825871 -0.046934322 -0.05498128 0.98046643 -0.047760427 -0.19079933 0.075100191
-0.12480307 -0.042583242 -0.054694816 0.77190155 -0.58761555 0.24264361 0.030701172
-0.091768257 -0.046069991 -0.051211465 -0.21086147 0.075956993 0.97456038 0.18907392
-0.082921311 -0.041175649 -0.052355856 0.080794744 0.076564752 0.99378574 0.14239231
-0.078954592 -0.046721514 -0.052404642 0.3063415 -0.1273571 0.94336367 0.10594875
-0.064386211 -0.04190268 -0.052583825 0.058656737 -0.32187778 0.94496244 0.095006801
-0.052630931 -0.043058116 -0.052728411 -0.012499649 -0.21531852 0.97646379 0.062301841
-0.035439625 -0.043264497 -0.053002015 -0.081312016 -0.21429007 0.97337973 0.093972132
-0.026948323 -0.041858543 -0.053112447 -0.086519495 -0.21468458 0.97284377 0.090056621
-0.013726626 -0.047165409 -0.051012564 -0.26569203 -0.13453129 0.95462507 0.037697602
0.085770585 -0.04720021 -0.050860059 0.34788087 -0.035549138 0.93686455 0.070194468
0.10349662 -0.04613933 -0.052007806 0.096681058 -0.24214095 0.96541214 0.079694346
0.11848672 -0.04915721 -0.052978404 -0.011783888 -0.19746298 0.98023957 0.04696181
0.12829784 -0.045565169 -0.053675223 0.043799568 -0.18849739 0.98109651 0.059573062
0.13764273 -0.044898778 -0.054243024 -0.080390699 -0.24153382 0.96705681 0.071742259
0.14837387 -0.044824272 -0.053256553 -0.15254429 -0.19700602 0.96846211 0.061612852
0.15590598 -0.043619547 -0.051309537 -0.42211121 -0.092266493 0.90183645 0.13585213
0.49509805 -0.045772638 -0.052720018 -0.97142059 -0.022154603 0.23632841 0.066169873
-0.49807239 -0.036674663 -0.055676591 0.99107265 0.083075806 -0.10427544 0.074590139
-0.12023681 -0.038842827 -0.050789163 0.68631524 -0.70990819 0.15811984 0.083315805
-0.11694945 -0.037505697 -0.056800149 0.6196683 -0.78232223 -0.063110873 0.12454105
-0.10733792 -0.030808795 -0.056234378 0.57072341 -0.25074348 -0.78192228 0.16312014
-0.090556026 -0.031046234 -0.052261952 -0.336611 -0.2099041 0.91795063 0.19478762
-0.084997714 -0.032003544 -0.051445454 -0.21867676 0.055733062 0.97420448 0.19333164
-0.074803159 -0.033100259 -0.05234855 0.10857853 0.021033144 0.99386537 0.13466737
-0.063572004 -0.033289988 -0.052593842 0.014180017 -0.22580554 0.97406924 0.11542547
-0.035241555 -0.035506856 -0.053012431 -0.070159167 -0.051243898 0.9962188 0.085004859
-0.023651801 -0.036027461 -0.052894533 -0.084841549 -0.05769648 0.99472255 0.11459958
-0.016506528 -0.035587028 -0.051748648 -0.23614842 -0.078140423 0.96857011 0.12698323
0.089827985 -0.032110654 -0.050580572 0.1556346 0.039742369 0.98701489 0.11174651
0.097588569 -0.032110654 -0.050350573 0.026360549 0.051190395 0.99834102 0.15289053
0.12768295 -0.037780672 -0.05361221 0.073539637 -0.1453349 0.9866457 0.097538576
0.13688023 -0.033680875 -0.053580716 -0.079160146 -0.10175781 0.99165463 0.094061144
0.14488815 -0.032062426 -0.05377407 -0.11748727 -0.099365324 0.98809075 0.096736364
0.15141152 -0.036382612 -0.052661944 -0.16857238 -0.12560301 0.97765392 0.10178363
0.49492636 -0.032808296 -0.054399151 -0.95512199 0.042903263 0.29308915 0.074963421
-0.49839282 -0.026251161 -0.054481007 0.96006995 -0.012936793 -0.27946079 0.074707963
-0.10551649 -0.029124558 -0.056784291 0.52191949 -0.27196717 -0.80847621 0.17592718
