# .PCD v0.7 - Point Cloud Data file format
VERSION 0.7
FIELDS x y z normal_x normal_y normal_z curvature
SIZE 4 4 4 4 4 4 4
TYPE F F F F F F F
COUNT 1 1 1 1 1 1 1
WIDTH 566
HEIGHT 1
VIEWPOINT 0 0 0 1 0 0 0
POINTS 566
DATA ascii
-0.2463019 -0.14860667 0.072742648 0.094270043 0.91143733 -0.40049377 0.00023192345
-0.23483954 -0.14879526 0.074718885 0.083162367 0.91199136 -0.40169117 0.0002141399
-0.21407564 -0.14888053 0.078850195 0.042976379 0.90937346 -0.41375464 0.00027417569
-0.20457035 -0.14893793 0.078122273 0.033766687 0.91031486 -0.41253695 0.00030443404
-0.1854914 -0.14946586 0.078389712 0.026098279 0.91037035 -0.41297057 0.00026317171
-0.17564213 -0.14971316 0.078579351 0.027884988 0.91115302 -0.41112363 0.00028721499
-0.010549662 -0.1488401 0.078812122 -0.26803827 0.70794809 -0.65342557 0.021026803
0.0047643483 -0.14438304 0.073295906 -0.3396726 0.61516505 -0.71147341 0.012382797
0.010445276 -0.14285377 0.071482889 -0.38431618 0.53681618 -0.75108552 0.0070422823
-0.33894795 -0.13168783 0.071964875 0.34098572 0.64554453 -0.68337464 0.041911554
-0.32550347 -0.13394637 0.075500302 0.34942067 0.66061199 -0.66445231 0.026545435
-0.3129009 -0.13903581 0.075531423 0.24872996 0.73941308 -0.62562102 0.019743945
-0.30811587 -0.13473885 0.075202264 0.25223395 0.72956836 -0.63569498 0.019305823
-0.29927218 -0.13925053 0.076007552 0.25108862 0.78176302 -0.57078987 0.020216567
0.0055548935 -0.1380799 0.076881163 -0.40824679 0.4566583 -0.79044151 0.0025954382
0.015843872 -0.13381135 0.073890433 -0.43740806 0.38587555 -0.81226486 0.0020928094
-0.3545475 -0.12290332 0.071725614 0.36206794 0.59015417 -0.72154337 0.049198546
-0.34591711 -0.1240544 0.074692182 0.37345406 0.58436072 -0.72045451 0.047945205
-0.33758938 -0.12783927 0.075629324 0.37129402 0.61673182 -0.69410557 0.042224545
-0.31901857 -0.12611797 0.074056499 0.33542034 0.62017739 -0.70913553 0.027014274
0.01388682 -0.12706155 0.078513637 -0.45650557 0.33130428 -0.82573611 0.0018361112
0.023601221 -0.1248493 0.073688209 -0.45029035 0.33019644 -0.82958353 0.0019111449
-0.36491922 -0.11646105 0.070389636 0.37392834 0.49991745 -0.78119147 0.051767703
-0.35260123 -0.11025894 0.0774993 0.3792021 0.39440072 -0.83705068 0.038416304
-0.34543103 -0.11730354 0.078241974 0.39507425 0.46672514 -0.79125476 0.046564147
-0.33632728 -0.11349617 0.076681629 0.37037703 0.43767601 -0.81930488 0.04092272
0.028027283 -0.11804278 0.073081203 -0.4649795 0.28658149 -0.83765453 0.0010484766
0.03355217 -0.11152433 0.07182572 -0.45662713 0.25970706 -0.8509078 0.00037073373
-0.37222147 -0.10674148 0.070496142 0.40911177 0.35326257 -0.8413282 0.03495118
-0.3659195 -0.10469191 0.072042957 0.44248638 0.30422705 -0.84359449 0.031200664
-0.35459712 -0.10428232 0.075336829 0.3756924 0.34613886 -0.85967618 0.031397495
-0.3434194 -0.10892877 0.077272445 0.38056967 0.39991418 -0.83380777 0.035639059
0.027729945 -0.10211617 0.077787571 -0.46267533 0.2355438 -0.85466409 7.2756433e-05
0.032317255 -0.10107408 0.075539298 -0.4594017 0.23820567 -0.85569161 7.2097195e-05
-0.3647297 -0.090962626 0.074595869 0.38110411 0.19848511 -0.90297472 0.0074527971
-0.35283825 -0.095792212 0.078547642 0.36148733 0.23413733 -0.90250027 0.01006807
0.037670981 -0.093126334 0.074978583 -0.46306106 0.21912435 -0.85881257 0.00031894716
0.043642011 -0.095254712 0.071139701 -0.45502663 0.22422211 -0.86178607 0.00024592059
-0.37332964 -0.085587189 0.071913309 0.39645478 0.17004158 -0.90216935 0.0031233509
-0.36802959 -0.087801374 0.073825061 0.4001222 0.1937764 -0.89574158 0.0066177403
-0.35709023 -0.086091302 0.07870511 0.37620047 0.15717068 -0.91311032 0.001784818
0.033220217 -0.085743502 0.079534546 -0.46861261 0.19535078 -0.86153364 0.00051989401
0.043019678 -0.084539101 0.074607529 -0.46662608 0.19032769 -0.86373347 0.0005716618
-0.3755624 -0.073260449 0.072936572 0.38888508 0.12688223 -0.91250718 0.00050692511
-0.36617887 -0.075885624 0.076333568 0.3798711 0.12589128 -0.91643292 0.00023709684
-0.35917979 -0.071742713 0.079756647 0.38127831 0.11895248 -0.91677535 0.00023361927
0.036106776 -0.07739754 0.079855204 -0.46977857 0.16630079 -0.8669787 0.00053505361
0.043708552 -0.073176384 0.076204717 -0.47442263 0.14982103 -0.86745423 0.0003564533
0.050614383 -0.073317334 0.072345935 -0.46617627 0.15181863 -0.87156802 0.00035859924
-0.38154769 -0.066068456 0.071206301 0.38912624 0.10498763 -0.91518223 0.00017646266
-0.37540475 -0.066290721 0.073736258 0.38354886 0.10969175 -0.91698307 0.00017411343
-0.36697203 -0.063501731 0.077659972 0.38176313 0.10469821 -0.91831106 0.00012645588
0.039703242 -0.06281691 0.079848476 -0.47066355 0.1264565 -0.87320364 5.732074e-05
0.045065798 -0.06468229 0.076611176 -0.47100723 0.1324757 -0.87212521 0.00014409242
0.055586707 -0.064996578 0.070833229 -0.4655706 0.12737219 -0.87579691 8.3022933e-05
-0.38082495 -0.052651778 0.07310909 0.38999715 0.086451747 -0.91674882 0.00013997209
-0.37485501 -0.055730138 0.074808449 0.38720733 0.089160927 -0.91767144 0.00015322839
-0.36543092 -0.058444466 0.079099745 0.38008109 0.09624096 -0.91993266 0.00015346351
0.045913272 -0.052345712 0.077874787 -0.47224256 0.11726815 -0.87363333 4.1849355e-05
0.054667998 -0.054091036 0.072881162 -0.46773621 0.12053068 -0.87561131 4.5905115e-05
-0.38346899 -0.041278556 0.072990455 0.39534065 0.074646406 -0.91549647 9.3134564e-05
-0.37428084 -0.047491681 0.075927235 0.38628009 0.085843086 -0.91837829 0.00012744455
-0.36795902 -0.044404496 0.078954175 0.38014895 0.081457317 -0.92133141 0.00013331731
0.048088666 -0.043309312 0.07797987 -0.47371441 0.10536045 -0.87435347 0.00011202559
0.054321613 -0.044091411 0.074490108 -0.47122672 0.1072889 -0.87546241 0.00014947628
0.061294526 -0.040412251 0.071233287 -0.47604096 0.088399358 -0.87496889 0.00031639598
-0.38373601 -0.036490202 0.07331074 0.39407295 0.06306386 -0.91691303 0.00026224848
-0.37438595 -0.035371006 0.077088527 0.38774192 0.065083489 -0.91946745 0.00016031986
-0.36812812 -0.031734109 0.079676948 0.38036582 0.051379733 -0.92340779 0.00022949203
0.04763981 -0.036147103 0.079241104 -0.47343105 0.082949735 -0.87691635 0.00034718175
0.05279417 -0.035074685 0.076599561 -0.47370219 0.073721014 -0.87759417 0.00035637175
0.062098157 -0.032724924 0.071891576 -0.47926357 0.066058591 -0.87518156 0.0003199286
-0.39069337 -0.025792893 0.071088411 0.40027398 0.046057597 -0.91523737 0.00029191645
-0.38478866 -0.02609052 0.073465258 0.39490339 0.043806732 -0.91767764 0.00029499715
-0.37538341 -0.02276944 0.077701874 0.38573724 0.035363324 -0.92193073 0.00020328285
0.048579689 -0.02466299 0.079770148 -0.47711587 0.04871656 -0.87748909 0.00047477335
0.05406012 -0.022476725 0.076766334 -0.48051035 0.037111681 -0.87620348 0.00030055043
0.062319547 -0.024743481 0.072239347 -0.48437813 0.035292216 -0.87414664 0.00022618441
-0.39261976 -0.016926266 0.070457928 0.40456626 0.020524729 -0.91427839 0.00019369941
-0.38776743 -0.015129103 0.072269186 0.39657053 0.021180835 -0.91775984 0.0001869751
-0.37387413 -0.012698079 0.078017622 0.38359109 0.013197651 -0.92340875 0.00013808759
0.049280889 -0.01899649 0.079385817 -0.47833624 0.031840488 -0.87759936 0.00034064404
0.05706365 -0.013771412 0.075120091 -0.48148024 0.015252423 -0.8763243 0.00014790292
0.062604703 -0.014841867 0.072083056 -0.48341542 0.018214095 -0.87520152 0.000151331
-0.38715044 -0.0079293689 0.072195165 0.39670298 0.0038732695 -0.91793883 0.00012639254
-0.37595227 -0.0035080567 0.077691592 0.38714501 0.0071917479 -0.92199081 0.00014055944
0.049281303 -0.0044145267 0.079385586 -0.47743633 -0.00019517721 -0.87866634 5.8529604e-06
0.053860024 -0.0084094675 0.076876007 -0.47936177 0.010168064 -0.87755841 8.575213e-05
0.064910978 -0.0078035779 0.070827283 -0.48394051 0.0062330817 -0.87507868 6.7605179e-05
-0.38549259 0.0053495849 0.073212065 0.39960587 -0.0050081233 -0.91667336 0.00013371778
-0.37462884 0.0040913569 0.078049019 0.38709345 -0.0066326675 -0.92201662 0.00016590374
0.049257502 0.0014886151 0.079398632 -0.47742444 -0.00079514796 -0.87867242 9.4035213e-06
0.054461062 0.0037625253 0.076546572 -0.47951651 -0.0012626873 -0.87753195 1.9641896e-06
0.062624879 0.0043252204 0.072071999 -0.48201239 -0.0029147663 -0.87615955 2.7386297e-05
-0.38403168 0.013195645 0.074280746 0.39742884 -0.014166688 -0.91752362 0.00020880996
-0.37611562 0.014135381 0.077360749 0.39063689 -0.017097002 -0.92038608 0.00029203005
0.049205355 0.011879824 0.07942722 -0.47742823 -0.013113397 -0.87857288 0.00011211987
0.055157021 0.013457406 0.076165125 -0.4815684 -0.016858909 -0.87624633 0.0001561261
0.06257119 0.01466305 0.072104082 -0.48282346 -0.024005275 -0.87538862 0.00020079993
-0.39189607 0.026453156 0.070414677 0.39975244 -0.043629806 -0.91558421 0.00016362754
-0.38550371 0.027089797 0.07256037 0.3998616 -0.046569739 -0.91539174 0.00024380659
-0.37391338 0.024246309 0.078239515 0.38568076 -0.042158127 -0.92166853 0.00025912598
0.048485845 0.021828918 0.079821579 -0.47656706 -0.042547397 -0.87810796 0.00044456584
0.054084733 0.027460556 0.076638661 -0.47672069 -0.059655789 -0.87702829 0.00052463257
0.064183421 0.02608685 0.071203195 -0.48327681 -0.048615135 -0.87411678 0.00033995512
-0.38494825 0.036166247 0.072331376 0.39291498 -0.075092897 -0.91650367 0.0001465692
-0.37218073 0.033195924 0.078101598 0.38767868 -0.060818691 -0.91978604 0.00020485028
-0.36702579 0.038146008 0.079429507 0.38438773 -0.07366728 -0.92022783 0.00012950353
0.048321333 0.03569134 0.078762338 -0.47085202 -0.084388852 -0.87816674 0.00042693812
0.055134427 0.03475548 0.075202256 -0.47497222 -0.086745806 -0.87571484 0.00041183145
-0.38465846 0.045281541 0.07174141 0.39176652 -0.080656521 -0.91652256 0.00012951555
-0.37637553 0.045513287 0.075583175 0.39095777 -0.084168121 -0.91655213 0.00013039469
0.046378892 0.044701539 0.078534685 -0.47185954 -0.11321365 -0.87437481 6.4672371e-05
0.056215703 0.043649793 0.073352054 -0.46898067 -0.10531662 -0.87690675 0.00019865307
0.060764566 0.041447744 0.071199268 -0.47544512 -0.093235165 -0.87479097 0.00029381784
-0.38381195 0.056857035 0.071047314 0.39075685 -0.091541298 -0.91593081 0.00014482667
-0.37518936 0.056598913 0.074929282 0.38798344 -0.093413554 -0.91692036 0.000230313
-0.36938205 0.055097058 0.077300459 0.38766733 -0.092292383 -0.91716743 0.00013119887
0.046881314 0.055166107 0.076775096 -0.47196731 -0.12185152 -0.87315464 1.4175854e-05
0.053050194 0.05582555 0.073337473 -0.46768859 -0.12176958 -0.87546539 3.0009227e-05
-0.38194901 0.065481119 0.070577487 0.39008069 -0.11073931 -0.91409725 0.00011930603
-0.37300095 0.063570298 0.074897818 0.38588962 -0.1053616 -0.91650862 0.00024845873
-0.36489484 0.063467711 0.07827162 0.38246837 -0.10680481 -0.91777492 0.00024631829
0.043689519 0.063158996 0.077420376 -0.47304553 -0.12494287 -0.87213373 4.2029325e-05
0.054295082 0.06498874 0.071360365 -0.46599045 -0.12654278 -0.87569386 6.5592183e-05
-0.38019636 0.071213096 0.070785306 0.3902849 -0.13071449 -0.91136783 0.00051375711
-0.3771483 0.074533701 0.071791828 0.38650566 -0.14016442 -0.91157407 0.00090953917
-0.36647981 0.077727214 0.076198146 0.39112374 -0.14358941 -0.90906787 0.00092127617
-0.35874319 0.078750938 0.078457043 0.38185012 -0.13816808 -0.91383809 0.00069355156
0.039447915 0.073849544 0.078314669 -0.47073707 -0.15376042 -0.86877179 0.00042444363
0.045388073 0.07653112 0.074644566 -0.46680355 -0.17536968 -0.8667987 0.00066140894
0.052815542 0.0758764 0.07062158 -0.46025214 -0.17182755 -0.8710013 0.00056120596
-0.37774956 0.082124829 0.07051938 0.39190435 -0.14293183 -0.90883523 0.0016524029
-0.3648684 0.085700132 0.075048693 0.3893387 -0.17348827 -0.90460885 0.0060770707
-0.3534776 0.086225592 0.079417191 0.37023926 -0.15515414 -0.91588759 0.0023996527
0.035519384 0.083325528 0.078644671 -0.46580875 -0.19881006 -0.86226261 0.00055913889
0.046923164 0.081816867 0.072897129 -0.46360031 -0.17818674 -0.86794257 0.00065023685
-0.36649209 0.094352573 0.072948657 0.37937567 -0.24676548 -0.89172912 0.019993687
-0.35613319 0.090202101 0.078048043 0.39539209 -0.2049741 -0.89534944 0.010276712
-0.34962428 0.094536819 0.079854272 0.37502325 -0.23993522 -0.89542657 0.014909015
0.035173547 0.095549248 0.07525754 -0.46322328 -0.23273946 -0.85513544 0.00012429878
0.041635416 0.09480875 0.071992919 -0.45468628 -0.23162328 -0.86000645 0.00016402319
-0.37234724 0.10205322 0.071209125 0.38860866 -0.34044448 -0.85620141 0.038748212
-0.36212903 0.10903753 0.073614761 0.40380156 -0.39545763 -0.82495904 0.042210344
-0.35197136 0.10698099 0.076512858 0.36940292 -0.32820022 -0.86938256 0.027277812
-0.34578058 0.10952142 0.073785409 0.36216298 -0.37759781 -0.85220766 0.034794141
0.027134171 0.10451303 0.077098772 -0.46523258 -0.24233407 -0.85137111 7.0910974e-05
0.03424836 0.10417274 0.07323499 -0.45764813 -0.2428346 -0.85533011 9.6193144e-05
-0.36193699 0.11142545 0.073103637 0.38779709 -0.4086906 -0.82618725 0.045067504
-0.35353643 0.11934753 0.073354095 0.35154265 -0.470009 -0.80963534 0.037293293
-0.34610906 0.11371461 0.078688875 0.3774645 -0.38848627 -0.84059447 0.032657266
-0.33660722 0.11450002 0.07400582 0.33993021 -0.52253091 -0.78192645 0.036919981
-0.32828128 0.11657955 0.076838486 0.31619275 -0.53941232 -0.78042072 0.03272637
0.018323153 0.11630624 0.078807384 -0.45621863 -0.29998723 -0.83777809 0.0014134593
0.025716545 0.11394015 0.075229466 -0.45650053 -0.27844626 -0.84502959 0.0010379055
0.031540316 0.11200044 0.072437122 -0.46273926 -0.25707936 -0.84840006 0.00029496537
-0.34464574 0.12898371 0.070402279 0.30233264 -0.61341494 -0.72960061 0.038205221
-0.33781919 0.12201805 0.078674726 0.29558113 -0.52961087 -0.79507494 0.035630725
-0.32599109 0.12919798 0.078537375 0.33063766 -0.60270709 -0.72623879 0.027730409
-0.30909419 0.12989776 0.074927092 0.31703192 -0.68003017 -0.66109735 0.02513822
0.0086170407 0.1288801 0.079911895 -0.43031523 -0.36523977 -0.82548696 0.0023067791
0.014887463 0.12531151 0.077926785 -0.4459132 -0.33559984 -0.82977962 0.0019562854
0.023095466 0.12489162 0.073569275 -0.44090587 -0.34895089 -0.8269434 0.0022474758
-0.32462868 0.13288745 0.075588688 0.31959105 -0.62233925 -0.71453154 0.031295985
-0.3140108 0.13374706 0.075605102 0.3129645 -0.67299092 -0.67017645 0.02888656
-0.30745208 0.13555011 0.072039329 0.26382577 -0.74369758 -0.61425561 0.026934963
-0.29474092 0.13451135 0.07836771 0.24516179 -0.74297112 -0.6228078 0.0231563
-0.2821337 0.13998735 0.077711411 0.20003667 -0.819646 -0.53681076 0.018364541
-0.0024626362 0.13913231 0.079754993 -0.38252845 -0.52353019 -0.76130682 0.010917288
0.0079120221 0.13601853 0.076194786 -0.41509455 -0.43318194 -0.80003124 0.0036278428
0.015437741 0.13810915 0.071006186 -0.41348511 -0.44980553 -0.79164702 0.0031877125
0.022673428 0.13087255 0.071397454 -0.44215149 -0.36780369 -0.81806022 0.002510645
-0.31255001 0.14248332 0.070097938 0.2374046 -0.8071683 -0.54047972 0.022974532
-0.30549961 0.1436958 0.070379108 0.23201014 -0.79792625 -0.55631375 0.021782884
-0.2942251 0.14145099 0.078766979 0.19687483 -0.79045975 -0.58001179 0.02233802
-0.28356376 0.14183833 0.073462911 0.15109354 -0.84235007 -0.51731724 0.016669383
-0.27520132 0.14140239 0.076903023 0.15888838 -0.85408908 -0.49526381 0.013087829
-0.26549545 0.14520597 0.071688011 0.10323098 -0.9008702 -0.4216353 0.0042878059
-0.25591865 0.14497209 0.075196065 0.12192353 -0.90038604 -0.4176597 0.0026005756
-0.24571104 0.14619739 0.075458378 0.10244185 -0.90954548 -0.40278104 0.00034352846
-0.23545532 0.1475281 0.074364141 0.088187717 -0.91697204 -0.38908252 0.00056195876
-0.22345659 0.14727412 0.077391379 0.061076634 -0.91311157 -0.40310907 0.0008977371
-0.21468043 0.14685175 0.078836538 0.045614563 -0.91164905 -0.40843046 0.00091130886
-0.20554823 0.14756581 0.078070529 0.026354352 -0.9077366 -0.41871193 0.00084478047
-0.19509576 0.14793047 0.078064255 0.019981673 -0.90713167 -0.42037225 0.00046056567
-0.18365365 0.14893457 0.076818764 0.028826959 -0.90957743 -0.41453341 0.00031518639
-0.17318696 0.14881361 0.077805065 0.036230803 -0.91076875 -0.4113242 0.000336939
-0.16799048 0.14809225 0.079647072 0.031405706 -0.91017449 -0.41303292 0.00027109007
-0.15377386 0.14911272 0.078564018 0.029577401 -0.90934008 -0.41500095 0.00025648877
-0.14890587 0.14916912 0.078790635 0.020446228 -0.9113344 -0.4111588 0.00029221943
-0.11636962 0.14949797 0.079241358 0.0018511006 -0.91762054 -0.39745328 0.00021295277
-0.099026844 0.14914751 0.079876296 0.0042433529 -0.92278415 -0.38529411 0.00027613455
-0.082406051 0.14966948 0.078458101 -0.00027763567 -0.92970091 -0.36831513 0.00025407225
-0.076106831 0.14959745 0.078558184 -0.00034100146 -0.92921603 -0.36953685 0.00019942639
-0.061424129 0.14968137 0.078196481 0.010357578 -0.93575388 -0.35250148 0.00066101097
-0.053573661 0.14995354 0.0774661 0.013387541 -0.93675381 -0.34973288 0.0007968453
-0.044519402 0.14898972 0.07964237 -0.038077269 -0.89451051 -0.44542223 0.01215973
-0.039703913 0.14885861 0.079898514 -0.060377914 -0.88755649 -0.45672524 0.013191031
0.0064781364 0.14152196 0.07372988 -0.38342083 -0.5404231 -0.74895352 0.011111542
-0.21354759 0.1521254 0.072541386 0.043816108 -0.91585833 -0.39910346 0.00095537311
-0.20813912 0.15088177 0.070953421 0.035642594 -0.917472 -0.39620042 0.00085297116
-0.18852352 0.15144557 0.071192414 0.020437226 -0.91645098 -0.39962459 0.00065252348
-0.17374264 0.15028353 0.074759938 0.034206033 -0.91277242 -0.40703371 0.00034112833
-0.16546594 0.15221645 0.07110171 0.030768184 -0.91894567 -0.39318189 0.00032754231
-0.1535226 0.15201622 0.072494701 0.025348466 -0.91943288 -0.3924292 0.00036102443
-0.14413215 0.15182228 0.073688455 0.019663157 -0.91956198 -0.39245272 0.00031037111
-0.13442564 0.15237135 0.072557114 0.010234606 -0.92192262 -0.38723886 0.00029109884
-0.1257547 0.15143235 0.074767426 0.0063814488 -0.92077243 -0.39004803 0.00025784105
-0.11831213 0.1522478 0.072669216 0.00080495316 -0.92301679 -0.3847588 0.00020840148
-0.10559733 0.15145147 0.074464634 -0.00033114303 -0.92514175 -0.3796218 0.00011673788
-0.0990621 0.15257326 0.071638599 -0.0017711452 -0.92756134 -0.37366661 7.4086529e-05
-0.084219329 0.15080439 0.075786553 -0.00088407146 -0.92532939 -0.37916315 6.251609e-05
-0.07443656 0.1518586 0.073068701 -0.0020805239 -0.92747468 -0.37388012 5.3537835e-05
-0.065290891 0.15138569 0.074080974 0.0010388624 -0.93088263 -0.36531687 0.0003546075
-0.053989694 0.15192249 0.072622538 0.0088321744 -0.93468958 -0.35535535 0.00065056485
-0.046043314 0.1518546 0.072679617 0.019596074 -0.93337387 -0.35837036 0.0012159672
-0.034788381 0.15228455 0.073005274 0.0032887957 -0.81128955 -0.58463538 0.055517893
-0.023887953 0.15422718 0.075879775 -0.12021907 -0.72098118 -0.68244672 0.070643052
-0.01475371 0.15173841 0.077467717 -0.21845552 -0.71697241 -0.66198766 0.036678575
-0.0044160695 0.15312529 0.071608521 -0.26619706 -0.7057845 -0.65651149 0.035964362
-0.034892648 0.18698516 0.070769623 -0.83407915 -0.49839172 -0.23646933 0.14416884
-0.029527787 0.18026075 0.070048682 -0.68505085 -0.12573828 -0.71756202 0.12546402
-0.12474668 -0.1504488 0.080301866 0.013168072 0.91637152 -0.40011239 0.00024910981
-0.10547803 -0.15027538 0.080503419 0.001997191 0.91901529 -0.39421675 0.00016817079
-0.075919427 -0.15001875 0.080780745 -0.0002212028 0.92879254 -0.3706001 0.00019245846
-0.058233798 -0.15016955 0.080227613 -0.0044575003 0.93087941 -0.36529925 0.00096069317
-0.037689507 -0.15010358 0.080154769 -0.07819286 0.86572516 -0.49437422 0.01313606
-0.02412191 -0.15155829 0.081389099 -0.15996209 0.83500832 -0.52647251 0.02259434
-0.27426898 -0.14105359 0.083101653 0.17597859 0.82785165 -0.53262854 0.0117342
-0.26373872 -0.14001045 0.085722804 0.19765067 0.82918483 -0.52286386 0.0092622703
-0.25626668 -0.14163901 0.084231138 0.14598058 0.85482037 -0.49796772 0.0078408848
-0.24380116 -0.14357659 0.083818018 0.10162388 0.88941282 -0.44566509 0.0018702318
-0.23385619 -0.14417003 0.084809236 0.077699892 0.89907533 -0.43084377 0.0008121063
-0.22749573 -0.14276721 0.088824011 0.080588937 0.88448215 -0.45956147 0.0021637327
-0.21683379 -0.14581735 0.084761254 0.047807571 0.90484565 -0.42304713 0.00030109333
-0.20557848 -0.14554773 0.084949166 0.035880536 0.90686101 -0.41989961 0.00031431456
-0.19535004 -0.14459556 0.08764974 0.027230958 0.9058516 -0.422719 0.00031151043
-0.18761556 -0.14571214 0.085915864 0.025559258 0.90712273 -0.42008933 0.00024683241
-0.17439127 -0.14552961 0.087222755 0.029794676 0.90483403 -0.42472062 0.00011217577
-0.16373914 -0.14645615 0.086079665 0.029334707 0.90412766 -0.42625421 0.00010349364
-0.15611182 -0.14845853 0.082523845 0.026504965 0.90933299 -0.41522402 0.00019772811
-0.14905083 -0.1463348 0.087315023 0.027424101 0.90576398 -0.42289415 0.00010663542
-0.13816851 -0.14598244 0.088741392 0.030979356 0.91211462 -0.40876299 0.00041992776
-0.12548915 -0.148431 0.084426492 0.014464906 0.91560948 -0.40180844 0.00044524833
-0.11305068 -0.14758438 0.086735003 0.007145192 0.9168601 -0.39914453 0.00034522623
-0.10861324 -0.14985093 0.081541099 0.0069072959 0.91726691 -0.39821333 0.00019939453
-0.093197919 -0.14779598 0.08622437 0.011172405 0.92399746 -0.38223523 0.00039514896
-0.083785482 -0.14755513 0.086688608 0.003108134 0.92704791 -0.37492993 0.00026981608
-0.074420355 -0.14913851 0.082843632 0.0035320646 0.9293834 -0.36909899 0.00020346539
-0.064742118 -0.14734036 0.086984068 -0.0012570309 0.91506696 -0.40329996 0.0035268327
-0.055522196 -0.14836358 0.084464073 -0.065018371 0.89668989 -0.43785831 0.0080343764
-0.047549553 -0.14845994 0.084381051 -0.047611333 0.87867141 -0.47504696 0.011111615
-0.035457969 -0.1490601 0.087783694 -0.14696206 0.79125547 -0.5935629 0.022230165
-0.025657326 -0.14540403 0.08760123 -0.25750524 0.68614256 -0.68036699 0.025277968
-0.015455944 -0.14266734 0.084648281 -0.33606288 0.58808321 -0.73567647 0.015832312
-0.30262312 -0.13219512 0.086388931 0.28029084 0.65847194 -0.6984638 0.017808432
-0.29817733 -0.13348089 0.083937414 0.27329198 0.6798256 -0.68055028 0.021646347
-0.28488579 -0.1364743 0.085951157 0.20145851 0.7434119 -0.63777196 0.016714877
-0.27644539 -0.13849872 0.089158669 0.22970836 0.75701708 -0.61168557 0.019537376
-0.015569346 -0.13594723 0.08876209 -0.36416003 0.54251128 -0.75701314 0.015562046
-0.0056667225 -0.13118196 0.0862398 -0.41890091 0.39514077 -0.81754863 0.0036695558
0.0029460464 -0.13336919 0.080848932 -0.41563329 0.39699107 -0.81831968 0.0033549406
-0.33146033 -0.12127592 0.082484335 0.34507975 0.52548701 -0.77767819 0.039346289
-0.32906273 -0.12174612 0.083168447 0.34575239 0.51251459 -0.78599244 0.038240436
-0.31486848 -0.12445561 0.085958317 0.31753236 0.54888529 -0.77323872 0.02402707
-0.30046183 -0.12985109 0.089361392 0.30948633 0.56348324 -0.76596665 0.021101158
-0.29031056 -0.12732418 0.086682186 0.23093523 0.56734556 -0.79043531 0.016844714
-0.28577757 -0.1299158 0.085789151 0.20386195 0.65905446 -0.72393894 0.022951532
-0.0018553687 -0.12461258 0.087663144 -0.43898338 0.32088357 -0.8392421 0.0019395378
0.0025041583 -0.12721987 0.084341288 -0.43698516 0.35993055 -0.82431424 0.0025560565
-0.3235285 -0.11730616 0.085520498 0.35539052 0.4298749 -0.83000308 0.030416271
-0.31576088 -0.11928249 0.082424782 0.36312765 0.46062693 -0.80991429 0.025327064
-0.29841527 -0.11996397 0.089874163 0.33490154 0.44073534 -0.83282256 0.016358601
-0.00084216148 -0.11822377 0.088911042 -0.44132376 0.28554675 -0.8507036 0.0012201752
0.0048061023 -0.11678493 0.086242191 -0.44676691 0.27208894 -0.85227168 0.00091732445
0.015491685 -0.1155756 0.080992579 -0.45748883 0.28238252 -0.8431868 0.0011196889
-0.3446112 -0.10260759 0.080523193 0.3733626 0.26103067 -0.89020407 0.017074542
-0.33456919 -0.10680714 0.083453149 0.36258489 0.33252254 -0.87060958 0.025250023
0.0069552725 -0.10459108 0.088256605 -0.45635763 0.23918831 -0.85704535 0.00024466505
0.015123186 -0.10767496 0.083285376 -0.45935979 0.24406077 -0.85406256 0.00023298999
0.022594903 -0.10198282 0.080778547 -0.4609918 0.2325097 -0.85640281 7.1184062e-05
-0.35008892 -0.090619028 0.080707192 0.37632909 0.19948852 -0.90475458 0.006799879
-0.34315813 -0.092368037 0.08251714 0.37319121 0.18672049 -0.90877044 0.003131801
-0.33456096 -0.095400758 0.086173259 0.37689236 0.21366325 -0.90127695 0.0073214504
-0.32760289 -0.095031798 0.08883214 0.3579579 0.2160683 -0.90839458 0.003226259
0.014888378 -0.096769407 0.086318105 -0.45723 0.22631009 -0.86007237 8.1585116e-05
-0.34637308 -0.0828216 0.083661735 0.37562376 0.15036277 -0.9144932 0.0010653978
-0.33374962 -0.086954944 0.08829698 0.37042621 0.1930559 -0.90857798 0.0021150247
0.017462159 -0.085760534 0.087913357 -0.45347047 0.1990093 -0.86876917 0.00039770899
0.026183659 -0.085375302 0.083481401 -0.46681398 0.19479224 -0.86263597 0.00050148746
0.030531798 -0.086303987 0.080818981 -0.46581659 0.1943094 -0.86328369 0.00052381505
-0.35289222 -0.074376278 0.082367837 0.38190973 0.12915535 -0.9151305 0.00031506651
-0.34433177 -0.072595008 0.086251996 0.37730181 0.1205497 -0.91821074 0.00038166929
-0.33855516 -0.074789755 0.08798103 0.37358576 0.13086003 -0.91831869 0.00039571602
0.018847765 -0.079527825 0.088852488 -0.45728442 0.17837842 -0.87124741 0.00056772446
0.023345014 -0.074484557 0.087197691 -0.45959845 0.16046701 -0.87351 0.0005840314
0.033739358 -0.074994728 0.081500292 -0.4676663 0.16252215 -0.86883527 0.00052669033
-0.35600451 -0.064783856 0.081687331 0.38160044 0.10422128 -0.91843295 0.00020101682
-0.34715223 -0.063708067 0.085422456 0.37786189 0.10553565 -0.91982752 0.00035071225
-0.33814716 -0.066929042 0.088834137 0.37398246 0.1101768 -0.92086822 0.0003633702
0.024401257 -0.065005377 0.087865151 -0.46166676 0.12581803 -0.87808514 0.00011145202
0.032023687 -0.064728409 0.083857976 -0.46882913 0.12753096 -0.87403381 7.3764233e-05
-0.36203942 -0.054215375 0.080861591 0.37884539 0.087302439 -0.92133296 0.0001074879
-0.35518378 -0.054544844 0.083241627 0.37869996 0.086999565 -0.92142141 0.00011320724
-0.34182701 -0.05522861 0.088612795 0.37455848 0.086909674 -0.92312115 0.00011341288
0.027167549 -0.05264185 0.088084735 -0.46149257 0.114534 -0.87971967 4.7044356e-05
0.036633216 -0.05730474 0.082309395 -0.47002617 0.12513538 -0.87373716 6.6929228e-05
0.041792776 -0.050881013 0.080318227 -0.47074836 0.11621679 -0.87457967 4.6381327e-05
-0.3642363 -0.049498357 0.080378838 0.37893626 0.087120377 -0.92131281 0.00010482583
-0.3519747 -0.041056424 0.086180188 0.37813261 0.072029129 -0.92294508 0.00017888627
-0.34696642 -0.045164395 0.087417513 0.37766579 0.075707257 -0.92284179 0.00014379632
0.028228451 -0.04738576 0.08822763 -0.46166524 0.10467932 -0.88085616 8.4486259e-05
0.031924922 -0.043419462 0.086799942 -0.46354818 0.10122123 -0.88027126 0.00010720262
0.041978467 -0.045331229 0.081005268 -0.47091648 0.10537168 -0.87586218 0.00014133586
-0.36272904 -0.035384193 0.082027942 0.3773821 0.056773402 -0.92431575 0.00021363262
-0.35457352 -0.033087812 0.085569337 0.38054261 0.050512258 -0.92338288 0.00024420593
-0.34731829 -0.036781646 0.087820143 0.3773748 0.063489616 -0.92388165 0.00024970761
0.034483787 -0.034978058 0.086566396 -0.46527052 0.083921582 -0.88118136 0.0002987597
0.043636471 -0.035820466 0.081457563 -0.47280699 0.082843989 -0.87726307 0.00034720812
-0.36523855 -0.027256355 0.081286825 0.37712565 0.04502894 -0.92506683 0.00018550684
-0.35294339 -0.028665522 0.086471058 0.37823203 0.047741991 -0.92447889 0.00025944487
-0.34783423 -0.024939921 0.088906556 0.37989101 0.035795983 -0.9243384 0.00022555375
0.034763578 -0.021952139 0.087321855 -0.47003645 0.042872015 -0.88160521 0.00032130978
0.043891743 -0.024039427 0.082339607 -0.47176385 0.052862685 -0.88013887 0.0003934816
-0.36382887 -0.017311804 0.082123719 0.38129976 0.022724086 -0.9241721 0.00019198201
-0.35574913 -0.01708075 0.08565297 0.38140869 0.023620795 -0.92410469 0.00016365603
-0.34705478 -0.018992789 0.08898028 0.38041514 0.027175242 -0.92441648 0.00021747098
0.029794801 -0.017687276 0.089925796 -0.46665102 0.032251112 -0.88385332 0.00027775674
0.034837898 -0.017893791 0.087251082 -0.46830916 0.032608721 -0.88296264 0.00029964684
0.040295642 -0.010706599 0.084310621 -0.47508132 0.011247854 -0.87987 9.4914401e-05
-0.36404344 -0.0063334783 0.082205959 0.38280064 0.012860989 -0.92374146 9.0187808e-05
-0.35697708 -0.0072128596 0.084924459 0.38053587 0.011993215 -0.9246884 0.00011574351
-0.34456295 -0.0087758619 0.089998834 0.38199899 0.010506527 -0.92410302 0.00013683584
0.036501493 -0.0066992291 0.086387686 -0.47034961 0.0030273076 -0.88247496 5.3602806e-05
0.04484421 -0.005654871 0.08181756 -0.47602239 0.00079875259 -0.8794328 1.251183e-05
-0.3628988 0.0060758465 0.082503885 0.38307047 -0.0045598708 -0.9237079 0.00017990477
-0.35540494 0.0044873198 0.085567079 0.37930188 0.0010036923 -0.92527246 0.00010661307
-0.34630004 0.0027334641 0.089515366 0.37802058 0.00071082637 -0.92579687 5.9616974e-05
0.033520434 0.0044540693 0.087992914 -0.46883032 -0.0025070298 -0.88328469 3.1889991e-05
0.044962291 0.0068285079 0.081752837 -0.47571415 -0.0089689475 -0.87955427 7.8399775e-05
-0.36068326 0.016904984 0.084089287 0.38229635 -0.029645327 -0.92356414 0.00031884917
-0.35474622 0.01418791 0.086176232 0.38120678 -0.023454333 -0.92419225 0.00029233572
-0.34605789 0.018817091 0.08938776 0.38093093 -0.031828582 -0.92405552 0.00031140237
0.029758867 0.013474287 0.089944005 -0.46600097 -0.016665375 -0.88462722 0.00017104374
0.035458636 0.014973799 0.086944282 -0.47179672 -0.0148019 -0.88158309 0.00013118183
-0.36529657 0.025947116 0.081563607 0.38137263 -0.05424064 -0.92282873 0.00029655205
-0.35578164 0.024293074 0.085581213 0.37800571 -0.043242481 -0.92479277 0.00030469516
-0.34781414 0.023268756 0.088669881 0.37948838 -0.041733399 -0.92425478 0.00023770111
0.033207137 0.026361054 0.08804024 -0.46246502 -0.061750259 -0.88448471 0.00033794763
0.044475645 0.021499323 0.082019567 -0.47420552 -0.04092453 -0.87946248 0.00042930798
-0.36569008 0.032224171 0.080514267 0.38253462 -0.059918735 -0.92199618 0.00024532399
-0.35359699 0.037148811 0.085471533 0.37608239 -0.069311552 -0.92399025 0.00017852656
-0.34795809 0.037799351 0.08801733 0.37823543 -0.069215573 -0.92311817 0.0001378692
0.035464779 0.034670286 0.085889578 -0.46606961 -0.085493997 -0.88060766 0.000333709
0.043015074 0.034136534 0.081859604 -0.46891251 -0.084676057 -0.87917638 0.00042155656
-0.36056617 0.041452974 0.081787243 0.38080198 -0.074213132 -0.92167366 9.6777985e-05
-0.35678315 0.044317674 0.083540738 0.3784492 -0.077755384 -0.92235041 8.4433239e-05
-0.34613225 0.046173315 0.08731582 0.37885737 -0.078267604 -0.92213953 0.00010415348
0.028975701 0.046629358 0.087792903 -0.46248403 -0.11258253 -0.87945074 4.0605042e-05
0.037544735 0.047782674 0.082936794 -0.46913785 -0.11249351 -0.87593085 5.874845e-05
0.041101869 0.046883941 0.081091531 -0.46971786 -0.11260881 -0.87560517 5.993752e-05
-0.36146328 0.055252936 0.080533609 0.38430107 -0.092757262 -0.91853625 0.00014491635
-0.35551754 0.056117196 0.083013944 0.38038564 -0.095882051 -0.91984427 0.00023474777
-0.34450611 0.055463474 0.087683178 0.37947977 -0.095867373 -0.9202199 0.00020116413
-0.33937347 0.055424772 0.089597404 0.37400642 -0.097380213 -0.92229939 0.00023287017
0.025346115 0.052692484 0.088834018 -0.46111703 -0.11245836 -0.88018423 2.8491884e-05
0.038225561 0.056278199 0.081396699 -0.47148997 -0.12261114 -0.87330616 3.6559544e-05
-0.35339957 0.068520382 0.082835808 0.37647372 -0.1169038 -0.91902184 0.00028978215
-0.34242421 0.06878309 0.087136671 0.37507424 -0.12027383 -0.91915911 0.00028436567
-0.33850199 0.063575648 0.089142412 0.37712148 -0.11003561 -0.91960394 0.00026961204
0.025085384 0.064188085 0.087460376 -0.46490413 -0.12761398 -0.87611574 0.00011008841
0.035495006 0.062998801 0.081996448 -0.46916389 -0.12658019 -0.87399238 7.491251e-05
-0.35327467 0.073996693 0.082191758 0.37668595 -0.12207901 -0.91826171 0.00022963955
-0.34572491 0.076281436 0.085021883 0.3748613 -0.1361555 -0.91702813 0.0003250064
-0.33382702 0.079221979 0.089254454 0.36677468 -0.14650948 -0.91870087 0.00044243081
0.019048272 0.0729196 0.089465477 -0.45377308 -0.15201572 -0.87805533 0.00037236416
0.025507441 0.076644078 0.085586742 -0.45916849 -0.17297232 -0.87134653 0.00055908487
0.03188597 0.0745131 0.082429372 -0.46945447 -0.15536155 -0.86918086 0.00045927396
-0.35202816 0.080124706 0.081011496 0.3746084 -0.13785501 -0.91687763 0.00025081611
-0.34340459 0.082039565 0.084260345 0.37480479 -0.16027309 -0.91314501 0.0017105973
-0.33470026 0.08455959 0.08741644 0.36391261 -0.15652204 -0.91818762 0.0006359464
-0.32919487 0.084437065 0.089772731 0.36136141 -0.1615272 -0.91832834 0.00048319504
0.017608559 0.085595526 0.08756154 -0.45700401 -0.19343753 -0.86817575 0.00047979076
0.02194342 0.085968032 0.085265934 -0.45680541 -0.20335129 -0.86601216 0.0003948716
0.030958453 0.081941642 0.081506275 -0.46245572 -0.18751182 -0.86658758 0.00054856669
-0.34556022 0.090264164 0.08237043 0.35829619 -0.18788075 -0.91450787 0.0046390528
-0.3337442 0.096893422 0.085651301 0.3630535 -0.24638638 -0.89860219 0.0096475277
0.013101031 0.093779132 0.087680012 -0.45396191 -0.22272705 -0.86273474 9.2605478e-05
0.021519355 0.095131338 0.082993731 -0.45782444 -0.22489157 -0.86012828 0.00011004985
-0.3442997 0.10811913 0.08067897 0.35349604 -0.3124727 -0.88170367 0.02225385
-0.33795071 0.10304964 0.08289165 0.33550888 -0.29360291 -0.89511514 0.018823659
-0.32446802 0.10689385 0.086551815 0.35677123 -0.3372609 -0.87118846 0.019480173
0.0059727537 0.10556257 0.088202536 -0.45387274 -0.24086827 -0.85789388 0.00022511932
0.017812924 0.10406641 0.082550697 -0.46094728 -0.23890701 -0.85466427 0.00011025802
-0.34226522 0.11233274 0.080661498 0.35003492 -0.33743086 -0.87385124 0.027189279
-0.33098936 0.11169302 0.082703203 0.32862067 -0.39897782 -0.8560521 0.02807547
-0.3257311 0.11445144 0.085399523 0.33843586 -0.47909215 -0.80989611 0.031054232
-0.31644911 0.11524421 0.084485359 0.34618887 -0.48495179 -0.80310339 0.026124191
-0.30104572 0.11968516 0.087760985 0.30769718 -0.4864932 -0.81770825 0.018752912
-0.002855767 0.11715746 0.089937076 -0.442835 -0.28678188 -0.84950185 0.0013817326
0.0073334472 0.11549807 0.084894575 -0.44721541 -0.29462388 -0.84450883 0.0014795449
0.017122202 0.11096102 0.081020139 -0.45925346 -0.26452559 -0.84800494 0.00068567391
-0.3218976 0.12630014 0.082335711 0.31528369 -0.5566622 -0.76858526 0.024277486
-0.31541285 0.12669122 0.084749997 0.35068953 -0.54697043 -0.76015794 0.0246752
-0.30152285 0.1243249 0.083399348 0.29604897 -0.56784254 -0.76805598 0.020078046
-0.29398507 0.12366613 0.087263063 0.27855802 -0.55579543 -0.78326041 0.01768969
-0.28683618 0.12701283 0.086956851 0.23406485 -0.61397165 -0.75382525 0.021006657
-0.27314785 0.12923485 0.089820296 0.24613442 -0.68486446 -0.68584144 0.021151338
-0.0057681659 0.12734523 0.087834656 -0.41772562 -0.37011543 -0.82977104 0.001995807
0.0034707959 0.12256632 0.085174106 -0.43666801 -0.32888216 -0.83735156 0.001712064
0.010827729 0.12431492 0.080808878 -0.44134119 -0.33848161 -0.83105248 0.001851164
-0.31311733 0.1321632 0.081007369 0.33847424 -0.62644047 -0.70214498 0.024044497
-0.30547231 0.13338575 0.082957774 0.30080131 -0.66823024 -0.68043149 0.024025075
-0.2969501 0.13221808 0.084285207 0.23596717 -0.6694321 -0.70440042 0.021726973
-0.28377905 0.13496894 0.085592128 0.21032515 -0.72706151 -0.6535632 0.020808017
-0.27775094 0.13534023 0.087006934 0.2156018 -0.73948586 -0.63771194 0.019575281
-0.022558343 0.13994308 0.088793315 -0.26952574 -0.6535179 -0.70729792 0.027153324
-0.015284364 0.13615048 0.087903351 -0.33162069 -0.49954551 -0.80030125 0.012956087
-0.0078031025 0.13510469 0.08469411 -0.39160442 -0.43698111 -0.80974913 0.0027088337
0.0024506422 0.13248283 0.081008017 -0.41487452 -0.3856065 -0.82412791 0.0023470642
-0.29142788 0.14022239 0.081091262 0.2037297 -0.77692205 -0.59572339 0.020496925
-0.2792086 0.14035171 0.082358703 0.17025623 -0.82124478 -0.54458225 0.017886439
-0.26342815 0.14110526 0.080831751 0.13164333 -0.87472206 -0.46640262 0.0078925639
-0.25165218 0.1415869 0.082955837 0.12779614 -0.87839746 -0.46052805 0.0051672729
-0.24303849 0.14220005 0.083988324 0.1242855 -0.88307983 -0.4524633 0.0034341658
-0.23327729 0.14202578 0.086444192 0.086249135 -0.89815086 -0.43114504 0.0016562254
-0.22007544 0.14447026 0.084126547 0.052591603 -0.90711188 -0.41759089 0.00097165076
-0.21573721 0.14448607 0.084679633 0.048184749 -0.90945321 -0.4130049 0.00093978905
-0.20501815 0.1431873 0.087019362 0.022472221 -0.90353358 -0.42792773 0.00076189148
-0.19559032 0.14361987 0.086844236 0.019188318 -0.90571398 -0.42345503 0.00048177742
-0.18358174 0.14546771 0.083913311 0.028342843 -0.9079383 -0.41814443 0.0002949218
-0.17592804 0.14586174 0.083647922 0.033538759 -0.90462357 -0.42488989 9.6975607e-05
-0.16606103 0.14630403 0.083440132 0.034179792 -0.90665776 -0.42047989 0.00033148407
-0.15609452 0.14524552 0.086294129 0.035322484 -0.91270369 -0.40709248 0.00067991205
-0.14273217 0.14682201 0.083965518 0.02219769 -0.91395271 -0.40521309 0.00065052084
-0.13895965 0.14800338 0.081809685 0.01900987 -0.90904754 -0.41625866 0.00020342924
-0.12550595 0.14779338 0.082954638 0.0087144496 -0.91490358 -0.40357858 0.00023418941
-0.11702512 0.14538097 0.088332325 0.0044811326 -0.91749787 -0.39771545 0.00047432588
-0.1050361 0.14706758 0.084857047 0.0080916751 -0.92015642 -0.3914673 0.00032793684
-0.093276657 0.14741679 0.08390113 0.0093039963 -0.92595768 -0.37751278 0.00047269475
-0.084469743 0.14647706 0.086023264 0.0056107342 -0.92931515 -0.36924496 0.00044758309
-0.074116506 0.14698172 0.084715754 0.0067795315 -0.93310899 -0.35952985 0.00076519471
-0.065204926 0.1470495 0.084456421 -0.0073837871 -0.9246937 -0.38064027 0.0025798401
-0.056380063 0.14623012 0.086293966 -0.037480239 -0.90871638 -0.41572788 0.0076980097
-0.041905902 0.14872158 0.080246747 -0.04413766 -0.89376175 -0.44636518 0.012484581
-0.024105936 0.14591345 0.086348459 -0.21415384 -0.70413011 -0.67700738 0.027304016
-0.014812581 0.14381573 0.082685634 -0.26159617 -0.66021556 -0.70404738 0.021276234
-0.0067491285 0.14069213 0.080856845 -0.35232416 -0.55798227 -0.75134778 0.015661608
-0.03503171 0.15051705 0.082393631 -0.096831456 -0.87424093 -0.47573772 0.015873622
-0.018917594 0.15002152 0.080955669 -0.19470727 -0.7409929 -0.64266515 0.031938914
-0.23558596 -0.14044352 0.091695294 0.10354396 0.86267745 -0.4950417 0.0031847251
-0.22640234 -0.14127861 0.091994166 0.079307608 0.8750121 -0.47756058 0.002438579
-0.21836704 -0.14224046 0.090700798 0.058463924 0.89006734 -0.45206439 0.0015340858
-0.2025585 -0.14228252 0.091815978 0.033089213 0.90144461 -0.43162808 0.00046657657
-0.19748245 -0.14102891 0.094749823 0.034559056 0.88888025 -0.45683426 0.0020319731
-0.18879601 -0.14162084 0.094198555 0.029967291 0.8940897 -0.44688427 0.0010339899
-0.17354189 -0.14063466 0.097291283 0.026257742 0.88992757 -0.4553456 0.001791346
-0.16639976 -0.1415074 0.095998161 0.031343039 0.89622116 -0.44249886 0.00054922921
-0.15512697 -0.14102527 0.097713888 0.029604238 0.89773953 -0.43953073 0.00041162359
-0.14591439 -0.14278367 0.09473975 0.040231034 0.90073121 -0.43250978 0.00068134669
-0.13423069 -0.14338674 0.094275869 0.027513312 0.91032845 -0.41297099 0.00052113074
-0.12561209 -0.14492466 0.091643505 0.017034188 0.91456485 -0.40408045 0.00048374265
-0.1136867 -0.14326663 0.095646404 0.015740985 0.91565955 -0.40164638 0.00054951845
-0.10426507 -0.14472321 0.093115248 0.007584055 0.91571784 -0.40175018 0.00065274705
-0.091181211 -0.14247929 0.098373041 0.010851692 0.90087646 -0.43393996 0.0037438294
-0.085174926 -0.14470583 0.0934356 0.00440459 0.91488391 -0.40369299 0.001294511
-0.076091141 -0.14399098 0.095023341 -0.013684002 0.8973676 -0.44107163 0.0071339346
-0.06199782 -0.14471184 0.095160902 -0.078005686 0.87266541 -0.48204792 0.010336408
-0.054819953 -0.14421004 0.096937254 -0.13525087 0.8365494 -0.53093529 0.02046901
-0.046539202 -0.14457585 0.096902803 -0.1877677 0.76173782 -0.62007964 0.024262151
-0.032894008 -0.14209493 0.093813419 -0.21207418 0.6826309 -0.6993137 0.024113474
-0.029171884 -0.14041775 0.092448212 -0.28861639 0.62042862 -0.72922492 0.020963022
-0.28178716 -0.13196275 0.093995444 0.23441382 0.58770508 -0.77437258 0.017415412
-0.26464021 -0.13539585 0.093600534 0.23253384 0.68992317 -0.68551737 0.016219001
-0.25786138 -0.13818778 0.09405645 0.15624899 0.76991081 -0.61872739 0.017429318
-0.24318305 -0.13752538 0.098292038 0.16732585 0.7792092 -0.60401589 0.013486239
-0.23934776 -0.1390726 0.093509175 0.11933096 0.842251 -0.52571225 0.0072093569
-0.22666501 -0.13852553 0.097788811 0.09470816 0.83686739 -0.53915066 0.0092782946
-0.21113059 -0.13994204 0.095922559 0.057555053 0.86795145 -0.49330291 0.0036058123
-0.20678438 -0.13859649 0.098987877 0.060354657 0.84903389 -0.52487981 0.0070963223
-0.19624248 -0.13954459 0.09786126 0.042093094 0.86981434 -0.4915804 0.0043954058
-0.18189588 -0.13947339 0.0990775 0.025346246 0.87336463 -0.48640695 0.0038881043
-0.16687182 -0.13971442 0.099612862 0.040742975 0.8882634 -0.45752388 0.0017024868
-0.033161856 -0.13707986 0.096509747 -0.29195797 0.61153644 -0.73537999 0.021780932
-0.024937373 -0.13404095 0.094376117 -0.35534453 0.51534861 -0.77983719 0.016297635
-0.018733587 -0.13353601 0.091679849 -0.37126052 0.50278795 -0.78062147 0.011850509
-0.30470115 -0.12340185 0.09136036 0.28335109 0.47031197 -0.83577436 0.020929459
-0.29464695 -0.12343514 0.091189809 0.30149797 0.48224533 -0.82251948 0.016658131
-0.28701091 -0.12351913 0.094915152 0.25536883 0.46735668 -0.84638321 0.013081498
-0.275296 -0.12636693 0.09675245 0.24900495 0.53333789 -0.80842263 0.015431733
-0.26853248 -0.12691979 0.09625271 0.28309274 0.58323991 -0.76137358 0.016544774
-0.023507802 -0.1251045 0.098014571 -0.41126329 0.34830379 -0.84234607 0.0031664572
-0.011540746 -0.12545307 0.092218257 -0.41981336 0.33586651 -0.84317881 0.0020616227
-0.0085944831 -0.12214929 0.092085645 -0.42697257 0.31734869 -0.84674925 0.0021857773
-0.31431523 -0.1126515 0.090891622 0.33098227 0.33792725 -0.88105386 0.012551144
-0.3050395 -0.11570401 0.093632817 0.29872873 0.39380595 -0.86929739 0.015608535
-0.29346916 -0.11538956 0.096714199 0.27861062 0.36961037 -0.88643354 0.0094450992
-0.28755483 -0.11727885 0.096568257 0.28088591 0.37759754 -0.8823396 0.0083540138
-0.013867973 -0.11559221 0.09661223 -0.43029281 0.29293755 -0.85383582 0.0015526821
-0.0046921652 -0.1120242 0.092549823 -0.44257873 0.2604349 -0.85807794 0.00088827882
-0.31549728 -0.10406845 0.091639124 0.34717959 0.26394221 -0.89988935 0.0086819641
-0.30666387 -0.10161848 0.094984539 0.33106831 0.23883578 -0.91288078 0.0026050985
-0.2931419 -0.10591772 0.099241622 0.31643438 0.29387641 -0.90194565 0.0072527421
-0.010533147 -0.10301566 0.097984657 -0.45105201 0.22887789 -0.86265123 0.0001204533
-0.0044414201 -0.10609946 0.093914315 -0.45125434 0.2377995 -0.86012846 0.00028015781
0.0014153477 -0.10289243 0.091577031 -0.45365381 0.23011036 -0.86095732 0.00019745258
-0.32193041 -0.094004303 0.091171429 0.36062929 0.21966033 -0.90647441 0.0032311613
-0.31569195 -0.094207071 0.09340854 0.34767988 0.20768838 -0.91432184 0.0023051433
-0.30444655 -0.096214928 0.096923776 0.34015307 0.24022667 -0.9091683 0.0033507727
-0.29711303 -0.097731851 0.099004038 0.33233842 0.22940536 -0.91483569 0.0020272469
-0.010052407 -0.099850714 0.098530762 -0.45223027 0.22427362 -0.86324334 0.00016071468
-0.0034167736 -0.094197646 0.096375249 -0.45206633 0.21273394 -0.86624497 0.00015784688
0.0050618849 -0.096562527 0.091325544 -0.45399377 0.22185901 -0.86294162 4.9213551e-05
-0.32770377 -0.083691806 0.091492474 0.36114344 0.16070014 -0.91855913 0.00040223621
-0.31542799 -0.084417373 0.095520608 0.34808722 0.15926725 -0.92383397 0.00045986727
-0.30656445 -0.083385132 0.099187374 0.33824357 0.16986226 -0.92560154 0.00038626126
-0.0046323445 -0.08496242 0.099368766 -0.45320225 0.1903149 -0.87085468 0.00035778555
0.0040351027 -0.085100271 0.09483733 -0.4533447 0.19720741 -0.86924559 0.00031294764
0.014932252 -0.08188422 0.090202652 -0.45705369 0.1859577 -0.86978251 0.00059593027
-0.33248788 -0.076769024 0.090839267 0.36813697 0.12850598 -0.92084819 0.00036514777
-0.31445169 -0.074613653 0.097842224 0.34601831 0.13457635 -0.92852604 0.00060909597
-0.30722278 -0.078864083 0.099598721 0.33921888 0.14992236 -0.92868388 0.00058870739
0.0060078446 -0.074782953 0.096164979 -0.45326519 0.16097397 -0.87672001 0.00050964806
0.013855624 -0.076346651 0.091849938 -0.4502432 0.16679271 -0.8771894 0.00058930187
-0.33317465 -0.064306766 0.09163706 0.37093505 0.094883963 -0.9237988 0.00019213707
-0.32195255 -0.06425415 0.095929816 0.35661775 0.095528714 -0.92935354 0.00022731733
-0.3143248 -0.065535441 0.098463416 0.35139734 0.10349302 -0.93048865 0.00029544497
0.0059767002 -0.065010287 0.09735892 -0.45799887 0.12119395 -0.88065267 0.00012095671
0.014406745 -0.06498275 0.092987694 -0.45866185 0.12405354 -0.8799091 0.00011522612
-0.33368132 -0.053107649 0.092634179 0.37360361 0.085049123 -0.9236812 0.00011860402
-0.32265672 -0.052858502 0.096569397 0.36084691 0.085515164 -0.92869622 0.0001408923
-0.31755465 -0.054497398 0.098253034 0.3539297 0.085611731 -0.9313454 0.00015736614
0.0075263786 -0.052453142 0.098066956 -0.4588972 0.1073695 -0.88197803 3.1811134e-05
0.015119027 -0.056259807 0.09369155 -0.45778236 0.11344685 -0.88179654 3.4233908e-05
0.022740554 -0.053037584 0.090253063 -0.45997417 0.11247952 -0.88077927 4.5283101e-05
-0.33934265 -0.04424607 0.09042947 0.37339821 0.080358274 -0.9241842 0.00013617441
-0.32604453 -0.045109019 0.095873527 0.36350444 0.081653222 -0.92800713 0.00013776512
-0.31969872 -0.041751537 0.099097215 0.35827968 0.075421505 -0.93056285 0.00015900431
0.0079014916 -0.043803729 0.098917097 -0.4580909 0.093036406 -0.88402313 0.00011214954
0.016420867 -0.045744091 0.094357148 -0.45664516 0.10063101 -0.88393921 9.6170705e-05
0.023968428 -0.042778928 0.090954401 -0.45925367 0.095317952 -0.88317639 0.00012999277
-0.34221447 -0.030110076 0.090549164 0.38034737 0.049281508 -0.92352974 0.00025852487
-0.33490548 -0.033508092 0.093600027 0.36938822 0.052702695 -0.9277795 0.00029184259
-0.32456157 -0.032301787 0.097691469 0.36267906 0.052936744 -0.93040937 0.00033954237
0.007379896 -0.038230203 0.099857159 -0.45634332 0.083717391 -0.88585669 0.00020083968
0.014277269 -0.036283679 0.096646048 -0.45558882 0.087621793 -0.88586754 0.0001509983
0.023200385 -0.035939824 0.092217304 -0.45832536 0.0832306 -0.88487881 0.00021088442
-0.33126906 -0.023891598 0.095717251 0.37312451 0.037962567 -0.92700428 0.00023041719
-0.32407409 -0.024447421 0.098399445 0.3641144 0.038847309 -0.93054372 0.00031047032
0.017127465 -0.024214623 0.09634544 -0.4556545 0.060036432 -0.88812983 0.00030276709
0.022928955 -0.021877093 0.093405306 -0.4571124 0.042156968 -0.88840926 0.00030198265
-0.34319082 -0.014435691 0.090786286 0.38173154 0.016521009 -0.92412561 0.00014249841
-0.3354966 -0.014466194 0.093931384 0.3772929 0.015565597 -0.92596304 0.00013942289
-0.32538947 -0.014324696 0.09790507 0.36423144 0.010940782 -0.93124419 0.00014460564
0.010102287 -0.018525086 0.099905707 -0.4487209 0.035196468 -0.89297861 0.00032852389
0.022699034 -0.015636278 0.093521833 -0.454032 0.024658268 -0.89064413 0.00023631964
-0.34076428 -0.0031623726 0.092231363 0.37661102 0.0025065348 -0.92636812 9.654653e-05
-0.33581743 -0.0070638224 0.093981519 0.37460324 0.0059578582 -0.9271661 9.3181501e-05
-0.32343319 -0.0069186068 0.098400824 0.35943177 0.0049389084 -0.93315822 0.0001139235
0.024844561 -0.0063522868 0.092434511 -0.4604961 0.0049542016 -0.88764787 7.7412929e-05
-0.34282741 0.0054255561 0.091048144 0.37617195 -0.0012943705 -0.92654896 7.2248367e-05
-0.334425 0.0026756399 0.094482712 0.37344128 -0.0017398426 -0.92765218 0.00011495859
-0.32396108 0.0053604171 0.098708667 0.36180899 -0.0084555289 -0.9322139 0.00016062983
0.016577436 0.008581223 0.096624181 -0.44970185 -0.014059561 -0.89306808 0.00016809112
0.024656812 0.0063443352 0.092529655 -0.46147716 -0.0014156108 -0.88715094 2.8217006e-05
-0.34063578 0.01113579 0.091943994 0.37524581 -0.014673585 -0.92680919 0.00021010012
