# .PCD v0.7 - Point Cloud Data file format
VERSION 0.7
FIELDS x y z normal_x normal_y normal_z curvature
SIZE 4 4 4 4 4 4 4
TYPE F F F F F F F
COUNT 1 1 1 1 1 1 1
WIDTH 586
HEIGHT 1
VIEWPOINT 0 0 0 1 0 0 0
POINTS 586
DATA ascii
-0.19894269 0.42120817 -0.13725643 0.5531503 -0.3783277 0.74222159 0.29493913
-0.18933132 0.42330152 -0.13996591 0.66052961 -0.071654759 -0.74737287 0.28222129
-0.17014496 0.42113566 -0.13716254 0.86287957 0.18535407 0.47019431 0.21767455
-0.16768497 0.42054731 -0.13692483 0.90134311 0.1899789 0.38921538 0.18726633
-0.13264728 0.42862564 -0.13815835 0.95866263 0.21286015 0.18882957 0.040926103
0.13264728 0.42217529 -0.1316743 -0.97913879 0.16273448 0.12167437 0.034371082
0.1753675 0.42183772 -0.13807127 0.73652464 -0.65604705 0.16472301 0.250541
0.20461401 0.42114383 -0.13854004 -0.93919575 -0.24885495 -0.2366062 0.22002402
-0.13264728 0.43478012 -0.13526697 -0.91700715 -0.34788242 -0.19513012 0.053823557
0.13264728 0.4302488 -0.13250753 -0.94212067 0.31759071 0.10744666 0.067392379
-0.21391377 0.44353545 -0.13428155 0.92938626 0.17864162 0.32299882 0.18247281
-0.20605516 0.44466725 -0.1334898 0.84251684 0.052407209 0.53611463 0.19484949
-0.19208527 0.44707239 -0.13829918 0.61015177 0.24374528 0.7538588 0.26604092
-0.18811126 0.44519401 -0.1345505 0.28126287 0.24191624 0.92863756 0.22960828
-0.17653032 0.44507906 -0.13432668 -0.32532007 -0.60409147 -0.72748899 0.26297596
-0.16540813 0.44517833 -0.13452953 0.097480334 -0.92864966 -0.35792091 0.17809542
-0.14507444 0.44390053 -0.13192946 -0.37444982 -0.84668672 -0.37803304 0.07444182
-0.13264728 0.4406825 -0.13099939 -0.83574885 -0.5023666 -0.22170167 0.063091911
0.13264728 0.44153133 -0.13609177 0.88243675 -0.4465099 -0.14810294 0.07576564
0.14320903 0.44457275 -0.13327914 0.39410499 -0.82290936 -0.40926933 0.078239195
0.15824719 0.44527453 -0.13471486 -0.080320828 -0.8939147 -0.44098207 0.19196035
0.16761905 0.44557762 -0.13532665 0.028219255 -0.99326712 -0.11235725 0.21306652
0.17321388 0.44366306 -0.13149363 0.060150169 -0.9961642 0.063552059 0.22016139
0.18545774 0.44484597 -0.13385691 0.73116553 -0.59885657 0.32675338 0.24604428
0.19141722 0.44578826 -0.13573542 -0.8392579 0.4183006 0.34737697 0.24179672
0.20107989 0.4453553 -0.13486603 -0.95871502 0.23466545 0.16061617 0.19060712
-0.21267956 0.45402789 -0.13245948 0.93995529 -0.31295431 0.13617511 0.16597757
-0.19883713 0.4672173 -0.13240618 0.70359868 -0.70511675 0.088086158 0.13486314
0.20272006 0.46494782 -0.13228273 -0.85410702 -0.47183847 0.21879126 0.14156169
-0.1920511 0.47060186 -0.13079685 0.60696685 -0.77352995 0.18232559 0.1342077
-0.1816161 0.47428274 -0.13270517 0.38668543 -0.79172349 0.47291476 0.16343534
-0.1618214 0.47934103 -0.13784181 0.24692121 -0.96424025 0.096283935 0.00059242058
0.15865409 0.47991699 -0.13890009 -0.21558644 -0.97054595 0.10753138 0.0012034753
0.16293384 0.47918665 -0.13645241 -0.23616017 -0.96582168 0.10684954 0.00051157235
0.17120917 0.47719792 -0.13488743 -0.27281332 -0.95855528 0.082126267 0.00052469887
0.18691777 0.47232533 -0.1355675 -0.52128863 -0.8182295 0.2424019 0.13318348
-0.15625781 0.48150238 -0.13154496 0.24416386 -0.96454126 0.10022068 0.00054657814
-0.1454742 0.4833079 -0.13499057 0.16268319 -0.97794402 0.13099495 0.0016244632
-0.11278423 0.48741049 -0.13830131 0.12305828 -0.98537463 0.11787043 0.0036843822
-0.10354456 0.48926115 -0.13558085 0.10120618 -0.98652375 0.12856203 0.0052190516
-0.062777132 0.48825693 -0.13100325 -0.22982436 -0.97064584 0.070903532 0.029564859
-0.043701649 0.48496127 -0.13742958 -0.073083729 -0.99398351 -0.081581511 0.030402223
-0.038956732 0.48367673 -0.13929987 0.01562281 -0.9982354 -0.057287995 0.040371787
-0.024923084 0.48364347 -0.13907754 0.024975695 -0.99018312 -0.13752726 0.0018579381
-0.010095518 0.48545611 -0.13534257 0.02166599 -0.98971385 -0.14141059 0.0028309748
-0.004883233 0.4844431 -0.13387474 0.036086984 -0.99369413 -0.1061594 0.0052105589
0.0059340186 0.48553285 -0.13589303 -0.0066670193 -0.99456674 -0.10388754 0.015610831
0.014422827 0.48485294 -0.13665952 -0.017178964 -0.98733145 -0.15773831 0.0022458658
0.024617156 0.48466539 -0.13538603 -0.020527801 -0.99221092 -0.12286641 0.0040472401
0.035596076 0.48419383 -0.13484776 0.044843622 -0.99324149 -0.10705333 0.0086235637
0.046218637 0.4831416 -0.13572702 0.10294786 -0.99012315 -0.095172964 0.023630193
0.06283012 0.48949468 -0.13291489 0.22620963 -0.97295636 0.046745237 0.028958846
0.10513122 0.48963991 -0.13369806 -0.11558621 -0.98301047 0.14258415 0.0026765685
0.11668505 0.48765135 -0.13549748 -0.14231537 -0.97939819 0.14326718 0.0035426498
0.12433681 0.4867405 -0.13494772 -0.15550782 -0.97760087 0.14182356 0.0016951445
0.15093565 0.48215875 -0.1349837 -0.19937836 -0.97290021 0.1171044 0.00092150451
-0.083742768 0.49196336 -0.13413067 -0.01398423 -0.98536927 0.1698585 0.014386056
-0.079423763 0.49132156 -0.13737021 -0.012584237 -0.99385285 0.10999193 0.018153263
0.06290023 0.49099183 -0.13141912 0.25601828 -0.96623152 0.02917511 0.032907117
0.076296337 0.49142689 -0.13766024 0.037662197 -0.99247897 0.11647758 0.0074438076
0.081427641 0.49298137 -0.13145263 -0.014194193 -0.99016857 0.13915712 0.0057648518
0.10069025 0.49085593 -0.13129979 -0.10728087 -0.98362166 0.14484228 0.0027220424
-0.10058073 -0.4952434 -0.1230092 0.16846587 0.96503675 0.2008069 0.026872462
-0.094308242 -0.49256974 -0.12960821 0.16391684 0.97999811 0.11284947 0.038876329
-0.08590629 -0.49430382 -0.12483744 -1.7065246e-05 0.98878986 0.14931373 0.03591089
-0.062342983 -0.49517173 -0.12688509 0.051576056 0.99461854 0.08985538 0.036294829
-0.053808238 -0.49312851 -0.12815772 0.037028767 0.99345082 0.10809384 0.035980694
-0.043760486 -0.49436206 -0.12429431 0.066465482 0.98995399 0.12479272 0.03488398
-0.037513077 -0.4955408 -0.12553883 0.029094443 0.99192297 0.12345987 0.036810134
-0.024941236 -0.49766561 -0.12486726 0.045697965 0.99081528 0.12726693 0.033610895
-0.012376154 -0.498068 -0.12497362 -0.0039838725 0.98653728 0.16348782 0.03514336
-0.00050885789 -0.4943758 -0.12995854 -0.037746791 0.99153769 0.12420977 0.031541426
0.0019770942 -0.49298543 -0.12792328 -0.033442855 0.98917794 0.14285831 0.030198961
0.014638063 -0.49376079 -0.12881401 -0.07082662 0.9889794 0.13001263 0.027507281
0.038162634 -0.49425352 -0.12834546 -0.0010470087 0.98837239 0.15204898 0.0266755
0.045672823 -0.49262971 -0.1264997 -0.0035817984 0.98729432 0.15886191 0.024522135
0.058649261 -0.49424583 -0.12868774 -0.045512825 0.98312539 0.17718075 0.023864256
0.066010818 -0.49475449 -0.12959133 -0.050831325 0.98429334 0.16906486 0.023619685
0.084214792 -0.49107695 -0.12540682 -0.088115849 0.98031968 0.17666058 0.024982605
0.0985047 -0.49218535 -0.12974098 -0.14792529 0.97373378 0.1730915 0.028292004
0.10789821 -0.49058133 -0.1291309 -0.13267525 0.97201747 0.19385402 0.021530734
-0.15518074 -0.48248067 -0.12517461 0.16619441 0.98188168 0.091037087 0.01296632
-0.14508818 -0.48283979 -0.12764996 0.06441436 0.99052465 0.12129197 0.014038827
-0.13357958 -0.48470351 -0.12624674 0.087335765 0.97865093 0.18605068 0.01487083
-0.12610438 -0.48238334 -0.12718277 0.11154344 0.97189069 0.20733197 0.01592862
-0.11479529 -0.48381636 -0.12791555 0.20629945 0.95233274 0.22472824 0.016954841
-0.10546313 -0.48814487 -0.12795547 0.1923181 0.9565177 0.21928878 0.022901529
-0.097730637 -0.48426208 -0.12541857 0.15838563 0.96622521 0.20328051 0.028068706
-0.083483189 -0.48682174 -0.12620024 -0.0088034645 0.99285334 0.11901571 0.036913499
-0.076384455 -0.48701423 -0.12848867 0.025317363 0.989317 0.14356504 0.037502393
-0.066930465 -0.48647031 -0.12547094 0.027192079 0.98378068 0.17730272 0.032946859
-0.057826538 -0.4877758 -0.12834154 0.060665119 0.99201024 0.11061365 0.035510045
-0.041901648 -0.48814908 -0.12684001 0.036860034 0.9974398 0.061280433 0.039388679
-0.034017451 -0.48919922 -0.12315765 0.01113039 0.98252088 0.18581897 0.033100359
-0.026819093 -0.48907766 -0.12740143 0.040369429 0.99123639 0.12578045 0.037180685
-0.015870852 -0.48854163 -0.12791553 0.0090359459 0.98430043 0.17626955 0.033636633
-0.0088611878 -0.48955283 -0.12361068 0.00027666774 0.98480099 0.17368619 0.032827843
0.0089969281 -0.48987299 -0.12051611 -0.076437563 0.98487598 0.15548861 0.02676075
0.01795844 -0.48949942 -0.1239875 -0.061064612 0.99047321 0.12342614 0.026993563
0.025270604 -0.48903489 -0.12445859 -0.041717581 0.98598182 0.16155344 0.022315875
0.044529509 -0.48867735 -0.12504335 -0.011131229 0.98619783 0.1651971 0.025025127
0.054399531 -0.48838353 -0.12378598 -0.013251572 0.98333842 0.18130097 0.023363305
0.07414373 -0.48722669 -0.12572964 -0.059074976 0.98932922 0.13318376 0.024043277
0.085341327 -0.48632196 -0.12570699 -0.09211316 0.97926474 0.18043222 0.025946397
0.092280395 -0.48589823 -0.12591439 -0.10741825 0.9801932 0.16638118 0.029287027
0.10672716 -0.48468241 -0.12847753 -0.14230382 0.97154856 0.18932271 0.022444732
0.11892796 -0.48127913 -0.12448166 -0.12044172 0.97465277 0.18853593 0.023788005
0.1260532 -0.48148417 -0.12638362 -0.10732467 0.98035139 0.16550668 0.024278373
0.13710387 -0.48544598 -0.12552254 -0.097593829 0.98832041 0.11703953 0.022943961
0.14224106 -0.48358005 -0.12894088 -0.063763805 0.99400151 0.088855311 0.017223354
0.15516974 -0.48252177 -0.12387919 -0.14645299 0.98733264 0.061038766 0.014842758
-0.18367557 -0.47199643 -0.12537828 0.48183295 0.87508619 0.045398623 0.004493739
-0.17614275 -0.47540799 -0.12716714 0.34601149 0.93707764 0.046492107 0.003409738
-0.16766605 -0.47874832 -0.12101866 0.2921226 0.95565695 0.037205108 0.0058485209
-0.14765915 -0.47967356 -0.12791553 0.10513075 0.9884252 0.1093765 0.014591362
-0.13811751 -0.47647536 -0.12791553 0.043905795 0.98490274 0.16744825 0.015949203
0.12890208 -0.47916287 -0.12791552 -0.084228441 0.98123115 0.17346726 0.023934852
0.14363639 -0.47553498 -0.12791553 -0.058159161 0.99117219 0.11914428 0.019311819
0.16785662 -0.47863263 -0.12489647 -0.29422048 0.95498115 0.038017422 0.0095180906
0.18488199 -0.47154087 -0.12544169 -0.48637193 0.87325853 0.029356737 0.0050086486
0.18947114 -0.46888274 -0.12781744 -0.55995816 0.827995 0.029517442 0.0084075416
0.19212449 -0.4673928 -0.12224609 -0.58396989 0.81148946 0.021541312 0.0072346171
-0.20438711 -0.45522609 -0.12632447 0.76988769 0.63627237 0.04929924 0.0058561536
0.20549875 -0.45367414 -0.12635338 -0.8359524 0.5402202 0.096673556 0.033688076
-0.21032494 -0.44627887 -0.12201131 0.9463104 0.29461446 0.13303687 0.051567677
0.20967239 -0.44719785 -0.12613198 -0.91772938 0.35370553 0.18073523 0.061664924
0.21310887 -0.44038862 -0.12215492 -0.96587527 0.20601098 0.15698582 0.043749813
-0.21427828 -0.43734047 -0.12609543 0.9717232 0.12551928 0.19999744 0.070907444
0.21541193 -0.43429667 -0.12564653 -0.9625445 0.13305372 0.23623058 0.051067065
-0.21387556 -0.42246592 -0.12834926 0.97581494 -0.04174212 0.2145759 0.064814642
-0.20470694 -0.42332184 -0.12979212 0.92523235 -0.30377766 0.22729771 0.12536362
-0.17056295 -0.42329568 -0.12972914 0.19841537 0.88153136 -0.42840841 0.16955139
-0.16399044 -0.42247349 -0.1274934 0.25671273 0.87541974 -0.40955931 0.14125691
-0.1554305 -0.42196739 -0.12611839 -0.13948542 0.88659459 -0.44101465 0.021156425
-0.14858849 -0.42045316 -0.12345565 -0.2455948 0.86605233 -0.43547273 0.032386232
-0.1349214 -0.42177233 -0.12593566 -0.53104573 0.73861057 -0.41526484 0.070398808
0.15127809 -0.4211129 -0.12441751 0.16473158 0.84173125 -0.51415169 0.016911386
0.17862988 -0.42193717 -0.1260305 -0.17809434 0.83565611 -0.51957792 0.17511538
0.18463653 -0.42288393 -0.12860526 -0.19526708 0.83389294 -0.51622981 0.18578553
0.21555296 -0.4222073 -0.12546578 -0.96518648 -0.11376859 0.23552431 0.077535272
-0.21694548 -0.41660434 -0.12514709 0.96706206 -0.063506767 0.24649124 0.065983877
-0.20731321 -0.41898119 -0.12128525 0.94647264 -0.281158 0.15855514 0.14140294
-0.16363193 -0.41899377 -0.12131912 0.28567967 0.88498998 -0.36766812 0.14623781
-0.13239209 -0.41521621 -0.12811303 -0.89738339 0.36337113 -0.2503286 0.064975232
0.13239209 -0.41706756 -0.12350257 0.71878648 0.59444797 -0.36052406 0.06932801
0.21181437 -0.4143253 -0.1227866 -0.88223135 -0.29454917 0.36729908 0.11418684
-0.13239209 -0.40628654 -0.12784132 0.9430483 -0.2811541 0.17779814 0.062620267
0.13239211 -0.4048433 -0.12459765 -0.95932966 -0.249359 0.13231294 0.052619725
-0.20207964 -0.39034224 -0.12808169 0.8422088 0.38246828 -0.38000301 0.20046955
-0.17519337 -0.391619 -0.1290721 0.042636212 0.67396754 0.73752958 0.20413131
-0.13239211 -0.39288601 -0.12204136 0.99372888 -0.082678095 0.075280726 0.017001048
0.13239209 -0.39176452 -0.12517984 -0.99172741 -0.076230884 0.10327428 0.015034094
0.19980337 -0.39025265 -0.12801248 -0.90542656 0.34888268 -0.2418336 0.19415069
0.20338376 -0.39144641 -0.12946662 -0.88070095 0.10248058 -0.46245396 0.21484944
-0.20279622 -0.38287732 -0.12285206 0.36133116 0.58150381 -0.72889858 0.048273567
-0.19471756 -0.38645592 -0.12507914 0.22995013 0.56188411 -0.79461271 0.088664219
-0.1757661 -0.3895953 -0.12750462 0.48663235 -0.41184369 0.77043736 0.19777782
-0.16639505 -0.38266331 -0.12447628 0.75896877 -0.41368061 0.50282681 0.080152571
-0.13239211 -0.38049588 -0.12216419 0.99951148 0.022599321 -0.021588342 0.060797513
0.16730276 -0.3858659 -0.12549466 -0.71396464 -0.36879122 0.59518689 0.075984925
0.17704396 -0.38643679 -0.12506437 0.39463571 0.74525547 -0.53745419 0.17952058
0.20809931 -0.38472447 -0.12826335 -0.78293222 0.47531205 -0.40136716 0.064705908
-0.21169293 -0.37156758 -0.12666111 0.96600509 0.087331526 -0.2433258 0.0747279
-0.20909511 -0.3772139 -0.12375948 0.72178787 0.34697756 -0.59885627 0.057473984
-0.16089936 -0.37728152 -0.12734069 0.01041357 0.41998065 -0.90747327 0.23216726
-0.13239211 -0.37226856 -0.12401519 0.98768425 0.1559913 0.012108237 0.18697725
0.13239211 -0.37632859 -0.12453356 -0.98225874 -0.072404295 -0.17298937 0.11390802
0.16150779 -0.37969166 -0.12768851 0.6627847 0.56238014 -0.49441385 0.17108911
0.2118026 -0.37167677 -0.12787482 -0.92739886 0.23349813 -0.29224974 0.052824538
-0.21190101 -0.36396199 -0.12700015 0.97906095 0.088586502 -0.18328165 0.073137403
-0.16024724 -0.36432093 -0.12249693 0.82090557 0.31305671 0.477608 0.24430583
-0.15977037 -0.3631967 -0.12397144 0.70516002 0.59651577 0.38329911 0.25359598
-0.13239211 -0.36784628 -0.12185855 0.98906422 0.14019047 -0.045810387 0.15360066
0.13239211 -0.36915398 -0.12605992 -0.98970205 -0.083250217 -0.11644389 0.12283829
0.21178627 -0.36505207 -0.1241451 -0.94172078 0.20000628 -0.27048019 0.075605944
0.13239211 -0.35721171 -0.12405059 -0.99886352 -0.0077348184 -0.047029432 0.056197703
0.21178257 -0.35921693 -0.12162681 -0.90993059 0.14662057 -0.3879804 0.095627755
-0.15959015 -0.34788477 -0.12567234 0.99159008 0.027323075 0.1265021 0.23591121
0.13239211 -0.34671485 -0.12756111 -0.97456646 0.22402215 -0.0058451253 0.14017452
0.15937659 -0.3446556 -0.12020418 0.29901597 0.88015211 0.36867568 0.28502643
0.16024913 -0.34301046 -0.12916887 -0.31219542 0.93325722 -0.17766511 0.24723619
0.2119703 -0.34626004 -0.12084359 -0.98269051 -0.08906474 -0.16244023 0.066627197
-0.21212792 -0.33549485 -0.12175542 0.98300874 -0.061346404 -0.17300421 0.091579691
-0.15957716 -0.33311608 -0.12422927 0.99799889 -0.059160203 0.022321038 0.2485518
0.13239212 -0.3392604 -0.12176307 -0.99042505 -0.055334993 -0.12647654 0.15651047
0.15977006 -0.33654603 -0.12594746 -0.99422699 0.037594944 0.10049609 0.223782
-0.21206562 -0.32863647 -0.12164962 0.96417093 0.0096246544 -0.26510704 0.06305103
-0.1594696 -0.32580361 -0.12414332 0.97261655 0.15631536 0.17199571 0.18291299
0.1596911 -0.32295936 -0.12671085 -0.64416397 -0.058586486 0.76264054 0.26086482
-0.21198413 -0.31423253 -0.12583753 0.95780349 -0.094523035 -0.27143669 0.06748376
0.13239212 -0.31532684 -0.12531616 -0.9962303 0.047354795 -0.072682023 0.19335167
0.15968347 -0.31378749 -0.12187495 -0.68427408 0.23333673 0.69088554 0.1865004
-0.21177417 -0.30547348 -0.12424459 0.90426785 -0.12879632 -0.4070763 0.079626754
-0.13239212 -0.30283049 -0.12375814 1 1.926292e-05 -1.6130931e-06 0
0.15917856 -0.3066406 -0.12714979 -0.30203143 0.080934718 0.9498561 0.24327508
0.21139079 -0.30731982 -0.12143157 -0.95337683 -0.030860724 -0.30020013 0.052806895
-0.21088116 -0.29781258 -0.12515154 0.90766209 -0.20830373 -0.36436111 0.078703783
-0.16666272 -0.29118305 -0.12096205 0.62455243 0.41753298 0.66000038 0.072065815
0.13239214 -0.2954765 -0.12456422 0.90631908 0.41818792 0.06086522 0.22146577
0.16166389 -0.29789707 -0.12351432 -0.65733641 0.44476718 0.60835093 0.11020543
0.17686523 -0.29030564 -0.12070571 -0.37962839 0.50657338 0.77412248 0.05603835
0.21124837 -0.29519081 -0.12805337 -0.8945784 -0.28868347 -0.34116173 0.074869148
-0.19779482 -0.28898945 -0.12172259 -0.36665511 0.60633641 0.70563459 0.13872153
-0.18309358 -0.28603256 -0.12400708 0.18866012 0.63904107 0.74567682 0.11858719
-0.16996351 -0.28680885 -0.1234073 0.72005093 0.20958057 0.66151541 0.12535059
-0.13239214 -0.28398702 -0.12641887 1 -1.9253621e-07 9.8426299e-06 0
0.13239214 -0.28735477 -0.12688816 -0.99678564 -0.067709185 -0.042823348 0.069621943
0.17352438 -0.28599352 -0.12403726 -0.56047046 0.48020014 0.6747449 0.11729667
0.18369035 -0.28314817 -0.12623554 -0.014219948 0.52964461 0.84810048 0.13179956
0.19192678 -0.28242144 -0.12679702 0.34752983 0.48057181 0.80515444 0.20883736
0.20737067 -0.28713179 -0.12681979 -0.96700388 -0.21340898 -0.13914037 0.17971434
-0.13239214 -0.27596909 -0.12317681 0.99316251 0.10978841 0.039681841 0.019165685
0.13239212 -0.27970147 -0.12459009 -0.99916863 0.038513705 0.01336637 0.0024900418
0.18815953 -0.2788918 -0.12977935 0.23583312 0.31489736 0.91935974 0.20047711
0.19418848 -0.27976364 -0.12885042 -0.55585623 0.0725751 -0.82810432 0.22192165
-0.13239214 -0.2665734 -0.1250896 0.79953563 0.54045963 0.26200408 0.082358658
-0.21672678 -0.2542662 -0.12410239 0.90754616 0.37921563 0.18043157 0.11708649
-0.2015857 -0.25223666 -0.12250408 -0.017405514 0.97119558 0.23764712 0.29723293
-0.16045414 -0.2513721 -0.12389473 0.85642177 -0.32336751 -0.4024615 0.27846479
-0.15754515 -0.25111297 -0.1243102 0.48764458 0.61460143 0.62005472 0.24420148
-0.13718531 -0.25014994 -0.12623127 0.24386422 0.4610137 0.8532272 0.28957844
0.1328413 -0.25468284 -0.12340041 -0.96237707 -0.069702804 -0.2626251 0.15659171
0.15474829 -0.25228614 -0.1224314 -0.35124466 0.67247099 0.6514675 0.28196537
0.19486921 -0.2509895 -0.12450271 0.053788934 -0.22095254 0.97380024 0.23541847
0.20308393 -0.25245845 -0.12214857 -0.70570004 0.6183725 0.3458367 0.25215158
0.21270259 -0.25486848 -0.12373038 -0.8288964 0.51792842 0.21137887 0.157722
-0.21652801 -0.24973601 -0.12667501 0.88582814 0.37295467 0.27606767 0.11755868
-0.20480883 -0.24977529 -0.12737718 0.96350795 0.23889264 0.12075928 0.2571089
-0.19730203 -0.24962401 -0.12783566 -0.28614745 0.94829917 0.13728909 0.29672033
-0.1895652 -0.24946916 -0.12830502 -0.47463813 0.79211539 -0.38376024 0.2418728
-0.16286866 -0.24981347 -0.12725618 0.90619636 0.11270799 -0.40755987 0.26814368
-0.15624888 -0.24928683 -0.12885475 0.5188126 0.83809638 0.16860586 0.20586042
-0.14967014 -0.24979341 -0.12731552 0.59874898 0.6722604 0.43539137 0.19193257
0.16534035 -0.24941862 -0.12845555 -0.90316373 -0.40083641 0.15370573 0.29664919
0.188666 -0.24916202 -0.12923771 -0.80600983 -0.58271903 0.10385922 0.22508477
0.19010119 -0.24957204 -0.12799264 0.63622236 0.76432908 0.10498562 0.25640109
0.21508802 -0.24563873 -0.1274502 -0.83081996 0.52407569 0.18730401 0.14634234
-0.21902221 -0.23647521 -0.12435089 0.9714393 0.14635523 0.18677765 0.1013299
-0.18218391 -0.23187296 -0.1283911 -0.55736697 0.82767314 0.065568797 0.23643307
-0.17105238 -0.232898 -0.12295264 0.67831641 0.7341345 0.03055051 0.20453352
-0.15366079 -0.2323864 -0.12652504 0.37459692 0.91231239 0.16541815 0.14782149
-0.14974266 -0.23270698 -0.12453847 0.36696711 0.93000275 0.020736583 0.15357202
-0.11512469 -0.23254776 -0.12510639 -0.16655375 0.98545521 0.033734754 0.044610165
-0.10563298 -0.23296894 -0.1223592 0.011860167 0.99963325 0.024346024 0.032009698
-0.09856347 -0.23322493 -0.12064254 0.043068033 0.99904805 -0.006942227 0.029959144
-0.086347833 -0.23288888 -0.12245896 -0.01122273 0.99356186 0.11273303 0.0063079605
-0.074973218 -0.23183987 -0.12889473 -0.0017369271 0.98702008 0.1605875 3.9224392e-06
-0.066219531 -0.23310034 -0.12102123 -0.025067564 0.99828327 0.05293487 0.018269211
-0.055121057 -0.23298854 -0.12155808 0.0075192428 0.99595904 0.089492567 0.013439158
-0.046805933 -0.23251985 -0.12432855 0.0052235252 0.99101901 0.13361917 0.0019292624
-0.029186932 -0.23197246 -0.12745664 -0.001323219 0.98718834 0.15955383 3.6838883e-05
0.0060893469 -0.23211408 -0.12659544 0.0012097892 0.98733145 0.15866667 1.7282391e-05
0.01330891 -0.23172206 -0.12913075 0.0017920868 0.98730469 0.15882745 7.2950952e-06
0.027871223 -0.23169309 -0.12950838 0.0019035175 0.9872539 0.15914187 0
0.037290365 -0.23230755 -0.1258156 0.0033995272 0.98833227 0.15227513 0.00016943681
0.050395682 -0.23272669 -0.12338763 0.014796085 0.99575019 0.090898976 0.0099410331
0.066082552 -0.23221844 -0.12656295 0.0015552281 0.98710787 0.16004881 0
0.084828749 -0.23211868 -0.12738909 0.0023947265 0.98700285 0.16068518 0
0.092775621 -0.23195426 -0.1285788 0.0021793698 0.98695302 0.1609937 0
0.10499062 -0.23260476 -0.12479132 -0.012867149 0.99405217 0.10814176 0.010259151
0.12898566 -0.23215297 -0.12780105 0.14106968 0.95729095 0.25237542 0.12327665
0.13488005 -0.23273897 -0.1243457 0.093255274 0.99554169 0.014146875 0.13021588
0.14753136 -0.23215568 -0.12795693 0.034775451 0.99356073 0.10783258 0.16031931
0.16719921 -0.23268647 -0.12358409 -0.27812484 0.94577354 -0.16780603 0.23504883
0.17525847 -0.23286732 -0.12180848 0.47242472 0.72820646 -0.49651811 0.24499607
0.18480194 -0.2317024 -0.12861674 -0.82526308 -0.54543608 -0.14642529 0.16995847
0.2189489 -0.23636132 -0.12490544 -0.97418725 0.16868526 0.15001494 0.083332725
-0.21762891 -0.22759306 -0.12768422 0.95650864 0.21007222 0.202388 0.10697164
-0.17704213 -0.2250815 -0.12399285 0.93497515 0.32184777 0.14911576 0.23082337
0.17683524 -0.22399092 -0.12692027 -0.83979487 -0.54254967 0.019604962 0.23587824
0.21736494 -0.22655179 -0.12168439 -0.99927104 0.01228154 0.036147207 0.034943048
-0.21870497 -0.21526775 -0.12646291 0.99834687 0.012974049 0.055993371 0.012503287
0.17716667 -0.21036094 -0.12325356 -0.99686849 0.07860443 -0.0086346697 0.070566319
0.21898311 -0.21131161 -0.12343112 -0.99926919 0.031396922 0.021799695 0.014894826
-0.2187113 -0.20421784 -0.12646033 0.99487883 0.083022527 0.057648957 0.0096103633
-0.17732245 -0.20567535 -0.12122521 0.99895263 -0.028839529 0.03552372 0.038195066
0.17684011 -0.2052574 -0.12822837 -0.99898511 -0.0063422523 0.044592854 0.017541137
0.21842408 -0.20188573 -0.12973379 -0.99699008 0.056258429 0.053345531 0.0075178752
-0.21847098 -0.19465391 -0.12908989 0.99952406 -0.0037464965 0.030618904 0.0045860405
-0.17698878 -0.19547792 -0.12654938 0.99752218 0.0038730493 0.070246257 2.4419693e-05
-0.21886308 -0.18187268 -0.12439361 0.99969161 0.01825102 0.016838204 0.0033699714
0.21905962 -0.18849587 -0.12222897 -0.99954325 -0.009775958 -0.02859699 0.0028679941
-0.21881746 -0.17729107 -0.12485415 0.99957186 0.011006977 0.027110215 0.0038135964
-0.17718124 -0.17653696 -0.12467953 0.99754769 0.0034703596 0.069904163 0
0.17712024 -0.17086729 -0.12583706 -0.99756134 0.0037528148 0.069694579 1.3188032e-05
0.2186012 -0.17511655 -0.12730524 -0.99913126 -0.0089512616 0.040701043 0.0045485417
-0.21866196 -0.16290498 -0.12642661 0.99409491 0.01479636 0.10750046 0.0013691707
-0.1772579 -0.16642264 -0.12405907 0.99762613 0.0033526598 0.068781614 0
0.17703949 -0.16439693 -0.12731929 -0.99757081 0.0038174156 0.069555037 1.0202657e-06
-0.21873994 -0.15563484 -0.12542774 0.99870318 -0.027352674 0.042939432 0.002825594
-0.17717966 -0.15633751 -0.12567987 0.99762309 0.0033953292 0.068823233 0
0.17721944 -0.1527651 -0.12527686 -0.99762207 0.003333986 0.068841554 0
0.21858864 -0.15725994 -0.12718606 -0.99973118 0.022121986 -0.0069493325 0.0028035403
-0.21905382 -0.14441442 -0.12167352 0.99990451 0.0098310728 0.0097119762 0.0038330285
-0.17707814 -0.14263089 -0.12781295 0.99762726 0.0033230353 0.068766445 1.1030883e-05
0.17720509 -0.14153375 -0.12602796 -0.99763048 0.0033321718 0.068719842 8.6287664e-06
0.21903044 -0.1446483 -0.12194499 -0.99989855 0.0053582364 -0.013198257 0.0038008841
-0.2187358 -0.1363782 -0.12523156 0.99956596 -0.012767379 0.026551653 0.004072383
-0.17722231 -0.13184078 -0.12624773 0.99762809 0.0033486332 0.068753675 0
0.17753929 -0.13130008 -0.12168514 -0.9976303 0.0033273664 0.068721965 1.9102481e-06
0.21849662 -0.1359797 -0.12798211 -0.99884617 -0.0014618202 0.048002176 0.0040364093
-0.21862909 -0.1239569 -0.12633201 0.99736142 0.007017252 0.072256789 0.0033034836
0.17740647 -0.1277315 -0.12378051 -0.99762613 0.0033263005 0.068782598 5.0094968e-07
0.21897492 -0.12384319 -0.1223108 -0.99987966 0.0018677167 -0.015400544 0.0037519496
-0.218822 -0.11876571 -0.12403302 0.99894196 0.0072848406 0.04540747 0.002835576
0.17735039 -0.11511655 -0.12520309 -0.99763077 0.003313507 0.068715572 2.8835044e-07
0.21867253 -0.11230968 -0.12572545 -0.99997938 -0.0063968347 0.0006050262 0.0033773603
-0.21880414 -0.10578189 -0.12412712 0.99979812 0.019971602 -0.0021845342 0.0032495293
0.17748246 -0.10798419 -0.12363632 -0.99764383 0.00311286 0.068535194 0
-0.218812 -0.095309198 -0.12391063 0.99972481 -0.021232259 0.0099692559 0.0036254255
-0.17764314 -0.09982755 -0.1217052 0.99766761 0.0028336362 0.068199918 1.984462e-05
0.1775486 -0.091769181 -0.1234688 -0.99772453 0.002799754 0.067363672 7.9463161e-06
0.21859162 -0.09482459 -0.12648094 -0.99952549 -0.011595564 0.028536532 0.0037818586
-0.21893564 -0.084327444 -0.12231734 0.99976611 -0.0077847703 -0.020176191 0.0032679536
-0.17757848 -0.084794819 -0.12337805 0.99807185 -0.060002189 -0.015884005 0.076499298
0.21875075 -0.084979661 -0.12449287 -0.99958557 0.020953227 0.019740734 0.0032552637
-0.21896374 -0.071813069 -0.12182027 0.99999601 0.0024105317 0.0014676092 0.003354853
-0.17725617 -0.078616753 -0.12834702 0.99714601 -0.040993478 -0.063399203 0.076116376
0.17759559 -0.072153337 -0.12375022 -0.99872118 -0.028308911 0.041889284 0.042715922
0.21877439 -0.07311786 -0.12406931 -0.99979746 0.016573183 0.011419347 0.003540257
-0.21855099 -0.061747178 -0.12663901 0.99896842 -0.01157598 0.043910321 0.0033390068
-0.17756301 -0.067563087 -0.12444687 0.97845256 0.05320245 -0.1994995 0.14485055
0.17726701 -0.065942824 -0.12881139 -0.99976712 -0.012994156 0.017229574 0.040742178
-0.21847665 -0.055290502 -0.12747565 0.99887472 -0.0079925274 0.046747621 0.0036794727
-0.17764091 -0.054713432 -0.12394911 0.98669666 0.051649131 -0.15414961 0.15803565
0.21866286 -0.055583991 -0.12525611 -0.99906558 0.013451103 0.041072406 0.0036024584
-0.21858281 -0.042775683 -0.12608066 0.99945569 -0.0064095291 0.032361515 0.0044410215
0.17764765 -0.044388954 -0.12435777 -0.96862704 0.14369586 -0.20276389 0.13847619
0.21863645 -0.046052676 -0.12548414 -0.99929786 0.015280538 0.034208633 0.0036365737
-0.21896568 -0.03141357 -0.12135766 0.99992216 0.0041009397 -0.011783774 0.0035768237
-0.17743862 -0.034374408 -0.12787503 0.99469584 0.0034553932 -0.10280213 0.11661559
0.17731151 -0.030958507 -0.12988251 -0.99795502 0.018707568 -0.06112127 0.083514467
0.21895105 -0.032147229 -0.12154235 -0.99997056 -0.0042148004 0.0064178845 0.0032965431
-0.2184377 -0.024761397 -0.12762147 0.99942791 0.0073876856 0.03300352 0.003744426
-0.17750052 -0.021735257 -0.12759861 0.99927038 -0.0090225469 -0.037111219 0.099080585
-0.15357128 -0.025436126 -0.12037294 0.73942107 -0.13003875 -0.66056526 0.12890694
0.17739159 -0.028078193 -0.12886465 -0.99796909 0.019623324 -0.060601834 0.091145203
0.21890883 -0.024475478 -0.12194273 -0.99988967 0.001092067 -0.014813856 0.0033415882
-0.21837583 -0.015391937 -0.12829557 0.99872231 -0.023031006 0.044980649 0.0048313993
-0.17780244 -0.018147308 -0.12340364 0.99822289 -0.057493057 0.015673324 0.1695167
0.1778342 -0.012771504 -0.12320741 -0.99940425 0.016671047 -0.030219505 0.11832382
0.21875215 -0.016270012 -0.12372819 -0.9999693 -0.0077894279 -0.00083911815 0.0032300132
-0.21848676 -0.0098929806 -0.12690094 0.99988079 -0.012850239 0.0085582035 0.004678071
-0.1776531 -0.0031248629 -0.12630193 0.93674421 0.048763819 -0.34660107 0.21454751
-0.15164483 -0.0013414816 -0.1239197 -0.45074338 -0.25673988 0.85493565 0.1307026
-0.018783037 -0.00039332127 -0.12248621 -0.97878075 -0.043617107 0.20021439 6.5862041e-05
0.17779776 -0.0020553172 -0.12426022 -0.9613089 -0.078915253 -0.26392746 0.12731673
0.21834275 -0.0044604247 -0.12860638 -0.99822992 -0.011475676 0.058355566 0.0038668369
-0.21898618 0.0033794399 -0.12071762 0.99981421 -0.0064182542 -0.018174194 0.0030684641
-0.17786531 0.0068327039 -0.12371784 0.86849099 -0.021847432 -0.49522325 0.24056719
-0.1514772 0.0059320158 -0.12308752 -0.56055015 -0.25439775 0.78807694 0.13134995
0.019341692 0.0037108888 -0.1243763 0.97914588 -0.042577799 0.1986465 0.00010064955
0.17783248 0.00616966 -0.12416092 -0.97688442 0.07460586 -0.2003267 0.15556678
0.21861158 0.0072721117 -0.12523392 -0.99963582 -0.019866107 0.018264994 0.0040193228
-0.17758301 0.017096952 -0.12841067 0.96105236 0.24885954 -0.120197 0.13663556
-0.15114236 0.015030082 -0.12331859 0.64973748 0.19268058 -0.73533356 0.13759091
0.0190867 0.014192294 -0.120446 -0.98667949 0.097226307 0.13042475 0.092165232
0.21870016 0.019553073 -0.1239926 -0.99879199 0.00071396457 0.049133457 0.0030487948
-0.21851197 0.025541801 -0.12620832 0.99880028 0.0008664346 0.048962872 0.004179101
-0.17764336 0.020079169 -0.12773709 0.99023187 0.12299965 -0.065665208 0.097995475
-0.020352846 0.026078623 -0.12248287 0.97434437 0.20030877 -0.10261335 0.10490645
-0.019976614 0.021632344 -0.12216012 0.98621756 0.14953315 0.070814326 0.09487322
0.019681683 0.021105187 -0.12099302 -0.99760395 0.058183741 0.037430972 0.12627298
0.15043905 0.025952721 -0.12360638 -0.67159814 -0.33190766 -0.66241461 0.12257597
0.17800836 0.025326576 -0.12262277 -0.9939391 0.080528505 -0.074833959 0.17988092
-0.2188327 0.035807058 -0.12216404 0.9994325 0.0064929468 0.033052821 0.0040022908
-0.14955916 0.036374457 -0.12450728 0.44782308 -0.068100922 0.89152491 0.20357665
-0.020571979 0.038152058 -0.12257779 -0.83156538 -0.24320844 0.49934822 0.11715955
0.019930812 0.039408408 -0.12055134 0.4081035 -0.21605289 0.88700211 0.16835324
0.020024516 0.039279073 -0.1208545 0.18354088 -0.28316805 0.94134402 0.11886354
-0.17823848 0.04478604 -0.1208321 0.97248763 -0.074907273 -0.2205828 0.18194287
-0.13499939 0.04885954 -0.12713522 0.15430617 -0.8641696 0.47895774 0.11900385
-0.12633952 0.049435101 -0.12587199 -0.031684123 -0.96862286 0.24650742 0.14817701
-0.10155706 0.049475461 -0.12578392 0.0086349091 -0.99338847 0.11447602 0.12408318
-0.090529725 0.04911257 -0.12658061 0.032357465 -0.99785495 -0.056907006 0.10343657
-0.083637156 0.048929464 -0.12698247 -0.027178615 -0.99959123 -0.0088752471 0.069771364
-0.072362378 0.04827667 -0.12841503 -0.0027592783 -0.98692364 0.16116484 0.074866556
-0.061457761 0.048100419 -0.12880164 -0.020356216 -0.99889278 0.042411245 0.069970317
-0.058950309 0.049158327 -0.12647957 0.0082916236 -0.98567694 0.16844028 0.079292648
-0.042289909 0.049154554 -0.12648772 -0.06464944 -0.97909319 -0.19286501 0.1418539
-0.036543217 0.048885815 -0.12707755 -0.0585531 -0.58947462 0.80566198 0.17308731
-0.023590762 0.045566827 -0.12611173 -0.71726155 -0.46209863 0.52153689 0.099582486
0.056658197 0.049605187 -0.1254987 0.18141088 0.53792572 0.82324117 0.16805238
0.063793078 0.047855381 -0.12933953 0.085875399 0.9175306 0.38828215 0.13548031
0.087246202 0.047890473 -0.12926298 0.038593709 -0.99459511 -0.096390374 0.12244339
0.1040386 0.049462888 -0.12581146 -0.095381521 -0.95854056 -0.26851881 0.12808609
0.11590907 0.049358193 -0.126041 0.065685757 -0.99114519 -0.11539752 0.12219965
0.12283269 0.048515987 -0.12788929 0.017791392 -0.99523956 0.095820814 0.11084621
0.21873336 0.044794988 -0.12328544 -0.99711096 -0.075037949 -0.011798305 0.0084550316
-0.2184709 0.052684076 -0.12643582 0.99885798 -0.0386618 0.028071856 0.0094560981
-0.17778029 0.054074947 -0.12926133 0.99815017 0.0057625067 0.060522825 0
-0.13856158 0.05097539 -0.12249134 0.32583803 -0.72573209 0.60592282 0.1267873
-0.11278395 0.050964665 -0.12251518 0.083394617 -0.99619651 0.025254963 0.13238752
-0.10881895 0.051008314 -0.12241948 0.078151263 -0.995763 0.048461039 0.12609676
-0.084516913 0.051005282 -0.12242626 0.0052199136 -0.95635289 0.29216743 0.069471844
-0.074339397 0.050516397 -0.1234991 -0.014268859 -0.96877122 0.24754553 0.073662877
-0.040548019 0.051317483 -0.12174053 -0.091422439 -0.93216145 0.35030985 0.1325945
-0.033261366 0.051067263 -0.12228971 -0.22624381 -0.9121542 0.34174317 0.16546693
-0.025523402 0.052102968 -0.12001655 -0.52479565 -0.69755673 0.48785663 0.19484013
0.045172617 0.051569987 -0.12118632 0.0063324743 -0.74667954 0.66515386 0.12594415
0.08583463 0.050317671 -0.12393554 -0.089284256 0.68157214 0.72628349 0.15309195
0.10482 0.05036325 -0.12383535 -0.095380522 -0.95854622 -0.26849887 0.12808569
0.11692587 0.051201209 -0.12199593 0.094671957 -0.98526841 0.14241955 0.12858653
0.12983419 0.05068481 -0.12312911 0.01765644 -0.99579209 0.089923665 0.12267759
0.14167811 0.050060801 -0.12449868 -0.33884093 -0.50235534 0.79550362 0.16700859
0.17784263 0.053710602 -0.12820996 -0.99981886 0.014374116 -0.012475215 0.070606351
-0.21620515 0.063809812 -0.12338085 0.99915487 -0.021005293 -0.035331812 0.013197221
-0.17816879 0.064625897 -0.12400702 0.99699187 0.077373758 -0.0045172595 0.058500525
0.17821784 0.068772577 -0.12362859 -0.99838412 0.0050485278 0.056601629 7.5676412e-06
0.21226807 0.06252566 -0.1225659 -0.99998385 0.0050985427 0.0025159549 0.010480316
-0.21817178 0.076305114 -0.12980133 0.99774647 0.048922006 0.045918982 0.0090599097
0.21844965 0.074293129 -0.1264132 -0.99911219 0.038558673 0.016971361 0.01253784
-0.17815949 0.081116095 -0.12582755 0.99830061 0.005937791 0.057971012 4.7908552e-06
0.17825098 0.086953498 -0.12492941 -0.99831277 0.0064100143 0.057709854 1.3087169e-05
0.2187549 0.086557887 -0.12245488 -0.99730086 0.067382723 0.029163387 0.0045904592
-0.21826546 0.097104743 -0.12830837 0.99622405 0.0066323588 0.086566232 0.0025890463
-0.17830044 0.095850483 -0.12502524 0.99830019 0.0062851189 0.057941623 0
0.21850769 0.092156999 -0.12540725 -0.99830991 0.0012467381 0.058101669 0.0027760845
-0.21822616 0.10905801 -0.12859723 0.99554259 -0.0064859474 0.094089046 0.002305697
0.21872421 0.10825664 -0.12243768 -0.99921346 0.0030415622 0.039537039 0.003342042
-0.2187795 0.11838778 -0.12155181 0.999937 0.010050799 0.0049968963 0.0037797422
-0.178666 0.11760645 -0.12127883 0.99848449 0.0075961631 0.054507066 1.5001473e-05
0.17869884 0.11871563 -0.12085652 -0.99843311 0.0068684435 0.055535913 4.6142782e-06
0.21833836 0.11409138 -0.12712702 -0.99711102 -0.0096817436 0.075338617 0.003032641
-0.21851011 0.12265295 -0.12482759 0.99885285 -0.010878546 0.046633378 0.0032591354
-0.17841087 0.1240935 -0.12608647 0.99833274 0.0066840458 0.057333048 3.3129791e-06
0.17840187 0.12307631 -0.12613021 -0.99833798 0.0069764112 0.057207506 2.1242073e-05
0.2182337 0.12159499 -0.1282905 -0.99731368 -0.0076027284 0.072853699 0.0031207218
-0.17838147 0.13380492 -0.12754804 0.99842155 0.0070002279 0.055725753 5.4470488e-06
0.17839321 0.13557321 -0.12753582 -0.9983604 0.007469397 0.056751709 0
0.2185895 0.1338253 -0.12365594 -0.99960488 0.0029864095 0.027950367 0.0036336088
-0.178396 0.1481759 -0.12915528 0.99941856 -0.031714737 -0.01252077 0.01515956
-0.2185529 0.16491434 -0.12359457 0.9997195 0.0060406281 0.022901548 0.0032296933
-0.17877869 0.16456854 -0.12502417 0.99773848 0.036851883 -0.056213457 0.065278396
0.17883784 0.16608138 -0.12421813 -0.99633515 0.082594149 -0.022235902 0.049603306
0.21827984 0.16368529 -0.12680791 -0.99911284 0.026745234 0.032530792 0.0034674187
-0.17871305 0.17381909 -0.12477767 0.99819607 0.025774803 0.054224182 0.017690917
0.1783628 0.17654 -0.12841722 -0.99782175 -0.0098179188 0.065232553 0.0029326051
0.2185653 0.17998019 -0.12315708 -0.99800593 0.002307645 0.063078806 0.0028286083
-0.2184546 0.186268 -0.12445728 0.99983531 -0.0096736914 0.015356852 0.0030612987
-0.17794436 0.18587506 -0.12683004 0.9945997 -0.017785801 0.1022497 0.0055041094
0.17783877 0.18940432 -0.12551276 -0.99492961 -0.012678185 0.09977188 0.0057529164
0.21842906 0.18457022 -0.12462007 -0.99760985 0.0025730331 0.069049887 0.0028023799
-0.21849759 0.19665845 -0.12379146 0.99960607 0.0024638188 0.027957564 0.0027234016
-0.17741184 0.19725244 -0.12605479 0.99226004 -0.020313773 0.12250458 0.0063630282
0.17755264 0.19836769 -0.12291308 -0.99287587 -0.062011171 0.10174579 0.0063896016
0.21823928 0.19052102 -0.12712216 -0.99685919 0.00076727045 0.079190917 0.0027355829
-0.21852382 0.20007898 -0.12342033 0.99907953 -0.002593678 0.04281842 0.0029614144
-0.17721906 0.20299646 -0.12461972 0.99287951 -0.034713857 0.11395246 0.0078248177
0.17694622 0.20766717 -0.12531787 -0.99243957 -0.038716815 0.11646749 0.006691583
0.2180685 0.20740238 -0.12837376 -0.9966864 0.0013107553 0.08133056 0.0016852198
-0.21843055 0.21725565 -0.1243922 0.99904883 -0.01144169 0.042078447 0.0031908737
-0.17657362 0.21347137 -0.12672447 0.98830581 -0.031446185 0.14920732 0.0087797279
0.17611822 0.21965569 -0.12916043 -0.98887956 -0.054712441 0.13828868 0.0059599718
0.21844202 0.21426731 -0.12428299 -0.99859118 -0.0097822379 0.052152846 0.0016921592
-0.21805575 0.22150123 -0.12837614 0.99687558 -0.0074679796 0.078634255 0.00248911
-0.17586744 0.22619563 -0.12803 0.98979473 -0.051312953 0.13294151 0.0070080264
0.17612794 0.22183332 -0.12728649 -0.99029773 -0.061516538 0.12460391 0.0066326126
0.17575824 0.2321853 -0.12505853 -0.98983288 -0.067948125 0.12495592 0.0079303291
0.21863112 0.2365649 -0.12152141 -0.9999544 -0.0047332309 0.0082958937 0.0031478202
-0.21828291 0.2471849 -0.12590286 0.99669069 -0.04201648 0.069586039 0.0073088259
0.17507839 0.24572307 -0.12529954 -0.99377906 -0.0061363312 0.11120033 0.0064953445
0.21791382 0.2435265 -0.12904491 -0.99497706 -0.03305338 0.094488874 0.0055342033
-0.21810922 0.25237373 -0.12715012 0.98272938 -0.12518962 0.13627377 0.021266382
-0.1743722 0.25782686 -0.12709507 0.98493356 0.042107344 0.16772877 0.150804
0.17467681 0.25648648 -0.12357541 -0.98004562 -0.088255413 0.17810534 0.040370859
-0.21847694 0.2633732 -0.12322983 0.95944583 -0.14217144 0.24341518 0.056068957
-0.17484207 0.26154286 -0.12176099 0.99067706 0.0060748491 0.13609584 0.13961339
0.17491168 0.26516366 -0.12521823 -0.98607337 0.10101155 0.13212115 0.10579745
0.21824978 0.26792592 -0.12458474 -0.95140779 -0.21461926 0.22082087 0.066377439
-0.21732371 0.27378979 -0.12292556 0.84715652 -0.37582409 0.37560895 0.099301979
-0.20963098 0.27915478 -0.1233324 0.77443469 -0.49262106 0.39695784 0.14226539
-0.18686315 0.27676728 -0.12769727 -0.58370697 -0.79001009 0.1875373 0.20513467
-0.1768489 0.27547097 -0.12397598 0.87815088 0.46225438 0.12317444 0.24337128
-0.15644059 0.27824515 -0.12500076 0.3842628 -0.72573733 0.57065529 0.16965349
-0.14511794 0.27753982 -0.12629277 0.34756178 -0.8330422 0.43039691 0.030276954
0.13570541 0.27802318 -0.12821475 -0.76267761 -0.55620474 0.33008978 0.078784205
0.1427405 0.27619234 -0.12875715 -0.4049955 -0.77814239 0.4800761 0.073140629
0.16699971 0.2788811 -0.12383589 -0.91271383 -0.19115724 0.36112663 0.22624743
0.19620952 0.27956051 -0.122591 0.099785902 -0.99440718 0.034599125 0.22697254
0.20647126 0.27725458 -0.1268045 -0.69027609 -0.6083945 0.39163131 0.14654876
0.21763764 0.27549416 -0.1235099 -0.93480152 -0.26821372 0.23282519 0.093710355
-0.21868405 0.28382865 -0.12514308 0.95880795 -0.10544568 0.26375875 0.13025109
-0.20134813 0.28026342 -0.1213067 -0.00077527092 -0.95008874 0.31197864 0.23356861
0.13264725 0.28683168 -0.12354089 -0.90547979 -0.40252143 0.1344727 0.073071867
0.18355133 0.28020585 -0.12141191 0.83847129 -0.51074678 0.19000953 0.21258594
0.21565098 0.28264832 -0.12451335 -0.90032542 -0.28332302 0.33036664 0.12218616
-0.13264723 0.29461586 -0.12778105 0.90819263 -0.32879284 0.2590009 0.060605261
0.13264725 0.2969268 -0.12477125 -0.9764728 -0.16265385 0.14157902 0.028514266
-0.2003099 0.30824244 -0.12478929 0.96382761 0.15519232 -0.21668315 0.22988161
-0.18018183 0.30682132 -0.12588722 0.56169397 -0.53850085 0.6281057 0.21525098
-0.17076766 0.30249736 -0.12928325 0.91932362 -0.36311662 0.15162621 0.2313862
-0.16616738 0.30614197 -0.12764102 0.99041754 -0.073579781 0.1168725 0.23723671
-0.13264723 0.30687752 -0.12764919 0.99953771 0.0019106843 -0.030342158 0.14244612
0.13264723 0.30522108 -0.12820058 -0.99540371 -0.042716857 0.085712932 0.0102216
0.16547909 0.30842403 -0.12729309 -0.93315327 -0.16752146 0.31805906 0.14563239
0.17478031 0.30752772 -0.12534148 -0.88025135 -0.22857395 0.41582632 0.21413882
0.18511841 0.30581462 -0.126665 -0.16734238 -0.40408075 0.89928597 0.23928404
0.19772013 0.30229926 -0.12953967 0.0075863875 0.054576095 0.9984808 0.2604135
0.20736659 0.30866367 -0.1281224 -0.90062618 -0.037945222 0.43293476 0.18971038
-0.20536901 0.31236309 -0.1247348 0.95481455 0.13546313 0.26453534 0.23839
-0.1908052 0.31322983 -0.12093604 -0.52864987 -0.53791106 0.65664369 0.23759054
-0.17080769 0.31338435 -0.12081663 0.8688342 -0.32500464 0.37349591 0.15840344
-0.13264723 0.31501606 -0.12717268 -0.85169441 -0.37076283 0.37033978 0.20033994
0.16000432 0.31907144 -0.12994801 -0.49983585 -0.704687 0.50356752 0.18116894
0.17334911 0.31099275 -0.12266438 -0.87574649 -0.4396441 0.19945212 0.2395409
0.1910578 0.31278434 -0.12128022 0.432138 -0.39569032 0.81036156 0.17138191
-0.16034682 0.32818887 -0.12287211 0.20540413 -0.28094092 0.93748665 0.17062014
-0.15951718 0.32568207 -0.12764728 0.41325694 -0.37498936 0.82982022 0.19072627
-0.13264725 0.3250404 -0.12294193 -0.83386016 -0.39398754 0.38658896 0.23450831
0.13264725 0.32637018 -0.12412675 -0.99912035 -0.038614374 -0.016355272 0.15196586
0.15961567 0.32851145 -0.12715425 -0.66579831 -0.51623219 0.53871804 0.28900573
0.20963472 0.32149881 -0.1213564 -0.80300808 0.20179494 -0.56076443 0.1662223
-0.16014448 0.33596429 -0.12037478 -0.0081194388 -0.25716692 0.96633297 0.22186309
-0.15954015 0.33807248 -0.12750572 0.37701929 -0.083159052 0.92246461 0.23298977
-0.13264725 0.33870322 -0.12333882 0.94872546 -0.048774961 -0.3123157 0.21152629
0.16042465 0.33041489 -0.1215963 -0.57533258 -0.33534041 0.74601561 0.17793337
0.21207047 0.33520234 -0.12604687 -0.98848182 0.10139857 -0.11234777 0.050587412
-0.15929885 0.343519 -0.12318666 -0.11208797 -0.34721026 0.93106467 0.27270231
-0.13264725 0.34546468 -0.12385323 0.97314715 0.048333757 -0.22505219 0.24398074
0.13264725 0.34352848 -0.12401535 -0.99457496 0.023860376 0.10124914 0.11418588
0.2114765 0.34390098 -0.12844646 -0.99817783 0.045672495 -0.039433885 0.090786979
-0.21205345 0.35651261 -0.12081056 0.94136721 -0.0028189626 -0.33737186 0.096478142
-0.15945427 0.35503265 -0.12286496 -0.58278608 -0.15177797 0.79832572 0.24689198
0.13264725 0.35445464 -0.12442499 -0.98346871 0.12029774 0.13534361 0.14266779
0.2120229 0.35976818 -0.12023275 -0.99248368 -0.047951963 -0.11259096 0.10989466
-0.13264725 0.3638885 -0.12593159 0.99926144 0.037372064 0.0089385789 0.14529569
0.13264725 0.36665437 -0.12836739 -0.99204654 0.069022268 0.10525966 0.1145075
0.15938404 0.3661786 -0.12180769 -0.28911009 0.17352994 0.94143647 0.23160417
0.21134964 0.363886 -0.12780644 -0.99240601 -0.11888541 0.031569038 0.091486253
-0.21212196 0.37626106 -0.1245382 0.97466528 -0.075244546 -0.21063206 0.081111252
-0.15955725 0.37645262 -0.12642714 0.44986132 -0.3195146 0.83398753 0.25685874
-0.13264725 0.37597716 -0.12315764 0.99953878 -0.012201274 -0.027807545 0.086869188
0.13264725 0.37007678 -0.12678924 -0.99064285 0.045259837 0.12875688 0.12315585
0.15940335 0.37247825 -0.12072844 -0.652569 0.24405643 0.71734941 0.21412064
0.21193936 0.37511611 -0.12551281 -0.99398547 -0.093574546 0.056891512 0.072259717
-0.21102476 0.38619083 -0.12017588 0.76029819 -0.23105693 -0.60709083 0.070303582
-0.13264725 0.38374522 -0.12439485 0.99460691 -0.095675334 -0.040041979 0.097257935
0.1591683 0.38580406 -0.12624845 -0.95404524 0.014506076 0.29931143 0.20333472
-0.1608126 0.39415258 -0.12342212 0.516886 0.42085904 0.74545723 0.16066594
-0.13264726 0.39492616 -0.12580618 0.99935901 -0.026448751 0.024124179 0.071542747
0.13264726 0.3961207 -0.12597261 -0.98377919 -0.13362356 -0.11968011 0.17234591
0.15931986 0.39019704 -0.12970287 -0.99227321 0.075962447 0.09810064 0.1936529
0.1602433 0.39108273 -0.12406061 -0.76039958 0.33515802 0.55629265 0.1737732
0.21183836 0.39418989 -0.12798202 -0.9121716 -0.26490721 -0.31267729 0.075592637
-0.20929934 0.40222037 -0.1253309 0.93406075 -0.17934757 -0.30881241 0.14565811
-0.17545348 0.407579 -0.1234573 0.70188892 0.17444317 0.69059515 0.21064061
-0.16374797 0.40319332 -0.12416416 0.80853349 0.36480907 0.46172273 0.066412576
-0.13264726 0.40554741 -0.12708126 0.99864489 0.026568467 -0.0447491 0.078117497
0.1633153 0.40802768 -0.12863755 -0.90399873 0.27216995 0.32971171 0.15117677
0.17685138 0.40662393 -0.12271938 0.55045855 -0.47950217 -0.68342745 0.21285966
0.18233037 0.40832859 -0.12403642 -0.38453761 0.37295741 0.84441322 0.17773174
0.19523123 0.40417987 -0.1208311 -0.59602612 -0.44513223 -0.66828889 0.1830831
0.20471254 0.40232992 -0.12050793 -0.85855901 -0.40945834 -0.30857775 0.21581788
-0.20351712 0.41313112 -0.12833014 0.96930617 -0.15426941 0.19143282 0.24249472
-0.18653022 0.41330504 -0.12788117 -0.35473925 -0.43902603 -0.82547939 0.24906363
-0.13264728 0.41936007 -0.1267029 0.96851373 0.224703 0.10719047 0.042981837
0.13264725 0.41713396 -0.12328996 -0.97682917 0.20296136 0.06790784 0.031976454
0.16434455 0.41041073 -0.1287688 -0.91158873 0.34560782 0.22262363 0.16595624
0.18930028 0.41352892 -0.12805414 -0.37621203 -0.48270702 -0.79085928 0.25089779
0.19178152 0.41482756 -0.12905748 -0.5003019 -0.56899506 -0.65264279 0.2427931
-0.13264726 0.42340583 -0.12380689 0.96820092 0.22473155 0.1099214 0.046289973
0.13264728 0.42651597 -0.12743765 -0.97490227 0.1921491 0.11244667 0.036263231
-0.2166394 0.43484807 -0.12130824 0.9404754 0.14487429 0.30743685 0.10948261
-0.19241786 0.43835151 -0.12107269 -0.38305581 -0.58815306 -0.71228105 0.2532762
-0.18635097 0.43950912 -0.12315801 -0.29373503 -0.77846897 -0.55471236 0.21346577
-0.16608165 0.43898249 -0.12206655 0.035359275 -0.82534432 -0.5635215 0.16710541
-0.14467394 0.43791059 -0.12040584 -0.36160183 -0.79112613 -0.49331889 0.073917434
-0.13758102 0.43908924 -0.12223658 -0.6365149 -0.66797197 -0.3855674 0.081239507
0.13264726 0.43420714 -0.12072644 0.88821489 -0.39528146 -0.23415175 0.054109834
0.14720882 0.43959102 -0.12326131 0.33417875 -0.82470447 -0.45627519 0.076979205
0.17228182 0.43841666 -0.12113212 -0.12532644 -0.91562521 -0.38199979 0.14704773
0.20402199 0.43894649 -0.12205372 -0.86767507 0.089525364 0.4890044 0.15838957
0.21379387 0.4386391 -0.1251632 -0.9413082 -0.016958335 0.33712196 0.10260361
-0.21517301 0.44320202 -0.12717119 0.87164551 0.068094261 0.48538363 0.18032208
-0.20928344 0.44242531 -0.12901139 0.95607686 0.16164424 0.24451631 0.15739211
-0.19064175 0.44180411 -0.12778033 0.39195681 0.35570532 0.848436 0.22082846
-0.17435342 0.44194257 -0.12803568 0.26898333 -0.8662051 -0.42111355 0.23411748
-0.15166894 0.4409464 -0.12599561 -0.077446207 -0.83597541 -0.54327458 0.10923701
-0.14576468 0.4413718 -0.12684228 -0.32776681 -0.8417263 -0.42902875 0.064375833
-0.13595578 0.44250035 -0.12928958 -0.74521708 -0.61226296 -0.26416966 0.048747659
0.14395429 0.44226828 -0.12864333 0.39438108 -0.79044574 -0.46867785 0.083443597
0.19799922 0.44213095 -0.12842935 -0.94620478 0.242239 0.21451525 0.22799945
0.21011586 0.44234034 -0.1288414 -0.95235473 0.093277186 0.29037899 0.18182987
-0.21244581 0.45514286 -0.12495449 0.92197007 -0.36091751 0.14039119 0.16627972
0.21284665 0.45386723 -0.12736893 -0.95507252 -0.24609394 0.16514932 0.11344422
