# .PCD v0.7 - Point Cloud Data file format
VERSION 0.7
FIELDS x y z normal_x normal_y normal_z curvature
SIZE 4 4 4 4 4 4 4
TYPE F F F F F F F
COUNT 1 1 1 1 1 1 1
WIDTH 581
HEIGHT 1
VIEWPOINT 0 0 0 1 0 0 0
POINTS 581
DATA ascii
-0.035714421 0.084429689 0.16346546 0.072428584 -1.1874075e-06 -0.99737358 0
-0.024658227 0.083118051 0.16426834 0.072427191 4.7376843e-06 -0.9973737 0
-0.0164812 0.083323956 0.16486213 0.072428793 1.4964502e-05 -0.99737358 1.5081375e-05
-0.0030937132 0.085920312 0.16583432 0.072430559 -2.6976622e-05 -0.99737346 0
0.0052538891 0.086793892 0.16644052 0.072427072 -2.3899888e-06 -0.9973737 0
0.015423523 0.083684899 0.16717902 0.072428927 -3.7381565e-06 -0.99737358 7.14614e-06
0.024754368 0.089493714 0.1678566 0.072430059 1.2594847e-05 -0.99737352 1.6121139e-06
0.036146596 0.083798967 0.1686839 0.072431974 5.7206594e-06 -0.99737334 1.5042752e-05
0.043502811 0.085146904 0.16921809 0.072430976 -6.8084141e-06 -0.99737346 0
0.36830908 0.085342139 0.16953516 -0.19492835 0.0071353624 -0.98079157 0.0037083528
0.3749395 0.089605734 0.16740425 -0.25812399 0.0071976222 -0.96608502 0.0016536515
0.38402119 0.087006129 0.16448553 -0.38718539 -0.0017442404 -0.92200023 0.0058946307
0.39725631 0.083049744 0.16023195 -0.55757684 -0.00063141045 -0.83012509 0.012288117
-0.075482503 0.098417602 0.16057754 0.20494194 0.013870109 -0.9786759 0.0039557796
-0.06319312 0.094585404 0.16146997 0.09637703 -0.0048898556 -0.9953329 0.00046856049
-0.056283955 0.094883703 0.16197172 0.085270815 8.8594579e-06 -0.9963578 0.000309161
-0.042585488 0.09504573 0.16296649 0.072428547 -5.5307864e-06 -0.99737358 0
-0.03294773 0.093456179 0.16366635 0.072428025 1.8602685e-05 -0.99737358 7.292912e-06
-0.025664287 0.095409095 0.16419528 0.072424248 7.7216532e-07 -0.99737394 4.0324862e-06
-0.017397547 0.0948397 0.16479559 0.072433874 -1.1302387e-05 -0.99737322 2.3727421e-06
-0.0038573493 0.097724997 0.16577886 0.072426453 -2.4805386e-05 -0.99737376 0
0.0020844694 0.093087152 0.16621035 0.072430186 -2.0161579e-05 -0.99737346 0
0.014592593 0.096648902 0.16711868 0.072430365 9.52141e-06 -0.99737346 6.4281026e-06
0.025284585 0.094377413 0.16789511 0.072434552 9.1328587e-07 -0.99737322 2.6973632e-05
0.044128668 0.094483227 0.16926356 0.072420254 6.1910719e-06 -0.99737424 0
0.36879271 0.097602025 0.16937974 -0.21123052 0.018366134 -0.97726369 0.0032368789
0.37337267 0.094196983 0.16790782 -0.25300068 0.004533885 -0.96745545 0.0017280171
0.38697207 0.095263191 0.16353716 -0.39292821 -0.003865489 -0.91956103 0.0065242299
0.39452684 0.096544839 0.16110915 -0.50014913 0.0034810703 -0.86593229 0.013722038
-0.072904766 0.109804 0.16076472 0.16293418 0.00056550489 -0.98663676 0.0031407229
-0.065082766 0.10442675 0.16133274 0.096467458 6.2324812e-05 -0.99533612 0.0004585337
-0.056872606 0.10423313 0.16192897 0.080209017 0.00056376122 -0.99677789 0.00015795718
-0.046751682 0.10438301 0.16266394 0.072424769 1.3651315e-05 -0.99737388 2.6197799e-06
-0.033895206 0.10740383 0.16359755 0.072435021 -8.2489614e-06 -0.9973731 0
-0.023545735 0.10424064 0.16434912 0.072428197 -1.7077586e-05 -0.99737364 0
-0.014480181 0.10883199 0.16500744 0.072429948 2.8026889e-05 -0.99737352 2.0939549e-05
-0.003151977 0.10372724 0.16583008 0.072428688 -3.3568315e-06 -0.99737358 0
0.0053225867 0.10413396 0.16644549 0.072427727 -6.8967252e-06 -0.99737364 0
0.01411346 0.10625347 0.16708389 0.072430506 -9.3957306e-06 -0.99737346 0
0.026610604 0.10553497 0.1679914 0.072426379 -9.346023e-06 -0.99737382 0
0.030091517 0.10764492 0.1682442 0.072432742 6.8554832e-06 -0.99737328 8.6945529e-06
0.045846939 0.10579167 0.16938834 0.072437853 7.4410596e-06 -0.99737293 7.8419052e-06
0.052145332 0.10502189 0.1698457 0.072428197 -1.2050054e-06 -0.99737358 0
0.36869907 0.10388911 0.16940983 -0.21143569 0.0046824045 -0.97738069 0.0034223187
0.37504327 0.10516797 0.1673709 -0.26446384 0.0050805165 -0.96438223 0.0016040211
0.38498336 0.10446617 0.16417629 -0.36790201 0.0033510558 -0.92985845 0.0036539903
0.3933464 0.10474467 0.16148852 -0.48643395 -0.015724847 -0.87357587 0.011909977
-0.075225554 0.11513922 0.16059619 0.18478388 0.0096481433 -0.98273188 0.003081783
-0.065553591 0.11664718 0.16129857 0.097166345 0.0032633119 -0.9952628 0.00053404813
-0.052866273 0.11143486 0.16221991 0.072434127 1.0648698e-05 -0.99737322 0
-0.044529617 0.11783587 0.1628253 0.072349034 -0.007122363 -0.99735397 0.00014070795
-0.03848305 0.11135466 0.16326439 0.072426692 -1.1886663e-05 -0.99737376 8.8403303e-06
-0.026441891 0.11397798 0.16413879 0.072428614 -3.2015e-06 -0.99737358 0
-0.019995648 0.11901167 0.16460693 0.068188749 -0.014977831 -0.99756002 0.00031487018
-0.0048336275 0.11328963 0.16570798 0.07242877 8.2383685e-06 -0.99737358 8.3214127e-06
0.0046005012 0.11453407 0.16639307 0.072427161 -6.56168e-06 -0.9973737 0
0.017162057 0.11499729 0.16730528 0.073236436 -0.0060974983 -0.99729598 0.0001178987
0.027333764 0.11510333 0.16804391 0.071280003 -0.018530557 -0.99728423 0.0005868412
0.036310066 0.1122743 0.16869576 0.0724205 7.2067091e-06 -0.99737418 0
0.044749152 0.11468506 0.1693086 0.072433166 -6.8756407e-07 -0.99737328 5.9903505e-06
0.051039573 0.11470994 0.16976541 0.072433934 4.9545292e-06 -0.99737316 1.0697577e-05
0.36764047 0.11588519 0.16975006 -0.20733812 -0.018506179 -0.97809428 0.0036425998
0.37595099 0.11779642 0.16707918 -0.29070082 -0.031603266 -0.95629197 0.0033172935
0.38281143 0.11679466 0.16487432 -0.34152099 -0.021279702 -0.93963325 0.0024085562
0.3938705 0.11335238 0.16132009 -0.48209834 -0.026275236 -0.875723 0.0097612608
-0.080341563 0.1291616 0.16018429 0.24277043 -0.074564658 -0.96721387 0.0088548772
-0.074523605 0.12446633 0.16064717 0.18874925 -0.054244738 -0.98052597 0.0075225085
-0.064873591 0.12537268 0.16134796 0.10596213 -0.067382999 -0.9920845 0.0054693483
-0.055036299 0.12538862 0.16206232 0.068294302 -0.093079105 -0.99331373 0.0056319027
-0.048132353 0.12470682 0.16256368 0.06198803 -0.10582876 -0.99245036 0.0069601038
-0.031110182 0.12152707 0.16379981 0.075428508 -0.049037028 -0.99594474 0.0032928851
-0.025501013 0.12383252 0.16420713 0.077557564 -0.075503282 -0.99412477 0.00491064
-0.015044658 0.12590422 0.16496646 0.069638319 -0.11272512 -0.99118292 0.0108949
-0.0063926228 0.12361092 0.16559476 0.065671906 -0.077259541 -0.99484581 0.0048900452
0.0030053039 0.12328257 0.16627723 0.059004493 -0.060318727 -0.99643368 0.0038483695
0.01331027 0.12563038 0.16702557 0.079072952 -0.09848924 -0.99199158 0.0087281829
0.022236988 0.12428012 0.16767381 0.090037547 -0.069282509 -0.99352568 0.0039538802
0.033476606 0.12450873 0.16848999 0.071640618 -0.044053614 -0.99645716 0.0022296705
0.044218659 0.12544329 0.16927008 0.084652431 -0.15883876 -0.98366874 0.016312288
0.36815998 0.1281922 0.16958308 -0.15649348 -0.22273004 -0.96223754 0.022992099
0.37540033 0.12818241 0.16725615 -0.25391337 -0.18955494 -0.94847083 0.020351423
0.38650593 0.12535633 0.16368696 -0.39636332 -0.088274769 -0.91384006 0.011807585
0.39577454 0.12415474 0.16070816 -0.49091059 -0.044069313 -0.87009466 0.01212736
-0.075252704 0.13394751 0.16059422 0.18322754 -0.20677318 -0.96107882 0.026234135
-0.064679138 0.1352876 0.16136207 0.071112022 -0.24757302 -0.96625602 0.026643889
-0.05520827 0.13302049 0.16204983 0.045268744 -0.19433871 -0.97988939 0.02077652
-0.047325511 0.13481224 0.16262227 0.039909065 -0.25866336 -0.96514273 0.024954811
-0.034553021 0.1369375 0.16354978 0.0488653 -0.25312519 -0.96619862 0.025453962
-0.021314142 0.13848825 0.16451119 0.030222811 -0.3601675 -0.9323979 0.035616275
-0.014855892 0.13426329 0.16498017 0.062450025 -0.29984263 -0.95194244 0.030256664
-0.0056846975 0.1338701 0.16564617 0.047444426 -0.2796357 -0.95893323 0.023681164
0.0081065018 0.13080049 0.16664766 0.067478925 -0.1608711 -0.98466593 0.017449621
0.013364479 0.13594867 0.1670295 0.057409022 -0.36457396 -0.92940307 0.04016643
0.024576319 0.13367343 0.16784368 0.084135555 -0.26591051 -0.9603191 0.026922183
0.038327798 0.13490202 0.16884229 0.063495509 -0.3183088 -0.9458583 0.029504329
0.045072656 0.13638364 0.1693321 0.091999948 -0.39646295 -0.91342926 0.039627526
0.051861048 0.13229568 0.16982506 0.054924615 -0.30078349 -0.95210952 0.037379291
0.36737865 0.13598365 0.16983418 -0.1211723 -0.36965615 -0.92123371 0.025829036
0.37483904 0.13341372 0.16743653 -0.17958327 -0.29128355 -0.93962961 0.028639818
0.38730922 0.1335205 0.16342878 -0.34807843 -0.24576196 -0.90467811 0.03359475
-0.080646053 0.14341682 0.16004595 0.2186411 -0.34095445 -0.91430092 0.043306742
-0.073304951 0.14408796 0.16071159 0.1246774 -0.32440925 -0.93766421 0.029732468
-0.067782834 0.14276671 0.16113669 0.083683573 -0.32712317 -0.94126916 0.027712906
-0.045466997 0.14675418 0.1612519 0.056749791 -0.55451077 -0.83023936 0.049141247
-0.035921212 0.14359136 0.16345042 0.031082129 -0.44707492 -0.89395624 0.040332898
-0.024544513 0.144071 0.16333891 -0.018343454 -0.47473705 -0.87993652 0.041655693
-0.015748838 0.14538631 0.16288206 0.01869438 -0.47411928 -0.88026208 0.036744379
-0.0050114053 0.14395748 0.16450386 0.061699931 -0.50625598 -0.86017323 0.034662224
0.0059518288 0.14628437 0.16249423 0.03147991 -0.60122186 -0.79846185 0.036240052
0.015231372 0.14328845 0.16589615 0.087558925 -0.5140475 -0.85328114 0.037348047
0.024644332 0.14461283 0.16509686 -0.0074147242 -0.56513333 -0.82496625 0.033648372
0.034733079 0.14299829 0.16702585 0.056974918 -0.55873531 -0.82738662 0.030318404
0.043415692 0.1452869 0.16404733 0.040151376 -0.69422591 -0.71863633 0.022927016
0.057537012 0.14401092 0.16603407 0.047794685 -0.6583975 -0.75115144 0.027121421
0.065443523 0.14470722 0.16494992 0.041700423 -0.69686979 -0.71598434 0.023181738
0.074870944 0.14426829 0.16563335 0.017607972 -0.68056619 -0.73247498 0.023512367
0.086636789 0.14401351 0.16603003 0.0194447 -0.61216611 -0.79049015 0.032205608
0.09477029 0.14407741 0.16593054 0.0080450792 -0.65017551 -0.75974149 0.027516348
0.10471112 0.14508145 0.16436724 0.0075310795 -0.71660483 -0.69743872 0.018332126
0.11618388 0.14499527 0.16450141 0.0084495256 -0.64906847 -0.760683 0.025681218
0.12412248 0.14441001 0.16541268 0.0018662026 -0.68443424 -0.72907215 0.021118633
0.13593985 0.14470519 0.1649531 0.0084591433 -0.69791681 -0.71612895 0.019395284
0.14178509 0.14277022 0.16796584 -0.029876411 -0.70183265 -0.71171498 0.018397212
0.15694344 0.14395005 0.16612884 0.021620072 -0.68392557 -0.72923136 0.024198834
0.16501658 0.14295518 0.16767788 0.0025855589 -0.6777879 -0.73525286 0.027227079
0.17810318 0.14468849 0.1649791 0.0099951513 -0.74673986 -0.66504109 0.019913295
0.18728204 0.14540014 0.16387101 0.0064417757 -0.74992192 -0.66149503 0.016456794
0.19478352 0.14563505 0.16350527 0.0042884168 -0.70825934 -0.70593929 0.021275252
0.20329471 0.14609957 0.162782 -0.047953814 -0.72268683 -0.68951017 0.02004757
0.21406037 0.14472297 0.1649254 0.022372082 -0.67400169 -0.73839092 0.022981102
0.22442368 0.14400275 0.1660468 0.014631764 -0.62128419 -0.7834487 0.026290946
0.23601228 0.14514177 0.16427331 -0.001728959 -0.70634079 -0.70786983 0.024751952
0.24555326 0.14385179 0.16628183 0.017615698 -0.67990041 -0.7330929 0.028545985
0.25585228 0.14444426 0.16535933 -0.020613121 -0.66639805 -0.74531114 0.033926018
0.2606048 0.1441188 0.16586612 -0.011745079 -0.66991955 -0.7423408 0.030171605
0.27473581 0.14325336 0.16721362 -0.023801686 -0.63842273 -0.76931781 0.03495248
0.28472656 0.14479727 0.16480969 -0.038534671 -0.7198059 -0.69310486 0.021784486
0.29600802 0.14379758 0.16636626 0.0090985848 -0.62368536 -0.78162259 0.03345608
0.30483958 0.14528118 0.16405626 0.012607155 -0.67361087 -0.73897862 0.021112543
0.31494436 0.14447668 0.16530888 -0.0083490619 -0.68355519 -0.72985107 0.027844341
0.32540792 0.14389779 0.16621022 -0.00015233878 -0.67222923 -0.74034303 0.021960611
0.33603799 0.14488827 0.16466804 -0.024504812 -0.68926984 -0.72409016 0.020961003
0.34722686 0.1454042 0.16386467 -0.044905052 -0.66132587 -0.74875331 0.017509295
0.35405478 0.14408796 0.16591413 -0.067797691 -0.58371085 -0.80912608 0.02358209
0.36580265 0.1444142 0.16540614 -0.095093347 -0.51798457 -0.85008782 0.033643626
0.37651893 0.14437771 0.16402498 -0.1070235 -0.51083368 -0.85299182 0.033812556
0.38639775 0.14597787 0.1623648 -0.27227113 -0.4072921 -0.87176931 0.035031475
0.39249349 0.145567 0.16141459 -0.35021591 -0.43881965 -0.82751799 0.047230732
0.054383211 -0.14023198 0.17000821 0.012962621 0.44237038 -0.89673883 0.044446368
0.0651218 -0.14046267 0.17034929 0.074123509 0.50838488 -0.85793388 0.035050604
0.089128405 -0.14066307 0.17003725 0.0074321921 0.54501611 -0.83839267 0.042263083
0.10095398 -0.14044642 0.17037459 0.027838979 0.50958264 -0.85997128 0.029916747
0.13453363 -0.14025289 0.17067593 -0.019004803 0.60559762 -0.79554403 0.025911458
0.14944297 -0.14046106 0.17035182 0.022979416 0.58525324 -0.810525 0.026174292
0.16778874 -0.14011028 0.17089799 0.010351484 0.57450324 -0.81843686 0.030687742
0.17632014 -0.14000131 0.17106766 0.011805865 0.59231508 -0.80562001 0.029886447
0.18856008 -0.14026937 0.17065027 -0.031882893 0.5830465 -0.811813 0.03501625
0.1962069 -0.14055665 0.17020297 -0.049156837 0.59173632 -0.80463147 0.032838203
0.22773805 -0.14061065 0.1701189 0.0063319011 0.5923354 -0.80566651 0.027990296
0.2718991 -0.14023304 0.17070687 0.0046910294 0.5324015 -0.84647894 0.035699539
0.28136611 -0.14034246 0.1705365 0.01764369 0.45852271 -0.88850754 0.03912238
0.29750669 -0.14032342 0.17056614 -0.020710956 0.57145566 -0.82037157 0.036633376
0.31168202 -0.14030755 0.17059086 -0.0092093172 0.51975936 -0.85426307 0.035871323
0.33527812 -0.14064834 0.17006026 -0.010774924 0.50909722 -0.86064148 0.034437355
0.34279093 -0.14045928 0.1703546 -0.02439047 0.50023878 -0.8655439 0.034133378
0.067071095 -0.13559601 0.1709296 0.087134868 0.33141038 -0.93945444 0.030279122
0.073414408 -0.1367081 0.17133395 0.032877605 0.36865225 -0.92898577 0.038931899
0.086189628 -0.13627465 0.17181535 0.0058920733 0.46117449 -0.88728982 0.038182162
0.093365774 -0.13607912 0.17241231 -0.0068846024 0.46638885 -0.88455302 0.034414887
0.10553452 -0.13377325 0.17303939 0.043778688 0.40138462 -0.91486275 0.023019087
0.11227702 -0.13492681 0.17280999 -0.011523796 0.45794591 -0.88890535 0.026864417
0.12770888 -0.13544907 0.17263351 0.017109156 0.49762172 -0.86722535 0.025993019
0.1337873 -0.13464126 0.17290649 0.022831395 0.46544129 -0.88478422 0.029932689
0.14562887 -0.13706483 0.17208751 0.017794453 0.54006368 -0.84143597 0.028856905
0.15255888 -0.13414234 0.17307508 -0.016610602 0.48021799 -0.87699193 0.029898258
0.16592497 -0.13774875 0.1718564 0.032192804 0.50903851 -0.86014158 0.029310616
0.17399153 -0.13608626 0.17241819 0.017111164 0.52649379 -0.85000682 0.027867869
0.18374257 -0.13430451 0.17302029 -0.04531908 0.45063362 -0.89155793 0.030546948
0.19520451 -0.13633466 0.17233424 -0.050441537 0.46003354 -0.88646764 0.033297163
0.20382006 -0.13721074 0.1720382 -0.042393655 0.44507533 -0.89448917 0.032206554
0.21636935 -0.13355444 0.17305076 0.009515726 0.35492501 -0.93484634 0.02490426
0.22701617 -0.1349781 0.172684 -0.0020574215 0.47576523 -0.87956995 0.029983254
0.23625372 -0.13243161 0.1731147 -0.0053989249 0.38609323 -0.92244393 0.030819086
0.24418192 -0.13629539 0.17234753 0.0083735343 0.50243753 -0.864573 0.027451055
0.2500256 -0.13399808 0.1729551 -0.01252725 0.48061359 -0.87684298 0.031806696
0.26305395 -0.13733916 0.17192392 0.027144233 0.54563224 -0.83758497 0.033423282
0.27409849 -0.13490026 0.17199741 -0.033985205 0.40561339 -0.91341263 0.035887852
0.2879214 -0.13796787 0.17178236 0.012141673 0.42903847 -0.90320456 0.034440212
0.29461122 -0.13715118 0.17178109 0.0049035819 0.48359361 -0.87527889 0.037788261
0.3047995 -0.13781008 0.17146641 -0.027082741 0.46938831 -0.88257647 0.034221124
0.31474528 -0.13498212 0.17162246 -0.0082022417 0.3533307 -0.93546247 0.037842359
0.32839119 -0.13529827 0.17138183 0.015638268 0.39872694 -0.91693634 0.03080767
0.33140507 -0.13617472 0.17138512 0.016955309 0.40528217 -0.91403437 0.030523786
0.34640303 -0.13725777 0.17116444 -0.0041024718 0.44245902 -0.8967793 0.031005913
0.35506999 -0.13167691 0.1710034 -0.10740434 0.27254257 -0.95613009 0.027940631
0.36189055 -0.13308451 0.17087671 -0.12809594 0.29885343 -0.9456628 0.026028154
0.055951461 -0.12192765 0.1701221 0.069880202 0.10558759 -0.99195164 0.011845612
0.064481065 -0.12477062 0.17074151 0.07553234 0.14913414 -0.98592788 0.016150445
0.07875289 -0.12073888 0.17177792 0.073754333 0.094704688 -0.99276948 0.0058492874
0.083772071 -0.12488388 0.1721424 0.058266696 0.15446121 -0.98627925 0.014165418
0.095266543 -0.12419251 0.17297712 0.015984947 0.17130291 -0.98508865 0.017809931
0.10500227 -0.12500522 0.17368414 0.042851489 0.22491446 -0.97343582 0.02121895
0.11566152 -0.12544556 0.17445819 0.03297681 0.24251465 -0.96958715 0.02494649
0.1258425 -0.12795678 0.17501236 0.014274514 0.26597545 -0.9638741 0.021522995
0.13325563 -0.12507907 0.17499706 0.010915949 0.21847843 -0.97578073 0.015087001
0.14846966 -0.12568399 0.17484197 0.011022188 0.25883001 -0.96585995 0.018754387
0.15882999 -0.12837376 0.17464948 0.011768129 0.3078624 -0.95135814 0.022919415
0.16777053 -0.12495916 0.17448336 -0.019898171 0.23747502 -0.9711898 0.021915006
0.17657058 -0.1245154 0.17431986 -0.010720813 0.22733952 -0.97375655 0.020747805
0.18571532 -0.12612046 0.17414996 -0.028989794 0.2499052 -0.9678362 0.022363957
0.19729257 -0.12816028 0.17393485 -0.047042906 0.31251171 -0.94874835 0.025988033
0.20581882 -0.12498701 0.17377643 -0.018957332 0.24341397 -0.96973723 0.017162913
0.21388197 -0.12606101 0.17362662 -0.017964996 0.28532478 -0.95826256 0.021885727
0.23475192 -0.12700032 0.17323887 -0.0014879995 0.29740715 -0.95474958 0.027140567
0.24244623 -0.12625156 0.17309593 -0.033200458 0.25249517 -0.9670285 0.021634512
0.25570992 -0.12440567 0.17284948 -0.021436332 0.19956306 -0.97965044 0.018305296
0.26687205 -0.12549348 0.17264207 -0.043762524 0.2447833 -0.96858966 0.022160277
0.27251673 -0.12355456 0.17253721 -0.027979374 0.16133483 -0.98650301 0.018310428
0.28427705 -0.12378959 0.17231871 0.0048024217 0.18139917 -0.98339778 0.023357518
0.29270148 -0.12242588 0.17216219 -0.012880092 0.12878591 -0.99158877 0.015503428
0.30556303 -0.1223011 0.17192324 -0.012579096 0.10860157 -0.9940058 0.012285541
0.31410637 -0.12600705 0.17176451 -0.043267768 0.18738522 -0.98133314 0.021088352
0.3238382 -0.12517524 0.17158368 0.0038777189 0.18615681 -0.98251241 0.022968562
0.33417106 -0.12395189 0.17139171 -0.0050258869 0.10446608 -0.99451572 0.010671522
0.34707123 -0.12538135 0.17115203 -0.019526053 0.15767714 -0.98729765 0.014882875
0.3547307 -0.12664875 0.17100972 -0.08627785 0.21277206 -0.97328526 0.024465237
0.36176667 -0.12657858 0.17087901 -0.13062274 0.18846723 -0.97335392 0.020884784
0.054814 -0.11170281 0.1700395 0.07244087 -3.0810538e-06 -0.99737275 2.0861635e-06
0.066264041 -0.11010303 0.17087097 0.072359338 0.00021562583 -0.99737859 2.1075932e-05
0.075609162 -0.11576093 0.17154963 0.063022621 0.045453593 -0.99697649 0.0030567418
0.082718119 -0.11475713 0.17206587 0.067826092 0.031811636 -0.99718982 0.0019338256
0.095131531 -0.11400609 0.17296733 0.06602338 0.030421996 -0.99735421 0.0008014178
0.1059232 -0.11729366 0.17375101 0.060104162 0.062500358 -0.99623352 0.0028422778
0.11325832 -0.11601666 0.17428368 0.064376555 0.059942637 -0.99612373 0.0031787301
0.12794796 -0.11430825 0.17522325 0.0096220598 0.055607244 -0.99840635 0.0013901796
0.13417125 -0.11596414 0.17510763 0.021160716 0.10823982 -0.99389958 0.0052728872
0.14718807 -0.11491381 0.17486578 -0.0080110626 0.063461713 -0.9979521 0.0020540908
0.15718567 -0.11498825 0.17468002 -0.015618999 0.058827177 -0.99814594 0.0015750076
0.16206145 -0.1196895 0.17458943 -0.013463039 0.12506056 -0.9920578 0.0077952081
0.17732795 -0.11501887 0.17430578 -0.014203821 0.06825123 -0.997567 0.002715097
0.18475358 -0.11678707 0.17416781 -0.016471477 0.0708891 -0.99734819 0.00265024
0.19513194 -0.11365074 0.17397501 -0.015431049 0.041423764 -0.99902248 0.0012940785
0.20250385 -0.11597576 0.17383802 -0.015121521 0.046868756 -0.99878663 0.0013593625
0.21131434 -0.11416811 0.17367433 -0.016497843 0.016937912 -0.99972039 0.00032339295
0.22373681 -0.11595254 0.17344353 -0.015345765 0.070389368 -0.99740148 0.0058365148
0.23441575 -0.1172049 0.17324512 -0.015938353 0.06357722 -0.99784964 0.0068742842
0.24650291 -0.11446781 0.17302054 -0.017669069 0.009248348 -0.99980116 8.2488281e-05
0.25479826 -0.11609202 0.17286642 -0.022647865 0.042069655 -0.99885798 0.003418437
0.26643336 -0.11515775 0.17265025 -0.024758145 0.024194706 -0.99940062 0.00038824943
0.2782636 -0.11115219 0.17243043 -0.018230258 0.018824851 -0.99965662 0.00039912012
0.28385973 -0.11192131 0.17232646 -0.017626997 0.013053391 -0.99975938 0.00021816656
0.29316446 -0.11647244 0.17215359 -0.016235132 0.018961418 -0.99968845 0.00025697189
0.30817875 -0.11660663 0.17187463 -0.020350441 0.062005978 -0.9978683 0.0050967205
0.31586906 -0.1144037 0.17173176 -0.016884567 0.0089150211 -0.99981773 0.00010156617
0.32512876 -0.11585215 0.17155971 -0.02579076 0.0373809 -0.99896824 0.0031559214
0.33449671 -0.11243576 0.17138566 -0.019713135 0.0077485889 -0.99977565 0.00010925861
0.34516373 -0.11314073 0.17118748 -0.026394343 0.0076802433 -0.99962211 0.00027363814
0.3578018 -0.11575993 0.17095265 -0.11852351 0.036920134 -0.99226463 0.00502196
0.36498162 -0.11193749 0.17060457 -0.16534987 -0.017779903 -0.98607469 0.002732706
0.054879755 -0.10091115 0.17004429 0.072429672 6.6670354e-06 -0.99737352 0
0.06340275 -0.10518082 0.17066319 0.072431892 2.3226201e-05 -0.99737334 0
0.072014913 -0.10697287 0.17128862 0.072406799 0.00021574521 -0.99737513 9.8351065e-06
0.087114081 -0.1055056 0.1723851 0.072430611 -1.6385831e-05 -0.99737346 1.4850405e-05
0.096735783 -0.10406341 0.17308383 0.072170816 1.1496742e-05 -0.99739224 0
0.1073084 -0.10322654 0.17385159 0.064809546 0.0019026438 -0.99789584 4.6922334e-05
0.11655126 -0.10458851 0.1745228 0.049792383 0.00057829736 -0.99875945 0.00019549082
0.12634702 -0.10362072 0.17517331 0.030925941 -0.0005481136 -0.99952161 0.00033369652
0.13467003 -0.1056966 0.17509836 0.0091541279 0.010259457 -0.99990553 0.0005034639
0.14357738 -0.10299576 0.17493285 -0.0056767007 -0.00041971088 -0.99998379 8.5581611e-05
0.15493503 -0.10699103 0.17472182 -0.017438075 0.0090530841 -0.99980694 0.00022359495
0.17485255 -0.10563523 0.17435178 -0.018571045 -2.2310753e-06 -0.99982756 9.6407557e-06
0.18373263 -0.10382314 0.1741868 -0.018570755 1.2384109e-05 -0.99982756 0
0.19431746 -0.10748713 0.17399012 -0.01750502 0.011914807 -0.99977583 0.00025228973
0.20536223 -0.10803743 0.17378493 -0.020860432 0.010276442 -0.99972951 0.00019446938
0.21844578 -0.10587843 0.17354184 -0.01844947 0.0029197226 -0.9998256 5.0229861e-05
0.22605066 -0.104003 0.17340054 -0.018635446 6.4382389e-06 -0.99982637 0
0.2377729 -0.10494246 0.17318276 -0.01849556 0.00047737407 -0.99982888 8.942352e-06
0.24409831 -0.10327914 0.17306522 -0.018597623 -5.0811213e-06 -0.99982709 5.1621478e-06
0.26526847 -0.10563716 0.17267187 -0.018559871 -1.0240525e-05 -0.9998278 2.8248007e-06
0.27512243 -0.10526745 0.17248879 -0.018272217 0.0028007545 -0.99982911 3.9760427e-05
0.28414038 -0.10243655 0.17232126 -0.018546725 4.6353557e-06 -0.99982804 0
0.29228759 -0.105919 0.17216989 -0.018565593 -2.4671128e-05 -0.99982762 0
0.3088817 -0.10565139 0.17186156 -0.018660516 0.00073077553 -0.9998256 0
0.31804985 -0.10544084 0.17169122 -0.018514149 0.00073034514 -0.99982834 7.3803144e-06
0.3275483 -0.10369241 0.17151476 -0.018631408 -4.6547557e-06 -0.99982643 0
0.3359561 -0.1060053 0.17135854 -0.019711861 0.00034902964 -0.99980563 0
0.34443641 -0.10547087 0.17120099 -0.024512002 0.00022324728 -0.99969953 0.00011479847
0.35496175 -0.10490939 0.17100543 -0.076498613 -0.0084848581 -0.99703354 0.0017924189
0.36341482 -0.10670218 0.17075433 -0.14589098 -0.017716808 -0.989142 0.002935125
0.057077549 -0.093650803 0.17020388 0.072426111 -4.4206959e-06 -0.99737376 0
0.062284842 -0.093485996 0.17058203 0.072430037 1.3789641e-05 -0.99737346 0
0.072753578 -0.09221679 0.17134225 0.072430946 5.2199193e-06 -0.9973734 7.4385332e-07
0.09747576 -0.098859698 0.17313756 0.072151452 7.8251345e-05 -0.99739373 0
0.103535 -0.093278751 0.17357758 0.071780048 -0.00013435271 -0.99742049 0
0.11569161 -0.095625281 0.1744604 0.046649005 0.0012388104 -0.99891055 0.00020195699
0.12165663 -0.099821955 0.17489356 0.041878249 0.00056827074 -0.99912256 0.00020219581
0.13873856 -0.095311195 0.17502277 -0.0024107746 -0.0012136495 -0.99999636 0.00012364467
0.14438419 -0.095481969 0.17491786 -0.0069242101 0.00016539053 -0.99997604 9.4574272e-05
0.1569 -0.09429498 0.17468533 -0.018568037 -3.1432842e-06 -0.99982756 5.2563773e-06
0.17530912 -0.096526094 0.17434329 -0.018566182 -7.0027918e-06 -0.99982768 2.0548465e-05
0.18392174 -0.097467341 0.17418326 -0.018543171 -5.5864184e-06 -0.99982804 1.4799444e-05
0.19528659 -0.094076686 0.17397213 -0.018571977 -2.4814877e-05 -0.9998275 7.6339156e-06
0.20436192 -0.094941862 0.17380351 -0.018555077 -3.2290125e-05 -0.99982786 1.2685233e-05
0.21263355 -0.092806727 0.17364982 -0.018570868 -1.077211e-05 -0.99982756 9.1443317e-06
0.22592108 -0.092306539 0.17340294 -0.018570039 4.5736519e-06 -0.99982756 0
0.23498711 -0.095311932 0.17323449 -0.018586379 -5.3142658e-06 -0.99982727 7.9621814e-06
0.24281847 -0.095022082 0.173089 -0.018573556 5.9107429e-06 -0.9998275 1.6553915e-05
0.26482427 -0.093363777 0.17268014 -0.018577205 6.9454063e-06 -0.99982744 4.158851e-06
0.27341059 -0.095105626 0.17252059 -0.018542903 1.6596718e-05 -0.9998281 0
0.28560612 -0.096863411 0.17229402 -0.018540498 -1.3510047e-06 -0.9998281 2.0480854e-06
0.29413465 -0.093772642 0.17213555 -0.018575255 1.4304853e-06 -0.99982744 0
0.30707508 -0.097185656 0.17189515 -0.018597241 3.6945778e-07 -0.99982703 0
0.31543308 -0.095999874 0.17173985 -0.018590571 -1.1673091e-05 -0.99982721 0
0.3266336 -0.095402837 0.17153175 -0.018554024 7.2205312e-06 -0.99982786 2.0871268e-05
0.33289671 -0.094223104 0.17141539 -0.018590713 3.0799979e-06 -0.99982721 0
0.34218961 -0.095179468 0.17124271 -0.025250072 0.0028624935 -0.99967706 0.00011796633
0.35477304 -0.093179703 0.17100894 -0.08357548 0.006136348 -0.99648255 0.0017865637
0.36167827 -0.094711944 0.17088065 -0.13955855 0.0012755484 -0.99021298 0.003004937
0.055175297 -0.089227729 0.17006575 0.07241869 1.754563e-05 -0.99737436 0
0.065113261 -0.085222051 0.17078742 0.072420344 3.282577e-05 -0.99737418 0
0.078143835 -0.086167581 0.17173369 0.072425038 1.0869687e-06 -0.99737382 0
0.08390104 -0.085143626 0.17215176 0.072430283 -1.7509352e-05 -0.99737346 1.8724101e-06
0.095217049 -0.087119304 0.17297354 0.072313868 -2.9084662e-05 -0.99738199 0
0.10767136 -0.086942196 0.17387797 0.066517696 -0.0015987417 -0.99778402 3.7433965e-05
0.11494921 -0.085251987 0.17440647 0.056406789 0.001387537 -0.99840689 8.3563209e-05
0.12415119 -0.083393797 0.17505394 0.034090046 0.0027702698 -0.99941492 0.00023749999
0.13455954 -0.083386369 0.17510042 0.010449504 0.00057693484 -0.99994522 0.00020820956
0.14932713 -0.087579742 0.17482604 -0.01625488 -0.00043689972 -0.9998678 0
0.15496068 -0.083307505 0.17472136 -0.018575216 1.4697047e-06 -0.9998275 0
0.16496198 -0.085038446 0.17453554 -0.018574553 -3.2778127e-07 -0.99982744 2.9696273e-06
0.17263246 -0.082349651 0.17439301 -0.018557796 -1.1274932e-05 -0.99982774 1.3132139e-05
0.18342656 -0.088346615 0.17419247 -0.018569587 -2.4341291e-05 -0.99982756 2.0897505e-05
0.19438039 -0.082622983 0.17398895 -0.0185728 5.1373213e-06 -0.9998275 0
0.20799851 -0.086142562 0.17373595 -0.018539721 -1.1860213e-05 -0.9998281 6.3526536e-06
0.21432899 -0.085441485 0.17361832 -0.018577889 1.7765303e-06 -0.99982738 0
0.22498538 -0.086711966 0.17342031 -0.018531349 -6.1446131e-06 -0.99982834 4.859085e-06
0.23367131 -0.083267108 0.17325896 -0.018602794 1.0198022e-05 -0.99982697 8.8637398e-06
0.24598111 -0.083198361 0.17303024 -0.018553605 -2.5148292e-05 -0.99982792 1.3804138e-05
0.25197241 -0.086942762 0.17291892 -0.018591475 2.017611e-06 -0.99982721 0
0.26348963 -0.082841858 0.17270494 -0.018597541 -2.0882637e-05 -0.99982703 1.8722021e-05
0.27518862 -0.084715173 0.17248757 -0.018614573 2.2050648e-05 -0.99982679 0
0.28472641 -0.08612556 0.17231035 -0.018531129 -6.7636674e-06 -0.99982828 9.5448004e-06
0.29647794 -0.082729705 0.17209204 -0.018565491 1.1477479e-05 -0.99982762 1.7884366e-07
0.30438244 -0.08600682 0.17194515 -0.018591426 1.1321706e-05 -0.99982721 0
0.31093287 -0.082817182 0.17182347 -0.018600594 4.5871889e-06 -0.99982697 1.3624242e-05
0.32581726 -0.083634607 0.17154694 -0.01861449 -1.3482344e-05 -0.99982679 9.7613265e-06
0.33613375 -0.088351406 0.17135525 -0.018537262 1.0333347e-06 -0.99982816 0
0.34430641 -0.084671929 0.17120339 -0.025533061 -0.0010248701 -0.99967343 0.0001008698
0.35665593 -0.084005184 0.17097394 -0.11995229 -0.00084630621 -0.99277925 0.0026793357
0.36051315 -0.081785679 0.1709023 -0.14879563 0.004247034 -0.98885888 0.0024427674
0.055500787 -0.078764796 0.17008939 0.072434686 -1.1913037e-05 -0.9973731 6.641209e-06
0.068235755 -0.07764715 0.17101419 0.072419874 -4.5584202e-06 -0.99737418 4.4697904e-07
0.073645562 -0.074449614 0.17140704 0.072411075 -3.5999335e-06 -0.99737483 0
0.08307299 -0.075335555 0.17209166 0.072423071 5.2773739e-06 -0.99737394 0
0.095230676 -0.072748698 0.17297453 0.072423354 1.7532772e-06 -0.99737394 0
0.10487749 -0.076124206 0.17367506 0.06968911 -0.00037054304 -0.99756861 1.3589703e-05
0.11274242 -0.073476225 0.17424622 0.062046785 -0.0010500401 -0.99807268 7.896973e-05
0.12506437 -0.076416098 0.17507656 0.025726574 -0.0018317938 -0.99966735 0.00020658199
0.13231885 -0.073230751 0.17514205 0.017104939 0.001646555 -0.99985236 0.00027459027
0.14521287 -0.075175583 0.17490247 -0.015232793 -0.00034000332 -0.99988389 8.8536681e-06
0.15369301 -0.073745899 0.17474492 -0.017542949 -3.8987324e-05 -0.99984616 2.3358127e-05
0.16610023 -0.074883699 0.1745144 -0.018590095 -5.6323706e-06 -0.99982715 0
0.17563939 -0.073237956 0.17433715 -0.018587729 -4.4443314e-06 -0.99982721 0
0.18814121 -0.076935895 0.17410488 -0.018558988 -1.5698212e-06 -0.99982774 9.8817618e-06
0.19471671 -0.075398594 0.17398271 -0.018612918 -1.6894835e-05 -0.99982673 2.0469843e-05
0.2042881 -0.076943278 0.17380488 -0.018617604 -3.3409258e-06 -0.99982667 0
0.21858461 -0.070222288 0.17353925 -0.018638665 4.3219907e-07 -0.99982631 0
0.22602788 -0.074492417 0.17340097 -0.018590095 -1.179294e-05 -0.99982721 2.3942031e-05
0.23467986 -0.077668414 0.17324021 -0.018565219 -7.0808062e-07 -0.99982768 0
0.24713424 -0.074202679 0.1730088 -0.01861877 -5.6421339e-07 -0.99982673 0
0.25531858 -0.071213201 0.17285675 -0.018619001 -7.5719267e-06 -0.99982661 0
0.26492694 -0.074786648 0.17267823 -0.018606354 -1.4252287e-05 -0.99982691 0
0.27407122 -0.074965373 0.17250834 -0.018536562 1.7073344e-06 -0.99982816 0
0.28147915 -0.074519403 0.1723707 -0.018611683 1.73459e-06 -0.99982679 0
0.29796076 -0.072649688 0.17206448 -0.018574767 9.7490729e-06 -0.99982744 0
0.30777782 -0.07505767 0.17188209 -0.01858167 -8.4447829e-06 -0.99982733 1.1727993e-05
0.31248885 -0.07381127 0.17179455 -0.018601423 2.1939123e-07 -0.99982697 2.9218529e-06
0.32497671 -0.073587194 0.17156255 -0.018611599 -7.7515515e-06 -0.99982679 8.688673e-06
0.33725098 -0.074961573 0.17133449 -0.018595038 1.2362147e-05 -0.99982709 0
0.34631079 -0.07494314 0.17116617 -0.03244663 -0.0014240987 -0.99947244 0.00033472246
0.35504842 -0.074790947 0.17100382 -0.1060609 0.0081341472 -0.99432635 0.0022851164
0.055025317 -0.068203449 0.17005487 0.07243482 -3.9938925e-07 -0.99737316 0
0.061196998 -0.06688197 0.17050305 0.072428405 -1.8029576e-05 -0.99737358 3.3648007e-06
0.07802999 -0.065438651 0.17172542 0.072417744 2.8483717e-06 -0.99737436 0
0.084203087 -0.067653798 0.17217372 0.072431184 -9.0074554e-06 -0.99737334 0
0.09563297 -0.065035313 0.17300376 0.072434291 -2.9620929e-07 -0.99737316 0
0.10457455 -0.063033216 0.17365308 0.067970447 0.00046187575 -0.99768728 9.3261924e-06
0.1137789 -0.062029559 0.17432149 0.051696163 -0.00097338133 -0.99866235 0.00014687522
0.12550651 -0.062087175 0.17509945 0.031163769 -0.00036008577 -0.99951422 0.0002825486
0.13226409 -0.061831512 0.17514306 0.014663273 0.0022558772 -0.99988991 0.00029241786
0.14334691 -0.062804215 0.17493714 -0.0091934428 -0.0011875945 -0.99995703 6.2287538e-05
0.15864594 -0.064800218 0.17465289 -0.018597698 6.1489454e-06 -0.99982703 0
0.16508895 -0.064008459 0.17453319 -0.018560871 1.286718e-06 -0.99982768 0
0.17518374 -0.067487292 0.17434564 -0.018582281 2.9375908e-06 -0.99982733 0
0.1841505 -0.063308157 0.17417903 -0.018560003 -1.1303676e-05 -0.99982774 0
0.19612621 -0.066123053 0.17395651 -0.018588655 4.3386453e-07 -0.99982721 0
0.20247634 -0.063813657 0.17383854 -0.018578146 -5.812627e-06 -0.99982744 0
0.21220356 -0.064446814 0.17365782 -0.018596189 -1.7267658e-06 -0.99982709 1.295082e-05
0.22308612 -0.064668097 0.17345561 -0.018584847 -7.5549819e-06 -0.99982727 0
0.23432128 -0.063774228 0.17324686 -0.018547494 -1.3577785e-05 -0.99982798 1.2094412e-05
0.24737136 -0.065039888 0.17300442 -0.01857301 6.7579904e-06 -0.9998275 2.2928045e-06
0.25615576 -0.065434888 0.17284119 -0.018593187 -5.3706231e-06 -0.99982715 1.2274681e-05
0.26507065 -0.066717334 0.17267556 -0.018573662 -1.312628e-05 -0.99982756 1.1366455e-05
0.2753531 -0.067388356 0.17248452 -0.01860022 8.9970354e-06 -0.99982703 0
0.28899005 -0.062517166 0.17223117 -0.018565979 -2.1967892e-06 -0.99982762 2.1618955e-05
0.29613683 -0.062708259 0.17209837 -0.018567607 1.4748231e-07 -0.99982762 7.2989947e-06
0.3046416 -0.066594586 0.17194036 -0.018622981 2.4182493e-05 -0.99982655 0
0.31737444 -0.065864056 0.17170379 -0.018620674 1.2759597e-05 -0.99982661 0
0.32552081 -0.064645991 0.17155245 -0.018576922 -6.3226094e-06 -0.99982744 1.8410197e-05
0.33470958 -0.062938243 0.1713817 -0.018792428 -6.1308107e-05 -0.99982345 0
0.34658802 -0.06784635 0.17116101 -0.031231789 0.001512237 -0.99951106 0.00026436421
0.35315037 -0.066362791 0.17103909 -0.077679105 0.0068194671 -0.9969551 0.0019767333
0.36222038 -0.062303603 0.17087059 -0.14493348 0.017048093 -0.98929453 0.0029079143
0.058605541 -0.054643739 0.17031486 0.072415754 -6.2314353e-07 -0.99737453 0
0.067290716 -0.053714808 0.17094554 0.072435983 -1.0043899e-05 -0.99737304 1.1094659e-05
0.074571848 -0.052553236 0.17147429 0.072410688 -1.3541744e-05 -0.99737489 9.2483142e-06
0.083225191 -0.056357525 0.17210272 0.07241977 -3.0634983e-06 -0.99737424 0
0.095294043 -0.052364305 0.17297913 0.072232343 -8.0098162e-06 -0.99738783 0
0.10593215 -0.055067644 0.17375165 0.069017634 0.00052335666 -0.99761528 2.4600804e-05
0.11366451 -0.057436675 0.17431319 0.059146494 -0.0015850622 -0.99824804 8.7025372e-05
0.12492939 -0.054644402 0.17509823 0.036157489 0.0012497035 -0.99934536 0.00026245872
0.13601799 -0.055527519 0.17507331 0.0020655466 0.0019038439 -0.99999601 0.00016013696
0.14856389 -0.058233034 0.17484021 -0.01557643 -0.00037249259 -0.99987859 3.1287756e-05
0.15777339 -0.056007385 0.1746691 -0.018558092 -2.3229109e-06 -0.9998278 1.5375686e-05
0.16667831 -0.052182585 0.17450367 -0.018562604 2.1246005e-06 -0.99982768 5.8967585e-06
0.17616208 -0.05686301 0.17432745 -0.018616926 5.598074e-06 -0.99982673 0
0.18480189 -0.054681201 0.17416693 -0.018565057 2.6599403e-07 -0.99982762 1.8707422e-05
0.19547336 -0.055551603 0.17396866 -0.018576669 -8.1961548e-07 -0.99982744 0
0.20458297 -0.051669803 0.1737994 -0.018608103 2.1845042e-06 -0.99982685 1.7139819e-06
0.21342576 -0.056879662 0.1736351 -0.018599179 -1.7642352e-06 -0.99982703 0
0.22344601 -0.05513218 0.17344895 -0.018543605 -3.5581631e-06 -0.99982804 6.8474264e-06
0.23657262 -0.054665428 0.17320505 -0.018588575 -8.9042433e-06 -0.99982721 2.9878527e-06
0.24529696 -0.055001546 0.17304294 -0.018649878 4.5994443e-06 -0.99982607 0
0.25570938 -0.052704148 0.17284949 -0.018676503 -1.5438136e-05 -0.9998256 0
0.26421055 -0.056390341 0.17269154 -0.018603221 -2.8397451e-06 -0.99982697 0
0.27103785 -0.057069976 0.1725647 -0.018545764 -1.080682e-05 -0.99982804 2.9706141e-06
0.28321868 -0.055931017 0.1723384 -0.018538605 -1.1560644e-05 -0.99982816 6.1966603e-06
0.29529032 -0.054932419 0.17211412 -0.018574798 -3.1045759e-06 -0.99982744 0
0.30555874 -0.055970818 0.17192331 -0.018578211 -8.0909331e-06 -0.99982738 0
0.31550762 -0.05427748 0.17173848 -0.018652817 1.434959e-05 -0.99982601 0
0.32417673 -0.055643834 0.17157739 -0.018550646 -7.1609711e-06 -0.99982792 1.4584246e-05
0.3360498 -0.054724067 0.17135681 -0.018964065 -0.00012799387 -0.99982011 0
0.34539846 -0.055969331 0.17118311 -0.039303865 0.0043711406 -0.99921775 0.00064956996
0.35562584 -0.058231357 0.17099309 -0.086091638 -0.0023142695 -0.99628454 0.0018790148
0.36262393 -0.052709799 0.17081885 -0.14912909 -0.0034145331 -0.98881185 0.0029197796
0.05729486 -0.043691084 0.17021967 0.072432548 1.3407582e-07 -0.99737334 0
0.073625803 -0.04479292 0.17140558 0.072420664 -3.5353489e-06 -0.99737418 0
0.08448758 -0.045635533 0.17219439 0.072432742 -2.2648444e-06 -0.99737334 0
0.095389508 -0.044972893 0.17298605 0.072364204 -6.1383289e-06 -0.99737829 6.1441106e-06
0.10512137 -0.047722384 0.17369278 0.071022406 -0.00022845279 -0.99747467 0
0.11641283 -0.045400705 0.17451276 0.050420102 -0.00055683748 -0.99872792 0.00019523173
0.12315804 -0.043964356 0.17498794 0.037820131 0.0020535165 -0.99928248 0.00029536366
0.13586171 -0.045592397 0.17507622 0.00046611988 -1.6389084e-05 -0.99999988 0.00016447631
0.1449549 -0.043217003 0.17490725 -0.011983396 0.00081376173 -0.99992788 6.4456421e-05
0.1578728 -0.043291315 0.17466725 -0.01855506 -1.3097723e-06 -0.9998278 1.5734495e-05
0.16434455 -0.04250782 0.17454702 -0.018553611 -2.1034012e-07 -0.99982786 8.7040917e-06
0.17198333 -0.044456542 0.17440508 -0.018588917 3.7547713e-06 -0.99982721 0
0.1847268 -0.046806339 0.17416832 -0.018601788 1.768842e-05 -0.99982697 0
0.19572169 -0.046445597 0.17396404 -0.018580841 -6.4516967e-06 -0.99982733 5.1936727e-06
0.21404959 -0.042885073 0.17362352 -0.018568587 -6.2438835e-06 -0.99982762 1.4100169e-05
0.22401521 -0.04657051 0.17343837 -0.018603362 1.6549442e-05 -0.99982697 0
0.23465219 -0.043951143 0.17324074 -0.018565718 -3.855981e-06 -0.99982768 5.0603981e-06
0.24353063 -0.044335414 0.17307575 -0.018590469 -7.4461987e-06 -0.99982715 4.7422286e-06
0.25182661 -0.045704536 0.17292163 -0.018635554 9.9765634e-07 -0.99982631 0
0.26843312 -0.048176814 0.17261308 -0.018581461 6.1409792e-06 -0.99982738 0
0.27182782 -0.043455381 0.17255004 -0.018595558 1.9642873e-06 -0.99982709 1.8757476e-06
0.28637713 -0.044843588 0.17227972 -0.018577933 3.7444438e-06 -0.99982738 0
0.29375347 -0.046585724 0.17214267 -0.018550461 -1.1218669e-05 -0.99982792 0
0.3050265 -0.043091413 0.1719332 -0.018580707 1.8558341e-05 -0.99982733 0
0.31467751 -0.045961279 0.1717539 -0.018616494 -6.6710195e-06 -0.99982673 0
0.32369858 -0.043807697 0.17158629 -0.018613862 1.0844703e-05 -0.99982679 0
0.33131218 -0.04441062 0.17144483 -0.018590527 -6.9539492e-06 -0.99982721 1.7056936e-05
0.34109446 -0.04342296 0.1712631 -0.019070702 -8.6001965e-06 -0.99981815 3.558685e-06
0.35690546 -0.042152911 0.17096932 -0.11719592 0.0031109075 -0.99310398 0.0027942264
0.36323583 -0.045215853 0.17078955 -0.16166084 0.0053815236 -0.98683172 0.0030320694
0.057565246 -0.034282599 0.17023933 0.072429061 -2.1303201e-06 -0.99737358 0
0.062253114 -0.03439552 0.17057973 0.072437666 -2.4330868e-06 -0.99737293 2.9559028e-06
0.075942755 -0.035009459 0.17157386 0.072429724 4.142606e-06 -0.99737352 0
0.085035324 -0.035993397 0.17223415 0.072423555 1.4319094e-05 -0.99737394 0
0.095602483 -0.034953233 0.17300153 0.072364584 7.2085113e-06 -0.99737829 5.6847616e-06
0.10559976 -0.034644309 0.17372753 0.071184181 -0.00024328925 -0.99746311 1.5110722e-05
0.11522365 -0.033458315 0.17442641 0.058386005 -0.00074494554 -0.9982937 6.7985013e-05
0.12841164 -0.035331458 0.17521463 0.026826451 -0.00022317172 -0.99964005 0.00027375555
0.13655061 -0.032992933 0.17506342 -0.003904525 0.00088525761 -0.99999201 9.6276519e-05
0.148623 -0.030948561 0.17483911 -0.016174745 0.00022367692 -0.99986917 0
0.15363054 -0.036230896 0.17474608 -0.017885787 -0.00018850598 -0.99983996 0
0.16370136 -0.036726184 0.17455897 -0.018600574 6.1098267e-06 -0.99982697 0
0.17538962 -0.03259027 0.1743418 -0.018542051 2.8504439e-06 -0.9998281 0
0.18651336 -0.03558049 0.17413513 -0.018608343 2.3781829e-06 -0.99982691 0
0.19530284 -0.035631891 0.17397182 -0.018589387 1.2594465e-06 -0.99982721 3.5784462e-06
0.20683856 -0.032301288 0.17375749 -0.018583637 -2.4319979e-06 -0.99982733 1.7849143e-05
0.21619643 -0.036514215 0.17358364 -0.018620595 5.0601475e-06 -0.99982661 0
0.22516851 -0.034072984 0.17341693 -0.018593742 -2.7137949e-07 -0.99982709 1.9042851e-06
0.23520783 -0.036820028 0.17323041 -0.018557746 5.6053267e-07 -0.9998278 2.9952566e-06
0.24338436 -0.035481159 0.17307848 -0.018630998 3.304606e-06 -0.99982643 0
0.257229 -0.03393884 0.17282125 -0.01857217 1.2585358e-06 -0.9998275 5.8236069e-06
0.26589057 -0.035671528 0.17266034 -0.018587843 6.0123079e-06 -0.99982721 1.5881535e-05
0.27445033 -0.036655799 0.1725013 -0.018592851 4.602608e-06 -0.99982709 0
0.28728876 -0.038257226 0.17226276 -0.018569805 2.775447e-07 -0.99982756 1.2377276e-06
0.29586008 -0.034249425 0.17210352 -0.018546555 2.8884298e-07 -0.99982798 8.3420273e-06
0.30418658 -0.034814771 0.17194884 -0.018519249 3.066451e-06 -0.99982846 4.4695398e-06
0.31321517 -0.034547403 0.17178106 -0.018609455 7.0596971e-06 -0.99982685 0
0.3230623 -0.034066007 0.17159812 -0.018529579 -5.9300055e-06 -0.99982834 1.4740479e-05
0.33511791 -0.034958743 0.17137411 -0.018963467 0.00013069822 -0.99982017 1.7871234e-05
0.34563175 -0.035472151 0.17117877 -0.04076289 -0.0014383795 -0.9991678 0.0007441999
0.35460931 -0.038669854 0.17101198 -0.085446388 -0.000136492 -0.99634272 0.0017842902
0.36231706 -0.037962731 0.17082834 -0.14865901 -0.0018433915 -0.98888677 0.0030304794
0.056948263 -0.026484936 0.17019451 0.072424926 4.8878128e-06 -0.99737388 0
0.063387282 -0.025458883 0.17066209 0.072428703 5.9701197e-06 -0.99737358 0
0.0748064 -0.024059139 0.17149134 0.072432451 5.7911103e-07 -0.99737328 0
0.083406813 -0.024185613 0.17211589 0.07242588 -7.3819763e-08 -0.99737376 0
0.093063205 -0.025919722 0.17281714 0.072415575 -1.0617641e-06 -0.99737459 7.9178035e-06
0.10303488 -0.027653536 0.17354126 0.071339712 5.0326165e-05 -0.99745208 1.8366684e-07
0.11590729 -0.024822839 0.17447604 0.048108917 0.00066963956 -0.99884188 0.0002249532
0.12549326 -0.027536767 0.17511788 0.026069159 0.0016377062 -0.99965882 0.00028447318
0.13412723 -0.024604954 0.17510843 0.0068398984 0.00089613697 -0.99997622 0.00014019843
0.14511313 -0.027634105 0.17490432 -0.01063867 0.00014025935 -0.99994344 5.9536091e-05
0.16604513 -0.025564883 0.17451543 -0.018605635 3.3738213e-06 -0.99982691 0
0.17590287 -0.027204553 0.17433226 -0.018572606 4.5485672e-06 -0.9998275 0
0.1848046 -0.024764113 0.17416687 -0.018561903 2.2544869e-07 -0.99982774 0
0.19232874 -0.024272621 0.17402709 -0.018568372 4.1848569e-08 -0.99982762 6.9615126e-06
0.20357294 -0.027499638 0.17381817 -0.01857852 -2.9861997e-06 -0.99982744 1.3031189e-05
0.2151209 -0.023911165 0.17360361 -0.018604493 4.7513558e-06 -0.99982691 0
0.22207224 -0.025263585 0.17347448 -0.018598726 1.8068096e-06 -0.99982703 0
0.23487613 -0.025085589 0.17323658 -0.018619571 1.2591051e-06 -0.99982667 0
0.24439269 -0.026344175 0.17305976 -0.018591126 2.9162072e-06 -0.99982715 0
0.25419408 -0.026068691 0.17287765 -0.018539296 5.4514021e-06 -0.99982816 2.4572607e-06
0.26217058 -0.02314982 0.17272946 -0.018630803 5.4312177e-06 -0.99982643 5.6176299e-07
0.28744763 -0.026519705 0.17225981 -0.018584915 8.083493e-08 -0.99982727 5.3170907e-06
0.29633188 -0.025697276 0.17209476 -0.018651482 2.017104e-06 -0.99982607 0
0.30651677 -0.02500633 0.17190552 -0.01854712 -4.2701622e-06 -0.99982798 2.6264621e-05
0.31517428 -0.0266209 0.17174467 -0.018529877 -1.8425034e-06 -0.99982834 0
0.32632443 -0.024047201 0.1715375 -0.018584698 -4.1325716e-06 -0.99982733 4.9073839e-07
0.3371315 -0.022115264 0.17133671 -0.02032545 -0.00050974137 -0.99979329 1.5717324e-05
0.34480375 -0.027157959 0.17119418 -0.032430779 -0.0044165067 -0.99946421 0.00024029895
0.35436869 -0.02563181 0.17101645 -0.068806671 -0.012717774 -0.997549 0.0014988567
0.36430064 -0.021099372 0.17082345 -0.16363814 0.0097739343 -0.98647195 0.0027861204
0.056378983 -0.015235331 0.17015317 0.072431862 1.3579157e-06 -0.99737328 0
0.064821966 -0.012758332 0.17076628 0.072439395 -6.0562724e-07 -0.99737287 2.9126842e-05
0.077294141 -0.014927796 0.171672 0.072434567 -4.260075e-06 -0.99737316 1.0366452e-05
0.086112961 -0.01339053 0.17231241 0.07243035 3.534479e-06 -0.99737352 1.7128561e-06
0.096864589 -0.013339901 0.17309318 0.07221818 2.8441376e-05 -0.99738884 1.2257607e-05
0.10440458 -0.01566253 0.17364073 0.068696916 0.00033431005 -0.99763757 3.8151225e-05
0.11270896 -0.014524159 0.17424379 0.060215186 -0.00062533445 -0.99818522 0.00010465545
0.12455163 -0.015796181 0.17505458 0.02836396 0.00036643416 -0.99959761 0.00030611776
0.13299152 -0.014672634 0.17512953 0.01295244 0.0013734808 -0.99991518 0.00025007609
0.14453888 -0.017258119 0.17491502 -0.012344953 -0.00050114538 -0.99992365 6.0927439e-05
0.15432553 -0.014720799 0.17473316 -0.017327752 -8.6039799e-05 -0.9998498 3.14435e-07
0.1652492 -0.015355702 0.17453022 -0.018579062 1.0833617e-06 -0.99982738 0
0.17427079 -0.017189911 0.17436258 -0.018558757 4.3947728e-07 -0.9998278 3.1596753e-06
0.18395375 -0.016621828 0.17418268 -0.018594284 1.4428525e-07 -0.99982709 0
0.19346604 -0.013430983 0.17400596 -0.018604698 4.5639108e-06 -0.99982691 0
0.20511551 -0.016307911 0.1737895 -0.018619498 -8.4571815e-07 -0.99982667 0
0.2174354 -0.015228468 0.17356062 -0.018609127 -3.9654028e-06 -0.99982685 0
0.22370349 -0.013271388 0.17344415 -0.018613644 1.5285586e-06 -0.99982679 0
0.23529434 -0.015583879 0.1732288 -0.018516403 -4.9898546e-07 -0.99982864 3.4774548e-05
0.24319176 -0.015655214 0.17308208 -0.018563021 2.2934168e-07 -0.99982768 1.6226645e-06
0.25486368 -0.013958891 0.17286521 -0.01858042 -7.3140328e-08 -0.99982733 1.1952226e-05
0.26439562 -0.015000053 0.1726881 -0.018551493 -3.5390001e-06 -0.99982792 2.2241131e-05
0.27409646 -0.010174576 0.17250788 -0.018584779 1.5116933e-06 -0.99982727 7.9923518e-07
0.2832233 -0.014698173 0.17233831 -0.018575599 -1.8546184e-06 -0.99982744 0
0.2954354 -0.014711681 0.17211141 -0.018539125 5.2703081e-06 -0.99982816 2.5204485e-05
0.30567676 -0.014152475 0.17192113 -0.018581316 1.4721783e-06 -0.99982738 0
0.31651327 -0.014333989 0.17171979 -0.01857282 1.6343724e-06 -0.99982756 3.2401508e-06
0.32946166 -0.013573527 0.17147923 -0.018541768 5.270264e-06 -0.9998281 1.6190999e-05
0.33300325 -0.015390266 0.17141341 -0.018616157 -1.108252e-06 -0.99982673 0
0.34713966 -0.014950065 0.17115077 -0.045226183 -0.0033841338 -0.99897099 0.00038487595
0.35586882 -0.016895108 0.1709886 -0.092454374 -0.0091684703 -0.99567473 0.0020901291
0.36506206 -0.015382499 0.17044175 -0.16324767 0.0034278012 -0.98657912 0.0027622504
0.057135794 -0.0096743256 0.17020813 0.072427362 8.7700147e-07 -0.9973737 0
0.065724462 -0.003702194 0.17083183 0.07243365 -4.7530318e-07 -0.99737322 0
0.074618101 -0.0045520631 0.17147768 0.072436735 9.4778352e-07 -0.99737298 1.3233803e-05
0.08774817 -0.0047863782 0.17243116 0.072405957 2.2722938e-06 -0.99737519 0
0.094830751 -0.0046502994 0.1729455 0.072427504 -2.6210364e-08 -0.9973737 0
0.10360515 -0.0069476762 0.17358269 0.071569152 1.2038405e-05 -0.99743563 0
0.11580826 -0.0032515407 0.17446886 0.054235835 -0.0015468015 -0.99852693 0.00018694488
0.12716855 -0.0068181506 0.17514029 0.020732958 -0.0014718036 -0.99978399 0.00022650068
0.1380322 -0.0069043511 0.17503589 -0.0010267134 -0.0013588483 -0.99999857 0.00014396393
0.14312539 -0.0062307999 0.17494126 -0.011147301 -0.001069145 -0.9999373 3.9810744e-05
0.15297002 -0.0086532086 0.17475834 -0.017120756 -3.6771955e-06 -0.99985343 1.1905688e-05
0.16670203 -0.0045242915 0.17450322 -0.018607248 -3.0985914e-06 -0.99982691 0
