# .PCD v0.7 - Point Cloud Data file format
VERSION 0.7
FIELDS x y z normal_x normal_y normal_z curvature
SIZE 4 4 4 4 4 4 4
TYPE F F F F F F F
COUNT 1 1 1 1 1 1 1
WIDTH 579
HEIGHT 1
VIEWPOINT 0 0 0 1 0 0 0
POINTS 579
DATA ascii
-0.10450794 -0.17974438 -0.094555482 0.08823701 0.0098973522 0.99605036 0.078165106
-0.092665963 -0.17819563 -0.095388986 -0.013846493 -0.0088597899 0.99986482 0.072316647
-0.082268372 -0.17725758 -0.097538419 0.083821155 0.0037507878 0.99647379 0.090295784
-0.073454134 -0.17104913 -0.090499647 0.10268596 -0.044038154 0.99373841 0.086252436
-0.052583218 -0.17284814 -0.098310433 0.30956626 0.074671097 0.94794142 0.17571943
-0.049353555 -0.17536458 -0.097931951 0.15868367 0.076387167 0.98437011 0.18400036
0.049262647 -0.17535493 -0.098347813 0.027947649 0.058556732 0.99789274 0.17028755
0.051744036 -0.17172687 -0.097852066 -0.072321795 0.093152225 0.99302173 0.17958677
0.069065712 -0.17063606 -0.090924487 -0.14047144 -0.0049260925 0.99007249 0.12330026
0.071486309 -0.1722154 -0.090902492 -0.098945163 0.016136268 0.9949621 0.11184121
0.083174951 -0.17055248 -0.092473447 0.013686808 0.035061087 0.99929148 0.076709665
0.099543482 -0.17975099 -0.097654767 -0.16351491 -0.004919528 0.98652858 0.077527322
0.11362599 -0.17974646 -0.095553696 -0.13149235 -0.0042919796 0.99130791 0.068588942
0.13542038 -0.17974311 -0.094000004 0.016185768 6.9398088e-06 0.99986899 0.096050605
0.14507863 -0.17677629 -0.092168108 -0.14035529 0.081112735 0.98677313 0.13992365
0.15271255 -0.17471743 -0.090349302 -0.19977462 0.033492614 0.97926927 0.14970551
-0.15311176 -0.16757181 -0.090277202 0.16970824 -0.12656789 0.97733301 0.15280075
-0.14644362 -0.16422184 -0.09072762 0.1217659 -0.1938359 0.9734478 0.14968792
-0.096089959 -0.16440715 -0.0950488 0.022282438 -0.022017701 0.99950927 0.070662782
-0.084340625 -0.16578345 -0.092418492 0.021673268 -0.029297182 0.99933571 0.075029224
-0.07277412 -0.16872053 -0.090951167 0.080420904 -0.018044459 0.99659765 0.088990599
-0.068025142 -0.16418308 -0.091014385 0.21078046 -0.044896957 0.97650176 0.11664724
-0.051289082 -0.16896909 -0.097951747 0.28729731 0.0010753536 0.95784086 0.18169399
-0.049933251 -0.16955806 -0.09778519 0.13661936 0.053345501 0.98918623 0.18913151
-0.0040461081 -0.16506995 -0.090725452 0.12189496 0.14423731 0.98200673 0.18215102
0.00047065224 -0.16377652 -0.090682708 0.075408556 0.22178143 0.97217625 0.15572585
0.0494003 -0.16554697 -0.098260291 0.10416534 0.10124325 0.98939347 0.18558551
0.053329553 -0.16557421 -0.09811011 -0.0076441569 -0.020674501 0.99975711 0.17758794
0.06941136 -0.16292071 -0.091031969 -0.17886768 0.13581832 0.97445351 0.1309969
0.070792437 -0.16581489 -0.090991646 -0.18672217 0.072609894 0.97972578 0.12424365
0.08556512 -0.16540407 -0.095227376 0.0046346504 -0.014020265 0.99989098 0.093311518
0.095625222 -0.16672713 -0.095388427 -0.094854578 -0.02104234 0.9952687 0.06812343
0.14798696 -0.16911046 -0.090880923 -0.10412534 -0.040811095 0.99372643 0.13984387
0.15269811 -0.16870494 -0.090329528 -0.20915033 -0.080704823 0.97454751 0.147089
-0.15382539 -0.15446618 -0.090147123 0.12445179 -0.076048478 0.98930711 0.11589526
-0.10234603 -0.15142435 -0.098342225 0.16690923 0.16221048 0.9725374 0.080772959
-0.095427863 -0.15760082 -0.094749749 0.041119002 -0.030867092 0.99867737 0.069495253
-0.087092347 -0.15447082 -0.098247185 -0.038054574 -0.042691562 0.99836326 0.079519004
-0.072058171 -0.15513469 -0.094189405 0.24986775 -0.069722645 0.96576649 0.11258682
-0.064537026 -0.15657143 -0.094059944 0.23269586 -0.016148038 0.97241545 0.14384149
-0.053534403 -0.15658049 -0.095931686 0.26391146 -0.20893817 0.94164509 0.16961446
-0.044877656 -0.15613401 -0.094726995 -0.18293691 -0.090715364 0.97893047 0.17400226
-0.036397852 -0.15899031 -0.091304705 -0.49535325 0.078949511 0.86509663 0.13024831
-0.026116144 -0.15882942 -0.095773585 -0.31757841 0.087478288 0.9441883 0.14012328
-0.015279775 -0.15619412 -0.09520103 -0.015545714 0.014905713 0.99976802 0.13281813
-0.00049795583 -0.1588172 -0.097016074 0.058918729 0.078482576 0.99517286 0.11220445
0.003402048 -0.15756726 -0.092969291 -0.0987093 0.10031055 0.99004757 0.16526151
0.017004378 -0.15439254 -0.097373381 -0.0020028134 -0.031468865 0.99950278 0.14598988
0.02568008 -0.15802544 -0.095422223 0.23141448 0.032934569 0.97229761 0.13388386
0.03679882 -0.15891951 -0.093639955 0.40815187 0.14077754 0.90199429 0.14077461
0.04732234 -0.15709879 -0.096527621 0.14539526 0.12317515 0.98167616 0.15665708
0.054997306 -0.15644614 -0.094605006 -0.081456535 0.11522013 0.98999453 0.16085772
0.06581971 -0.15569338 -0.09649086 -0.21297719 0.029231859 0.97661978 0.13644797
0.074274547 -0.15328732 -0.098247185 -0.23721106 0.091306537 0.96715766 0.12194695
0.083469152 -0.1561839 -0.095594451 -0.061920226 -0.062769987 0.99610531 0.092166223
0.090276971 -0.15955214 -0.098247178 -0.037101787 0.010179966 0.99925965 0.0812039
0.10182929 -0.15512557 -0.096991405 -0.15477289 0.12408606 0.9801265 0.083841428
0.14955282 -0.15083259 -0.090632915 -0.10040388 -0.14025585 0.98501134 0.12981814
0.15347797 -0.15096349 -0.090175182 -0.15891175 -0.148192 0.97610766 0.13340768
-0.15273479 -0.14869308 -0.09025383 0.067698099 -0.066703983 0.99547356 0.14346984
-0.10822807 -0.14844084 -0.090469919 0.15169102 0.12088566 0.98100793 0.072783321
-0.090656087 -0.14582416 -0.097221971 -0.039995778 0.00037168773 0.99919981 0.078898154
-0.073677897 -0.14944285 -0.0928872 0.21057735 -0.08038111 0.97426695 0.11321627
-0.068361416 -0.14497299 -0.091281995 0.26613143 -0.14133488 0.95351899 0.11865806
-0.052187361 -0.14609383 -0.098021433 0.14071491 -0.1310384 0.98134005 0.17266273
-0.044488031 -0.14944367 -0.093309678 -0.29467148 -0.0057424307 0.95558137 0.17376955
-0.035253532 -0.14944528 -0.094147883 -0.5228923 -0.053046867 0.85074657 0.13685019
-0.02647122 -0.1494451 -0.094056956 -0.29379576 -0.17549935 0.93961906 0.15010554
-0.01633035 -0.14945015 -0.096681029 -0.068292849 -0.25185162 0.96535313 0.1287763
-0.0049056038 -0.14944756 -0.095330633 0.13696128 -0.018492499 0.99040377 0.13145144
0.0051030922 -0.14944339 -0.093162864 -0.11096704 -0.20717961 0.9719891 0.17100792
0.018890291 -0.14944309 -0.093001768 0.099965103 -0.34616873 0.93283129 0.15016355
0.023767279 -0.14955205 -0.095571943 0.19133148 -0.070827805 0.97896659 0.16030559
0.037519708 -0.14944923 -0.096211717 0.42515874 -0.079937503 0.90158194 0.14174668
0.044239737 -0.14731677 -0.099103555 0.36187446 -0.15005665 0.92007059 0.16163772
0.056757737 -0.14916702 -0.096141346 -0.14692555 0.032220114 0.98862273 0.17331563
0.067234002 -0.14899787 -0.094731286 -0.25878149 -0.097286217 0.96102422 0.13002892
0.07617864 -0.14944735 -0.095225401 -0.16145371 -0.055334941 0.98532772 0.12091238
0.085416272 -0.14944252 -0.09270931 0.016517945 -0.040822778 0.99902987 0.082722217
0.091014884 -0.14468247 -0.098028235 0.10858948 -0.048390605 0.99290818 0.092205577
0.11084316 -0.14547807 -0.095421851 -0.25180471 0.12976316 0.95903903 0.075500116
-0.12006563 -0.13304839 -0.091176741 0.21953374 0.033278566 0.97503716 0.10854813
-0.11285641 -0.13437632 -0.098737285 0.23908117 0.10847723 0.96492118 0.097125888
-0.10208195 -0.13693286 -0.098624632 -0.037586074 0.010884746 0.99923414 0.11151126
-0.097343668 -0.1346484 -0.095474504 -0.16232303 -0.1056601 0.98106426 0.096171528
-0.047045857 -0.13851835 -0.098588131 -0.3622559 -0.12929267 0.92306769 0.18232301
0.048943453 -0.13602431 -0.098289162 0.42581356 -0.062697351 0.90263605 0.21314569
0.053098109 -0.13076051 -0.097578503 -0.51501852 -0.12316444 0.8482843 0.19661948
0.095149778 -0.13213487 -0.09617997 0.17213041 -0.14024271 0.97504008 0.11101092
0.10966253 -0.13151172 -0.098786302 -0.31525406 0.068961754 0.94649833 0.15767609
0.11480417 -0.13715219 -0.096175432 -0.27526286 0.037863299 0.96062309 0.11461781
-0.12006563 -0.1295661 -0.094695777 0.20584007 0.011191888 0.97852165 0.10232367
-0.11907323 -0.12326054 -0.098661475 0.18838449 0.065319456 0.97992069 0.10740145
-0.10777757 -0.12957571 -0.098815262 -0.075271867 0.0057472405 0.99714643 0.14032622
-0.095999271 -0.12345717 -0.096485473 -0.23398355 -0.082350954 0.9687466 0.091221668
-0.052765436 -0.1215357 -0.098045975 0.75720131 -0.041774336 0.65184438 0.19344892
0.053834561 -0.12834451 -0.097790092 -0.80219787 -0.037283923 0.59589303 0.19444926
0.096444376 -0.12450312 -0.096889138 0.25006124 -0.013975976 0.96812916 0.12584865
0.10197471 -0.12712696 -0.098903984 0.18064915 -0.10143438 0.97830307 0.15131991
0.11603259 -0.12617272 -0.098689951 -0.22343238 0.038560849 0.97395635 0.14890201
0.12006567 -0.12539296 -0.096894622 -0.24568892 -0.030920163 0.96885544 0.11442339
0.15264785 -0.12733367 -0.090187758 -0.091334857 0.049491007 0.99458963 0.16681197
-0.11566805 -0.11231238 -0.098707229 0.22448881 -0.055701163 0.97288346 0.12538595
-0.10627323 -0.11353361 -0.098840244 -0.18515654 -0.003774984 0.98270178 0.11373822
-0.095285892 -0.11628126 -0.092560038 -0.34775916 -0.054339584 0.93600786 0.10899759
-0.049735922 -0.11542955 -0.097484648 -0.75266641 4.4511951e-05 0.65840214 0.22973579
0.097399145 -0.11855699 -0.095254317 0.24696046 0.029231783 0.96858454 0.13113238
0.10144185 -0.11824014 -0.098913237 0.16621055 -0.025113324 0.9857704 0.14871778
0.11513996 -0.11430231 -0.098705888 -0.38658375 0.092994019 0.91755378 0.14754547
0.14807358 -0.11694007 -0.090684637 -0.15012306 0.09221635 0.9843573 0.16269836
0.15282217 -0.11675853 -0.090129673 -0.083203577 0.12261429 0.98896044 0.15850912
-0.15077096 -0.10090654 -0.090312541 -0.042443283 0.0759532 0.99620765 0.14988501
-0.14788345 -0.10174245 -0.090652585 0.087447748 0.11786854 0.98917139 0.1638525
-0.12006563 -0.10378741 -0.094091356 0.25428003 0.0069575459 0.96710563 0.12887642
-0.11790673 -0.10415792 -0.098714724 0.29526934 -0.053198528 0.95393181 0.10848168
-0.095387615 -0.10389861 -0.095160663 -0.27749968 0.05041359 0.95940214 0.091555327
-0.053593285 -0.10392527 -0.098430827 0.68305105 0.13056757 0.7186051 0.20486645
0.048067413 -0.10261624 -0.098802425 0.75579846 0.076958768 0.65026599 0.171987
0.052105285 -0.10382576 -0.097677052 -0.92285299 0.1454149 -0.35664678 0.24633005
0.095423311 -0.10006509 -0.091067784 0.23247831 0.013220386 0.97251177 0.096417658
0.10244662 -0.10968021 -0.098899029 0.22498442 0.058969643 0.97257626 0.15617679
0.11218905 -0.10434341 -0.098751307 -0.31799081 0.055932581 0.94644254 0.13744402
0.12006567 -0.10411917 -0.091931105 -0.17965345 0.12201688 0.97613347 0.13269079
0.14850333 -0.10923197 -0.090606958 0.021172326 0.059283908 0.99801666 0.16605364
0.15236463 -0.10179047 -0.090129673 0.23524545 0.058934789 0.97014755 0.16829807
-0.15080191 -0.090624653 -0.090272248 -0.013982962 0.078870334 0.99678677 0.1561731
-0.12006563 -0.094324924 -0.095456988 0.2100292 0.094253339 0.97314137 0.10498884
-0.11445429 -0.09399759 -0.098755181 0.14824736 0.06140247 0.98704231 0.11208986
-0.095670901 -0.091486461 -0.09437114 -0.22820644 0.048683435 0.97239488 0.087766007
-0.053005591 -0.096982114 -0.0981194 0.68851084 0.0020160938 0.72522324 0.21179762
-0.047554683 -0.091485709 -0.097750746 -0.41304821 0.10345955 0.90481341 0.21836092
0.053760342 -0.098839357 -0.097582921 -0.58906555 0.044402752 0.80686438 0.21516575
0.095462814 -0.094825789 -0.097303584 0.28633782 -0.11524303 0.95117277 0.082087219
0.10535754 -0.095114991 -0.098856553 0.141017 -0.0019343274 0.99000531 0.12701926
0.11478683 -0.094468661 -0.098746814 -0.27491063 0.076293036 0.95843804 0.112804
0.12006567 -0.091773793 -0.097143792 -0.17133731 0.12398731 0.9773795 0.094972052
0.1488436 -0.095562078 -0.09051846 0.0066112131 0.10318593 0.99464017 0.15011622
0.15160097 -0.093165271 -0.090188034 0.085216038 0.081652775 0.99301112 0.14861213
-0.14558235 -0.085698664 -0.090128131 0.082615599 0.012974081 0.99649704 0.16611783
-0.12006563 -0.089531958 -0.091379151 0.2566815 0.016326739 0.96635807 0.09793257
-0.1145876 -0.082319424 -0.098778509 0.21439244 0.092829295 0.97232634 0.12080704
-0.10237917 -0.085260943 -0.098903187 -0.24421467 0.071872383 0.96705401 0.10692056
-0.095877357 -0.083311372 -0.094224244 -0.20845054 0.10134282 0.97276819 0.075941883
-0.050691023 -0.086818203 -0.097190499 0.10139004 -0.076226987 0.99192214 0.22777446
-0.045840658 -0.08682961 -0.098836273 -0.70277125 -0.073629446 0.70759541 0.18493128
0.095556453 -0.083970323 -0.093374968 0.21024281 0.064108245 0.97554505 0.094783552
0.11591914 -0.085420325 -0.098766856 -0.19171262 -0.00045963161 0.98145092 0.12061046
0.12006567 -0.084074549 -0.090133496 -0.25377014 0.072467603 0.96454614 0.1006787
0.14647913 -0.083267555 -0.09075059 -0.14481853 -0.0066505712 0.98943591 0.1540633
0.15059578 -0.085515298 -0.090278074 -0.030150883 -0.024447111 0.99924636 0.14764592
-0.1473588 -0.073675506 -0.090613678 0.04697635 -0.059333939 0.99713224 0.1435567
-0.12006563 -0.073482424 -0.096773848 0.20932949 0.013037217 0.97775823 0.094245754
-0.11155573 -0.071782939 -0.098804414 0.22315751 0.017195569 0.97463071 0.1234545
-0.099347271 -0.070596047 -0.098951265 -0.26365203 -0.0096492693 0.96456957 0.10128383
-0.045814715 -0.075191073 -0.098784924 -0.86471951 0.036953539 0.50089383 0.17090017
0.049441796 -0.070162505 -0.097656325 0.57932287 -0.0062640947 0.81507409 0.18970296
0.055209987 -0.072810128 -0.098178089 -0.7250728 0.0045453268 0.68865722 0.19042431
0.095938481 -0.075241007 -0.094566993 0.28698665 -0.0032648752 0.95792902 0.100609
0.10402358 -0.077605098 -0.098879129 0.16474931 -0.010418898 0.98628044 0.13200268
0.11772341 -0.077767208 -0.098788492 -0.23407365 0.049493242 0.97095823 0.10848535
0.12006567 -0.078965612 -0.092444211 -0.19424236 -0.03470109 0.98033965 0.096248537
0.14806473 -0.071241885 -0.090522587 -0.12969811 0.078556851 0.98843676 0.1586964
0.152399 -0.0747834 -0.090029284 -0.14128958 0.013574197 0.9898752 0.14132267
-0.14559783 -0.067901239 -0.090203777 0.028556524 -0.061082374 0.99772418 0.14205232
-0.12006563 -0.068029597 -0.091259539 0.23483479 -0.062574036 0.9700191 0.089653663
-0.11592471 -0.067520015 -0.098816909 0.2611911 -0.094519034 0.96064836 0.11140525
-0.098086677 -0.06587626 -0.098971069 -0.33975312 0.0047934563 0.94050241 0.095934838
-0.045289949 -0.063956484 -0.099147424 -0.83559954 -0.02369035 0.54882807 0.19567974
0.047606256 -0.065334179 -0.09894973 0.67597848 -0.057275124 0.73469222 0.18668577
0.053330649 -0.063228071 -0.097228192 -0.39369041 -0.10991578 0.91264796 0.24333714
0.097867481 -0.064862743 -0.097355366 0.24590328 0.10326164 0.96377832 0.10515458
0.10855778 -0.066801161 -0.098817952 0.15752693 -0.0084615117 0.98747844 0.13661541
0.11589602 -0.06676238 -0.098819025 -0.1874765 -0.036496576 0.98159081 0.13322508
0.12006567 -0.062612817 -0.095722489 -0.15400717 -0.021006186 0.98784643 0.10653126
0.14676663 -0.065169841 -0.090486109 -0.041651804 0.0012878843 0.99913132 0.15829581
-0.14560643 -0.055068273 -0.090235107 0.055524912 0.033959854 0.99787962 0.12340603
-0.11338949 -0.052775279 -0.098857805 0.18882009 -0.021022016 0.98178673 0.13999316
-0.10734627 -0.058772147 -0.098840237 0.077009946 -0.055788327 0.99546826 0.13677712
-0.096051238 -0.057884168 -0.094332553 -0.24803717 -0.07368014 0.96594447 0.097124867
-0.05326381 -0.055324182 -0.097785771 0.61514258 0.069514342 0.78534532 0.18275052
0.047056973 -0.051759794 -0.099317595 0.64772314 0.13874021 0.74913669 0.17784031
0.051210202 -0.058925014 -0.097249173 0.45455813 0.081800446 0.88695294 0.21880114
0.097673386 -0.055882432 -0.097287461 0.29129064 -0.0050356123 0.95662135 0.10689417
0.10474562 -0.056771666 -0.098883949 0.17650023 0.048600115 0.98310006 0.13057896
0.11838739 -0.056407474 -0.098848298 -0.20965804 0.014462241 0.97766787 0.11238082
0.12006567 -0.052318245 -0.095630586 -0.18736047 0.040401064 0.98146003 0.10263979
0.1461371 -0.050233249 -0.090672635 -0.15445489 0.019358397 0.98781013 0.13579501
-0.12006563 -0.044288039 -0.091561489 0.22259414 -0.020729883 0.97469074 0.086599313
-0.11118594 -0.041510683 -0.098889016 0.16680905 0.046046223 0.98491347 0.12115835
-0.10472689 -0.047863021 -0.098891057 -0.11318999 -0.060285799 0.99174273 0.13361743
-0.097120464 -0.043001954 -0.096509971 -0.24535535 0.012098654 0.96935773 0.10571551
-0.052057922 -0.043779276 -0.097693995 0.84649658 0.027171804 0.53170037 0.19327763
-0.047885727 -0.048125587 -0.097416714 0.99909323 0.031088902 0.029087948 0.17750491
0.04715994 -0.048005193 -0.099209264 0.76862824 0.012065726 0.63958186 0.16456138
0.056108214 -0.041534357 -0.098039232 -0.67681921 0.063252486 0.73342681 0.16595571
0.096221231 -0.0404597 -0.096602939 0.28301248 -0.010988796 0.95905328 0.10756191
0.10314893 -0.045647305 -0.098910928 0.23880528 0.019151088 0.97087866 0.14580408
0.11344447 -0.044419721 -0.098881163 -0.24902149 0.0014914942 0.96849686 0.1405507
0.12006567 -0.047955047 -0.096798077 -0.14806917 -0.04846723 0.98778862 0.10531548
0.14690171 -0.043670565 -0.090329371 -0.079967089 -0.086146742 0.99306792 0.17339621
0.15145904 -0.045644652 -0.090035021 0.044464458 -0.10269943 0.99371809 0.15443939
-0.14841333 -0.035592236 -0.090354674 0.058877282 0.14677292 0.98741645 0.16627617
-0.12006564 -0.03756801 -0.090049908 0.20822327 0.1108343 0.97178131 0.093892299
-0.11883264 -0.035727356 -0.098906189 0.25531834 -0.047219448 0.96570337 0.10110543
-0.10221238 -0.03563679 -0.098912105 -0.16684763 -0.012884032 0.98589844 0.12656653
-0.095940471 -0.038319342 -0.094463848 -0.27636644 -0.023123965 0.96077406 0.09375257
-0.047237143 -0.031224936 -0.097434655 -0.87125903 -0.097849339 0.48097104 0.18735479
0.046724632 -0.033747345 -0.099479064 0.70227826 -0.092617013 0.70585227 0.17139162
0.052522101 -0.032738034 -0.09716773 -0.75759917 -0.069682471 0.64898998 0.20011052
0.1047012 -0.035857312 -0.098906919 0.1897936 -0.031650599 0.98131371 0.12761378
0.11370804 -0.032063551 -0.098915756 -0.18314244 -0.039212182 0.9823041 0.12980665
0.14724062 -0.035137989 -0.090489954 0.040183906 0.046871964 0.99809235 0.16442797
-0.1465202 -0.027425069 -0.090546519 0.17612185 -0.0066785091 0.98434567 0.14948884
-0.12006563 -0.02759259 -0.098488405 0.21002713 -0.0036162639 0.97768891 0.089498356
-0.11830506 -0.020067755 -0.098949909 0.19727319 0.051830992 0.9789775 0.10948496
-0.10367282 -0.024221657 -0.098936372 -0.18828639 0.025516173 0.98178267 0.14134476
-0.099542961 -0.025103351 -0.098954119 -0.25300702 -0.0018430195 0.96746266 0.12235116
-0.053624462 -0.02813768 -0.097799093 0.78791231 -0.021633258 0.61540735 0.18200679
-0.04524041 -0.028201409 -0.098964892 -0.7589218 -0.094753124 0.64425117 0.18496659
0.046475798 -0.022234313 -0.0996501 0.7764045 -0.050499756 0.6282084 0.16622426
0.097660631 -0.02547485 -0.098843753 0.33926731 -0.067712158 0.93824983 0.10975245
0.1031092 -0.02293225 -0.098939903 0.23810159 -0.043632016 0.97025973 0.13287005
0.11447188 -0.02880072 -0.098924972 -0.27656084 -0.17314918 0.94526905 0.11892194
0.12006567 -0.022104127 -0.093303479 -0.22606783 -0.019470012 0.97391695 0.11644807
0.14750181 -0.026117453 -0.090427272 -0.0023211751 -0.089391477 0.99599391 0.1469769
0.15027837 -0.020618871 -0.090083539 0.0088040065 -0.12611616 0.99197644 0.11354018
-0.12006563 -0.014715852 -0.092618749 0.16250783 -0.042889901 0.98577464 0.10843578
-0.10475229 -0.016029134 -0.098959416 -0.209526 0.021213876 0.97757292 0.14151672
-0.097749621 -0.017876845 -0.094643384 -0.31825143 -0.033806928 0.94740337 0.12768698
-0.054053001 -0.013094788 -0.097859174 0.83364189 -0.097778425 0.54358119 0.21630453
0.048491985 -0.015792545 -0.097909927 -0.92490715 0.030907169 -0.37893471 0.16714852
0.05010093 -0.013336174 -0.09717565 -0.90647149 0.11871252 -0.40523678 0.22667298
0.096128076 -0.015949909 -0.096189439 0.30409867 -0.031417772 0.95212227 0.097771563
0.11227934 -0.010761023 -0.098975137 -0.18241999 0.08300218 0.97971094 0.16464044
0.12006567 -0.013928617 -0.097714387 -0.23144348 0.064079657 0.97073561 0.14676654
0.14627214 -0.013961471 -0.090527445 -0.076821268 -0.023666017 0.99676394 0.13680251
-0.14569788 -0.0069160461 -0.090569317 0.14374414 -0.035187859 0.98898911 0.11777389
-0.11546504 -0.0057200561 -0.098989643 0.28681815 0.09333948 0.95342696 0.14015195
-0.10516444 -0.0020925233 -0.098998442 -0.1857357 0.044108853 0.98160917 0.15410343
-0.098231971 -0.00011713896 -0.099003054 -0.39582881 0.060468189 0.91633135 0.12110712
-0.053042855 -0.0040066321 -0.097769789 0.88953048 0.075891465 0.45052865 0.15577947
-0.044337969 -0.0082298722 -0.099779248 -0.87438166 -0.059948266 0.4815214 0.17810455
0.046885967 -0.0051557356 -0.099234313 0.73360944 -0.029306062 0.6789391 0.19658293
0.09709312 -0.0044182171 -0.096211202 0.28114304 0.043890476 0.95866174 0.099537611
0.11637445 -0.0056870058 -0.098989859 -0.30942851 0.0024450975 0.95091957 0.14597854
-0.14948373 0.0058122328 -0.090081967 0.089287743 0.030608198 0.99553549 0.13056691
-0.12006564 0.0058070445 -0.096988916 0.19629367 0.006670183 0.98052245 0.10580232
-0.11744001 0.0081541631 -0.099007338 0.21241279 0.057859771 0.9754656 0.11686324
-0.10391502 0.0055125481 -0.099007145 -0.29202166 0.026967101 0.95603144 0.12743425
-0.096273631 0.00186026 -0.090407424 -0.3607899 0.048502829 0.93138504 0.11170775
-0.055033274 0.00080957077 -0.098793201 0.82407081 -0.015202394 0.56628287 0.16771339
-0.046194993 0.0019886065 -0.097989187 -0.78121275 0.032183435 0.62343478 0.18969566
0.048572335 0.005073417 -0.097713314 0.54303914 -0.051642779 0.83811784 0.1959468
0.055137858 0.0051219151 -0.097823083 -0.62632889 -0.05877341 0.77734023 0.18673956
0.097481489 0.006886614 -0.096099131 0.28522649 0.10097732 0.95312607 0.099159196
0.10509004 0.0041719875 -0.099007338 0.16158384 0.027200755 0.98648405 0.12036776
0.1192486 0.0060936869 -0.099007331 -0.18108164 0.050277136 0.98218215 0.11527225
0.12006567 0.0034796274 -0.096697263 -0.14769584 0.13 0.98045188 0.10382376
-0.14754553 0.013726551 -0.090277821 0.13611363 -0.013058085 0.99060714 0.11969236
-0.12006563 0.012301622 -0.096084952 0.24467149 0.042470597 0.96867549 0.09737879
-0.11550396 0.015199427 -0.099007338 0.17500283 -0.059233773 0.98278451 0.14492151
-0.10454888 0.013128276 -0.099007338 -0.19137527 -0.076712094 0.97851455 0.14245038
-0.096273631 0.010316376 -0.098398149 -0.34666696 -0.019394666 0.93778783 0.09718246
-0.045419086 0.018830288 -0.098523751 -0.81069285 0.065919258 0.5817489 0.16086394
0.048069902 0.017997457 -0.09804678 0.85980535 0.06733802 0.50616246 0.20651066
0.096273668 0.017502204 -0.093244746 0.22939689 -0.043572947 0.97235715 0.093625441
0.10759678 0.01824668 -0.099007338 0.0038135608 -0.0043956102 0.99998307 0.1392699
0.11433915 0.017957876 -0.099007338 -0.28241345 0.00078754226 0.95929241 0.12848429
0.12006567 0.011106567 -0.095704436 -0.17014958 0.039363533 0.98463172 0.10599187
0.14648493 0.013867113 -0.090401493 -0.29671752 -0.12210424 0.94712687 0.14174964
-0.14726081 0.026509374 -0.090078384 0.0065088156 -0.068794534 0.99760962 0.11714031
-0.12006563 0.024775198 -0.096965075 0.17925929 -0.064541973 0.98168248 0.12516212
-0.11278287 0.023311473 -0.099007338 0.27568409 -0.12756146 0.95274669 0.13888858
-0.096273631 0.028045503 -0.097304508 -0.43348822 -0.084976934 0.89714378 0.08917287
-0.05267204 0.025197202 -0.097291052 0.67905742 -0.26764381 0.68355525 0.21903752
-0.049294278 0.024259893 -0.096696086 -0.19886351 -0.27915373 0.93942887 0.22985463
0.047220901 0.02527402 -0.098924264 0.75653219 -0.074982375 0.64964348 0.17908901
0.053027153 0.025613505 -0.097037748 -0.8409673 0.088480905 0.53380263 0.18973973
0.096273668 0.029293261 -0.095353052 0.26398748 0.0051494576 0.96451241 0.097400397
0.1086943 0.024102332 -0.099007338 -0.093865104 -0.060547743 0.99374211 0.16556503
0.12006567 0.027331298 -0.095212311 -0.18157731 -0.091157444 0.97914249 0.12291332
0.14846928 0.022852819 -0.090125933 -0.005084726 0.065248668 0.99785614 0.1114478
-0.12006563 0.036940254 -0.094496429 0.23078668 -0.071496405 0.97037405 0.14450081
-0.11108987 0.036090139 -0.099007338 0.18087728 0.02919033 0.98307246 0.16210473
-0.10482146 0.034235723 -0.099007338 -0.26934603 -0.057162359 0.96134543 0.1681409
-0.096273631 0.033848509 -0.091308698 -0.28439143 0.019781351 0.9585042 0.13069588
-0.0532583 0.030950183 -0.098206833 0.8905707 -0.15779936 0.42659479 0.22319475
-0.047480647 0.035856865 -0.097032249 -0.72224611 -0.014002724 0.69149441 0.2192883
0.047401547 0.034859676 -0.098492421 0.88977033 -0.016021438 0.45612732 0.1750177
0.053384833 0.034383696 -0.097387567 -0.83449292 -0.088721797 0.54382902 0.20644073
0.096273676 0.038353536 -0.094741464 0.32524776 0.055043235 0.94402546 0.14796841
0.10556665 0.034033086 -0.099007338 0.11002044 -0.078448921 0.99082857 0.1517112
0.11889092 0.033275675 -0.099007338 -0.28569782 -0.11151727 0.95180911 0.1289667
-0.12006563 0.046025835 -0.09535601 0.25824389 0.12962002 0.95734465 0.12677665
-0.10464755 0.046737973 -0.099007338 -0.17372738 0.099047504 0.97980016 0.15831651
-0.097309627 0.044391353 -0.09563943 -0.36191788 0.097236827 0.92712486 0.10059646
0.047467493 0.041940838 -0.098393828 0.82129049 0.065339014 0.56675637 0.20069198
0.05836045 0.041345052 -0.099926658 -0.70236051 0.19454995 0.68471897 0.17707838
0.096273668 0.04504998 -0.094324693 0.11445421 0.1135885 0.98691326 0.12537508
0.10762193 0.044965122 -0.099007338 0.028265873 0.016593197 0.99946272 0.1571638
0.11271472 0.043763734 -0.099007338 -0.2802999 -0.0041464032 0.95990348 0.15359472
0.14824283 0.046068911 -0.090038873 0.068455525 -0.01672841 0.99751395 0.11348554
-0.12006563 0.055740073 -0.091506988 0.24627115 0.067522109 0.96684605 0.11301361
-0.11600734 0.05438184 -0.099007338 0.28803867 -0.024125243 0.95731485 0.12222702
-0.105305 0.053358197 -0.099007338 -0.086909063 -0.03936068 0.99543834 0.14663804
-0.097529091 0.055473447 -0.094438799 -0.23469113 -0.014969292 0.97195476 0.11338066
-0.053260844 0.055808648 -0.097632252 0.069133818 0.25856319 0.96351731 0.23899372
-0.047668818 0.056017485 -0.097555131 -0.57920361 0.075953335 0.81163681 0.20220459
0.046355825 0.055093188 -0.099503256 0.82773221 0.083231412 0.55491614 0.21639767
0.052266944 0.050523426 -0.096363939 -0.75052476 0.14858173 0.64392245 0.22903889
0.10565695 0.056535766 -0.099007338 -0.015043437 -0.0023954399 0.99988395 0.1487045
0.11622792 0.053068362 -0.099007338 -0.40236434 0.018860944 0.91528535 0.11606476
0.12006567 0.054310761 -0.094731167 -0.2153662 0.018307833 0.97636169 0.11789511
0.14707413 0.058287553 -0.090115562 0.097644247 0.045024343 0.99420244 0.13308541
-0.12006563 0.061776854 -0.097802855 0.27449501 -0.052249517 0.96016794 0.10051858
-0.11497708 0.06465169 -0.098992303 0.27464914 -0.072810568 0.95878381 0.1186915
-0.10636818 0.063935339 -0.095638007 -0.1437162 -0.061739776 0.9876911 0.1267173
-0.098552234 0.061833177 -0.096739024 -0.019627953 -0.022731608 0.99954891 0.12948182
-0.07025373 0.068978347 -0.097127736 0.4217248 0.27237275 0.86484754 0.15708928
-0.065643854 0.065519921 -0.095983669 0.45148686 0.3815589 0.80658072 0.19751537
-0.054235023 0.062621802 -0.09496548 -0.046981931 0.18905346 0.98084223 0.22771004
-0.037702084 0.062558703 -0.099937975 -0.63693208 0.10576574 0.76363027 0.11967082
0.037998959 0.067223236 -0.099730968 0.6542151 0.15242058 0.74079049 0.15467525
0.046455145 0.063911535 -0.09707725 0.69968283 0.26921427 0.66179127 0.20996284
0.055633865 0.066261932 -0.095018715 -0.25800937 0.047713503 0.9649635 0.22712573
0.063337266 0.063529827 -0.098351166 -0.5016765 0.19554432 0.8426643 0.18307091
0.077091701 0.065004855 -0.099056602 -0.17527404 0.23685242 0.95560443 0.18096057
0.09828686 0.063294522 -0.098764375 -0.017084263 0.017877702 0.99969417 0.13809571
0.10520302 0.064297043 -0.097950317 0.010597527 -0.09641768 0.99528456 0.14059094
0.11317391 0.064135931 -0.096953698 -0.24596868 -0.025240647 0.96894902 0.13092864
-0.11803074 0.075445749 -0.096452042 0.19433364 -0.018304115 0.98076469 0.095155895
-0.096703306 0.074678048 -0.097480796 -0.020115621 -0.0098328963 0.9997493 0.12738276
-0.065299779 0.077293187 -0.095996477 0.26846731 0.14703637 0.9520008 0.21662889
-0.055618979 0.071772717 -0.095123723 0.0092315013 -0.013159797 0.99987078 0.23845492
-0.041910831 0.076495066 -0.096838042 -0.51082826 0.11996774 0.85127091 0.15421528
0.038485441 0.078388907 -0.099337295 0.60131931 0.096523546 0.7931571 0.16554968
0.047054306 0.074468046 -0.095860556 0.34839392 0.074437849 0.93438786 0.24020176
0.063583784 0.074206308 -0.095325351 -0.44449246 0.14077181 0.88465238 0.18019785
0.07085178 0.071891919 -0.096517392 -0.37007225 0.14652197 0.9173755 0.18703192
0.095136225 0.073580965 -0.098773174 -0.1011755 -0.049205381 0.99365097 0.14039499
0.10519274 0.075303614 -0.098831967 -0.054371525 -0.031993948 0.99800801 0.1204728
0.11512266 0.073818028 -0.098890305 -0.25078958 -0.02303176 0.96776766 0.10508782
-0.11078544 0.085273355 -0.098716751 0.03958904 0.030553188 0.99874884 0.11698366
-0.10835997 0.085015416 -0.098710209 -0.0074203536 0.039220512 0.99920297 0.12153145
-0.095196292 0.085803792 -0.096718788 0.015171422 0.079766318 0.99669808 0.12687124
-0.072645001 0.08911442 -0.098008424 0.31160957 0.023651872 0.94991577 0.18401586
-0.059442803 0.087031104 -0.095065199 0.026072985 -0.1055095 0.99407643 0.20981427
-0.044729546 0.087321617 -0.096180156 -0.48940003 -0.054969143 0.87032527 0.20109841
-0.038696919 0.086322844 -0.097891763 -0.57376426 -0.020093556 0.81877398 0.16135235
0.038508497 0.083592668 -0.099372685 0.6044305 -0.045733549 0.79534417 0.14468722
0.05240145 0.089644834 -0.095274344 0.087607346 -0.050391864 0.99487972 0.22394404
0.072810918 0.084878981 -0.097252488 -0.3730253 0.019079385 0.92762494 0.17899808
0.09496218 0.086429276 -0.095318444 -0.10503951 -0.013482438 0.99437666 0.11877957
0.11563372 0.08597111 -0.095355146 -0.16937125 0.021018932 0.98532814 0.093615629
-0.12151629 0.097324342 -0.09539631 0.22205228 0.055822141 0.97343546 0.079459094
-0.11377123 0.096061602 -0.09570656 0.19614959 0.053738661 0.97910035 0.093864068
-0.10513112 0.09219683 -0.096341468 0.011134536 -0.006619913 0.99991608 0.11391283
-0.095530629 0.094438463 -0.095579542 0.013679392 0.0075213783 0.99987817 0.12513556
-0.075404912 0.099389255 -0.099077523 0.25066537 0.025120683 0.96774787 0.19553551
-0.052947104 0.09694431 -0.095086515 -0.025340842 0.24935967 0.96807933 0.1980339
-0.048074108 0.090162024 -0.095439732 -0.30136228 -0.0016208522 0.95350838 0.18922234
-0.039538071 0.090595074 -0.097639203 -0.54821151 0.036995132 0.83552104 0.18055001
0.039535042 0.092293173 -0.098370135 0.62659818 -0.049132604 0.77779222 0.14187258
0.046747167 0.09509436 -0.096149243 0.39762715 -0.050211489 0.91617221 0.21581721
0.051621303 0.095507726 -0.09533634 0.14726318 0.065706551 0.98691249 0.22156715
0.066707924 0.090937927 -0.095676154 -0.32315379 -0.001247503 0.94634563 0.18885192
0.096175328 0.096220762 -0.096308589 0.025860822 -0.035350647 0.99904025 0.10624796
0.10518272 0.095021829 -0.096640669 -0.1438721 0.053302426 0.98815966 0.11223575
0.11519562 0.096024573 -0.095835924 -0.16170688 0.058180317 0.98512232 0.098166108
0.12471303 0.095625177 -0.094433188 -0.24338266 0.028575195 0.9695093 0.070663847
-0.12222181 0.10541338 -0.093544461 0.23068851 -0.009139712 0.97298473 0.070599772
-0.11531512 0.10272168 -0.093613654 0.19466643 0.014430398 0.98076338 0.079474993
-0.10364994 0.10417039 -0.098423421 0.11012454 0.043457866 0.99296725 0.10344634
-0.096313417 0.10166755 -0.095410772 0.050313585 -0.016862296 0.99859113 0.12047918
-0.0722434 0.10309739 -0.097789556 0.24259652 -0.03595696 0.96946073 0.19758588
-0.064219885 0.10742517 -0.095652953 0.28401545 0.079885133 0.95548606 0.18973033
-0.052173257 0.10444278 -0.095149308 -0.0040191635 0.084365681 0.99642676 0.22521606
-0.04151075 0.10436081 -0.097059675 -0.47526312 -0.062574975 0.87761575 0.18302231
-0.03758521 0.10478482 -0.098369509 -0.5881508 0.023294816 0.80841577 0.15857664
0.045574732 0.10077147 -0.096418887 0.46599099 -0.22121474 0.85668916 0.19893129
0.055753995 0.10049541 -0.095055506 -0.19009124 0.0033048736 0.98176092 0.20904574
0.060680218 0.10468698 -0.094942451 -0.37156504 -0.0032556353 0.92840123 0.20873386
0.07439182 0.10124429 -0.097822666 -0.3058992 -0.016716942 0.95191705 0.16865751
0.094149671 0.10445254 -0.096221387 -0.062318034 0.022283658 0.99780756 0.11179621
0.10700736 0.10576283 -0.095309526 0.05551412 0.031152803 0.99797177 0.086024858
0.1138869 0.1031957 -0.094666392 -0.14392968 -0.031117335 0.98909855 0.087876253
0.12190346 0.10406554 -0.093459979 -0.22083761 0.018046184 0.97514361 0.073494375
-0.12157878 0.11277562 -0.096392296 0.24744657 -0.070747435 0.96631515 0.060663272
-0.11327303 0.11847269 -0.094971299 0.15772343 -0.078572124 0.98435247 0.082577698
-0.10756547 0.11402923 -0.097488202 -0.051400382 -0.11125926 0.99246132 0.090052411
-0.095303603 0.11572325 -0.096596032 0.12219211 -0.041403987 0.99164242 0.099874735
-0.06580542 0.11271107 -0.095789999 0.27586028 -0.081041679 0.95777524 0.18658544
-0.055434991 0.11848436 -0.094920307 0.032567695 -0.18459748 0.98227441 0.21860768
-0.041763596 0.11918986 -0.098132148 -0.45015803 -0.22804227 0.86333913 0.15200691
-0.039759737 0.1140152 -0.097648762 -0.40241081 -0.1613438 0.90112907 0.16343574
0.044280227 0.11221071 -0.096869051 0.5047543 -0.26299021 0.82222825 0.17689447
0.05137071 0.11991335 -0.095373869 0.26219448 -0.37185657 0.89049238 0.2066678
0.067537166 0.11340705 -0.09574715 -0.3188495 -0.14329502 0.93691063 0.18586688
0.10562824 0.11924956 -0.098197594 0.094022483 0.0091392482 0.99552816 0.084542729
0.11416922 0.11526524 -0.094078861 -0.10351826 -0.09224055 0.99034119 0.076571606
0.12219954 0.11413839 -0.094448678 -0.17434357 -0.08310058 0.98117208 0.073535636
-0.12191899 0.1241885 -0.091719754 0.20285363 -0.086820073 0.97535259 0.081679098
-0.11343493 0.12743665 -0.091524892 0.11658105 -0.11744789 0.98621237 0.1183625
-0.10675777 0.12656449 -0.095518351 -0.065326132 -0.13235439 0.98904741 0.11737099
-0.095058456 0.12298968 -0.09690772 0.036313992 -0.24127994 0.96977586 0.11501721
-0.066371635 0.12017841 -0.099521235 0.21390162 -0.17373444 0.96128166 0.17306858
-0.059313372 0.12628052 -0.095701389 0.20315045 -0.2184498 0.95446819 0.21310087
0.05525475 0.12568489 -0.09678822 0.33059409 -0.39544237 0.85693228 0.227846
0.064877905 0.12270353 -0.097142234 -0.3187671 -0.25960746 0.91158736 0.19355673
0.070363872 0.12116458 -0.098362371 -0.31528944 -0.14659561 0.93760455 0.16614622
0.090831973 0.12155495 -0.092741072 -0.050018825 -0.25162113 0.96653247 0.11511577
0.11064348 0.12181672 -0.095877022 -0.13653772 -0.17537834 0.97498715 0.088649198
-0.12140474 0.13795464 -0.09463957 0.094351746 0.035851948 0.99489313 0.12438627
-0.10585923 0.13427833 -0.095359728 -0.14737821 -0.12590869 0.98103344 0.13768354
-0.092021912 0.13171795 -0.09799286 -0.14538425 -0.33259735 0.9317953 0.13374852
-0.052750234 0.13560079 -0.095319659 0.42461413 -0.2702114 0.86411148 0.21292233
-0.049952876 0.13842443 -0.098726533 -0.77988297 -0.34892339 0.51964891 0.15087245
0.062743999 0.13654232 -0.094808899 0.097512327 -0.13469546 0.98607731 0.23359126
0.089780986 0.13815513 -0.096026808 -0.096487746 -0.34954211 0.93193913 0.14491315
0.090298876 0.13902739 -0.097884066 -0.0565794 -0.17132375 0.98358887 0.15858091
0.10500854 0.13157682 -0.096021354 0.036463384 -0.15375653 0.98743576 0.13568014
0.12166052 0.13219659 -0.095558681 -0.091958538 -0.06563288 0.99359745 0.13674024
-0.12231597 0.14532091 -0.092155494 -0.087840103 0.16764045 0.98192704 0.15784299
-0.11579123 0.14624037 -0.090390235 -0.15480891 0.12212283 0.9803673 0.22833185
-0.1040449 0.14424039 -0.096587412 -0.41630435 -0.19579601 0.88789338 0.14786944
-0.09436442 0.14714423 -0.095538415 -0.43792176 -0.37204343 0.81841803 0.11405088
-0.05771387 0.14987363 -0.098804101 0.97227007 -0.13430186 0.19145222 0.077760279
-0.049726769 0.14453569 -0.094556712 0.94639266 0.105368 -0.30534989 0.12382574
0.052182153 0.14057043 -0.096654624 0.6687839 -0.34618205 0.65794075 0.15567991
0.063056923 0.14899001 -0.097002804 -0.1754512 -0.40756482 0.89616275 0.15407144
0.10429741 0.14607643 -0.094854563 0.43908042 -0.073783949 0.89541286 0.19164683
0.11708217 0.14277825 -0.093591325 -0.095583439 0.016279323 0.99528831 0.17590396
-0.12253927 0.15114576 -0.095145464 0.090964437 0.12464112 0.98802328 0.14195251
-0.1129605 0.15247957 -0.094992556 -0.39239967 0.074455358 0.91677636 0.14383003
-0.055865645 0.15242818 -0.097404107 0.9940359 0.015798168 -0.10790286 0.10877258
-0.049903646 0.15485682 -0.09229394 -0.87491608 -0.1830458 0.44834819 0.13417965
0.054112419 0.15349662 -0.096127987 0.89475542 -0.16950157 0.41313675 0.10239257
0.060120169 0.15993088 -0.091606714 -0.98958141 -0.14337932 -0.013077545 0.055609789
0.11225438 0.15874726 -0.096670419 0.46011585 -0.023279343 0.88755369 0.11612035
0.12253933 0.15663843 -0.093525589 -0.025395408 0.26684925 0.96340364 0.12949473
-0.12092806 0.16184065 -0.096689254 -0.27639806 -0.085926943 0.95719421 0.064067245
-0.1199364 0.16785033 -0.09672562 -0.10558113 -0.022406358 0.99415821 0.080120608
0.05626063 0.16266578 -0.09102641 -0.96527821 -0.043233767 -0.25762138 0.03907292
0.10999797 0.16263466 -0.094726339 0.57755059 -0.048184454 0.81493169 0.10409303
0.11583795 0.16594762 -0.096714057 0.39189479 -0.10695808 0.91377163 0.11563595
0.12209201 0.16227703 -0.094735086 0.326024 -0.083286934 0.9416855 0.11407484
-0.15024701 0.17972699 -0.091941535 -0.15279046 -0.91196871 -0.38074684 0.17364439
-0.14656404 0.17986721 -0.092158034 -0.13886978 -0.8528226 -0.50339717 0.17070979
-0.13714847 0.17961885 -0.09165401 -0.16251495 -0.87243259 -0.46092337 0.22871056
0.10999797 0.174034 -0.095500797 0.39842939 0.010788395 0.91713554 0.080946118
0.11468729 0.17452727 -0.09672258 0.011031986 0.020034529 0.99973845 0.073126771
0.13763349 0.17884897 -0.09019006 0.49742857 -0.68656659 -0.53027469 0.23051202
0.16475484 0.17949238 -0.092174821 0.57499963 -0.79528451 -0.19208828 0.18605077
-0.1676838 0.18332583 -0.091531433 0.77598608 0.51850092 0.35916898 0.14541198
-0.14566091 0.18313931 -0.097853705 -0.044197842 -0.81959146 -0.57124108 0.18018119
-0.13379031 0.18308479 -0.092385255 -0.034288939 -0.68486691 -0.72786099 0.2349548
-0.12253928 0.1870739 -0.092991889 -0.082836121 0.17199957 0.98160797 0.17372707
-0.10999793 0.1818077 -0.093782596 0.11703889 -0.041406959 0.99226379 0.064357795
0.11247203 0.18538573 -0.096319586 0.24919218 -0.041144174 0.96757966 0.095377058
0.12058244 0.18101028 -0.096544571 -0.0068884059 0.17928919 0.98377228 0.16418196
0.13698584 0.18346238 -0.099541828 0.0050197602 -0.69229329 -0.7215988 0.1963156
0.14432839 0.18029138 -0.094678566 0.051264226 -0.88445592 -0.46379924 0.20636913
0.15677965 0.18222481 -0.098555788 0.24562041 -0.90500182 -0.3473359 0.17746408
-0.16987798 0.19854787 -0.093772724 0.99087006 0.13227542 0.026072441 0.18165848
-0.13153011 0.19428971 -0.092970178 0.071613833 -0.055794813 0.99587065 0.25638729
-0.12253928 0.19524254 -0.09293966 -0.38560432 0.051081482 0.92124915 0.19973525
-0.11035295 0.19341223 -0.095905446 -0.18505666 0.0083355037 0.9826926 0.09423615
0.10999797 0.19576263 -0.09192659 0.33146015 -0.11175837 0.93682671 0.12914176
0.11678943 0.19702433 -0.095718272 -0.68463397 -0.035663798 -0.72801399 0.13552102
0.12130782 0.19889566 -0.095621169 0.38713679 -0.13912731 0.91146517 0.18811131
0.13222919 0.19533771 -0.09617167 -0.2864373 -0.58531076 -0.75852805 0.24821424
0.16983539 0.19958204 -0.09191981 -0.98484546 -0.13368711 -0.11048612 0.1317465
0.17136759 0.19366632 -0.099419683 -0.99631339 -0.056171898 -0.064841241 0.15907544
-0.16640997 0.20902915 -0.095288485 0.92391986 -0.23102884 -0.30495536 0.12981436
-0.14523855 0.207885 -0.093299538 -0.29344261 -0.45923704 0.83844668 0.26598138
-0.1340037 0.20596221 -0.095645428 -0.17469917 -0.16897221 0.97001469 0.23572606
-0.11170344 0.20317149 -0.095401496 -0.3716498 -0.00076859578 0.92837274 0.10406579
-0.10999793 0.20661411 -0.09226729 -0.32604048 -0.1192278 0.93780726 0.11088917
-0.013134188 0.20820324 -0.091087013 -0.60359138 -0.45383632 -0.65552282 0.16279803
-0.002365462 0.20350012 -0.093886331 -0.14025897 -0.46173668 -0.87585765 0.15773804
0.0071441326 0.20595232 -0.095441245 -0.30324292 0.32540905 0.89562976 0.11339
0.013090104 0.2054801 -0.091295794 0.54040313 -0.39854008 -0.74103326 0.1295207
0.10999796 0.20069695 -0.091527671 0.25415346 -0.21809289 0.94225347 0.13262099
0.11636334 0.20081525 -0.09552262 -0.7235561 0.035884984 -0.68933219 0.12817326
0.12253933 0.20776948 -0.091749221 0.25870687 -0.3698512 0.89234567 0.19048744
0.14647818 0.20645717 -0.095510975 0.30975106 -0.61956412 0.72124517 0.24563687
0.15586874 0.20838654 -0.093443736 -0.93377697 0.18427415 -0.3067629 0.2120225
0.16323647 0.20729209 -0.093641475 -0.95314318 -0.06817539 -0.29473728 0.10927476
-0.16326353 0.21665782 -0.097797424 0.91812593 -0.16784512 -0.35898858 0.12190661
-0.15515102 0.21405751 -0.093365796 0.96891791 -0.1721472 -0.17766063 0.21369563
-0.13818981 0.21020311 -0.095684543 -0.14465006 -0.30564895 0.94109255 0.26081991
-0.12146357 0.21515955 -0.094781548 -0.49120337 -0.12202375 0.86245543 0.20202471
-0.11194743 0.21488318 -0.094796859 -0.47659108 -0.060754336 0.87702328 0.13789193
-0.10999793 0.21635847 -0.092559546 -0.42430338 -0.034263432 0.90487164 0.12806526
-0.012542696 0.21197937 -0.095378734 0.41583446 0.26164693 0.8709895 0.14736411
-0.0049845544 0.21447243 -0.098688602 0.11304092 0.11402482 0.98702592 0.13284788
0.0040841764 0.21530174 -0.098868065 -0.15627131 0.10813042 0.98177749 0.10620233
0.01487398 0.21240403 -0.090928398 -0.55435199 0.27151015 0.78675038 0.13743818
0.10999797 0.21916574 -0.094489366 0.49630183 -0.11878768 0.85998493 0.15964858
0.11356897 0.21592852 -0.094742708 0.66347373 -0.060484916 0.74575078 0.16029538
0.15708441 0.21426727 -0.09447597 -0.8885327 -0.16082528 -0.42970321 0.13407202
0.16573238 0.21151511 -0.098979175 -0.97649145 -0.020653095 -0.2145645 0.1073266
-0.16128586 0.22551176 -0.096217111 0.89333266 -0.080643237 -0.44210121 0.14606802
-0.15700679 0.22724284 -0.094329052 0.9147976 -0.067749746 -0.39818993 0.16615345
-0.12160726 0.22714247 -0.093252815 0.41598055 -0.46475351 -0.78164202 0.24329546
-0.11498776 0.22581972 -0.094231933 0.63821542 -0.34873608 -0.68634123 0.16084875
-0.010812089 0.22073111 -0.098880276 0.28214765 -0.059116237 0.9575479 0.13080865
0.0019611227 0.22310531 -0.099143445 -0.10737779 -0.083217077 0.99072945 0.12348942
0.016298728 0.22557914 -0.091929033 -0.47686696 -0.070858628 0.87611473 0.19653346
0.11784154 0.22406429 -0.094322249 -0.8455227 0.008672202 -0.53386909 0.19259518
0.14765608 0.2256777 -0.093575642 -0.87711352 -0.25378144 -0.4077585 0.29687488
0.15114368 0.22250193 -0.093180262 -0.79592186 -0.34877598 -0.49483699 0.21632251
0.16254216 0.22295362 -0.095824465 -0.93081701 -0.19088514 -0.31167701 0.1355871
-0.16202703 0.23310807 -0.093508691 0.92771429 -0.037418906 -0.37141091 0.14119729
-0.15464148 0.23438056 -0.092937253 0.99123102 0.045603946 -0.12402164 0.20771538
-0.14769559 0.23576015 -0.09231925 0.81149751 0.28359294 0.5109275 0.22948581
-0.12144366 0.23595399 -0.093708046 0.27295274 -0.53259033 -0.80115187 0.19061586
-0.11585399 0.23890671 -0.093556233 0.4867413 -0.22541696 -0.84396088 0.11810565
-0.1022205 0.23940051 -0.091784641 -0.45092735 0.11984 0.88447893 0.10630462
-0.013754642 0.23448229 -0.096145593 0.25748226 -0.29792222 0.919209 0.11171688
0.0019549269 0.23941435 -0.098646268 0.012575466 -0.55716306 0.83030778 0.13040306
0.015509655 0.2339898 -0.092719473 -0.25202066 -0.44201148 0.86087835 0.1711507
0.11409777 0.23857453 -0.09357357 0.18735437 0.1016271 0.9770211 0.13613787
0.12253932 0.2369312 -0.09200225 -0.40596125 -0.20737246 -0.89005172 0.19101378
0.14648192 0.23724592 -0.093239896 -0.97594863 0.17659718 -0.12781894 0.25223646
0.15880395 0.23496544 -0.094662584 -0.96512902 -0.10341854 -0.2404798 0.14468932
0.16152492 0.23019487 -0.097582057 -0.95639867 -0.046170991 -0.28839171 0.13399945
-0.16010119 0.24062413 -0.092258491 0.96837437 0.089139916 -0.23303472 0.14579959
-0.15330443 0.24429101 -0.099316843 0.99129009 -0.057563711 0.11844967 0.23802166
-0.14579271 0.24222438 -0.091651663 0.80050814 0.12671742 0.5857724 0.23027939
-0.1216199 0.2458424 -0.092017785 0.2371233 -0.23905306 -0.94160831 0.19191599
-0.11650931 0.24525917 -0.093228221 -0.49714172 0.064112343 0.8652975 0.12017057
-0.10495438 0.24451318 -0.091633737 -0.44139951 0.030527363 0.89679122 0.095428348
-0.098951288 0.24604182 -0.091245793 -0.34884796 0.054715071 0.93558073 0.09378764
0.0044099097 0.24077192 -0.095720798 -0.061278842 -0.7529375 0.65523279 0.13049366
0.10999797 0.2425288 -0.091518171 0.26269361 0.10591123 0.95904893 0.12628223
0.11432509 0.2429778 -0.093346238 0.18518116 0.091292642 0.97845477 0.12339435
0.14646819 0.24568504 -0.09428519 -0.99068797 -0.12857389 -0.04478864 0.25652552
0.15664992 0.24439502 -0.093983039 -0.97848934 0.036471825 -0.20304802 0.13850582
-0.16426516 0.25533327 -0.095464647 0.94221139 0.10826557 -0.31704289 0.1662671
-0.15491405 0.25391644 -0.097121567 0.9739812 -0.21477763 -0.072326973 0.24666902
-0.14538097 0.25793225 -0.097241804 0.89880896 -0.26510569 0.34908652 0.24879417
-0.13795543 0.25611174 -0.099142261 0.79269141 -0.39164585 0.46717641 0.27181271
-0.11467472 0.25658098 -0.092643946 -0.50927323 -0.18806896 0.83980399 0.089120001
0.10999797 0.25584978 -0.09226767 0.28939199 0.0091799544 0.95716667 0.081415802
0.11327007 0.25214601 -0.092873052 0.47068435 0.055185933 0.88057411 0.1105338
0.14645436 0.25417894 -0.093255803 -0.80816102 -0.48661318 0.33178818 0.26327533
0.15852973 0.25599506 -0.093177639 -0.9635542 0.23363125 -0.13030602 0.14689113
0.16128311 0.2568346 -0.098596178 -0.91642308 0.24941722 -0.3129853 0.13875462
-0.16819075 0.26703301 -0.092695847 0.98007637 0.054732598 -0.19093086 0.11499639
-0.13409947 0.26675475 -0.093960553 -0.18480483 -0.44817281 0.87463605 0.20982331
-0.12170979 0.26297915 -0.091779731 -0.45284712 -0.31350374 0.83465254 0.13285895
-0.11026865 0.26593721 -0.091872454 -0.49183056 -0.3215737 0.80913109 0.057299871
0.10999797 0.26298526 -0.092021659 0.41003641 -0.14732307 0.90009224 0.048740804
0.11855932 0.26410213 -0.092162773 0.61167407 -0.2232787 0.75894761 0.11459916
0.12253933 0.26572087 -0.091689713 0.36836728 -0.31261349 0.87554455 0.18278627
0.14003748 0.26950786 -0.098520324 -0.32908374 -0.8548581 -0.40115035 0.2463374
0.15553029 0.2648268 -0.098093502 -0.95630682 0.2846061 0.066907793 0.21492797
0.16398847 0.2647174 -0.097481154 -0.94265336 0.22346425 -0.24792796 0.1136103
-0.17103694 0.27572364 -0.096286416 0.9816823 -0.1643934 -0.096305244 0.12351938
-0.13136451 0.27303228 -0.097207345 -0.34438738 -0.47120714 0.81201059 0.14419177
0.1149492 0.2718356 -0.090928614 0.64900428 -0.25373989 0.71722353 0.092175119
0.13462873 0.2755391 -0.096566536 0.42091292 -0.80546737 0.41719851 0.23694274
0.14770028 0.2716983 -0.095170677 -0.8101542 -0.51816022 -0.27415344 0.29953134
0.15388918 0.27121514 -0.094982579 -0.99697733 -0.02345317 0.074068114 0.24041355
0.16810802 0.27532399 -0.092130072 -0.96452326 0.19165456 -0.18155806 0.12960753
0.17041257 0.2783975 -0.096975073 -0.98080224 0.11111681 -0.16024964 0.11832241
-0.1652263 0.28569055 -0.098058045 0.92583001 -0.37247747 0.064025432 0.1656476
-0.15358096 0.287727 -0.098584108 -0.085856616 -0.71557277 0.69324183 0.22576277
-0.1492027 0.28904814 -0.096339308 -0.089996926 -0.63178992 0.7698974 0.2155202
-0.13213988 0.2842443 -0.093075089 -0.2545146 -0.48807427 0.83486873 0.12870757
0.13207276 0.28511941 -0.096732065 0.54010606 -0.55659413 0.63125938 0.13457054
0.17074177 0.28231287 -0.092725545 -0.99410015 0.053610157 -0.094290994 0.1250843
-0.16047238 0.29030845 -0.094133638 0.52670109 -0.69717181 0.48635107 0.20046289
-0.15680888 0.29233637 -0.090602502 0.048596065 -0.73416275 0.67723227 0.19873142
0.13906799 0.29869688 -0.090187341 0.11958043 -0.54951084 0.82688469 0.20430909
0.1429857 0.29561356 -0.098072089 0.20271261 -0.72035074 0.66332686 0.15285498
0.15665942 0.29849938 -0.091035515 -0.43931592 -0.82284468 0.36045545 0.18323405
0.16561991 0.29819757 -0.090370849 -0.75784522 -0.65241146 0.0054624509 0.16049877
