# .PCD v0.7 - Point Cloud Data file format
VERSION 0.7
FIELDS x y z normal_x normal_y normal_z curvature
SIZE 4 4 4 4 4 4 4
TYPE F F F F F F F
COUNT 1 1 1 1 1 1 1
WIDTH 604
HEIGHT 1
VIEWPOINT 0 0 0 1 0 0 0
POINTS 604
DATA ascii
0.0051409085 0.16122326 0.072234936 0.0029509587 -0.97317463 -0.23004863 0.00019053808
0.01463318 0.16073674 0.074389108 0.0033273373 -0.9664169 -0.25695783 0.0031724661
0.02360752 0.16029997 0.07632301 -0.022547983 -0.95224786 -0.30449241 0.0082322862
0.034915872 0.16080049 0.074106872 0.0026389617 -0.96218532 -0.27238294 0.0041626082
0.04423875 0.16087618 0.0737717 0.0015026362 -0.97239965 -0.23331675 0.00028502411
0.052163348 0.16017586 0.07687255 0.005790974 -0.94544822 -0.32572094 0.011018879
0.064810529 0.16039281 0.075911984 0.014336919 -0.9493829 -0.31379378 0.0093584191
0.075872019 0.16155601 0.070761628 -0.00098014495 -0.97429276 -0.22528361 5.3456759e-05
0.084725931 0.16088405 0.073736861 -0.0035988921 -0.97152996 -0.23688932 0.00038571609
0.094381928 0.16131791 0.071815781 0.0012910152 -0.97190762 -0.23535891 0.0003366661
0.10213185 0.16109143 0.072818674 0.0033940219 -0.97195029 -0.23516184 0.00034492146
0.11288261 0.16104017 0.073045604 -0.0017242244 -0.97335386 -0.229302 0.00011980122
0.1206649 0.16046 0.075614475 0.0072503849 -0.94436324 -0.32882446 0.013419812
0.13378258 0.16087928 0.073757946 0.00062789518 -0.9733386 -0.22937213 0.00014221702
0.14319259 0.16047806 0.075534493 -0.003876088 -0.96329689 -0.26841024 0.0039597489
0.15500112 0.16069768 0.074562058 -0.0067630722 -0.96365213 -0.26707453 0.0053823008
0.16741847 0.1607541 0.074312299 0.0039474745 -0.96130663 -0.27545258 0.0050236308
0.1731794 0.16052686 0.075318493 0.010069963 -0.95289236 -0.30314147 0.0087040225
0.18635617 0.16067082 0.074681044 -0.049348261 -0.93463504 -0.35216773 0.019292388
0.19580147 0.16076675 0.074256308 -0.14373882 -0.89951897 -0.41255876 0.044924717
0.2052536 0.16093346 0.073518075 -0.26740637 -0.79476482 -0.54483265 0.06486132
0.21350464 0.16063601 0.074835166 -0.30584329 -0.73216224 -0.60860366 0.064597987
0.22395617 0.1611495 0.072561607 -0.36623296 -0.66721594 -0.64861107 0.069666512
-0.093055516 -0.15493913 0.085564971 0.45764342 0.63621581 -0.62112153 0.051235508
-0.085992016 -0.1559045 0.086915411 0.33748758 0.7421543 -0.57905871 0.052928984
-0.073408946 -0.15693608 0.0827353 0.080416627 0.86935383 -0.4876034 0.033776149
-0.06489981 -0.15574442 0.087564111 0.030553678 0.85983795 -0.50965196 0.032920469
-0.055553097 -0.15691204 0.082832739 0.025337994 0.90628105 -0.42191553 0.028721519
-0.04595283 -0.15625748 0.085485026 -0.029303275 0.88865328 -0.45764247 0.027094418
-0.034785777 -0.15695214 0.082670212 0.07398513 0.89129078 -0.44735548 0.023609316
-0.024632288 -0.15635976 0.08507061 -0.015190046 0.85509557 -0.5182479 0.040928923
-0.011594848 -0.15671308 0.083638914 -0.0096273581 0.88924944 -0.45732129 0.033608805
-0.0027354821 -0.15675859 0.083454594 0.031909335 0.85305816 -0.52083927 0.040632922
0.0056979815 -0.15600857 0.086493678 -0.010326963 0.83570731 -0.54907787 0.045212932
0.014888385 -0.15642592 0.084802516 -0.064545788 0.85396832 -0.51630598 0.034715559
0.025117293 -0.1564661 0.084639706 0.02060701 0.85031754 -0.52586651 0.036589414
0.03382932 -0.15728003 0.081341624 0.0010563369 0.90331167 -0.42898345 0.030176079
0.046459239 -0.15636782 0.085037924 0.020219939 0.86461496 -0.50202799 0.033223491
0.054145478 -0.15606821 0.086252064 0.0048840786 0.87547427 -0.48324004 0.036491115
0.064779498 -0.15606897 0.086249031 -0.026544975 0.86611331 -0.4991425 0.03755549
0.073832527 -0.1558432 0.087163791 -0.0056712963 0.87083608 -0.49154085 0.032781042
0.084305689 -0.15645306 0.08469256 -0.023471599 0.8714391 -0.48994192 0.046630654
0.097892359 -0.1567609 0.083445139 0.014941655 0.89123106 -0.45330337 0.031640768
0.11812703 -0.15670651 0.08366558 0.0014037435 0.91781539 -0.39700502 0.029088015
0.12300475 -0.15637127 0.085024022 -0.035689164 0.89470142 -0.44523677 0.029470898
0.13347881 -0.1564905 0.084540874 -0.015017522 0.88445318 -0.46638718 0.031064169
0.15685533 -0.15603483 0.086387292 0.033248678 0.83347112 -0.55156171 0.045108303
0.1656756 -0.15567935 0.087827772 -0.0048167873 0.83825213 -0.54526144 0.04871228
0.17915876 -0.15658808 0.084145479 -0.029272005 0.8864373 -0.46192211 0.031183774
0.18240263 -0.15678725 0.083338499 -0.1188551 0.84914988 -0.51460475 0.038462628
0.19540462 -0.15701562 0.082412973 -0.17056046 0.84949315 -0.49927002 0.042591006
0.20326424 -0.15627238 0.085424736 -0.37482199 0.69917434 -0.60882151 0.058370769
0.21342753 -0.15412974 0.081985712 -0.42171884 0.4587715 -0.78210092 0.061823361
-0.097585157 -0.14432085 0.08286611 0.63699675 0.34494025 -0.68938476 0.046225764
0.2081842 -0.14517982 0.086310983 -0.48947245 0.38797218 -0.78095722 0.044381462
0.21275572 -0.14299554 0.082539886 -0.59054738 0.23646195 -0.77158242 0.030383628
-0.09607511 -0.13414754 0.084356442 0.66824114 0.13391203 -0.73179322 0.018287186
0.20650169 -0.13595361 0.087698907 -0.56945485 0.11842635 -0.81344724 0.015071901
0.21431005 -0.13173205 0.081257716 -0.62875026 0.047271967 -0.77616912 0.0054882169
-0.1004601 -0.12489491 0.08002869 0.70168537 -0.0009617632 -0.71248627 0
-0.09423852 -0.12466209 0.086169071 0.65576243 0.00025652497 -0.75496727 0.0038435257
0.20945466 -0.12493527 0.085262977 -0.63494146 -0.00042407855 -0.77256018 2.3583225e-05
0.21135505 -0.12717569 0.083695337 -0.63560665 -2.650725e-05 -0.77201301 1.0929414e-05
-0.09285228 -0.11459595 0.087537192 0.60657114 0.00024290185 -0.79502916 0.0077828509
0.20387755 -0.11314687 0.089863591 -0.58301401 0.011231257 -0.81238449 0.004112463
0.21505593 -0.11630235 0.080642425 -0.63515359 6.7503781e-05 -0.77238584 3.1041398e-06
-0.093082182 -0.1036816 0.087310314 0.64514023 0.00047393137 -0.76406407 0.0035223165
0.20620802 -0.10355464 0.087941177 -0.60557342 0.0018858847 -0.79578716 0.0026931746
0.21421106 -0.10256159 0.081339367 -0.63521361 -0.00048494607 -0.77233636 6.3247835e-06
-0.096287586 -0.093504287 0.084146738 0.66288602 0.0062133675 -0.74869448 0.0029702059
0.20612064 -0.09383747 0.088013239 -0.59812528 -0.0086062001 -0.80135638 0.0029719316
0.21441999 -0.095779181 0.081167012 -0.63521266 -3.7221358e-05 -0.77233732 1.8155592e-06
-0.10003521 -0.080656968 0.080448031 0.69977582 -0.00021871791 -0.7143625 4.3386535e-05
-0.092795409 -0.081726238 0.087593332 0.65294892 0.00060335541 -0.75740176 0.0030969365
0.20645191 -0.086176969 0.087739967 -0.59292281 -0.0020047347 -0.80525678 0.0032813668
0.21351239 -0.088101976 0.081915699 -0.63475114 -0.00062699732 -0.7727164 2.5896361e-05
-0.096365452 -0.075781465 0.084069885 0.67713267 0.0018654934 -0.73585856 0.0020017964
0.20697388 -0.073925689 0.08730939 -0.59255332 0.0045398674 -0.80551839 0.0025061173
0.21424876 -0.072995842 0.081308275 -0.63450998 0.00059226295 -0.77291441 1.1568629e-05
-0.093368061 -0.065279357 0.087028153 0.65520072 -0.010111582 -0.75538719 0.0029491414
0.20963024 -0.060153008 0.085118145 -0.60421693 -0.0023588107 -0.79681635 0.0024014162
0.21355595 -0.066640578 0.081879772 -0.63474089 0.00039348117 -0.77272499 5.2377427e-06
-0.094287813 -0.052521545 0.086120397 0.65314263 -0.00072976586 -0.75723451 0.0026236102
0.20672707 -0.053447522 0.087513 -0.59215438 0.0036138431 -0.80581641 0.0030183019
0.21003315 -0.052408453 0.084785759 -0.60645372 -0.00089623709 -0.79511827 0.0023182202
-0.096375339 -0.044663493 0.084060125 0.65858102 0.0019375833 -0.75250739 0.0036788466
0.20658977 -0.045934364 0.087626256 -0.58697277 -0.0059162858 -0.80958509 0.0029428129
0.21301839 -0.046432287 0.082323208 -0.63613313 4.5997058e-05 -0.77157927 0
-0.095662542 -0.036105536 0.084763624 0.65883768 -0.004987976 -0.75226861 0.003401807
0.20633748 -0.039804541 0.087834373 -0.58659536 -0.0060816049 -0.80985737 0.0030436388
0.21423705 -0.036380772 0.081317931 -0.63636446 5.4847706e-06 -0.77138853 0
-0.10013369 -0.025491193 0.080350824 0.70216197 -0.00020169978 -0.7120173 0
-0.097598813 -0.024858907 0.082852632 0.67057776 0.0013041904 -0.7418381 0.0022942857
0.20868748 -0.026143895 0.085895829 -0.60060197 -0.0083800461 -0.79950416 0.0018881125
0.21283498 -0.024639327 0.08247453 -0.63426077 -0.0018217593 -0.77311701 1.6606178e-05
-0.10019676 -0.019760061 0.080288582 0.69690365 -0.0019485044 -0.71716207 0.00013650146
-0.094671659 -0.018028112 0.085741572 0.66155821 0.009328193 -0.74983579 0.002671387
0.2089678 -0.015404631 0.085664585 -0.60403943 -0.0079651875 -0.79691464 0.0020768989
0.21208698 -0.018635862 0.083091535 -0.63252783 -0.0017286084 -0.77453566 2.0888783e-05
-0.097071029 -0.003734292 0.083373524 0.68289918 -0.0068933577 -0.73048013 0.0016200586
0.20722993 -0.0042318241 0.087098181 -0.5873605 -0.0051280241 -0.80930912 0.0026120895
-0.095477141 0.0063102725 0.084946603 0.66885942 0.0011899015 -0.743388 0.0025443283
0.20690504 0.0052720336 0.087366194 -0.58365691 0.0067987074 -0.81197196 0.0028065094
0.21336024 0.0072109266 0.082041226 -0.63429546 0.0012889729 -0.77308965 2.3581788e-05
-0.094258241 0.014402563 0.086149596 0.64752513 0.0018498197 -0.76204187 0.0042383247
0.20708752 0.014682155 0.087215662 -0.58474571 0.0022993053 -0.81121343 0.0029649346
0.21485607 0.017901238 0.080807269 -0.63634276 -4.2276179e-06 -0.77140635 2.7641095e-06
-0.095107473 0.026993657 0.085311435 0.65929675 0.0031996637 -0.75187606 0.0034593488
0.20650475 0.026577815 0.087696396 -0.5823276 0.010733475 -0.81288338 0.0029490998
0.21217033 0.024304986 0.083022796 -0.63633722 -4.121739e-06 -0.77141106 8.3392906e-06
-0.095361553 0.034228962 0.085060686 0.66372448 -0.00029644216 -0.74797714 0.0030330925
0.20486918 0.035175882 0.089045569 -0.5548833 0.0119581 -0.83184224 0.0060357191
0.21035491 0.030719373 0.08452034 -0.60503232 0.0048349365 -0.79618627 0.0018308164
-0.10004602 0.041868232 0.080437362 0.70223188 -9.738074e-05 -0.71194834 0
-0.095993675 0.045875892 0.084436812 0.66524345 0.0068575097 -0.74659508 0.0029876612
0.20779902 0.041996788 0.086628735 -0.59700936 0.0031002213 -0.80222833 0.0024036129
0.21138604 0.04517325 0.083669759 -0.62047607 0.0010188778 -0.78422469 0.00094143522
-0.094025925 0.055187147 0.08637888 0.6575985 0.0077148727 -0.75332904 0.0029336039
0.20528646 0.054727461 0.088701375 -0.59099072 0.0058256234 -0.80665737 0.0025608491
0.21121357 0.050512549 0.083812028 -0.63212961 0.00076054485 -0.77486229 0.00010070838
-0.094972193 0.067903675 0.085444964 0.66823059 0.0053818231 -0.74393475 0.0027458617
0.20604406 0.064937048 0.088076413 -0.59500736 -0.0037650238 -0.80371147 0.0024869924
0.21332252 0.067063861 0.082072333 -0.63432676 0.00040534549 -0.77306491 4.1356961e-05
-0.094990402 0.075855017 0.085426986 0.64907265 -0.0058131875 -0.76070422 0.0039370987
0.20510873 0.074744329 0.088847965 -0.58818549 -0.0044406452 -0.80871385 0.0030224249
0.21329777 0.074615791 0.082092747 -0.63576233 -6.2354964e-05 -0.77188492 0
-0.09373904 0.086501956 0.086662024 0.6358462 0.011906328 -0.77172393 0.0041096383
0.20675975 0.085434973 0.087486036 -0.59601849 -0.0010479614 -0.80296999 0.0032701602
0.21001969 0.089181781 0.084796876 -0.63461113 6.3187843e-05 -0.77283162 0
-0.091289461 0.090685114 0.089079618 0.57150829 -0.0066603022 -0.82056922 0.011063691
0.20704418 0.09354803 0.08725141 -0.60693794 0.003642445 -0.7947408 0.0024247866
-0.1003383 0.10210355 0.080148906 0.70245045 -1.158608e-05 -0.71173257 0
-0.094484411 0.10434005 0.085926376 0.64744163 -0.0021474506 -0.76211202 0.0042946814
0.20866115 0.10307783 0.085917532 -0.63561749 0.0002306025 -0.77200407 7.6884726e-07
-0.10020655 0.11338905 0.080278918 0.69647419 -0.00070970238 -0.71758145 0.00025769617
-0.098098397 0.11463951 0.082359567 0.68741089 -0.0081206402 -0.72622335 0.00078806112
0.2081968 0.11176605 0.086300589 -0.6058076 0.0011260997 -0.79561037 0.0026576142
0.21343622 0.11514311 0.081978537 -0.63640356 -6.7919796e-06 -0.77135634 0
-0.093668662 0.12217519 0.086731493 0.6529004 -0.0024289861 -0.75743985 0.0030187382
0.20702623 0.12447301 0.087266199 -0.61450875 -0.0053204964 -0.78889203 0.0013369245
0.21319781 0.12359363 0.082175218 -0.62772352 0.0025488469 -0.77843219 0.00033915407
-0.092301846 0.13559197 0.088080458 0.62428629 -0.13744302 -0.76900983 0.017072491
0.20749694 0.13521639 0.08687792 -0.59005672 -0.10506788 -0.80049598 0.01372914
0.21066168 0.1387791 0.084267288 -0.5846073 -0.12359389 -0.80184716 0.021964047
-0.096967086 0.14622757 0.083476111 0.56000435 -0.36169365 -0.74536753 0.050761849
0.20804222 0.14483033 0.086428106 -0.46111521 -0.33708847 -0.82081914 0.052641761
0.21455424 0.1456416 0.081056282 -0.54322332 -0.26509368 -0.79663903 0.042034309
-0.10005763 0.15267497 0.080425911 0.54866701 -0.43569529 -0.71353638 0.062592298
-0.094039962 0.15502189 0.085230574 0.37540528 -0.64876777 -0.66194504 0.071614146
-0.084269814 0.15846083 0.084466256 0.20327868 -0.75805104 -0.61970675 0.056821845
-0.074578471 0.15854695 0.084084809 0.11937005 -0.82116133 -0.55807233 0.042432725
-0.067100294 0.15808602 0.086125746 0.026996193 -0.83164054 -0.55465782 0.038674366
-0.056891885 0.15877919 0.083056591 -0.018247494 -0.85515141 -0.51805711 0.035073396
-0.045983441 0.15856335 0.084012285 -0.01471298 -0.89132357 -0.45312893 0.030236069
-0.03245271 0.15845774 0.084479854 0.013218432 -0.88201314 -0.47103938 0.029440191
-0.022897428 0.15831241 0.08512336 -0.013647852 -0.88173485 -0.47154787 0.039375842
-0.011904906 0.15807071 0.086193547 0.03059485 -0.86741287 -0.49664772 0.037221424
-0.003714025 0.15825114 0.085394569 -0.012426551 -0.89206415 -0.45173806 0.027936084
0.005299557 0.15907788 0.081734106 -0.0058675003 -0.91840094 -0.39560756 0.028611125
0.012190538 0.15726268 0.089771233 -0.034526169 -0.84576911 -0.53243077 0.03945386
0.023258915 0.15817665 0.085724518 -0.013275839 -0.84284854 -0.53798705 0.036613166
0.035196956 0.15801969 0.086419359 0.011382726 -0.8251074 -0.56486124 0.043228265
0.049027748 0.15939367 0.080335848 0.013138335 -0.93695122 -0.34921297 0.013217738
0.054798573 0.15847291 0.084412716 -0.020903537 -0.86658806 -0.49858618 0.036248621
0.064740896 0.15840292 0.084722556 0.013057401 -0.8682338 -0.49598336 0.033974733
0.079810493 0.15910994 0.08159212 -0.015130296 -0.93089229 -0.36498016 0.016712356
0.085404776 0.15868254 0.083484523 -0.02543846 -0.90704232 -0.42027026 0.030458152
0.091895059 0.15824831 0.085407153 -0.018347038 -0.84835279 -0.52911341 0.043548219
0.10590421 0.15859951 0.083852157 -0.020454301 -0.8840493 -0.4669458 0.02833401
0.117103 0.15818435 0.085690364 0.0029861727 -0.88285112 -0.46964353 0.030501166
0.12895513 0.158227 0.085501559 0.012545395 -0.8445282 -0.53536409 0.03889304
0.13356887 0.15838794 0.084788866 0.040924586 -0.83654267 -0.54637122 0.040824804
0.14422631 0.15835008 0.084956527 -0.0096092038 -0.85885745 -0.51212466 0.036693607
0.15171048 0.15856101 0.084022686 0.0094985599 -0.85530406 -0.51803941 0.044128634
0.16489714 0.15901652 0.082005784 -0.021615222 -0.90664268 -0.42134529 0.028562659
0.17514405 0.15811798 0.085984215 0.008507519 -0.84193033 -0.53951913 0.039061498
0.18454146 0.15865475 0.083607607 -0.069579564 -0.84767103 -0.5259397 0.040131293
0.19525376 0.15871891 0.083323494 -0.21585429 -0.76575172 -0.60583103 0.061710656
0.20288587 0.15743034 0.085919 -0.28896397 -0.66724914 -0.68649715 0.062810756
0.21098325 0.15525085 0.082170323 -0.37633863 -0.59216672 -0.71253622 0.066867784
-0.085619949 -0.15422988 0.092750691 0.37421 0.60030943 -0.70682061 0.048800267
-0.073353149 -0.15352188 0.095538124 0.15600073 0.55035418 -0.82022816 0.040805716
-0.068921223 -0.1528554 0.096249104 0.072340198 0.58521271 -0.80764651 0.049029924
-0.053951528 -0.15412751 0.094115973 0.034921352 0.7269972 -0.68575186 0.051868353
-0.043861549 -0.15383682 0.095293902 -0.040177342 0.81102848 -0.58362538 0.040386006
-0.036507029 -0.15381902 0.095365942 0.029018113 0.82440424 -0.56525713 0.037552156
-0.027053162 -0.15380004 0.095321715 0.0031514731 0.75048554 -0.66087937 0.04805683
-0.012041231 -0.15340285 0.095329843 0.010114837 0.59432769 -0.8041594 0.051161211
-0.0066863671 -0.15469481 0.091817163 0.0059463116 0.75491685 -0.65579355 0.067255549
0.0059225908 -0.1545995 0.092203401 0.048851926 0.78900081 -0.6124469 0.04741263
0.016521836 -0.15378892 0.09548796 0.0088620251 0.74860656 -0.66295528 0.048266791
0.023600079 -0.15362592 0.094428383 0.027258372 0.73884583 -0.67332304 0.056605011
0.035010893 -0.15329309 0.096186638 0.019317865 0.63066238 -0.77581686 0.050303575
0.045648869 -0.15372847 0.095732957 0.029407227 0.73018199 -0.68261957 0.048919234
0.052873775 -0.15346326 0.095035523 -0.029969405 0.72373915 -0.68942267 0.04672958
0.064884178 -0.1531067 0.09723784 -0.0095241088 0.69164699 -0.72217292 0.059583168
0.071702197 -0.15441111 0.092966795 -0.04342626 0.78201973 -0.62173897 0.043648571
0.083557069 -0.15330343 0.09609589 0.0066423034 0.65986091 -0.75135851 0.06185073
0.097370401 -0.15376401 0.095588878 0.021978965 0.65720457 -0.75339174 0.05156659
0.10420816 -0.15339456 0.097028948 -0.00329404 0.6441595 -0.76488411 0.061822489
0.11591806 -0.15383264 0.094824605 0.056417514 0.73602355 -0.67460096 0.057234816
0.1224584 -0.15360512 0.094276726 -0.0067401407 0.71831173 -0.69568878 0.062671237
0.13452135 -0.15355445 0.095306471 0.006051098 0.67531139 -0.73750788 0.062905565
0.14375383 -0.15302487 0.097781941 -0.046227559 0.60819769 -0.79243839 0.059412356
0.15639049 -0.15426239 0.093569398 0.020357121 0.70839715 -0.70552039 0.06045476
0.16380793 -0.153172 0.096145585 -0.018402003 0.65174341 -0.75821632 0.062480591
0.17861357 -0.15359449 0.096275844 -0.087871827 0.64598596 -0.75827479 0.049974438
0.1866226 -0.15298337 0.096787587 -0.18614529 0.58619106 -0.78849858 0.05293915
0.19453049 -0.15347902 0.094652161 -0.23885852 0.6112662 -0.75451988 0.045303505
-0.090052165 -0.14877313 0.090300761 0.50878233 0.41317549 -0.75526583 0.053479232
-0.088093847 -0.14538822 0.092233524 0.49333227 0.35028118 -0.79619491 0.048631299
-0.077418573 -0.14143293 0.099351384 0.26760396 0.19449021 -0.94369566 0.028410055
-0.063513204 -0.14315563 0.099351391 0.087643899 0.29314041 -0.95204365 0.026124662
-0.054738238 -0.14389597 0.099351384 0.036668554 0.39068753 -0.91979277 0.034939684
-0.046628289 -0.14642623 0.099351391 -0.0046630516 0.47227421 -0.88143927 0.051089659
-0.034097061 -0.14134634 0.099351384 -8.8513807e-06 0.23334138 -0.97239488 0.030818366
-0.025280317 -0.14597565 0.099351384 -0.058080971 0.54177147 -0.83851671 0.052634556
-0.017343702 -0.1477429 0.099351391 -0.082206473 0.56486726 -0.82107675 0.051257152
-0.0042263051 -0.14303477 0.099351384 -0.044048335 0.4012928 -0.91489005 0.048331559
0.0016473664 -0.14731517 0.099351391 -0.059120398 0.51588529 -0.85461521 0.05352059
0.013993666 -0.14561045 0.099351384 -0.022556039 0.46455771 -0.88525552 0.053465109
0.025581487 -0.14300357 0.099351391 0.015741963 0.39230093 -0.91970217 0.049007066
0.032592501 -0.14465463 0.099351391 0.011340286 0.44959572 -0.8931601 0.056608945
0.047508679 -0.14560968 0.099351391 0.045359965 0.47403562 -0.87933648 0.049520619
0.05418282 -0.14348003 0.099351391 -0.017850351 0.2934882 -0.955796 0.039775547
0.068014055 -0.14663917 0.099351384 -0.023865309 0.48114944 -0.87631369 0.052306108
0.07912796 -0.14168842 0.099351391 0.0037838952 0.32088378 -0.94711101 0.045980398
0.085289434 -0.14523906 0.099351399 0.056057412 0.42693487 -0.90254313 0.059337653
0.094116293 -0.14519191 0.099351384 0.0054507311 0.4612264 -0.88726574 0.058132339
0.10309122 -0.14520806 0.099351391 -0.027909435 0.47511351 -0.87948179 0.062950805
0.11427989 -0.1456476 0.099351399 0.0095334407 0.4384293 -0.89871514 0.058069013
0.12575418 -0.14493133 0.099351391 -0.047874305 0.48256442 -0.87455112 0.063496724
0.13453008 -0.1455133 0.099351391 -0.0069506373 0.44779405 -0.89410973 0.053450726
0.14327136 -0.14568073 0.099351391 -0.017100077 0.46791142 -0.88360989 0.051359691
0.15653384 -0.14458331 0.099351391 -0.011685585 0.42197797 -0.90653086 0.051872242
0.16588977 -0.1469903 0.099351391 -0.030503441 0.40448976 -0.91403377 0.057586193
0.17372461 -0.14529346 0.099351384 -0.025623757 0.43764099 -0.89878458 0.062417623
0.1853155 -0.14342511 0.099351391 -0.22902566 0.35330403 -0.90704107 0.044240091
0.19793233 -0.1432305 0.094767869 -0.39685968 0.30575678 -0.86545658 0.040044714
-0.084492795 -0.13315867 0.095787562 0.49920043 0.10110316 -0.86056787 0.025145195
-0.077256173 -0.13621482 0.099351391 0.28658485 0.16842139 -0.94313478 0.028742848
-0.065798573 -0.13640732 0.099351399 0.081394695 0.23076501 -0.96959913 0.028458809
-0.051762104 -0.13988139 0.099351391 -0.00031451852 0.243264 -0.96996003 0.032826111
-0.049535278 -0.13888662 0.099351391 -0.018469097 0.24452411 -0.96946728 0.030233515
-0.03689377 -0.13792436 0.099351391 -0.022081789 0.21052945 -0.97733808 0.029526906
-0.02732542 -0.13235654 0.099351391 -0.013654758 0.11303551 -0.99349707 0.012457004
-0.01310291 -0.13377397 0.099351399 -0.012034958 0.2126907 -0.97704548 0.030816399
-0.0035430863 -0.13283972 0.099351384 -0.011939172 0.19695498 -0.98033977 0.026184717
0.002717739 -0.13204297 0.099351391 0.011071811 0.15802845 -0.98737246 0.020354684
0.018978629 -0.13470155 0.099351391 0.0081773503 0.20585398 -0.97854859 0.02411087
0.027722063 -0.13415068 0.099351391 0.019731805 0.1764753 -0.98410726 0.027248925
0.035659648 -0.13526976 0.099351384 0.018579111 0.18462074 -0.98263419 0.028508591
0.046626821 -0.13451627 0.099351391 -0.0041209836 0.13178858 -0.99126929 0.018475916
0.05858478 -0.13746275 0.099351391 0.0039738785 0.21489072 -0.97663009 0.024475321
0.064109109 -0.13826598 0.099351384 0.026108745 0.21336992 -0.97662252 0.023328073
0.075394861 -0.13528168 0.099351384 0.0010973033 0.16743296 -0.98588288 0.020218132
0.086995266 -0.13156746 0.099351384 0.0036758643 0.10177868 -0.99480021 0.014086525
0.093156077 -0.13472618 0.099351399 -0.0020398598 0.15873277 -0.98731947 0.023612147
0.1039837 -0.13412683 0.099351384 -0.011343349 0.1317471 -0.99121851 0.017314957
0.11936586 -0.13422137 0.099351384 -0.011340037 0.15856288 -0.98728377 0.021641957
0.13573365 -0.13647307 0.099351391 0.037937123 0.18706064 -0.9816156 0.023369839
0.14563066 -0.13393077 0.099351391 -0.00049809925 0.15001449 -0.9886837 0.022875039
0.15555021 -0.13433306 0.099351391 -0.0088196751 0.13193429 -0.99121928 0.015577037
0.16343401 -0.13416161 0.099351391 0.005896973 0.14087807 -0.99000943 0.015450722
0.17700881 -0.13437188 0.099351391 -0.10303572 0.1940809 -0.97555947 0.029757282
0.18530513 -0.13642177 0.099351399 -0.17385869 0.22225393 -0.95936251 0.030981306
0.19538856 -0.13445252 0.096866257 -0.41697159 0.13574514 -0.89872581 0.022095591
-0.084224567 -0.12393138 0.096016608 0.50820714 0.00017072956 -0.8612349 0.014499747
-0.072316781 -0.1249157 0.099351391 0.22675849 0.03182948 -0.97343081 0.015389303
-0.065780804 -0.12633944 0.099351391 0.079980992 0.014719031 -0.99668771 0.0035064104
-0.054131597 -0.12488133 0.099351399 -0.00069339306 0.024251599 -0.99970567 0.0018311555
-0.045381956 -0.12207901 0.099351391 5.0372496e-06 -4.756128e-06 -1 0
-0.022809923 -0.12696907 0.099351391 0.00063983945 0.034279339 -0.99941212 0.0017867511
-0.011281432 -0.12753391 0.099351391 -0.016158907 0.051650845 -0.99853444 0.0043045334
-0.0042721583 -0.12578613 0.099351391 0.003519403 0.046379063 -0.99891776 0.0043273438
0.004824196 -0.1253145 0.099351391 4.0854425e-07 5.5077799e-06 -1 0
0.015729446 -0.1220531 0.099351391 1.3072727e-07 3.814301e-06 -1 0
0.022295319 -0.1242151 0.099351391 -0.0017589909 0.026743349 -0.99964076 0.0016069966
0.03512105 -0.12599981 0.099351391 -0.0026710238 0.028908873 -0.99957854 0.0012525322
0.046264816 -0.12366905 0.099351384 3.3257288e-07 -3.8533813e-06 -1 0
0.054078355 -0.12448348 0.099351384 -0.0011740759 0.019192636 -0.99981511 0.0012226509
0.065113269 -0.12560418 0.099351384 0.00068315573 0.0084671332 -0.99996394 0.00028437792
0.075260125 -0.12434224 0.099351399 -5.68415e-06 1.2765871e-05 -1 0
0.086744256 -0.12467384 0.099351391 -0.00051047775 0.01471609 -0.99989158 0.00076360744
0.095798112 -0.1243149 0.099351384 -0.00049203279 0.016849983 -0.9998579 0.00092350721
0.10815049 -0.12522264 0.099351391 -0.0024516308 0.031181209 -0.99951077 0.0014901869
0.12512973 -0.12499903 0.099351399 0.00049491902 0.025622813 -0.99967158 0.0019704255
0.13607642 -0.12508959 0.099351399 0.0014036437 0.023537677 -0.99972194 0.0011358095
0.14635652 -0.12720068 0.099351391 -0.0031529756 0.044083551 -0.9990229 0.0031432828
0.15710771 -0.12718265 0.099351391 -0.00016181722 0.039637301 -0.99921417 0.0024175898
0.16584261 -0.12622248 0.099351384 -0.0089778537 0.012835802 -0.99987727 0.00094298687
0.17658833 -0.12293098 0.099351391 -0.10350917 0.0037767128 -0.99462134 0.0047288737
0.18226689 -0.12633047 0.099351391 -0.18189479 0.0063707465 -0.98329735 0.0090685673
0.19452795 -0.12375355 0.097283632 -0.37306672 0.01975718 -0.92759413 0.014268825
0.2015719 -0.12373006 0.091765553 -0.50565028 0.026355023 -0.86233592 0.011324513
-0.085702568 -0.11444025 0.094593585 0.5442934 -0.0049422211 -0.83888042 0.013293177
-0.074166551 -0.11893712 0.099351391 0.23081402 -0.014874903 -0.97288418 0.017235447
-0.0674235 -0.11437766 0.099351391 0.11468439 0.0019178598 -0.99340016 0.00792854
-0.052021518 -0.11044143 0.099351391 -0.0039461213 0.020059096 -0.99979103 0.0017467926
-0.043924451 -0.11507606 0.099351399 4.6917926e-06 4.1790249e-06 -1 0
-0.033717372 -0.1152665 0.099351399 -2.5726986e-06 4.5404781e-06 -1 0
-0.025644103 -0.11772116 0.099351384 -4.5945143e-08 -4.1646276e-06 -1 0
-0.016960986 -0.11194403 0.099351391 1.727915e-06 4.6725972e-06 -1 0
-0.0038794547 -0.11482086 0.099351391 -2.7731522e-07 4.6425675e-06 -1 0
0.0057916651 -0.1164706 0.099351391 -5.8091894e-07 6.6748129e-08 -1 0
0.013583614 -0.11660659 0.099351391 3.6931215e-07 -4.0567115e-06 -1 0
0.025525128 -0.11590283 0.099351399 3.4302525e-06 4.5708616e-06 -1 0
0.035131831 -0.11376312 0.099351391 -9.5500911e-07 1.0826854e-07 -1 0
0.045847904 -0.11537241 0.099351391 -9.8867304e-07 1.7091135e-05 -1 0
0.055725824 -0.11565024 0.099351399 5.979291e-06 4.1403723e-06 -1 0
0.061550099 -0.11652161 0.099351391 0 0 -1 0
0.075267747 -0.11522625 0.099351391 -4.5109418e-06 4.3772798e-06 -1 0
0.083658129 -0.11629982 0.099351391 -7.0700557e-06 3.5452986e-06 -1 0
0.094162069 -0.11331895 0.099351399 -1.6157624e-05 1.9650523e-05 -1 0
0.10557818 -0.11552968 0.099351384 -3.5223263e-06 -4.3385908e-06 -1 0
0.11350044 -0.11627539 0.099351384 -8.7575991e-06 1.490789e-05 -1 0
0.1233746 -0.11326025 0.099351399 -0 -0 -1 0
0.13526098 -0.11457958 0.099351384 4.5190754e-06 8.3540717e-06 -1 0
0.14282514 -0.11337649 0.099351399 4.3006758e-06 7.1219927e-07 -1 0
0.15481463 -0.11285345 0.099351391 8.5580523e-06 -3.6171846e-06 -1 0
0.16799906 -0.11784416 0.099351391 -0.027136929 -0.0020352758 -0.99962968 0.00073932327
0.17392787 -0.11537032 0.099351391 -0.10911533 -0.0080991816 -0.99399602 0.0056907539
0.18359022 -0.11485815 0.099351384 -0.17902149 -0.01389557 -0.98374701 0.0098593263
0.19622412 -0.11419171 0.096176982 -0.4108026 -0.00062963139 -0.91172403 0.015340111
0.20165847 -0.11131632 0.091694139 -0.50154209 0.016544592 -0.86497504 0.011328471
-0.084085964 -0.10651913 0.095845044 0.51014 0.019719362 -0.85986525 0.014727617
-0.074707791 -0.10434522 0.099351399 0.33371037 0.14920685 -0.93079251 0.040067315
-0.064076126 -0.10390352 0.099351391 0.048202921 0.16977654 -0.98430306 0.039062239
-0.05412304 -0.10385918 0.099351384 -0.055866819 0.11540132 -0.99174666 0.02869378
-0.040462695 -0.10914588 0.099351391 -2.6001842e-07 1.3259911e-05 -1 0
-0.034365725 -0.10278559 0.099351384 -4.4275635e-07 9.856738e-06 -1 0
-0.028722329 -0.10215212 0.099351391 -1.4907701e-07 1.3486833e-05 -1 0
-0.015039532 -0.10224386 0.099351391 2.0776117e-06 4.5725633e-06 -1 0
-0.0040019969 -0.10707956 0.099351399 3.2700206e-07 -1.2733668e-08 -1 0
0.0058898698 -0.10581062 0.099351399 2.9626358e-07 -3.258226e-08 -1 0
0.015836135 -0.10888509 0.099351391 3.7328974e-07 -8.2702491e-06 -1 0
0.027665284 -0.1045706 0.099351391 2.2966326e-07 1.8147e-05 -1 0
0.03392427 -0.10555254 0.099351391 3.5760056e-06 4.9454917e-07 -1 0
0.040290605 -0.10590613 0.099351391 2.9354351e-06 3.1474578e-08 -1 0
0.056274056 -0.10620751 0.099351391 8.6891913e-07 9.5200521e-06 -1 0
0.061004311 -0.10011938 0.099351399 -1.321617e-06 -3.9879824e-06 -1 0
0.074655354 -0.10653239 0.099351391 2.5658378e-06 -4.1868011e-06 -1 0
0.08387617 -0.10617346 0.099351391 -7.9210131e-06 5.502055e-06 -1 0
0.093494982 -0.10542191 0.099351384 -1.0336519e-05 1.1055962e-05 -1 0
0.10396098 -0.10249421 0.099351391 -4.6124073e-06 5.0038152e-06 -1 0
0.11327654 -0.10475679 0.099351391 -8.3105097e-06 7.4630856e-07 -1 0
0.12507617 -0.1053136 0.099351399 -8.0656209e-06 -4.3697046e-06 -1 0
0.13384725 -0.1057414 0.099351384 -5.2930409e-06 1.2135173e-05 -1 0
0.1456109 -0.10458939 0.099351391 -3.8825037e-06 7.9850497e-06 -1 0
0.15446949 -0.10461915 0.099351399 1.7443575e-05 5.6372842e-06 -1 0
0.16828904 -0.10441141 0.099351391 -0.028140521 0.0023842636 -0.99960113 0.00087689969
0.17624077 -0.10354849 0.099351391 -0.10775825 0.0047627981 -0.99416572 0.0061018527
0.19393624 -0.10535896 0.097774237 -0.36200896 0.020164926 -0.93195653 0.016269002
0.20089447 -0.10580411 0.092324376 -0.49741724 -0.0058903378 -0.86749142 0.011961438
-0.083269067 -0.091465153 0.096995324 0.54120916 0.062015884 -0.83859807 0.028323809
-0.074241303 -0.096242204 0.099351391 0.45872059 0.14585285 -0.87652856 0.057229638
-0.065861918 -0.092930675 0.099351384 0.043246448 0.25168583 -0.96684223 0.103476
-0.058781091 -0.090472817 0.099351391 -0.041106533 0.25345114 -0.96647441 0.12110165
-0.041693293 -0.094852492 0.099351391 -0.087322749 0.085758261 -0.99248183 0.032367952
-0.033062708 -0.098338358 0.099351391 -0.019338336 0.012671206 -0.99973273 0.0018862073
-0.024560779 -0.09614028 0.099351391 2.3730868e-06 4.7184099e-06 -1 0
-0.016964791 -0.093696415 0.099351391 0 0 -1 0
-0.0043859361 -0.098615572 0.099351391 -0 -0 -1 0
0.0063331327 -0.094618119 0.099351384 -1.5509666e-07 -7.7881041e-06 -1 0
0.014515704 -0.093918815 0.099351399 -1.4841216e-06 -4.2080264e-06 -1 0
0.024446817 -0.095721275 0.099351391 3.6916626e-07 7.5018806e-06 -1 0
0.037660431 -0.095573165 0.099351391 -1.0353607e-06 -6.8061887e-08 -1 0
0.043575127 -0.09382116 0.099351384 -1.8055659e-06 3.9445363e-06 -1 0
0.05922696 -0.097089738 0.099351391 1.9503013e-07 -3.8042472e-06 -1 0
0.067480303 -0.097406998 0.099351391 -5.5259288e-06 1.0134304e-05 -1 0
0.073234744 -0.093495965 0.099351399 -7.3538622e-06 -3.4225145e-06 -1 0
0.08363913 -0.094702899 0.099351391 -4.8102052e-06 5.2255041e-06 -1 0
0.09342742 -0.096522734 0.099351391 -5.0458584e-06 -4.1837297e-06 -1 0
0.10538267 -0.093891382 0.099351384 -8.5356733e-06 -3.6702659e-07 -1 0
0.11511254 -0.092423767 0.099351399 -1.45277e-07 4.6311588e-06 -1 0
0.12605028 -0.090851024 0.099351391 -9.7661577e-06 -9.9236122e-06 -1 0
0.13184199 -0.09462145 0.099351391 -2.7263834e-06 1.1248183e-05 -1 0
0.14300278 -0.095487103 0.099351391 -8.2612278e-06 -1.2245448e-05 -1 0
0.15236133 -0.095484562 0.099351384 3.434671e-06 9.1330399e-08 -1 0
0.16535644 -0.096576422 0.099351399 -0.01483851 0.0018693021 -0.99988818 0.00033553882
0.17683636 -0.093814619 0.099351384 -0.10424714 0.0023913197 -0.99454856 0.0050167502
0.18459675 -0.096267119 0.099351391 -0.2431118 -0.0049161576 -0.96998578 0.010982635
0.19464119 -0.09696418 0.097449332 -0.38739014 -0.0053537311 -0.92190039 0.017147969
0.2011008 -0.095289044 0.09215416 -0.51199639 -0.018926 -0.85877907 0.0099870153
-0.08365532 -0.085769258 0.096614115 0.55074716 0.063768931 -0.83223259 0.034921594
-0.074705891 -0.087856062 0.099351391 0.43796107 0.1784773 -0.88109928 0.095421709
-0.065406613 -0.086282864 0.099351399 0.19512621 0.24419938 -0.94989079 0.15150917
-0.045202032 -0.08366973 0.099351384 -0.21515203 0.10725874 -0.97067249 0.081150644
-0.03443576 -0.085052945 0.099351391 -0.13500306 0.022502102 -0.99058962 0.032341164
-0.027319044 -0.08504349 0.099351391 -0.027312323 -0.0016704702 -0.99962556 0.0019236131
-0.011533257 -0.080800422 0.099351391 -4.2595997e-07 4.5020793e-06 -1 0
-0.0068990975 -0.084638067 0.099351391 -3.5152095e-07 4.1112171e-06 -1 0
0.008239815 -0.089371383 0.099351391 -0 -0 -1 0
0.01310654 -0.085790992 0.099351399 -1.4664361e-06 4.8324746e-06 -1 0
0.023091333 -0.084071338 0.099351384 1.2658843e-06 7.3010578e-06 -1 0
0.033824336 -0.085361525 0.099351391 -6.4865316e-07 -4.0489922e-06 -1 0
0.041060064 -0.082692638 0.099351391 -2.2129407e-06 3.649543e-06 -1 0
0.063277178 -0.082616903 0.099351391 -3.6067436e-06 2.4564505e-07 -1 0
0.074441701 -0.083194889 0.099351391 -3.0427459e-06 -5.8676125e-08 -1 0
0.083963111 -0.08486028 0.099351391 -4.9691471e-06 1.0595017e-05 -1 0
0.09456373 -0.085127249 0.099351399 -5.280408e-06 1.1574379e-05 -1 0
0.10553398 -0.0840654 0.099351384 8.7664257e-06 -3.7232007e-06 -1 0
0.11044631 -0.084280118 0.099351391 -3.6800104e-06 -4.0159994e-06 -1 0
0.12522189 -0.085733786 0.099351391 -4.0795935e-06 -2.9055437e-07 -1 0
0.13597213 -0.087037146 0.099351391 -0 -0 -1 0
0.14129889 -0.088967159 0.099351391 -1.4294713e-05 8.3415798e-06 -1 0
0.15471199 -0.083977252 0.099351391 3.1435291e-06 4.0295558e-06 -1 0
0.16384107 -0.084672429 0.099351391 -1.9610754e-05 6.258545e-06 -1 0
0.17659199 -0.080643944 0.099351384 -0.11009644 0.011515582 -0.99385417 0.0058641941
0.18343429 -0.084940277 0.099351391 -0.2047901 -0.023487236 -0.97852415 0.011971413
0.19472733 -0.087052301 0.097085059 -0.44307131 -0.017799679 -0.89630967 0.01231166
0.20170079 -0.084885821 0.091659218 -0.53088033 -0.0053608865 -0.84742981 0.0086523788
-0.088480234 -0.073968709 0.091852181 0.60676795 0.017736718 -0.79468119 0.0092412205
-0.079678558 -0.077982649 0.099351391 0.59868878 0.093457058 -0.79551083 0.096684352
-0.050853409 -0.077392787 0.099351391 -0.24602279 0.12950705 -0.96057308 0.13173014
-0.046889849 -0.074966967 0.099351399 -0.32748136 0.10133929 -0.93940741 0.11524573
-0.034910657 -0.073816657 0.099351391 -0.17802502 0.0044393088 -0.98401594 0.031658746
-0.025892312 -0.073933788 0.099351391 -0.026913958 -0.0001845393 -0.99963778 0.0027806805
-0.0057814615 -0.074405968 0.099351391 -2.0775717e-07 3.6889003e-06 -1 0
0.0061897459 -0.072107762 0.099351391 -1.501232e-06 -3.5890362e-06 -1 0
0.013532695 -0.076566026 0.099351399 1.0716981e-06 -2.2357738e-06 -1 0
0.026943766 -0.073096082 0.099351391 3.5708247e-06 -4.0726457e-07 -1 0
0.039544448 -0.074500583 0.099351384 -1.040226e-06 4.1942371e-06 -1 0
0.044563245 -0.07351739 0.099351399 -7.5540993e-06 6.117582e-06 -1 0
0.065292962 -0.077396959 0.099351384 -8.5049105e-06 1.4097694e-07 -1 0
0.075758643 -0.074756011 0.099351399 -0 -0 -1 0
0.084337391 -0.075463995 0.099351391 -4.2468428e-06 -2.1770065e-06 -1 0
0.090778291 -0.077621609 0.099351391 -4.1844e-06 -3.4003477e-08 -1 0
0.10616591 -0.072901651 0.099351391 -6.1099223e-07 6.460205e-06 -1 0
0.1120632 -0.070778318 0.099351384 1.4723337e-07 4.4488229e-06 -1 0
0.12455478 -0.071214765 0.099351384 -5.6535555e-06 2.3761613e-06 -1 0
0.13610148 -0.071248248 0.099351391 -3.3978224e-06 2.0267678e-06 -1 0
0.15532503 -0.07534492 0.099351399 1.8659441e-07 6.2798517e-06 -1 0
0.16576765 -0.074252069 0.099351391 -0.0076716668 0.00057734025 -0.99997044 0.00021964476
0.17346838 -0.073094152 0.099351391 -0.069109976 -0.0048093628 -0.99759746 0.0037422776
0.18707448 -0.077443428 0.099351384 -0.24662331 -0.0010374684 -0.96911085 0.011337868
0.1936406 -0.075533263 0.097761989 -0.385975 -0.025755053 -0.9221496 0.01329603
0.20090941 -0.071922272 0.092312045 -0.48651138 0.0059016501 -0.87365431 0.010151237
-0.082490817 -0.066620849 0.097659163 0.64907086 0.030352464 -0.7601223 0.053211171
-0.075714119 -0.066012762 0.099437498 0.53046107 0.00046736855 -0.84770912 0.1162012
-0.051922426 -0.06370455 0.099351391 -0.29814297 0.0011282031 -0.95452058 0.10744233
-0.043878268 -0.066854686 0.099351399 -0.29079393 0.066338874 -0.95448315 0.096615359
-0.035179596 -0.064884692 0.099351399 -0.14001063 -0.037211347 -0.98945051 0.028472284
-0.023660952 -0.065733463 0.099351384 1.5473405e-06 1.9985314e-06 -1 0
-0.013935762 -0.063175365 0.099351391 5.7238753e-07 6.5326858e-06 -1 0
-0.0068668565 -0.060465373 0.099351391 7.4868575e-07 -2.3547266e-06 -1 0
0.0033457831 -0.0666188 0.099351384 -9.6768713e-07 -1.0890226e-05 -1 0
0.014226421 -0.062781379 0.099351391 -1.0721028e-06 -4.9249211e-06 -1 0
0.023408808 -0.062350228 0.099351391 1.4592088e-06 4.8788716e-06 -1 0
0.035117488 -0.062134754 0.099351384 -2.2196252e-06 4.9940272e-06 -1 0
0.045935526 -0.069051474 0.099351391 -2.8373311e-06 2.4292553e-06 -1 0
0.055173758 -0.065150328 0.099351391 -2.043518e-06 2.6256885e-06 -1 0
0.067403547 -0.06734065 0.099351384 -3.5630533e-06 6.9272455e-06 -1 0
0.076061673 -0.063953929 0.099351391 -1.2332426e-06 9.1470065e-06 -1 0
0.084316328 -0.065401077 0.099351391 -6.8623303e-06 2.6317389e-06 -1 0
0.093185775 -0.066348828 0.099351391 4.2582451e-06 4.6262403e-06 -1 0
0.1037811 -0.062447589 0.099351384 -1.0236892e-05 8.6455339e-06 -1 0
0.1126311 -0.060767651 0.099351391 4.5848783e-06 3.9814199e-06 -1 0
0.12625681 -0.063363418 0.099351384 -5.2149353e-06 1.8799846e-06 -1 0
0.14554316 -0.064788908 0.099351391 -1.1061436e-05 8.5734126e-07 -1 0
0.15688471 -0.066454023 0.099351384 -8.3402419e-06 2.5764421e-06 -1 0
0.16484037 -0.066394344 0.099351391 1.9127474e-05 1.4635438e-06 -1 0
0.17489009 -0.064834371 0.099351391 -0.092841178 0.0078025521 -0.99565035 0.0054794736
0.18532355 -0.063594557 0.099351384 -0.24094608 -0.0034795376 -0.9705323 0.013114925
0.19657837 -0.065363877 0.095884763 -0.42850003 -0.018569849 -0.90335095 0.011260658
0.2021089 -0.063385889 0.091322578 -0.52213192 -0.00067726342 -0.85286444 0.0074503305
-0.085192792 -0.053672545 0.095062621 0.68194062 -0.02910378 -0.73082823 0.015017992
-0.07247211 -0.053849459 0.099363565 0.43853691 0.019483671 -0.89850205 0.10302991
-0.054604251 -0.050432511 0.099351391 -0.25712365 -0.018573554 -0.96619999 0.13175182
-0.046312496 -0.054342058 0.099351391 -0.30545098 -0.02005263 -0.95199668 0.096881501
-0.035430409 -0.058111779 0.099351391 -0.1793672 0.021613596 -0.98354477 0.042475596
-0.026145348 -0.053846408 0.099351399 -0.021053623 -0.0011182877 -0.99977773 0.0029932151
-0.0049324492 -0.055005848 0.099351391 4.5863422e-07 4.327143e-06 -1 0
0.0030248426 -0.054405969 0.099351399 4.6725202e-07 3.016323e-06 -1 0
0.015528532 -0.055204105 0.099351399 -6.4643007e-07 2.5777322e-06 -1 0
0.024442412 -0.054756042 0.099351399 -1.0887987e-06 4.372022e-06 -1 0
0.037987176 -0.055193122 0.099351391 -6.3694092e-06 -2.2461923e-07 -1 0
0.04492354 -0.053592544 0.099351391 -1.9421111e-06 -7.187643e-06 -1 0
0.05677864 -0.057754435 0.099351391 -4.334413e-06 6.7745245e-06 -1 0
0.064993143 -0.057184637 0.099351391 -7.4703729e-07 1.2496884e-05 -1 0
0.07295233 -0.050902724 0.099351391 -6.8786057e-06 6.0774569e-06 -1 0
0.081836738 -0.051854264 0.099351391 -4.4853095e-06 2.1101214e-06 -1 0
0.09320116 -0.055392008 0.099351399 1.7187884e-07 3.7204038e-06 -1 0
0.10553186 -0.055911444 0.099351391 -9.1025395e-06 3.1832897e-06 -1 0
0.11535728 -0.057343323 0.099351384 -6.5246343e-07 7.1592963e-06 -1 0
0.12781538 -0.054376382 0.099351391 -1.055186e-05 4.3840523e-06 -1 0
0.1340141 -0.056096897 0.099351391 -3.5276196e-06 2.5179163e-06 -1 0
0.14390063 -0.052019749 0.099351391 -8.6047603e-06 5.9830236e-06 -1 0
0.16313428 -0.057409972 0.099351391 8.7855742e-06 9.1282914e-07 -1 0
0.17478639 -0.053409178 0.099351391 -0.11892731 -0.0047964179 -0.99289137 0.0063993093
0.18409163 -0.053539909 0.099351384 -0.27289286 -0.0032104535 -0.96203911 0.013804209
0.19505836 -0.053962246 0.097013459 -0.42146224 0.015999243 -0.90670478 0.011746024
0.20329762 -0.054139346 0.090342008 -0.54281348 0.0020327903 -0.83985078 0.0075883595
-0.084325708 -0.042136539 0.095952481 0.69597149 0.018845152 -0.71782207 0.015850725
-0.074447498 -0.043744799 0.099351391 0.53707653 -0.048284374 -0.84215045 0.13169238
-0.051673427 -0.042915311 0.099351384 -0.26797757 -0.056490023 -0.96176767 0.116541
-0.044026546 -0.044122819 0.099351391 -0.3071388 -0.059071254 -0.94982964 0.091257855
-0.037230987 -0.046184499 0.099351399 -0.23148488 -0.017688178 -0.97267765 0.046740279
-0.023455467 -0.047576725 0.099351391 3.7356358e-07 4.5054526e-06 -1 0
-0.015634235 -0.044966619 0.099351391 3.6665693e-07 6.8736008e-06 -1 0
-0.0028410181 -0.045636192 0.099351391 2.8871281e-07 2.001633e-06 -1 0
0.003512156 -0.045861125 0.099351399 1.3421813e-06 5.3053504e-06 -1 0
0.018360194 -0.04972475 0.099351391 -1.523431e-06 2.8524282e-06 -1 0
0.023507349 -0.045947816 0.099351399 -3.3903234e-07 2.4847338e-06 -1 0
0.036130387 -0.047392953 0.099351384 -3.4835123e-06 -3.7263831e-06 -1 0
0.045170728 -0.045526762 0.099351384 -5.9257077e-06 5.2739307e-07 -1 0
0.055535723 -0.045443673 0.099351384 -4.6746509e-06 -2.4485932e-06 -1 0
0.066773273 -0.045273304 0.099351384 -2.068334e-06 4.6697392e-06 -1 0
0.087856337 -0.045688715 0.099351391 -3.8797352e-06 6.7767951e-06 -1 0
0.093949698 -0.042459164 0.099351391 -7.9451383e-06 2.9248028e-07 -1 0
0.10570697 -0.045467261 0.099351391 1.5033304e-05 3.4867421e-06 -1 0
0.1138263 -0.040982179 0.099351391 4.6464202e-06 8.2193874e-06 -1 0
0.12543371 -0.042732213 0.099351391 -5.0195827e-06 1.9613569e-06 -1 0
0.13982236 -0.04456475 0.099351391 4.0021482e-06 2.0912646e-06 -1 0
0.14209843 -0.045074556 0.099351391 -1.2746978e-07 4.4373869e-06 -1 0
0.16509159 -0.043712731 0.099351391 -8.7324433e-06 4.2511206e-06 -1 0
0.17621516 -0.044441983 0.099351391 -0.10813779 -0.0015300559 -0.99413472 0.0037764364
0.18590894 -0.044486694 0.099351391 -0.27810207 0.010554059 -0.96049356 0.01303149
0.19779789 -0.043497048 0.09487877 -0.4685908 -0.0028235295 -0.88341081 0.011023373
0.20194331 -0.048177369 0.091459177 -0.49412945 -0.016715799 -0.86922759 0.010190544
-0.087217361 -0.03423886 0.093098573 0.67741215 0.015593679 -0.73543841 0.012802286
-0.074176058 -0.033690803 0.099351399 0.49736765 -0.020292901 -0.86730248 0.14498167
-0.052569281 -0.035649616 0.099394612 -0.22296137 0.024770964 -0.97451252 0.12915139
-0.047602683 -0.035138678 0.099351391 -0.26714471 -0.012367254 -0.96357709 0.11931992
-0.034393135 -0.034189682 0.099351391 -0.16972461 0.0083190603 -0.98545641 0.036980405
-0.023086602 -0.036721688 0.099351391 -0.00014381323 2.2812899e-05 -1 0
-0.013173088 -0.035571106 0.099351399 1.1758523e-06 2.9897808e-06 -1 0
-0.0023131848 -0.034341972 0.099351384 -2.6047829e-07 -1.1305077e-06 -1 0
0.0046747974 -0.03814397 0.099351391 1.0234176e-08 3.0014169e-06 -1 0
0.024900526 -0.033462849 0.099351384 -7.5966193e-07 2.6430994e-06 -1 0
0.033186458 -0.033663467 0.099351391 -0 -0 -1 0
0.042402808 -0.032081082 0.099351391 1.0281059e-07 -1.033068e-06 -1 0
0.054294541 -0.039121781 0.099351391 1.999337e-06 -3.5176794e-07 -1 0
0.064624734 -0.038891964 0.099351391 -3.5137246e-06 1.1570924e-06 -1 0
0.071401529 -0.035289541 0.099351384 -5.9824238e-06 2.2696013e-06 -1 0
0.084953435 -0.03315093 0.099351384 1.7842764e-07 3.7481675e-06 -1 0
0.093390115 -0.033737283 0.099351399 -3.4298203e-06 -1.1276326e-06 -1 0
0.10799263 -0.035826545 0.099351391 -1.8919037e-08 1.1279874e-06 -1 0
0.11638485 -0.034814224 0.099351391 -7.3120086e-06 5.3389266e-07 -1 0
0.12379815 -0.035604965 0.099351384 -5.1040865e-06 1.6192161e-06 -1 0
0.13630863 -0.034023385 0.099351391 4.0678951e-06 2.2906349e-06 -1 0
0.14617611 -0.037345592 0.099351391 -3.8937646e-06 -4.7048059e-07 -1 0
0.15525632 -0.035359085 0.099351391 -8.5136589e-06 -9.8998339e-07 -1 0
0.16305207 -0.035749659 0.099351384 3.7433225e-08 1.2162224e-06 -1 0
0.17486911 -0.03804354 0.099351384 -0.094296955 -6.3728861e-05 -0.99554414 0.0051351679
0.18583344 -0.034701221 0.099351384 -0.24493174 -0.0025221664 -0.96953708 0.012552587
0.19703925 -0.033842679 0.095504582 -0.42802557 0.018570971 -0.90357578 0.010121822
0.20360744 -0.030752704 0.090086393 -0.58746552 -0.0046019736 -0.80923599 0.0024276555
-0.083518907 -0.025246851 0.096748754 0.69602555 0.0019447117 -0.71801436 0.014519579
-0.074275918 -0.026158327 0.099392883 0.46623334 0.12681912 -0.87552464 0.14766321
-0.050711855 -0.021667544 0.099351391 -0.32596904 0.15366277 -0.93280858 0.11395563
-0.045061257 -0.024639731 0.099351384 -0.26568192 0.088963196 -0.95994729 0.102567
-0.035588183 -0.024223974 0.099351399 -0.16949336 0.00082671881 -0.98553097 0.03579545
-0.027840622 -0.026223628 0.099351384 -0.051597949 0.0093128942 -0.99862444 0.0065121609
-0.015126875 -0.024081178 0.099351391 1.9205343e-06 2.9929467e-07 -1 0
-0.0064643752 -0.028310511 0.099351391 1.2389039e-06 3.2587436e-06 -1 0
0.028815441 -0.023375466 0.099351391 -8.5718259e-09 1.9845575e-06 -1 0
0.036651708 -0.028239379 0.099351391 3.4827854e-06 1.8057207e-06 -1 0
0.047174409 -0.021384839 0.099351391 3.4229242e-07 3.9647084e-06 -1 0
0.053654898 -0.022890283 0.099351399 4.0895875e-06 1.4301404e-06 -1 0
0.065911591 -0.02419593 0.099351399 -6.464692e-06 1.6075248e-06 -1 0
0.075758159 -0.0245893 0.099351399 -4.0306199e-06 8.7266835e-07 -1 0
0.081861131 -0.028057305 0.099351384 -3.7556244e-06 3.0404388e-07 -1 0
0.090698563 -0.025904611 0.099351384 7.8945222e-06 2.5011789e-06 -1 0
0.10310251 -0.02537125 0.099351391 -1.0398995e-07 3.4129116e-06 -1 0
0.11397161 -0.02562963 0.099351391 -2.7459552e-07 2.4754468e-06 -1 0
0.1319335 -0.024769848 0.099351384 4.0358796e-06 1.3056309e-06 -1 0
0.1433582 -0.02435166 0.099351391 -7.4647646e-06 1.8613492e-06 -1 0
0.15983683 -0.024559256 0.099351391 -1.3100045e-07 2.1977039e-06 -1 0
0.16407415 -0.022131102 0.099351391 -9.541176e-06 -1.6426891e-07 -1 0
0.17552926 -0.023063118 0.099351391 -0.086349435 -0.0047844094 -0.99625343 0.003925499
0.18515445 -0.027648434 0.099351399 -0.2167145 0.0053598015 -0.97622031 0.011360206
0.19733803 -0.0258557 0.095258117 -0.45290661 0.0084805191 -0.89151764 0.010833354
-0.084129624 -0.014695829 0.096022703 0.68681622 0.0088004265 -0.72677779 0.014171598
-0.079033457 -0.011629649 0.099351391 0.65762854 -0.037807543 -0.75239313 0.099368371
-0.052519605 -0.016424682 0.099351391 -0.21800768 0.084192485 -0.9723087 0.12237689
-0.04541425 -0.016431743 0.099351384 -0.42859572 0.10893135 -0.8969056 0.10917837
-0.033803433 -0.014594126 0.099351384 -0.13404368 -0.020866279 -0.99075568 0.027213896
-0.024609948 -0.014197958 0.099351399 -0.00058952213 0.00022636099 -0.99999976 0
-0.012302989 -0.015765198 0.099351391 1.8402951e-06 -1.2185126e-07 -1 0
-0.004909541 -0.016818335 0.099351384 5.9835611e-07 9.2546702e-07 -1 0
0.00045640767 -0.018555801 0.099351391 6.683786e-09 4.6234922e-07 -1 0
0.015635042 -0.016501974 0.099351391 -6.4553127e-08 1.109562e-06 -1 0
0.025672587 -0.016786933 0.099351391 -1.3244021e-06 8.4484675e-08 -1 0
0.034666233 -0.01565245 0.099351384 0 0 -1 0
0.056393869 -0.015047771 0.099351391 -3.633259e-06 1.236376e-06 -1 0
0.066983141 -0.012861744 0.099351391 -1.1039111e-05 1.182615e-07 -1 0
0.072751418 -0.01759233 0.099351391 -9.5700934e-06 2.0783323e-06 -1 0
0.081826165 -0.010840066 0.099351391 9.3030827e-09 -2.5388394e-07 -1 0
0.09805683 -0.015680166 0.099351384 -7.5373905e-06 -2.6947509e-07 -1 0
0.10374384 -0.015682198 0.099351391 -3.9747056e-06 1.0081467e-06 -1 0
0.11698908 -0.015513293 0.099351391 -3.9653478e-06 3.8427828e-07 -1 0
0.12462496 -0.014905521 0.099351384 -4.2116048e-06 8.9068601e-07 -1 0
0.13704076 -0.017041083 0.099351391 1.3327053e-05 4.6771257e-07 -1 0
0.14612275 -0.013802975 0.099351384 -6.7043079e-06 -8.5039915e-08 -1 0
0.15452898 -0.014380006 0.099351391 -4.6115538e-06 8.670678e-07 -1 0
0.16777448 -0.017839702 0.099351384 -0.016372437 -0.0053334357 -0.99985176 0.00039187554
0.17506996 -0.016688608 0.099351391 -0.075069137 -0.0045826617 -0.99716783 0.0033550919
0.18611412 -0.014236033 0.099351384 -0.25035679 0.024979696 -0.96783131 0.014418692
0.19379747 -0.012420042 0.097379193 -0.38487524 0.010166594 -0.9229126 0.015885701
0.20105018 -0.015312632 0.092195928 -0.49332091 -0.024706172 -0.86949641 0.011032267
-0.088460088 -0.0026346454 0.091872066 0.65355164 -0.0064222328 -0.75685459 0.0074158618
-0.052270431 -0.0047990046 0.099498808 -0.25579849 -0.050730415 -0.96539807 0.11697067
-0.043530334 -0.0043768696 0.099351384 -0.26077706 -0.0098038865 -0.9653492 0.068564497
