# .PCD v0.7 - Point Cloud Data file format
VERSION 0.7
FIELDS x y z normal_x normal_y normal_z curvature
SIZE 4 4 4 4 4 4 4
TYPE F F F F F F F
COUNT 1 1 1 1 1 1 1
WIDTH 573
HEIGHT 1
VIEWPOINT 0 0 0 1 0 0 0
POINTS 573
DATA ascii
0.17853314 -0.27515361 -0.010689201 -0.97693092 0.20329681 0.065394245 0.054930858
-0.17843622 -0.26393852 -0.01000965 0.99086791 0.062985919 -0.11922085 0.0047561564
0.17903881 -0.26171473 -0.015636789 -0.99219757 0.12456211 -0.0053224014 0.025341004
-0.18037665 -0.25001967 -0.012860623 0.99384171 0.014979442 -0.10979214 0.002587236
-0.17909166 -0.25371203 -0.016309734 0.99727219 0.033336263 -0.065854959 0.0041567772
-0.1808559 -0.2409247 -0.012824524 0.99520773 -0.0087853726 -0.09738785 0.0030772968
-0.17907238 -0.2457087 -0.015979812 0.99935251 -0.028146701 -0.022409881 0.069005631
0.17850865 -0.24476247 -0.012719412 -0.99318659 -0.054776259 -0.10285876 0.063756652
0.1808559 -0.24713121 -0.01212032 -0.99395972 0.0091784131 -0.10936137 0.0024059298
-0.17903593 -0.23445663 -0.01535097 0.99527222 -0.097098373 -0.0022622831 0.1507239
-0.15082934 -0.23377959 -0.013603189 -0.57846361 0.57031757 -0.5831961 0.10336062
0.15101235 -0.23482507 -0.018415693 0.43229714 0.65366894 -0.62115705 0.12357412
0.1788588 -0.23369354 -0.012765245 -0.98300606 -0.10827115 -0.1482441 0.17575067
-0.17912097 -0.22344212 -0.015744619 0.99848408 -0.025936358 -0.04854764 0.089477763
0.15103301 -0.22663501 -0.018306091 0.54037315 0.51823485 -0.66289479 0.17738134
0.17897436 -0.22495945 -0.01398664 -0.98925155 0.044002347 -0.13944621 0.20360348
-0.1778051 -0.21437564 -0.015695609 0.99646991 0.0081624538 0.08355324 0.20446567
-0.15097028 -0.21688701 -0.015918903 -0.58973867 0.61851245 -0.51927906 0.22731563
0.17836437 -0.21256442 -0.01493035 -0.97692108 -0.19425598 0.088824347 0.2434047
-0.17919672 -0.20576359 -0.014691849 0.99440849 -0.016304174 -0.1043354 0.16054347
-0.1510959 -0.20091403 -0.017861336 0.70026505 -0.55567968 0.44816166 0.23715757
0.15103744 -0.2024225 -0.016496098 -0.61972755 -0.088128671 0.77985322 0.22011234
0.1791496 -0.20718043 -0.014894809 -0.99272621 0.0097117862 -0.12000141 0.21250209
-0.17921515 -0.19368324 -0.014805073 0.99133343 0.044779442 -0.12350247 0.12512811
-0.1244534 -0.19177079 -0.018852865 -0.010448124 0.29632157 -0.95503116 0.01603147
-0.11025888 -0.1903424 -0.018257746 0.011230936 0.3100003 -0.95067012 6.5693092e-07
-0.10138028 -0.19244173 -0.018845275 0.029903885 0.33040226 -0.94336635 0.0028201027
-0.094251968 -0.19491465 -0.019537419 0.018887607 0.33231673 -0.94297874 0.0025185666
-0.089228496 -0.19321239 -0.018900264 0.011006875 0.33606139 -0.9417758 0.0031574026
-0.067196071 -0.19506587 -0.019248726 0.028478436 0.34331483 -0.93878853 0.0089912154
-0.040264137 -0.19019419 -0.017446913 -0.16542612 0.33312598 -0.92825711 0.056335837
-0.033389945 -0.19105084 -0.017698979 -0.079933472 0.2810353 -0.95636278 0.065605968
-0.026478931 -0.19161925 -0.017858461 0.016148934 0.30107218 -0.95346469 0.11979949
-0.012953675 -0.19503801 -0.018803785 0.13395379 0.23869887 -0.96181041 0.061003216
-0.0061629899 -0.19706184 -0.019358678 0.15659033 0.28469992 -0.94574064 0.046837576
0.0026980431 -0.1981013 -0.019621091 0.00032298142 0.29701367 -0.9548732 0.00010535765
0.016654879 -0.19086404 -0.017388109 -0.21695989 0.33631006 -0.91641903 0.082059056
0.043532591 -0.19316383 -0.018281339 0.19119038 0.32980907 -0.92448485 0.066464901
0.057130948 -0.19030216 -0.017527824 0.0037877602 0.31127214 -0.95031327 0.00048133003
0.063321158 -0.19297449 -0.018444378 -0.010997296 0.30591008 -0.95199686 0
0.07795006 -0.19322336 -0.018682925 -0.012385677 0.30723649 -0.95155257 1.0362379e-06
0.084726356 -0.19356038 -0.018927714 -0.012741489 0.30774891 -0.95138234 1.5618729e-06
0.098536529 -0.19393091 -0.019227153 -0.013264828 0.30958661 -0.95077866 0
0.11398123 -0.19251424 -0.018989362 -0.013425193 0.30998456 -0.95064676 0
0.12097883 -0.19373912 -0.019495703 -0.013066856 0.30986869 -0.95068955 3.0340004e-06
0.13259989 -0.19265532 -0.019302664 0.0021954128 0.33093196 -0.94365209 0.10472976
0.15104088 -0.19725284 -0.016158339 -0.93616253 -0.096401878 0.33809221 0.22999205
0.17913327 -0.19778492 -0.013226778 -0.97624737 0.052224275 -0.21027049 0.15742159
-0.1792687 -0.18470103 -0.014832935 0.99860889 -0.05066948 -0.014591952 0.13891131
-0.15113775 -0.18530126 -0.01530923 0.771366 -0.52905142 0.35369343 0.28694585
-0.14064476 -0.18861279 -0.018023392 0.24180925 0.50892806 -0.82614797 0.22874545
-0.13961855 -0.18778244 -0.01773995 0.0053691403 0.40666544 -0.91356134 0.20378233
-0.12629646 -0.18473411 -0.016575009 -0.027521718 0.29301363 -0.95571202 0.036719218
-0.11990151 -0.18406752 -0.016304936 0.010322077 0.31188622 -0.95006335 1.1766943e-05
-0.10252919 -0.18479688 -0.016361967 0.06665656 0.36285573 -0.9294582 0.021049613
-0.094383463 -0.18700342 -0.016968789 0.046617296 0.36737093 -0.92890555 0.0230186
-0.083573744 -0.18485472 -0.016125416 0.0063918117 0.36682063 -0.93026978 0.023577716
-0.074125938 -0.18317282 -0.015493634 0.042164356 0.40816805 -0.91193259 0.054029521
-0.062572755 -0.18535864 -0.016042063 0.0034901907 0.41941434 -0.90778816 0.085233256
-0.054170538 -0.18742962 -0.016606068 -0.058898237 0.36139271 -0.93055165 0.038953468
-0.043429211 -0.1823301 -0.014934684 -0.21908413 0.35869455 -0.90738106 0.065321632
-0.032266393 -0.18500888 -0.015757076 -0.12517516 0.31012189 -0.94242001 0.081776768
-0.022819553 -0.18443787 -0.015870824 0.058754027 0.26711109 -0.96187294 0.093182318
-0.015915936 -0.18365102 -0.015250462 0.17839935 0.25151378 -0.95126992 0.08103469
-0.0072333547 -0.18443708 -0.015396524 0.16558705 0.2932398 -0.94158983 0.050812844
0.0054247105 -0.18887505 -0.01672498 -0.10370424 0.31076282 -0.94481319 0.029290078
0.014182414 -0.18448754 -0.015372231 -0.22688563 0.32589829 -0.91777617 0.089480177
0.027863994 -0.18419771 -0.016226048 0.022161087 0.3488417 -0.93691963 0.12477975
0.034655835 -0.18640949 -0.016044579 0.16596416 0.34476614 -0.92390054 0.11654404
0.046614289 -0.18621719 -0.016090101 0.16501828 0.33320329 -0.92830199 0.038148761
0.053636506 -0.1871409 -0.016471395 0.058590595 0.30903435 -0.94924444 0.0066608
0.065403618 -0.18680318 -0.016483445 -0.010710972 0.30567366 -0.95207608 2.0233224e-06
0.074639782 -0.18311076 -0.015382417 -0.0083085429 0.31974113 -0.94746852 0.00030394521
0.084077425 -0.18447343 -0.015965737 -0.01049382 0.31381205 -0.94942713 0.00014500851
0.091712713 -0.18525249 -0.016335912 -0.012322301 0.30870631 -0.95107758 1.4113118e-06
0.10578474 -0.1851023 -0.016442345 -0.013395918 0.31358436 -0.94946587 4.523278e-05
0.11514933 -0.18533812 -0.016664289 -0.013245954 0.30987829 -0.95068389 5.4508411e-07
0.12302468 -0.18595554 -0.01698273 -0.0059743351 0.30943266 -0.95090258 0.00014831888
0.13633521 -0.18453728 -0.016703868 -0.024421031 0.30008426 -0.95359999 0.17483962
0.14633946 -0.18521382 -0.017056655 -0.91524488 0.068906926 -0.39696181 0.23282501
0.15148297 -0.18456693 -0.01546206 -0.10991525 0.57028103 -0.81406277 0.26789594
0.17941421 -0.18598153 -0.016082555 -0.99799389 0.012810304 -0.061999954 0.085522182
-0.1795669 -0.17090453 -0.017084155 0.99811232 0.03905727 -0.047395583 0.15380302
-0.15159251 -0.17542481 -0.015315967 -0.075653277 0.26419711 -0.96149701 0.21108401
-0.14368609 -0.1785709 -0.014808088 0.98812556 0.027730238 -0.15112574 0.21205433
-0.1359406 -0.17671117 -0.014098347 -0.035526082 0.28641182 -0.95744771 0.13614224
-0.12609498 -0.1758831 -0.013694353 0.026452499 0.3879309 -0.92130876 0.034096811
-0.11182472 -0.17180631 -0.012223145 0.037160095 0.43678737 -0.89879692 0.015041286
-0.10308484 -0.1747365 -0.013083472 0.064165458 0.38434225 -0.9209581 0.021165218
-0.091951638 -0.17472561 -0.012946704 0.035194445 0.41554853 -0.90888989 0.060197551
-0.083882064 -0.17383187 -0.011880902 0.021669326 0.46023485 -0.88753265 0.0617305
-0.075579681 -0.17627923 -0.013269762 0.02857825 0.44888106 -0.89313436 0.077932917
-0.065363795 -0.17898162 -0.014051955 -0.018140793 0.45142287 -0.89212579 0.099405862
-0.054244511 -0.17445984 -0.012445769 -0.093629636 0.42463958 -0.90050799 0.10830835
-0.047638714 -0.1782603 -0.013643057 -0.14793643 0.42549393 -0.89278758 0.064902604
-0.038931377 -0.17260818 -0.011801131 -0.2803731 0.36829859 -0.88642371 0.086255386
-0.028130289 -0.17585167 -0.015106345 -0.138078 0.33364478 -0.93253183 0.10523341
-0.017022684 -0.17599288 -0.012814431 0.14539441 0.30775055 -0.94029254 0.10417296
-0.0035662551 -0.17563818 -0.012579297 0.068121888 0.2874465 -0.95537102 0.03922398
0.0060342951 -0.17539224 -0.012481652 -0.16457541 0.28369617 -0.94468582 0.051881041
0.016242908 -0.17619781 -0.012768812 -0.2750054 0.33883455 -0.89975721 0.10396801
0.026914049 -0.17453043 -0.01596812 0.087121077 0.39927223 -0.91268373 0.1495728
0.03707552 -0.17499861 -0.012459587 0.21115255 0.51880038 -0.8284086 0.11433101
0.046403725 -0.17385115 -0.012147067 0.13077807 0.46656373 -0.87476587 0.047083993
0.05949964 -0.17954563 -0.014101861 -0.0094386544 0.33088201 -0.94362491 0.0011405104
0.063387558 -0.17278513 -0.011968247 -0.0090344157 0.43509945 -0.9003371 0.014288033
0.070109308 -0.17178273 -0.011707441 0.017607369 0.45087782 -0.89241201 0.017557414
0.085904382 -0.17643659 -0.013390769 -0.016882284 0.3774325 -0.92588323 0.0095100971
0.096736535 -0.17158234 -0.011954819 -0.017662276 0.39912707 -0.91672546 0.011126182
0.10773803 -0.17709199 -0.013863586 -0.029442739 0.36165169 -0.93184829 0.0052815056
0.11856375 -0.17580979 -0.013608499 -0.0094006602 0.37007466 -0.92895448 0.0059311311
0.12528808 -0.17670757 -0.013994664 -0.021733971 0.41387761 -0.91007304 0.035655886
0.1355018 -0.17630173 -0.014003497 -0.0039025641 0.4202038 -0.90742135 0.14093699
0.14619724 -0.17323793 -0.013149646 -0.99542773 -0.070792146 -0.064126633 0.22866464
0.1510438 -0.17496423 -0.01428774 -0.016942298 0.33611256 -0.9416694 0.27546382
0.17962691 -0.17804575 -0.018861836 -0.98908418 -0.0061755874 -0.14722207 0.20039506
-0.1797149 -0.16337419 -0.01882495 0.99566865 -0.07520552 -0.054663766 0.14493077
-0.15222743 -0.16503216 -0.012283701 0.4646841 0.49968892 -0.73101276 0.27059734
-0.13581859 -0.16889316 -0.011560862 0.061484922 0.51106423 -0.85734057 0.15954718
-0.12985 -0.16964705 -0.011723307 0.025339132 0.49669749 -0.86755377 0.087334231
-0.11192545 -0.16685852 -0.010608857 0.051005214 0.51790011 -0.85391921 0.03086541
-0.10514553 -0.16594905 -0.010237167 0.099495493 0.57314771 -0.81338942 0.051008072
-0.074262887 -0.16761607 -0.011303425 0.013982958 0.49028859 -0.87144792 0.1131211
-0.066332407 -0.16818281 -0.011670442 0.009491113 0.47010693 -0.88255841 0.097526997
-0.045388252 -0.16870208 -0.010569457 -0.22856198 0.41336527 -0.88141286 0.092919111
-0.026898269 -0.16820136 -0.016244516 -0.28602025 0.31846946 -0.90375304 0.17175908
0.0041876929 -0.16820639 -0.010212994 -0.17221928 0.22455595 -0.95912212 0.11956482
0.011960724 -0.16764326 -0.010061192 -0.2837629 0.23677532 -0.92920178 0.16411725
0.036119096 -0.1682813 -0.010341369 0.25569254 0.53969294 -0.80209285 0.12547188
0.04289078 -0.16892019 -0.010564758 0.15580118 0.5816676 -0.79836631 0.075731128
0.062672757 -0.16928163 -0.010837869 -0.008613023 0.48409438 -0.87497336 0.025065081
0.077862158 -0.16957386 -0.011068925 -0.02677701 0.50763851 -0.86115396 0.038399152
0.10922466 -0.1691218 -0.011293417 0.0072535574 0.42650041 -0.90445817 0.013510323
0.11150363 -0.1684207 -0.011090918 -0.041305494 0.48681989 -0.87252527 0.02956987
0.12408099 -0.16732377 -0.010914228 0.036792643 0.45643583 -0.88899529 0.016703403
0.13470101 -0.16624427 -0.010708736 -0.08046864 0.5784415 -0.81174511 0.15098786
0.15506536 -0.16747253 -0.011383347 0.029332556 0.82900542 -0.55847079 0.27681372
0.1794274 -0.16495256 -0.014545881 -0.97355115 0.027357183 -0.22682521 0.20769008
-0.17947567 -0.15380493 -0.014071079 0.98640245 0.10531867 -0.12616707 0.18011364
-0.15119751 -0.15513395 -0.01665589 0.95097226 0.16310172 -0.26277286 0.18291792
-0.024060875 -0.1541328 -0.013654522 -0.20544048 0.97851068 0.017638765 0.18339103
-0.014306418 -0.15099798 -0.011190402 -0.17896569 0.89397317 0.41083223 0.1357542
0.0091762934 -0.15113853 -0.0107476 0.22717626 0.838139 0.49589714 0.13515283
0.016574642 -0.15056068 -0.012567444 0.21304289 0.93231916 0.29222193 0.16108811
0.026241729 -0.15567935 -0.017925953 0.42571205 0.89146221 0.15512662 0.19929522
0.15117219 -0.15547648 -0.016082818 -0.96225214 0.14096054 -0.23281081 0.23665537
0.17929776 -0.15763299 -0.012494199 -0.99918622 -0.034015387 -0.02167568 0.16986324
-0.17949744 -0.14444561 -0.013855606 0.98295063 -0.066310279 -0.17149642 0.14194672
-0.15113382 -0.14743298 -0.015363849 0.97042525 0.15076149 -0.18853581 0.15732685
-0.020334112 -0.14976335 -0.01689733 -0.3906661 0.86939532 0.30254224 0.13398209
-0.0056107766 -0.14946674 -0.016012913 -0.098738909 0.85948235 0.50153846 0.12030359
0.0059261443 -0.14839263 -0.019395588 0.12701112 0.86721629 0.48146039 0.077088103
0.15110037 -0.14197436 -0.014907526 -0.97598833 0.18739805 -0.11103459 0.15473555
-0.17995074 -0.13406755 -0.019715946 0.99734718 -0.013938322 -0.071444817 0.11081116
-0.15096819 -0.13876021 -0.011841717 0.99138099 0.1007222 -0.08377818 0.12044225
0.15100488 -0.13220601 -0.013204027 -0.98914975 0.1394535 0.046210632 0.1788034
0.1796778 -0.13404581 -0.015052977 -0.99292821 0.10406208 -0.057137519 0.15838365
-0.17964272 -0.12382545 -0.014230524 0.99863017 0.019501181 -0.048554882 0.15967906
-0.15107514 -0.12817231 -0.015228598 0.98399311 0.10659914 -0.1428083 0.17247529
0.15114538 -0.12441057 -0.017234003 -0.99991947 0.006699936 0.010779655 0.062119592
0.17940769 -0.12291743 -0.01119498 -0.98293573 0.10729547 -0.14941578 0.15661742
-0.17947963 -0.11237289 -0.011208019 0.99210024 0.022052437 -0.12349379 0.098256275
-0.15101077 -0.11596382 -0.014466536 0.97586155 0.056979887 0.21082592 0.21494991
0.15109463 -0.11263444 -0.016781319 -0.99933314 0.032203089 0.017213238 0.1056605
0.17961062 -0.11248697 -0.012934839 -0.99484479 -0.028377021 -0.097357921 0.1345586
-0.17978227 -0.10918588 -0.014193357 0.98626739 0.01237885 -0.16469178 0.13607813
-0.15105312 -0.10377678 -0.015721664 0.99809694 -0.0028722775 0.061597712 0.12345663
0.151153 -0.10790098 -0.01797509 -0.99795789 0.028281586 0.057273246 0.16323823
-0.18005463 -0.095483825 -0.017397672 0.99797958 -0.015978821 -0.061493687 0.10550345
-0.15100831 -0.093910657 -0.014812171 0.99345601 -0.05404469 -0.1006191 0.16308865
0.15117821 -0.094546542 -0.017917613 -0.99939489 0.025691027 0.023449609 0.078309178
0.17960893 -0.09834332 -0.01152458 -0.99739921 -0.017233061 -0.069984257 0.061955329
-0.18009722 -0.083378337 -0.016839372 0.99773407 0.004288319 -0.067144759 0.11316731
-0.17965007 -0.084910914 -0.011115318 0.99570394 0.020139536 -0.090377338 0.059565891
-0.15099211 -0.087052584 -0.01426179 0.99680114 0.010415072 0.079239778 0.1860249
0.15087488 -0.087162845 -0.01214443 -0.99972689 0.019739596 -0.01250759 0.17697358
0.17974381 -0.085995555 -0.012003656 -0.99468213 0.013131722 -0.10215161 0.060133193
0.18008198 -0.084036686 -0.016653452 -0.99410605 0.030007062 -0.10417663 0.055427335
-0.1801215 -0.073109098 -0.016210139 0.99584782 0.0043811956 -0.090927958 0.063492633
-0.15101889 -0.073446199 -0.014222816 0.9993307 -0.0065813232 -0.035984386 0.057677895
0.17992188 -0.070255436 -0.012648424 -0.99588919 0.0066094133 -0.090338796 0.00060965575
-0.17995451 -0.06228143 -0.012494046 0.99546468 0.026756538 -0.091291241 0.051927164
-0.15105473 -0.065029472 -0.014547675 0.99479949 0.065128423 0.078308396 0.1354956
0.15118474 -0.061792329 -0.016775876 -0.99825937 0.031393185 -0.049926922 0.11850884
-0.15117671 -0.052260563 -0.01626404 0.99959177 0.0015087901 -0.028530177 0.00019635941
0.15104091 -0.051227566 -0.013766771 -0.98514944 -0.15785848 0.067537166 0.22990224
0.17990685 -0.054686353 -0.011665964 -0.99474418 0.00078863831 -0.1023884 0.059521183
0.18019439 -0.055475656 -0.015681591 -0.99468857 0.055300806 -0.086812787 0.11056454
-0.1804217 -0.042788245 -0.018257886 0.99794751 0.048069168 -0.042310078 0.12375835
-0.17983238 -0.044527698 -0.010466011 0.99393612 0.022239279 -0.10768628 0.1078435
-0.1513453 -0.045443822 -0.019302063 0.98650879 0.044724036 0.15748057 0.14476082
0.15107802 -0.046236813 -0.014452895 -0.99950171 -0.001013629 0.031550016 0.13192412
0.18028073 -0.045087427 -0.01611647 -0.99578446 0.053210668 -0.074711606 0.1603272
-0.15107077 -0.033287756 -0.014739668 0.95003706 -0.25209972 0.18405242 0.17686652
-0.023882769 -0.030732017 -0.019779865 0.62603593 -0.69514972 0.35333529 0.13049133
0.15129273 -0.03677588 -0.018632587 -0.99435049 -0.10548738 0.011811228 0.16857573
0.18055211 -0.032679968 -0.019551989 -0.99812442 0.0037694876 -0.061100204 0.092980199
-0.18022379 -0.021258717 -0.012938633 0.9954381 0.012748039 -0.094554476 0.0623568
-0.15106504 -0.023718212 -0.014934619 0.91404986 -0.34393531 0.2149916 0.26834688
-0.12352665 -0.025826272 -0.014180624 0.31078893 -0.90153939 0.30105972 0.13194293
-0.11404297 -0.02541917 -0.01430735 0.24493212 -0.91349155 0.32487157 0.13995886
-0.031397674 -0.025917817 -0.019684007 0.17623466 0.93285322 -0.31420732 0.13575269
-0.026048105 -0.027247488 -0.013023186 -0.36434981 0.84289062 -0.39596024 0.13500878
-0.017745215 -0.020446263 -0.018136224 0.96318102 -0.23373576 0.13285279 0.12492566
0.028947618 -0.028947074 -0.01990271 0.085870072 0.89299184 -0.4418053 0.1744955
0.032556593 -0.021579267 -0.013911221 -0.034148466 0.93237364 -0.35987946 0.15337631
0.11467671 -0.02594875 -0.014050574 -0.20862275 -0.92146707 0.3276813 0.12702546
0.15122698 -0.025263716 -0.017747659 -0.67122585 -0.42788467 0.60528558 0.26497102
0.17988554 -0.028209887 -0.0100767 -0.9882021 -0.06793797 -0.13726269 0.12529813
0.18023081 -0.029453384 -0.013775141 -0.9951067 -0.046186715 -0.087346449 0.062095858
-0.1803183 -0.016956197 -0.014178974 0.99647343 -0.027250633 -0.079360351 0.047478467
-0.15099284 -0.014533194 -0.013937952 0.99161536 0.068696521 -0.10945202 0.25584614
-0.1261431 -0.017739024 -0.017003946 -0.069175296 0.92691255 -0.36884686 0.21157907
-0.10621469 -0.01410542 -0.015814176 0.70964915 -0.62556177 0.32414585 0.23609979
-0.036726605 -0.013198636 -0.013351363 0.54563612 0.80310941 -0.23936687 0.24019995
-0.017681397 -0.014020695 -0.017192943 0.98156112 -0.14594506 0.12344185 0.10968
0.017675789 -0.016455464 -0.019057341 -0.95139962 -0.25829685 0.16769503 0.15921536
0.03508113 -0.017599881 -0.01589857 -0.05324294 0.90944541 -0.41240075 0.15110391
0.042651672 -0.01071855 -0.015514434 -0.23274595 0.86841083 -0.43782628 0.24767844
0.09686292 -0.0113574 -0.019688264 -0.15316407 -0.70479512 0.69267929 0.24357101
0.10610428 -0.013356097 -0.016271846 -0.50834256 -0.74102646 0.43871132 0.22797853
0.12599832 -0.017335452 -0.01384895 -0.11969408 0.87972867 -0.46016395 0.20078328
0.15111731 -0.012404306 -0.016152449 -0.37451586 -0.071304426 -0.92447478 0.25711989
0.18023455 -0.016019549 -0.013162862 -0.99427056 -0.015291416 -0.10579325 0.065470152
-0.18067163 -0.0079794787 -0.019531734 0.99823344 -0.014433223 -0.057634793 0.09300559
-0.15107128 -0.0084364079 -0.015333405 0.99317658 0.070330009 -0.093026713 0.2307574
-0.1261097 -0.0097167604 -0.010858058 0.13644481 -0.77150893 0.62141508 0.25553843
-0.10395792 -0.0092295958 -0.010854276 0.74144834 -0.63773805 0.20867336 0.2544744
-0.083970331 -0.0055715307 -0.014883292 0.26963997 -0.87008804 0.41260275 0.21299045
-0.074259236 -0.0040483018 -0.014885348 0.085581988 0.88681626 -0.45412856 0.20277242
-0.065635078 -0.0046921857 -0.014919372 0.13888173 0.91773635 -0.37211815 0.22088747
-0.054682422 -0.0062049017 -0.013813608 0.27435103 0.93231308 -0.23563488 0.21605256
-0.049728904 -0.0081202025 -0.014688734 0.50267911 0.86446971 -0.0024018851 0.23560329
-0.021073867 -0.0010323687 -0.019746635 0.98032719 0.19639736 0.019666076 0.14281736
-0.01785264 -0.0092719235 -0.015586824 0.99468559 -0.10013752 0.023939166 0.10486943
0.018691685 -0.0068308972 -0.014926754 -0.98390347 -0.12540121 0.12731242 0.1724761
0.020391399 -0.0015132218 -0.01519083 -0.99432033 0.10456219 -0.019843642 0.17619912
0.044977032 -0.0092651723 -0.013923357 -0.2206917 0.91114181 -0.34801686 0.22732036
0.053615764 -0.0069796741 -0.014931532 -0.43552899 0.78065807 -0.44820467 0.2058173
0.067903347 -0.0050127637 -0.016411416 -0.14796847 0.9410972 -0.30404186 0.17439255
0.075136781 -0.0035891142 -0.013634939 -0.025482723 0.94219565 -0.33409277 0.18603073
0.085877374 -0.004977054 -0.013072798 -0.40832189 -0.81953633 0.40203658 0.19337061
0.092205301 -0.0083148275 -0.016561922 -0.47524011 -0.75154436 0.45752352 0.19099025
0.10571928 -0.0096748481 -0.010380497 -0.65712148 -0.69428372 0.293533 0.21131553
0.12399237 -0.0032236823 -0.016913131 -0.39511615 0.76257461 -0.51221406 0.29814014
0.15119891 -0.0055891029 -0.017392343 -0.84603584 0.23068437 -0.48063305 0.25681424
0.18042794 -0.0050984104 -0.015299718 -0.99717104 -0.023583027 -0.071370989 0.091165759
-0.18048093 0.0090632755 -0.015357915 0.99737406 0.028160783 -0.066722304 0.0699801
-0.17835256 0.0092747752 -0.019002477 0.99694926 0.047831465 -0.061679803 0.16470778
-0.15107769 0.0076352754 -0.015288342 0.96478397 0.23959543 -0.10856342 0.26261237
-0.12127902 0.004412618 -0.017316559 0.92553663 -0.34879699 0.14738606 0.17418322
-0.022517614 0.005640767 -0.011945882 0.94620281 0.28911406 -0.1453038 0.12174258
0.02142572 0.0015759806 -0.014810553 -0.9542923 0.2968024 -0.035137739 0.19298987
0.12070978 0.0072704139 -0.013880795 -0.8759625 -0.48053497 0.042139377 0.15253799
0.15126459 0.0080726575 -0.01829852 -0.90129054 0.34258959 -0.26515606 0.2368075
0.17846617 0.0095641846 -0.015298882 -0.99527675 -0.020171516 -0.094959445 0.2253768
0.18074813 0.0023136726 -0.019990193 -0.99868321 0.0023371191 -0.051248342 0.063545845
-0.18042693 0.015250718 -0.013571749 0.99777234 0.03319335 -0.057866383 0.0052864803
-0.17606057 0.010291315 -0.013659473 0.98652273 0.010852967 -0.1632642 0.27406609
-0.150765 0.010524064 -0.010211388 0.92642176 0.37648368 0.001676625 0.276842
-0.11436026 0.015053833 -0.013369432 0.59598577 -0.77199775 0.22095339 0.14931755
-0.10696182 0.014542572 -0.01471563 0.15670371 -0.94679505 0.28111026 0.16959696
-0.097239546 0.014203893 -0.015607399 -0.065489247 -0.96230453 0.26397187 0.1610612
-0.07452023 0.013184894 -0.01829052 -0.145394 -0.96441907 0.22080874 0.14678121
-0.064301185 0.016021894 -0.010820436 0.025433049 -0.95485789 0.29597241 0.17846148
-0.046773218 0.015456049 -0.012310361 0.067313381 -0.95213616 0.29817063 0.1362361
-0.036999322 0.014416225 -0.01504831 -0.20775676 -0.93633962 0.28302869 0.20049524
0.025420148 0.012066128 -0.015715398 -0.72165912 0.67239594 -0.16459592 0.17985918
0.032254592 0.016044283 -0.010761487 0.13753572 -0.93774289 0.31893939 0.22807343
0.040847305 0.014142193 -0.015769864 0.096307024 -0.9014262 0.4220849 0.18896833
0.068961546 0.013275299 -0.01805247 -0.1235169 -0.9493807 0.2888248 0.1666372
0.070019618 0.015516203 -0.012151971 -0.05425591 -0.95550847 0.28993088 0.160092
0.082776971 0.014394967 -0.015104285 0.15280063 -0.91270965 0.37896299 0.18964796
0.099275514 0.015493412 -0.012211981 0.097693734 -0.96934676 0.22543901 0.19483738
0.10567366 0.014020987 -0.016089007 0.0180346 -0.98990273 0.14059687 0.2068352
0.11865846 0.011537351 -0.014366782 -0.79990625 -0.58629221 0.12810744 0.1653596
0.15121935 0.010492295 -0.017541435 -0.99836969 -0.055971816 0.011184188 0.20236039
0.18056005 0.010259897 -0.017931554 -0.99568087 -0.0052438234 -0.092694074 0.11217941
-0.18024102 0.022668615 -0.010869663 0.9942736 0.055274554 -0.091459014 0.064884923
-0.15108091 0.023327013 -0.01516413 0.99173224 -0.1275779 -0.013821336 0.11527337
0.1512012 0.024317313 -0.017093495 -0.9996509 -0.0088079283 -0.024907932 0.00022402288
-0.18041745 0.036997296 -0.011614664 0.99455148 0.032185692 -0.099153481 0.0023675214
-0.15129328 0.034460813 -0.018465098 0.99966961 -0.0043255039 -0.025336402 0.0002576804
0.15108207 0.032801516 -0.015076455 -0.99904984 0.00081451453 -0.043574836 0.069071606
0.18071227 0.033316497 -0.016672263 -0.99642724 0.036406562 -0.076205477 0.048800807
-0.18048751 0.045037508 -0.012591289 0.99675614 0.015172571 -0.079037502 0.068716362
-0.15111564 0.04383719 -0.016211169 0.99748272 -0.012210897 0.069849975 0.13397521
0.15111895 0.042781219 -0.016071338 -0.99959248 -0.028197803 -0.004434444 0.10218962
0.18071973 0.04494014 -0.015604208 -0.99651641 0.033489931 -0.07637807 0.075271845
-0.18068185 0.050837424 -0.014444424 0.99657369 -0.012816087 -0.081710748 0.070447713
-0.15099843 0.052206859 -0.016399287 0.9993366 -0.029974023 -0.020683227 0.06526079
0.15075038 0.057704311 -0.013765439 -0.99939269 -0.027380737 -0.021552149 0.061082624
-0.18078065 0.063811123 -0.01458066 0.99713433 0.0024354833 -0.075611688 0.00047303844
-0.15069169 0.065150782 -0.014667927 0.99934542 -0.01291369 -0.033794068 0.00013159782
0.15054445 0.064118281 -0.012037998 -0.99920559 -0.014403648 -0.037158005 0.00011511906
0.18082003 0.06197812 -0.015342751 -0.99731719 0.0063728443 -0.072923429 0.00028394305
-0.18118198 0.073992155 -0.018883966 0.99840653 0.0046375776 -0.056239489 0.00068115664
-0.15061933 0.07488364 -0.015917519 0.99952412 -0.022180695 0.021439675 0.016354445
0.15022622 0.077218384 -0.010159879 -0.99979651 -0.017531658 -0.0099792117 0.0023098169
0.18080075 0.076628663 -0.013255362 -0.99581975 0.0073775095 -0.091041885 0.00062962819
-0.18073666 0.08448559 -0.011711618 0.9956584 0.0050917133 -0.092943482 0.00060545304
-0.15024635 0.087179907 -0.012957475 0.99676681 -0.0093268827 0.079805508 0.03448388
0.15058437 0.083024621 -0.017375134 -0.99484545 -0.027355107 0.097643077 0.036052775
0.18096881 0.086815007 -0.014376258 -0.9960897 0.0046608597 -0.088224679 0.00058235275
-0.18141228 0.099451318 -0.019044233 0.99813551 0.0098127769 -0.060242616 0.00066449167
-0.15028819 0.095483437 -0.015693257 0.99449301 0.0080749644 0.1044913 0.050969843
-0.14999333 0.094213016 -0.010243025 0.99973911 -0.0079634953 0.021406278 0.01047553
0.15029302 0.094727784 -0.01558375 -0.99605364 0.030314464 0.083415359 0.038610481
0.18120956 0.096977927 -0.016586408 -0.99732387 0.0084017953 -0.072625987 0.00083405507
-0.18117282 0.10409309 -0.015407057 0.99626589 0.0096245715 -0.085799411 0.00046281438
-0.15003055 0.1019543 -0.01280863 0.99399322 -0.0064778305 0.10925025 0.042965878
-0.14995554 0.10301858 -0.011388679 0.99500841 -0.0098395217 0.099304602 0.039979376
0.15016101 0.10611019 -0.016070558 -0.9934271 0.049271788 0.10331858 0.059869807
0.18111177 0.1028854 -0.014816475 -0.99666524 0.007525241 -0.081250444 0.00066290528
-0.18125179 0.11399398 -0.015549671 0.99690008 0.0082565993 -0.078243442 0.00026642182
-0.1501087 0.11399067 -0.01724574 0.98335272 0.043269925 0.17648025 0.05546803
-0.14999904 0.11233385 -0.014447446 0.99276745 0.029175716 0.11645371 0.042285811
0.14989395 0.11476839 -0.012671178 -0.99963373 -0.010047409 -0.025128195 0.0026128176
0.1500406 0.11248013 -0.015399646 -0.99894857 0.014285015 0.043561939 0.039823748
0.1810334 0.11802146 -0.012378952 -0.99489987 0.010784307 -0.10028908 0.00052570563
-0.18118291 0.12280023 -0.014039916 0.99620193 0.0024405189 -0.087038748 0.00042890193
-0.15000747 0.12694669 -0.017923048 0.9926092 0.070807584 0.098555967 0.036039434
-0.14979088 0.12320407 -0.012289895 0.99997669 -0.0054817637 0.0040785898 0.0023262082
0.14980161 0.12686266 -0.013350624 -0.99931121 -0.0023473031 -0.037035212 0.0025945818
0.18085709 0.12167496 -0.010205316 -0.99502093 0.0094505381 -0.099216931 0.00050137425
-0.18105046 0.13560057 -0.011352193 0.99499971 -0.0057396158 -0.099712439 0.00081690511
0.14972547 0.13512117 -0.012637477 -0.9998005 0.0034981463 -0.019664429 0.00018576845
0.18168247 0.13762242 -0.019148868 -0.99836421 0.012466989 -0.055798322 0.00065877073
-0.15002722 0.14425299 -0.013833095 0.99962401 0.012878151 -0.024206255 0.00016529734
-0.1499673 0.14468358 -0.012249655 0.99965781 0.012873826 -0.022772685 0.00014607186
0.15014698 0.14362332 -0.016860018 -0.99987429 0.0099949054 -0.012308137 0.0058152918
0.18134399 0.14683329 -0.014245753 -0.99561423 -0.00037628025 -0.093553506 0.00045761128
-0.18135896 0.15394223 -0.013697783 0.99522942 0.0091620004 -0.0971312 0.00079951173
-0.1503531 0.15320055 -0.01567306 0.9987936 -0.044100229 0.021598106 0.013351485
0.15033799 0.15321632 -0.015329517 -0.99312478 -0.10126209 0.058729336 0.032263946
-0.1815747 0.16714926 -0.0147956 0.99384439 0.0085592614 -0.11045362 0.0013687379
-0.15065673 0.16248882 -0.017528987 0.96759361 -0.23875384 0.082214877 0.09203399
0.15066151 0.16700128 -0.014215094 -0.99054503 -0.13521402 0.023186559 0.083103381
0.18159753 0.16643091 -0.015175482 -0.99623793 0.0058220201 -0.086463884 0.0011157765
-0.18174151 0.17726214 -0.015654027 0.99609035 -0.022063132 -0.085540414 0.0045540044
-0.15077069 0.17758878 -0.015051378 0.99015367 -0.12418959 0.06459631 0.13765785
-0.14072919 0.17852505 -0.019384747 0.47160411 -0.84927446 0.23732366 0.23401782
-0.13213421 0.17887479 -0.018713055 0.030833451 -0.90153962 0.43159643 0.11926702
-0.12594508 0.1786257 -0.019191418 0.049133968 -0.88064152 0.47122851 0.056212679
-0.11251438 0.17835335 -0.019714488 0.00011954601 -0.88626331 0.46318161 2.7207682e-06
-0.10145503 0.1785422 -0.019351818 3.0563251e-06 -0.88696235 0.4618417 0
-0.092379689 0.17879905 -0.018858541 8.459745e-06 -0.88689834 0.46196461 0
-0.084024511 0.1789868 -0.018497948 -1.1359647e-05 -0.88688034 0.46199921 4.5516858e-06
-0.070528693 0.17841053 -0.019604683 -1.0378529e-05 -0.88696188 0.4618426 0
-0.068560526 0.17957193 -0.017374216 2.439765e-07 -0.88695949 0.46184719 0
-0.058265109 0.17921703 -0.018055834 -3.8116414e-06 -0.88695878 0.46184856 7.4352365e-06
-0.036478851 0.17934959 -0.017801227 -1.2962912e-05 -0.88695663 0.46185267 1.4608518e-05
-0.0058845482 0.17867059 -0.019105259 -2.3192197e-07 -0.88696223 0.46184209 0
0.0051343441 0.17851847 -0.019397387 -1.7668916e-07 -0.88696313 0.46184018 1.7741712e-06
0.017516039 0.17877609 -0.018902622 0.00019255764 -0.88666201 0.46241805 2.1632584e-05
0.035573188 0.17848915 -0.019453671 -0.00028126946 -0.88635492 0.46300632 2.1419417e-05
0.041883878 0.17872062 -0.019009158 0.00015751568 -0.88667512 0.4623929 1.5949126e-05
0.052723419 0.1793946 -0.017714746 -4.435019e-06 -0.88696378 0.46183896 0
0.063734613 0.1787889 -0.018878041 -1.3256647e-06 -0.88696146 0.46184337 0
0.080922619 0.17954352 -0.017428754 -6.3905522e-05 -0.88674659 0.46225595 0
0.091001749 0.17911075 -0.018259909 -0.0001628563 -0.88674861 0.46225196 1.2123439e-05
0.1247979 0.17916724 -0.018151414 -0.054601733 -0.88679731 0.45892179 0.02407092
0.13792881 0.1788709 -0.018720552 0.10706329 -0.84810936 0.5188911 0.22560081
0.14006419 0.17992024 -0.01670528 0.15463921 -0.83465034 0.52862608 0.22761516
0.15286538 0.17579086 -0.015278517 -0.9822765 -0.052591816 0.17990816 0.17336245
0.18131475 0.17898461 -0.010532252 -0.98693293 -0.048116349 -0.1537796 0.079616062
-0.18149029 0.18735075 -0.011168573 0.99417579 0.0062052514 -0.10759161 0.0050496794
-0.15127823 0.18256924 -0.014350017 0.99682796 -0.061668407 0.050309934 0.1546569
-0.14191724 0.18237561 -0.011989761 -0.13938746 -0.86419088 0.48347205 0.22456609
-0.13765901 0.18248798 -0.011773932 0.0073370682 -0.90438998 0.42664385 0.20262389
-0.12046301 0.18169481 -0.013297198 -0.00011456358 -0.88682771 0.46210015 0
-0.092151858 0.18025267 -0.016066847 2.1765663e-05 -0.88689607 0.46196902 0
-0.087484173 0.18223615 -0.012257576 0.00088191952 -0.88481659 0.46593869 4.6770838e-05
-0.077875219 0.18113759 -0.01436736 0.00025868934 -0.88620019 0.46330258 0
-0.065287396 0.1813525 -0.013954634 -0.00024375276 -0.88607383 0.46354416 2.2241768e-05
-0.059087247 0.18114066 -0.014361447 -4.9300138e-07 -0.88696289 0.4618406 0
-0.045034539 0.1811465 -0.014350264 -4.073358e-06 -0.88696152 0.46184343 1.8950684e-06
-0.034772824 0.18141222 -0.013839918 4.7475573e-06 -0.88696289 0.46184072 0
-0.025322523 0.18131498 -0.014026687 0.00037565353 -0.8866933 0.46235791 6.364573e-06
-0.012955825 0.1822734 -0.012186031 0.00097542128 -0.88585311 0.46396488 1.1177756e-05
-0.0029514208 0.18183954 -0.013019252 0.0011169447 -0.88465863 0.46623787 6.3670312e-05
0.017067432 0.18167511 -0.013335053 0.00030342588 -0.88528335 0.46505198 7.8962448e-06
0.025673356 0.18183926 -0.013019833 0.00090987468 -0.883865 0.46774131 1.9841733e-05
0.042569783 0.18313348 -0.010534279 0.00036159687 -0.88282317 0.46970528 3.33811e-05
0.054336678 0.18282586 -0.011125023 0.0013717777 -0.88268405 0.4699648 5.6103065e-05
0.074561834 0.1813089 -0.014038349 -0.00076390186 -0.88618892 0.46332338 7.4102769e-07
0.085917592 0.180668 -0.015269259 -0.00019661854 -0.88669062 0.46236312 0
0.092679948 0.18330307 -0.010208545 -0.0009043045 -0.88489008 0.46579897 2.9681712e-05
0.10478079 0.18124115 -0.014168483 0.00024263337 -0.8863163 0.46308002 0
0.11605311 0.18209359 -0.012531398 0.0012247376 -0.88466132 0.4662326 2.3530747e-05
0.12378398 0.18245699 -0.011833454 -0.022018308 -0.88915378 0.45707849 0.010103113
0.13262866 0.18106712 -0.014502706 0.062083941 -0.83675724 0.54404318 0.15024394
0.14888141 0.18206047 -0.012595002 -0.99566603 0.066828839 0.064675719 0.17684133
0.15080594 0.18417601 -0.016970497 -0.98294204 0.18342744 -0.013392612 0.1446415
0.18180162 0.18640202 -0.014699498 -0.99539685 -0.028682549 -0.091446288 0.0092870025
-0.18185179 0.19157273 -0.014563749 0.99779654 -0.015976569 -0.064395666 0.011202593
-0.15096861 0.19520284 -0.0153905 0.97973716 0.20007344 -0.0092636701 0.12191507
0.15085071 0.19605298 -0.0176054 -0.89974052 0.4226107 0.10893686 0.15418921
0.18211065 0.19349504 -0.016784711 -0.99590021 -0.090316802 -0.0050591328 0.035007205
-0.18176647 0.20591211 -0.015044813 0.98498231 -0.11267626 0.13082023 0.069502078
-0.15103294 0.20374359 -0.014938871 0.99119729 0.12483888 -0.044081181 0.16465753
0.1509694 0.20325856 -0.01605312 -0.87249559 0.43264905 0.22708185 0.2145433
0.17869741 0.20405057 -0.014354865 -0.95742571 -0.28486687 0.04676475 0.18856482
0.18128465 0.20666957 -0.014630144 -0.98700327 -0.14236569 0.074542046 0.049422409
-0.18250787 0.21782342 -0.015367575 0.96840233 -0.11364412 0.22199526 0.079621613
0.1823924 0.21612163 -0.015161148 -0.97425014 -0.18676937 0.1263088 0.069579139
-0.18270311 0.22814232 -0.012884094 0.97023773 -0.14414072 0.19458188 0.097273529
-0.18268892 0.23755571 -0.010559738 0.98600006 -0.11758482 0.11822752 0.078220621
-0.17200129 0.23492076 -0.019024804 0.78131896 -0.23698038 0.57739145 0.21196619
-0.15828653 0.23855564 -0.018213056 0.1461328 -0.17471603 0.97371423 0.089504458
-0.13516651 0.23461357 -0.019234069 0.52384007 -0.20565267 0.82661867 0.12362389
-0.12914993 0.2357879 -0.01873479 0.65866667 -0.21994457 0.71957117 0.13202283
0.13508406 0.23292223 -0.019968588 -0.41781583 -0.29403052 0.8596372 0.099957898
0.14900987 0.2359015 -0.018644623 -0.14530902 -0.21541502 0.96565086 0.0779173
0.15565616 0.2371171 -0.018641006 -0.088575497 -0.19893797 0.97600096 0.070944637
0.17559057 0.23681504 -0.018433282 -0.87942237 -0.20421854 0.43001294 0.19673926
0.18339393 0.23740593 -0.015912313 -0.91930193 -0.018185088 0.39313263 0.14100125
-0.1828059 0.24374913 -0.017153572 0.98271132 -0.056983016 0.17615713 0.10337666
-0.17916383 0.24183935 -0.017713295 0.93894953 -0.10287892 0.32831341 0.15448022
-0.16275588 0.24733257 -0.016932305 0.18154278 -0.08289431 0.97988302 0.12619299
-0.15152761 0.24327029 -0.017534489 0.072420456 -0.21636412 0.9736231 0.055648863
-0.14482901 0.24369535 -0.017485768 0.23952477 -0.19733147 0.95062524 0.10364422
-0.13465366 0.24299693 -0.017609157 0.52816331 -0.19205277 0.8271392 0.13027763
-0.12801607 0.24421358 -0.017638784 0.70874846 -0.12744901 0.69385332 0.14808266
0.12806137 0.24528663 -0.017727792 -0.57710862 -0.20162313 0.79138714 0.1049955
0.13349915 0.24738412 -0.016967213 -0.43729144 -0.16144751 0.88470954 0.096539624
0.14683342 0.24182385 -0.017756514 -0.17652999 -0.17489828 0.96863186 0.059130535
0.15567407 0.24260719 -0.017623389 -0.13098668 -0.16132806 0.97816962 0.059913345
0.16001624 0.24115378 -0.017827954 -0.13829282 -0.21851933 0.96598357 0.073268965
0.17359821 0.24542622 -0.017608233 -0.70546091 0.049639426 0.70700836 0.20916006
0.18352389 0.24783394 -0.013625911 -0.94098771 0.12742388 0.31353673 0.15113293
-0.18329376 0.25879931 -0.011900609 0.95611972 -0.021591658 0.29217947 0.12042876
-0.17143288 0.25949186 -0.015383798 0.57533419 0.0217195 0.81763005 0.17726904
-0.16458943 0.2544927 -0.015914325 0.39266026 -0.0625927 0.91755116 0.17154709
-0.15293057 0.25751734 -0.015505895 -0.015523524 -0.036932804 0.99919719 0.042639889
-0.14508505 0.25560552 -0.015756115 0.26641002 -0.013983071 0.96375829 0.1081004
-0.13129884 0.25602895 -0.015753761 0.62679273 -0.042251702 0.77803963 0.14397106
-0.1287155 0.25804797 -0.015428429 0.72867072 -0.065375872 0.68173671 0.13372292
0.12803429 0.25716731 -0.015974987 -0.67169935 -0.097599633 0.73436654 0.10173757
0.14504653 0.25529993 -0.015801527 -0.17074694 -0.069718957 0.98284531 0.064020842
0.15390939 0.25537899 -0.01580748 -0.073799051 -0.050251987 0.99600631 0.046236273
0.16711184 0.25829297 -0.01537403 -0.43258324 0.13722187 0.89109027 0.17035274
0.17929532 0.25472894 -0.015880741 -0.91619521 0.14085194 0.37516278 0.19343053
0.18324599 0.25554061 -0.017581161 -0.96303189 0.13017397 0.23584816 0.14945816
-0.18216515 0.26762155 -0.013174015 0.9513706 0.016925378 0.30758342 0.11688881
-0.17419431 0.26385862 -0.015927624 0.80719167 0.041394118 0.58883637 0.17175804
-0.16570434 0.2666963 -0.016271513 0.30287436 0.059643369 0.95116234 0.15474449
-0.15954955 0.26672068 -0.016267894 0.19461903 0.06437593 0.97876406 0.10939933
-0.1451709 0.26162931 -0.015645212 0.23517396 0.05175475 0.97057444 0.093443044
-0.13404173 0.26503763 -0.016062055 0.56904674 0.061660048 0.81999016 0.14319663
-0.12796879 0.26525521 -0.019330004 0.86107916 0.030745188 0.50754058 0.13763559
0.12796879 0.26487291 -0.017141797 -0.57108545 0.046914812 0.8195489 0.11911533
0.14568061 0.26170221 -0.015654128 -0.15159819 -0.023077065 0.98817283 0.064823776
0.15589347 0.26815343 -0.016443118 -0.090159886 0.10072345 0.99082083 0.0616032
0.16643415 0.26251975 -0.015754117 -0.31497371 0.035752796 0.94842678 0.18173604
0.17550355 0.26498801 -0.016072474 -0.94183934 0.071861267 0.32829049 0.18348183
0.18345596 0.26557204 -0.014443272 -0.98721892 -0.02896766 0.15671536 0.1262051
-0.18288007 0.27125323 -0.01063427 0.95400357 0.059780885 0.29377457 0.11968688
-0.17447042 0.27694494 -0.018078506 0.89012539 0.16457038 0.42496273 0.16661324
-0.16985294 0.27802789 -0.017709544 0.42669418 0.29587251 0.85462946 0.17570105
-0.14177945 0.27850392 -0.017721858 -0.17956571 -0.2384914 -0.95439935 0.084204063
-0.1336914 0.27592212 -0.017394096 0.48003554 0.19016171 0.85639036 0.13452525
-0.12796879 0.27155393 -0.01842406 0.90041876 0.10019975 0.42332736 0.13390017
0.12901452 0.27457905 -0.017541846 -0.54631275 0.1157516 0.82954443 0.12133253
0.13372599 0.2758286 -0.01738181 -0.46496105 0.12948482 0.87581098 0.11434644
0.14261857 0.27576435 -0.01738115 0.19107346 -0.1856328 -0.96386266 0.088358298
0.15472543 0.27115858 -0.016818034 0.051791329 -0.12418976 -0.99090594 0.058038637
0.16684842 0.27675688 -0.017543923 -0.32838941 0.037463594 0.9437992 0.20811795
0.17975329 0.27922195 -0.019676847 -0.98720825 0.068163976 0.14413075 0.16520806
0.18261953 0.2759181 -0.016663834 -0.98404855 0.014161515 0.17733581 0.12989388
-0.18342537 0.28524208 -0.017163765 0.94020927 0.027985649 0.33944559 0.12042444
-0.16759455 0.28344402 -0.019058287 -0.30642992 -0.30824858 -0.9006018 0.15739277
-0.15541679 0.28399122 -0.019268394 -0.071323752 -0.31118703 -0.94766849 0.047642238
-0.1440458 0.28358221 -0.019076407 -0.18496969 -0.3266511 -0.92686856 0.067583047
-0.12989718 0.28482968 -0.019578651 0.65211684 0.32765725 0.68365508 0.1327479
0.12822939 0.28400844 -0.01922928 -0.68938649 0.22788158 0.68761641 0.14312465
0.13177589 0.28234917 -0.018653687 -0.60504234 0.212323 0.76736087 0.13517383
0.15771802 0.28296855 -0.018840799 0.06757807 -0.33764398 -0.93884492 0.07969746
0.17664473 0.28321192 -0.018980494 -0.93634737 0.078697324 0.34214079 0.19623387
-0.18254453 0.29733002 -0.015714427 0.94444072 0.12093689 0.30562383 0.098834522
0.1825157 0.29640192 -0.015250906 -0.97995234 0.17202176 0.10050821 0.080071971
-0.1815083 0.30529112 -0.013683465 0.96684587 0.16381371 0.19589317 0.073419377
0.18130103 0.30559886 -0.012584992 -0.99651575 0.052404501 0.064885445 0.058412064
-0.18058446 0.31805712 -0.017343473 0.9963032 0.081439629 0.027340522 0.067429528
-0.17884935 0.32572654 -0.011409619 0.99337089 -0.081229858 -0.081338644 0.0125148
0.17945205 0.32251537 -0.013058774 -0.99664122 -0.045350209 -0.068188369 0.020820623
0.18008038 0.32144052 -0.016588593 -0.99896801 -0.045397591 0.0013793915 0.042407788
-0.17848657 0.33647713 -0.018849606 0.99199605 -0.093241051 -0.085146636 0.0061862492
0.17819203 0.33663338 -0.016441518 -0.98743713 -0.10232557 -0.12040523 0.00043145835
-0.17716396 0.3454631 -0.015829129 0.9876703 -0.11510661 -0.10610288 0.0005187529
-0.17601518 0.35594642 -0.015284871 0.98796076 -0.10228758 -0.11606366 0.00051464682
0.1755757 0.35560969 -0.011501818 -0.98638648 -0.10384735 -0.12750483 0.00036312558
-0.1742329 0.36922455 -0.011704881 0.98647326 -0.10366639 -0.12697954 0.00031276053
0.17503016 0.36501306 -0.014612164 -0.9881863 -0.10634259 -0.11035907 0.0003753425
-0.1728365 0.38306123 -0.012575193 0.98676282 -0.10959876 -0.1195292 0.00024775599
0.17284356 0.38581872 -0.015323071 -0.9875747 -0.11269686 -0.1095247 0.00031832533
-0.17160159 0.39764196 -0.017397918 0.98728424 -0.12070155 -0.10344563 0.00031766671
0.17149384 0.39496455 -0.012921318 -0.98587126 -0.1213057 -0.11551124 0.00030841009
-0.170509 0.40575355 -0.016385229 0.98664671 -0.12337325 -0.10633596 0.0002502031
0.17082852 0.4049179 -0.019411001 -0.9869104 -0.12876832 -0.097091012 0.00037760352
-0.1700616 0.41010523 -0.019118685 0.98696858 -0.12902209 -0.09615802 0.00029400468
-0.16881746 0.41584444 -0.014061821 0.98362589 -0.13758704 -0.11640394 0.00030380266
0.16894799 0.4147602 -0.013142187 -0.98350787 -0.14092888 -0.11336359 0.00033696578
-0.16687471 0.42723992 -0.011388461 0.97481161 -0.19084296 -0.11541755 0.0011272653
0.16775911 0.4240467 -0.016727973 -0.97961295 -0.16327426 -0.11704708 0.00098340586
-0.16567099 0.43568569 -0.017487073 0.9682008 -0.21207218 -0.13271236 0.0037877001
0.16461243 0.43955022 -0.01286112 -0.95868325 -0.25501189 -0.12607686 0.0066211522
-0.16440801 0.44084251 -0.015055075 0.95026416 -0.27407953 -0.14791338 0.0065361015
0.16347156 0.44432154 -0.016504301 -0.93344831 -0.32219726 -0.15768088 0.011206453
-0.16081327 0.45171708 -0.014800698 0.86700338 -0.46356311 -0.18279576 0.01524361
-0.15866846 0.4557015 -0.010411928 0.82772171 -0.5376361 -0.16069867 0.020473329
-0.1552836 0.46149224 -0.01557244 0.73282337 -0.63430923 -0.24621497 0.035556037
-0.14723377 0.46814597 -0.014869181 0.58707845 -0.7600199 -0.27876276 0.040112179
0.1485167 0.46730167 -0.013113081 -0.57402396 -0.78208721 -0.24256137 0.039092422
0.15351138 0.4635976 -0.016976833 -0.67429924 -0.66487229 -0.32134935 0.041033324
-0.14172506 0.47076651 -0.016981088 0.47084102 -0.83160102 -0.29453105 0.043023661
-0.13070416 0.47363979 -0.014315916 0.21918827 -0.94875979 -0.22762115 0.027333209
-0.11505436 0.47515002 -0.012108076 0.11316361 -0.97469729 -0.1927671 0.015954796
-0.10546152 0.47645831 -0.013607047 0.093006395 -0.96737134 -0.23567437 0.028754551
-0.093746386 0.47744447 -0.014911545 0.038870294 -0.97528923 -0.2174855 0.024965888
-0.087613903 0.47786602 -0.017534524 0.046235789 -0.96574837 -0.255328 0.028340308
-0.078585416 0.47861183 -0.011782517 0.016346533 -0.98859704 -0.14969553 0.017633813
-0.064269215 0.47935575 -0.01659615 0.011247477 -0.94977427 -0.31273377 0.02526338
-0.056618601 0.47876054 -0.015461402 -0.0050840406 -0.967673 -0.25215688 0.021859029
-0.049373768 0.47831529 -0.017693724 0.011849304 -0.95195389 -0.30601203 0.022094488
-0.035887815 0.47875485 -0.012551463 0.012258216 -0.95766079 -0.28763792 0.015797544
-0.02339527 0.479215 -0.012414121 0.0088742869 -0.97381496 -0.22716886 0.010675419
-0.014130063 0.47880429 -0.014516324 -0.007850986 -0.95189792 -0.30631471 0.022680011
-0.0030613958 0.47896108 -0.014871521 0.010895303 -0.9734242 -0.22874987 0.015829898
0.0097537385 0.47973526 -0.019980427 -0.040177267 -0.92206758 -0.38493794 0.023903128
0.014275435 0.47877026 -0.012474705 -0.012675536 -0.98091733 -0.19401179 0.019366836
0.020622585 0.47939959 -0.010857673 -0.036711738 -0.98324609 -0.17854805 0.021978332
0.036437415 0.47854394 -0.014009951 -0.027576152 -0.97745621 -0.20932978 0.011827329
0.042328786 0.47848889 -0.017119095 0.00076322351 -0.95024323 -0.31150785 0.021461667
0.064087383 0.47920674 -0.015272073 0.0085191848 -0.95866328 -0.28441536 0.028377969
0.07258977 0.47899562 -0.013358503 -0.022400917 -0.97891289 -0.20304623 0.035519719
0.08340092 0.47825325 -0.013019869 -0.049346663 -0.97790855 -0.20312491 0.033805877
0.092984676 0.4774898 -0.018380165 0.014098636 -0.93917656 -0.34314504 0.042374589
0.11333551 0.4758538 -0.015645247 -0.11623382 -0.95051038 -0.28813145 0.03042686
0.12412985 0.4746691 -0.014816325 -0.20046043 -0.95005488 -0.23918898 0.026475694
0.13164689 0.47338152 -0.012868272 -0.26444238 -0.94941348 -0.16936414 0.02146117
-0.022468127 0.48039412 -0.016761394 0.012895874 -0.94947904 -0.31356534 0.019143026
-0.0022211312 0.48051006 -0.017449824 -0.025404811 -0.92499059 -0.37913984 0.022583419
0.016435938 0.48040971 -0.016853953 -0.025639199 -0.95640564 -0.29091373 0.01522526
0.024393952 0.48027471 -0.016052544 -0.046545312 -0.95524794 -0.29212111 0.01428041
-0.052827891 -0.47047696 -0.005730893 0.08376614 0.8948794 -0.43837669 0.025702244
-0.025477633 -0.47152343 -0.006641543 0.071146816 0.88845932 -0.45340738 0.027364422
-0.015731683 -0.47245976 -0.0047227633 0.048714001 0.89587373 -0.44163015 0.031434763
-0.0054135974 -0.47450015 -0.0057147457 0.038665835 0.88783032 -0.45854369 0.030180555
0.0047358652 -0.47540632 -0.0063351551 -0.015709538 0.89661866 -0.44252476 0.03171042
0.015085764 -0.47278079 -0.0065709404 -0.074553333 0.8998298 -0.42982325 0.028562458
0.021617927 -0.47108251 -0.0059367171 -0.020758111 0.89508194 -0.44541836 0.026967142
0.031462174 -0.47116986 -0.0057308935 -0.043373119 0.90245765 -0.42858943 0.027307777
0.049245626 -0.47171521 -0.0065271617 -0.1129297 0.90327454 -0.41393492 0.026576942
-0.095012635 -0.4613902 -0.0043606963 0.22093581 0.84329981 -0.48993134 0.028647611
-0.084676564 -0.4646256 -0.0056131603 0.163202 0.86248595 -0.47904405 0.027089117
-0.076634072 -0.46464464 -0.0048891436 0.10208267 0.87265873 -0.47754145 0.026322614
-0.064252779 -0.46429622 -0.0010902768 0.075967155 0.87606698 -0.47616771 0.026735347
-0.056225874 -0.46551389 -0.0055679986 0.079137668 0.8844313 -0.45991147 0.027479129
-0.04576451 -0.466075 -0.0045460602 0.063571721 0.89965981 -0.4319385 0.02580858
-0.035041336 -0.46464154 -0.0043699332 0.062587537 0.90782124 -0.41466048 0.030106826
-0.025377804 -0.46193388 -0.0054808198 0.038814861 0.90604275 -0.42140234 0.028745793
-0.01518672 -0.46351781 -0.0014032088 0.050039865 0.8931725 -0.44692168 0.033812247
-0.0041981689 -0.46927238 -0.0033201508 0.03190909 0.88811439 -0.45851356 0.037225258
0.0033837617 -0.46443605 -0.0062501431 0.028107015 0.88348353 -0.4676182 0.030816736
0.013689054 -0.46459213 -0.0049449145 -0.035283551 0.89437717 -0.4459199 0.031675827
0.026485259 -0.46379045 -0.0045746723 -0.006896697 0.88779783 -0.46018201 0.026270134
0.03565754 -0.46598363 -0.004220298 -0.062362801 0.90233409 -0.4265022 0.025169477
0.047487337 -0.46837354 -0.0040393132 -0.092961699 0.90997434 -0.40411004 0.028319584
0.057041466 -0.46688423 -0.0035478072 -0.12571315 0.8997007 -0.41801298 0.025655871
0.06317576 -0.46472308 -0.0039136843 -0.12873794 0.90202504 -0.41204053 0.025782168
0.075844161 -0.46317878 -0.0040393109 -0.14105041 0.88628656 -0.44113597 0.025418239
0.085693419 -0.46346039 -0.0046205102 -0.14326648 0.87809259 -0.45653918 0.017368944
