# .PCD v0.7 - Point Cloud Data file format
VERSION 0.7
FIELDS x y z normal_x normal_y normal_z curvature
SIZE 4 4 4 4 4 4 4
TYPE F F F F F F F
COUNT 1 1 1 1 1 1 1
WIDTH 573
HEIGHT 1
VIEWPOINT 0 0 0 1 0 0 0
POINTS 573
DATA ascii
0.075462595 0.22807856 0.16788605 -0.049415562 -0.069358021 -0.99636722 0.013416185
0.09469898 0.22547191 0.16608676 -0.13050698 -0.0060539716 -0.99142897 0.011877614
0.10861117 0.22151458 0.16700445 -0.17128667 -0.040908318 -0.9843716 0.011342032
0.11964251 0.22478725 0.16721818 -0.21190992 -0.02053559 -0.97707343 0.013897489
0.12341681 0.22567965 0.16486277 -0.28652769 -0.025629027 -0.9577291 0.01656951
-0.13151702 0.23806787 0.1642925 0.39595839 -0.077212594 -0.91501641 0.027010798
-0.12566167 0.23544349 0.16316395 0.31822476 -0.091702044 -0.94356966 0.021516154
-0.11824743 0.23158604 0.16454975 0.27398878 -0.096839301 -0.95684499 0.013547422
-0.10384151 0.23855725 0.16658147 0.17991656 -0.096474312 -0.97893959 0.0077368575
-0.098980106 0.23266783 0.165106 0.1506492 -0.061541244 -0.98666996 0.01014727
-0.084990978 0.23973033 0.16634575 0.076684549 -0.077136293 -0.99406713 0.01249498
-0.070000663 0.23788936 0.16744494 0.044059243 -0.086436309 -0.99528265 0.011910092
-0.064365998 0.23519152 0.16781314 0.0059258952 -0.061451685 -0.99809247 0.013828251
-0.048188079 0.23994264 0.16806781 -0.00085560197 -0.06738998 -0.99772632 0.014813306
-0.039167922 0.23456369 0.16864605 0.029144073 -0.080680683 -0.99631381 0.013886376
-0.02799576 0.23414075 0.16886097 0.056257654 -0.079509392 -0.9952454 0.012508737
-0.0042645419 0.23412016 0.16909821 -0.015912674 -0.062995888 -0.99788696 0.013142229
0.0028761858 0.23292242 0.16917513 -0.043982517 -0.056949869 -0.99740779 0.010787611
0.012117075 0.23519817 0.16902898 -0.016383002 -0.02961714 -0.99942702 0.010943382
0.026180806 0.23610608 0.16876529 0.033330306 -0.041853949 -0.99856764 0.01220176
0.033901941 0.23740956 0.16855182 0.0026265688 -0.060349073 -0.99817383 0.012418105
0.041062921 0.23072088 0.16886096 -0.001574401 -0.057120841 -0.99836606 0.013925226
0.057850353 0.23608699 0.16798109 -0.029365269 -0.071638621 -0.99699831 0.014111429
0.06232528 0.23421127 0.1679467 -0.0088559482 -0.074470982 -0.99718386 0.014672903
0.076446213 0.23396558 0.16747394 -0.04136635 -0.052392889 -0.99776936 0.014952437
0.085510522 0.23744842 0.16642946 -0.070896789 -0.075637706 -0.9946118 0.012055002
0.10418543 0.23510563 0.16681194 -0.14198723 -0.050658826 -0.98857135 0.0098782834
0.11418827 0.23462009 0.16475956 -0.16895209 -0.037238833 -0.9849205 0.010727113
0.12621525 0.23643313 0.16365045 -0.34199744 -0.036352813 -0.93899751 0.01987236
0.13473895 0.23704758 0.16348559 -0.54806006 -0.044043936 -0.83527857 0.028431505
-0.12236164 0.24235809 0.16091144 0.29256889 -0.01387151 -0.95614386 0.010255094
-0.11623836 0.24368572 0.16160312 0.2268773 -0.051467951 -0.97256243 0.0069171931
-0.10714691 0.24626891 0.16472824 0.16226588 -0.08954116 -0.98267597 0.0083432309
-0.099520601 0.24373828 0.16761327 0.17063406 -0.095722146 -0.98067397 0.0085372897
-0.082642935 0.24012801 0.16660446 0.082093924 -0.083071031 -0.99315649 0.012947924
-0.060522765 0.24131458 0.16755295 0.014951187 -0.067652553 -0.99759692 0.013489865
-0.055678338 0.24189308 0.16766956 0.019976646 -0.041236002 -0.99894971 0.0123558
-0.043234602 0.24249198 0.16803345 0.012187812 -0.077446938 -0.99692196 0.014672294
-0.038458124 0.24731898 0.16772985 0.037258331 -0.091881759 -0.99507266 0.013908056
-0.026187183 0.24507806 0.16812444 0.038945898 -0.059923004 -0.99744302 0.012834674
-0.0068973578 0.24434744 0.16838554 -0.013955309 -0.060633086 -0.99806255 0.014329593
0.0055111367 0.24358249 0.16845566 -0.051610205 -0.034249235 -0.9980799 0.012695081
0.010285557 0.24191961 0.16859542 -0.022959854 -0.039666262 -0.99894911 0.012625622
0.024205426 0.24467511 0.16819161 0.011026454 -0.046266992 -0.99886829 0.01387144
0.036908176 0.24688447 0.16779244 -0.019302964 -0.07559479 -0.99695182 0.014017985
0.049729981 0.24171698 0.16790052 -0.023658037 -0.074432559 -0.99694544 0.014023787
0.057428595 0.24543056 0.16732407 -0.033863429 -0.063758492 -0.99739069 0.01433879
0.063821383 0.24763699 0.16691741 -0.036041357 -0.076380268 -0.99642718 0.013426223
0.095606185 0.24632154 0.16620749 -0.14140569 -0.090469018 -0.98580927 0.010231826
0.10584643 0.24975018 0.16800494 -0.145281 -0.10345649 -0.98396659 0.00682534
0.11191215 0.24570484 0.16225977 -0.13251376 -0.11168565 -0.98486871 0.0072208168
0.12181416 0.24346882 0.16221452 -0.23564205 -0.082368329 -0.96834302 0.016532017
0.13280123 0.24838684 0.16312134 -0.46370974 -0.032268617 -0.88539934 0.033058174
-0.13271572 0.25862291 0.16222364 0.40860042 0.021020731 -0.91247129 0.02756092
-0.12737027 0.25300905 0.16137296 0.35966817 -0.0092609068 -0.9330343 0.020669663
-0.11507969 0.25484642 0.16374545 0.15914002 -0.062429365 -0.98528022 0.008619274
-0.10658286 0.25524542 0.16410761 0.15007065 -0.064359814 -0.98657817 0.0083692782
-0.095615938 0.25264141 0.16900067 0.12582059 -0.10071744 -0.98692709 0.010826172
-0.08883474 0.25618064 0.16620032 0.09909521 -0.11425991 -0.98849618 0.010741655
-0.076782808 0.25634176 0.16573724 0.070450373 -0.096025534 -0.99288255 0.010348896
-0.053651974 0.25460511 0.16668355 0.0089699356 -0.08279673 -0.99652606 0.01316997
-0.045096289 0.25683153 0.16679251 0.019746711 -0.060879547 -0.99794972 0.012727434
-0.039811797 0.25914383 0.16671322 0.024260864 -0.071574487 -0.99714017 0.012957978
-0.026225718 0.25129494 0.16760126 0.040236898 -0.07770735 -0.9961639 0.014718991
-0.017117627 0.25206834 0.16768932 0.019351017 -0.072384462 -0.9971891 0.012836336
-0.0031284764 0.25430021 0.16755481 -0.0079649091 -0.046615761 -0.9988811 0.012483858
0.017352134 0.25762513 0.16721834 -0.020527704 -0.049975883 -0.99853939 0.012625355
0.022440456 0.25272256 0.1675449 -0.0084661674 -0.05686707 -0.99834591 0.014315601
0.044394098 0.25931579 0.16660801 -0.014378434 -0.076930456 -0.99693274 0.012508953
0.050289512 0.25991827 0.16635334 -0.0062398473 -0.084748745 -0.99638277 0.013154957
0.062892765 0.25466743 0.16635858 -0.035844017 -0.06262973 -0.99739295 0.012263473
0.081343099 0.25729024 0.16535237 -0.085523985 -0.089157231 -0.99233896 0.0098235635
0.096979976 0.2565943 0.1655117 -0.15653946 -0.10571422 -0.98199791 0.0074570095
0.10478911 0.25512409 0.16643465 -0.14147092 -0.080289848 -0.9866811 0.0082251281
0.11630577 0.25286093 0.1648221 -0.14160752 -0.092103325 -0.9856289 0.0077973627
0.12676768 0.25566688 0.16364123 -0.27291775 -0.048279766 -0.96082515 0.01924289
0.13589293 0.25035915 0.16217384 -0.53258789 -0.027431982 -0.84592998 0.038103685
-0.1292038 0.26930916 0.16103813 0.28202388 -0.017002665 -0.95925671 0.01319702
-0.11852916 0.26574242 0.16431844 0.17705502 -0.060608618 -0.98233294 0.0089295786
-0.10425697 0.26108852 0.16724381 0.15980361 -0.070042476 -0.9846608 0.0074493848
-0.092517555 0.26524857 0.16332994 0.095681451 -0.10505146 -0.98985314 0.008308758
-0.084779955 0.26349589 0.16773809 0.098766029 -0.10497992 -0.98955768 0.0087155029
-0.073144637 0.26646328 0.16501234 0.068217732 -0.096166052 -0.99302489 0.0093238195
-0.067285091 0.26882738 0.16501635 0.034380484 -0.10120445 -0.9942714 0.0094922362
-0.043194987 0.26250377 0.16637395 0.014962271 -0.075688638 -0.99701923 0.012956499
-0.034627486 0.26034737 0.16669919 0.04178866 -0.069633834 -0.99669695 0.014046226
-0.026422655 0.26649973 0.16631998 0.041307721 -0.081649728 -0.99580473 0.012512725
-0.01734986 0.26595375 0.16651836 0.03653194 -0.084046237 -0.99579197 0.014552807
0.025989035 0.26499644 0.16645361 -0.030998193 -0.058418043 -0.99781078 0.01170891
0.032569345 0.26397282 0.16642907 -0.02155132 -0.077313192 -0.9967739 0.012796714
0.043527268 0.26556748 0.16610122 -0.022356531 -0.074398316 -0.99697798 0.012523055
0.050438315 0.26368156 0.1660319 -0.0082371393 -0.063246399 -0.99796396 0.013430458
0.065457344 0.26155275 0.16569106 -0.017298473 -0.07024134 -0.99738008 0.012393468
0.075093992 0.26839387 0.16976798 -0.076454625 -0.092968002 -0.99272937 0.0098732607
0.083141059 0.26638299 0.16536726 -0.10278113 -0.094217949 -0.99023181 0.0088906847
0.097499929 0.26540604 0.1660371 -0.14087802 -0.1121928 -0.98364937 0.0093619376
0.10853688 0.26390085 0.16136165 -0.11678533 -0.10449978 -0.98764414 0.010105981
0.11675572 0.26080748 0.16506621 -0.15015621 -0.091729999 -0.98439771 0.0091429548
0.1258401 0.26648855 0.1630016 -0.24945194 -0.13159463 -0.95940429 0.018238824
0.13091989 0.26328772 0.16233049 -0.40552831 -0.08585009 -0.91004205 0.041033454
-0.12473642 0.27389789 0.16218182 0.23861863 -0.049345724 -0.96985877 0.013632304
-0.11610111 0.27543941 0.16395783 0.15831929 -0.077206925 -0.98436481 0.010582307
-0.10157674 0.27021343 0.16181542 0.13091038 -0.086405203 -0.98762172 0.0081051327
-0.095750883 0.27598158 0.16452871 0.08732944 -0.10324575 -0.99081475 0.0087701734
-0.085947536 0.27754965 0.1655841 0.077507801 -0.10000756 -0.99196321 0.0087948488
-0.077365644 0.2731531 0.16596574 0.072830558 -0.10527438 -0.99177271 0.0081005171
-0.061234176 0.2759912 0.16960898 0.035317224 -0.089736767 -0.99533916 0.0089702941
-0.057163935 0.27292332 0.16668415 0.033805706 -0.087526292 -0.99558842 0.0098992186
-0.047056813 0.27422354 0.16525976 0.05448442 -0.083501302 -0.99501705 0.010771539
-0.036175665 0.27137604 0.16574621 0.017563637 -0.069839261 -0.99740362 0.012218321
-0.025274312 0.27766341 0.16540097 0.034339119 -0.078274377 -0.99634022 0.0096995672
-0.019444237 0.27607295 0.16563264 0.030202992 -0.070206024 -0.99707514 0.011505002
0.00096397224 0.27384835 0.16591179 0.023624552 -0.094478026 -0.99524659 0.010357239
0.012845425 0.27650222 0.16568874 -0.010624468 -0.092396922 -0.99566561 0.010758962
0.033766557 0.27866605 0.16517398 -0.019386191 -0.073887117 -0.99707818 0.010332996
0.045825191 0.27733383 0.16504407 -0.015256254 -0.072554052 -0.99724776 0.010572125
0.053337451 0.27528492 0.16994163 -0.015632207 -0.076457404 -0.99695033 0.011078621
0.067710891 0.27597725 0.16689336 -0.034426849 -0.071364895 -0.99685591 0.0095480205
0.074949428 0.27562955 0.16750295 -0.072196454 -0.089616902 -0.99335617 0.0085842041
0.091644868 0.27378112 0.16645736 -0.11105647 -0.095877208 -0.98917848 0.0087322341
0.10434803 0.27539867 0.16430494 -0.11528785 -0.12783641 -0.9850719 0.0081318617
0.11397104 0.27971148 0.16399778 -0.14547072 -0.11815587 -0.98228168 0.0089426441
0.1230214 0.27843186 0.16236529 -0.17337103 -0.10967328 -0.97873092 0.010979525
0.13167705 0.27509573 0.16110735 -0.36191183 -0.11935519 -0.92453992 0.036332797
-0.12717533 0.28333473 0.16100039 0.21410501 -0.1226055 -0.96908557 0.018538831
-0.11163564 0.28171903 0.16422683 0.14000042 -0.098456316 -0.98524421 0.0094927438
-0.10429359 0.28764242 0.16483103 0.1490923 -0.095089421 -0.98424053 0.011449907
-0.096727349 0.2854701 0.16348702 0.13110815 -0.10772112 -0.98549825 0.010924436
-0.084783576 0.28594646 0.16488266 0.10284499 -0.072350651 -0.99206263 0.0096466662
-0.073859051 0.28511429 0.1645561 0.051675491 -0.080827057 -0.99538761 0.0069951243
-0.062414877 0.28537086 0.16491918 0.01782505 -0.093633808 -0.9954471 0.0076990677
-0.054243863 0.28363749 0.1674732 0.055665612 -0.071259476 -0.99590337 0.0084266635
-0.045432918 0.28164983 0.16715112 0.037920382 -0.065126918 -0.99715626 0.0090427287
-0.036269747 0.2829808 0.16845059 0.02964822 -0.088742159 -0.99561334 0.00934768
-0.021311164 0.28612989 0.16796272 0.03029432 -0.080601901 -0.99628592 0.0088378303
-0.013231941 0.28723699 0.16467033 0.0038129464 -0.072194226 -0.9973833 0.0079676947
-0.0073387288 0.28711754 0.16767529 0.011164284 -0.087208353 -0.99612761 0.0082064755
0.0032897207 0.28587133 0.1658055 0.026508147 -0.077988043 -0.99660176 0.0078656953
0.014764683 0.28483027 0.16987784 -0.018689945 -0.090071544 -0.99575996 0.008015193
0.024320366 0.2850441 0.1661347 -0.029751685 -0.092078805 -0.99530721 0.0083042625
0.035648137 0.28685206 0.16557653 0.00063504057 -0.064564481 -0.99791336 0.0079153767
0.043666046 0.28570923 0.16713117 0.0014842952 -0.044548072 -0.99900609 0.0077754189
0.052250586 0.28231448 0.16684344 -0.019573832 -0.064173616 -0.99774677 0.0079710381
0.063498005 0.28870773 0.16828933 -0.05079874 -0.090085909 -0.99463761 0.0067441403
0.078090258 0.28915712 0.16272432 -0.11708238 -0.14142898 -0.98300028 0.0048916959
0.084408812 0.28470755 0.16381416 -0.12229817 -0.11754803 -0.98550779 0.0070455149
0.096599154 0.28542447 0.16101463 -0.14283112 -0.10337419 -0.98433375 0.0083569288
0.11325867 0.28502777 0.16356848 -0.1367763 -0.11235137 -0.98421007 0.010071097
-0.12670779 0.29271159 0.16009541 0.23760249 -0.12849914 -0.9628256 0.017408976
-0.11611841 0.29580039 0.16187961 0.14694484 -0.11469655 -0.98247236 0.010342996
-0.10873623 0.29353702 0.16350596 0.13336623 -0.12005582 -0.98376828 0.010209745
-0.09205509 0.2970753 0.16530535 0.14841275 -0.10088246 -0.9837665 0.011949498
-0.08601509 0.29532939 0.16497698 0.099650539 -0.09600091 -0.99038053 0.0097798239
-0.071487077 0.29583055 0.16725138 0.057871547 -0.077243328 -0.99533129 0.0066703879
-0.062332768 0.29324171 0.16283321 0.053342804 -0.069141872 -0.99617964 0.0054544955
-0.056518603 0.29930136 0.16743134 0.010879287 -0.095016837 -0.99541622 0.0056921826
-0.04325233 0.29552132 0.16494773 0.037419904 -0.10969511 -0.99326068 0.0066606007
-0.033105966 0.29216498 0.16715293 0.036262535 -0.095207714 -0.99479669 0.0079833502
-0.02788157 0.29565862 0.16523893 0.017216373 -0.090565555 -0.99574167 0.0076537272
-0.011998426 0.29548085 0.16883324 0.01406833 -0.11068434 -0.99375606 0.0059988592
-0.0046427804 0.29558176 0.16668962 0.0071082483 -0.081767984 -0.99662602 0.0066010696
0.0057648499 0.29386246 0.16899808 0.0013317178 -0.073816076 -0.997271 0.006707978
0.015246971 0.29631633 0.16572468 -0.024492731 -0.064648733 -0.99760747 0.0059215371
0.025996216 0.29449758 0.16703673 -0.028284134 -0.074805535 -0.99679697 0.006617805
0.034361918 0.2953642 0.16596082 -0.0098918211 -0.10042062 -0.99489594 0.0065782103
0.045136515 0.29555792 0.16521519 -0.010319997 -0.1100527 -0.99387217 0.0053328108
0.053036869 0.29370573 0.16562626 -0.027993916 -0.086405486 -0.9958666 0.0064435112
0.07348793 0.29524165 0.16557017 -0.12438824 -0.14983433 -0.98085535 0.0040557822
0.083797306 0.29386562 0.16465428 -0.13703722 -0.1361219 -0.98116857 0.0064093722
0.10514506 0.29712468 0.1637027 -0.12172407 -0.10677753 -0.98680383 0.010321675
0.12333775 0.29786327 0.16025434 -0.14350311 -0.097506903 -0.98483461 0.0088597862
-0.11559328 0.30225277 0.16128767 0.14368923 -0.12864821 -0.98122531 0.010908767
-0.10314226 0.30610874 0.16299577 0.14272739 -0.12179288 -0.98223996 0.010963758
-0.092940859 0.3066577 0.16417341 0.15306082 -0.12701945 -0.98001963 0.010702973
-0.078411773 0.30234683 0.16379726 0.09267021 -0.10578664 -0.99006128 0.010144238
-0.063071489 0.30847752 0.16120584 0.048725303 -0.10973514 -0.99276584 0.0095009916
-0.057520758 0.30405781 0.16355057 0.0042606029 -0.13372453 -0.99100935 0.0067288182
-0.040007807 0.30740941 0.16710865 0.044525851 -0.15371823 -0.98711097 0.0051523568
-0.034467418 0.3056131 0.16574278 0.022139529 -0.13791437 -0.99019659 0.0062454203
-0.026302978 0.30358443 0.16775343 0.042312089 -0.11718203 -0.99220866 0.0056808367
-0.016415305 0.30473244 0.16619222 0.02614456 -0.084966041 -0.99604076 0.0060722651
-0.0022981837 0.30633959 0.16650845 0.04323573 -0.10422426 -0.9936136 0.0047754017
0.0052261348 0.30679181 0.16604584 0.0050498345 -0.089914858 -0.99593663 0.0045493366
0.014737524 0.30771983 0.16425627 -0.036690768 -0.095731087 -0.99473089 0.0051921429
0.024624459 0.30316931 0.16659632 -0.026270997 -0.09073554 -0.99552846 0.0060960669
0.034239531 0.30475444 0.16649118 -0.027524268 -0.087970063 -0.99574274 0.0062623057
0.048250794 0.30358845 0.16727248 -0.0011270317 -0.10765383 -0.99418771 0.0063360077
0.053693362 0.30848324 0.16657266 -0.034133747 -0.11910205 -0.99229509 0.00647781
0.067667276 0.30494279 0.16642228 -0.13368571 -0.10219324 -0.98574072 0.0058645643
0.071733877 0.3032358 0.16311036 -0.10976804 -0.11064848 -0.98777926 0.0064597442
0.082885943 0.3069416 0.16369952 -0.11451721 -0.099544942 -0.98842126 0.010652545
0.11210226 0.30655429 0.16148199 -0.11103273 -0.098151363 -0.98895806 0.01059828
-0.094379634 0.31538135 0.16306612 0.14752376 -0.14770579 -0.97796714 0.011842113
-0.082159363 0.31401488 0.16468638 0.09963315 -0.12016165 -0.98774207 0.012287635
-0.07599131 0.31456766 0.16382609 0.081499457 -0.11701961 -0.98977989 0.012052065
-0.065124564 0.31570169 0.16337259 0.051410027 -0.14733337 -0.98774993 0.010454599
-0.053818185 0.31660256 0.16445047 0.00345126 -0.1242847 -0.99224061 0.0098242844
-0.046048604 0.31567016 0.16209264 0.02240316 -0.099699982 -0.99476528 0.0093401521
-0.030719049 0.3115418 0.16189905 0.032833796 -0.14675389 -0.98862797 0.0053358465
-0.026807671 0.31587139 0.16319653 0.055872094 -0.15341812 -0.98658061 0.0058306037
-0.017135451 0.31448373 0.16437739 0.05047923 -0.11957057 -0.99154156 0.0055852723
-0.0032629957 0.31484756 0.1652412 0.031303745 -0.11021646 -0.99341458 0.0060481234
0.026380885 0.3160978 0.16450448 -0.021286886 -0.12552217 -0.99186242 0.0072006434
0.035891049 0.31437489 0.16504952 -0.032726478 -0.11122755 -0.99325597 0.007268758
0.048856262 0.31175727 0.16640368 -0.024246333 -0.13194798 -0.99096 0.0065805539
0.052575689 0.31565902 0.16252264 -0.049073786 -0.14364202 -0.9884122 0.008554955
0.066113494 0.31378853 0.16220261 -0.12252349 -0.1248675 -0.98457915 0.0074867578
0.09700492 0.31490192 0.16279922 -0.10757343 -0.065768696 -0.99201941 0.011400951
0.10405028 0.31650251 0.16175732 -0.10707545 -0.052739892 -0.9928512 0.010375265
-0.10074416 0.32942113 0.16051361 0.15200819 -0.099568583 -0.98335117 0.010183903
-0.096579328 0.32304263 0.16189131 0.14602041 -0.11368693 -0.98272747 0.011441739
-0.083301336 0.3271026 0.1630075 0.10585167 -0.11366346 -0.98786443 0.012745566
-0.0720388 0.32627735 0.16387919 0.048734538 -0.099479727 -0.99384546 0.011269644
-0.069279596 0.32293826 0.16439182 0.059486557 -0.11566105 -0.99150586 0.01142395
-0.056368425 0.32581437 0.16455269 0.010298441 -0.10610803 -0.99430126 0.011229105
-0.04413528 0.32294232 0.16233681 0.025269408 -0.11900053 -0.99257255 0.0098340278
-0.038546328 0.32634825 0.16010477 0.03822596 -0.10048307 -0.99420416 0.010332233
-0.025103385 0.32401648 0.16167028 0.018043101 -0.12424292 -0.99208784 0.0078872778
-0.014712179 0.32294917 0.16475156 0.048487697 -0.15947677 -0.98601019 0.0065049874
-0.00466371 0.32345492 0.16349189 0.02816027 -0.15849851 -0.98695749 0.0074657574
0.007279709 0.32005787 0.1663717 -0.012111587 -0.12333599 -0.99229109 0.0071109715
0.018585505 0.32032919 0.16622819 -0.026536621 -0.1344863 -0.99056011 0.0071260985
0.035672031 0.32133073 0.16074601 -0.025238235 -0.13330783 -0.99075323 0.0091485288
0.044443652 0.32462236 0.16264769 -0.043657817 -0.13826641 -0.98943239 0.010811114
0.052584916 0.3250879 0.16478032 -0.061653484 -0.14171952 -0.98798501 0.010982482
0.08923015 0.32646006 0.16236699 -0.076433457 -0.069441177 -0.99465364 0.01046631
0.10379476 0.32102355 0.16123854 -0.12219302 -0.084015146 -0.98894405 0.010516027
-0.088269338 0.33828226 0.16098469 0.10833244 -0.11900157 -0.98696649 0.011746778
-0.063163772 0.3354997 0.16314018 0.033895232 -0.10731262 -0.9936474 0.012069433
-0.05331419 0.33862489 0.16318339 0.006683406 -0.12310376 -0.99237132 0.012776162
-0.047229424 0.33986223 0.16328517 0.0010848267 -0.12209432 -0.99251795 0.012959485
-0.029713964 0.33849365 0.1638906 0.0097309817 -0.10241805 -0.99469388 0.0093696676
-0.013579156 0.33710611 0.16439337 0.041971482 -0.097980082 -0.99430293 0.015596943
-0.004603175 0.33299759 0.1632254 0.035026152 -0.11587924 -0.99264556 0.01121637
0.0073373402 0.33234084 0.16495903 0.0059819687 -0.11718073 -0.9930926 0.01272135
0.019560434 0.3341589 0.16461593 -0.010078277 -0.11162798 -0.99369895 0.011427396
0.024116961 0.33949614 0.16390035 -0.037592262 -0.13936856 -0.98952681 0.012245676
0.032765035 0.33785015 0.16389644 -0.015597698 -0.12357521 -0.99221259 0.011673189
0.046565674 0.33452708 0.16392398 -0.041092545 -0.14709458 -0.98826844 0.011544116
0.056985296 0.33490703 0.16346975 -0.066483013 -0.13476162 -0.9886452 0.011658226
0.065441273 0.33290294 0.16335776 -0.074893579 -0.13101996 -0.98854679 0.011820077
0.073851131 0.33314109 0.16296789 -0.07049372 -0.10794188 -0.99165475 0.010441573
0.086455889 0.33639887 0.1614724 -0.063689329 -0.09133672 -0.99378127 0.0098334011
0.099057712 0.33373326 0.1601574 -0.12411372 -0.094177954 -0.98778862 0.010254812
-0.080054373 0.3474583 0.16067766 0.081425928 -0.12587485 -0.98869884 0.010431857
-0.077130646 0.34708318 0.16091165 0.086011849 -0.11478084 -0.9896602 0.0098742731
-0.053355236 0.34664035 0.16207145 0.0028107576 -0.14607626 -0.98926938 0.012978454
-0.044323437 0.34740573 0.16232869 0.00074526406 -0.1043605 -0.99453926 0.01339497
-0.039668728 0.34573045 0.16276228 0.019934747 -0.12385114 -0.9921006 0.012584927
-0.0013118692 0.34596273 0.16338196 0.04054239 -0.044604279 -0.99818164 0.035983469
0.0054690009 0.34360322 0.16365615 -0.0043161837 -0.049321134 -0.99877363 0.038932811
0.015198386 0.34606659 0.16321689 -0.067842737 -0.062404532 -0.99574238 0.03126831
0.03923285 0.34561014 0.16279262 -0.042963687 -0.14609489 -0.98833728 0.013467835
0.045637935 0.34580734 0.16252525 -0.051974885 -0.14524859 -0.98802912 0.014549145
0.05465737 0.34713945 0.16193062 -0.059364721 -0.15370698 -0.98633152 0.013613571
0.069352992 0.34802681 0.1611138 -0.046026435 -0.15656364 -0.98659486 0.010581926
0.075431831 0.34447369 0.16140223 -0.06406831 -0.11587853 -0.9911949 0.012158953
-0.080931842 0.35044101 0.16007257 0.091293953 -0.14960581 -0.98452193 0.011291188
-0.055988617 0.35180444 0.1611101 0.046704106 -0.12679663 -0.99082863 0.011978941
-0.026334057 0.3530001 0.16190715 0.035533533 -0.090972528 -0.99521929 0.013449163
-0.012487167 0.35301256 0.16221014 0.073917061 -0.043454196 -0.99631727 0.034712061
-0.001866955 0.35548672 0.16414408 0.047634739 -0.042854894 -0.99794507 0.064536385
0.0031728116 0.35645294 0.16346073 0.013946622 -0.080827996 -0.99663055 0.055100862
0.014408337 0.35547721 0.16177547 -0.087959468 -0.071331345 -0.99356681 0.047479175
0.028985651 0.35282594 0.16187017 -0.020809786 -0.1421749 -0.98962277 0.012199742
0.034674831 0.35393479 0.16154945 -0.015620965 -0.13917293 -0.99014485 0.011745804
0.045509096 0.35678419 0.16077034 -0.067758732 -0.13619986 -0.98836148 0.010174837
0.054765187 0.35714924 0.1602958 -0.08210624 -0.1765441 -0.98086226 0.01168095
-0.04898347 0.36019987 0.16006359 0.027255153 -0.17317533 -0.98451382 0.011981707
-0.011663225 0.36084938 0.16093834 0.094291888 -0.082082354 -0.99215502 0.060713712
-0.0028120927 0.36351496 0.16521567 0.10637915 0.0053302129 -0.99431127 0.130144
-0.008677626 -0.00066570565 0.17021281 0.0069235186 0.13701805 -0.99054426 0.011185696
-0.06338191 0.0072668511 0.17030844 0.07119517 0.11982256 -0.99023926 0.01059069
-0.034949459 0.0085763838 0.17132813 0.03440953 0.10070352 -0.99432129 0.011221412
-0.026134947 0.0022248516 0.17046916 0.04492294 0.099761143 -0.99399674 0.010991563
-0.014263254 0.0043459265 0.17097752 0.0090545304 0.085979722 -0.99625582 0.012895499
-0.0024898369 0.00027488638 0.1703628 0.0045112842 0.13589472 -0.990713 0.011402872
0.018020585 0.0055932757 0.17114273 -0.026510391 0.097217292 -0.99491006 0.011431036
0.042857595 0.0050110132 0.17062712 -0.023712875 0.10377057 -0.99431849 0.011112758
0.051556237 0.0074111954 0.17070831 -0.0015744296 0.086419381 -0.9962576 0.011467752
0.068674453 0.006593423 0.17001928 -0.087161452 0.065028295 -0.99406958 0.010164246
-0.081000902 0.019826971 0.17067614 0.096988857 0.11576606 -0.98852992 0.011944021
-0.073891878 0.017880801 0.17081907 0.067793369 0.099639997 -0.99271142 0.013152793
-0.049716171 0.010073253 0.17108279 0.018530462 0.071360946 -0.99727839 0.011286125
-0.035687719 0.01971883 0.17209764 0.044972826 0.077585533 -0.99597085 0.01292033
-0.013444628 0.014819195 0.17211848 0.011837555 0.05471069 -0.99843204 0.013191979
-0.0087916935 0.014283948 0.17208143 0.0049413084 0.052951045 -0.99858487 0.012232885
0.0045183445 0.016779792 0.17225659 -0.036323287 0.05517295 -0.99781591 0.0127477
0.014310071 0.011325327 0.17186791 -0.042505503 0.097394332 -0.99433774 0.010502188
0.020066168 0.011456225 0.17178035 -0.024582196 0.086095527 -0.99598354 0.012197255
0.035019606 0.01610815 0.17185549 -0.013838349 0.064929999 -0.99779385 0.01254015
0.042961061 0.01319226 0.17150976 -0.024653153 0.090158202 -0.99562228 0.014067939
0.056867409 0.016428361 0.17128868 -0.03397157 0.054446723 -0.99793863 0.012941396
0.063400149 0.01545386 0.171001 -0.060016073 0.05982428 -0.9964031 0.013447542
0.073814854 0.016942829 0.17075497 -0.085242622 0.088521034 -0.99242008 0.012094167
-0.080316372 0.029845826 0.17143212 0.072761044 0.069483809 -0.99492604 0.01338408
-0.077796541 0.0266062 0.17129368 0.058731001 0.056012683 -0.99670112 0.014408769
-0.065397993 0.023624085 0.17150727 0.028793318 0.069317438 -0.99717903 0.013028714
-0.054680184 0.023302568 0.17184454 0.0098199416 0.063622683 -0.9979257 0.01296113
-0.044873189 0.029613283 0.17261663 0.049066994 0.081613503 -0.9954555 0.014159557
-0.031648908 0.025851168 0.17259586 0.03776776 0.072487101 -0.99665403 0.014011589
-0.023048282 0.026266683 0.17276958 0.022460222 0.072261773 -0.99713278 0.013539668
-0.017083075 0.025125578 0.17278975 -0.0039114868 0.042293478 -0.99909759 0.012294347
-0.0052474011 0.026208702 0.17291826 0.0089342417 0.050129972 -0.9987027 0.013048775
0.0094735064 0.024148492 0.17277369 -0.0074408171 0.052185215 -0.99860972 0.014869157
0.012095577 0.023813508 0.17275017 -0.023564935 0.070178539 -0.99725604 0.015009126
0.022349607 0.020546002 0.17237987 -0.028268946 0.093755551 -0.99519384 0.013353115
0.035005346 0.025150275 0.17249028 -0.023925435 0.090688527 -0.99559182 0.013070843
0.057105463 0.024944494 0.17187834 -0.030118207 0.072423421 -0.9969191 0.013907942
0.076136708 0.020298408 0.1709118 -0.076743007 0.090735264 -0.99291366 0.011426372
-0.084634215 0.033386704 0.17118567 0.08392182 0.067364156 -0.99419272 0.014857112
-0.076599762 0.03659603 0.17203079 0.065773979 0.096248798 -0.99318177 0.013891466
-0.035538118 0.034378201 0.17312892 0.028103286 0.041714747 -0.99873418 0.015939567
-0.025210375 0.035575539 0.1733865 0.016771898 0.043327902 -0.99892014 0.014169844
-0.018892443 0.034362301 0.17340754 -0.012683631 0.032184947 -0.99940145 0.015150123
-0.0023856808 0.03472165 0.17351568 0.02303279 0.039666291 -0.99894744 0.014760358
0.012010554 0.038117737 0.17375399 0.011638555 0.065289967 -0.9977985 0.013697073
0.023179539 0.037002258 0.17352074 -0.018930731 0.09150251 -0.9956249 0.013406553
0.033830725 0.031035334 0.172923 7.0368777e-05 0.078827791 -0.99688822 0.013346693
0.047850028 0.034207135 0.17283908 -0.042962935 0.068960108 -0.99669391 0.014018046
0.053522922 0.032871488 0.1725549 -0.031845104 0.086676069 -0.99572742 0.014577576
0.06319312 0.034723911 0.17236026 -0.047689609 0.060470425 -0.99703008 0.013278283
0.082990304 0.036518522 0.17158899 -0.087144129 0.087102294 -0.9923805 0.011464292
0.090413854 0.031763941 0.17040981 -0.12069706 0.094570145 -0.98817444 0.013288907
-0.10279346 0.048106879 0.17004248 0.1659364 0.063309297 -0.98410213 0.0094039794
-0.090022951 0.04445358 0.17132275 0.11670537 0.070022479 -0.99069512 0.014701916
-0.080025099 0.04221632 0.17230371 0.1037413 0.063809834 -0.99255532 0.013869229
-0.074154712 0.046754807 0.17282285 0.03455605 0.040303648 -0.99858969 0.012901417
-0.067894265 0.045583576 0.17295787 0.056547526 0.039043088 -0.9976362 0.013496293
-0.05096164 0.047185238 0.17364536 0.0093867509 0.068638667 -0.9975974 0.013552049
-0.047285214 0.04062663 0.17330854 0.025021734 0.066327713 -0.99748409 0.013018202
-0.036294255 0.04434827 0.17381585 0.028795196 0.06300012 -0.99759799 0.014142509
-0.016640818 0.045292124 0.17420742 0.01053935 0.080824234 -0.99667263 0.014241979
0.0019706658 0.041903608 0.17401968 0.013354239 0.026518298 -0.9995591 0.01271748
0.019474739 0.045986503 0.1742135 0.012262218 0.076314323 -0.9970085 0.014157269
0.025717679 0.045554835 0.17407829 -0.028407188 0.10659301 -0.9938969 0.013618864
0.038266227 0.048480552 0.17407271 -0.016834382 0.06875138 -0.99749178 0.014740882
0.04849926 0.040387969 0.17325102 -0.028117739 0.08074709 -0.99633795 0.012820559
0.050096568 0.045891602 0.17358363 -0.027720775 0.082659043 -0.99619228 0.014020487
0.066371031 0.04569662 0.17301843 -0.066065021 0.076235019 -0.9948988 0.012973378
0.076052651 0.047111385 0.17278203 -0.067602322 0.061858721 -0.99579287 0.013450129
0.086059108 0.043604661 0.17172068 -0.062655412 0.049548473 -0.99680448 0.014226817
0.095309936 0.043254513 0.1706211 -0.11535294 0.087654412 -0.98944956 0.012942934
0.10035722 0.046862788 0.1702553 -0.12847915 0.090401441 -0.98758328 0.012642018
-0.099790402 0.051367618 0.17062092 0.15396923 0.0456472 -0.98702073 0.010840763
-0.08661034 0.055807624 0.17249195 0.11281861 0.044519342 -0.99261773 0.015427969
-0.071462646 0.054371558 0.17344642 0.050089419 0.046368681 -0.99766779 0.013347905
-0.063000709 0.05409022 0.17371956 0.026407817 0.022667184 -0.99939424 0.013782525
-0.053656831 0.0520356 0.17389527 0.014175554 0.052812837 -0.99850386 0.016730957
-0.043160155 0.054564603 0.17440113 0.026757522 0.04263654 -0.99873227 0.014613884
-0.030569764 0.054800499 0.17464557 0.025539424 0.0496259 -0.99844128 0.013171936
-0.025865072 0.054130539 0.17467763 0.003682049 0.055161256 -0.99847072 0.014243928
-0.0026645018 0.055007238 0.17493922 -0.0096815014 0.087935373 -0.99607915 0.010555741
0.0073853564 0.0564196 0.17503834 0.0074915462 0.085639238 -0.99629802 0.0098051401
0.020668894 0.050512493 0.17451103 0.0039104992 0.05424764 -0.9985199 0.012344521
0.034158267 0.056914859 0.17473364 -0.039354548 0.064522326 -0.99713999 0.011783844
0.043593552 0.059216686 0.17473659 -0.020603081 0.04809621 -0.99863017 0.011364083
0.053399157 0.054030903 0.17404391 -0.010707123 0.056903467 -0.99832225 0.013124352
0.07376416 0.055125237 0.1734193 -0.065362476 0.070391051 -0.99537569 0.014178107
0.094402149 0.050127022 0.17119128 -0.10159401 0.071458839 -0.99225616 0.013098098
-0.10102697 0.069164939 0.1716446 0.14031035 0.052300643 -0.98872524 0.012408745
-0.085164823 0.061269976 0.17303185 0.098789215 0.015390143 -0.99498934 0.013695681
-0.073203892 0.065176472 0.17413867 0.041068237 0.01849222 -0.99898523 0.011701467
-0.06493438 0.065246932 0.17442966 0.047122564 0.040186293 -0.99808043 0.01214522
-0.056686841 0.065612473 0.17224519 0.036261704 0.032120157 -0.99882603 0.010731808
-0.044832766 0.06370461 0.17500174 0.019405413 0.06017556 -0.99799919 0.012080195
-0.034058057 0.065272674 0.17033653 0.022963172 0.057600658 -0.9980756 0.01110702
-0.024329085 0.06491369 0.17546016 0.016273011 0.070797138 -0.99735796 0.010199745
-0.015582119 0.067426041 0.17578344 0.015414824 0.065154299 -0.99775606 0.0099659851
-0.0060878298 0.066452816 0.17241891 0.015982531 0.067275748 -0.9976064 0.0093640434
0.0037991796 0.066292398 0.17174295 -0.0080214413 0.074765168 -0.9971689 0.0086413482
0.014739852 0.064237431 0.17308104 0.010764427 0.046925597 -0.99884039 0.0088887746
0.022881715 0.066889338 0.17562312 -0.016164595 0.029173197 -0.99944371 0.008197193
0.034047738 0.065313481 0.17283222 -0.013277886 0.037293654 -0.99921608 0.010953007
0.057117399 0.062560439 0.17451298 -0.035295408 0.049634844 -0.99814355 0.012799013
0.067914456 0.067506567 0.17448393 -0.07582666 0.084073707 -0.99357027 0.014065297
0.079983719 0.06199462 0.17367743 -0.081542768 0.064856991 -0.99455732 0.015099193
0.092427745 0.062414713 0.17224038 -0.10144532 0.061022744 -0.99296778 0.013220541
0.11088965 0.067692757 0.1700846 -0.15422778 0.046566803 -0.98693734 0.012232895
-0.10393714 0.070244208 0.17136353 0.14703181 0.045195915 -0.98809868 0.012096675
-0.087255068 0.079519078 0.17399411 0.086433209 0.032043267 -0.99574214 0.012719614
-0.074207857 0.076689966 0.17157574 0.037366226 0.029302372 -0.99887198 0.011952915
-0.069214486 0.078017153 0.17018479 0.059486326 0.038683217 -0.99747926 0.009792529
-0.046135586 0.07178434 0.17386608 0.024282452 0.021615248 -0.99947143 0.010092399
-0.035774678 0.076777287 0.17111501 0.045692861 0.034851752 -0.9983474 0.0083731497
-0.028987641 0.075467251 0.17113715 0.038185373 0.035208903 -0.99865013 0.0088293431
-0.014010015 0.073829241 0.17624821 0.041387547 0.036581159 -0.99847335 0.0083483411
-0.0045564421 0.075831786 0.17440648 0.02309214 0.038178734 -0.99900407 0.0070815189
0.004690012 0.076713212 0.17313893 -0.0047898479 0.046934348 -0.99888653 0.0073296339
0.01571187 0.076501004 0.17307842 -0.0377203 0.046414468 -0.99820983 0.0061789113
0.024682181 0.076083206 0.17125274 -0.020032266 0.041720312 -0.99892849 0.006841375
0.038474455 0.07367532 0.17085198 -0.026554048 0.0090260021 -0.99960661 0.008275385
0.047595158 0.071093403 0.17044678 -0.028310373 0.050549783 -0.99832022 0.011409758
0.050197762 0.077297531 0.17577869 -0.016014565 0.030461011 -0.99940759 0.011214959
0.064809918 0.077822 0.17281654 -0.050252546 0.033651896 -0.99816942 0.013460805
0.071826495 0.071552724 0.17463037 -0.079942107 0.068695731 -0.99442953 0.014166658
0.086411916 0.077854708 0.17398639 -0.097503848 0.063411929 -0.99321294 0.013088166
0.097574666 0.072024159 0.17225097 -0.10190273 0.058909789 -0.99304861 0.011611016
0.1084855 0.076271385 0.17108095 -0.13822027 0.024044175 -0.99010962 0.010959343
-0.11372574 0.08552178 0.17030694 0.19277902 0.030157048 -0.98077863 0.011778221
-0.10979235 0.080978543 0.17104445 0.17372856 0.048383724 -0.98360437 0.012111342
-0.084104896 0.084003568 0.17437746 0.077402741 0.034377091 -0.99640703 0.011878924
-0.07483276 0.084582053 0.17209217 0.060833994 0.017588772 -0.99799293 0.012533542
-0.063508309 0.087073356 0.17298245 0.03930952 0.026211867 -0.99888319 0.0073641352
-0.059968647 0.085349351 0.17559756 0.020428181 0.032770481 -0.99925411 0.0071369591
-0.044365622 0.083958082 0.17363691 0.032044847 0.013640482 -0.99939334 0.0075271144
-0.034187846 0.08658237 0.17382897 0.03865305 0.01928458 -0.99906659 0.0065278513
-0.022210974 0.085150465 0.17153759 0.034559339 0.023735344 -0.99912071 0.0051656971
-0.015413896 0.084191494 0.17288715 0.032951616 0.034095768 -0.9988752 0.0068633258
-0.0043418831 0.083451122 0.17416893 0.012110767 0.012069868 -0.99985379 0.0056146644
0.0096521033 0.085095838 0.17416893 -0.016841503 0.036670074 -0.99918556 0.0052581527
0.015923575 0.084529981 0.17538136 -0.037712429 0.047991812 -0.99813557 0.004993909
0.023579882 0.084747873 0.17317636 -0.021986654 0.042376641 -0.99885976 0.0052908789
0.034140017 0.086085588 0.17382976 -0.044170015 -0.0067873332 -0.99900103 0.0054123257
0.054356277 0.085181318 0.17280053 -0.0083030686 0.023307096 -0.99969387 0.0088031041
0.06711936 0.087281719 0.17535019 -0.029173072 0.02991597 -0.99912661 0.010819335
0.075561926 0.083521686 0.17505813 -0.064796954 0.046035636 -0.99683607 0.012163169
0.087631822 0.086445719 0.17395058 -0.093580849 0.010300607 -0.99555838 0.013644281
0.10642436 0.081878357 0.17156535 -0.13479039 0.026919361 -0.9905085 0.011315743
-0.10740659 0.096952848 0.17149179 0.14291024 5.252994e-05 -0.98973566 0.012502859
-0.093622327 0.094524421 0.17322552 0.088027604 0.027903875 -0.99572706 0.013141181
-0.087646991 0.094375953 0.17394873 0.090843886 0.04104339 -0.99501902 0.011109206
-0.075064287 0.093244515 0.17258269 0.079421744 0.029856866 -0.99639386 0.010618052
-0.065218464 0.092846498 0.17043065 0.022978695 0.017828882 -0.99957699 0.0084099583
-0.057135172 0.096870378 0.17071027 0.061348647 0.023797885 -0.99783266 0.005103094
-0.045300931 0.09321136 0.1736038 0.029724672 0.024104536 -0.99926746 0.0046858769
-0.034648631 0.09338472 0.17382123 0.018311718 0.042687364 -0.99892062 0.0053384895
-0.022578293 0.091698609 0.17485495 0.051802337 0.028902749 -0.99823898 0.0050546215
-0.016187999 0.095338337 0.17328899 0.034910973 0.030241551 -0.99893272 0.0038915621
-0.0032752177 0.094498359 0.17333806 0.0049286433 0.029900154 -0.99954075 0.0048525841
0.0041908063 0.094612837 0.17666158 -0.0085719833 0.041809976 -0.99908882 0.0053088502
0.012411778 0.097782813 0.17333479 -0.0093670143 0.044058532 -0.99898505 0.0050534862
0.024539253 0.094545923 0.17399113 -0.053119622 0.019879103 -0.99839026 0.0059912326
0.030604206 0.09658692 0.17139654 -0.055196811 0.014073203 -0.99837631 0.0051406873
0.046894029 0.093081586 0.17355648 0.0039290274 0.011785832 -0.99992281 0.005355732
0.058109321 0.090021707 0.17067657 0.0050849044 0.024412438 -0.99968904 0.0078999326
0.066414848 0.09400329 0.17537457 -0.048254132 0.012761749 -0.99875361 0.011109143
0.075655565 0.098053798 0.17256224 -0.080982126 -0.021036718 -0.99649358 0.010448
0.089931361 0.097097024 0.17367226 -0.12044287 -0.041848339 -0.99183774 0.012274799
0.092146516 0.094296485 0.17340416 -0.13320346 -0.028968222 -0.99066532 0.013091203
0.10097745 0.097766802 0.17233533 -0.13982081 -0.010253273 -0.99012375 0.011919554
0.11467312 0.092009015 0.1701293 -0.18852051 -0.012192327 -0.98199356 0.010693126
-0.11349328 0.10123694 0.17035052 0.1908668 0.027079647 -0.98124242 0.014565673
-0.10483442 0.10737183 0.17184302 0.15126787 0.01064663 -0.98843551 0.014265241
-0.091767028 0.10725017 0.17345008 0.10232676 -0.013993018 -0.99465233 0.011999645
-0.085864246 0.10501316 0.17416452 0.094760917 -0.01523307 -0.9953835 0.013393233
-0.071664594 0.10761625 0.17353119 0.037005242 -0.0011950593 -0.99931431 0.0095198238
-0.0661176 0.10693435 0.1713966 0.038874086 0.0026928382 -0.99924052 0.0083863046
-0.053851396 0.10460593 0.17207019 0.031825073 -0.019517893 -0.9993028 0.0046212585
-0.043603141 0.10453209 0.17282681 0.024949156 0.013844486 -0.9995929 0.0052836644
-0.037845217 0.10576347 0.17376751 0.046003725 0.021895634 -0.99870127 0.0048127542
-0.023644162 0.10607634 0.17483704 0.0074393265 0.026382066 -0.99962425 0.0041944599
-0.01708401 0.10133912 0.17162375 0.034877464 0.027098052 -0.99902409 0.0042864932
-0.0078124227 0.10540593 0.17566451 0.020055486 0.045049135 -0.99878341 0.0037871185
0.0072267479 0.10574158 0.17666158 -0.00071446673 0.018309837 -0.99983215 0.0054084691
0.019494744 0.10584665 0.17656854 -0.061652239 0.0044415696 -0.99808776 0.0058579696
0.025823569 0.10433225 0.17480041 -0.070359424 0.030516772 -0.99705476 0.0047826162
0.034765795 0.1033811 0.17381926 -0.059224915 0.030335359 -0.99778366 0.0040181177
0.055997286 0.10681906 0.17324229 0.0080522019 -0.017090846 -0.99982148 0.0048921541
0.067208447 0.10355757 0.17036182 -0.050203752 -0.035656247 -0.99810231 0.009060896
0.073681355 0.10598122 0.17263055 -0.082234569 -0.021223988 -0.99638695 0.0095638232
0.085381113 0.10587707 0.17422299 -0.12158481 -0.03521587 -0.99195611 0.011540454
0.093301557 0.10321867 0.17326434 -0.11104377 -0.022440242 -0.9935621 0.012934207
-0.11296041 0.11785408 0.17045043 0.17290276 0.021010831 -0.98471475 0.013040243
-0.099765003 0.1154201 0.17248206 0.12589951 0.0013618706 -0.99204206 0.011683603
-0.087920368 0.11552344 0.17391565 0.081218041 -0.015005324 -0.99658346 0.0099403737
-0.073291302 0.11683324 0.17513669 0.050457042 0.0097654508 -0.99867845 0.0095931394
-0.064367652 0.11478584 0.17419906 0.027452685 -0.018406916 -0.9994536 0.0061927401
-0.056497727 0.11750129 0.17073232 0.031622767 0.010605008 -0.99944365 0.0060483408
-0.045597635 0.11601658 0.17509668 0.045088165 0.0059152688 -0.9989655 0.0060624648
-0.035576049 0.11441252 0.17505197 0.05139089 0.021028547 -0.99845719 0.0044787014
-0.02578789 0.11467645 0.17480101 0.053435221 0.021134619 -0.99834764 0.0045562931
-0.015456249 0.11699487 0.17538103 0.0079572285 0.00039470344 -0.99996829 0.0053666774
0.0058920104 0.11584573 0.17333806 0.010058593 -0.0045327786 -0.99993914 0.0076870909
0.013992481 0.11695752 0.17290016 -0.049315292 -0.02536363 -0.99846113 0.0058352067
0.022842731 0.11885637 0.17651229 -0.053346153 -0.026166568 -0.99823314 0.0066662934
0.038543154 0.1156102 0.1712631 -0.032647107 -0.00048687181 -0.9994669 0.0047280099
0.043271326 0.11378488 0.1724183 -0.040515952 0.010210801 -0.99912667 0.0045058872
0.05615256 0.11578678 0.17373544 -0.0092153084 0.011857547 -0.99988723 0.0040209354
0.063406937 0.11346922 0.17381686 -0.046518438 0.00055692752 -0.99891728 0.0071842629
0.076060921 0.11450646 0.17254823 -0.11312425 -0.014738926 -0.9934715 0.011059886
0.080295317 0.11284585 0.17483854 -0.10531649 -0.019640557 -0.99424475 0.010938691
0.10945547 0.11747834 0.17110762 -0.14758305 0.0085291881 -0.9890129 0.01191912
0.11160574 0.11040638 0.17070442 -0.15310815 0.011762277 -0.98813951 0.012832508
-0.10885948 0.12648761 0.17121936 0.1246205 -0.019611496 -0.99201065 0.0098075978
-0.084946483 0.12392476 0.17427559 0.057173148 -0.027741943 -0.99797881 0.010211997
-0.075110145 0.12319621 0.1717478 0.064107977 -0.015486222 -0.99782282 0.0090231737
-0.067402676 0.12312263 0.17035508 0.036157615 -0.032129616 -0.99882954 0.0076553505
-0.055184945 0.12771651 0.17327037 0.065934829 -0.00028462103 -0.99782389 0.0055528721
-0.04348579 0.12988105 0.17118002 0.05630495 -0.0082200998 -0.99837977 0.0062341103
-0.031683579 0.12360929 0.1713784 0.050260518 -0.0026777545 -0.99873257 0.0063323504
-0.026989523 0.12761328 0.17644259 0.028664436 -0.015698418 -0.99946582 0.0059988289
-0.012668113 0.12426136 0.17416382 0.011528603 0.0040564057 -0.99992526 0.0063376152
0.0026271709 0.12324759 0.17666158 -0.012875102 -0.02025771 -0.99971193 0.006219517
0.014454779 0.1237309 0.17664807 -0.049584456 -0.043221682 -0.99783427 0.0063692182
0.024827888 0.12493165 0.17348774 -0.05068256 -0.0014620264 -0.99871379 0.007058782
0.034279827 0.12354665 0.17299652 0.00096688297 0.00082154275 -0.99999917 0.0063868719
0.045778144 0.12614304 0.17441815 -0.020915395 -0.01246095 -0.99970365 0.0048079062
0.052888483 0.12548164 0.17251892 -0.014863521 0.021410609 -0.99966025 0.0045948112
0.064487927 0.12424883 0.1721177 -0.032251678 0.02886959 -0.99906278 0.0066268975
0.073426187 0.12440627 0.17263937 -0.099705443 0.0072899936 -0.99499029 0.008779428
0.09475138 0.12831803 0.17308888 -0.1257387 0.023836784 -0.991777 0.013105385
0.10571347 0.12166453 0.17176211 -0.12202785 0.0095856925 -0.99248034 0.013402954
0.11176622 0.12484546 0.17067435 -0.14709818 0.022822877 -0.98885852 0.014181701
-0.10689533 0.13644376 0.17158765 0.12290625 -0.024963804 -0.99210423 0.010475495
-0.075891383 0.13142826 0.17006144 0.059601046 -0.026425311 -0.99787247 0.010206369
-0.065292731 0.13220701 0.17208986 0.038009856 -0.0075768852 -0.99924868 0.0081761684
-0.054512694 0.13545783 0.17412452 0.050493587 -0.012216538 -0.99864966 0.0070830705
-0.045041431 0.13468894 0.17211685 0.049812723 -0.015151435 -0.99864364 0.0065135737
-0.034003455 0.13594615 0.17632471 0.041878663 -0.016059944 -0.99899364 0.0077596596
-0.023736475 0.13452424 0.17317373 0.035638846 -0.046850953 -0.99826592 0.006646445
-0.016716208 0.13629492 0.17661524 0.050027765 -0.038229037 -0.99801594 0.0069339699
-0.0037846479 0.13718319 0.17167628 -0.016048906 -0.027684925 -0.99948782 0.0074461279
0.0050341268 0.13506529 0.17499979 -0.030431854 -0.027442111 -0.99916011 0.0072461544
0.012046927 0.13083023 0.17167628 -0.059885636 -0.066028833 -0.99601907 0.0062641138
0.027711585 0.137224 0.17144515 -0.022698589 -0.0048155622 -0.99973077 0.0077580772
0.037239093 0.13410571 0.1729468 -0.0065040025 -0.0097683845 -0.9999311 0.0069121444
0.043743029 0.13592607 0.17364578 0.0091972025 -0.00079312862 -0.99995744 0.0061802571
0.053515572 0.1367223 0.1751086 -0.023037517 0.012775403 -0.99965298 0.0059368066
0.066569813 0.13623786 0.17337508 -0.054209564 -0.016209571 -0.99839807 0.0067405468
0.07522925 0.13500088 0.17382331 -0.094528973 -0.0036890882 -0.99551535 0.0096430024
0.0861651 0.13216102 0.17412812 -0.096783563 0.0040053502 -0.99529737 0.011863966
0.095372893 0.13516282 0.17301366 -0.12241594 0.016432611 -0.99234277 0.012183904
0.10819694 0.1325655 0.17134359 -0.11162112 0.019444 -0.99356055 0.01089674
0.11370442 0.13792273 0.17031093 -0.17030723 -0.023925448 -0.98510051 0.013616534
-0.10433003 0.14673346 0.171892 0.1293986 -0.01760399 -0.99143636 0.013372879
-0.095919713 0.14402276 0.17294747 0.11327356 -0.0039105187 -0.99355614 0.012728858
-0.086778611 0.14910184 0.17401218 0.075598098 0.0069773812 -0.99711394 0.014000621
-0.0728295 0.14091653 0.17265999 0.064111352 -0.00083829212 -0.99794239 0.010161839
-0.062630042 0.14531264 0.17151089 0.060566165 0.025693214 -0.99783343 0.0080181072
-0.054856151 0.14507465 0.17326251 0.051682338 0.015123401 -0.99854904 0.0065763467
-0.033645477 0.14465332 0.17259175 0.019687813 -0.019380575 -0.99961835 0.0075265858
-0.026721293 0.14384034 0.17395443 0.013859184 -0.020674251 -0.99969018 0.0062432303
-0.014905863 0.1466268 0.17412631 0.046656139 -0.034799796 -0.99830467 0.0074900375
-0.0029581154 0.14541371 0.17465045 -0.0043919673 -0.040019866 -0.99918926 0.0083982376
0.0052740681 0.14513631 0.17665249 -0.055559255 -0.0070402543 -0.99843055 0.0070866807
0.016830238 0.14572603 0.17162766 -0.024862733 -0.0047895834 -0.99967939 0.0078553706
0.024894513 0.14520717 0.17246933 -0.0071268268 -0.0060268329 -0.99995649 0.0072157364
0.038932391 0.14597148 0.17621566 0.0091163795 0.0049971142 -0.999946 0.0059064631
0.048609234 0.14662108 0.17596817 -0.0055376547 -0.011986006 -0.99991286 0.0067039523
0.054787416 0.14477982 0.17278561 -0.010353745 -0.0036953082 -0.99993956 0.0061558918
0.061597753 0.14648217 0.17220907 -0.05943032 0.0070286901 -0.99820769 0.0072884769
0.070773296 0.14402737 0.17522378 -0.061858904 0.003834751 -0.99807751 0.0089119859
0.084690228 0.14461187 0.17430173 -0.10599346 0.0069287303 -0.99434263 0.011574946
0.10057969 0.14428106 0.17238346 -0.11350674 -0.030075161 -0.99308193 0.011589097
0.11508475 0.14308888 0.17005211 -0.18064727 -0.046466049 -0.98244977 0.013172402
-0.1144377 0.15276782 0.17006394 0.17733261 -0.065405674 -0.9819752 0.013198996
-0.096297204 0.1548211 0.17275429 0.11459702 -0.028375646 -0.99300677 0.01491613
-0.086372636 0.15232342 0.17400169 0.082886964 -0.0063497629 -0.99653876 0.014486282
-0.079704478 0.15804733 0.17470282 0.074936509 -0.0031476121 -0.99718338 0.012983273
-0.05301863 0.15438361 0.17403682 0.046111669 0.001028161 -0.99893576 0.0077112019
-0.041341402 0.15343216 0.1760796 0.021641187 -0.024752663 -0.99945933 0.0060182344
-0.033399217 0.15542349 0.17119092 0.0027991026 -0.018478956 -0.99982536 0.0056902235
-0.029186843 0.15098947 0.17134376 0.0087308604 -0.014282286 -0.99985987 0.0065761963
-0.012125073 0.15823674 0.17146556 0.039477792 -0.033053592 -0.99867362 0.0066605997
-0.0042461762 0.15322316 0.17529735 0.016675269 -0.013217932 -0.99977356 0.0080875577
0.0013191293 0.15872553 0.17644183 -0.011455789 -0.017797286 -0.99977595 0.0076219551
0.014090214 0.15866643 0.17143953 0.0054380442 0.0062616598 -0.99996555 0.0066308412
0.023650508 0.15643282 0.17133608 -0.021829177 0.0056971181 -0.99974549 0.0055904277
0.034613911 0.15526281 0.17615879 0.0017065335 0.010443171 -0.99994403 0.005857667
0.046810076 0.15385957 0.17193356 -0.011931877 -0.030889735 -0.99945158 0.0067212773
0.054305807 0.15170905 0.17071824 -0.056102362 -0.025884585 -0.99808937 0.0068875314
0.089669257 0.15170529 0.17361414 -0.11430772 -0.030124027 -0.99298859 0.010898669
-0.10443976 0.16724055 0.1715389 0.17181908 -0.013172548 -0.98504043 0.01076455
-0.092132024 0.16499785 0.17307006 0.10810289 -0.0011716026 -0.99413902 0.015657978
-0.083636232 0.16381665 0.17412019 0.075958215 0.018829385 -0.99693322 0.014121412
-0.073454857 0.16373365 0.17481859 0.049753789 -0.0015595347 -0.99876022 0.01173391
-0.066343427 0.16582581 0.17004056 0.06550356 -0.0059417817 -0.99783468 0.012570585
-0.056837011 0.16379656 0.1753923 0.057228003 -0.012851219 -0.99827838 0.010380258
-0.044624757 0.16486014 0.17412239 0.040397491 0.0020509381 -0.99918157 0.0075261304
-0.020685241 0.16755114 0.17118014 0.016348448 -0.0060978597 -0.99984777 0.0041793436
-0.015631177 0.1677992 0.17499131 0.031270418 -0.012513861 -0.99943262 0.0040515838
-0.0042697247 0.16212144 0.17388633 0.0049563083 -0.01101628 -0.99992704 0.0063843047
