# .PCD v0.7 - Point Cloud Data file format
VERSION 0.7
FIELDS x y z normal_x normal_y normal_z curvature
SIZE 4 4 4 4 4 4 4
TYPE F F F F F F F
COUNT 1 1 1 1 1 1 1
WIDTH 580
HEIGHT 1
VIEWPOINT 0 0 0 1 0 0 0
POINTS 580
DATA ascii
0.045463253 0.15473096 0.1040206 4.5595934e-07 -0.8861919 -0.46331835 0
0.055390764 0.15382846 0.10574687 2.5998484e-06 -0.88619131 -0.46331945 0
0.064400636 0.15356074 0.10625893 1.3098376e-06 -0.88619488 -0.46331275 0
0.074640505 0.15294094 0.10744444 -5.8345108e-07 -0.88620007 -0.46330282 2.1998811e-05
0.084885336 0.15452918 0.10440657 2.1037336e-06 -0.8862021 -0.46329883 3.3232652e-06
0.094198018 0.15497731 0.10354942 5.192861e-06 -0.88619292 -0.46331644 2.733284e-06
0.10209443 0.15476593 0.10395367 1.4322733e-05 -0.88619137 -0.4633193 1.0776547e-05
0.11336518 0.15400222 0.10541449 1.0672705e-05 -0.88619596 -0.46331054 9.144459e-06
0.1253769 0.1537351 0.1059254 1.2885801e-05 -0.8861863 -0.46332887 0
0.13867129 0.15188433 0.10946546 -1.4020312e-05 -0.88619405 -0.46331424 4.9644318e-06
0.14602812 0.15387589 0.10565612 2.1815829e-06 -0.88619357 -0.46331519 0
0.15419646 0.15525652 0.10301534 -1.0608023e-05 -0.88619071 -0.46332052 0
0.16636261 0.15421046 0.10501617 -2.1287449e-05 -0.88618177 -0.46333769 0
0.17180765 0.15487519 0.10374473 -4.0383642e-07 -0.88618952 -0.46332294 0
0.18606491 0.15545374 0.10263815 1.6727554e-05 -0.88619804 -0.46330667 9.2731752e-06
0.1943945 0.15332775 0.10670459 4.1633907e-06 -0.88618135 -0.46333852 0
0.20431125 0.15402481 0.10537133 2.0037689e-06 -0.88618654 -0.4633286 0
0.21596561 0.1543542 0.10474128 -4.9911409e-06 -0.88618267 -0.46333605 2.1535188e-05
0.2281419 0.15503789 0.10343355 1.3963284e-05 -0.88619822 -0.4633064 7.0346828e-06
0.2358439 0.15436845 0.10471403 -1.8558469e-05 -0.88620675 -0.46328995 0
0.24226351 0.15604594 0.1015054 -4.3675147e-05 -0.88619572 -0.46331114 5.1483767e-07
0.25412223 0.15320055 0.10694786 -0.031454522 -0.84673607 -0.53108251 0.010487613
0.26342896 0.15407307 0.10527895 -0.019345582 -0.85866147 -0.51217788 0.0067010554
0.27886921 0.15398714 0.10544333 -0.13889551 -0.72794104 -0.67142385 0.03738568
0.283176 0.15385249 0.10570083 -0.18551636 -0.68396366 -0.70553339 0.033672694
0.29238343 0.15678719 0.1000876 -0.11830627 -0.68106043 -0.72260648 0.034791622
0.30752471 0.15638477 0.10085729 -0.23608088 -0.59004337 -0.77208459 0.04086389
-0.096692018 -0.15018913 0.1127079 0.14160955 0.73853338 -0.65917766 0.032508224
-0.065807402 -0.15147896 0.11024079 0.0036913925 0.8781845 -0.47830775 0.0007937745
-0.035371978 -0.15101768 0.11112311 -1.8484462e-06 0.88619918 -0.46330446 5.6072595e-06
0.020124314 -0.15048461 0.11214271 1.1320569e-06 0.88618797 -0.46332577 0
0.039441403 -0.15097575 0.11120333 -5.1935508e-06 0.88619286 -0.4633165 2.9370293e-07
0.045338511 -0.1509513 0.11125011 -1.0899839e-06 0.88618416 -0.46333325 0
0.053239632 -0.15068886 0.11175209 -4.3773048e-06 0.88617396 -0.46335259 0
0.072233841 -0.15090291 0.11134264 1.5084509e-05 0.88619298 -0.46331635 1.6954622e-05
0.092511572 -0.15114865 0.11087261 -8.32756e-06 0.88618326 -0.46333489 0
0.10252777 -0.15010498 0.11286885 2.7231789e-07 0.88617593 -0.46334881 0
0.11892645 -0.1510576 0.11104675 2.2368189e-05 0.88619584 -0.46331081 2.0046348e-06
0.12468318 -0.15079774 0.1115438 1.7427688e-05 0.88620061 -0.46330172 1.1240002e-05
0.15815745 -0.15104273 0.11107522 1.933955e-05 0.88620871 -0.46328625 1.1472833e-05
0.16515549 -0.15102805 0.1111033 1.3656057e-05 0.88619727 -0.46330807 0
0.17934175 -0.15052107 0.11207299 1.0393945e-05 0.88620365 -0.46329597 1.2431251e-05
0.19441529 -0.15088172 0.11138316 2.8921495e-06 0.88619447 -0.46331358 7.0455608e-06
0.20225927 -0.1506407 0.1118442 7.221548e-06 0.88619936 -0.4633041 1.0947458e-05
0.21339205 -0.15034544 0.11240895 1.3081834e-05 0.88619232 -0.46331754 0
0.22439098 -0.15122141 0.11073342 -0.0018508295 0.8834579 -0.46850693 0.00017666076
0.23444876 -0.15023983 0.11261094 -0.037999988 0.85644466 -0.51483828 0.0061588311
0.2455744 -0.15055959 0.11199932 -0.047564562 0.84555399 -0.53176677 0.0067597553
0.25239524 -0.1505492 0.1120192 -0.10182477 0.80338436 -0.58669007 0.020697387
0.26481503 -0.15099999 0.11115694 -0.11252098 0.78886402 -0.60417932 0.029480008
0.28367844 -0.15131775 0.11054914 -0.19494109 0.61761016 -0.76194209 0.0370619
-0.12132542 -0.14276718 0.110356 0.36286435 0.33168826 -0.87081128 0.03396447
-0.11614688 -0.1468284 0.11292531 0.29263344 0.49599147 -0.8175317 0.04585924
-0.10836165 -0.14278142 0.11678794 0.28443828 0.41073346 -0.86625224 0.038723249
-0.09112291 -0.14884609 0.11527678 0.16391064 0.72845727 -0.66519415 0.032876983
-0.075484842 -0.14698704 0.11883266 0.062385596 0.80666286 -0.58771002 0.017185543
-0.065460756 -0.14855768 0.11582845 0.023673713 0.86401892 -0.50290239 0.0045914473
-0.056821287 -0.1474715 0.11790601 0.007823864 0.87516475 -0.48376182 0.00093340891
-0.043052554 -0.14764778 0.11756882 0.0057079657 0.87648529 -0.48139468 0.00056457275
-0.024782378 -0.14831775 0.11628735 0.00052447116 0.88416481 -0.46717489 9.0370988e-05
-0.014909771 -0.147331 0.11817474 0.00034711702 0.88405979 -0.46737367 6.7656525e-05
-0.0068151541 -0.14914137 0.11471199 -0.00021041725 0.88569617 -0.46426541 9.9580684e-06
0.0065884404 -0.14767981 0.11750758 -7.5186501e-05 0.88363576 -0.46817484 0.00011615165
0.016676474 -0.1492763 0.1144539 1.022966e-06 0.88618207 -0.46333709 0
0.026110951 -0.14727655 0.11827891 -0.0010141851 0.88077998 -0.47352487 0.00026150676
0.035820156 -0.14825001 0.11641691 0.0012091786 0.8833437 -0.46872428 0.00014954942
0.044614013 -0.14725095 0.11832789 0.0015306739 0.87932581 -0.47621822 0.00051712041
0.055482864 -0.14883237 0.11530304 1.5555993e-07 0.8861897 -0.46332258 3.3245803e-06
0.06400919 -0.14873692 0.11548559 -4.2190723e-06 0.88617527 -0.46335024 0
0.075543366 -0.14925276 0.11449898 -2.9460036e-06 0.88619179 -0.46331853 0
0.097269878 -0.14941069 0.11419688 8.7584622e-06 0.88618243 -0.46333641 0
0.10282251 -0.14938469 0.11424657 -2.369813e-05 0.88617855 -0.46334383 0
0.1159573 -0.14966235 0.11371551 2.2676411e-05 0.8861835 -0.46333447 8.705756e-06
0.13565257 -0.14878611 0.11539152 2.5161895e-05 0.88619024 -0.46332163 0
0.14292628 -0.14900133 0.11497989 1.4016933e-05 0.88619787 -0.46330702 7.8613457e-06
0.15065961 -0.14653991 0.1196879 -0.0010533562 0.88004422 -0.4748905 0.00023957119
0.17783675 -0.14663407 0.11950778 0.0020018111 0.8808189 -0.47344902 0.00024314903
0.18201564 -0.14757133 0.11771508 0.00037123714 0.88243335 -0.47043738 0.00019579094
0.19051553 -0.14889497 0.11518329 -1.046552e-05 0.88619971 -0.46330345 7.5382559e-07
0.20506823 -0.14848667 0.11596427 0.00048752935 0.88374513 -0.46796831 6.2423183e-05
0.21484563 -0.14759207 0.11767542 -0.0026917537 0.88150549 -0.47216615 0.0002091459
0.22084731 -0.14988178 0.11329582 -0.0021786797 0.88347101 -0.46848077 0.00018083492
0.23473388 -0.14793929 0.11701126 -0.046458498 0.83825672 -0.54329294 0.0091707185
0.2439221 -0.14918245 0.11463344 -0.085994206 0.80939478 -0.58093458 0.02001383
0.25514755 -0.14878888 0.11538622 -0.10001697 0.76689118 -0.63393575 0.030729935
0.26456833 -0.14831437 0.11629383 -0.20507996 0.67683083 -0.70699519 0.040452354
0.27414867 -0.14549892 0.11603501 -0.26725602 0.51151675 -0.81665474 0.037774026
0.28048283 -0.14734264 0.11391373 -0.25063145 0.51331818 -0.82078511 0.03974
-0.12136068 -0.13808002 0.11033849 0.40005222 0.21975659 -0.88975573 0.026536981
-0.11454547 -0.13757749 0.11371984 0.33154777 0.21476914 -0.91866767 0.028226066
-0.10563223 -0.13406014 0.11814215 0.37760034 0.16195777 -0.91169494 0.018970016
0.27524099 -0.13452885 0.11633606 -0.3349871 0.23912832 -0.91137332 0.029924998
0.28733355 -0.13389558 0.11074794 -0.38875484 0.09323591 -0.91661149 0.011050983
-0.11434048 -0.12079981 0.11382155 0.44950122 -0.00020951769 -0.89327967 1.2445323e-05
-0.10631299 -0.12652317 0.11780439 0.39996573 0.10893404 -0.9100334 0.012367554
0.27488148 -0.12272599 0.11650217 -0.41625318 0.020493215 -0.9090178 0.0013215046
0.28603196 -0.12655787 0.11134942 -0.42252943 0.036953107 -0.90559554 0.0032872902
-0.11645734 -0.11305422 0.11277127 0.45006809 7.6995639e-05 -0.89299423 5.0574886e-06
-0.10925949 -0.11198004 0.11634248 0.4458656 5.6233883e-05 -0.89509994 0
0.2758283 -0.11515939 0.11606464 -0.41945672 9.6205431e-06 -0.90777534 2.8437535e-06
0.28531146 -0.11644998 0.11168238 -0.4194726 1.0804826e-05 -0.90776801 9.0681679e-06
-0.11387084 -0.10663424 0.11405457 0.44943574 0.0002709601 -0.89331257 1.0939137e-05
-0.10867032 -0.10813254 0.11663479 0.4459081 0.00033463162 -0.89507872 0
0.27397519 -0.10346822 0.11692097 -0.41948682 -1.8583874e-05 -0.90776151 1.8851514e-06
0.28642586 -0.10077059 0.1111674 -0.41947711 -7.4820264e-06 -0.90776598 8.7300195e-06
-0.11953245 -0.092868708 0.11124556 0.45345584 0.001074275 -0.89127803 3.1041855e-05
-0.10456602 -0.09307608 0.11867115 0.44537023 -8.0333477e-05 -0.89534646 0
0.2673409 -0.090322807 0.11998676 -0.41945741 -6.3927487e-06 -0.90777498 2.2274104e-05
0.27540207 -0.097793743 0.1162616 -0.41942775 -2.8811533e-05 -0.90778875 1.9618132e-05
0.28291991 -0.095963337 0.11278752 -0.41947153 6.9121857e-06 -0.90776849 1.307365e-05
-0.11802621 -0.086530358 0.11199287 0.45237598 0.0011654624 -0.89182657 4.5595934e-05
-0.10596599 -0.08670634 0.11797655 0.44589391 -3.1595911e-05 -0.89508581 0
0.27881372 -0.086714357 0.11468503 -0.41945702 -2.6147454e-05 -0.90777528 2.588697e-05
0.28256023 -0.083831489 0.11295374 -0.41944727 3.6390522e-06 -0.90777969 2.4520501e-05
-0.10718286 -0.072363421 0.11737279 0.44616431 0.00030976991 -0.89495105 1.3713799e-06
0.26777065 -0.075671442 0.11978817 -0.41956538 1.5860096e-05 -0.90772516 0
0.27678278 -0.075688422 0.11562356 -0.41947877 -9.5279192e-06 -0.90776521 6.7007068e-06
0.28627512 -0.075896204 0.11123705 -0.419478 -6.2805216e-06 -0.90776551 0
-0.12057624 -0.063954815 0.11072768 0.45558676 0.00052757416 -0.89019126 2.5497649e-05
-0.11721025 -0.063182861 0.11239772 0.45327416 -0.00043963062 -0.89137101 2.1452313e-05
-0.10610603 -0.064469784 0.11790707 0.44564295 -0.00021080057 -0.8952108 0
0.26849753 -0.068043657 0.11945225 -0.41945267 4.9787502e-07 -0.90777725 1.6950915e-05
0.27368951 -0.060692389 0.117053 -0.41949731 1.1492221e-05 -0.90775657 3.3788529e-06
0.28886265 -0.062803656 0.11004134 -0.41945451 -8.7483377e-06 -0.90777636 0
-0.11463895 -0.054552723 0.11367347 0.45002636 0.00038296261 -0.89301515 4.0958512e-05
-0.10549733 -0.058187846 0.11820907 0.44548148 0.00015437747 -0.89529121 1.4869091e-06
0.27720624 -0.052660782 0.11542787 -0.41950285 -3.0218307e-06 -0.90775406 0
0.2870841 -0.057792835 0.11086323 -0.41947496 8.3392372e-08 -0.90776688 7.0944689e-06
-0.12021944 -0.047822971 0.11090471 0.45317662 -0.0014377321 -0.89141959 2.1971826e-05
-0.11655492 -0.043701623 0.11272286 0.4532859 -0.00083516946 -0.89136481 1.6691547e-05
-0.10641395 -0.044951051 0.1177543 0.44558612 -5.9476002e-05 -0.89523911 5.6856984e-06
0.26841307 -0.040692881 0.11949129 -0.41947305 1.2791164e-06 -0.90776777 9.1350394e-06
0.28312263 -0.042736445 0.11269385 -0.41948122 1.2960411e-06 -0.90776396 1.0255204e-05
-0.12194659 -0.038016625 0.11004779 0.4560447 -0.00086866569 -0.88995641 3.5830206e-05
-0.11673454 -0.032394335 0.11263374 0.45295241 0.00064686005 -0.89153445 9.1859611e-06
-0.10950339 -0.03959104 0.11622147 0.44624949 -0.00043351232 -0.89490855 4.519738e-06
0.26904589 -0.035721228 0.11919886 -0.4194448 -6.9567609e-06 -0.90778089 2.2918659e-05
0.27617675 -0.032558285 0.11590363 -0.41955471 4.0456862e-06 -0.90773004 0
0.28607973 -0.032292705 0.11132735 -0.41945443 2.5362078e-06 -0.90777642 1.4275582e-05
-0.11408009 -0.024314882 0.11395074 0.45054492 -8.9725319e-05 -0.89275378 1.6429325e-05
-0.1025317 -0.026318511 0.11968046 0.44537356 7.4418669e-05 -0.89534479 0
0.26918262 -0.022087721 0.11913568 -0.41952103 -1.0516435e-05 -0.90774566 0
0.27639821 -0.0282766 0.11580127 -0.41950712 -4.6044529e-06 -0.90775204 0
0.28022653 -0.025738329 0.11403218 -0.4194769 -2.6777711e-06 -0.90776604 8.8442703e-06
-0.12179181 -0.010850717 0.11012458 0.45618182 0.0004152144 -0.88988644 3.4975783e-05
-0.11437474 -0.016568013 0.11380456 0.45023501 0.00045279731 -0.89290994 2.1390239e-05
-0.10786986 -0.012454808 0.11703195 0.44716522 0.00030811867 -0.89445126 1.5637723e-05
0.27899271 -0.019891359 0.11460233 -0.41945776 -5.0720751e-06 -0.90777481 2.1086931e-05
0.28490567 -0.015552576 0.11186989 -0.41943663 -1.9410827e-06 -0.90778458 2.0267913e-05
-0.12183489 -0.0022479899 0.11010321 0.45543048 0.001580397 -0.89026999 2.7502789e-05
-0.11741722 -0.0061332812 0.11229503 0.4514443 0.00075537374 -0.89229894 2.2502747e-05
-0.10682596 -0.005120209 0.11754987 0.44629833 -6.3783256e-05 -0.89488423 0
0.26876098 -0.003108274 0.1193305 -0.41952276 2.3145374e-06 -0.90774477 1.3281066e-06
0.27910727 -0.0016693358 0.11454938 -0.41949424 -2.5364338e-07 -0.907758 0
-0.12193484 0.0073748557 0.11005361 0.45670033 -0.00026781956 -0.8896206 2.572134e-05
-0.11449519 0.0059520323 0.1137448 0.44868955 0.00032320351 -0.89368761 2.0111473e-05
-0.10580461 0.00330322 0.11805662 0.44582105 -5.1454652e-05 -0.89512205 3.7361199e-06
0.26902661 0.0066621611 0.11920776 -0.41949388 3.8201586e-07 -0.90775812 8.2760644e-06
0.27703086 0.0045300848 0.11550891 -0.41948587 -2.4208563e-07 -0.90776187 7.9628517e-06
0.28436938 0.0039755576 0.11211771 -0.41947895 2.1163987e-06 -0.90776503 1.3328574e-05
-0.11381722 0.012722717 0.11408116 0.44872934 -0.00075388135 -0.8936674 2.5406196e-05
-0.10861419 0.012402155 0.11666264 0.44607103 3.5518082e-05 -0.89499754 2.6469481e-06
0.26772398 0.010788032 0.11980972 -0.41946515 -1.0704326e-06 -0.90777153 1.8323108e-05
0.27827355 0.017410947 0.11493466 -0.41946784 2.2675393e-07 -0.90777028 1.0100083e-05
0.28170145 0.015337562 0.11335059 -0.41945747 -3.4236941e-06 -0.90777498 1.4923526e-05
-0.12054712 0.026455792 0.11074214 0.45659882 -0.00068170537 -0.88967246 3.3269102e-05
-0.11268353 0.020107383 0.11464364 0.44979739 -0.00080905895 -0.8931303 2.2064991e-05
-0.10631281 0.02426149 0.11780447 0.44519347 -0.00040899208 -0.89543426 1.1490341e-06
0.26957902 0.024840515 0.1189525 -0.41946065 -1.5089006e-06 -0.90777355 9.1577448e-07
0.27594554 0.02428221 0.11601047 -0.41940898 1.8655821e-06 -0.9077974 1.9717188e-05
0.28150746 0.026886368 0.11344024 -0.41952029 -4.0055902e-06 -0.90774602 0
-0.11568804 0.031536177 0.11315296 0.45250201 -0.00095002213 -0.89176285 3.1510819e-05
-0.10844567 0.03372192 0.11674625 0.44554368 -0.00061681744 -0.89525998 6.676516e-06
0.27526149 0.034871597 0.11632655 -0.41954786 1.094138e-06 -0.90773326 0
0.28600007 0.034135569 0.11136415 -0.41946164 7.7453378e-06 -0.90777302 1.0509087e-05
-0.11554295 0.041641649 0.11322495 0.4521642 -0.00017308429 -0.89193469 2.648452e-05
-0.10398059 0.041122802 0.1189616 0.44552147 -6.9011519e-05 -0.89527124 1.055144e-06
0.26944858 0.047873262 0.11901277 -0.41946721 3.515692e-06 -0.9077704 6.5064514e-06
0.27416369 0.046907328 0.11683387 -0.41945803 -1.0891196e-05 -0.90777475 7.0090905e-06
0.28243214 0.046226777 0.11301293 -0.41945681 -1.9216129e-06 -0.90777528 1.3134262e-05
0.26909128 0.05042088 0.11917788 -0.41944668 1.9131458e-06 -0.90777999 1.0365883e-05
0.27464038 0.054506082 0.1166136 -0.41946924 2.8821935e-06 -0.90776956 0
0.28459018 0.056806304 0.11201569 -0.41950381 5.5387654e-06 -0.90775353 0
-0.12099758 0.067774728 0.11051864 0.45522124 0.00095521758 -0.89037788 2.9763445e-05
-0.11329284 0.066151373 0.11434133 0.44904745 0.00012242654 -0.89350784 2.0747302e-05
-0.10595146 0.065655105 0.11798375 0.44562545 -0.00029058638 -0.89521945 2.4980641e-06
0.26864952 0.066733815 0.11938203 -0.4194223 1.4906071e-05 -0.90779126 3.0882697e-05
0.27562696 0.064730853 0.11615769 -0.41952053 2.7063536e-06 -0.9077459 0
0.28373909 0.065631457 0.11240899 -0.41954377 -2.5342899e-06 -0.90773511 0
-0.11624107 0.075184986 0.11287858 0.45071417 0.00048819673 -0.89266825 2.1057062e-05
-0.10866011 0.075311206 0.11663987 0.44655156 0.00051460188 -0.89475775 2.1599503e-06
0.26749229 0.071346 0.1199168 -0.41948694 2.6584439e-06 -0.90776139 0
0.27549815 0.078184083 0.1162172 -0.41947526 8.0603531e-06 -0.90776676 1.3188507e-05
0.28313515 0.075170837 0.11268807 -0.41946384 1.0917003e-05 -0.90777206 1.7513286e-06
-0.11646374 0.081111059 0.1127681 0.45055535 -0.00017595896 -0.89274848 6.5259533e-06
-0.10492752 0.085164353 0.11849178 0.44542423 1.7116772e-05 -0.89531964 0
0.27550051 0.087428153 0.11621612 -0.41944107 1.2691463e-05 -0.90778255 1.5546031e-05
0.28495929 0.086993925 0.11184513 -0.41941294 -1.0947465e-05 -0.90779561 2.0623052e-05
-0.12017772 0.095326215 0.11092541 0.45540392 -0.0016173184 -0.89028352 2.138243e-05
-0.11546508 0.09732797 0.11326358 0.45126146 -0.00011601646 -0.89239174 1.6562168e-05
0.26933455 0.090350553 0.11906548 -0.41944069 4.5716461e-06 -0.90778273 1.4362538e-05
0.27482662 0.096009575 0.11652753 -0.41949156 -1.9295619e-06 -0.90775925 2.4278149e-06
0.28400579 0.095594697 0.11228573 -0.41946772 1.3517069e-05 -0.90777028 1.9085708e-05
-0.11475211 0.10535172 0.11361732 0.45001394 -0.00032104101 -0.89302152 4.9204759e-06
-0.10300914 0.10652041 0.11944358 0.44513452 0.00015972652 -0.89546371 2.372745e-06
0.26804045 0.10612103 0.11966349 -0.4194856 7.1236127e-06 -0.90776205 0
0.27704161 0.10456755 0.11550395 -0.41945347 -2.8465208e-06 -0.90777683 2.1930884e-05
0.28587601 0.10675091 0.1114215 -0.41941413 -1.523477e-06 -0.90779501 1.3717783e-05
-0.11599348 0.11381322 0.11300141 0.45298404 0.00049422431 -0.89151847 3.3714481e-05
-0.10611395 0.11703297 0.11790314 0.44590655 -0.0018902698 -0.89507747 2.8064902e-05
0.26807076 0.11545225 0.11964948 -0.41943255 -0.00021385336 -0.90778649 0
0.27960825 0.11688147 0.11431788 -0.41947678 -1.1892435e-05 -0.9077661 0
0.28351319 0.11552469 0.11251336 -0.41949937 4.4113262e-06 -0.90775561 0
-0.12069656 0.12129457 0.11066799 0.45363453 -0.0020895186 -0.89118534 4.7114809e-05
-0.11821751 0.12692943 0.11189796 0.45483094 -0.055179469 -0.88886678 0.0042469045
-0.10524571 0.12200662 0.11833391 0.43703979 -0.043900557 -0.89837021 0.0029729204
0.26975596 0.12409244 0.11887073 -0.40999514 -0.038580488 -0.91127139 0.0022582393
0.27472693 0.1248343 0.11657359 -0.41301221 -0.038511321 -0.90991086 0.0022820337
0.28616795 0.1219179 0.11128658 -0.41950527 1.6385316e-05 -0.90775287 0
-0.11409679 0.13636418 0.11394247 0.41610733 -0.23881632 -0.87739474 0.030442934
-0.10683377 0.13584824 0.11754599 0.41076568 -0.18954748 -0.89182019 0.026532808
0.28601244 0.13190293 0.11135846 -0.4250657 -0.13101664 -0.89563036 0.010318195
-0.12085691 0.14657536 0.11058843 0.35075992 -0.42059824 -0.83669865 0.040424801
-0.11504147 0.14378974 0.11347377 0.37430024 -0.33199266 -0.86584079 0.038285825
-0.10569131 0.145109 0.1174885 0.28804114 -0.43872607 -0.85120606 0.047560148
-0.093995214 0.1465711 0.11962828 0.20541914 -0.63603806 -0.74381351 0.044140596
-0.078077294 0.14916396 0.11466882 0.070744753 -0.7966665 -0.60026467 0.021016072
-0.065445095 0.14871815 0.11552157 0.025174947 -0.86134148 -0.5074023 0.004146921
-0.056359008 0.1479762 0.11694068 0.018255532 -0.86942047 -0.49373543 0.0017605828
-0.034660865 0.14821525 0.11648347 0.0024398924 -0.88162524 -0.47194377 0.00020115713
-0.025793668 0.14929155 0.11442481 -3.1462855e-06 -0.88619035 -0.4633213 0
-0.014250224 0.14954641 0.11393726 4.4080825e-06 -0.88618684 -0.46332797 0
-0.0039867517 0.14796425 0.11696354 -8.0410437e-08 -0.88619542 -0.46331161 2.0577947e-05
0.0054223519 0.14786437 0.1171546 -5.292062e-07 -0.88619137 -0.46331951 0
0.013316708 0.14948989 0.1140454 3.3869216e-07 -0.88619107 -0.46331996 0
0.028260408 0.14872155 0.11551504 -4.1047329e-06 -0.88618672 -0.46332836 0
0.032844931 0.14820653 0.11650014 -6.8583154e-07 -0.88618904 -0.46332395 3.6654938e-06
0.043269951 0.14816724 0.11657529 2.0175426e-05 -0.88640428 -0.46291193 0
0.054580618 0.14778744 0.11730178 -0.00018883354 -0.88643491 -0.46285319 1.29888e-05
0.064984724 0.14814146 0.11662461 7.9511619e-06 -0.88619357 -0.46331528 6.396247e-06
0.074468553 0.14874464 0.11547088 5.2415421e-06 -0.88619298 -0.46331629 0
0.085973449 0.14724356 0.11834204 0.003513467 -0.88294178 -0.46946928 0.00017565452
0.094313696 0.14788695 0.11711141 -1.5852276e-05 -0.88618988 -0.46332228 0
0.106461 0.14853525 0.1158714 -6.8534769e-06 -0.88619739 -0.46330786 0
0.11947966 0.14705478 0.11870312 0.0012881206 -0.88033748 -0.47434631 0.00043276043
0.12069751 0.14717799 0.11846744 0.00089467905 -0.88042605 -0.47418255 0.00039925976
0.13544497 0.14824328 0.11642985 2.9512526e-06 -0.88618547 -0.4633306 1.5036188e-05
0.1464183 0.14985277 0.1133513 9.4441803e-06 -0.88619483 -0.46331289 4.7614344e-06
0.15563601 0.14828825 0.1163438 1.5702399e-05 -0.88619894 -0.46330488 5.8127318e-07
0.16721132 0.14949808 0.11402971 -2.6780752e-05 -0.88617837 -0.46334419 0
0.18851128 0.14908496 0.11481994 3.5100658e-07 -0.88618797 -0.46332598 7.4309223e-06
0.19690305 0.14750195 0.11784781 -0.001119831 -0.88434905 -0.46682507 6.0171082e-05
0.20538037 0.14809981 0.11670428 -0.0012299152 -0.88308918 -0.46920353 8.3083403e-05
0.21323921 0.14938879 0.11423879 3.6617679e-05 -0.88618749 -0.46332669 1.7180761e-05
0.22080144 0.14800265 0.11689012 0.00021530699 -0.88350832 -0.46841529 5.3249471e-05
0.24689181 0.14916588 0.11466509 -0.062670454 -0.7737242 -0.63041508 0.029119657
0.25761306 0.14693885 0.11892482 -0.17277059 -0.65597844 -0.73473978 0.052456837
0.27415735 0.14319943 0.1168368 -0.33612874 -0.34970385 -0.87448543 0.037131816
-0.10529604 0.15085222 0.11143965 0.18673497 -0.64875597 -0.73773021 0.048038043
-0.055991083 0.15061642 0.11189062 0.0052860184 -0.87888932 -0.47699642 0.00061100844
-0.028564312 0.15095653 0.11124011 3.0480705e-06 -0.88618779 -0.46332628 0
-0.017008413 0.15048811 0.1121361 2.731626e-06 -0.88619924 -0.46330434 3.8265539e-06
-0.006695671 0.15124932 0.1106801 -4.7075119e-07 -0.88619316 -0.46331602 0
0.00096894428 0.15090457 0.11133949 -2.016827e-07 -0.88619703 -0.46330854 0
0.036241461 0.15074302 0.11164851 2.5625206e-06 -0.88619149 -0.46331924 5.9313575e-06
0.073007703 0.1506487 0.11182889 -9.0450715e-07 -0.88619596 -0.4633106 0
0.087361738 0.15089728 0.11135343 5.4547427e-06 -0.88619441 -0.46331358 0
0.094489627 0.1501365 0.11280861 5.0488688e-06 -0.88619506 -0.4633123 1.5430174e-05
0.11184349 0.15122974 0.11071751 -2.5410388e-06 -0.88619131 -0.46331966 0
0.13152812 0.15039235 0.11231925 -6.8429375e-07 -0.88618708 -0.46332753 0
0.16519727 0.15072094 0.11169073 -3.9046019e-05 -0.88618827 -0.46332541 0
0.17581776 0.1504457 0.11221717 5.7674438e-06 -0.88619024 -0.46332166 1.3811421e-05
0.18663746 0.1505217 0.11207183 2.1114907e-05 -0.88619161 -0.46331879 1.9113852e-05
0.20323521 0.15052137 0.11207247 6.908967e-05 -0.88618904 -0.4633238 1.6581687e-05
0.23009717 0.15053684 0.11204285 6.8237587e-06 -0.88620085 -0.46330139 1.083689e-05
0.24337101 0.15093672 0.11127797 -0.057697624 -0.85472488 -0.51586485 0.010360799
0.25482607 0.15111613 0.11093478 -0.032268435 -0.84077531 -0.54042155 0.011683044
0.27518377 0.15052722 0.11206122 -0.22969002 -0.61062872 -0.75787532 0.045133263
-0.094872177 -0.14459962 0.12210713 0.2488022 0.56916118 -0.78367907 0.030170089
-0.084105372 -0.14396322 0.12461644 0.18480882 0.62056333 -0.76206756 0.034405299
-0.077758007 -0.14371063 0.12509958 0.14977942 0.64430106 -0.74996156 0.036484987
-0.064178355 -0.14290865 0.12663354 0.10061812 0.70064914 -0.70637572 0.032352477
-0.056037776 -0.14340901 0.12567648 0.065173239 0.7990675 -0.59769857 0.019126777
-0.040385906 -0.14328067 0.12592198 0.0059140744 0.85254067 -0.52262759 0.0045493259
-0.024925953 -0.14369804 0.12512363 0.031085866 0.83354741 -0.55157262 0.0098297251
-0.018246587 -0.14449757 0.12359437 0.003829676 0.86164755 -0.50749266 0.0037004156
-0.0054108826 -0.14321464 0.12604827 -0.022079902 0.84216678 -0.53876483 0.006833978
0.0031686891 -0.1447217 0.12316567 -0.010253471 0.85969043 -0.51071244 0.003978455
0.025616759 -0.14431353 0.12394639 -0.0054216236 0.86569828 -0.50053686 0.0020960311
0.036712032 -0.1436867 0.12514533 -0.0028403327 0.85577255 -0.5173443 0.0026430632
0.044549804 -0.14382245 0.1248857 0.0033701698 0.86305887 -0.50509214 0.0017682984
0.056845207 -0.14333598 0.12581617 0.010277368 0.85380727 -0.52048773 0.0028928381
0.064589664 -0.14391072 0.12471686 0.0035931414 0.86515433 -0.5014928 0.001860181
0.074531108 -0.14419137 0.12418005 -0.0067342259 0.86840248 -0.49581438 0.0018940209
0.084345303 -0.14215434 0.12807636 -0.0059763445 0.84513694 -0.53451645 0.0050055529
0.092640445 -0.14381889 0.12489252 0.00084411277 0.85957974 -0.51100087 0.003271952
0.10533586 -0.14293131 0.12659022 -0.0011208489 0.85229981 -0.52305233 0.0039673708
0.12255834 -0.14505345 0.1225311 0.0086770458 0.86372942 -0.50388104 0.0021864765
0.13499847 -0.1430295 0.12640241 0.015514127 0.85888803 -0.51192844 0.0023354394
0.1474746 -0.14389491 0.12474709 -0.0023025493 0.86544275 -0.50100255 0.0025573235
0.15505862 -0.14313093 0.12620842 -3.2531549e-05 0.86707449 -0.49817848 0.0022492353
0.16740644 -0.14203611 0.12830248 0.0095632514 0.84686857 -0.53171623 0.0046227146
0.17149466 -0.14196934 0.1284302 0.0036572639 0.84699923 -0.53158146 0.0049271821
0.18558098 -0.14396684 0.12460951 0.0042655324 0.86372966 -0.50393742 0.0024801886
0.19549474 -0.14377168 0.12498282 -0.010955641 0.85017461 -0.52638686 0.0047947653
0.20689666 -0.14348115 0.12553851 -0.016831024 0.8552317 -0.51797259 0.0047375285
0.21483216 -0.14570826 0.12127864 -0.0093360655 0.86158639 -0.50752509 0.0046873954
0.22639358 -0.14319971 0.12607682 -0.078257665 0.75375921 -0.65247434 0.025917601
0.23699614 -0.14523068 0.12219214 -0.096755803 0.72865736 -0.67800945 0.032425378
0.24630988 -0.14329071 0.12590276 -0.16525228 0.57778883 -0.79928195 0.049185414
0.25523943 -0.14238811 0.12557897 -0.21961062 0.51592439 -0.82800549 0.045551453
-0.096910655 -0.13506442 0.12246935 0.34801593 0.24472724 -0.90498257 0.032690905
-0.086677656 -0.13380496 0.12754644 0.29519257 0.29917479 -0.90738958 0.034866795
0.24745023 -0.1321823 0.12917843 -0.34789339 0.3397111 -0.87382293 0.044581488
0.25500536 -0.13574973 0.12568714 -0.30714986 0.41494665 -0.85643345 0.047184691
0.26300716 -0.13972147 0.12198941 -0.28855392 0.39264789 -0.87324923 0.041992046
-0.10039073 -0.12856629 0.12074271 0.39818168 0.12519065 -0.90872359 0.01636811
-0.091322213 -0.12218027 0.12524205 0.41582823 0.067715734 -0.90691864 0.0058087786
0.24747097 -0.12198387 0.12916884 -0.3840946 0.073717922 -0.92034614 0.009865283
0.25416395 -0.12409345 0.12607597 -0.40705851 0.14770189 -0.90138096 0.021227963
0.26426125 -0.12685254 0.12140989 -0.39978743 0.13096188 -0.90720391 0.015507157
-0.10111032 -0.11400131 0.12038568 0.44437584 -0.00017201541 -0.89584041 0
-0.09470588 -0.11338465 0.12356324 0.44076082 4.9296988e-05 -0.89762461 9.3154158e-06
-0.086957581 -0.11396356 0.12740755 0.41362718 0.0017044694 -0.9104448 0.00069398276
0.2481674 -0.11369184 0.12884702 -0.41434702 0.020245908 -0.90989381 0.0010284454
0.25325063 -0.11577585 0.12649801 -0.41467103 0.016824977 -0.90981585 0.0008915097
0.26068866 -0.11218406 0.12306082 -0.41953114 2.5373418e-05 -0.90774095 0
-0.1008046 -0.10185343 0.12053737 0.4435074 0.00020644008 -0.89627069 6.0750358e-06
-0.094518565 -0.10577434 0.12365618 0.44088313 0.00031533476 -0.89756447 1.441964e-05
-0.085105203 -0.10707828 0.12832661 0.40777326 0.0049061878 -0.91307002 0.00084051763
0.24839242 -0.10627446 0.12874304 -0.4167456 -0.0014991123 -0.90902197 1.0674825e-06
0.2528002 -0.10613208 0.12670617 -0.41899967 -7.3970252e-05 -0.9079864 0
0.26094329 -0.10255948 0.12294316 -0.41950917 -3.3659722e-07 -0.90775102 0
-0.10083604 -0.09545432 0.12052177 0.44322667 9.7092867e-05 -0.89640951 9.826739e-07
-0.092011079 -0.09257897 0.12490027 0.42966083 -0.00097943982 -0.90298986 0.00035642396
-0.086327203 -0.092161857 0.12772031 0.39938018 0.00049732131 -0.9167853 0.0011905076
0.25394791 -0.094309524 0.12617579 -0.41948622 -1.1568085e-05 -0.90776163 8.5816191e-06
0.26433179 -0.094423555 0.1213773 -0.4195269 7.3914512e-06 -0.90774292 0
-0.10050464 -0.089605317 0.12068619 0.44322965 -0.00041376383 -0.89640796 7.0637557e-06
-0.097829759 -0.087575071 0.12201333 0.4418357 -0.00041743441 -0.89709586 5.0075178e-06
-0.08444836 -0.083630159 0.1286525 0.40130275 0.0062840716 -0.91592395 0.0010427281
0.25201631 -0.086788215 0.12706842 -0.418859 1.2655005e-05 -0.90805125 0
0.2639547 -0.085590325 0.12155154 -0.41951334 -4.3634391e-06 -0.90774918 0
-0.10074268 -0.074394941 0.1205681 0.44409183 0.00014766624 -0.89598125 0
-0.096277699 -0.075244799 0.12278339 0.44098708 -0.00015941866 -0.89751345 2.1342088e-05
0.25348851 -0.073690087 0.12638809 -0.41949743 -7.4827631e-06 -0.90775645 1.0543219e-05
0.26296732 -0.075675525 0.12200784 -0.41949239 2.8764582e-06 -0.90775889 0
-0.090201989 -0.062430076 0.12579784 0.42778781 -0.00066977605 -0.90387899 0.00028505063
-0.088302128 -0.06281016 0.12674046 0.40938601 -0.0089883674 -0.91231698 0.00067804649
0.24814947 -0.064804181 0.12885532 -0.409338 0.0021574567 -0.91238028 0.00013011458
0.25410932 -0.065867044 0.1261012 -0.4195134 1.5224241e-05 -0.90774912 0
0.26398146 -0.066095993 0.12153918 -0.41948473 -1.7813156e-06 -0.90776241 3.8362346e-06
-0.10131022 -0.056814943 0.12028649 0.44493309 0.00016641831 -0.89556378 0
-0.094227754 -0.055225071 0.12380046 0.43987378 0.0025945569 -0.89805579 5.0350904e-05
-0.084120743 -0.054523159 0.12881504 0.39871421 0.00042001807 -0.9170751 0.00089621142
0.24731755 -0.055789437 0.12923974 -0.4124445 0.0012805386 -0.91098183 7.0519709e-05
0.25516033 -0.054742873 0.12561551 -0.41948527 -2.600231e-06 -0.90776217 7.138734e-06
0.2634016 -0.055350907 0.12180713 -0.41949582 -3.007196e-06 -0.90775728 1.0198098e-05
-0.097111359 -0.044785529 0.12236977 0.44444135 7.6681249e-07 -0.89580786 4.6253504e-06
-0.08383584 -0.047438957 0.12895641 0.38460806 -0.003401238 -0.92307371 0.0016678915
0.25460267 -0.045193911 0.12587321 -0.41946608 -6.0785324e-06 -0.90777099 6.3094335e-06
-0.10036741 -0.031535346 0.12075429 0.44367993 -0.00014608534 -0.89618528 7.1419129e-07
-0.097209312 -0.035303373 0.12232116 0.44376779 -0.00030784903 -0.89614177 1.0558925e-06
-0.084454715 -0.031544354 0.12864934 0.3908664 0.00925784 -0.92040092 0.0012682533
0.24723107 -0.036897108 0.12927972 -0.41775343 0.00039710378 -0.9085604 1.0452323e-05
0.25900829 -0.030785136 0.12383734 -0.41946805 4.321817e-06 -0.9077701 1.2007882e-05
0.26534408 -0.031160094 0.1209095 -0.41950977 -2.2373918e-06 -0.90775084 0
-0.10139725 -0.020159662 0.12024333 0.44376007 0.00014442173 -0.89614558 2.2366394e-06
-0.093997128 -0.023690103 0.12391488 0.44359669 0.00026134012 -0.89622647 4.3860537e-06
-0.087074652 -0.027533311 0.12734947 0.41665 0.0012757189 -0.90906608 0.00065296283
0.25134552 -0.023135748 0.12737837 -0.41870821 -0.00014197448 -0.90812087 2.0202166e-05
0.2654101 -0.022997325 0.12087899 -0.41948414 -2.0177574e-06 -0.90776265 0
-0.084075324 -0.012222752 0.12883759 0.40089855 0.0045065242 -0.91611147 0.0013113859
0.24834621 -0.012730864 0.12876439 -0.41753286 -0.00032325034 -0.90866178 3.2244559e-05
0.25457284 -0.012503035 0.12588699 -0.41949442 -5.7714232e-08 -0.90775794 2.1372834e-07
0.26182315 -0.018612709 0.12253656 -0.41950628 1.4054016e-06 -0.90775239 9.3621848e-06
-0.093964912 -0.0075322613 0.12393087 0.43811783 -0.00016695025 -0.89891756 0.00015862094
-0.08687371 -0.0025181712 0.12744917 0.41948998 0.00075408426 -0.90775961 0.00060274819
0.24786325 -0.0050891116 0.12898758 -0.41728753 0.00034450329 -0.9087745 1.6258819e-05
0.25439554 -0.0023775797 0.12596893 -0.41942784 6.0108114e-06 -0.90778863 3.3007327e-05
0.26327249 -0.0048147379 0.12186681 -0.41952175 2.6998196e-06 -0.90774524 0
-0.095677331 0.005423693 0.12308125 0.44311354 -0.0014328643 -0.89646441 1.0926456e-05
-0.088913165 0.0024633878 0.12643729 0.42833903 -0.0002656104 -0.90361816 0.00048631296
0.258798 0.002767388 0.12393451 -0.41946903 -2.9019523e-06 -0.90776968 2.444986e-06
0.26221946 0.0044550309 0.12235341 -0.41948318 -7.0141084e-07 -0.90776306 0
-0.095449246 0.016715789 0.12319442 0.44299692 -0.00061475794 -0.896523 6.7039045e-06
-0.087518208 0.015013577 0.12712941 0.4153741 -0.0039202296 -0.90964228 0.0010231927
0.24640284 0.010487756 0.12966245 -0.41404465 -0.00097223534 -0.91025603 3.1934553e-05
0.26386648 0.016270936 0.12159231 -0.41950941 -2.620028e-06 -0.90775102 0
-0.1018491 0.023024416 0.12001914 0.44481531 -0.00016489424 -0.89562237 5.6573504e-06
-0.09262526 0.022537611 0.12459554 0.44208631 -0.00096024683 -0.89697206 1.8567125e-05
-0.085164838 0.026143493 0.12829703 0.39979842 0.0018526677 -0.91660118 0.0011051816
0.24977347 0.029299259 0.12810484 -0.41675314 0.00021173256 -0.90901971 1.6116799e-05
0.26299015 0.026222844 0.12199728 -0.41953716 -4.3081322e-06 -0.90773815 0
-0.083432324 0.03639384 0.1291566 0.39597481 0.00037782721 -0.91826129 0.0012455106
0.24980661 0.031567473 0.12808953 -0.41661379 0.0012106898 -0.90908283 3.0676289e-05
0.25455919 0.037607849 0.12589331 -0.41953734 -1.3810615e-05 -0.90773809 0
0.26278323 0.031584132 0.1220929 -0.419505 -7.7681841e-07 -0.90775305 4.2099823e-06
-0.095656328 0.044659708 0.12309168 0.44191843 -0.00037027017 -0.89705509 1.2738617e-05
-0.085286215 0.044492178 0.12823679 0.39345562 0.00055199425 -0.91934347 0.0011705803
0.24889106 0.043254331 0.12851261 -0.41511258 0.00069821021 -0.90976971 4.0887469e-05
0.25467855 0.043686651 0.12583816 -0.41946283 -5.4934407e-07 -0.90777248 1.0947577e-05
0.26314887 0.04549171 0.12192394 -0.41960049 -1.7653167e-05 -0.90770894 0
-0.098269403 0.054589041 0.12179519 0.44135934 -0.00038248181 -0.8973304 1.1603931e-05
-0.084024377 0.054702844 0.12886286 0.3931095 -0.0053745713 -0.91947597 0.0012553009
0.24893279 0.057527412 0.12849332 -0.41859287 6.532899e-05 -0.90817404 3.3830103e-05
0.25661936 0.056913618 0.12494129 -0.41953665 9.405715e-06 -0.90773839 0
0.2618674 0.054177348 0.12251612 -0.41950271 -2.438278e-06 -0.90775406 0
-0.094269685 0.065228231 0.12377965 0.4410859 0.00022877533 -0.89746481 5.4253164e-06
-0.08742705 0.064770736 0.12717463 0.41863725 -0.0036378035 -0.90814626 0.00059382891
0.24749754 0.061851837 0.12915656 -0.41858476 0.0001932202 -0.90817779 0
0.25471443 0.068351656 0.12582156 -0.41949302 -7.2608946e-06 -0.90775859 3.6475487e-06
0.26549184 0.061778307 0.12084123 -0.41950673 -2.4048949e-08 -0.90775222 0
-0.096526131 0.075811103 0.12266012 0.44200474 0.0016009926 -0.89701122 1.0974475e-05
-0.085811131 0.075002536 0.12797636 0.40690878 0.0017480357 -0.91346717 0.00077110622
0.24717648 0.074229062 0.12930493 -0.41912231 0.00013785022 -0.90792978 1.114712e-05
0.2547749 0.07684499 0.12579362 -0.41949642 -5.6171716e-06 -0.90775704 6.3935618e-06
0.26296389 0.075017989 0.12200942 -0.41943526 -2.3173864e-07 -0.90778524 2.1252436e-05
-0.094872311 0.082951449 0.12348066 0.44204554 0.0016418457 -0.89699113 7.5809421e-06
-0.086881869 0.085465215 0.12744512 0.41063508 0.0039676195 -0.91179115 0.00072297838
0.24919233 0.088885449 0.1283734 -0.4148441 -0.0006311551 -0.90989232 3.4997018e-05
0.25231311 0.086573802 0.12693125 -0.41948447 -4.963752e-06 -0.90776259 0
0.26465723 0.086929463 0.1212269 -0.41952872 9.1864985e-07 -0.90774202 0
-0.10112275 0.096361816 0.12037951 0.44410166 -0.00017128157 -0.89597636 7.067692e-06
-0.091773942 0.094744369 0.12501791 0.42220044 0.0011627852 -0.90650171 0.00061786821
-0.08986681 0.095919698 0.12596413 0.42249912 0.0031844433 -0.90635777 0.00060252333
0.24760823 0.095971674 0.12910543 -0.41340229 -0.00070719339 -0.91054815 3.109275e-05
0.25643778 0.09635409 0.12502521 -0.41944009 4.0809073e-06 -0.90778303 0
0.26167211 0.090505928 0.12260636 -0.41944525 7.8669927e-06 -0.90778059 1.762232e-06
-0.096433908 0.10421739 0.12270588 0.44246092 -0.00020726922 -0.89678776 6.1005298e-06
-0.087162703 0.10333622 0.12730579 0.40999582 -3.9455517e-05 -0.91208732 0.00077101606
0.25332278 0.10083154 0.12646468 -0.41952309 9.9733506e-06 -0.90774465 0
0.26535246 0.10423941 0.12090563 -0.4195064 1.1844301e-06 -0.90775239 7.3065489e-06
-0.092441566 0.11264056 0.12468668 0.43606117 0.0011898556 -0.89991617 0.00018055068
-0.086918771 0.11334604 0.12742682 0.40897781 -0.0099970046 -0.91248959 0.00072958932
0.25430742 0.11521977 0.12600966 -0.41142356 -0.018857669 -0.9112491 0.00082093483
0.26348245 0.11386549 0.12176979 -0.41943604 5.4536899e-06 -0.90778488 1.6981478e-05
-0.1017333 0.12110911 0.1200766 0.43386886 -0.02391547 -0.90065861 0.0012583192
-0.095287241 0.12717511 0.1232748 0.39415497 -0.1147024 -0.91185814 0.014591218
-0.086911954 0.12569648 0.12743019 0.36874041 -0.11221086 -0.92273468 0.014863523
0.24829321 0.12274571 0.12878889 -0.37969354 -0.10443094 -0.91919911 0.011539665
0.25297764 0.12323363 0.12662417 -0.37349799 -0.10332578 -0.92185843 0.012478557
0.26202875 0.12043346 0.12244154 -0.40807936 -0.032160465 -0.91237986 0.0018504055
-0.09397836 0.13586673 0.1239242 0.35442218 -0.34768566 -0.8680436 0.041327551
-0.088374138 0.13512695 0.12670472 0.31288916 -0.32618472 -0.89202243 0.040070053
0.25601298 0.13263586 0.12522151 -0.36548072 -0.28558767 -0.88592517 0.040285949
0.26449716 0.13512845 0.12130088 -0.3510969 -0.2889446 -0.89064133 0.030988196
-0.10044371 0.14393631 0.12071642 0.29405004 -0.44659087 -0.84503913 0.046716455
-0.096718684 0.14048365 0.12256459 0.33938259 -0.3509993 -0.87270778 0.041898318
-0.089196205 0.14507383 0.12249213 0.24504651 -0.63502425 -0.73259562 0.042555813
-0.073501974 0.14334206 0.12580456 0.10497934 -0.67362022 -0.73158389 0.041619431
-0.067509919 0.14244598 0.12751856 0.12990926 -0.6758492 -0.72550088 0.034938823
-0.056084223 0.14279106 0.12685847 0.10418703 -0.73904413 -0.66555148 0.031024417
-0.041684054 0.14349493 0.12551217 0.034638822 -0.80740243 -0.58898342 0.014595497
-0.033540532 0.14305593 0.12635189 0.026636666 -0.82180285 -0.56914902 0.011456577
-0.026068144 0.14510339 0.12243561 0.0071215187 -0.85584748 -0.51717925 0.0060764309
-0.015287449 0.14272778 0.12697954 -0.026192762 -0.84372854 -0.53613073 0.0054562488
-0.007291764 0.1451264 0.12239164 -0.0090117864 -0.86490268 -0.50185871 0.0027010541
0.015770998 0.14300931 0.12644106 0.0072494154 -0.86417991 -0.50313067 0.0024176175
0.023164198 0.14480551 0.1230054 -0.0018764021 -0.86411941 -0.50328332 0.0067308326
0.034819312 0.14115614 0.12998566 -0.049954187 -0.81471997 -0.57769889 0.061468016
0.045613699 0.14326067 0.12596026 -0.0451166 -0.83184195 -0.55317581 0.027186722
0.052346338 0.14288682 0.12667535 -0.0054663555 -0.81502306 -0.57940274 0.048531577
0.064193718 0.14433576 0.12390387 0.0125263 -0.85313767 -0.52153563 0.022077849
0.076648667 0.14588244 0.12094548 -0.0021485272 -0.87743729 -0.47968656 0.00077711535
0.084701568 0.1423793 0.12764609 -0.014111642 -0.84766692 -0.53034097 0.0058666337
0.095769405 0.14344421 0.12560919 0.0081173638 -0.84969413 -0.52721339 0.0034262501
0.10204467 0.14392596 0.12468773 0.002117808 -0.85610253 -0.51680171 0.0032833256
0.11288826 0.14313851 0.12619391 0.00015750417 -0.8465175 -0.53236091 0.0038199024
0.12316399 0.14397883 0.1245866 0.0020060625 -0.85638982 -0.51632601 0.0028670528
0.13020796 0.14311919 0.12623088 0.0032624544 -0.85685056 -0.51555455 0.0024707187
0.14380921 0.14381883 0.12489263 0.0011910661 -0.87286466 -0.48796096 0.0007257
0.15455002 0.14274462 0.12694736 -0.0014898791 -0.85572612 -0.51742685 0.0040788325
0.16350713 0.14507404 0.12249176 0.002606228 -0.87212723 -0.48927224 0.0015356527
0.17706522 0.14329696 0.12589084 0.00071209512 -0.84734404 -0.53104371 0.0049272683
0.18782179 0.14367741 0.12516311 -0.0026479219 -0.85869104 -0.5124867 0.0030477589
0.19595872 0.14370611 0.12510821 -0.0021623429 -0.86425865 -0.50304317 0.002526674
0.20500858 0.14481455 0.12298805 0.0030082567 -0.86846256 -0.4957456 0.0020894122
0.21141365 0.1439559 0.12463044 -0.0047743907 -0.85227507 -0.52307212 0.0088362889
0.22687186 0.14450769 0.12357499 -0.030368693 -0.85830206 -0.5122453 0.0089006592
0.23619436 0.14331435 0.12585759 -0.15699054 -0.6980893 -0.69858801 0.041359916
0.24529059 0.14316657 0.12614025 -0.24967125 -0.57508183 -0.77906686 0.052155871
0.2546297 0.14374906 0.12502608 -0.21975878 -0.5393489 -0.8129015 0.056214537
0.26194736 0.14437285 0.12242186 -0.29413995 -0.3782686 -0.87772119 0.037514213
-0.032022603 -0.1401283 0.13195163 0.11471014 0.67812943 -0.72593528 0.031277932
-0.024031838 -0.14086364 0.13054511 0.050898407 0.78151077 -0.62181205 0.021520507
-0.011805637 -0.14060107 0.13104735 0.014096458 0.77222198 -0.63519639 0.019436449
-0.009862937 -0.14099467 0.13029449 0.017837374 0.77315795 -0.63396263 0.020929059
0.025915368 -0.14086126 0.13054967 -0.00016973059 0.820099 -0.5722217 0.019469112
0.03324458 -0.14005344 0.13209486 0.0084349914 0.79373038 -0.60821128 0.038514037
0.046418838 -0.14062282 0.13100573 0.020245267 0.7844581 -0.61985129 0.049010333
0.057608191 -0.14079733 0.13067195 0.015563164 0.7771073 -0.62917572 0.048618007
0.068139009 -0.14089158 0.13049167 0.041614469 0.79970378 -0.5989508 0.027133366
0.086075187 -0.14091003 0.13045639 -0.010192592 0.83926135 -0.54363269 0.0052510165
0.11549125 -0.14013542 0.13193801 -0.005640246 0.84263802 -0.5384509 0.0045693298
0.1275485 -0.14047381 0.13129076 -0.0040813782 0.83074123 -0.55664378 0.005771541
0.16352797 -0.14045632 0.1313242 0.032468926 0.80194449 -0.5965156 0.0094342213
0.17181945 -0.14070681 0.1308451 0.0037248456 0.83956695 -0.54324347 0.0052383016
0.18034287 -0.14049546 0.13124934 -0.02358711 0.81640416 -0.57699901 0.012558785
0.19327882 -0.14055873 0.13112831 -0.030117916 0.79770106 -0.60230058 0.016054016
0.20463434 -0.14087488 0.13052362 -0.054717183 0.77462977 -0.63004351 0.024419885
0.21400034 -0.1408387 0.13059281 -0.083437696 0.74662757 -0.65998888 0.025679501
0.24007756 -0.14083868 0.13059287 -0.18477294 0.5803771 -0.79310864 0.043718997
-0.077158943 -0.13630086 0.13225588 0.18400994 0.44650564 -0.87565583 0.04071993
-0.050613347 -0.13384908 0.13874695 0.17749734 0.45921603 -0.87041104 0.029777786
-0.042291865 -0.13674134 0.13803707 0.18227403 0.52189767 -0.83330601 0.036056262
-0.028012142 -0.13815933 0.13571769 0.12073884 0.6647284 -0.73726398 0.036208507
-0.011758978 -0.13722713 0.13750079 -0.011484977 0.67956811 -0.73352253 0.032704495
-0.0044582561 -0.13772687 0.13654491 -0.037705913 0.68039411 -0.73187578 0.034641705
0.0050683152 -0.13929532 0.13354491 -0.036221005 0.75489038 -0.65485007 0.017211365
0.013867047 -0.13747568 0.13702534 -0.029529547 0.73410362 -0.67839509 0.030643629
0.036190815 -0.13821103 0.13561882 0.07195051 0.76214063 -0.64340097 0.049400568
0.044467658 -0.13818128 0.13567576 0.010082107 0.74582016 -0.66607112 0.060540896
0.053989962 -0.1382933 0.13546151 0.010446678 0.75226939 -0.65877283 0.05834154
0.064358115 -0.1379873 0.13604675 0.020283315 0.75748432 -0.65253818 0.04889397
0.074955031 -0.13839597 0.13526511 0.0203778 0.74671692 -0.66482973 0.040841788
0.083113603 -0.1375515 0.13688038 0.0025869575 0.73358345 -0.6795944 0.032416534
0.094977535 -0.1366871 0.13853373 -0.022445597 0.7255497 -0.68780357 0.026688121
0.10137811 -0.13709019 0.13776274 -0.010545218 0.74510747 -0.66686112 0.022550326
0.11586052 -0.13924538 0.13364042 0.00029714894 0.81157005 -0.58425516 0.011908116
0.12574348 -0.13836469 0.13532495 -0.035198737 0.77123505 -0.63557655 0.018365541
0.13475496 -0.13631473 0.13924593 -0.023013733 0.68839324 -0.72497243 0.02240211
0.1455224 -0.13752587 0.13692938 0.021284569 0.72444141 -0.6890077 0.014276052
0.15625758 -0.13937931 0.13338426 0.026379125 0.78970104 -0.61292434 0.011369226
0.16941334 -0.13689908 0.13812825 -0.0068942467 0.69146705 -0.72237509 0.021529637
0.17611074 -0.13618089 0.13950194 -0.0013620859 0.66640687 -0.74558699 0.023585385
0.18790695 -0.13699299 0.13794863 0.012369104 0.71531957 -0.69868803 0.021444807
0.19187117 -0.13856906 0.13493401 -0.051621299 0.75795442 -0.65026176 0.022506405
0.21505029 -0.13801739 0.13598923 -0.12457724 0.66850424 -0.73320037 0.029850055
0.22552256 -0.1390938 0.13393036 -0.1594533 0.66323709 -0.73122579 0.034861054
0.23317873 -0.13641168 0.13514282 -0.19579087 0.58253658 -0.78887069 0.037982412
0.24203075 -0.13488039 0.13168284 -0.31249481 0.40399882 -0.85972786 0.040168401
-0.076731108 -0.12587684 0.13247959 0.30053088 0.16356571 -0.93964219 0.014585781
-0.065067001 -0.12401737 0.13562195 0.2559607 0.1504712 -0.9549045 0.010784355
0.22731054 -0.12040474 0.13848525 -0.31358865 0.12270197 -0.94159776 0.010939196
0.23506021 -0.12599093 0.13490403 -0.32637522 0.21604098 -0.92022038 0.024928667
0.24253502 -0.12259081 0.13144982 -0.36178866 0.10686851 -0.9261145 0.012270879
-0.073931463 -0.11238133 0.13331148 0.31825054 0.0017572738 -0.94800508 0.0022770583
-0.065181673 -0.11432356 0.13559712 0.27132884 0.063120492 -0.96041471 0.0061116419
-0.055424798 -0.11450902 0.13770667 0.21877308 0.016659267 -0.9756335 0.00052511692
-0.046780087 -0.11595913 0.13957572 0.19369559 0.089326054 -0.97698665 0.0096732797
0.035134152 -0.11656929 0.13895261 -0.28075269 0.16207272 -0.94599706 0.16420493
0.04454289 -0.11580655 0.13895261 -0.13329773 0.058460917 -0.98935032 0.1456158
0.054640733 -0.11332244 0.13895261 0.17287245 0.0015226062 -0.98494309 0.14949238
0.063087933 -0.11544861 0.13895261 0.23314519 0.12955017 -0.96377385 0.15379195
0.22338557 -0.11964314 0.13954203 -0.25812536 0.16614634 -0.95171779 0.015014476
-0.076458506 -0.10602493 0.13235524 0.36255753 0.011646288 -0.93188858 0.001942504
-0.063731968 -0.10701652 0.13591057 0.25693798 -0.0037980154 -0.96642041 0.0011866868
-0.053133793 -0.10984944 0.138202 0.21773002 0.014074422 -0.97590756 0.00044906381
-0.046930205 -0.10328268 0.13954327 0.20638889 0.00091723225 -0.97846961 0.00011407119
0.037386522 -0.10529368 0.13895261 -0.3231003 -0.099335611 -0.94113684 0.10405257
0.043829333 -0.104502 0.13895261 -0.10314286 -0.048875887 -0.99346501 0.11144292
0.05643848 -0.10512307 0.13895261 0.1620329 -0.11513744 -0.98004532 0.10586696
0.062768042 -0.10558741 0.13895261 0.28344223 -0.084632084 -0.95524764 0.106997
0.22728436 -0.10472096 0.13837434 -0.34402159 0.0087278867 -0.93892121 0.0012130901
0.23226947 -0.10213752 0.13619366 -0.3565616 0.0046214764 -0.93426043 0.0012078143
-0.080390736 -0.090781249 0.13066569 0.37725556 -0.0056578461 -0.92609197 0.0017612231
-0.075536571 -0.095945574 0.13287012 0.35424933 -0.0062423837 -0.93513018 0.0022284961
-0.064848773 -0.094371594 0.13566913 0.26671889 -0.004615284 -0.96376336 0.0013216282
-0.058158111 -0.091989636 0.13711569 0.244095 -0.0013355267 -0.9697504 0.00064244622
-0.046329256 -0.090562299 0.1396732 0.20987497 0.00020715626 -0.97772813 2.7273054e-05
0.036589779 -0.094069421 0.13895261 -0.38928172 0.0047612274 -0.92110646 0.08821132
0.044176072 -0.095199965 0.13895261 -0.17648165 -0.086949393 -0.98045605 0.11018806
0.055636168 -0.096273214 0.13895261 0.17230123 -0.036791075 -0.984357 0.12162849
0.065044343 -0.094261691 0.13906722 0.4139716 -0.023742775 -0.90998006 0.10715995
0.22547081 -0.096141145 0.13878915 -0.29737934 -0.0040954771 -0.95475066 0.001235183
0.23683147 -0.093295127 0.13408551 -0.38646352 0.0027187599 -0.92230064 0.00062333461
-0.073285349 -0.085705571 0.13378617 0.31685019 -0.0070122266 -0.94844967 0.0020008693
-0.053834174 -0.084030278 0.13805057 0.22357677 0.0023224726 -0.97468358 0.00015955651
-0.04818799 -0.084322229 0.13927133 0.21313961 0.00016879904 -0.97702169 3.143468e-05
0.035266727 -0.085043356 0.13903995 -0.36874062 -0.05208661 -0.9280718 0.11463921
0.04574855 -0.086612806 0.13895261 -0.10810923 0.0087080775 -0.99410093 0.11754701
0.055685893 -0.085347399 0.13895261 0.17330325 0.031755045 -0.9843564 0.11269142
0.063725136 -0.088388257 0.13895261 0.40139952 0.067621134 -0.91340339 0.090571083
0.22639544 -0.087348908 0.13872032 -0.30837399 0.0025722091 -0.9512617 0.0014694955
0.23548728 -0.083699226 0.13470666 -0.37994424 0.0023137918 -0.92500657 0.00063122844
-0.075807042 -0.077625401 0.13268022 0.33576056 0.00093750289 -0.94194698 0.0023420902
-0.064931564 -0.075876623 0.13565122 0.26380622 -0.00047599562 -0.96457559 0.0011916531
-0.055389725 -0.077556953 0.13771425 0.22463521 0.0053474703 -0.97442818 0.00016794603
-0.048535503 -0.072583713 0.13919619 0.21338181 1.8325696e-05 -0.97696888 2.6230231e-05
