# .PCD v0.7 - Point Cloud Data file format
VERSION 0.7
FIELDS x y z normal_x normal_y normal_z curvature
SIZE 4 4 4 4 4 4 4
TYPE F F F F F F F
COUNT 1 1 1 1 1 1 1
WIDTH 574
HEIGHT 1
VIEWPOINT 0 0 0 1 0 0 0
POINTS 574
DATA ascii
0.20140927 0.11494705 0.093458131 -0.51021063 -0.19433419 -0.83780617 0.00015604671
-0.4540965 0.12350273 0.098385774 0.85045004 -0.12686996 -0.51052791 0.00058964209
0.18643954 0.12878315 0.099483773 -0.50181079 -0.23787731 -0.83162516 0.00036750003
0.19406441 0.12714007 0.095248744 -0.50247908 -0.22503322 -0.83479029 0.00040588123
-0.45254073 0.13818167 0.097031757 0.80018854 -0.30579114 -0.51593614 0.029128881
0.18560514 0.13571554 0.097438425 -0.48779297 -0.31400076 -0.81453151 0.0048178863
0.19333264 0.13576339 0.09285298 -0.49964941 -0.27471343 -0.82151264 0.0010564994
-0.45386454 0.14295594 0.093302228 0.74957156 -0.42910808 -0.5039928 0.033360071
-0.44906729 0.14674391 0.099907577 0.63050926 -0.53440785 -0.56290889 0.037034597
0.17987686 0.14443809 0.097865641 -0.40525949 -0.42275196 -0.81058347 0.014065239
0.18806812 0.14212461 0.093683049 -0.45851237 -0.38093576 -0.80290371 0.010793592
0.19169319 0.14609927 0.090088435 -0.44586799 -0.40487066 -0.79829913 0.010311043
-0.45237297 0.1534411 0.0921188 0.64578456 -0.60532492 -0.46534285 0.042990267
-0.44106188 0.15608113 0.099858537 0.43370965 -0.72389793 -0.53653312 0.034952089
-0.43141222 0.1569382 0.092250109 0.27166823 -0.86728621 -0.41714633 0.030369453
-0.42650402 0.15561156 0.098292485 0.16870736 -0.87571758 -0.45238972 0.0094927847
-0.41656232 0.15956721 0.096575603 0.061510939 -0.90736979 -0.41580829 0.0043481183
-0.37845856 0.15969379 0.099025995 0.018078208 -0.91863763 -0.39468724 3.3956247e-05
-0.21395385 0.15998471 0.099931419 -0.012774907 -0.92611438 -0.37702668 0.00048672757
-0.06118644 0.15981059 0.097757213 -0.011233532 -0.93807024 -0.34626308 0.00015927837
-0.041939143 0.15869212 0.098090053 0.0071507562 -0.93921596 -0.34325236 0.0010988568
-0.01060132 0.15942851 0.099575773 -0.0018917535 -0.94312572 -0.33243084 0.00054214103
0.015272637 0.15951633 0.098051183 -0.013051564 -0.94345206 -0.33125195 6.4334054e-05
0.04598828 0.15855177 0.099345051 -0.018066566 -0.94368076 -0.33036369 8.4724466e-05
0.082341783 0.15911794 0.097047195 -0.0019025077 -0.94671625 -0.32206324 7.4804164e-05
0.09328986 0.15922362 0.096712098 -0.0061096987 -0.94705623 -0.32100955 0.00010639727
0.11673922 0.1597034 0.094927311 -0.021541333 -0.94357419 -0.33045977 0.00048278505
0.12175316 0.15949731 0.095111743 -0.021733891 -0.9438318 -0.32971081 0.00047431135
0.13874862 0.15890975 0.095359884 -0.060494527 -0.92723376 -0.36956468 0.0050526476
0.14525595 0.15845957 0.096159205 -0.067809828 -0.90652329 -0.41667408 0.011729578
0.15759569 0.15560579 0.097272485 -0.20233348 -0.8028416 -0.56080884 0.031753294
0.16480097 0.15807235 0.094448686 -0.23261356 -0.71645594 -0.6577096 0.048661929
0.17103416 0.15805027 0.091888919 -0.24497949 -0.71724945 -0.65233296 0.037778649
0.18154238 0.15785539 0.092739396 -0.28648135 -0.66184235 -0.69274318 0.040044084
-0.43239507 0.16229689 0.091608159 0.21456254 -0.90491694 -0.36754349 0.032038867
-0.42864498 0.1605944 0.094147168 0.17149886 -0.90300518 -0.39391604 0.018966526
-0.41665402 0.16222456 0.091775149 0.057879265 -0.93775803 -0.34243235 0.020813519
-0.40527964 0.16106096 0.094611816 0.059913851 -0.91278303 -0.40402672 0.0040809624
-0.39614162 0.16227455 0.09215828 -0.013301075 -0.94966304 -0.31299081 0.013393694
-0.38894343 0.16092719 0.095745742 0.018859154 -0.92121154 -0.38860485 0.00042340966
-0.37874705 0.16072395 0.096703738 0.018068423 -0.91976595 -0.39205119 5.3014923e-05
-0.36600357 0.16134617 0.095788881 0.020199386 -0.92115647 -0.38866794 2.7947353e-05
-0.35681352 0.1619506 0.09486381 0.018044515 -0.92313766 -0.38404599 9.757217e-05
-0.34695894 0.16018701 0.099461682 0.020337576 -0.9196583 -0.39219257 2.7340227e-05
-0.33408675 0.16140561 0.097185887 0.017059762 -0.92363071 -0.38290358 4.0423904e-05
-0.32118428 0.16311806 0.093568519 0.014882741 -0.92435473 -0.38124371 1.5434309e-05
-0.31363061 0.1623615 0.095670559 0.014754224 -0.92408568 -0.38190031 1.2583372e-05
-0.3068994 0.16393688 0.092040256 0.013293232 -0.9286654 -0.37068042 8.5028179e-05
-0.29725647 0.16456021 0.090840906 0.013777013 -0.92913014 -0.36949611 0.00010763797
-0.28182581 0.16189604 0.098021679 0.014396398 -0.92375702 -0.38270843 4.05582e-05
-0.27219164 0.16376546 0.093842506 -0.0045272768 -0.9256649 -0.37831751 0.00067868049
-0.26547274 0.16258861 0.096992016 -0.0069590928 -0.92490757 -0.38012818 0.00062638981
-0.2500751 0.16262618 0.090906635 -0.017715923 -0.92549473 -0.37834597 0.0011382209
-0.24502154 0.16241832 0.096012861 -0.017918995 -0.92384714 -0.3823421 0.0011943236
-0.23528519 0.16296801 0.096175872 -0.02297041 -0.92169857 -0.38722607 0.0012192901
-0.22212857 0.16018784 0.09918493 -0.010445286 -0.92758489 -0.37346643 0.00083709904
-0.21344355 0.16170768 0.095608056 -0.011241736 -0.9277876 -0.3729395 0.00041340687
-0.20146003 0.16220328 0.094628304 0.0096290531 -0.93063235 -0.36582884 0
-0.19630672 0.16199066 0.095285855 0.0094710309 -0.93011427 -0.36714807 2.9584822e-05
-0.1843642 0.16270885 0.093820378 0.0071163513 -0.93185616 -0.36275813 1.9890191e-05
-0.17581922 0.16164196 0.096685365 0.0037189883 -0.93224233 -0.36181545 1.0592056e-05
-0.16060492 0.1606929 0.099147342 -0.0024312956 -0.93134648 -0.36412603 4.7060694e-05
-0.15947121 0.16234449 0.094923288 -0.0043403632 -0.93249863 -0.36114746 1.9779574e-05
-0.14400522 0.16230027 0.094584905 -0.010577176 -0.93582237 -0.35231313 2.142148e-05
-0.13925388 0.16375975 0.090685003 -0.013170876 -0.93723536 -0.34844863 5.0382943e-05
-0.12149562 0.16075203 0.097914577 -0.015046414 -0.93562347 -0.35267887 3.7327245e-05
-0.11133856 0.16178396 0.09462399 -0.015291433 -0.93704665 -0.34886932 2.8532932e-05
-0.10291149 0.16324227 0.090418935 -0.016572651 -0.94032621 -0.33987075 5.3469721e-05
-0.090703845 0.16114047 0.095607571 -0.015851961 -0.93823826 -0.34562644 3.3238113e-05
-0.082895681 0.1614393 0.09431947 -0.015496814 -0.93920314 -0.34301215 3.8786442e-05
-0.054521471 0.16084182 0.094609395 -0.011476709 -0.9402113 -0.34039822 0.00015173091
-0.033682004 0.16092613 0.094157189 0.0079229884 -0.94563717 -0.32512704 0.00066402019
-0.02598872 0.16166221 0.092675328 0.01069415 -0.94785798 -0.31851336 0.0008148154
-0.015316996 0.16072185 0.098916002 0.0084814578 -0.94584525 -0.32450721 0.00066325837
-0.0042726812 0.16097592 0.094771363 -0.0061500859 -0.94793713 -0.31839821 0.00057345245
0.0053147785 0.16231109 0.09042722 -0.013262978 -0.94919574 -0.31440648 0.00023328983
0.025083695 0.16001046 0.096021071 -0.016454238 -0.94495046 -0.32679939 3.3062595e-05
0.045038003 0.16071001 0.09295097 -0.015514025 -0.94751471 -0.31933558 2.7630005e-05
0.05291044 0.16108902 0.091433436 -0.013940477 -0.94763547 -0.31904966 4.5514822e-05
0.099716693 0.16051587 0.092576593 -0.0068641538 -0.94761229 -0.31934917 9.7101394e-05
0.10310236 0.16029713 0.093331285 -0.0077935192 -0.94791812 -0.31841886 7.3343508e-05
0.14636301 0.16020411 0.091170534 -0.0075722872 -0.8652975 -0.50120151 0.047906309
0.16943958 0.16076387 0.090482518 -0.24467216 -0.69627547 -0.67478591 0.062475279
0.17156021 0.16075414 0.090441182 -0.25619477 -0.68317187 -0.68384236 0.066471741
-0.33531427 -0.16015722 0.10007745 0.01918274 0.91969162 -0.39217246 3.6784113e-05
-0.29588008 -0.16023675 0.10140872 0.014149776 0.92269391 -0.38527369 2.7253473e-05
-0.28378001 -0.16053739 0.10118768 0.01632447 0.922198 -0.3863734 2.1128082e-05
-0.25558132 -0.16054693 0.10221695 -0.034091797 0.92890316 -0.36875027 0.0014416674
-0.24396345 -0.16237181 0.10008146 -0.042415164 0.9311915 -0.36205444 0.0014546886
-0.23495966 -0.16017783 0.10174339 -0.032978315 0.93124795 -0.36289078 0.0012794946
-0.033501416 -0.16039699 0.10041278 0.0077321916 0.94238335 -0.33444574 0.00061151845
-0.44639432 -0.15265943 0.10092819 0.54596764 0.59571075 -0.58910775 0.041357212
-0.43461642 -0.15387058 0.10637189 0.30744365 0.77709121 -0.5491882 0.026792906
-0.42428985 -0.15438214 0.10479367 0.18292065 0.82270855 -0.53822923 0.017661372
-0.41740078 -0.15600844 0.10574871 0.10411877 0.87559313 -0.47169483 0.0069026924
-0.40745085 -0.15585098 0.10659902 0.057210803 0.89117229 -0.45004311 0.0055838441
-0.39394566 -0.15548408 0.10766008 0.041207701 0.90370405 -0.42617002 0.0013143627
-0.38092536 -0.1570992 0.10469343 0.021972906 0.9121986 -0.40915871 7.8899604e-05
-0.37295258 -0.15790194 0.10335943 0.019828634 0.91333133 -0.40673423 6.5694498e-05
-0.36326224 -0.15840554 0.10267952 0.02037791 0.91467166 -0.4036836 5.4995027e-05
-0.35612407 -0.15718164 0.10589929 0.02232445 0.91373873 -0.40568843 7.0982147e-05
-0.34016097 -0.15896563 0.10260403 0.019621771 0.91915691 -0.39340249 2.3174403e-05
-0.33097374 -0.15821691 0.10482727 0.018578729 0.91855079 -0.39486626 1.5953992e-05
-0.32914174 -0.15804392 0.10531263 0.018529333 0.91854912 -0.39487243 3.1749616e-05
-0.31075618 -0.15817003 0.10581913 0.015329116 0.92042196 -0.39062569 3.156628e-05
-0.29598349 -0.15765184 0.1075694 0.015635343 0.91977841 -0.3921265 3.7513833e-05
-0.27129686 -0.15866897 0.10614137 0.014647773 0.92207837 -0.38672584 0.00011538841
-0.26542288 -0.15890457 0.10581032 -0.0084663192 0.92452168 -0.38103536 0.00099837035
-0.24125028 -0.15658547 0.10529537 -0.037778586 0.93061179 -0.36405283 0.0013322165
-0.23416567 -0.15666991 0.1060151 -0.029142227 0.93112826 -0.36352542 0.0013785338
-0.22343698 -0.15766686 0.10526643 -0.010361529 0.92728239 -0.37421909 0.0014092957
-0.2125261 -0.15620311 0.10932276 0.0088571878 0.92262501 -0.38559642 0.00031828336
-0.20736966 -0.15895423 0.10267061 0.0085297506 0.92473197 -0.38052323 0.00018379328
-0.19424105 -0.15838556 0.10441256 0.010271185 0.92576027 -0.37797135 6.1863648e-05
-0.18924144 -0.15772736 0.10623853 0.013283303 0.92596579 -0.37737373 8.0194885e-05
-0.17522338 -0.15674403 0.10914806 0.0054285824 0.92440659 -0.38136986 0.00011040788
-0.16701236 -0.15993221 0.10112663 -0.00061608921 0.93134385 -0.36414054 2.3844501e-05
-0.15565199 -0.15767059 0.10682644 -0.0050900248 0.92690557 -0.37526008 6.492636e-05
-0.14430156 -0.15938082 0.10217298 -0.011561895 0.93070298 -0.36559308 5.802864e-05
-0.13370502 -0.15828146 0.10476409 -0.010490146 0.92971551 -0.3681289 6.0523304e-05
-0.12629454 -0.1579954 0.10532992 -0.012268359 0.93062317 -0.36577323 6.0821581e-05
-0.11419722 -0.1577332 0.10558332 -0.012411875 0.93148679 -0.36356342 5.5304263e-05
-0.10552613 -0.15909135 0.10156557 -0.014452934 0.93356335 -0.35812101 5.8777063e-05
-0.094538197 -0.15703666 0.10670453 -0.01073418 0.93245721 -0.36112094 6.5229484e-05
-0.089079112 -0.15776962 0.10458215 -0.013073033 0.93320978 -0.35909417 6.0847957e-05
-0.074556559 -0.15754916 0.10448688 -0.015319257 0.93407303 -0.35675335 9.8307144e-05
-0.062325533 -0.15660816 0.10657749 0.0015537568 0.93425894 -0.35659206 0.00053740281
-0.040695839 -0.15506642 0.10963655 0.012741809 0.93663138 -0.35008478 0.00070264837
-0.037003033 -0.15747148 0.1057322 0.0088481298 0.94225615 -0.3347761 0.00077032449
-0.025532639 -0.15744415 0.10491018 0.00099262095 0.9434073 -0.33163494 0.00069064746
-0.015641708 -0.15758422 0.1055648 0.0009020837 0.93912464 -0.34357542 0.00064259226
-0.0011927991 -0.15717342 0.10564031 -0.0061108754 0.94115669 -0.33791524 0.00032852934
0.0024159243 -0.1581101 0.10277072 -0.0079781171 0.93929982 -0.34300458 0.00023589822
0.013804942 -0.15709129 0.10520577 -0.019449245 0.94051588 -0.33919263 0.0001069744
0.026099361 -0.15695219 0.10503431 -0.019181335 0.94099313 -0.33788168 0.00010269908
0.042886972 -0.15708017 0.10390812 -0.015654832 0.94278318 -0.33303863 6.6900058e-05
0.057958335 -0.1578604 0.10111244 -0.0082301805 0.9431532 -0.33225638 7.9780802e-05
0.066462293 -0.15702239 0.10351936 -0.0063130218 0.94130248 -0.33750525 0.00010766395
0.075858638 -0.157186 0.10308827 -0.00088292646 0.94227105 -0.33484992 0.00011991602
0.087428987 -0.15458867 0.10979348 -0.0036619473 0.93892694 -0.34409711 0.00019208415
0.091546208 -0.15633062 0.10507391 -0.0059661353 0.94098288 -0.33840156 0.00012458519
0.10468536 -0.15640914 0.10442193 -0.0055171503 0.94369864 -0.33076057 0.00030380281
0.11256921 -0.15720046 0.10189722 -0.0013424227 0.94711322 -0.32089692 0.00071254367
0.12845437 -0.15475146 0.10740466 -0.063083418 0.89092475 -0.44974843 0.018122979
0.13325141 -0.1547695 0.10669377 -0.064246193 0.88586932 -0.45946494 0.020196639
0.1471636 -0.15668038 0.10516649 -0.14779916 0.82844275 -0.54022032 0.030945238
0.15439621 -0.15637472 0.10437785 -0.21310939 0.73321819 -0.64573646 0.031610955
0.16446084 -0.15360864 0.10389802 -0.3246268 0.60759252 -0.72487843 0.034386389
0.17004541 -0.15143573 0.10143469 -0.31902397 0.59684485 -0.73620641 0.036119308
-0.44202387 -0.14986572 0.10794608 0.48776075 0.64618003 -0.58697599 0.040437739
0.16493936 -0.14679027 0.10619811 -0.33633885 0.5659712 -0.75269693 0.032792747
0.17401838 -0.14751083 0.10069309 -0.39471233 0.50278378 -0.7690323 0.023735024
0.16933694 -0.13586855 0.10727899 -0.45913529 0.31427708 -0.83091795 0.0078910161
0.17655969 -0.13268474 0.10406607 -0.49262825 0.25858247 -0.83093476 0.00069257105
0.18183315 -0.1321246 0.10111845 -0.49415365 0.25734404 -0.83041328 0.00065908418
-0.45166799 -0.12715058 0.10155201 0.83230311 0.14384499 -0.53533196 0.00048263505
0.17670582 -0.12815589 0.10552385 -0.49175826 0.23207709 -0.83923423 0.0004106203
0.18254793 -0.1254991 0.10274076 -0.49820298 0.22790018 -0.83657354 0.00039938916
-0.45367631 -0.11544724 0.10059037 0.84202605 0.10589107 -0.52894169 0.00044780588
-0.44880047 -0.11903697 0.10759857 0.82529837 0.12669665 -0.55030048 0.00021614111
0.17923543 -0.11173149 0.10777505 -0.49713156 0.18614951 -0.84747183 0.00021068766
0.18349621 -0.11724245 0.10404533 -0.49781901 0.20241256 -0.84332991 0.00035831254
-0.45213997 -0.10392478 0.1051524 0.83946013 0.085882507 -0.53659201 0.00018366416
-0.25257337 -0.10340404 0.10966454 0.23392385 0.83799905 -0.49298805 0.18561316
-0.24305183 -0.10357642 0.10625738 -0.38448879 0.89136446 -0.2400784 0.2058748
-0.23571575 -0.10057896 0.10660309 0.65748888 -0.63247854 0.40948668 0.14988351
0.17793913 -0.10591096 0.10969659 -0.49555206 0.1729162 -0.85119218 0.00016869797
0.19104841 -0.10267159 0.10255729 -0.5061245 0.15361527 -0.84866977 0.00016250786
-0.45159334 -0.096217737 0.10725681 0.83747441 0.079108521 -0.5407204 0.00016336433
-0.25886884 -0.098589331 0.10692576 0.66674793 0.62281865 -0.40932149 0.1907067
-0.23255891 -0.092453942 0.10175775 0.87530756 -0.47152057 0.10726155 0.15853311
-0.046751723 -0.095245838 0.10739481 0.60750681 0.29793426 -0.7363224 0.15179458
-0.033334564 -0.098530285 0.10807219 -0.19446358 0.65663254 -0.72870946 0.16462798
-0.026650378 -0.091871344 0.10567942 -0.43518692 0.49913368 -0.74931836 0.15799269
0.1818675 -0.099664614 0.10869319 -0.50366664 0.14953761 -0.85085738 0.00014494547
0.19491726 -0.098645076 0.10105304 -0.50783408 0.14792489 -0.8486594 0.0001167084
-0.25856358 -0.08673688 0.10333613 0.95782351 0.19251104 -0.21333936 0.21234727
-0.044579927 -0.080968112 0.10813156 0.57353747 0.14676952 -0.805924 0.14641854
-0.025290787 -0.086028859 0.10267299 -0.70791292 0.17798942 -0.68350494 0.15285373
0.18811084 -0.086769074 0.10690429 -0.50323427 0.12934284 -0.85441542 6.2543259e-05
0.19939542 -0.083845377 0.10045853 -0.51439995 0.11852027 -0.84932059 6.0154307e-05
-0.45613798 -0.073204741 0.10300699 0.84830582 0.067040741 -0.52524549 0.0003759939
-0.25900561 -0.073798105 0.10084715 0.95195746 -0.29107252 -0.095151223 0.19067474
-0.23364981 -0.076645575 0.10396443 0.91261947 0.10289109 0.39565027 0.15608291
-0.047870588 -0.075525813 0.1018616 0.77842754 -0.05442746 -0.6253705 0.15241712
-0.028200349 -0.07706669 0.10901663 -0.40094504 -0.19889514 -0.89425039 0.16119999
0.1862786 -0.075632021 0.10949119 -0.50408041 0.10777161 -0.85690618 7.9957739e-05
0.19712466 -0.075370893 0.10301358 -0.51170135 0.10896212 -0.85222584 6.8830355e-05
-0.45418161 -0.064558014 0.10719613 0.83865535 0.055780392 -0.54179859 0.0001692425
-0.25814834 -0.064959317 0.10892045 0.49138018 -0.45628789 -0.74185365 0.19232526
-0.050468225 -0.06330502 0.10023784 0.61765188 -0.50639808 -0.60172004 0.16780698
-0.047294736 -0.063049585 0.10616878 0.40152779 -0.51719695 -0.75583249 0.14842457
-0.032726996 -0.060397103 0.10883975 -0.29302475 -0.56201035 -0.77348626 0.11400907
-0.025586572 -0.065520599 0.10384499 -0.61198866 -0.49534449 -0.61652547 0.12979883
0.190449 -0.067436762 0.10816813 -0.50924432 0.094452262 -0.85542333 5.520292e-05
-0.45680767 -0.054525256 0.10376538 0.85033315 0.041809868 -0.52458119 0.00020358208
-0.25649887 -0.055263877 0.10293778 -0.061271466 0.94448072 0.32280347 0.13982221
-0.24316785 -0.053906705 0.10271437 0.36681956 0.86268342 0.34816757 0.17521152
-0.03528437 -0.05687527 0.10318325 -0.16313395 -0.7862938 -0.59592736 0.16307613
0.19509397 -0.05267806 0.10672072 -0.51022291 0.076649435 -0.85661978 5.0052982e-05
0.20392764 -0.056251168 0.10099733 -0.5173434 0.085009985 -0.85154516 1.5913873e-05
-0.45654422 -0.041646563 0.1051743 0.8445664 0.03531358 -0.53428507 0.0001270439
0.19416599 -0.043332752 0.10808992 -0.50650352 0.062575527 -0.85996425 6.8523863e-05
0.20341286 -0.042680208 0.1024765 -0.51766807 0.063175008 -0.85324597 2.6155698e-05
0.19679366 -0.033162747 0.1073241 -0.51438284 0.049670652 -0.856121 7.0445029e-05
0.20167108 -0.039008085 0.10385883 -0.51889896 0.055440653 -0.85303593 7.7733021e-05
-0.45894432 -0.02944196 0.1021606 0.85167587 0.030738413 -0.52316654 0.00011184589
0.19688062 -0.020709313 0.1077833 -0.51368135 0.03237924 -0.85736984 7.1190247e-05
0.2042598 -0.024845337 0.10308187 -0.51807737 0.039924361 -0.85440147 5.1759576e-05
-0.45558614 -0.015092349 0.10792252 0.84444767 0.01298744 -0.53548062 5.1857991e-05
0.19402005 -0.01845525 0.10957523 -0.51126176 0.029358912 -0.85892338 7.5313917e-05
0.20522532 -0.01192052 0.10290559 -0.52130127 0.017819256 -0.85318667 5.6335608e-05
-0.46062976 -0.0090151159 0.10000081 0.8561306 0.0010995721 -0.51675832 0.00014005153
-0.4563646 0.0053345729 0.10693239 0.8452974 -0.0068734949 -0.53425187 0.00023541226
0.19796461 0.0096948752 0.10747553 -0.51483685 -0.011570825 -0.85721004 5.3647869e-05
0.20149335 0.0049628676 0.10544693 -0.51656133 -0.0075246673 -0.85621721 7.2423427e-05
0.19503765 0.015331729 0.10908934 -0.50911611 -0.026562484 -0.86028779 8.7723623e-05
0.2064968 0.012712469 0.10210621 -0.5206883 -0.021522427 -0.85347551 7.6682874e-05
-0.45763052 0.027857641 0.10430855 0.84598655 -0.02537097 -0.53260028 7.1130336e-05
0.19843145 0.023081727 0.10675005 -0.51196456 -0.040803123 -0.85803688 5.8234171e-05
0.20453419 0.02237203 0.10300324 -0.5191735 -0.041646354 -0.85365361 4.7816095e-05
0.19210249 0.039335169 0.1096277 -0.50629544 -0.059668701 -0.86029333 4.6188849e-05
0.20344958 0.03901729 0.10275862 -0.51688898 -0.05951684 -0.85398102 7.3718642e-05
-0.45722297 0.049280845 0.10350224 0.84583306 -0.037321743 -0.53214043 0.00014051414
0.19460773 0.046072595 0.1075827 -0.50931638 -0.06712579 -0.85795748 4.9894737e-05
0.20426029 0.043759298 0.10185358 -0.51659262 -0.062150255 -0.85397273 5.2639589e-05
-0.45562011 0.055214379 0.10560499 0.84173721 -0.04717562 -0.53782231 0.0001291529
-0.26041111 0.059432905 0.1021279 0.64305717 0.69036239 -0.33147749 0.15094744
-0.25795764 0.056341138 0.10387321 0.58403265 0.72493392 -0.3652077 0.16465539
-0.24230942 0.054304454 0.10450296 0.055792414 -0.92422932 0.37773979 0.13986062
-0.23982008 0.053409178 0.10189499 0.1880929 -0.92261571 0.33675101 0.14690283
-0.040395085 0.055368517 0.10414067 0.33001775 0.69473165 -0.63909018 0.16056281
-0.035079617 0.055657722 0.10213964 0.25274223 -0.90329081 0.34668025 0.17811888
0.18928954 0.056544341 0.10984449 -0.50525302 -0.08795964 -0.85847688 5.1450079e-05
-0.45726311 0.06428355 0.10228532 0.84679365 -0.056474254 -0.52891505 0.00016098765
-0.23281726 0.0695839 0.10534686 0.95754623 -0.20367505 0.20401372 0.17687647
-0.046381377 0.063740075 0.10684283 0.43999666 0.51982862 -0.7322439 0.1199578
-0.026703039 0.065601148 0.10523943 -0.56847727 0.43186361 -0.70023388 0.14426526
0.19415677 0.064950839 0.10617039 -0.51114935 -0.091460317 -0.85461181 5.1120671e-05
0.20416799 0.063978061 0.10017649 -0.51683098 -0.093847647 -0.85092795 9.5251482e-05
-0.2576223 0.075184315 0.10472555 0.90625429 0.13097546 -0.40193117 0.15826587
-0.23342228 0.074761465 0.10502038 0.97671098 -0.055190038 0.20733957 0.15472052
-0.026879117 0.076452151 0.10720126 -0.75162083 0.0538687 -0.65739208 0.11139382
0.18775025 0.078844517 0.10817254 -0.50380522 -0.11400113 -0.85626167 6.055606e-05
-0.25865573 0.084507436 0.10185198 0.94222689 -0.29765627 -0.15365285 0.14127272
-0.23439905 0.087150142 0.10952692 0.65804732 0.396882 0.63988936 0.19560288
-0.045360971 0.0834435 0.10751993 0.61557162 -0.039832011 -0.78707373 0.12817171
-0.026100403 0.085897751 0.10412931 -0.78883737 -0.19502167 -0.58283979 0.1419885
0.18993904 0.083489634 0.10622887 -0.50690597 -0.11732864 -0.85397911 3.9992094e-05
0.19652666 0.082619041 0.10230844 -0.51075476 -0.11808499 -0.85157824 5.0061288e-05
-0.45450991 0.092584036 0.10315704 0.84307635 -0.079158567 -0.53193635 0.00036663038
-0.25866467 0.093412124 0.10684662 0.74539483 -0.51432347 -0.42409661 0.11687054
-0.23353723 0.096644565 0.1051847 0.5204457 0.69890201 0.49058354 0.14551808
-0.026983734 0.09296149 0.10624274 -0.55572957 -0.46108174 -0.69178635 0.13842794
0.18336573 0.098395862 0.10808295 -0.49697405 -0.14836863 -0.85498744 0.00014879812
0.19398968 0.095119111 0.10211358 -0.51268578 -0.14203556 -0.84674627 0.00012538818
-0.4521949 0.10437461 0.10498776 0.83960211 -0.087316461 -0.53613818 0.00025642628
-0.25895399 0.10148109 0.1028948 0.54551417 -0.75775433 -0.35808191 0.13073432
-0.24604829 0.1046839 0.10421338 0.31797928 -0.88008463 -0.35261911 0.15651627
-0.23678593 0.1013635 0.10505728 -0.25457597 -0.82815492 -0.4993501 0.14120001
-0.04366187 0.10017207 0.1083003 0.26978964 -0.65589267 -0.70499527 0.1805155
-0.034211904 0.10033806 0.10497813 -0.27693433 -0.76761287 -0.57799476 0.14391436
0.18439324 0.10526825 0.1059569 -0.50099134 -0.16109262 -0.85032749 0.00018296023
0.19590414 0.10006663 0.10015835 -0.51068491 -0.15326713 -0.84599656 0.00018565991
-0.45327833 0.1134299 0.10160944 0.84468508 -0.10372909 -0.52511644 0.00049084582
0.18546516 0.11500828 0.10323709 -0.50096965 -0.20431668 -0.84100181 0.00033257634
-0.45202705 0.12977985 0.10035211 0.833507 -0.1679443 -0.52636564 0.0026327714
-0.446648 0.12659365 0.10924698 0.81117725 -0.1725096 -0.55877709 0.0042378535
0.17366835 0.1230692 0.10862176 -0.49235332 -0.22171269 -0.84168375 0.00043230801
0.18221429 0.1235771 0.10340002 -0.49981907 -0.22136793 -0.83736318 0.00047663591
-0.4487372 0.13582076 0.10361372 0.76792091 -0.30784351 -0.56172037 0.029558724
0.16832452 0.13865593 0.10691954 -0.44681957 -0.37431315 -0.81255269 0.0084558139
0.1731206 0.13509052 0.10524177 -0.46006328 -0.36713654 -0.80842596 0.0082329707
0.18310219 0.13005646 0.10099026 -0.49966222 -0.24267869 -0.83153158 0.00040465753
-0.44514176 0.14671414 0.10532364 0.60148412 -0.56546503 -0.56432819 0.033421878
-0.42338964 0.14986992 0.10764083 0.23419829 -0.83129692 -0.50407988 0.02075574
0.16486508 0.14472467 0.10690701 -0.40584058 -0.50104231 -0.76436245 0.025119403
0.17568745 0.14249943 0.10109383 -0.43974447 -0.41983458 -0.79395449 0.015254269
-0.44113967 0.15368596 0.10347874 0.46400869 -0.70585126 -0.53522891 0.038409799
-0.43457296 0.15383941 0.10628904 0.42863405 -0.74270278 -0.51445651 0.031034909
-0.42500055 0.15606636 0.10511187 0.1881617 -0.85712194 -0.47951755 0.016747352
-0.41359594 0.15663113 0.10329003 0.072228156 -0.9027552 -0.42404738 0.0044415556
-0.39584115 0.15803798 0.10193352 0.046156112 -0.90422505 -0.4245548 0.0020606085
-0.38812065 0.15669081 0.1053132 0.0276863 -0.90884954 -0.41620427 4.8916991e-05
-0.37454796 0.15639889 0.10664384 0.023171702 -0.90975171 -0.41450551 4.6004665e-05
-0.35658935 0.15678242 0.10677682 0.023884345 -0.91350287 -0.40613043 0.00011359923
-0.34299245 0.15726376 0.10644275 0.020697387 -0.91830397 -0.39533472 4.8309903e-05
-0.33465457 0.15725808 0.10684282 0.020988064 -0.91747487 -0.39723963 4.4619523e-05
-0.31686395 0.15786216 0.10626201 0.017139088 -0.9201172 -0.39126793 1.5685075e-05
-0.3038747 0.15831839 0.10569838 0.015479876 -0.92064208 -0.39010078 4.3333384e-05
-0.292519 0.15818571 0.10644106 0.015334479 -0.92096794 -0.3893365 2.2374068e-05
-0.26490152 0.15771052 0.10868327 -0.0064719133 -0.92441046 -0.38134411 0.00054882444
-0.24514894 0.15788311 0.10568657 -0.020093901 -0.9258936 -0.37724966 0.0010330317
-0.23580126 0.15838788 0.10425966 -0.024485053 -0.92767847 -0.37257627 0.0010996725
-0.22489735 0.1576876 0.10515027 -0.01386959 -0.92930526 -0.36905211 0.00088538381
-0.21637955 0.156757 0.1078003 -0.016038604 -0.9257744 -0.37773609 0.00068065984
-0.19505934 0.15751588 0.10659092 0.0082061142 -0.9241522 -0.38193631 5.340869e-05
-0.18758222 0.1583105 0.10483206 0.009473633 -0.9257443 -0.37803146 1.7473412e-05
-0.1640811 0.15679854 0.10910228 0.0033102741 -0.9252485 -0.37934691 6.7843263e-05
-0.1467244 0.15902886 0.10315175 -0.0071082436 -0.92858309 -0.37105656 5.6370493e-05
-0.13057117 0.15835075 0.10450991 -0.0093916971 -0.9301157 -0.3671464 6.6920475e-05
-0.12307143 0.15789433 0.10551546 -0.010314875 -0.93122131 -0.36430824 4.0570587e-05
-0.11321968 0.15705596 0.10733868 -0.012015671 -0.93032455 -0.36654022 7.4450494e-05
-0.10463873 0.15841763 0.10333511 -0.014843577 -0.93378562 -0.35752493 3.1018368e-05
-0.094081327 0.15777317 0.104727 -0.016282819 -0.93365014 -0.35781592 3.9185852e-05
-0.084610358 0.1569607 0.10660106 -0.014576986 -0.93375105 -0.35762629 5.4440778e-05
-0.062323947 0.15759666 0.10386654 -0.010538845 -0.93578243 -0.35242033 0.00018352469
-0.041187525 0.15683788 0.10540351 0.013061193 -0.93449241 -0.3557435 0.00082154793
-0.037311718 0.15761045 0.10527756 0.012659318 -0.93634588 -0.3508504 0.00081904093
-0.028158342 0.15678334 0.10423703 0.020830233 -0.93968916 -0.3413946 0.0010775863
-0.016051861 0.15819968 0.10342427 0.0056708646 -0.94211489 -0.33524227 0.00072636205
0.0063088648 0.15854378 0.10135412 -0.015523852 -0.94067931 -0.33894163 0.00027560379
0.018921383 0.15800212 0.10223512 -0.015201292 -0.94132209 -0.33716702 3.2333228e-05
0.026905382 0.15643243 0.10653881 -0.020912902 -0.93883544 -0.34373072 7.4888114e-05
0.037428927 0.1573786 0.10324576 -0.021607341 -0.93959922 -0.3415941 0.00013618526
0.066489488 0.15800458 0.10041845 -0.0072471746 -0.94460577 -0.32812706 0.0001224007
0.076663822 0.15708177 0.10342476 -0.00085964124 -0.94278663 -0.33339569 0.00011148104
0.088100143 0.15673515 0.10408255 -0.0066527338 -0.94342434 -0.33152124 0.00015000072
0.09743835 0.15602115 0.10569834 -0.018493526 -0.93680876 -0.34935269 0.0005815028
0.10113455 0.15488923 0.10868619 -0.01677347 -0.93500137 -0.35424712 0.00044135872
0.11494777 0.15603317 0.1048701 -0.017905531 -0.93508422 -0.35397294 0.00072910805
0.12979618 0.15435727 0.10812775 -0.10647963 -0.8614046 -0.49663293 0.017142799
0.13076249 0.15428337 0.10816358 -0.10790313 -0.86225718 -0.49484277 0.016112771
0.14598319 0.15438804 0.10544596 -0.15805674 -0.82337606 -0.5450412 0.023299443
0.15563476 0.15562996 0.10451801 -0.21591957 -0.74224985 -0.63438463 0.02649674
0.16575296 0.15148687 0.10388672 -0.33840024 -0.59950471 -0.72531331 0.031305753
0.17119446 0.15459919 0.10014872 -0.32292742 -0.61436075 -0.71991587 0.033590827
-0.32209828 0.1601757 0.10058109 0.015282421 -0.92263865 -0.38536263 2.7285063e-05
-0.29035482 0.16030976 0.10146213 0.015421721 -0.92331475 -0.38373443 2.5759762e-05
-0.26525426 0.16085112 0.10116722 -0.0081849629 -0.92335099 -0.3838698 0.00056038733
-0.23747119 0.16057971 0.10211019 -0.025292523 -0.92780936 -0.37219626 0.00095935335
-0.18422496 0.16017109 0.1002766 0.0077557974 -0.92750418 -0.37373227 3.7265112e-05
-0.024222158 0.16003713 0.10116075 0.017913977 -0.94248939 -0.33375558 0.00089019682
-0.42535874 -0.15287152 0.11208624 0.20350312 0.82188958 -0.53205639 0.019098826
-0.41531691 -0.15342791 0.11178561 0.12469122 0.8623715 -0.49068061 0.0081878658
-0.40247926 -0.15212019 0.11316176 0.059890226 0.88432068 -0.46302283 0.0053762714
-0.39618498 -0.15364605 0.11155275 0.054526266 0.89626569 -0.44015303 0.0038796614
-0.37566507 -0.151382 0.11782178 0.038701396 0.89834392 -0.43758473 0.00064777507
-0.3667067 -0.15145804 0.1182152 0.022898449 0.90721321 -0.42004767 9.7777047e-05
-0.35320804 -0.1511562 0.11979131 0.023257609 0.90428674 -0.42629164 0.00018182809
-0.34467486 -0.15302889 0.11606636 0.024261646 0.90917313 -0.41571102 8.6564003e-05
-0.3332181 -0.15406525 0.11432756 0.022164205 0.91083503 -0.41217503 0.00010436333
-0.32645094 -0.15319598 0.11671863 0.021332627 0.90925521 -0.41569191 0.00013351529
-0.31565839 -0.15434501 0.11459196 0.019611523 0.91191876 -0.40990177 5.0207669e-05
-0.30371842 -0.15460336 0.11453158 0.016104124 0.9149034 -0.40335149 7.8461489e-05
-0.29673877 -0.15490155 0.1141083 0.015630208 0.9163847 -0.39999342 6.7651352e-05
-0.28651574 -0.15399027 0.11669634 0.015985688 0.91358131 -0.40634173 9.1402566e-05
-0.27357662 -0.15465714 0.11563464 0.01525154 0.91518986 -0.40273431 6.860873e-05
-0.26068187 -0.1552687 0.11468267 -0.0099273091 0.91835231 -0.39563909 0.0009467146
-0.25310221 -0.15467381 0.11636446 -0.02638966 0.91895068 -0.39348859 0.0010181849
-0.24760734 -0.15693423 0.11113042 -0.037624847 0.92463791 -0.37898451 0.0011978443
-0.23489706 -0.15401413 0.11581179 -0.027513709 0.92283773 -0.38420501 0.00092927233
-0.22486992 -0.15520518 0.11119795 -0.022380816 0.92637134 -0.37594569 0.0013186114
-0.21727854 -0.15269369 0.11765695 0.001328276 0.9221499 -0.38683036 0.0005902524
-0.20840931 -0.15400022 0.1148737 0.013849982 0.91926479 -0.39339605 0.00018710356
-0.1948168 -0.1528734 0.11816642 0.013364435 0.9170627 -0.39851895 0.00012802947
-0.18170737 -0.15495579 0.11346149 0.00752242 0.92174983 -0.387712 0.0001026579
-0.17325893 -0.15299124 0.11858568 0.0082644159 0.91771597 -0.39715123 0.00011775736
-0.16666661 -0.15384755 0.1165999 0.0030447461 0.92178261 -0.38769516 9.4825642e-05
-0.15074149 -0.15479411 0.11413394 -0.006126537 0.92424208 -0.38175771 9.1575799e-05
-0.14348431 -0.15262945 0.11932418 -0.0084055243 0.91896439 -0.3942509 0.00015146377
-0.13532595 -0.15330888 0.1175551 -0.0050830939 0.91977048 -0.3924239 0.00013818199
-0.10744642 -0.15419178 0.11469943 -0.010272208 0.92731398 -0.37414336 9.7100638e-05
-0.090211228 -0.1517709 0.11999028 -0.011654411 0.92300737 -0.38460571 0.00015114524
-0.083747372 -0.15500939 0.11177643 -0.014419779 0.93007833 -0.36707798 0.00014984116
-0.075233474 -0.15344006 0.11554982 -0.013889752 0.92789382 -0.3725858 0.00016833456
-0.066970415 -0.15381208 0.11439957 -0.004393898 0.93137401 -0.36403728 0.00034622819
-0.051700354 -0.15156439 0.11932158 0.013373521 0.9239198 -0.38235229 0.00078553444
-0.043340817 -0.15311864 0.11726751 0.009833294 0.93045658 -0.36627004 0.0007869621
-0.037952825 -0.15266879 0.11596932 0.011297707 0.93244642 -0.36113158 0.00087266695
-0.024922593 -0.15409774 0.115942 0.00022087917 0.93716139 -0.34889612 0.00091597729
-0.013342264 -0.15375839 0.11621574 -0.0027077603 0.93488306 -0.35494542 0.00061210833
-0.00667948 -0.15288144 0.11740527 -0.013917628 0.93193674 -0.36235374 0.00037512378
0.0049240612 -0.15499222 0.11174715 -0.01596407 0.93408376 -0.35669684 0.00022889802
0.012194769 -0.15237285 0.11777806 -0.012595023 0.93045098 -0.36619985 0.00018808985
0.026895611 -0.15417665 0.11265808 -0.017125841 0.93534392 -0.35332489 0.00016076177
0.038997963 -0.15442386 0.11148702 -0.014354995 0.93668073 -0.34989017 0.00011185319
0.041572444 -0.1513478 0.11891309 -0.014511012 0.93095404 -0.36484784 0.00011399118
0.068768479 -0.15198481 0.11657804 -0.005710592 0.93380475 -0.35773727 0.00012320769
0.074147165 -0.15263605 0.11485431 -0.003946668 0.93461686 -0.3556343 0.00013318258
0.085672662 -0.15136339 0.11834222 -0.0014614619 0.93657392 -0.35046709 0.00022814293
0.094210647 -0.1532888 0.11301377 -0.0019228335 0.93772316 -0.34737819 0.00017184796
0.10681571 -0.15286607 0.11389324 -0.025940392 0.9304449 -0.36551261 0.001372182
0.11636844 -0.1529948 0.11300811 -0.02876652 0.91637099 -0.39929521 0.0059934966
0.12746681 -0.15347235 0.1160791 -0.10109227 0.86153996 -0.49752319 0.022715254
0.13777915 -0.15610646 0.11160536 -0.15790211 0.8193996 -0.5510456 0.029535599
0.14522226 -0.15357861 0.11186108 -0.1894315 0.78187305 -0.59396142 0.031494014
-0.44141781 -0.14660117 0.11107168 0.53859049 0.60504913 -0.58637518 0.04343551
-0.43692768 -0.14366326 0.11726184 0.54947829 0.53286791 -0.64352584 0.037678674
-0.42441216 -0.14736012 0.11439832 0.29772535 0.74100316 -0.60189193 0.028951954
-0.41722193 -0.14536989 0.11858352 0.26809037 0.79573363 -0.54307979 0.021690164
0.14475545 -0.14737219 0.11730637 -0.35004446 0.59741503 -0.72150129 0.028855575
0.16154319 -0.1402961 0.11027445 -0.40550739 0.43434528 -0.80430591 0.017574599
-0.44289947 -0.1339332 0.11259014 0.71377975 0.33241197 -0.61645818 0.029584356
-0.43957663 -0.13346359 0.11736093 0.65879005 0.3789857 -0.6498965 0.03678662
0.15489079 -0.13297078 0.1164511 -0.44211656 0.3130098 -0.84056997 0.0049036085
-0.44430277 -0.12521362 0.112827 0.79615843 0.17348635 -0.57968462 0.0085579576
0.15670249 -0.12469393 0.11783788 -0.48377463 0.21825211 -0.84754241 0.00032971741
0.16483244 -0.1287373 0.11217747 -0.48356989 0.2379497 -0.84234208 0.00032204564
-0.44535035 -0.11488414 0.11325993 0.8155809 0.11027247 -0.56803852 9.6815827e-05
0.15763772 -0.11552294 0.11945628 -0.4897528 0.18950202 -0.85101777 0.00028923288
0.16457045 -0.11556363 0.11545289 -0.48795462 0.19326085 -0.85120541 0.00020163214
-0.4456709 -0.10363457 0.11478992 0.81701773 0.093775958 -0.56893593 0.00028934915
-0.2530677 -0.10307067 0.11010668 0.23394527 0.83799678 -0.49298182 0.18561199
-0.2439014 -0.10168094 0.11026221 -0.48504886 0.70806593 -0.51319605 0.191489
0.16348881 -0.10701995 0.11780024 -0.48962098 0.16603974 -0.85598022 0.00019983242
0.17586455 -0.1081762 0.11043502 -0.49388549 0.17620918 -0.85148543 0.00018323713
-0.44506449 -0.099280104 0.1165109 0.81476396 0.088956483 -0.57292795 0.000251605
-0.25490326 -0.095254689 0.1136197 0.3089031 0.17200986 -0.93540978 0.15029547
-0.24281915 -0.096090108 0.11588055 -0.36421269 0.33275634 -0.8698405 0.16925995
-0.23715319 -0.09245012 0.11391338 0.49025548 -0.17448759 0.85393429 0.11541601
-0.03542459 -0.094616294 0.11134626 0.024963748 0.49841267 -0.86658037 0.1889805
0.16810936 -0.096036464 0.11709327 -0.49430507 0.13893592 -0.85811383 7.0993818e-05
0.17493534 -0.093957901 0.11353964 -0.49643692 0.13632467 -0.85730159 8.4383923e-05
-0.44668064 -0.086770095 0.11583716 0.82608467 0.074712642 -0.55857158 0.00019766406
-0.25386319 -0.083629467 0.11423697 0.16215207 0.043769017 -0.98579454 0.14550355
-0.23630343 -0.082941219 0.11273205 0.51748919 0.098894559 0.84995574 0.14431706
-0.040539436 -0.083064795 0.11343943 0.38290551 0.12304945 -0.91555566 0.10843888
-0.031930499 -0.083011508 0.11248747 -0.15757024 0.1296435 -0.97896081 0.13290212
0.16724804 -0.085300863 0.11911812 -0.49140674 0.12019261 -0.86259675 6.2698091e-05
-0.44699407 -0.072159603 0.1169735 0.82242185 0.06010383 -0.56569415 0.00020791359
-0.25200197 -0.075572923 0.1176791 0.31776866 -0.10032123 -0.94284606 0.13000254
-0.23850326 -0.074966371 0.11623248 0.57593167 0.19947974 0.7927866 0.12953755
-0.033858579 -0.074859641 0.11371741 -0.19890176 -0.20456649 -0.9584313 0.14757545
0.17820814 -0.074157178 0.11430852 -0.49678928 0.10554752 -0.86142915 5.412782e-05
0.18241882 -0.076032072 0.11164945 -0.5018549 0.11152118 -0.85773236 6.3521198e-05
-0.44682375 -0.068166159 0.11769108 0.82200903 0.059964955 -0.56630838 0.00025239543
-0.2550467 -0.065367438 0.11390501 0.39021614 -0.41000846 -0.82439345 0.16765605
-0.24393697 -0.063610367 0.11661264 -0.26193586 -0.40264687 -0.87707764 0.17517649
-0.23575144 -0.061962448 0.11107278 0.6478498 0.35937393 0.67167026 0.17827015
-0.042228296 -0.064802952 0.11208094 0.37445021 -0.31366637 -0.87258267 0.14815286
0.17430937 -0.062227409 0.11794309 -0.49270439 0.084608361 -0.86607379 3.8274844e-05
0.18292378 -0.065996811 0.11262906 -0.50076425 0.097738512 -0.86004788 5.8781075e-05
-0.45152736 -0.057063647 0.11179864 0.82795191 0.051818814 -0.55839986 7.1392283e-06
-0.44809523 -0.051598649 0.11727892 0.82359433 0.046907794 -0.56523621 0.00015607054
-0.2525025 -0.056675933 0.11058684 0.13176407 -0.79871529 -0.58710486 0.16151714
0.17942101 -0.057893395 0.11537509 -0.49794555 0.081270918 -0.8633917 3.9062157e-05
0.18588118 -0.055551201 0.11187711 -0.50290835 0.080559842 -0.86057729 4.8595273e-05
0.18856758 -0.045813985 0.11112829 -0.50359243 0.065410383 -0.86146164 5.6995166e-05
-0.45116082 -0.035879962 0.11388887 0.83048457 0.031178609 -0.5561685 3.5173285e-05
0.18518296 -0.03541927 0.11388616 -0.49956313 0.053069953 -0.86465043 6.1044899e-05
-0.45180833 -0.021617372 0.11353754 0.83083403 0.020805832 -0.55613124 1.5848464e-05
-0.44799879 -0.029825419 0.11900705 0.82568389 0.027561298 -0.56345934 0.00013662585
0.17785184 -0.025696306 0.11859619 -0.4953998 0.039437566 -0.86776936 6.2839041e-05
0.18720955 -0.024827946 0.11327314 -0.50317973 0.039693005 -0.86326975 4.210955e-05
-0.45118579 -0.010560245 0.11474817 0.83115548 0.0085728317 -0.55597407 6.4469627e-05
0.18385239 -0.017547801 0.11541581 -0.50045562 0.028710097 -0.86528605 7.2644565e-05
-0.453641 -0.0051686577 0.11121523 0.84000188 0.0039028239 -0.5425694 9.0468624e-05
-0.4495154 -0.0050927382 0.11738297 0.82603908 0.0027416877 -0.56360626 9.2065529e-05
0.17882054 -0.0030272442 0.11873846 -0.49763039 0.0020306504 -0.86738676 8.6398679e-05
0.18602127 -0.0072170966 0.11449294 -0.50210828 0.01348326 -0.8646996 7.1696581e-05
0.19240633 -0.0094458377 0.11077428 -0.50781161 0.012560925 -0.86137664 7.4269497e-05
-0.4520267 0.0036560968 0.11366615 0.83266062 -0.004677136 -0.55376387 0.00011219625
0.17863107 0.0042444156 0.11880955 -0.49693725 -0.0017908799 -0.86778468 9.4385883e-05
0.18070497 0.0082380362 0.1175013 -0.49738193 -0.01355972 -0.86742568 9.8689241e-05
0.19135609 0.0035852517 0.11155467 -0.50675964 -0.0036347595 -0.8620798 8.4646592e-05
-0.45243803 0.012908889 0.11281723 0.83427167 -0.01419652 -0.55117077 0.00011609287
0.17728651 0.013511113 0.11929386 -0.49863639 -0.019107629 -0.86660063 5.0657291e-05
0.18485765 0.015630016 0.11490028 -0.50173968 -0.02745066 -0.86458302 7.5224219e-05
-0.45233166 0.021916091 0.11274829 0.83298403 -0.023162045 -0.55281204 0.00014042371
-0.44922659 0.021549003 0.11739045 0.83002454 -0.021203216 -0.55732363 7.1683942e-05
0.18650085 0.024068091 0.11370181 -0.50489008 -0.037368599 -0.86237437 5.6178444e-05
0.18115008 0.038110122 0.11593942 -0.49739805 -0.055104744 -0.86577058 5.1172137e-05
-0.45151436 0.042818259 0.11285804 0.83343279 -0.035616782 -0.55147189 0.00016683176
-0.44985658 0.046917547 0.11501922 0.82914197 -0.04106738 -0.5575276 9.2350194e-05
0.1861949 0.043110795 0.11267665 -0.50297809 -0.059283171 -0.86226362 4.4067201e-05
-0.44827321 0.051534936 0.11702042 0.82988191 -0.041119069 -0.55642182 0.00015844028
-0.25311875 0.058658019 0.11425947 0.5404653 0.50800151 -0.67069489 0.13386397
-0.24586654 0.05890508 0.11500777 -0.010915481 0.69753885 -0.71646386 0.11970501
0.17812993 0.057639491 0.11610365 -0.49254343 -0.087722369 -0.86585552 4.6261805e-05
0.18183902 0.053772874 0.11429343 -0.498108 -0.084241241 -0.86301327 5.8281275e-05
-0.44765508 0.065713614 0.11676034 0.8230024 -0.05421466 -0.56544477 0.0003235488
-0.25217158 0.068369105 0.11730486 0.54223257 0.20294808 -0.81535017 0.11925232
-0.24336331 0.061585985 0.11724415 -0.12646966 0.64077508 -0.7572403 0.13546069
-0.23564442 0.06747102 0.11338978 0.51120555 -0.50499618 0.69544792 0.095515639
-0.034783058 0.060428254 0.11073717 0.11864205 0.4258717 -0.89697129 0.1142083
0.17631316 0.064437181 0.11649787 -0.49421075 -0.093702257 -0.86427748 6.4507702e-05
0.18480235 0.061405856 0.11200733 -0.50205308 -0.091111779 -0.86002403 7.1666509e-05
-0.44691229 0.077120416 0.11654656 0.82419479 -0.059633266 -0.56315792 0.00023520806
-0.25156614 0.075350247 0.11861186 0.52977139 0.16541463 -0.83185345 0.12395918
-0.23968045 0.075673997 0.11732762 0.036728621 0.05115322 -0.99801522 0.17261046
-0.04327476 0.076946989 0.11125681 0.049969237 0.12375953 -0.99105334 0.098263763
0.16920842 0.0763411 0.1190105 -0.49319699 -0.1066886 -0.86335057 5.2621159e-05
0.17365098 0.074189253 0.11678413 -0.49357376 -0.10358641 -0.86351305 4.628814e-05
0.18192165 0.078868404 0.11151015 -0.50175035 -0.11197829 -0.85773391 5.8390309e-05
-0.44670606 0.089014359 0.11555377 0.82468855 -0.072975889 -0.5608595 0.00027832214
-0.25255367 0.083731033 0.11696571 0.46201944 -0.17986077 -0.86844003 0.12103619
-0.24889046 0.082093239 0.1195704 0.37289873 -0.20070887 -0.90590423 0.13447557
-0.043853395 0.085371658 0.11084922 0.42023245 -0.035867754 -0.90670735 0.13552578
0.16900927 0.086557053 0.11783344 -0.48949865 -0.12818044 -0.86253166 0.00010603621
0.18355781 0.081884928 0.11019497 -0.503218 -0.11445865 -0.85654593 8.4214174e-05
-0.44759861 0.091462061 0.11394003 0.82671499 -0.072962411 -0.55786985 0.00029980423
-0.25743839 0.096441098 0.11076602 0.51670486 -0.49847808 -0.69608593 0.096198969
-0.23743662 0.093217373 0.11457695 -0.1212692 -0.48677328 -0.86506975 0.12232094
-0.04110143 0.097125649 0.11149693 0.1586635 -0.56357396 -0.81068504 0.18531662
-0.033908933 0.092235975 0.11228174 -0.22996305 -0.33367187 -0.91421008 0.16930293
0.17439719 0.094167963 0.11383232 -0.49220911 -0.13778774 -0.85950267 0.00012225815
-0.44470492 0.10054651 0.11679964 0.8141194 -0.089457549 -0.57376564 0.00035066868
0.16490144 0.1047747 0.1172161 -0.49152014 -0.15257531 -0.85739654 0.00012570113
-0.44189695 0.11313664 0.11854099 0.81272066 -0.1071796 -0.57271081 0.00029161418
0.15713072 0.11594989 0.11951568 -0.48558253 -0.20084208 -0.85080671 0.0003987505
0.16622749 0.11584448 0.11428422 -0.48880211 -0.19426627 -0.85048997 0.0004073345
-0.44656032 0.12364542 0.11003131 0.81480783 -0.13235526 -0.56442022 0.0008658038
0.15511033 0.12286554 0.11922285 -0.48324633 -0.2101372 -0.84989136 0.00044136052
0.16809651 0.12497434 0.11146264 -0.48721302 -0.23325679 -0.84155494 0.00033322806
-0.44253749 0.134785 0.11284307 0.65589386 -0.34883288 -0.66941679 0.02947665
-0.43875736 0.13999669 0.11693411 0.61455953 -0.4420324 -0.6533941 0.034533404
0.14975572 0.13882595 0.11732833 -0.43335035 -0.45326123 -0.77894914 0.018784449
0.15583342 0.13437122 0.11528364 -0.43685311 -0.34981331 -0.8287279 0.0098510906
-0.44139141 0.14597663 0.11152178 0.58272517 -0.5899871 -0.55887979 0.038647424
-0.43719712 0.14406148 0.11713304 0.55348992 -0.60183102 -0.57571554 0.034993213
-0.42225009 0.14935884 0.11884115 0.25624913 -0.78456229 -0.56462222 0.021394594
-0.41779289 0.14827739 0.11758665 0.21449456 -0.81385309 -0.54003268 0.022407455
0.13256481 0.14980207 0.11484364 -0.2403557 -0.76681966 -0.59516102 0.031669807
0.14852515 0.14355463 0.11661483 -0.41572493 -0.50359529 -0.75734043 0.025913535
0.15329741 0.14526126 0.11352792 -0.36439258 -0.5517363 -0.75020337 0.026960235
-0.42325521 0.1518358 0.113648 0.2232381 -0.83465266 -0.50350738 0.014704035
-0.41783601 0.15331569 0.11273904 0.15160376 -0.85509485 -0.49581152 0.0093316138
-0.40490189 0.15248705 0.11293691 0.071055345 -0.87364149 -0.48135403 0.007112104
-0.39659977 0.15197693 0.11520296 0.058480944 -0.87901402 -0.47319591 0.0064128451
-0.38121501 0.15186459 0.11636824 0.02906868 -0.90328991 -0.42804471 8.4452033e-05
-0.36466968 0.15385903 0.11291214 0.02687843 -0.90844208 -0.4171457 7.3129144e-05
-0.34444895 0.15405968 0.11373275 0.024948623 -0.90887123 -0.41633001 6.5114356e-05
-0.33525157 0.15273152 0.11730862 0.021975422 -0.90767169 -0.41910532 0.00012019616
-0.32592505 0.15312362 0.116916 0.022103949 -0.90948898 -0.41514006 0.00012535788
-0.31506306 0.15467608 0.11383747 0.01763007 -0.91367495 -0.40606317 8.7839755e-05
-0.30624649 0.15399165 0.11585701 0.016542137 -0.91497773 -0.40316513 9.5873533e-05
-0.29542378 0.15498909 0.11394452 0.016836062 -0.91556984 -0.40180644 9.6527445e-05
-0.28226209 0.15441455 0.11586229 0.014066258 -0.91283852 -0.40807849 0.00011243528
-0.27539295 0.1548911 0.11500366 0.015377492 -0.91388816 -0.40567467 9.9523146e-05
-0.25408775 0.15366134 0.11872602 -0.0058917478 -0.9209854 -0.38955238 0.00074586575
-0.24256219 0.15482137 0.11328287 -0.018985311 -0.92579073 -0.37755936 0.00096268533
-0.23501116 0.15535003 0.11406633 -0.018184898 -0.92728388 -0.37391695 0.0011178521
-0.22442578 0.15266751 0.11735966 -0.027604446 -0.92060804 -0.38951096 0.00074531412
-0.21524358 0.15354724 0.11566951 -0.020697078 -0.92159551 -0.38759935 0.00064673403
-0.19988503 0.15396966 0.11533179 0.010986373 -0.91978526 -0.39226824 5.5232402e-05
-0.18516697 0.15547159 0.11204562 0.011720811 -0.92145777 -0.38830182 7.3163224e-05
-0.16153798 0.15508719 0.11342963 0.0016505313 -0.92166525 -0.3879824 9.4975854e-05
-0.15618087 0.15532495 0.11281305 -0.002051624 -0.92304397 -0.384689 0.00012282543
-0.14528123 0.15398565 0.11599667 -0.0043860748 -0.92143977 -0.38849646 0.0001373436
-0.13338536 0.15588793 0.11096564 -0.0079135653 -0.92752701 -0.37367231 0.00010563402
-0.12331297 0.15414181 0.11525559 -0.0080362903 -0.92463273 -0.38077515 0.00010938592
-0.10772929 0.15248239 0.11885675 -0.0090008667 -0.92366385 -0.38309795 0.00010258206
-0.098692536 0.1548616 0.11263122 -0.011913693 -0.92858291 -0.3709338 9.0885405e-05
-0.081818908 0.15218034 0.11880956 -0.010838751 -0.92473477 -0.38045785 0.00013967954
-0.073392242 0.15307924 0.11629425 -0.013666505 -0.92840362 -0.3713218 0.00010863598
-0.062607341 0.15471096 0.11178992 -0.016279617 -0.92887741 -0.37002939 0.00035404236
-0.042878956 0.15434562 0.11266354 0.011768658 -0.92992401 -0.36756346 0.00080870691
-0.032312758 0.15401323 0.11230591 0.0304258 -0.9311254 -0.36342788 0.00082381116
-0.026748305 0.15297531 0.11593137 0.025167463 -0.92866379 -0.37006798 0.00071643695
-0.014048807 0.15414308 0.11326176 0.0024181989 -0.93334067 -0.35898376 0.00047641786
-0.0039573717 0.15404534 0.11453425 -0.010120052 -0.93181163 -0.36280113 0.00046521096
0.0077955257 0.15231349 0.11813753 -0.012865704 -0.93210846 -0.36195061 0.00012671275
0.014735274 0.15479927 0.11168998 -0.013920954 -0.93481904 -0.35485148 9.9180645e-05
0.037456855 0.15317956 0.11461498 -0.018847024 -0.9363696 -0.35050943 9.8312768e-05
0.064387999 0.15198427 0.1166869 -0.0053019286 -0.93170542 -0.36317599 0.00017083608
0.078849502 0.1514388 0.11801509 -0.012186178 -0.92144769 -0.38831133 0.00081524887
0.082260981 0.15327618 0.11321744 -0.0092148958 -0.93031114 -0.36665553 0.00072715536
0.096969679 0.15094817 0.11933811 -0.03275495 -0.92175591 -0.3863847 0.0019843639
0.10495987 0.15323204 0.11300354 -0.040264521 -0.91934943 -0.39137632 0.0022080077
0.11596993 0.15283941 0.11323318 -0.05190273 -0.89734554 -0.43826592 0.0096925413
0.12752211 0.15086143 0.11726967 -0.19358285 -0.80705816 -0.55783761 0.024684232
0.13926451 0.15249844 0.11425263 -0.22297451 -0.75426406 -0.61755002 0.029941225
0.14090766 0.15246251 0.11487133 -0.22513494 -0.72967672 -0.6456672 0.030028474
-0.31599128 -0.15078598 0.12255183 0.022476982 0.90527886 -0.42422271 0.00012012609
-0.29556739 -0.15097161 0.1230226 0.018082261 0.90535992 -0.42425972 0.00014007151
-0.28340486 -0.15034401 0.12476763 0.017808121 0.90629524 -0.42226976 0.00015351921
-0.27980566 -0.15120523 0.12310673 0.017816605 0.90665704 -0.42149201 0.00013570317
-0.26232162 -0.15209544 0.12185505 -0.0040636468 0.91549772 -0.40230274 0.00060932839
-0.25405362 -0.15174603 0.12288116 -0.015137225 0.91836196 -0.39545184 0.0011344908
-0.2476716 -0.15028551 0.12614942 -0.032947566 0.9192453 -0.39230418 0.0013363996
-0.22527532 -0.15075047 0.12131579 -0.022084747 0.92175502 -0.38714334 0.0010893919
-0.20626405 -0.15019652 0.12355222 0.005923328 0.91242784 -0.40919477 0.00024784534
-0.18509564 -0.15043251 0.12376894 0.012314297 0.91450816 -0.40437999 0.00015477554
