# .PCD v0.7 - Point Cloud Data file format
VERSION 0.7
FIELDS x y z normal_x normal_y normal_z curvature
SIZE 4 4 4 4 4 4 4
TYPE F F F F F F F
COUNT 1 1 1 1 1 1 1
WIDTH 580
HEIGHT 1
VIEWPOINT 0 0 0 1 0 0 0
POINTS 580
DATA ascii
-0.13817444 -0.34763515 -0.085638121 -0.020558737 0.98135638 0.1910945 0.22123969
-0.11217853 -0.34269762 -0.084177524 0.95667171 -0.28935498 0.032448616 0.13802314
0.11217853 -0.34637296 -0.084142327 -0.91240162 -0.31394175 0.26260981 0.15723135
0.13683714 -0.34897482 -0.084837168 0.1924542 0.88569206 0.42250559 0.23792851
0.14472887 -0.3467032 -0.085956231 -0.70227647 0.70257175 0.11489455 0.19444594
0.15697405 -0.34663272 -0.086729258 -0.48977157 0.8091923 0.3245483 0.24675117
0.16859415 -0.34650499 -0.087658912 -0.92361379 -0.10906333 0.36748165 0.27308634
0.17909908 -0.34514475 -0.081114426 -0.96566421 -0.2593407 0.01532907 0.18020508
0.18342505 -0.34756881 -0.083951816 -0.99587178 0.016200235 0.089314334 0.15551481
-0.18003005 -0.33221081 -0.084756017 0.99431837 -0.099256784 -0.038457572 0.16853338
-0.17893058 -0.33404866 -0.085900247 0.98188728 -0.17201209 -0.079430804 0.18449523
-0.16249469 -0.33512279 -0.083408102 0.76020843 0.63409704 0.14143597 0.20283571
-0.11217853 -0.33866942 -0.08373034 0.9467445 -0.31009015 0.086712085 0.12631863
0.11217853 -0.3324759 -0.082820997 -0.9948653 -0.050326355 0.087808251 0.050839711
0.16343528 -0.33332035 -0.085578918 -0.75472432 0.65602976 0.0040183244 0.2142072
0.18212828 -0.33066037 -0.082988925 -0.9670248 -0.25418404 -0.015921483 0.13992314
-0.18000273 -0.32474375 -0.082647935 0.99253356 -0.1051292 0.061846454 0.12553971
-0.17842245 -0.32432309 -0.08335194 0.99696618 -0.03956195 0.067031518 0.11959568
-0.16301893 -0.32338008 -0.085807979 0.9832347 0.16671784 0.073855788 0.16075218
-0.11217853 -0.32635584 -0.08709909 0.98389637 -0.0010833942 0.17873636 0.038010884
0.11217853 -0.32530731 -0.083344802 -0.99778306 -0.0023792081 0.066507809 0.0073094214
0.16285235 -0.32576299 -0.085666426 -0.9626413 0.2530033 0.096493654 0.16022621
0.18003994 -0.32153749 -0.080325529 -0.99278933 -0.10234207 -0.062413707 0.11544164
-0.17563851 -0.31529355 -0.085261762 0.99289161 -0.076985307 -0.090771988 0.12403731
-0.1634233 -0.3139722 -0.08654622 0.98681849 -0.14208077 -0.077474847 0.12613729
-0.11217852 -0.31692213 -0.08479362 0.99593943 -0.0063571311 0.089800894 0.007902666
0.11217853 -0.31678474 -0.081569128 -0.9992401 0.00098693778 0.038964249 0.003385125
0.16552663 -0.31434125 -0.082270369 -0.9905228 -0.023134526 -0.13538623 0.12370506
0.17480704 -0.31497464 -0.08563108 -0.98976016 -0.053898375 -0.13217315 0.12161172
-0.17710765 -0.30350089 -0.084867179 0.99649483 -0.052261084 -0.065321684 0.10116214
-0.16398375 -0.30547991 -0.083473973 0.9993068 -0.010632994 -0.035677869 0.11506691
-0.11217853 -0.30371109 -0.083467312 0.99730158 0.0064639673 0.073128574 0.0067718816
0.11217853 -0.30408847 -0.085101351 -0.99822432 -0.0022335853 0.05952445 0.0067121345
0.16570422 -0.30383667 -0.081938878 -0.99688065 0.055372015 -0.056241166 0.093300991
0.17684801 -0.30470803 -0.085956313 -0.99857086 -0.050948463 -0.01614112 0.10446971
-0.17736709 -0.29379067 -0.084385417 0.99614608 0.06691362 -0.056704897 0.098178506
-0.16331728 -0.29379836 -0.084805742 0.99986815 0.016101465 0.0021135511 0.098923236
-0.11217853 -0.29309183 -0.086719625 0.98950058 0.013346231 0.14391157 0.020021264
0.11217853 -0.29741719 -0.084684134 -0.99203759 -0.012951086 0.12527454 0.022063553
0.16361919 -0.29579851 -0.085287109 -0.99956661 0.0057301661 0.028875588 0.099432394
0.17750663 -0.29720837 -0.084633753 -0.99931496 -0.025883907 -0.02644979 0.097536266
-0.17670578 -0.28498375 -0.083289884 0.99903762 0.039370421 0.01933416 0.11849771
-0.16369316 -0.28474036 -0.084531017 0.9995451 -0.00012695983 -0.03015749 0.115759
-0.11217853 -0.28636649 -0.083690502 0.99662459 0.022117453 0.079058357 0.0067487126
0.11217853 -0.28561664 -0.084767915 -0.99673307 -0.0036270607 0.080684863 0.0085769678
0.16705237 -0.28569725 -0.085481726 -0.99972212 -0.020338153 -0.01192205 0.10923128
0.17689086 -0.28452551 -0.085189439 -0.99767107 -0.016549468 0.066170916 0.11697726
-0.17524825 -0.27714694 -0.0852791 0.99337626 0.10673294 0.042565342 0.12271111
-0.16298689 -0.27533013 -0.084935024 0.99630618 -0.083909199 -0.018252868 0.12286795
-0.11217853 -0.27563724 -0.084567569 0.99777335 -0.00020637226 0.066695176 0.0058388412
0.11217853 -0.27812073 -0.086450182 -0.98772329 -0.025641935 0.15409459 0.019148039
0.16456248 -0.2765058 -0.084176384 -0.99428546 0.106366 -0.009094228 0.11839267
0.17644206 -0.27625984 -0.083771534 -0.99175864 0.12472782 0.029287564 0.11951488
0.18018295 -0.27178842 -0.080449365 -0.97857469 0.19648425 0.061525408 0.12206098
-0.18116027 -0.26547122 -0.085538186 0.99162316 0.12898721 0.0067707207 0.12908556
-0.17968437 -0.26209915 -0.088008627 0.98808074 0.14070685 -0.062433034 0.16432771
-0.16285235 -0.26435965 -0.083822548 0.93746668 -0.31472796 -0.14866909 0.18205898
-0.11217853 -0.26877993 -0.083206162 0.99895543 -0.0010808078 0.045683097 0.0038303577
0.11217854 -0.263374 -0.084708773 -0.9945569 0.0084785642 0.10384918 0.018231766
0.16265805 -0.26464525 -0.085097589 -0.91390681 -0.40584153 -0.0081889555 0.1970482
0.17860459 -0.26298797 -0.088427849 -0.97729528 0.20783086 -0.041236218 0.14950708
0.18229465 -0.26448607 -0.083359085 -0.98004121 0.18537588 0.071798578 0.15089607
-0.18226016 -0.25702655 -0.086923264 0.94483036 0.29460213 -0.14319628 0.15343924
-0.17556818 -0.25148305 -0.085885137 0.95860606 0.26274762 -0.10971821 0.17497405
-0.16323549 -0.25820309 -0.083417639 -0.75474221 0.65407616 -0.050485276 0.22901313
-0.11217853 -0.25689697 -0.087283976 0.94704282 0.22888204 0.2252176 0.11509237
0.11217853 -0.25029603 -0.080285631 -0.98312473 0.18213469 -0.017108336 0.13610467
0.16270986 -0.25903726 -0.08768896 0.79261625 0.57667446 -0.19800504 0.26393861
0.17512682 -0.25074202 -0.083934218 -0.97697008 0.16545618 -0.13473563 0.18080005
0.1833995 -0.25507823 -0.084494025 -0.98446643 0.13500936 -0.11224204 0.1436161
-0.18391593 -0.24407786 -0.085919201 0.95987391 0.24693803 -0.13290443 0.15843685
-0.17428872 -0.24854302 -0.083302103 0.97109807 0.2360529 -0.035320692 0.21553551
-0.16415338 -0.24704349 -0.086367562 0.83527052 -0.48155066 0.26539057 0.29702884
-0.15463763 -0.24691407 -0.085139818 -0.58525926 0.79051965 -0.1804169 0.22065577
-0.14512774 -0.2471226 -0.087373331 -0.69235647 0.72077304 -0.033593696 0.15862443
-0.13565665 -0.24361749 -0.086160563 0.22023453 0.97467369 -0.038832873 0.2453692
-0.11217853 -0.24834812 -0.085838996 0.95494986 0.2220217 0.19691901 0.15051955
0.11217853 -0.24653246 -0.086167738 -0.91435802 0.32107192 0.24670267 0.19805643
0.13702777 -0.24453974 -0.085454904 0.027781786 0.85213423 0.52258521 0.23183607
0.14485116 -0.24728036 -0.088779368 0.7985124 0.586707 -0.13473226 0.18332547
0.15054634 -0.24715805 -0.086852759 0.68105102 0.71442032 -0.16053991 0.19238208
0.16615322 -0.24699834 -0.086340643 -0.7229566 -0.046419252 0.68933225 0.28643665
0.18486379 -0.24431248 -0.083987325 -0.99932271 0.033117518 0.016045673 0.19013873
-0.18770152 -0.23456156 -0.086736031 0.9870491 -0.12929706 0.094955109 0.12090155
-0.13257799 -0.23551171 -0.084412567 0.021543743 0.92101049 -0.3889415 0.22625841
-0.11217852 -0.23416701 -0.088555142 0.82362503 0.4612785 0.32994542 0.20914702
0.11217854 -0.23635915 -0.082835995 -0.91120189 0.39966789 0.099883251 0.17778976
0.13260564 -0.23586313 -0.087271802 -0.14602236 0.85568553 -0.49646726 0.24803017
0.187941 -0.23351474 -0.085144296 -0.99231833 -0.10252516 0.06923119 0.10639819
-0.18465519 -0.22934203 -0.087827928 0.98195577 -0.1536632 0.11022955 0.12132671
-0.17597874 -0.22732122 -0.083942868 0.98527652 -0.0027376132 0.17094639 0.20028777
-0.15577495 -0.22709148 -0.085728697 0.26000172 0.92517966 0.27648091 0.23262659
-0.14374065 -0.22732793 -0.083268307 -0.1413262 0.98507231 0.098282702 0.26302883
-0.13807353 -0.22789741 -0.082926445 -0.094133012 0.99548018 0.012582989 0.21555528
-0.11217853 -0.2242856 -0.082033969 0.67219108 0.72487998 0.15069258 0.16742173
0.11217853 -0.22300941 -0.087640256 -0.66764712 0.59152949 0.45203999 0.18251936
0.13585155 -0.22891121 -0.084211133 0.067323029 0.99151677 -0.1111844 0.20246623
0.1441763 -0.22747558 -0.085457899 0.022217935 0.99939615 -0.026716266 0.24695335
0.15304582 -0.22693937 -0.083990812 -0.1853506 0.98048753 0.065491967 0.22565414
0.16421068 -0.22696054 -0.084232755 -0.14798969 0.98813093 0.041185625 0.26308522
0.17461449 -0.22740898 -0.085960992 -0.90938807 -0.35682625 0.21374837 0.24713345
0.18297789 -0.2282806 -0.08679264 -0.94142753 -0.27500656 0.19515558 0.16888827
-0.18040396 -0.21226962 -0.080958091 0.92337173 0.21828285 0.31581202 0.16108599
-0.17465238 -0.21720274 -0.084721297 0.91852224 0.16974738 0.35707527 0.23683216
-0.16579282 -0.2173712 -0.084329799 0.45638433 0.83961797 0.2945421 0.18778673
-0.15728617 -0.21762127 -0.081542924 0.28050387 0.95522439 0.094148517 0.11400336
-0.14535818 -0.21764036 -0.085235283 0.14064635 0.97943431 0.14466184 0.15532357
-0.1353724 -0.21781616 -0.084642813 -0.012467391 0.97001565 0.24272248 0.13344398
-0.12454557 -0.2180068 -0.084233917 0.13616142 0.97883576 0.15277621 0.15893358
0.11422525 -0.2183813 -0.086176805 -0.39572451 0.85341221 0.33924878 0.16670187
0.12574193 -0.21777251 -0.087816954 -0.1370057 0.96606934 0.21895079 0.1762275
0.13493736 -0.2177583 -0.085957162 -0.013920014 0.97682858 0.21356988 0.15697739
0.14624509 -0.21762592 -0.084903687 -0.14482601 0.98094195 0.12953082 0.17073289
0.15521546 -0.2175267 -0.084216788 -0.21195516 0.97227842 0.098740347 0.094124354
0.16492391 -0.21744032 -0.083053209 -0.38927495 0.91084927 0.13718085 0.19503126
0.17682984 -0.21505037 -0.087661617 -0.87904638 0.38996342 0.27423719 0.22810969
-0.17934051 -0.20271958 -0.086996503 0.93843406 0.18279622 0.29313317 0.067609474
0.17977171 -0.20774081 -0.084577158 -0.94051754 0.18996312 0.28167498 0.11613164
0.18009482 -0.20795354 -0.082942396 -0.94846547 0.14903027 0.27964866 0.13755476
-0.17888048 -0.19957978 -0.089547314 0.92423439 0.21536332 0.31529272 0.050038096
0.18052018 -0.19379222 -0.082748435 -0.98064464 0.092147797 0.1727566 0.017463209
-0.18057835 -0.18206552 -0.084095076 0.97370762 0.025611775 0.22635712 0.0080150235
-0.1795119 -0.18438187 -0.089066431 0.95120054 0.029307228 0.30717847 0.013986161
0.17960174 -0.18308628 -0.088743828 -0.95219737 0.030907797 0.30391604 0.0194712
0.18065491 -0.18207462 -0.083656892 -0.98115289 0.015467213 0.1926132 0.0034866012
-0.18005906 -0.17243212 -0.087334454 0.95591968 0.0022993658 0.29361919 0.013753371
-0.17958757 -0.17569764 -0.089232117 0.95091629 0.0041929157 0.30941981 0.013251278
0.18108106 -0.17628023 -0.08171916 -0.98433262 0.013097122 0.17583443 0.0039975629
-0.18092279 -0.16350208 -0.083674967 0.97332567 0.016261384 0.22885089 0.010133533
0.18094769 -0.16584915 -0.083277844 -0.97890294 0.013547484 0.20387624 0.0038436141
-0.17980298 -0.15621755 -0.089401327 0.94248235 0.0017144252 0.33425146 0.016864987
0.18149142 -0.15317945 -0.081357315 -0.98361409 0.0080019496 0.18010929 0.0030198884
-0.18088348 -0.1463892 -0.084944464 0.9554826 -0.0073237196 0.29495654 0.015415789
0.18114457 -0.14612743 -0.083812401 -0.98342621 0.020406581 0.18015708 0.002770534
-0.18148917 -0.13560444 -0.082610175 0.98040897 0.0083816554 0.19679432 0.0043652947
0.18114081 -0.13595463 -0.084351696 -0.96893084 0.014687371 0.24689537 0.011528319
-0.18081427 -0.12656967 -0.086635277 0.95584863 0.020716773 0.29312825 0.013158617
0.18186164 -0.12271015 -0.081857294 -0.98371375 0.017652467 0.17887349 0.0029511612
-0.18165036 -0.11630362 -0.083315939 0.97222227 0.045997161 0.2294957 0.011021567
0.18227604 -0.11057161 -0.08053121 -0.98440689 0.011719677 0.17551547 0.002522395
-0.18166226 -0.10756819 -0.083916776 0.96614248 0.023735262 0.25691509 0.014290662
0.18139714 -0.10552716 -0.085165478 -0.96693134 0.020603869 0.25420323 0.012484728
-0.18191457 -0.095683612 -0.083456486 0.97423524 0.018488957 0.22477505 0.01005403
-0.18199793 -0.082257338 -0.08393003 0.97144067 0.014563159 0.23683539 0.010511838
0.18149951 -0.084708348 -0.085969873 -0.96184093 0.00018199654 0.27360919 0.015438161
-0.18182679 -0.076683588 -0.084863894 0.95929569 0.0013575922 0.28240028 0.014533294
0.18200234 -0.074312076 -0.084282368 -0.95974517 0.022458302 0.27997288 0.02031724
-0.18235306 -0.064669542 -0.083205074 0.97265202 0.026032664 0.23080361 0.0099515319
0.18147582 -0.067636766 -0.08698304 -0.94000041 0.028014056 0.34002116 0.023814443
-0.18185063 -0.057938315 -0.085886084 0.95202845 -0.0082570538 0.30589822 0.024549304
0.18158942 -0.057456627 -0.087030865 -0.92904818 0.020419067 0.36939475 0.02931333
-0.1832671 -0.045751512 -0.080037519 0.98331517 0.0086594727 0.18170384 0.003520831
0.18219157 -0.047439504 -0.084959127 -0.94845337 0.025431171 0.31589487 0.026334982
-0.18326718 -0.036258668 -0.080692843 0.98270512 0.00038063462 0.1851773 0.0031159944
0.18199512 -0.035342187 -0.086429916 -0.95198196 -0.010033335 0.30598974 0.021088568
-0.18213753 -0.025151944 -0.086385094 0.95637172 0.021567458 0.29135552 0.01956266
0.18241934 -0.02365048 -0.085273623 -0.94964123 0.018115703 0.31281495 0.028452562
-0.18283716 -0.014345432 -0.083777666 0.97091937 0.035119604 0.23681666 0.010283137
0.18288489 -0.017416373 -0.083686016 -0.965361 0.0033475899 0.26089653 0.013884091
-0.18209833 -0.0075963074 -0.087385252 0.94347864 -0.010587216 0.33126402 0.024036443
0.18188998 -0.0016787308 -0.089168116 -0.91531271 -0.0011878607 0.40274215 0.030360019
-0.18299444 0.0071477615 -0.084576808 0.96379501 0.025639324 0.26540884 0.01870908
0.18290298 0.0065188375 -0.084660128 -0.9591077 0.013893382 0.28270051 0.019453222
-0.18296571 0.01479918 -0.084939942 0.96000761 0.035256878 0.27774513 0.023435697
0.18336514 0.015003275 -0.082858071 -0.96150303 -0.0013057025 0.27479136 0.023439523
-0.18335195 0.025578272 -0.08366777 0.95660406 0.027349377 0.29010457 0.024827741
0.18333602 0.025005795 -0.083895937 -0.94649732 -0.01679353 0.32227445 0.021077882
-0.18332189 0.036691334 -0.084798999 0.95106894 -0.018331211 0.30843449 0.026062483
0.18282673 0.032718416 -0.087319151 -0.94678086 0.0021814068 0.32187134 0.020746935
-0.18321852 0.042905882 -0.085849732 0.94359922 0.0062964624 0.33102983 0.025897522
0.18388671 0.048665039 -0.082168564 -0.97025234 -0.021460872 0.24114282 0.020031037
-0.18331741 0.054963887 -0.086503088 0.94441539 0.0065060141 0.32869035 0.02441727
0.18277198 0.059570983 -0.089972191 -0.93800259 0.0096529014 0.3464939 0.030344095
-0.18353529 0.064056851 -0.08584071 0.9452104 -0.0055880495 0.32641402 0.026901368
0.18397796 0.065280527 -0.083372995 -0.95475024 0.032679573 0.29560798 0.028575033
-0.18366373 0.074962482 -0.086848073 0.94588763 0.026621072 0.32340059 0.033359271
0.18368468 0.079129972 -0.087458745 -0.93728447 -0.02901523 0.34735566 0.031942453
-0.18400961 0.08210472 -0.084729597 0.94787234 -0.010605062 0.31847388 0.030489268
0.18398598 0.084477946 -0.08523979 -0.95333999 -0.025743753 0.30079904 0.032803096
-0.18418947 0.093448617 -0.084588923 0.92951947 -0.0079561882 0.36868712 0.026732661
0.18426886 0.094725609 -0.084568262 -0.96049458 0.013430854 0.27797428 0.027260965
-0.184219 0.10456745 -0.086455144 0.92225105 0.0072176429 0.38652414 0.028510472
0.18441352 0.10609119 -0.08476226 -0.95594436 0.0086493138 0.29342049 0.029882884
-0.18424855 0.11553901 -0.086982064 0.93260443 0.018697282 0.36041552 0.029331913
0.18461129 0.11560109 -0.084439009 -0.9557299 0.011576059 0.29401755 0.029017938
-0.1843731 0.12815291 -0.088273942 0.91563201 -0.024039062 0.40129808 0.032056179
0.1845749 0.12700029 -0.085991055 -0.93439424 0.015156354 0.35591811 0.028759377
-0.18490939 0.13648209 -0.084892631 0.95268875 0.017143436 0.30346388 0.030501064
0.18504754 0.13351245 -0.084558703 -0.93800199 -0.029243048 0.34539416 0.025981514
-0.18475355 0.14388426 -0.086907543 0.93214166 -0.030797837 0.36078182 0.028907711
0.18545228 0.14338712 -0.082770579 -0.9710049 -0.0067479643 0.23896435 0.016616752
-0.18562102 0.15653774 -0.083660416 0.9477632 -0.00059339026 0.31897423 0.030629555
0.18482547 0.15526274 -0.087985195 -0.9209702 -0.0072227353 0.38956615 0.035913836
-0.18540835 0.17583537 -0.085742652 0.94119269 -0.008836858 0.33775473 0.029128108
-0.1856456 0.18672912 -0.083905444 0.94564122 -0.22918417 0.23073202 0.062760316
0.18577707 0.18432602 -0.083086446 -0.93131566 -0.18315226 0.31481171 0.045766454
-0.18523464 0.19889247 -0.086633883 0.94842446 -0.10374609 0.29954609 0.13775171
0.1854732 0.19472438 -0.084785745 -0.89938349 -0.28617066 0.33047777 0.10490689
-0.18421249 0.20175724 -0.086260282 0.94432586 -0.11479598 0.30833513 0.19773921
-0.17453167 0.20210409 -0.08568687 0.73642659 -0.37729073 0.56154031 0.23135822
-0.16631915 0.20230561 -0.084209003 0.29868758 -0.90085012 0.31504714 0.16783659
-0.15027127 0.20244206 -0.086648345 0.02153255 -0.96192759 0.27245489 0.14824051
-0.14454249 0.20273422 -0.083281919 0.054490864 -0.93979245 0.33737341 0.15026419
-0.12393473 0.20312503 -0.083687805 -0.088444546 -0.93433231 0.34525448 0.10941843
-0.11540975 0.20332511 -0.083418168 0.12430765 -0.91767865 0.37737703 0.14445926
0.10333481 0.20607296 -0.083944067 -0.6395728 -0.69146323 0.33589482 0.13851161
0.11557034 0.20317063 -0.085267372 -0.15246956 -0.93038338 0.33337647 0.14584866
0.12499082 0.20302579 -0.084742539 0.061850727 -0.9343729 0.35088712 0.11429524
0.13556285 0.20276406 -0.085685089 0.1622387 -0.95690072 0.24087265 0.17598249
0.14443931 0.2024779 -0.087842375 0.043801256 -0.94121355 0.33496049 0.16182055
0.15061699 0.20245846 -0.08619573 -0.059492737 -0.95900017 0.277091 0.14304073
0.16518396 0.20228259 -0.085184276 -0.25120896 -0.91386861 0.31896418 0.1580455
0.17702425 0.20232181 -0.080363184 -0.85867143 -0.43441036 0.27197605 0.21458754
0.18325041 0.20182003 -0.08870627 -0.94787502 -0.044562735 0.31551075 0.15733691
-0.18671469 0.21773216 -0.085598856 0.98284072 0.13702853 0.12347987 0.15665472
-0.17569265 0.21357575 -0.085748389 0.90597582 0.34636489 0.24339105 0.2185161
-0.16522539 0.21322834 -0.086232334 -0.25875759 -0.94688916 -0.19090657 0.27103338
-0.15654606 0.21327144 -0.086724624 0.541637 -0.84027535 -0.023806421 0.22890447
-0.14171872 0.21378478 -0.085098021 -0.49512535 -0.82090628 0.28454113 0.28432101
-0.13572834 0.21563807 -0.084923483 -0.7952975 -0.56837171 0.21084481 0.20797706
-0.10323195 0.21708977 -0.084746987 0.8750785 -0.39070237 0.28563845 0.10331463
0.10323197 0.2146413 -0.088249885 -0.80131155 -0.39029872 0.45339471 0.14875706
0.13995466 0.21408065 -0.086446069 0.60369939 -0.78016341 -0.1639882 0.27410015
0.14497431 0.21354757 -0.085793242 -0.053721521 -0.91274685 0.40497804 0.26491824
0.1535562 0.21337305 -0.087886497 -0.40901202 -0.90833348 -0.0874037 0.2594564
0.16197369 0.21275318 -0.080800712 0.060557604 -0.9933933 0.097481564 0.22882238
0.17377442 0.21316469 -0.083486587 -0.95673388 -0.13501649 0.25774181 0.28674707
0.18507029 0.21620668 -0.084387578 -0.99192238 0.081770532 0.096971817 0.13406181
-0.18685892 0.22555807 -0.084233858 0.99989718 0.0063022939 0.012880028 0.11176124
-0.13288891 0.22467072 -0.085667156 -0.81552386 -0.564915 0.12566553 0.20392244
-0.10323195 0.22813155 -0.084816732 0.93836832 -0.11390609 0.32632872 0.10948969
0.10323196 0.22459881 -0.084253818 -0.94613731 -0.14346817 0.29024327 0.1156368
0.13308276 0.22427759 -0.083974294 0.77572012 -0.63107651 0.00089113141 0.19979553
0.18718627 0.22493474 -0.086306125 -0.99380338 0.099850953 0.048832461 0.13341241
-0.1835029 0.23459072 -0.08494477 0.96204287 -0.27090752 0.03290293 0.14009024
-0.17786227 0.23643845 -0.086306505 0.94994372 -0.26225039 0.16979899 0.19615208
-0.16509058 0.23301601 -0.085475028 -0.31933054 -0.94746482 0.018397911 0.28989583
-0.15104654 0.23363785 -0.089777038 -0.71360385 -0.70054543 -0.0023689882 0.20994395
-0.14476492 0.2328459 -0.083584726 -0.78331918 -0.61444777 0.094154 0.17472421
-0.13663447 0.23078927 -0.087177724 0.9573974 0.26487547 -0.11502712 0.17173277
-0.10323195 0.23561141 -0.084636502 0.97313678 -0.011040595 0.22996265 0.05691335
0.10323197 0.23412703 -0.08599285 -0.97182828 -0.0093827937 0.23550309 0.048699308
0.13741326 0.23172119 -0.08827579 0.75973636 -0.63334936 -0.1472047 0.16765076
0.14556293 0.23295204 -0.084619872 0.78923398 -0.59909666 -0.13488142 0.1841311
0.15618372 0.23312818 -0.086004823 0.52432162 -0.81129766 -0.25861737 0.23575343
0.16464505 0.23312744 -0.086330719 0.41228676 -0.75268662 0.5133056 0.30405429
0.17584135 0.23619895 -0.083214156 -0.97657031 -0.21497793 -0.0097411312 0.18068382
0.18353939 0.23308396 -0.083784394 -0.99734765 -0.05574289 0.046800975 0.18008026
-0.18397051 0.24134807 -0.082561679 0.94097716 -0.3356691 -0.043454301 0.10580256
-0.17948522 0.24643075 -0.085361958 0.95588201 -0.28274569 -0.079652414 0.12405425
-0.16285235 0.24905309 -0.084483959 0.93350881 0.33847734 0.11829828 0.21334623
-0.10323196 0.2445285 -0.086108491 0.96150297 -0.0040340186 0.27476513 0.067463405
0.10323195 0.24605905 -0.088883206 -0.9628914 -0.017165814 0.26934281 0.056864202
0.16324097 0.24689306 -0.085188121 0.81033128 -0.58095145 -0.07654231 0.20060083
0.17965581 0.24495721 -0.085620508 -0.96236706 -0.26553154 -0.057815053 0.15430103
0.18066537 0.24403067 -0.085183725 -0.9600383 -0.27805355 -0.031821627 0.15089962
-0.17951782 0.25968295 -0.080484435 0.98841935 -0.14778666 -0.034441482 0.11035363
-0.16310218 0.25608796 -0.084189437 0.95273376 0.27532035 0.12844107 0.18362579
-0.10323194 0.25341198 -0.089219488 0.96780246 0.02750189 0.25020397 0.059212212
0.10323196 0.25502858 -0.08543811 -0.97598946 0.0066975788 0.21771482 0.050482307
0.16285235 0.25540951 -0.085477225 -0.96160692 0.25771657 0.094309472 0.16624184
0.17866789 0.25335467 -0.083809167 -0.98546153 -0.16469207 -0.041739568 0.12806159
-0.17541718 0.26528439 -0.084511548 0.99342197 -0.10836457 0.037011161 0.11342039
-0.16532576 0.26537538 -0.084886298 0.99499422 0.086182386 0.050587788 0.12031695
0.10323196 0.26553234 -0.086050935 -0.97277284 -0.023244899 0.2305923 0.044803847
0.16335943 0.26516089 -0.084929451 -0.99278766 -0.11984763 -0.0030337158 0.12803352
0.17651382 0.265322 -0.08582978 -0.99494696 -0.041633829 -0.09136305 0.11776089
-0.17672616 0.27414823 -0.086015925 0.99834573 -0.0090208352 -0.056784287 0.11561026
-0.16481891 0.27452633 -0.085781135 0.99464273 0.063920088 0.081240825 0.096714266
-0.10323195 0.27759022 -0.085445106 0.96692181 -0.0089783194 0.25491497 0.055567659
0.10323196 0.27462092 -0.0823083 -0.98240387 -0.061619788 0.1763113 0.036037873
0.16535036 0.27567643 -0.084266298 -0.99844992 -0.0044029146 -0.055483129 0.10620743
0.17698577 0.27581161 -0.085425936 -0.99644005 -0.027178342 -0.079802215 0.10465958
-0.17747311 0.28601906 -0.082229361 0.99583745 0.081719443 -0.04036814 0.094718672
-0.16499257 0.28605086 -0.082694806 0.99916053 -0.0094417036 -0.039864529 0.098408647
-0.10323195 0.28048587 -0.084510624 0.972848 -0.068972573 0.22092889 0.050477132
0.10323197 0.28304949 -0.085238695 -0.97468156 -0.02910606 0.22169487 0.05134955
0.16385341 0.28527972 -0.08535061 -0.99754208 0.060420293 0.035485432 0.097158417
0.17761539 0.28343973 -0.082164876 -0.99751621 -0.032774065 0.062346701 0.094376847
-0.1769149 0.29400215 -0.085079782 0.99977195 -0.0087085338 -0.019495312 0.11292215
-0.16551973 0.29539868 -0.085134298 0.99983799 -0.0079175206 0.016166326 0.11773919
-0.10323195 0.2980631 -0.086305454 0.95970136 -0.067119732 0.27288878 0.043134894
0.10323196 0.29482079 -0.083915591 -0.97939473 -0.0010216495 0.20195299 0.041237015
0.16325806 0.29445073 -0.085314058 -0.9908582 -0.11479059 0.070874661 0.09751007
0.17668614 0.29407421 -0.083556108 -0.99752724 -0.015464484 0.068558872 0.10697944
-0.17708752 0.30576071 -0.085600778 0.99561441 0.092701033 -0.01258777 0.11035208
-0.16285235 0.30683118 -0.083128653 0.99167609 -0.1187293 0.04981903 0.11888544
-0.10323195 0.30745536 -0.085515551 0.93557554 -0.0092663076 0.35300523 0.05004539
0.10323196 0.30621436 -0.080294453 -0.99142414 -0.014301088 0.12989868 0.025013015
0.16273578 0.30484787 -0.084533632 -0.99086797 -0.031330179 0.13114549 0.1187409
0.17562632 0.30276224 -0.084848925 -0.99683499 0.079409502 -0.0037688345 0.11212254
0.18054879 0.3089214 -0.082211405 -0.99071032 0.13398691 0.023250692 0.12138403
-0.18233961 0.31547239 -0.082782246 0.98203081 0.18867581 -0.004100957 0.11708897
-0.17858371 0.31007999 -0.085598961 0.99062675 0.13635676 -0.008088273 0.11184798
-0.16304666 0.31621185 -0.084361315 0.93565995 -0.32793349 0.13038458 0.18439518
-0.10323195 0.31168693 -0.084206328 0.9595378 0.077898815 0.27059016 0.055090204
0.10323195 0.31485671 -0.083381943 -0.98388463 -0.024917601 0.17705956 0.03887723
0.16294952 0.31532714 -0.087481938 -0.90862286 -0.39639995 0.13142154 0.20400572
0.17892961 0.31695756 -0.088093124 -0.99231166 0.091897279 -0.082901023 0.16734423
0.18287517 0.31750965 -0.084359698 -0.98144931 0.1791168 -0.068368547 0.15519419
-0.18312183 0.32551721 -0.086701378 0.97092336 0.22360654 -0.085487016 0.15792318
-0.17407985 0.32854348 -0.084269919 0.99146235 0.091805622 -0.092596628 0.20209236
-0.10323195 0.32333094 -0.08428292 0.97544676 0.013913222 0.21979558 0.052445233
0.10323195 0.32258764 -0.080696627 -0.9833616 0.051983643 0.17406231 0.035507835
0.16283381 0.32131469 -0.085778862 -0.58160979 -0.79609704 0.16721094 0.25005364
0.17481239 0.32908371 -0.085410371 -0.95764405 0.27977246 0.068155877 0.20408872
0.18373121 0.32495275 -0.084958091 -0.96106768 0.27526203 -0.024077658 0.15107371
-0.18519039 0.33492082 -0.086063407 0.99801463 -0.062316228 0.0091345757 0.17959747
-0.16561207 0.3327527 -0.085866123 0.93139726 -0.26391584 -0.25069404 0.27401674
-0.15734136 0.33288711 -0.084889889 0.5717991 -0.786726 -0.23261121 0.2351514
-0.13579343 0.33631134 -0.085405067 0.89145476 -0.45310429 -0.0022216651 0.15431117
-0.10323195 0.33504397 -0.084881037 0.96458757 0.13498706 0.2266039 0.059050877
0.10323195 0.33601794 -0.082492828 -0.95732301 0.1307396 0.25775936 0.056650639
0.13693176 0.33523118 -0.083477169 -0.81694078 -0.57633406 -0.021140458 0.14431626
0.14518584 0.33289906 -0.084545806 -0.75132513 -0.65747178 -0.056934427 0.17445073
0.15490645 0.33271384 -0.08687707 -0.60331947 -0.77476108 0.1890792 0.22741313
0.16581571 0.33277977 -0.085664585 -0.63240439 -0.042300206 -0.77348262 0.28930026
0.17389533 0.33085746 -0.084201917 -0.9788143 0.20095333 -0.039245918 0.24046285
0.18371968 0.33353782 -0.085157864 -0.95278716 0.30247694 -0.026536694 0.17349137
-0.1879776 0.34362745 -0.085089743 0.97445017 -0.22368325 0.020311011 0.11607041
-0.13343111 0.34539175 -0.086792685 0.61546993 -0.78715152 0.039865211 0.1789629
-0.10323195 0.34497607 -0.086567432 0.84387529 0.20868964 0.49429056 0.11991542
0.10323197 0.34285864 -0.088069655 -0.84373564 0.28755018 0.45323852 0.12809069
0.13253444 0.34656256 -0.085453942 -0.62386149 -0.78034693 -0.043075208 0.21683368
0.18681557 0.34744394 -0.089027904 -0.95651519 -0.26624957 0.11912078 0.10488109
-0.18103531 0.35210598 -0.081845105 0.9105221 -0.32751253 0.25235909 0.13387351
-0.17814493 0.35243559 -0.0814294 0.92518497 -0.26705736 0.26965392 0.17843598
-0.16339466 0.35275555 -0.084694922 0.27570888 0.12529069 0.95304084 0.25078619
-0.15583199 0.352916 -0.082861729 -0.37026262 -0.83067626 -0.41579151 0.27227831
-0.14361554 0.35230157 -0.084576428 0.15729605 -0.94137043 -0.29846221 0.26332703
-0.13703898 0.35157868 -0.082125261 0.4497512 -0.89294678 -0.019233409 0.20276734
-0.10323196 0.35467443 -0.086628176 -0.76107723 -0.41205072 -0.50097483 0.15351479
0.10323196 0.35435271 -0.082973547 0.75954741 -0.54051042 -0.36185113 0.12643409
0.13604972 0.35122526 -0.081326596 -0.61302596 -0.76613927 -0.19295041 0.192504
0.14724247 0.35259733 -0.084523663 -0.14547238 -0.78179872 -0.60632378 0.26068121
0.1543881 0.35302815 -0.081580169 0.11875866 -0.85598081 -0.50318307 0.24843931
0.1645336 0.35249981 -0.087616988 -0.419368 -0.42662612 0.80132431 0.26256436
0.17543094 0.35248807 -0.083922386 -0.87775064 -0.36541864 0.30987599 0.19178411
0.1823673 0.35154089 -0.083224341 -0.93964911 -0.27778095 0.19974339 0.13292597
-0.17314264 0.36440504 -0.08675731 0.79382473 -0.2862893 0.5365451 0.15109211
-0.16739637 0.3615346 -0.086733684 0.69993901 -0.16098876 0.69582188 0.22620608
-0.1547786 0.36138308 -0.088630185 -0.25296056 -0.41255486 -0.87510532 0.23128435
-0.14225008 0.3611263 -0.08782772 -0.0049950308 -0.84532195 -0.53423399 0.21082176
-0.13358192 0.36061546 -0.081477031 0.25688678 -0.88876498 -0.37961286 0.16955465
-0.12325267 0.36053881 -0.083334707 0.052427918 -0.90079099 -0.43107635 0.16172418
-0.11073297 0.36068103 -0.088667996 -0.36803821 -0.65674973 -0.65820038 0.16199633
-0.10783508 0.36046562 -0.086248241 -0.48415723 -0.54698658 -0.68293297 0.15020016
0.10569419 0.36033085 -0.084871933 0.63942051 -0.55486244 -0.53223026 0.14974441
0.11446799 0.36063349 -0.087133072 0.29361534 -0.57189828 -0.76597804 0.17297629
0.12450954 0.36062971 -0.084811844 -0.16197038 -0.72073543 -0.67402232 0.16202769
0.13485295 0.36076969 -0.083830759 -0.29493648 -0.72926641 -0.61740011 0.1861375
0.14297333 0.3608532 -0.082044616 0.024079574 -0.91889393 -0.39376906 0.19152695
0.15459195 0.3612622 -0.086038843 0.22928528 -0.72293985 -0.65175629 0.21565995
0.16449398 0.36143681 -0.085778058 -0.51390439 -0.41562405 0.75043917 0.24142902
0.17302358 0.36536345 -0.085080825 -0.81645858 -0.2585851 0.51626462 0.17891446
-0.17281672 0.37580293 -0.080959007 0.88241237 -0.03959731 0.46880749 0.073817015
-0.16848701 0.37836188 -0.088657551 0.72719985 -0.080953218 0.6816355 0.066078462
0.17264694 0.37228465 -0.083771192 -0.85205203 -0.14454168 0.5031054 0.1164382
-0.17037475 0.38298041 -0.081854448 0.8579576 -0.075355425 0.50816363 0.039372783
-0.16713811 0.38721886 -0.087046057 0.74822611 -0.12995505 0.65059149 0.03946045
0.17035431 0.38221264 -0.082332112 -0.84451973 -0.13240837 0.51889729 0.030017825
-0.16611464 0.39381483 -0.086373247 0.72518253 -0.21473156 0.6542176 0.030328969
0.16602086 0.39205325 -0.086515963 -0.77919227 -0.18388237 0.59920502 0.024318166
-0.16301754 0.40558347 -0.086854756 0.69990677 -0.24193458 0.67201054 0.030218273
0.16584793 0.40144047 -0.082756475 -0.79747987 -0.23898406 0.55399674 0.019046746
-0.16234311 0.41039836 -0.086114615 0.72231406 -0.21920635 0.65590471 0.027593637
-0.1574007 0.4147222 -0.089782849 0.59765106 -0.23283082 0.7672047 0.037320975
0.15924436 0.41293231 -0.08887966 -0.69336724 -0.19267823 0.69434643 0.044960748
0.16401169 0.41336885 -0.082055435 -0.78222293 -0.21797803 0.58362031 0.03440626
-0.16115268 0.42616606 -0.081569754 0.74059755 -0.26407963 0.61788124 0.040226519
-0.15423819 0.42516357 -0.088866733 0.51956534 -0.22267388 0.82490492 0.042159628
-0.14845824 0.42799532 -0.089510784 0.42904061 -0.27220118 0.86129594 0.036951393
-0.13476533 0.42982131 -0.089627311 0.083018534 -0.20965089 0.97424555 0.0057338346
0.12368277 0.42617598 -0.08972808 -0.025965881 -0.2062055 0.97816414 0.0038219295
0.13262317 0.4289827 -0.089662179 -0.050930772 -0.23215406 0.97134471 0.005920893
0.14971195 0.4287318 -0.089322358 -0.31143367 -0.26282525 0.91319877 0.035111975
0.15656501 0.42536804 -0.086963974 -0.63923186 -0.31494838 0.70156258 0.041206028
0.16167161 0.42015612 -0.083664626 -0.77169746 -0.24424587 0.58721972 0.037894789
-0.15534264 0.43635559 -0.083197862 0.59408021 -0.35172877 0.72343314 0.025027849
-0.14363322 0.43566337 -0.088324048 0.37071669 -0.32209986 0.87110323 0.034686778
-0.115501 0.43805927 -0.088070914 -0.082412317 -0.43657097 0.89588726 0.058724836
-0.10585526 0.43709743 -0.089546382 0.11234578 -0.40908805 0.90555251 0.052216332
-0.062564105 0.43852785 -0.089740857 0.00034199661 -0.19250584 0.98129582 0.0012587083
-0.057869278 0.4395026 -0.08956036 0.0034207085 -0.19050917 0.98167944 0.0013426699
-0.04333359 0.43735084 -0.089831106 0.015354984 -0.17658231 0.98416609 0.0010385941
0.057421267 0.43956572 -0.089547426 -0.0028130182 -0.20436372 0.97889096 0.0020370539
0.07871215 0.4380247 -0.089929029 -0.040786847 -0.21542455 0.97566837 0.010069227
0.082980163 0.43937802 -0.089631267 -0.068253785 -0.24937063 0.96599984 0.019902367
0.093080953 0.43950492 -0.089578047 -0.14841947 -0.34813455 0.92562085 0.044168856
0.11595331 0.43672973 -0.088249758 0.00041817612 -0.352902 0.93566012 0.040411483
0.12441432 0.43403491 -0.088439524 0.0058057299 -0.27031666 0.96275395 0.014176954
0.13469321 0.43640628 -0.088526733 -0.12303143 -0.33435851 0.93438089 0.020415047
0.14890149 0.4319182 -0.088624321 -0.33407158 -0.3593652 0.87135112 0.03285851
0.15746599 0.43813464 -0.08041399 -0.68897641 -0.39707038 0.60633874 0.03646991
-0.15240136 0.44166231 -0.083699822 0.55992734 -0.39156997 0.73017418 0.028697031
-0.14335009 0.44236535 -0.086742781 0.3602626 -0.3711096 0.85585541 0.033392988
-0.13501771 0.44554362 -0.086993068 0.11808925 -0.39882767 0.90939063 0.02179466
-0.12311146 0.44470528 -0.087041952 -0.082283102 -0.3741152 0.92372471 0.056963291
-0.11521849 0.44784918 -0.08332967 -0.12504351 -0.41013026 0.90341419 0.096236743
-0.10644069 0.44431201 -0.086197719 0.068168424 -0.42830381 0.90105987 0.070374325
-0.097887054 0.44949663 -0.088347986 0.17297539 -0.38709131 0.90567088 0.082970425
-0.082696944 0.44329789 -0.089065127 0.094631277 -0.3017835 0.94866836 0.023967419
-0.07551904 0.44471797 -0.088946 0.037838455 -0.26656979 0.9630726 0.010494935
-0.065865971 0.44484457 -0.088862017 0.016128685 -0.24419065 0.96959305 0.0029506832
-0.05742861 0.44638371 -0.088568166 -0.00076564302 -0.25432664 0.96711808 0.0032050924
-0.04199715 0.44587487 -0.088584557 0.019260161 -0.24452387 0.96945196 0.0031800102
-0.03387782 0.44542384 -0.088921361 0.03228204 -0.20668727 0.97787434 0.0021154706
-0.025362818 0.44759035 -0.088886619 0.025073903 -0.21868888 0.97547239 0.0022508376
-0.006002157 0.44716513 -0.089536235 0.010214963 -0.21495183 0.97657126 0.0024971066
0.0089147808 0.4475421 -0.089441717 -0.017447934 -0.20928742 0.97769845 0.0021892411
0.018794522 0.44390959 -0.089646488 -0.031327035 -0.20118557 0.97905207 0.0020697969
0.027348546 0.44948864 -0.088541441 -0.030857719 -0.27708498 0.96034974 0.0043850769
0.037292488 0.44409499 -0.08900293 -0.025945751 -0.22214147 0.97466916 0.002745731
0.046227939 0.44583967 -0.088557556 -0.017556146 -0.25035337 0.96799529 0.0031032406
0.053099465 0.44615787 -0.088563263 -0.018394096 -0.24105078 0.97033823 0.0028397052
0.072041206 0.44556859 -0.088811293 -0.007265192 -0.24668106 0.96906948 0.002405355
0.086021505 0.44642711 -0.088541448 -0.10224622 -0.32567927 0.93993551 0.028652398
0.09538126 0.445052 -0.088883571 -0.1538925 -0.36122552 0.91969186 0.049390707
0.10419372 0.44617653 -0.088132501 -0.10106221 -0.41010612 0.90642118 0.061604287
0.11413601 0.44714782 -0.085673213 0.0074261082 -0.38976932 0.92088258 0.066646017
0.12345345 0.44352251 -0.08672253 0.0079398686 -0.38122904 0.92444658 0.048305999
0.13555253 0.44326872 -0.087168992 -0.11359232 -0.37044713 0.92188162 0.017142721
0.14566365 0.44868654 -0.083854422 -0.33905241 -0.46365729 0.8185752 0.02832393
0.15300766 0.44470423 -0.08142744 -0.65120065 -0.39782616 0.64627558 0.034992632
-0.1474869 0.45275337 -0.080811366 0.51498955 -0.52439237 0.67808431 0.033826761
-0.13428241 0.45576119 -0.08419174 0.1432634 -0.48812312 0.8609364 0.069964558
-0.12569977 0.45412457 -0.084837914 -0.0017152384 -0.44079661 0.89760536 0.088979341
-0.1070434 0.45371956 -0.083384439 0.040974177 -0.45423985 0.88993669 0.10310654
-0.09492562 0.45548582 -0.086180978 0.23940824 -0.36196405 0.90092492 0.078207768
-0.083580449 0.45395294 -0.086895779 0.13496247 -0.36802033 0.91997075 0.027361242
-0.078724504 0.45827359 -0.085084349 0.15293278 -0.36704639 0.91754484 0.029301951
-0.067655042 0.4538874 -0.087230578 0.0072441623 -0.31683215 0.94845396 0.0045355484
-0.05397521 0.45589888 -0.086516805 0.011941141 -0.32909846 0.94422013 0.0050065201
-0.045500021 0.45355657 -0.087100305 0.029420717 -0.29904982 0.95378381 0.0053919367
-0.03444498 0.45386589 -0.087495819 0.045025174 -0.30495501 0.95130181 0.0051042354
-0.026111349 0.45549047 -0.087569736 0.034249976 -0.28733706 0.95721698 0.0039587119
-0.012323846 0.45393029 -0.088389151 0.03157638 -0.3012802 0.95301265 0.0060465774
-0.0037517571 0.45575583 -0.088359706 0.0079312976 -0.32129639 0.94694543 0.0050324854
0.0048946603 0.45672303 -0.087775923 0.0027916392 -0.35147431 0.93619335 0.0054134624
0.016072789 0.45461342 -0.088160701 -0.029902721 -0.31682307 0.94801319 0.0050922879
0.025382115 0.45406488 -0.087736167 -0.029697837 -0.30637026 0.9514491 0.0051928293
0.034953579 0.45133618 -0.08801648 -0.02249877 -0.28703991 0.95765436 0.0049036779
0.045641739 0.45600432 -0.086167946 -0.016799597 -0.33441067 0.94227773 0.0043220203
0.050308973 0.45724365 -0.086092025 -0.02557648 -0.34260035 0.93913299 0.0045599099
0.063749276 0.45571139 -0.086514413 -0.012100763 -0.34000286 0.9403466 0.0050651212
0.07447309 0.45569557 -0.086467743 -0.063696742 -0.34088978 0.93794286 0.010672335
0.082290493 0.45586228 -0.086416632 -0.14027296 -0.37926996 0.91459161 0.029517068
0.096568249 0.4547317 -0.084369145 -0.14367765 -0.37801373 0.91458321 0.058094215
0.10615996 0.45494202 -0.084515579 -0.063511416 -0.43690142 0.89726448 0.080311827
0.11297815 0.45457694 -0.082096167 0.026141623 -0.45302898 0.89111251 0.074075319
0.12329848 0.45611578 -0.084003545 0.0038177066 -0.44686884 0.89459127 0.073087037
0.13317853 0.45385087 -0.084780432 -0.17062892 -0.43910658 0.88208342 0.038784478
-0.13308188 0.46212363 -0.081113771 0.21561776 -0.59955972 0.77073807 0.077982403
-0.12489946 0.46406898 -0.081650451 -0.034937598 -0.53533357 0.84391785 0.099027507
-0.11423385 0.46906105 -0.08197026 0.028936042 -0.43507737 0.89992791 0.12582421
-0.094243504 0.4630726 -0.082752734 0.24750057 -0.36936307 0.89572006 0.077122144
-0.086256877 0.46296668 -0.081943423 0.15882531 -0.3798092 0.91132849 0.062456235
-0.0778533 0.46358502 -0.081820332 0.15354289 -0.38556972 0.90981346 0.025848517
-0.064235419 0.46297145 -0.082382381 0.011318166 -0.38105121 0.92448467 0.0028004635
-0.054596186 0.46158037 -0.083339833 0.030119285 -0.37129304 0.92802709 0.0029628624
-0.046220634 0.46260574 -0.083041042 0.036906432 -0.37985694 0.92430872 0.002972679
-0.031317491 0.46100307 -0.084790111 0.034879908 -0.3657099 0.93007505 0.0042349827
-0.021943079 0.46516377 -0.082972005 0.035388868 -0.38392273 0.92268687 0.0026157706
-0.016103122 0.46934569 -0.080633104 0.0094970306 -0.41924638 0.90782279 0.0029662361
-0.0051948815 0.46593329 -0.083041549 -0.0036318402 -0.39183441 0.92002863 0.0033679723
0.0020582257 0.46454018 -0.084044963 -0.0063721356 -0.3822549 0.92403489 0.0042308271
0.015168553 0.46604401 -0.082759172 -0.015824083 -0.40275466 0.91517115 0.0028211831
0.024330525 0.46721649 -0.081649035 -0.023986798 -0.41023347 0.91166502 0.0018381159
0.035438392 0.46538615 -0.082024604 -0.024017068 -0.40116873 0.91568929 0.0019038642
0.048361432 0.46399751 -0.082141578 -0.015784243 -0.39718357 0.91760343 0.0021211274
0.057594378 0.46329722 -0.082238533 -0.0057176976 -0.38360563 0.92347932 0.0031237802
0.064598896 0.46511817 -0.081035882 -0.0085366257 -0.40192243 0.91563392 0.0024450712
0.073517874 0.46279895 -0.082368672 -0.083148338 -0.3892917 0.91735399 0.011195793
0.08248508 0.46141028 -0.082967281 -0.15778649 -0.37298495 0.91432256 0.038696118
0.093696438 0.46226701 -0.083085991 -0.18957891 -0.37732577 0.90646851 0.057032157
0.10653844 0.46566725 -0.081397854 -0.098098435 -0.42506522 0.8998313 0.082588464
0.1121745 0.46713662 -0.081849843 -0.039397702 -0.42428917 0.90466934 0.091227636
0.12843093 0.46264565 -0.081937417 -0.087631151 -0.49197927 0.86618543 0.068619035
-0.11331475 0.47323829 -0.081554316 0.059654362 -0.49950707 0.86425352 0.11347065
-0.10685023 0.47427636 -0.081687152 0.13551185 -0.44847947 0.88346064 0.099606492
0.10659494 0.4734118 -0.080923505 -0.12380047 -0.44640723 0.88622457 0.10068765
0.11519361 0.47532958 -0.081330478 -0.084846951 -0.53972673 0.83755356 0.082397446
-0.06566146 -0.49276111 -0.074133687 0.28928524 0.94900298 0.12532882 0.016990252
-0.055960264 -0.49368599 -0.075708866 0.17858879 0.97198761 0.15279447 0.014804062
-0.045897622 -0.49326831 -0.075039387 0.10663792 0.97742164 0.18241511 0.022012284
-0.033757165 -0.49495381 -0.073713548 0.10024713 0.98705339 0.12520456 0.014527613
-0.024026878 -0.49553466 -0.073897943 0.056961272 0.98691064 0.1508732 0.01605439
-0.014071066 -0.49452579 -0.075487271 0.058022276 0.98746026 0.14681859 0.019320581
-0.0036395127 -0.49538562 -0.075713642 0.019295191 0.99474239 0.10057452 0.011874557
0.0037249853 -0.49581698 -0.074564375 0.020652406 0.99651498 0.080817439 0.0108566
0.014917057 -0.49611154 -0.07326103 -0.040032737 0.99076444 0.12954956 0.018820826
0.025794709 -0.4950372 -0.072842881 -0.078871459 0.9909569 0.1085532 0.013586449
0.034528326 -0.49462649 -0.073040739 -0.11268113 0.98561478 0.12596205 0.016845113
0.04346348 -0.49293327 -0.074993372 -0.092948742 0.97988808 0.17657854 0.020976802
0.054134894 -0.49213719 -0.074912645 -0.15758252 0.97519171 0.15546329 0.016144784
0.06285242 -0.49353376 -0.072506793 -0.25257209 0.9591009 0.12779973 0.015586827
0.070022784 -0.49128884 -0.07418897 -0.29144275 0.93912315 0.18195824 0.015254782
-0.084307365 -0.4820632 -0.07477437 0.40308446 0.89047509 0.21113282 0.017640343
-0.076777577 -0.48305786 -0.076766878 0.36297247 0.8979584 0.24884063 0.025594031
-0.054640338 -0.48809376 -0.073440582 0.18572028 0.97456402 0.12543094 0.018142769
0.053548187 -0.48903087 -0.079786696 -0.15666494 0.92780161 0.3385857 0.035187509
0.075567655 -0.48496532 -0.074897803 -0.32353926 0.92572099 0.19586472 0.014131522
0.084033921 -0.48255092 -0.075596727 -0.38007975 0.90822375 0.17512563 0.013654611
0.091215797 -0.48128763 -0.072442904 -0.40905765 0.89675641 0.16881864 0.0084766718
-0.11147715 -0.47070789 -0.073823631 0.48078644 0.85034472 0.21391208 0.017435793
-0.10443621 -0.4717201 -0.074143879 0.4445135 0.87316334 0.19998403 0.019334095
-0.095421493 -0.47668532 -0.075312853 0.37700695 0.89717877 0.23007815 0.019756382
-0.084550187 -0.47803047 -0.078517497 0.39651781 0.86359179 0.31142065 0.03555144
0.085153088 -0.47856992 -0.074761443 -0.40463498 0.8934204 0.19511665 0.0088655902
0.094910868 -0.47628728 -0.075188316 -0.41645718 0.88593036 0.20418306 0.013410973
0.10389664 -0.47398761 -0.076076932 -0.44579974 0.86369258 0.23515458 0.017322347
0.11137613 -0.47008073 -0.071193434 -0.48663661 0.85324174 0.18751869 0.013795843
-0.12535155 -0.46206385 -0.073690422 0.66414869 0.71718818 0.21106324 0.045453191
-0.11459717 -0.46603179 -0.073734134 0.52350736 0.82389611 0.21710669 0.024345918
0.10694856 -0.46875563 -0.076425835 -0.4555164 0.85603702 0.24434695 0.017856972
0.11568209 -0.4659763 -0.076173246 -0.56764114 0.78805012 0.23824461 0.031883948
0.12527621 -0.46173003 -0.076089039 -0.68479854 0.68341964 0.25295973 0.055025321
-0.14048433 -0.45130152 -0.070320681 0.70256722 0.66837972 0.2442701 0.051891457
-0.13573873 -0.45556965 -0.074993141 0.68848568 0.68273467 0.24466485 0.046850003
-0.12723947 -0.45408797 -0.075331457 0.66430879 0.69295812 0.28018355 0.051816609
0.12770362 -0.45590368 -0.074863516 -0.69957155 0.66670394 0.25710994 0.063371733
0.13286719 -0.45801106 -0.074396819 -0.71970642 0.65120274 0.24074389 0.065093823
0.14168602 -0.45021021 -0.076841876 -0.71549869 0.67449337 0.18198951 0.074770458
-0.14519146 -0.44390085 -0.077213526 0.69153976 0.68292743 0.2353358 0.048318613
-0.13420752 -0.44259608 -0.07982897 0.6711998 0.6494993 0.35726953 0.060123581
-0.12786439 -0.44499341 -0.075355373 0.68401635 0.66028625 0.31007072 0.060380921
0.1284779 -0.44385904 -0.075928286 -0.67218089 0.67199224 0.31080422 0.080729075
0.13377953 -0.44366321 -0.07495039 -0.68366915 0.68109912 0.26210767 0.070373937
0.14408055 -0.44457582 -0.075017683 -0.70547187 0.68034214 0.19860503 0.058514062
-0.15218455 -0.43312269 -0.074652672 0.72351325 0.66463107 0.18653196 0.043402288
-0.14672987 -0.43646741 -0.075328439 0.7120049 0.66700774 0.21943021 0.046907421
-0.1273137 -0.43923602 -0.078936324 0.6688866 0.62449914 0.40322646 0.088535585
0.12788449 -0.43744364 -0.074950151 -0.64997041 0.69147044 0.31528887 0.095920816
0.14767939 -0.43761796 -0.074834414 -0.69303387 0.69430393 0.1940261 0.051635988
0.15451255 -0.43271092 -0.071313202 -0.66532362 0.71631753 0.21031776 0.053212903
-0.16132851 -0.42209014 -0.073139265 0.84804803 0.51335877 0.13144352 0.0072048688
-0.15715125 -0.42562342 -0.078564748 0.76846933 0.61034542 0.19218075 0.028619196
0.15590133 -0.425989 -0.076433815 -0.76028889 0.62664735 0.17109588 0.033219501
0.16204801 -0.42134064 -0.070623815 -0.86422819 0.49127209 0.10844971 0.0069869212
-0.1664591 -0.41293374 -0.075309888 0.89685929 0.42389682 0.126313 0.0045163161
0.16504577 -0.41614789 -0.074630007 -0.87697744 0.46237412 0.13084647 0.0053473436
-0.16870388 -0.4073154 -0.076962754 0.91008359 0.38712984 0.14791362 0.0063017672
0.16901004 -0.40687549 -0.073790953 -0.91625607 0.39050588 0.089330778 0.0036144266
0.17086777 -0.40045893 -0.073385045 -0.96688437 0.23720108 0.094181709 0.036756724
-0.17346668 -0.3906576 -0.071770288 0.99389464 0.072376452 0.083277717 0.096774638
0.17196514 -0.3957698 -0.076043576 -0.98268539 0.13165241 0.13037264 0.04777604
-0.17577145 -0.38434482 -0.075119779 0.99119371 0.027118687 0.12961335 0.15125184
0.17658313 -0.38410643 -0.073204085 -0.98856163 0.14011766 0.055792954 0.11508074
-0.1777873 -0.37799907 -0.07871633 0.95344377 0.28393167 0.10162607 0.16121264
-0.16587985 -0.37557697 -0.075153738 -0.28674656 0.94435054 -0.16117819 0.19622271
-0.15382057 -0.37550834 -0.076322712 -0.34144747 0.93594217 -0.086173102 0.1100817
-0.14348264 -0.37433085 -0.071541876 -0.083664171 0.99468845 -0.059959907 0.14397104
-0.13111161 -0.37423721 -0.073308222 -0.081713073 0.9939245 -0.073735647 0.15472853
-0.12268639 -0.37419459 -0.075120352 -0.14727215 0.98906243 -0.0081473505 0.15079488
-0.11803034 -0.37388432 -0.073385954 -0.28167248 0.95659924 -0.074689433 0.15071724
0.11450112 -0.37312061 -0.073307887 0.5941872 0.80217254 -0.05882892 0.15726811
0.12619764 -0.37420139 -0.074057676 0.090744816 0.99444425 -0.05334736 0.14993784
0.13513966 -0.37452939 -0.074777812 0.017259253 0.98903102 -0.14669566 0.15951042
0.14517552 -0.37489817 -0.075068519 0.18108711 0.97338086 -0.14048912 0.11820307
0.15853521 -0.37542418 -0.075035542 0.4321925 0.87162924 -0.23124018 0.15298428
0.1683283 -0.3756673 -0.07549797 -0.86968362 -0.36347845 0.3339667 0.27876219
-0.18481843 -0.36413318 -0.075465098 0.98420101 0.16901103 -0.052759681 0.14117551
-0.17317684 -0.36658975 -0.075476319 0.97848392 0.1887318 0.083364278 0.23122224
-0.16458237 -0.36670074 -0.075024642 0.17831622 0.93489957 -0.30686516 0.27866066
-0.15511431 -0.366712 -0.075153559 -0.28849635 0.95688093 -0.033892751 0.19312276
-0.1441569 -0.36620674 -0.074265391 -0.2299123 0.96344632 0.13751964 0.22210483
-0.1344579 -0.36339766 -0.077105567 0.088548005 0.99443096 0.057151288 0.22175348
-0.11217853 -0.36595389 -0.072587796 -0.80439615 0.59396976 -0.01212084 0.18430147
0.11217853 -0.3637436 -0.073121384 0.83547187 0.54900253 -0.024146177 0.18629491
0.13668984 -0.36479735 -0.074739136 -0.14178015 0.9722243 -0.18622103 0.21198159
0.15059544 -0.36645216 -0.072182968 0.18499385 0.9461776 -0.26556584 0.19582768
0.16429123 -0.36692405 -0.077577032 -0.12223662 0.9394207 -0.32022956 0.27356732
0.17645434 -0.36656684 -0.078787193 -0.95948392 0.27469391 0.062721424 0.19479887
0.18481344 -0.36469761 -0.076917812 -0.9385711 0.32580504 0.11373405 0.11878777
-0.18715045 -0.3548269 -0.074785948 0.99304676 0.075911433 -0.089975841 0.11563841
-0.13300569 -0.35512304 -0.074322626 -0.20284246 0.87194616 0.4456062 0.24127969
-0.11217853 -0.35795265 -0.073825411 -0.9210456 0.3878299 0.03553823 0.16662918
0.11217854 -0.35626334 -0.076006517 0.94227982 0.33141902 -0.047646459 0.16725102
0.13190885 -0.35741082 -0.074484982 -0.035375267 0.99373317 -0.10603321 0.25620878
0.18677239 -0.35384145 -0.074487224 -0.99363786 0.11037112 0.022404157 0.10855038
