# .PCD v0.7 - Point Cloud Data file format
VERSION 0.7
FIELDS x y z normal_x normal_y normal_z curvature
SIZE 4 4 4 4 4 4 4
TYPE F F F F F F F
COUNT 1 1 1 1 1 1 1
WIDTH 578
HEIGHT 1
VIEWPOINT 0 0 0 1 0 0 0
POINTS 578
DATA ascii
0.035949815 -0.065322235 0.02490516 -0.9052121 -0.088576302 0.41562641 0.22277357
0.19745979 -0.065429203 0.024688458 -0.8698169 0.0017723893 0.49337143 4.1262098e-05
0.4749274 -0.064413279 0.022994552 -0.99856973 -0.0020804226 -0.053424824 0.0089420611
-0.43239772 -0.057276167 0.020866662 0.34534478 0.076770782 -0.93533051 0.00079398922
-0.4219054 -0.059128378 0.024338908 0.30959606 0.069509678 -0.94832408 0.00048506763
-0.4080604 -0.054463208 0.028473621 0.25920731 0.055627007 -0.9642185 0.00016608082
-0.15322763 -0.055216756 0.024440018 0.91063601 0.12312516 0.39443934 0.1050877
-0.11596954 -0.05170998 0.027847419 0.78632224 -0.44490883 0.42866486 0.16331713
0.0093657589 -0.051419444 0.020475741 0.90776443 0.41939422 0.0084935753 0.23598799
0.012241109 -0.057529561 0.024891501 0.76650572 0.6223948 -0.15840977 0.21874918
0.035860911 -0.053676736 0.024702981 -0.78745824 0.36287537 0.49822789 0.22888575
0.19657613 -0.051790662 0.023163369 -0.87241089 0.0010558621 0.48877221 4.7118207e-05
0.47149903 -0.052591633 0.022986045 -0.99894708 -0.024906339 -0.038529135 0.010008175
-0.43391627 -0.042599063 0.021311786 0.36229381 0.056469109 -0.93035185 0.0019593409
-0.4101994 -0.049424887 0.028230788 0.26627862 0.053905603 -0.96238756 0.00020060505
-0.40797442 -0.046760064 0.028893415 0.25583959 0.047976851 -0.96552801 0.00016984789
-0.15866967 -0.041977003 0.028577972 0.91033894 0.027961962 0.41291785 0.033657234
-0.14974217 -0.044797506 0.023391455 0.95111805 0.093669817 0.29427952 0.059971794
-0.11580887 -0.045364134 0.028665954 0.87371367 -0.1934502 0.44632 0.045404874
-0.10812566 -0.046066392 0.022077903 0.78444022 -0.26282331 0.56176269 0.040947881
0.0064706239 -0.042798489 0.02220265 0.80571777 0.41054791 -0.42693007 0.24126649
0.011663646 -0.049027514 0.027605927 0.86414045 0.38704401 -0.32164925 0.24309409
0.034832068 -0.048543856 0.022363268 -0.79709965 0.19753101 0.57062572 0.24367888
0.19808161 -0.042739011 0.02576167 -0.87054157 -0.00033988053 0.49209473 5.7683501e-05
0.47044173 -0.042128339 0.027615437 -0.9998253 0.0055393227 0.017849999 0.01500462
-0.43468148 -0.034977339 0.021400765 0.36650607 0.050976597 -0.9290182 0.0022266279
-0.42151439 -0.033052403 0.025859678 0.29384714 0.038188081 -0.95508927 0.00036954679
-0.41395444 -0.03358167 0.027921924 0.26371792 0.03100127 -0.96410155 0.00021153735
-0.40935808 -0.034825101 0.029001111 0.25469556 0.031988312 -0.96649206 0.00019655739
-0.16058688 -0.035664752 0.025601376 0.9356392 0.027565297 0.35187978 0.049675021
-0.1530959 -0.035265155 0.024607858 0.9748497 -0.013646799 0.22244509 0.042468898
-0.0015128171 -0.036741052 0.023956206 0.87939811 0.11700235 -0.46148604 0.13376983
0.0015276135 -0.038308501 0.026741281 0.8922497 0.13995406 -0.42930561 0.12327909
0.036726743 -0.034853309 0.026937127 0.75405103 0.59394932 -0.2804127 0.13955456
0.19560853 -0.03257421 0.021493388 -0.87416804 -0.0012374885 0.48562199 6.2418141e-05
0.47223154 -0.034465555 0.023127245 -0.99669921 0.048094358 -0.065403998 0.018216094
-0.43623203 -0.021842381 0.021233879 0.36714065 0.021768002 -0.92991066 0.0013774805
-0.4256725 -0.022801578 0.024868257 0.29803732 0.025629824 -0.95421016 0.00032946712
-0.41301256 -0.022483937 0.028421625 0.26485345 0.022110438 -0.96403515 0.00022617541
-0.14895448 -0.022113077 0.021576952 0.96065646 -0.10457052 0.25730172 0.038276538
-0.001732263 -0.024178522 0.022187155 -0.50223309 0.75479585 0.42195374 0.18155229
0.0044786879 -0.023512326 0.026923701 0.84601212 -0.24955729 -0.47115245 0.14725527
0.015052578 -0.023823826 0.02643572 0.071787871 0.99519026 0.066654526 0.18070443
0.025645951 -0.028078532 0.024216229 0.31973758 0.94493431 -0.069764249 0.15507761
0.1976974 -0.025225272 0.025098559 -0.87004715 -0.00050481549 0.49296823 4.9117847e-05
0.47109303 -0.025134539 0.026518047 -0.99890292 0.032074567 -0.034120869 0.018917898
-0.43664238 -0.01403651 0.02122662 0.36953455 0.009783512 -0.92916548 0.0014200787
-0.42172721 -0.01387332 0.026254268 0.28629029 0.01553155 -0.95801699 0.00032751393
-0.41798839 -0.013800614 0.027364805 0.27867383 0.014841067 -0.96027112 0.00041649333
-0.40926033 -0.013457677 0.029466927 0.25722903 0.0097861355 -0.9663009 0.00023075388
-0.1525344 -0.015377387 0.029055925 0.91427511 -0.073666312 0.39833927 0.014917552
-0.14983125 -0.013573241 0.023359265 0.96119118 -0.10521685 0.25503111 0.032002725
0.19813782 -0.016842745 0.025858698 -0.86911488 -0.00088612223 0.49460948 5.5488701e-05
0.47246367 -0.014086134 0.023740048 -0.99743581 0.019942753 -0.068731256 0.019839216
-0.43644005 -0.0058813612 0.02138079 0.37900266 0.012501821 -0.92531115 0.0017197649
-0.4261775 -0.0042890855 0.024943246 0.30107921 0.0044563306 -0.95358872 0.00035992137
-0.41413951 -0.0024706505 0.028352322 0.26292729 0.000555576 -0.9648155 0.00017707566
-0.15155578 -0.0065667666 0.026938111 0.94085938 -0.016825156 0.33837935 0.014653909
-0.14835408 -0.0073303939 0.020202324 0.96101725 -0.042230155 0.27324438 0.024823869
0.1953485 -0.004686296 0.021044599 -0.87242031 0.00088191248 0.48875558 6.007406e-05
0.47228819 -0.0038907309 0.023243481 -0.9966079 -0.024112862 -0.078684457 0.019273298
-0.43351656 0.0025292297 0.022552811 0.33674833 -0.0033095421 -0.94158882 0.0010338888
-0.42489231 0.0047624349 0.025337404 0.29174969 -0.0070093884 -0.95646906 0.00037598395
-0.40783036 0.0013240094 0.029872416 0.24656411 -0.0033348105 -0.96912074 0.00011234696
-0.15142632 0.00095435843 0.026617639 0.93968976 -0.015654109 0.34166962 0.017855311
-0.14937842 0.004348876 0.022307809 0.96512496 -0.011837143 0.26152191 0.020722579
0.19755375 0.0048417505 0.024850685 -0.86851192 0.0015685227 0.49566576 1.9141662e-05
0.47234929 0.0041941069 0.023113579 -0.99699301 0.002238539 -0.077459387 0.019767161
-0.43431166 0.011259601 0.022185402 0.35359603 -0.0017032387 -0.93539667 0.001101046
-0.42361179 0.015517796 0.025632948 0.29652375 -0.019053146 -0.95483541 0.00061142305
-0.41480348 0.018001169 0.028052012 0.27278137 -0.019935245 -0.96186948 0.0002514451
-0.15025403 0.010799104 0.02415566 0.95816106 0.016148251 0.28577363 0.018684939
-0.14951029 0.019873917 0.022595562 0.97667313 0.01963884 0.21383126 0.026196467
0.20016147 0.012637869 0.029351328 -0.86798471 0.001659947 0.49658817 2.5110408e-05
0.47171253 0.01525113 0.025230804 -0.99921262 -0.022981461 -0.032340776 0.017692694
-0.43467665 0.023879366 0.021807067 0.34551316 -0.028492628 -0.93798119 0.00069089857
-0.42530727 0.022051543 0.024992127 0.2988686 -0.023323674 -0.95400918 0.00053138786
-0.41368189 0.024020115 0.028217724 0.26981264 -0.021184534 -0.96267974 0.00026227682
-0.15136662 0.028047144 0.026644498 0.93546093 0.016397258 0.35304946 0.011544148
-0.14834926 0.027009515 0.020155493 0.99465156 0.027746579 0.099491142 0.044353738
0.023670804 0.027467716 0.022865366 0.23916288 -0.96770114 -0.079721816 0.19442278
0.20019242 0.025967941 0.029404767 -0.86881274 0.0011708477 0.49513942 2.1696202e-05
0.47186607 0.024297666 0.024878632 -0.99988073 0.013408478 -0.0076629696 0.019955046
-0.43105018 0.038544469 0.02265062 0.33285213 -0.040565923 -0.94210607 0.00063248607
-0.4092063 0.03575274 0.029008076 0.2555922 -0.033867959 -0.96619123 0.00016182673
-0.15008415 0.033236511 0.023915978 0.97020459 0.045636147 0.23795041 0.025693446
-0.14865208 0.034023203 0.020830959 0.98324132 0.048861973 0.17563859 0.028193794
-0.00054622081 0.036192954 0.025772329 0.86413831 -0.0055889445 -0.50322324 0.13407002
0.033874765 0.034941074 0.022845499 -0.85208374 0.34936929 0.38973624 0.21324971
0.19871795 0.036214367 0.026859939 -0.86977512 -0.00065462157 0.4934479 1.8680168e-05
0.47124606 0.034915589 0.02712531 -0.99937469 -0.03412294 -0.009265515 0.018485861
-0.42121196 0.046232641 0.025388904 0.29352033 -0.045860037 -0.95485216 0.00028940086
-0.41409355 0.049464725 0.027266622 0.2761291 -0.054928336 -0.95954967 0.00029211352
-0.40739954 0.045514584 0.029081956 0.25672781 -0.044702925 -0.96544939 0.00014011245
-0.15008134 0.043835744 0.02399089 0.97307312 0.032706656 0.22816426 0.029829213
0.0090303561 0.044005208 0.023842962 0.85369521 -0.33035678 -0.40257773 0.24141586
0.010007342 0.048687398 0.02342857 0.70283908 -0.59256786 -0.3935487 0.26190746
0.035930488 0.040277638 0.024861209 -0.86142087 0.26022261 0.43616322 0.20935954
0.19650389 0.043872003 0.023038702 -0.87130231 -0.00093840918 0.4907459 4.1717303e-05
0.47103888 0.047187224 0.025265921 -0.99938685 0.0088149514 -0.033886202 0.013754521
-0.43371588 0.050536569 0.020880366 0.3778615 -0.069439061 -0.92325449 0.002316433
-0.41687325 0.054951806 0.02615804 0.28685027 -0.059641622 -0.95611703 0.00045117005
-0.4053897 0.056190565 0.029031061 0.25105932 -0.060063597 -0.96610636 0.00014157635
0.0093826111 0.050950933 0.020724617 0.75506181 -0.49061885 -0.43494233 0.23138972
0.012103267 0.055529695 0.025450714 0.75201875 -0.6055246 -0.26039901 0.1876945
0.037438679 0.053601384 0.028291009 -0.88691777 0.11892594 0.4463557 0.18592443
0.19790575 0.059963532 0.025458153 -0.86916929 -0.00047353242 0.49451435 4.190909e-05
0.46986622 0.055169925 0.028887402 -0.99993396 -0.0089652753 -0.007186092 0.011609388
0.47060183 0.054385971 0.026123637 -0.99945188 -0.0056803995 -0.032614015 0.011406398
-0.42237899 0.066475801 0.023540221 0.31579813 -0.091922142 -0.94436324 0.00075375242
-0.41676548 0.063584335 0.025524667 0.28957433 -0.08069142 -0.95374817 0.00044744823
-0.40363061 0.064111643 0.028966773 0.25188965 -0.064624622 -0.96559578 0.00012115922
-0.39944714 0.069432288 0.029618673 0.25017881 -0.079343796 -0.96494305 0.00010996448
0.013659974 0.066474289 0.02425788 0.76877367 -0.51175159 -0.38353285 0.17594759
0.038040191 0.064059079 0.029666137 -0.87401903 0.28486568 0.39362723 0.22925681
0.19647437 0.06533242 0.022987735 -0.87308013 -0.00090897083 0.48757598 7.4788833e-05
0.47451377 0.064357519 0.024173755 -0.99816364 0.017533222 -0.057981711 0.010610894
-0.42619291 0.072491087 0.021687111 0.33945739 -0.12559851 -0.93219829 0.0014602655
-0.41410387 0.076497346 0.025144035 0.2947728 -0.12400744 -0.94748676 0.00089813792
0.03666481 0.073921978 0.026531138 -0.93559837 -0.16202363 0.31369403 0.18764779
0.19490415 0.078952737 0.020277653 -0.87452787 -0.0012315271 0.48497352 8.3574298e-05
0.47511128 0.075538233 0.025995629 -0.99606997 -0.042561613 -0.077673614 0.0063855909
-0.42449901 0.085568801 0.020604867 0.35223609 -0.1693667 -0.92045897 0.00093201105
-0.39655733 0.081611015 0.029425889 0.25635281 -0.11213511 -0.96005672 0.00037683873
-0.15239692 0.089216053 0.0298086 0.87036985 -0.05012054 0.4898411 0.012331757
-0.14962825 0.088983044 0.023825468 0.96442246 -0.038525552 0.26154372 0.033549022
0.015309379 0.085506804 0.025835982 -0.9258498 -0.15326326 0.34541646 0.22576408
0.035516124 0.082440533 0.023918893 -0.87834817 -0.076202095 0.4719086 0.18860832
0.19663844 0.083583176 0.02327087 -0.87166959 0.0011514787 0.49009258 6.041201e-05
0.47245982 0.08724317 0.027362553 -0.98759526 -0.12939468 -0.088953115 0.00056055724
-0.40351745 0.095023878 0.025896374 0.28035262 -0.14612553 -0.94870955 0.000357179
0.034467053 0.095717683 0.021533176 -0.93641233 0.095392436 0.33768642 0.15799505
0.19516742 0.096732125 0.020732047 -0.8744148 -0.00053886307 0.48517874 9.1695139e-05
0.47104704 0.096493483 0.026926961 -0.98325336 -0.15528454 -0.095391415 0.00031613899
-0.41168341 0.10702106 0.020653281 0.31994 -0.15889379 -0.93401879 0.0007809081
-0.40199113 0.10038653 0.024488663 0.28656358 -0.15802734 -0.94493848 0.00030529493
-0.39343905 0.10593289 0.026134431 0.26290137 -0.16029266 -0.95141423 0.00023667126
-0.38804269 0.10747514 0.027382201 0.25380018 -0.15655825 -0.95450246 0.0001655372
-0.15108538 0.10675462 0.027657852 0.92261624 -0.018649951 0.38526797 0.01421049
-0.148545 0.10301349 0.021894114 0.96529323 -0.0096494155 0.26098999 0.017777089
0.011815505 0.10677824 0.024408195 -0.78325105 -0.44317821 0.43601701 0.23326617
0.03554593 0.10589039 0.023989897 -0.95809847 0.023717385 0.28545529 0.1697392
0.19679414 0.10558927 0.023539633 -0.87017059 0.0021300837 0.49274608 6.7443994e-05
0.47089565 0.10483027 0.023773681 -0.9794687 -0.17631687 -0.097741835 0.00068700576
-0.40528512 0.11335915 0.021741603 0.31685737 -0.34869355 -0.88205111 0.057715993
-0.39370036 0.11448136 0.024961228 0.27931079 -0.21832116 -0.9350515 0.021725902
-0.38360968 0.11578427 0.027396597 0.24908303 -0.15941758 -0.95527148 0.00011433258
-0.37549397 0.11556657 0.02939578 0.24145609 -0.16062534 -0.95702583 6.9419613e-05
-0.15160662 0.11304183 0.02902551 0.87782365 -0.014700728 0.47875839 0.013491889
-0.14819929 0.11175211 0.021429107 0.97785592 -0.023750469 0.20792711 0.028400792
0.0094189011 0.11445622 0.022446539 -0.80685574 -0.37855053 0.4535231 0.2588411
0.035801083 0.11467788 0.024566922 -0.94224632 0.0047275843 0.33488739 0.17225988
0.19634871 0.11621328 0.022770867 -0.87084055 -0.0005518152 0.49156538 6.892583e-05
0.46924192 0.11272468 0.024958014 -0.97421145 -0.19793925 -0.10831477 0.0008029142
-0.39631978 0.12478562 0.022657409 0.38694483 -0.26832923 -0.88219792 0.048838288
-0.37302002 0.12464199 0.02872394 0.24318948 -0.15915228 -0.956833 7.1580987e-05
-0.15171328 0.12013113 0.029466975 0.87265521 -0.030980347 0.4873533 0.01009175
0.0023990087 0.12335247 0.025874572 0.8256681 0.03804525 -0.56287187 0.12618972
0.037471876 0.12379308 0.028366502 -0.87673664 -0.39811388 0.26988548 0.08956521
0.19885132 0.12519686 0.027090199 -0.86852598 -0.0029755116 0.49563473 0.0049249805
0.46590477 0.12605329 0.026961785 -0.95659357 -0.27092877 -0.10736062 0.00066845847
-0.39499059 0.1356812 0.021054409 0.43378344 -0.24398062 -0.86735547 0.066773362
-0.38945144 0.13778687 0.022294497 0.37821913 -0.21960983 -0.89928967 0.028025052
-0.37090519 0.13593468 0.027511736 0.23371938 -0.17647102 -0.95615548 0.00026673256
-0.14931475 0.13090089 0.024737833 0.91447282 -0.017267099 0.40427878 0.025054906
-0.0022201561 0.13537326 0.025276892 -0.63351583 -0.49904326 0.59128118 0.17243601
0.0074624019 0.13933079 0.024398619 -0.56527358 -0.26142955 0.78238124 0.23095967
0.01779804 0.13707811 0.022454677 -0.97008759 -0.16027443 0.18232438 0.28194803
0.029352698 0.13315254 0.027299002 -0.71094072 0.0060700267 0.70322579 0.25976536
0.032166839 0.13191655 0.02599562 -0.93216151 -0.061079789 0.35685307 0.26928812
0.19938676 0.13559842 0.028014349 -0.87515247 -0.048592083 0.481401 0.14355271
0.2001636 0.13704482 0.02935509 -0.83374971 0.023444174 0.5516445 0.18450004
0.46398675 0.13365942 0.023957741 -0.94360965 -0.3131026 -0.10755279 0.0014191689
-0.38445929 0.14401786 0.022484373 0.40225539 -0.19867276 -0.89371115 0.02920967
-0.37757379 0.14636946 0.0238894 0.31015047 -0.23197126 -0.92195225 0.010511616
-0.3630617 0.14255229 0.028125124 0.22256823 -0.19754122 -0.95469415 0.00063054892
-0.15060756 0.14797664 0.029181741 0.7352829 -0.35863668 0.57509887 0.21096139
-0.14827025 0.14667434 0.024038546 0.77101481 -0.42694703 0.47249603 0.22745036
0.19824135 0.14444785 0.026037419 -0.7154156 -0.11246994 0.68958765 0.20724471
0.20017573 0.14024022 0.029376049 -0.76712954 0.077269539 0.63682163 0.20111436
0.45855108 0.14722779 0.024088645 -0.87617862 -0.46295089 -0.13411762 0.0049628862
0.4604497 0.14381661 0.021517433 -0.87621301 -0.46288902 -0.13410647 0.0049105585
-0.38523358 0.15054236 0.020873867 0.42003441 -0.2191028 -0.88066173 0.029132217
-0.37543643 0.15455376 0.022359498 0.31458834 -0.33429474 -0.88841498 0.016131157
-0.3661274 0.15680319 0.023025522 0.22860222 -0.39487091 -0.88984156 0.01147895
-0.35387188 0.15370451 0.027951453 0.21049894 -0.30268592 -0.92955446 0.0068590832
-0.34341803 0.15746643 0.028384889 0.22329673 -0.35527679 -0.90769875 0.010711407
-0.33390731 0.15881723 0.028808475 0.20438741 -0.41713777 -0.88556308 0.016662126
-0.32827982 0.15724891 0.029837307 0.19012372 -0.36299428 -0.91218859 0.010387301
-0.20738252 0.15594693 0.022233311 0.86968052 0.48752585 0.077294469 0.16319285
-0.19711435 0.15607986 0.0249172 -0.46310496 -0.88101792 -0.096650369 0.21975197
-0.18588738 0.15603419 0.023058675 -0.042356227 -0.98012972 0.19378217 0.17857301
-0.17188033 0.15613067 0.02459015 -0.22868139 -0.97024494 0.079559371 0.1846353
-0.16088219 0.15627688 0.027559867 0.85003328 -0.088311665 0.51927304 0.25140935
-0.15296364 0.15594164 0.02697348 0.3400425 -0.8019883 0.49110678 0.23235747
-0.14681169 0.15604235 0.024855364 0.21094067 -0.80837941 0.54956949 0.1567748
-0.13846946 0.15592729 0.02085424 0.42709693 -0.76663643 0.47943386 0.17463249
-0.12756917 0.15608747 0.025788724 0.16628678 -0.84623712 0.5061931 0.12964351
-0.11626223 0.15604292 0.026141465 0.0082212603 -0.86911947 0.49453378 0.14326674
-0.10313257 0.15607843 0.028524302 -0.012033912 -0.90549845 0.42417896 0.10210315
-0.099193513 0.15590401 0.02505333 -0.014860054 -0.89893711 0.43782553 0.11647449
-0.086398959 0.15582006 0.024693985 -0.0031033973 -0.81549633 0.57875383 0.16925928
-0.074932359 0.15575212 0.024490932 -0.056281969 -0.78469211 0.61732548 0.17497961
-0.063793555 0.1557015 0.024654005 -0.0063517652 -0.88337672 0.4686206 0.10901393
-0.052823931 0.15572657 0.026528031 0.0050300276 -0.87774527 0.4791013 0.11699048
-0.044220511 0.15565491 0.025897827 -0.14716998 -0.8665337 0.476928 0.17045468
-0.033976242 0.15550195 0.023057647 -0.066311732 -0.9126491 0.40332907 0.14641123
-0.025142819 0.15563625 0.02636499 -0.12498163 -0.84473729 0.52038306 0.15457956
-0.013649693 0.15540232 0.021294739 -0.3558228 -0.85460037 0.37821731 0.16465059
-0.0082860561 0.15570886 0.02846349 -0.19576609 -0.77395457 0.60222077 0.14776647
0.0053078705 0.1555102 0.024851799 -0.19019742 -0.79296339 0.57882118 0.22763781
0.027254418 0.15523025 0.021305043 0.2892046 -0.93871909 0.18752933 0.25005808
0.045198899 0.1554655 0.027085328 0.35140982 -0.85828245 0.37398168 0.19008571
0.053395331 0.15509582 0.021215044 -0.0089238975 -0.99761701 0.068416536 0.058143832
0.068324544 0.15500699 0.022723764 -0.033072043 -0.99535751 0.090386823 0.047365882
0.073319219 0.15515046 0.026467791 -0.065250076 -0.9676168 0.24384449 0.10310855
0.084762886 0.15501541 0.026675919 0.0012327988 -0.96868247 0.24829997 0.10288946
0.094176106 0.15487659 0.026341712 0.070023477 -0.96910286 0.23650867 0.13053009
0.1016824 0.15465081 0.024006691 -0.017761894 -0.99950284 0.026051912 0.00035481132
0.1151397 0.15457529 0.025631467 -0.027526261 -0.99401909 0.10568076 0.069844939
0.12475441 0.15454018 0.02671307 -0.010073531 -0.99488741 0.10048667 0.060377497
0.1399734 0.15458263 0.029737469 -0.013634027 -0.94570607 0.32473683 0.15493682
0.14837644 0.15399648 0.022129338 -0.0089851608 -0.99970669 0.022488873 0.00043630932
0.15591821 0.15424506 0.02713133 -0.021466959 -0.99454176 0.10210679 0.060377173
0.17261297 0.15416899 0.028747106 -0.12729499 -0.9692651 0.21052565 0.10719953
0.1871317 0.15396763 0.028094292 -0.29936078 -0.94983125 0.090574607 0.17193492
0.19691376 0.15449882 0.02374614 -0.0074531231 -0.99482161 -0.10136359 0.15326637
0.20485595 0.15401195 0.027017163 0.43624905 -0.86258888 -0.2561779 0.23586099
0.21557006 0.1537621 0.029690485 0.5366047 -0.81954747 -0.20099062 0.16546796
0.22431514 0.1535809 0.027580973 0.55216795 -0.79416847 -0.25378504 0.12430225
0.45354927 0.15599553 0.023396363 -0.74444062 -0.64808995 -0.16058522 0.014409238
-0.37365204 0.16269715 0.020928863 0.27705365 -0.43321353 -0.85765219 0.01283936
-0.3629756 0.16488996 0.022636589 0.22416143 -0.50467813 -0.8336975 0.013475426
-0.34641629 0.16372108 0.02704658 0.17988259 -0.47145876 -0.86334753 0.010995431
-0.33636701 0.16160706 0.029683974 0.1540318 -0.48454151 -0.86110032 0.012140475
-0.32985717 0.16615205 0.029654993 0.13611738 -0.54870009 -0.82486379 0.013787865
0.43441451 0.16994403 0.020663878 -0.37584272 -0.91086751 -0.17047767 0.0067074364
0.44524398 0.16339789 0.026649272 -0.57754296 -0.79386783 -0.19031021 0.01180332
-0.35517174 0.17039256 0.021939065 0.18216148 -0.6691885 -0.72041929 0.064581141
-0.33482754 0.17501728 0.021917935 0.085981138 -0.74849498 -0.65754277 0.068656631
-0.32665291 0.17340972 0.025079727 0.1504994 -0.69685274 -0.7012462 0.082481965
-0.31598049 0.17803073 0.020823281 0.089277841 -0.85689539 -0.50770056 0.10476907
-0.3030611 0.17750484 0.023690283 0.11858877 -0.80376524 -0.58300781 0.04099727
-0.29499015 0.17680936 0.025535664 0.12710218 -0.73600543 -0.66493696 0.014792511
-0.28865707 0.17833719 0.024132974 0.079953253 -0.82134902 -0.56479496 0.019397812
-0.27547729 0.17769751 0.026976809 0.071325324 -0.80524606 -0.58863533 0.019875726
-0.26335675 0.17856976 0.026680637 0.10523063 -0.79859698 -0.5925954 0.017998664
-0.25455877 0.17843595 0.027801123 0.048565991 -0.81916672 -0.57149547 0.021526922
-0.24513894 0.17971265 0.026162095 0.05016892 -0.85234457 -0.52056867 0.015172506
-0.23423906 0.17979284 0.026982777 0.023129905 -0.90160328 -0.43194509 0.0097016105
-0.21519214 0.17829426 0.024294477 -0.20869213 -0.90703017 -0.3657102 0.17532587
-0.20913336 0.1758188 0.029650249 -0.23329705 -0.89537138 -0.37931862 0.18418911
0.22986022 0.17935529 0.022179967 0.054220829 -0.96896106 -0.24119388 0.22094817
0.36560366 0.17846195 0.025659623 -0.081616156 -0.96448976 -0.25119397 0.00099772098
0.37392682 0.17757344 0.026149286 -0.092308708 -0.95602095 -0.27839372 0.001634588
0.38629657 0.17742096 0.022572814 -0.097962297 -0.96691614 -0.23553465 0.0011772248
0.40917164 0.17415994 0.024883997 -0.14732757 -0.95754814 -0.24778257 0.001520126
0.41464648 0.1735325 0.024385659 -0.15951835 -0.95805627 -0.23808035 0.0018991142
0.42701432 0.17023058 0.028064089 -0.24328502 -0.92648005 -0.28713593 0.0044867857
-0.27883646 0.18026547 0.021739217 0.077488057 -0.86217141 -0.50065565 0.016407609
-0.26508632 0.18136886 0.020786218 0.02884989 -0.91077811 -0.41188708 0.010335096
-0.25877967 0.18129389 0.021689095 0.039222822 -0.89512187 -0.44409269 0.0093371896
-0.23373681 0.18117066 0.023880802 0.0052427948 -0.9133637 -0.40711102 0.0083634937
-0.22426297 0.18093252 0.02523757 0.0057677445 -0.9204275 -0.39087081 0.0069263377
-0.21592346 0.18174981 0.0234272 -0.02079498 -0.92565465 -0.37779775 0.081215627
-0.20747772 0.18142441 0.025208352 -0.13121876 -0.89161855 -0.43335673 0.14445284
-0.19414531 0.18118382 0.026351148 -0.072074533 -0.84532863 -0.5293625 0.16784488
-0.18685795 0.1812 0.026673175 -0.0027456959 -0.80749977 -0.58986145 0.11092686
-0.17558898 0.18220499 0.024777111 0.22500412 -0.8271994 -0.51489258 0.16878112
-0.16263406 0.18275884 0.023313334 0.45337403 -0.76111269 -0.46385273 0.23981459
-0.15213943 0.18290615 0.023246348 0.87346828 -0.48312601 0.060351897 0.26232538
-0.13265008 0.18257181 0.025483489 -0.037383065 -0.90466499 -0.42448062 0.21586423
-0.12431455 0.18254067 0.025556589 -0.35227418 -0.78239667 -0.51357406 0.21941371
-0.11739082 0.1830363 0.024403168 0.076260485 -0.85453773 -0.51376039 0.11756323
-0.10873944 0.18272364 0.025851961 -0.011292455 -0.82521701 -0.56470287 0.12512708
-0.084796958 0.18392713 0.022418328 -0.067355901 -0.90437287 -0.42139396 0.12470699
-0.07753443 0.18411417 0.022006683 -0.026257614 -0.87879902 -0.4764691 0.13497134
-0.067162342 0.18337144 0.025584757 0.047573451 -0.85970223 -0.50857538 0.10287796
-0.044444975 0.18328178 0.026951753 -0.082814187 -0.72958386 -0.67885876 0.14724442
-0.03682429 0.18417987 0.023609456 0.024097363 -0.90409672 -0.42664784 0.11696692
-0.022541827 0.18373846 0.025236668 -0.21145174 -0.80749071 -0.55067855 0.15231608
-0.013518069 0.18529868 0.024229562 0.018971737 -0.94593978 -0.32378694 0.008329005
-0.0065615014 0.18436897 0.026910767 0.014177356 -0.91649073 -0.39980477 0.046247948
0.0080458671 0.18449491 0.024418034 0.0081750201 -0.93249106 -0.36110061 0.062393468
0.012451854 0.18552458 0.022499098 -0.022886176 -0.96618062 -0.25684887 0.0077063167
0.024312032 0.18297625 0.025926387 -0.035605635 -0.89754713 -0.43947855 0.12164254
0.035380315 0.18460369 0.025019541 0.027530674 -0.9642821 -0.2634429 0.0053948374
0.048340917 0.18356913 0.02998179 0.030407766 -0.88825428 -0.45834464 0.088478662
0.055789694 0.18461865 0.025649689 0.044207118 -0.96047288 -0.27484071 0.075148329
0.065673977 0.18538073 0.022206053 -0.0025027418 -0.97558469 -0.21960941 0.0022113558
0.074879684 0.18544035 0.022210119 -0.0038724954 -0.97689295 -0.21369404 0.0016438845
0.096795864 0.18470781 0.026419148 0.037348017 -0.96124369 -0.27315867 0.055110313
0.10505283 0.18535526 0.023494823 0.0069714622 -0.97357333 -0.22826798 0.0011968139
0.11843218 0.18576019 0.021922719 0.0053622262 -0.97725129 -0.21201713 0.0016116712
0.14503868 0.18541767 0.0240523 0.0027392509 -0.98070425 -0.19547796 0.00091305963
0.15491046 0.18415499 0.029782889 -0.00024968269 -0.96680379 -0.25551957 0.0026979162
0.16243885 0.18447788 0.028380468 0.0037537748 -0.96819884 -0.25015387 0.0026151296
0.17262852 0.18577957 0.022484465 0.00021988414 -0.97888768 -0.20439908 0.0011465541
0.18502784 0.18540636 0.023807466 -0.0034150644 -0.97613788 -0.2171247 0.00097163045
0.19382489 0.18564288 0.024085576 -0.013105892 -0.97800446 -0.20817181 0.0018854039
0.20322298 0.18384948 0.024924641 -0.059994996 -0.96165323 -0.26762596 0.07003589
0.21369246 0.1839323 0.026871037 -0.04197998 -0.97372013 -0.22384566 0.0070204996
0.22452386 0.18448384 0.026340524 -0.012607849 -0.97113222 -0.23820825 0.0083327089
0.23444092 0.18542814 0.022460306 0.00023683379 -0.98254478 -0.18602607 0.011784608
0.24648815 0.18504699 0.02290087 0.018937668 -0.98559391 -0.168065 0.025339106
0.25334117 0.18401496 0.026026983 0.017705169 -0.96691149 -0.25449702 0.0062224264
0.26613215 0.18376255 0.025692882 -0.023156982 -0.9716146 -0.23543344 0.0027555497
0.27042645 0.18411398 0.024117723 -0.010180017 -0.98451793 -0.17498821 0.016549706
0.28617585 0.18316893 0.025376191 -0.045600008 -0.96037942 -0.27494001 0.00021275453
0.2917493 0.18366458 0.022842541 -0.047037996 -0.96081591 -0.27316692 0.00028218506
0.30238053 0.18273747 0.024477089 -0.053971961 -0.96391809 -0.26067021 0.00068441615
0.31396732 0.18242602 0.023602672 -0.053697899 -0.9641788 -0.25976124 0.00074170774
0.32651609 0.18033586 0.028777801 -0.05430349 -0.95145583 -0.30295691 0.00093353709
0.33920521 0.18054226 0.025220349 -0.06218319 -0.96389025 -0.25893801 0.0010999053
0.34292608 0.18062371 0.02406897 -0.074675627 -0.96865219 -0.23693152 0.0010291096
0.35064104 0.18093687 0.020892873 -0.070245169 -0.97338504 -0.21814469 0.0010089943
-0.10075125 -0.18155402 0.030022217 0.18025498 0.78253824 -0.59593797 0.072672322
-0.091940366 -0.18034011 0.032835606 -0.01327146 0.7696811 -0.6382907 0.093634009
-0.08480607 -0.18062405 0.032621223 -0.076153874 0.76887619 -0.63484645 0.094583035
-0.075698912 -0.18180728 0.030708348 -0.068185173 0.71277994 -0.69806558 0.10813721
-0.060571738 -0.18172713 0.031653143 0.076554097 0.76769608 -0.63622499 0.11191645
-0.044358425 -0.18106569 0.03375271 0.010396486 0.78392464 -0.6207689 0.12805915
-0.036040045 -0.18125512 0.033795498 0.020007461 0.81854987 -0.57408702 0.12409564
-0.026014365 -0.18073669 0.035322703 -0.034219243 0.79717267 -0.60278088 0.15053321
-0.014405169 -0.18130457 0.034789864 -0.050593726 0.80898535 -0.58564746 0.12462697
-0.0073852651 -0.18149821 0.034489959 -0.041544974 0.80035484 -0.5980854 0.13520427
0.0056339162 -0.18152449 0.035265252 0.13325796 0.81542772 -0.56331164 0.12813433
0.018119361 -0.18263528 0.032699484 0.012211679 0.81553918 -0.57857293 0.11446536
0.029717181 -0.18171936 0.035508268 0.092187271 0.80478501 -0.58636385 0.12890832
0.035178944 -0.18160391 0.036098763 -0.11317854 0.78648031 -0.60715663 0.13156448
0.043234941 -0.18042487 0.039374188 0.044798788 0.83532006 -0.54793572 0.11545581
0.089630015 -0.18267787 0.03474088 0.090908259 0.83636123 -0.54058802 0.10873024
0.095406093 -0.18227179 0.036104053 0.073790342 0.8196317 -0.56811869 0.11697663
0.10385773 -0.18325953 0.032757305 0.091166385 0.86662036 -0.49056897 0.15690933
0.11739213 -0.18352941 0.031969599 0.030382425 0.90291691 -0.42873996 0.12145714
0.12428331 -0.18320128 0.033351436 0.021952255 0.90521383 -0.42438895 0.13073243
0.13346714 -0.18193047 0.038256284 0.093065299 0.80925417 -0.5800401 0.14746127
0.14212516 -0.18254478 0.036020152 -0.0080222767 0.88274336 -0.46978691 0.14276132
0.15620831 -0.18327788 0.033241212 -0.0094067063 0.94114631 -0.33786851 0.060601786
0.16087899 -0.18350661 0.032508519 -0.086859085 0.90786034 -0.41017684 0.14003871
0.17272156 -0.18276373 0.035255022 0.064108849 0.86387306 -0.49961317 0.12058776
0.19360034 -0.18286775 0.035276193 0.0742497 0.84181023 -0.5346424 0.11971132
0.20603651 -0.1825821 0.036354274 0.082051918 0.88612783 -0.45611948 0.13073714
0.21730509 -0.18132065 0.037958685 -0.06543839 0.81296283 -0.57862699 0.13726237
0.2228453 -0.18144453 0.037365388 -0.12249772 0.78328961 -0.6094684 0.14492045
0.2352453 -0.18180256 0.034949847 -0.027877187 0.84624338 -0.5320667 0.16787361
0.24278909 -0.18106711 0.037155963 -0.014844914 0.81694829 -0.57651979 0.10603588
0.25068223 -0.18190053 0.033734702 0.016648721 0.92815113 -0.37183103 0.042858656
0.26245654 -0.18159953 0.033711053 0.0058971704 0.94459867 -0.32817465 0.0022445663
0.27407506 -0.18116176 0.033784464 -0.036147315 0.94749498 -0.31772098 0.00068146124
0.294083 -0.18022294 0.034421619 -0.037582029 0.93767953 -0.34546304 0.0011155544
0.3022466 -0.1801669 0.033425849 -0.048919324 0.94270051 -0.3300344 0.0010911842
-0.299817 -0.17210747 0.031061199 0.11927345 0.62011957 -0.77538735 0.014206081
-0.28219026 -0.17356409 0.031834759 0.11933073 0.66572565 -0.73659325 0.015766542
-0.27810937 -0.17248482 0.033784613 0.11314996 0.67599177 -0.72817039 0.013246077
-0.26502374 -0.17376919 0.033745933 0.090392753 0.70188159 -0.7065348 0.013042571
-0.25528947 -0.17381333 0.034847777 0.049431168 0.71092737 -0.70152617 0.019850533
-0.24771354 -0.17470038 0.034737334 0.10350328 0.74574649 -0.6581409 0.021332599
-0.23784238 -0.17434067 0.036447428 0.091096945 0.74484456 -0.66099012 0.022560824
-0.22988397 -0.17730099 0.032598369 0.037871718 0.83913243 -0.54260713 0.025149608
-0.21599126 -0.17854251 0.031009898 -0.1084743 0.85617286 -0.50517452 0.11874834
-0.20534936 -0.17431597 0.035275478 -0.045838285 0.85241276 -0.5208562 0.16155402
-0.19361062 -0.17685938 0.034979057 0.098726332 0.80062568 -0.59097517 0.14915138
-0.18875848 -0.17591052 0.036576152 0.060679257 0.78256905 -0.61959958 0.13959177
-0.17532097 -0.17790222 0.033395257 0.46127176 0.643543 -0.61080337 0.20027848
-0.16594428 -0.1774696 0.034318883 -0.13333553 0.76651096 0.62823772 0.27131879
-0.15538338 -0.17470281 0.038812079 0.70349264 0.61042053 0.36398467 0.23911923
-0.14618012 -0.17769416 0.034481883 0.18260323 0.88282478 0.43275449 0.28618839
-0.13028792 -0.17653811 0.036731206 -0.42799649 0.67974406 -0.5956232 0.21531646
-0.11304328 -0.17715894 0.036530789 0.1756472 0.74827349 -0.63971472 0.13797779
-0.099226236 -0.17996576 0.033199262 0.12863009 0.77539068 -0.61824238 0.088331237
-0.086166769 -0.1756641 0.039817903 -0.074254297 0.73933709 -0.66922855 0.12318045
-0.071021497 -0.17873359 0.036277935 0.0014306979 0.75463939 -0.65613806 0.122448
-0.068092212 -0.17776164 0.03782222 -0.044160277 0.75351691 -0.65594369 0.13720658
-0.03439942 -0.17777695 0.03960263 0.06071391 0.75738269 -0.65014255 0.15497053
0.013210074 -0.17987974 0.038940676 -0.010581939 0.8294909 -0.55841982 0.12612832
0.23381254 -0.17905705 0.03014341 0.041133169 0.76684153 -0.64051706 0.23582664
0.29774272 -0.17886928 0.038128503 -0.042250343 0.93627685 -0.34871262 0.0012306997
0.31725845 -0.17994608 0.031787336 -0.060796227 0.94773543 -0.31321129 0.0016024074
0.32798949 -0.17885709 0.033391971 -0.055003326 0.94223297 -0.33041149 0.0011288306
0.33286163 -0.17921308 0.031437133 -0.053306006 0.94901663 -0.31068611 0.0019217057
0.3559756 -0.17601679 0.036021516 -0.076769926 0.94135225 -0.32857633 0.0010185298
0.3671557 -0.17506202 0.036003742 -0.089998007 0.94343448 -0.31911102 0.0015669201
0.37397876 -0.17439264 0.036112148 -0.10181271 0.93411547 -0.34214389 0.0025263405
0.3946248 -0.17260017 0.035139475 -0.10424976 0.92484343 -0.36578217 0.0028536257
0.40377492 -0.17163917 0.034791928 -0.11666137 0.92903465 -0.35111931 0.0030280224
0.41888091 -0.17060584 0.032437947 -0.19283476 0.92716658 -0.32121164 0.0043077259
-0.32086453 -0.16316462 0.032219 0.1383028 0.40872151 -0.90211916 0.0088682547
-0.30522645 -0.16339496 0.034949027 0.15339908 0.47017539 -0.86913967 0.015854279
-0.28211677 -0.16549055 0.038128369 0.14632502 0.4995085 -0.85386199 0.013143873
-0.27835092 -0.16549647 0.038758896 0.14078146 0.51924777 -0.84294862 0.012395501
-0.16223325 -0.16092049 0.039687019 0.39981267 0.78609169 0.47139132 0.26092562
-0.15917504 -0.16012797 0.039278116 0.4583964 0.8070401 0.37223506 0.22690424
-0.14375682 -0.16052179 0.039970253 0.18916893 0.80112642 0.56781298 0.19069885
0.40569615 -0.16955487 0.039699279 -0.10743308 0.89887536 -0.4248307 0.0041456623
0.42598164 -0.16803989 0.035800122 -0.22594768 0.90846169 -0.35163203 0.0050019361
0.43226457 -0.16763107 0.032722328 -0.3387129 0.89173597 -0.3001343 0.0076937228
0.44536728 -0.16203474 0.033008866 -0.53712797 0.81198871 -0.22840299 0.010191934
-0.33529553 -0.15622517 0.031250976 0.19209136 0.3299391 -0.92425162 0.0071358671
-0.32423934 -0.15531616 0.033473354 0.15778495 0.35886559 -0.91995615 0.0084610125
-0.31498873 -0.15921439 0.034394328 0.14013876 0.38443163 -0.91245466 0.0085539017
-0.30609182 -0.15579562 0.03661966 0.16810857 0.3302308 -0.92880952 0.0051589003
-0.29638535 -0.1569545 0.036968213 0.16607578 0.37004372 -0.91404945 0.0083504003
-0.20171249 -0.15798327 0.036393002 0.075358465 0.94532365 -0.31730762 0.20699798
-0.19651383 -0.15653555 0.031313572 -0.11351482 0.99244374 -0.046582229 0.19145478
-0.18468451 -0.15668893 0.032204699 -0.048632696 0.95047534 -0.30697146 0.22136949
-0.17185621 -0.15784675 0.036908001 -0.088513516 0.98640817 -0.13843465 0.27965796
-0.16793835 -0.15763779 0.035357635 0.19897753 0.75106442 0.62953174 0.29207662
-0.15550183 -0.1564178 0.035182834 0.31592819 0.61373693 0.72354424 0.22923686
-0.14336398 -0.15773754 0.035420097 0.20171711 0.8206622 0.53462487 0.15591072
-0.12692584 -0.15824281 0.03928284 0.118518 0.96038306 0.25222597 0.1182235
-0.11716401 -0.15690693 0.034614716 0.19091479 0.95242596 0.23756348 0.16858618
-0.10425702 -0.1563901 0.033198193 0.0035273316 0.9075945 0.41983303 0.18182522
-0.08247631 -0.1563433 0.033486888 -0.17577033 0.94469213 0.27687839 0.18099916
-0.070161507 -0.15757552 0.039508402 -0.058692675 0.94528615 0.3209196 0.16533522
-0.064426444 -0.15651812 0.034939606 -0.22149508 0.92328888 0.31381151 0.17105949
-0.054135058 -0.1562757 0.034319635 0.0041706297 0.90439278 0.42668056 0.14955722
-0.044235274 -0.15632229 0.035271734 0.086572587 0.92536384 0.36906239 0.14146356
-0.033885207 -0.1566851 0.038179781 -0.012123192 0.949821 0.31255907 0.1514791
-0.02461873 -0.15588848 0.032163963 0.018070584 0.90631747 0.42221081 0.12557788
-0.014183166 -0.15616393 0.037009694 -0.17274581 0.81961548 0.54625028 0.12918089
-0.0018546078 -0.15612592 0.035230663 -0.26532581 0.68190479 0.68162167 0.14933325
0.004221892 -0.15579528 0.030766603 -0.48726168 0.56084371 0.66935074 0.21399519
0.015487568 -0.15621179 0.037945874 -0.73954403 0.27370277 0.61494833 0.24342614
0.027650543 -0.15600748 0.036235724 0.92114955 0.13046691 -0.36669043 0.26355922
0.068055928 -0.15566269 0.034496535 -0.14134459 0.91165596 0.38588223 0.11300283
0.073204614 -0.15551627 0.032995738 -0.11614674 0.92864001 0.35233182 0.069593892
0.080889873 -0.15541892 0.033063635 -0.07546439 0.91643476 0.3930046 0.089225709
0.093403205 -0.15531525 0.033601463 0.06635993 0.93969995 0.33550012 0.15484723
0.10785512 -0.15502992 0.031526819 -0.079014219 0.94242448 0.32495064 0.10750605
0.11726647 -0.1550871 0.033867784 0.11341172 0.9056986 0.40847009 0.17138095
0.12340373 -0.15519743 0.036506254 0.38082597 0.78951925 0.48128051 0.18266641
0.13791111 -0.15494791 0.034975648 -0.091559879 0.82999521 0.55020428 0.15629157
0.14484064 -0.15477258 0.033389978 -0.10659835 0.88809025 0.44713804 0.16111651
0.1549136 -0.1547536 0.034704901 -0.024700178 0.92936051 0.36834615 0.1790746
0.16560659 -0.15468433 0.035427187 -0.092384763 0.91326106 0.39676106 0.16775568
0.1799657 -0.15436541 0.032958411 -0.20192684 0.93011135 0.30678707 0.10113198
0.18583798 -0.15450935 0.036124807 -0.33372596 0.87186009 0.35845083 0.13811897
0.19744432 -0.15441372 0.036597125 -0.59864646 0.62693179 0.49857703 0.19302481
0.20412511 -0.15415885 0.033602912 -0.084881663 0.90712893 0.41220406 0.23367029
0.22757301 -0.1541045 0.035754517 -0.68212748 -0.62795717 0.37466231 0.19886442
0.23158713 -0.15378442 0.032192864 -0.67191142 -0.6445092 0.36488762 0.18003477
0.24316579 -0.15417033 0.038031273 -0.81529737 -0.45215043 0.36173218 0.13768254
0.45519957 -0.15058862 0.033885688 -0.74890655 0.63550431 -0.18781178 0.017784402
-0.35331786 -0.14068192 0.030583255 0.21620609 0.1961831 -0.95643461 0.00099503389
-0.34563833 -0.14515325 0.03142086 0.19812521 0.21474333 -0.9563638 0.0011859069
-0.3262735 -0.14746635 0.03508088 0.1934306 0.21311501 -0.95768815 0.00096265122
-0.31499094 -0.14452387 0.037905522 0.19698688 0.20594494 -0.95853162 0.00069839408
-0.3071931 -0.14824384 0.038610682 0.17844908 0.22847067 -0.95705646 0.0012653181
-0.15399382 -0.14828923 0.035004362 0.67894334 0.3431212 0.64907926 0.1770741
0.20220649 -0.14891836 0.032880839 -0.090143822 0.98933554 -0.11440817 0.21521761
0.45743358 -0.14625318 0.033892043 -0.87042683 0.46358722 -0.16566223 0.0061101713
-0.36088258 -0.13165927 0.030377613 0.23686576 0.17227726 -0.956146 0.00066963455
-0.3551957 -0.13126086 0.031777691 0.22220463 0.16674156 -0.96063638 0.00016126034
-0.34570205 -0.13279331 0.033777237 0.2058582 0.18557733 -0.96082437 0.00063709659
-0.33521214 -0.13646078 0.035394371 0.20331325 0.19051374 -0.96040004 0.00051169121
-0.32414162 -0.1358718 0.037798811 0.2037683 0.19339307 -0.95972782 0.00054922368
-0.31169155 -0.13881905 0.0397164 0.18596047 0.19585705 -0.96283883 0.00043785383
-0.15385497 -0.13719067 0.034052722 0.80064481 0.026562074 0.5985502 0.085660934
0.0049216752 -0.13445038 0.034674406 0.87376112 -0.081643112 -0.47945383 0.13414493
0.017044406 -0.13771734 0.03683953 -0.91401285 0.15043323 0.37676293 0.22837336
0.020974765 -0.13709651 0.033601467 -0.96057552 0.27194226 0.057810441 0.25005239
0.039857417 -0.13020805 0.038178734 -0.9814347 0.19081563 -0.019373106 0.16670898
0.20291668 -0.13733229 0.034106597 -0.86750913 0.046092976 0.49528104 0.17225511
0.4620924 -0.13488983 0.035899248 -0.92082214 0.36204356 -0.14495192 0.0033167708
-0.3636612 -0.12471807 0.030869579 0.23092557 0.15799291 -0.96005815 8.235166e-05
-0.35284412 -0.12662613 0.03315543 0.22169602 0.16149785 -0.9616493 0.00013908905
-0.33030167 -0.12093392 0.038854342 0.19769691 0.15719363 -0.9675774 9.5110176e-05
-0.32580346 -0.1248281 0.039235562 0.19677155 0.1609998 -0.96714014 7.4264113e-05
-0.16137107 -0.12743582 0.032308567 0.81145912 -0.098744959 0.57600641 0.064721629
-0.15476125 -0.12458095 0.035134792 0.89500493 -0.071603641 0.4402715 0.061654512
0.0053510899 -0.1238222 0.033505067 0.89434803 -0.061322249 -0.44314918 0.085785665
0.041464902 -0.12216619 0.037636701 -0.82758605 0.5534265 0.093917012 0.13164645
0.20416766 -0.12572642 0.036265682 -0.86577237 0.0080460329 0.5003733 0.0029922272
0.46433461 -0.12761489 0.036670357 -0.94598681 0.29359493 -0.13751718 0.00224766
-0.36329365 -0.11813242 0.031844005 0.23121919 0.15738262 -0.96008772 6.3438558e-05
-0.34394002 -0.11430164 0.036910277 0.21257538 0.15889023 -0.96413982 0.00010823787
-0.3385224 -0.11112142 0.039278988 0.20146228 0.14576203 -0.9685899 0.00027019062
-0.32818004 -0.11854015 0.039698951 0.19501874 0.1548354 -0.96850073 8.7316221e-05
-0.15758145 -0.11537176 0.036664903 0.84374636 -0.15420966 0.51411235 0.076123916
-0.12170482 -0.11752881 0.037638493 0.89199972 0.093190126 0.44232583 0.12367857
-0.11633682 -0.1136662 0.034124251 0.89030254 -0.000661475 0.45536909 0.091449223
0.014846951 -0.1136286 0.035608925 -0.77687675 0.48302338 0.40391928 0.23974082
0.038798198 -0.11841974 0.031430289 -0.89450115 0.41138223 0.17502099 0.20469734
0.040863939 -0.11010138 0.036238037 -0.96121073 -0.018677309 0.27518198 0.19844911
0.20481944 -0.11943224 0.037390586 -0.86591417 1.5476111e-06 0.50019258 2.0628173e-05
-0.3747468 -0.1068664 0.030830754 0.23742768 0.15468094 -0.95901084 0.0001812213
-0.36769375 -0.10952692 0.032045607 0.23136888 0.15170918 -0.9609645 0.00014038381
-0.35037142 -0.10442357 0.037634633 0.22026847 0.14198552 -0.96505022 0.0002857548
-0.34782985 -0.10060824 0.038606312 0.21181381 0.12636027 -0.96910673 0.00044932828
-0.15402132 -0.10370025 0.033940401 0.9040283 -0.16177586 0.39567834 0.097845294
-0.11638435 -0.10577924 0.03451531 0.86962742 0.14848068 0.4708522 0.19116549
0.015660254 -0.10326099 0.033685971 -0.85382324 0.47483802 0.21334201 0.23010318
0.039696243 -0.10689576 0.033520378 -0.91508842 0.046739217 0.40053549 0.20210715
0.041349411 -0.1075824 0.03736791 -0.93001658 0.097787447 0.3542695 0.19009516
0.20273687 -0.10615833 0.033796236 -0.86659658 -0.00097655144 0.49900839 8.6925111e-06
0.47052756 -0.10236372 0.032099083 -0.98009992 0.16951872 -0.10328426 0.00053871353
-0.38455972 -0.095485769 0.030873617 0.2452333 0.14281756 -0.9588868 0.00044069465
-0.3799355 -0.09017776 0.032625768 0.23547943 0.1220432 -0.96418613 0.00058827037
-0.36497954 -0.095600732 0.035505611 0.22207639 0.13239372 -0.96599895 0.00032750264
-0.34998608 -0.098182552 0.038455829 0.21038862 0.11828142 -0.97043604 0.0004412164
-0.15467021 -0.09669511 0.03624874 0.87156302 -0.1181222 0.47584137 0.15237176
-0.13698775 -0.090579286 0.030259941 0.12831739 -0.34353241 -0.93033338 0.24002957
-0.12483977 -0.094213001 0.035365842 0.36833522 0.42631084 0.82618898 0.25499001
-0.11612641 -0.098068014 0.033518706 0.83424568 0.2093375 0.51010984 0.1894961
-0.10968646 -0.091571711 0.03175953 0.83986175 0.12252183 0.52879167 0.13848349
0.017351456 -0.09553539 0.035629336 -0.94798273 0.2754727 0.15951015 0.23268679
0.041695733 -0.095118664 0.038173921 -0.91305101 -0.22843403 0.33786964 0.209915
0.20306438 -0.093623288 0.034361489 -0.86578947 -9.9304139e-05 0.50040835 5.9564409e-06
0.47175872 -0.094818711 0.032862887 -0.98327142 0.15106452 -0.10176842 0.00068675191
-0.3838394 -0.084907025 0.03226107 0.23769408 0.11968114 -0.96393877 0.00050648511
-0.37587628 -0.087668359 0.03384899 0.22401816 0.11477955 -0.96780246 0.00049602351
-0.36372706 -0.082815215 0.036932759 0.21341316 0.087608814 -0.97302598 0.00035978522
-0.35814518 -0.086269781 0.037825368 0.21029899 0.088411294 -0.9736312 0.00032501409
-0.15433939 -0.083888344 0.03423389 0.90065587 0.08142487 0.42683607 0.21410075
-0.1250701 -0.084756993 0.036949985 0.93495739 0.17409563 0.30910432 0.28085816
-0.11194306 -0.085077509 0.036795534 0.97243518 0.051396959 0.22743799 0.21122256
-0.10996142 -0.08089304 0.033639655 0.089119926 0.020356543 -0.99581289 0.22946912
0.019470822 -0.082426548 0.039588332 0.96079677 0.16485721 -0.22291631 0.2056538
0.038728971 -0.08750353 0.031269178 -0.93076408 -0.25677174 0.26028153 0.21716191
0.042241365 -0.085702829 0.039443806 -0.93394446 -0.27650121 0.22648351 0.19817673
0.20426309 -0.086177573 0.036430348 -0.86888725 -0.0013667427 0.49500817 0.00022363679
0.47348416 -0.08218237 0.035336331 -0.98463446 0.1358179 -0.10976578 0.0010391034
-0.38517278 -0.077246815 0.032607354 0.2343166 0.083938226 -0.96852982 0.00022572849
-0.3762958 -0.07368701 0.034971032 0.22142726 0.072376251 -0.97248739 0.00015420656
-0.36667964 -0.07516513 0.036853243 0.20854087 0.067051329 -0.97571248 7.8935562e-05
-0.35560283 -0.073701851 0.039242588 0.19888659 0.064650036 -0.97788781 4.8600155e-05
-0.15464343 -0.07442636 0.034732234 0.92836422 0.11158625 0.3545258 0.18226217
-0.14163186 -0.076316871 0.030072708 0.36173376 0.69659346 0.61960179 0.23566563
-0.13420916 -0.079371527 0.032700457 0.091786198 0.96967924 -0.22648948 0.23229641
-0.12395361 -0.07671836 0.037316721 0.97664183 -0.044329084 0.21025161 0.22165418
-0.11558048 -0.070924744 0.037785746 0.93384153 -0.060460057 0.35254019 0.15417129
-0.10956064 -0.076701522 0.032463331 0.68695056 0.11556059 0.71745706 0.195076
0.017630592 -0.072677776 0.035325728 0.89357078 0.35087144 -0.28003666 0.2168121
0.039660588 -0.078144126 0.03343739 -0.94190389 -0.144574 0.30317548 0.22867399
0.041581709 -0.07317993 0.037908547 -0.92968285 0.016301714 0.36800003 0.22689041
0.20222521 -0.073722593 0.032913163 -0.86691839 0.00026215339 0.49844995 0
0.47398543 -0.07780052 0.036307793 -0.98849261 0.11256944 -0.10104651 0.003119509
-0.39617255 -0.063712426 0.030846512 0.24309756 0.066345282 -0.96773028 0.00010541789
-0.38321587 -0.060860608 0.034235958 0.22415513 0.056479063 -0.97291547 6.5068161e-05
-0.3729775 -0.065940522 0.036153805 0.21131249 0.059716001 -0.97559273 9.049174e-05
-0.36893988 -0.065186821 0.037013859 0.20809518 0.05713911 -0.97643816 5.870144e-05
-0.35686997 -0.065987729 0.039433468 0.19887225 0.053303 -0.97857481 4.9715138e-05
-0.1549692 -0.062254902 0.033865884 0.93887061 0.053101074 0.34015039 0.11724213
-0.12425791 -0.068276711 0.035817541 0.92000151 -0.28108054 0.27311349 0.23084112
-0.11574432 -0.063836284 0.035452012 0.87053859 -0.17199934 0.46106258 0.14847341
0.016928904 -0.062917814 0.036077105 0.91838515 0.23147301 -0.32091907 0.24137361
0.038892537 -0.061510324 0.03164985 -0.94635588 0.10617178 0.30518535 0.24520369
0.20292188 -0.064442918 0.034115564 -0.86649042 0.00066564791 0.49919334 1.7727526e-06
0.47497249 -0.065305866 0.034870286 -0.99756628 0.013659898 -0.068374053 0.0084336344
-0.38497931 -0.054975159 0.034122508 0.22409099 0.049992584 -0.9732852 9.3342656e-05
-0.37445202 -0.055981502 0.036346953 0.20932321 0.046148796 -0.97675693 6.458295e-05
-0.36525393 -0.05667926 0.038185451 0.20043375 0.042738907 -0.97877455 6.5817927e-05
-0.35966802 -0.056755006 0.039310753 0.19622378 0.043168209 -0.97960848 5.9202506e-05
-0.15596196 -0.056136973 0.034789335 0.91133893 0.10615967 0.39773279 0.086255603
-0.11733409 -0.054152284 0.036082726 0.89312428 -0.21611333 0.39449218 0.12673631
0.014110031 -0.055646241 0.031141935 0.78273213 0.55334866 -0.28484315 0.2343168
0.039911315 -0.055995639 0.034020923 -0.85080326 0.2708123 0.4503271 0.22352804
0.04173572 -0.054426786 0.038266987 -0.97755021 0.14165033 0.15598352 0.20697734
0.20314966 -0.051114578 0.034508675 -0.86665434 -4.8279224e-05 0.49890906 2.6259056e-07
0.47624049 -0.054027002 0.03490736 -0.99998879 -0.0047013792 0.00048198152 0.0090622762
-0.4020555 -0.041689776 0.03054291 0.23800391 0.038293242 -0.97050905 7.3143085e-05
-0.39537263 -0.045230385 0.032032173 0.23185734 0.039293721 -0.97195584 7.3206895e-05
-0.38164437 -0.046697602 0.035252053 0.21850973 0.036430836 -0.97515452 5.4799115e-05
-0.37558565 -0.0469607 0.036465272 0.20801224 0.035547651 -0.97748005 4.9774611e-05
-0.36728597 -0.045592569 0.038184654 0.20291658 0.034790121 -0.97857785 3.522943e-05
-0.15783101 -0.045259211 0.036055423 0.90944141 0.15249617 0.38686076 0.040693101
-0.12075728 -0.046599425 0.035133407 0.85741585 -0.36837858 0.35935393 0.079471037
-0.11428102 -0.045117393 0.03354558 0.88711876 -0.21058083 0.4107019 0.052178752
0.013909263 -0.047121905 0.034221258 0.61119533 0.36205509 -0.70381558 0.22529458
0.038783535 -0.047396019 0.031396177 -0.90706843 0.26349786 0.32832271 0.19242056
0.040647864 -0.045926191 0.035735141 -0.95037305 0.24203557 0.19547333 0.19651787
0.2050738 -0.045203339 0.037829597 -0.86358815 0.0050093178 0.50417304 9.3675539e-05
0.47620475 -0.044431958 0.0381134 -0.99815595 0.029664077 -0.052958939 0.020858975
-0.39292467 -0.03689003 0.032926518 0.22675554 0.030354043 -0.97347856 5.2476433e-05
-0.38381568 -0.03100631 0.035253186 0.21600012 0.022781618 -0.97612756 6.5135981e-05
-0.3745257 -0.035945661 0.036995359 0.20576853 0.025853409 -0.97825909 4.6582089e-05
-0.36544228 -0.034384988 0.038842313 0.19689009 0.021615459 -0.9801873 2.7667324e-05
