# .PCD v0.7 - Point Cloud Data file format
VERSION 0.7
FIELDS x y z normal_x normal_y normal_z curvature
SIZE 4 4 4 4 4 4 4
TYPE F F F F F F F
COUNT 1 1 1 1 1 1 1
WIDTH 570
HEIGHT 1
VIEWPOINT 0 0 0 1 0 0 0
POINTS 570
DATA ascii
0.086184785 0.21443558 -0.14184412 -3.9291158e-06 -0.026815614 0.99964041 3.394616e-06
0.094881512 0.21441832 -0.14184457 -9.2646533e-06 -0.026762174 0.9996419 1.4918346e-05
0.1041956 0.21389873 -0.1418585 1.4327801e-05 -0.026799738 0.99964082 9.5113091e-06
0.11463419 0.21475013 -0.14183566 -1.4183193e-07 -0.026807163 0.99964064 1.1468474e-05
0.12488953 0.21477246 -0.14183503 5.5149762e-06 -0.026797125 0.99964088 1.4004647e-05
0.13729608 0.21178257 -0.14191522 -0.10055515 -0.033599652 0.99436396 0.0093707861
0.14557657 0.21520677 -0.14182338 -0.23365232 -0.078514755 0.969145 0.022001289
0.15096746 0.21739273 -0.14176476 -0.35277614 -0.031031322 0.93519312 0.033704516
-0.15403339 0.22315949 -0.14149113 0.56138974 -0.069908224 0.82459342 0.040011935
-0.13295843 0.22380978 -0.14159268 0.046902589 -0.04226372 0.99800497 0.0044820635
-0.11520007 0.22481029 -0.14156587 0.0018580569 -0.029937964 0.99954998 1.9754896e-06
-0.10464174 0.22278899 -0.14162008 0.00045566156 -0.027947182 0.99960929 0
-0.093672395 0.22498821 -0.14156111 0.00055541261 -0.03436869 0.99940914 5.6160887e-05
-0.080761805 0.22648251 -0.14152107 -0.00039373833 -0.031058695 0.9995175 3.7337897e-05
-0.065285712 0.22161838 -0.14165151 -0.00011159113 -0.028558886 0.99959213 9.475044e-06
-0.055468153 0.22406438 -0.14158595 -0.00091481081 -0.031380564 0.99950713 4.5059496e-05
-0.031207435 0.22630651 -0.14152585 0.00060907094 -0.033286136 0.99944568 1.5879177e-05
-0.017240429 0.22455592 -0.14157279 -0.0024326085 -0.033730302 0.99942803 2.9139179e-05
-0.0041130013 0.22322664 -0.14160845 0.00039353222 -0.031165389 0.99951422 1.686515e-05
0.0039026327 0.22555399 -0.14154604 0.00081486686 -0.033062801 0.99945289 2.4700352e-05
0.016847378 0.22577642 -0.14154005 0.00088121847 -0.033518653 0.99943769 3.6449401e-05
0.022354698 0.22588018 -0.14153728 0.0013070457 -0.03253876 0.99946964 3.6077941e-05
0.036029901 0.22572173 -0.14154151 -0.00039385766 -0.030397452 0.99953783 3.2165855e-05
0.043718167 0.22238851 -0.14163089 -8.0843884e-06 -0.027464606 0.9996227 3.4464833e-06
0.058986846 0.22708283 -0.14150499 -0.00063200825 -0.035239913 0.99937868 6.0932696e-05
0.061229426 0.22765434 -0.14148965 -0.00076591794 -0.035401415 0.9993729 6.3835592e-05
0.086839005 0.22648588 -0.14152096 -0.00031765955 -0.032044772 0.99948633 3.0765445e-05
0.094540454 0.22474937 -0.14156751 0.00094423076 -0.031124448 0.99951512 2.7312044e-05
0.10421919 0.22337879 -0.14160426 -0.00094440934 -0.030649774 0.99952978 7.1194868e-06
0.11851985 0.2203598 -0.14168522 0.00011104893 -0.028216491 0.99960178 1.023658e-05
0.12495124 0.22502723 -0.14156003 -0.0058621308 -0.082780652 0.99655056 0.0094772018
0.13464272 0.2271859 -0.14150216 -0.098003201 -0.15528864 0.98299575 0.026879262
0.14528999 0.22560497 -0.14154452 -0.22236708 -0.080909833 0.97159994 0.024920534
0.15356798 0.22528589 -0.14106345 -0.44730619 -0.10604639 0.88807166 0.038928978
-0.15420602 0.23496763 -0.14129345 0.49932072 -0.2142702 0.83950412 0.056282546
-0.14387061 0.23648752 -0.1412527 0.22871095 -0.38047695 0.89606279 0.077996559
-0.13450079 0.23537907 -0.14128244 0.11275826 -0.30560446 0.94545829 0.058180548
-0.12157255 0.23547778 -0.14127979 0.073060483 -0.15892725 0.98458338 0.037739512
-0.11291271 0.23384507 -0.14132358 0.018675469 -0.057347428 0.99817961 0.0011432936
-0.10565278 0.23637924 -0.14125565 0.0012667027 -0.048300479 0.99883205 0.00015372073
-0.09454713 0.23615184 -0.14126176 -0.00092379859 -0.04720442 0.99888486 0.00016310468
-0.084173776 0.23688304 -0.14124216 -0.00063542335 -0.048858587 0.99880546 0.00014344764
-0.072544366 0.23123229 -0.14139369 -0.00028760408 -0.038919169 0.99924231 8.0119687e-05
-0.064620011 0.23412107 -0.14131624 0.0018979458 -0.043913279 0.99903357 0.00011367205
-0.056448966 0.23675728 -0.14124554 -0.0010672681 -0.047488499 0.99887121 0.00015110789
-0.043892357 0.23591058 -0.14126828 -0.00057178753 -0.04256317 0.99909359 0.00010152102
-0.035384685 0.23435968 -0.14130986 -0.0035723941 -0.042064074 0.99910849 8.7617467e-05
-0.024568543 0.23651291 -0.14125213 -0.0043632053 -0.049616538 0.99875879 0.00017708806
-0.011697568 0.23307149 -0.14134443 0.00057880214 -0.041154798 0.9991526 9.5576564e-05
-0.0074087502 0.23850918 -0.14119861 0.0021161346 -0.053138103 0.99858493 0.00014329844
0.013438718 0.23859444 -0.14119633 0.0034572589 -0.048405774 0.99882179 0.00014900055
0.02656419 0.23489058 -0.14129564 -6.3336243e-05 -0.044669874 0.9990018 0.00012627772
0.034590784 0.23402749 -0.14131877 0.001145454 -0.042574562 0.99909264 0.00011849382
0.042468883 0.23908523 -0.14118312 -0.0018111374 -0.049830109 0.99875599 0.00016023759
0.053550415 0.23767164 -0.14122103 0.0015064833 -0.048672218 0.99881363 0.0001616887
0.062730983 0.23391654 -0.14132173 -0.0018332454 -0.042452239 0.99909681 7.7340716e-05
0.074484788 0.23257075 -0.14135781 0.00029233762 -0.039986182 0.99920017 9.6896023e-05
0.084326133 0.23441789 -0.14130826 1.7297689e-05 -0.041994456 0.99911785 8.3895618e-05
0.096209511 0.23749238 -0.1412258 -0.0026354217 -0.050805919 0.99870509 0.00016233927
0.11349573 0.23422302 -0.14131343 -0.04455464 -0.077760726 0.99597597 0.0083846617
0.1233274 0.23191243 -0.14137541 -0.066223912 -0.16737337 0.98366696 0.038546033
0.13370717 0.23529664 -0.14128464 -0.088123508 -0.30697256 0.94762975 0.072448544
0.14775395 0.23705152 -0.14123757 -0.31087068 -0.33051443 0.8911339 0.062901944
-0.15497556 0.24023454 -0.14115222 0.4291347 -0.25649676 0.86605591 0.10524933
-0.14695257 0.24209408 -0.14110236 0.25848183 -0.21092503 0.94270766 0.14393672
-0.13387083 0.24702108 -0.14046982 0.23527692 -0.051376339 0.97056955 0.1762584
-0.12823609 0.24427217 -0.14099085 0.18134645 -0.095985733 0.97872376 0.12345645
-0.1181623 0.24594104 -0.14086354 0.10061317 -0.090185218 0.99082977 0.062908851
-0.10558432 0.24584973 -0.14089891 0.066915505 -0.097048469 0.99302769 0.013948197
-0.095579617 0.24217099 -0.14110032 -0.00093532505 -0.058981866 0.99825859 0.00018785604
-0.084036253 0.24488829 -0.1409225 -0.00065015454 -0.066179097 0.99780756 0.0002059636
-0.077342115 0.24567795 -0.14087772 0.00030957782 -0.073022269 0.99733025 0.00016212919
-0.060756106 0.24579865 -0.14094961 0.0032370905 -0.071343943 0.9974466 0.00019381728
-0.052469801 0.24325304 -0.14098117 0.0010581891 -0.061161395 0.99812728 0.00019189062
-0.047936048 0.24433352 -0.14092992 0.0022263005 -0.063738376 0.99796414 0.00021336346
-0.036538206 0.24750805 -0.14077052 -0.0024455851 -0.074661426 0.99720597 0.00015573383
-0.021719001 0.2460618 -0.14088732 -0.00010123142 -0.06744425 0.99772304 0.00022940978
-0.018893899 0.24871805 -0.14064378 -0.00028910409 -0.071842082 0.99741602 0.00020280883
-0.0070249606 0.2489634 -0.1406181 -0.0016564801 -0.075172514 0.9971692 0.00021478625
0.0056935884 0.24671915 -0.14081049 -0.003608712 -0.070320837 0.99751794 0.00021671133
0.015761971 0.24473876 -0.14098494 0.0008765923 -0.069402181 0.9975884 0.00018685576
0.023548165 0.2457128 -0.14091222 0.00071829808 -0.071598671 0.99743325 0.00020538681
0.035863556 0.24573928 -0.14094043 0.0009664463 -0.071639679 0.99743003 0.00020380688
0.042755648 0.24333316 -0.14101893 -0.0021299317 -0.061058294 0.99813199 0.00022215451
0.055625081 0.24412538 -0.14099978 -0.00023345901 -0.059879903 0.99820548 0.00021377421
0.06391035 0.24507391 -0.1408892 0.0011328493 -0.065842949 0.99782938 0.00022613729
0.074181855 0.24432039 -0.14094061 -0.00072471733 -0.066655025 0.99777579 0.00017368152
0.085978694 0.24151526 -0.14111793 -0.0020534778 -0.057094712 0.99836665 0.00017864747
0.093851097 0.24552047 -0.14095898 -0.0029751011 -0.069173932 0.99760014 0.00018989011
0.1054071 0.24502109 -0.14094301 -0.048751134 -0.083851799 0.99528497 0.0087041892
0.11672425 0.24801131 -0.14071751 -0.20169038 -0.17816222 0.96310914 0.058757778
0.12539783 0.24513894 -0.14099315 -0.19498634 -0.32910258 0.92394358 0.10162733
0.13408533 0.24348383 -0.14103219 -0.11942083 -0.31675541 0.94095945 0.10742191
0.14438115 0.24485214 -0.14092062 -0.16201298 -0.20439795 0.96538758 0.16349912
0.15376443 0.2458784 -0.14088133 -0.44666195 -0.081874013 0.89094877 0.15246317
-0.10230847 0.25327343 -0.14016603 0.015185495 -0.089933313 0.99583197 0.00062520808
-0.097432502 0.25458953 -0.1400281 0.0087673515 -0.090219602 0.99588329 0.00029859215
-0.076022066 0.25347903 -0.14014457 3.3528224e-05 -0.082590237 0.99658358 0.00011855228
-0.053147763 0.2514134 -0.14036116 0.001974606 -0.078783572 0.99688983 0.00018777634
-0.04231647 0.2508049 -0.14042497 0.0021299897 -0.077812105 0.99696577 0.00018140649
-0.035441868 0.2523739 -0.14026055 0.00047427625 -0.085831173 0.99630952 0.00014267833
-0.014221931 0.25394338 -0.14009614 -0.00089008786 -0.082677193 0.99657595 0.0001564712
-0.0082586398 0.25063688 -0.1404427 -0.00051022158 -0.076809995 0.99704564 0.00022318706
0.0041305884 0.25252792 -0.14024451 -0.0029309422 -0.083508007 0.99650282 0.00017870309
0.016102236 0.2509236 -0.14041263 -0.00021381785 -0.079266146 0.99685341 0.00020155699
0.022648565 0.25412241 -0.14007732 0.00055014691 -0.08160425 0.99666464 0.0001829575
0.0439138 0.2528196 -0.1402138 -0.0031584601 -0.083278328 0.99652135 0.00014821345
0.063775934 0.25327843 -0.14016566 -0.00051578373 -0.080445424 0.99675888 0.00015464569
0.074207433 0.25381052 -0.14010984 0.0032713136 -0.083694153 0.99648613 0.00016061903
0.082500502 0.25095436 -0.14040917 -0.00040256471 -0.079576477 0.99682873 0.00020039269
0.091657244 0.25209787 -0.14028929 0.00036343216 -0.081063084 0.99670893 0.00018364229
0.10518914 0.25282663 -0.14021286 -0.075472683 -0.079995632 0.99393392 0.0094325906
0.12598877 0.25115675 -0.1403878 -0.1843612 -0.24789134 0.95108396 0.17348871
-0.15039814 0.26835531 -0.14489082 0.63172299 0.58772027 0.50548089 0.2071604
-0.1403666 0.26739416 -0.14425617 0.14917083 -0.69695675 -0.70142657 0.23343439
-0.12869468 0.26943189 -0.14311615 0.58453512 -0.6059913 -0.53953063 0.2222311
0.14582977 0.26745558 -0.14190271 -0.72815889 0.55988419 0.39536604 0.24248853
0.15227133 0.26897579 -0.14638026 -0.87341815 0.38406846 0.29938605 0.18560536
-0.15767923 0.27327996 -0.14640091 -0.71626478 -0.67517519 -0.17636111 0.12187387
-0.12601024 0.27273071 -0.14882492 0.73479813 -0.42049885 -0.5322147 0.16409251
0.15757442 0.27324075 -0.14812645 -0.91811758 0.39249566 0.054838181 0.079244122
-0.15885791 0.28867704 -0.14880534 0.9857204 0.16491857 0.034014702 0.060181975
-0.12399285 0.28688365 -0.14412618 0.858886 -0.19699268 -0.47276703 0.1686023
0.15911104 0.28477332 -0.1431213 -0.96932179 0.24208976 0.042517502 0.048040524
-0.12669444 0.29467914 -0.14303425 0.98512852 0.057432711 -0.16193607 0.22629806
0.12669761 0.29600084 -0.1495502 0.83126944 -0.28289065 0.47850168 0.21739613
0.15455393 0.29320192 -0.14404385 -0.98918569 0.11445479 0.091715433 0.083174869
-0.15401193 0.30546603 -0.14384697 0.84258348 0.44260457 0.30684564 0.20723915
-0.12669468 0.30037352 -0.14631745 0.9758203 0.20194721 -0.08361803 0.24224462
0.12669826 0.30893445 -0.14013422 -0.96222836 -0.034544643 -0.27004275 0.22992243
0.15243134 0.30422366 -0.14567192 -0.3993749 -0.9162693 -0.030825667 0.28286648
-0.15891308 0.31017119 -0.14105372 0.98835039 0.14157014 0.055869989 0.032162696
-0.12669514 0.31604767 -0.14558993 0.91425914 -0.12579949 -0.38510352 0.18697315
0.1266984 0.31561089 -0.14296983 -0.93162221 -0.1240481 -0.34160227 0.17136703
0.15994292 0.31179851 -0.14158794 -0.99055415 0.11210098 0.078966945 0.027873106
0.16139233 0.3171649 -0.14655 -0.98572373 0.12351006 0.11442865 0.026417315
-0.16350845 0.32651556 -0.14521405 0.97231811 0.15379223 0.17591311 0.029065888
-0.12669554 0.32522157 -0.1433824 0.98007971 -0.050668202 -0.19203235 0.13197874
0.16344161 0.32557154 -0.14630435 -0.97995293 0.027300315 0.19734974 0.027957693
-0.16349572 0.3313801 -0.14661515 0.98386288 -0.077132039 0.16144457 0.031965539
0.126699 0.33328775 -0.14559595 -0.98790193 0.022448212 -0.15344623 0.081314899
0.1635264 0.33444512 -0.14408945 -0.98068976 -0.12314641 0.15192984 0.025450192
-0.160528 0.34378105 -0.14146638 0.97703856 -0.21305953 -0.0010867424 0.023956861
-0.1266963 0.34508872 -0.14260404 0.96092075 0.19068182 -0.20067817 0.21815915
0.12669937 0.34414333 -0.14622585 0.84125173 -0.13333775 0.52394336 0.18053403
0.15970109 0.34141251 -0.14854509 -0.98721969 -0.1337786 0.086605899 0.028192863
-0.15175721 0.35443559 -0.14576003 0.96371877 -0.16258533 0.21168853 0.26701063
-0.12669659 0.35739675 -0.1442029 0.85964411 -0.17548364 -0.47980979 0.24006158
0.12669972 0.35062402 -0.14749134 -0.9324407 -0.019439498 -0.36079976 0.19254443
0.15242557 0.35248518 -0.14507927 -0.93420637 -0.20879368 0.28924668 0.26622844
-0.15462933 0.3641775 -0.14625384 0.9970929 -0.043866325 0.062301371 0.15210752
-0.12630218 0.36330026 -0.14617106 0.88622344 -0.082093708 -0.45592606 0.19291215
0.15319909 0.3634288 -0.14317092 -0.99742466 -0.064544968 0.03127262 0.12322438
-0.15947407 0.37357199 -0.14535156 0.97911727 -0.20282035 0.013904585 0.071593165
0.12332203 0.37504813 -0.14614694 0.87579668 -0.36293966 0.31820589 0.12158389
0.15904482 0.37908667 -0.14388764 -0.9417721 -0.33536422 0.024415286 0.082239956
-0.15772 0.38330072 -0.14488184 0.84784502 -0.52538377 0.071629658 0.096816123
-0.14432076 0.38899064 -0.14319137 0.22756056 -0.95044678 0.21181878 0.11309692
-0.13357484 0.38870797 -0.14243175 -0.43059358 -0.80682409 0.40450469 0.13464236
-0.12447944 0.38210598 -0.14264059 -0.82765061 -0.44972628 0.33576879 0.16376527
0.12720312 0.38494611 -0.1472625 0.69031614 -0.66785091 0.2782782 0.092633277
0.14734988 0.38868812 -0.1449106 -0.27606758 -0.92423618 0.263769 0.11406509
-0.00411588 -0.45118859 -0.13016692 0.029484335 0.33316791 0.94240636 0.015696907
0.018367846 -0.4503403 -0.1301191 -0.051012132 0.32903203 0.94294 0.018627791
-0.044876933 -0.44198018 -0.13029921 0.0230639 0.23543011 0.97161758 0.010326739
-0.03377967 -0.44345188 -0.13030428 0.02741367 0.23095542 0.97257805 0.013412431
-0.025494101 -0.44490537 -0.13028824 0.063131519 0.27453619 0.9595021 0.013799293
-0.015438454 -0.44247156 -0.13041332 0.027566178 0.22925432 0.97297615 0.013799419
-0.006103619 -0.44470102 -0.13035189 0.040118273 0.21907006 0.97488397 0.011716189
0.0017756836 -0.44747791 -0.13027394 0.00546803 0.27884337 0.96032107 0.013916302
0.012067325 -0.44288075 -0.13039865 -0.033358961 0.19365253 0.98050284 0.011024802
0.023451718 -0.44726044 -0.13021216 -0.033433247 0.27657714 0.96041 0.014446356
0.042013157 -0.44906884 -0.13003248 -0.036975671 0.36408076 0.93063313 0.017452586
0.050398253 -0.44174314 -0.13027579 -0.024170123 0.17664596 0.98397768 0.00829094
-0.072040997 -0.43386716 -0.13038243 0.03366543 0.221183 0.9746511 0.0069233566
-0.05591077 -0.43457288 -0.13052991 0.017228708 0.13294312 0.99097389 0.0044291643
-0.047020897 -0.43734276 -0.13047086 -0.010445638 0.14652355 0.98915195 0.0044880211
-0.035371654 -0.43647277 -0.13056032 -0.00251414 0.16356397 0.98652953 0.0065351911
-0.025577914 -0.43159825 -0.13071963 0.013781595 0.1048054 0.99439722 0.0042802971
-0.013488114 -0.43730512 -0.13055944 0.023716314 0.1317032 0.99100542 0.0067014387
-0.005083737 -0.43387032 -0.13065583 0.0066912202 0.055478573 0.99843752 0.0010718164
0.00061849802 -0.43154123 -0.13072121 -0.0048538921 0.051269691 0.99867308 0.00095493562
0.017316047 -0.43331441 -0.13067146 -0.021472324 0.086031131 0.99606109 0.0043856995
0.024377374 -0.43363434 -0.13066247 -0.008999275 0.1087141 0.99403226 0.0041612065
0.033181109 -0.43374643 -0.13065934 0.0031910713 0.11108708 0.99380553 0.0044655218
0.045475088 -0.43230146 -0.13067935 -0.014521967 0.08415103 0.99634719 0.0021321489
0.058181413 -0.4325197 -0.13059822 -0.015250098 0.10442305 0.99441612 0.0026542852
0.068493254 -0.43598261 -0.13039868 -0.031537015 0.13689505 0.9900834 0.0043667285
0.075221002 -0.43344513 -0.13033912 -0.049333181 0.14807095 0.98774552 0.0060281898
0.081625089 -0.43096054 -0.13027224 -0.045023259 0.16556479 0.9851706 0.0057057408
-0.090707704 -0.42301509 -0.13058436 0.025342636 0.071922123 0.99708825 0.00051239663
-0.083282068 -0.42255616 -0.13084818 0.019837283 0.065767407 0.99763781 0.00045273014
-0.077799901 -0.42419481 -0.13081521 0.020327993 0.064732544 0.99769557 0.00053147366
-0.067655146 -0.42428488 -0.13087064 0.013247867 0.048721191 0.99872458 0.0001436161
-0.052320164 -0.42444706 -0.13092035 0.0043101539 0.033246946 0.99943793 1.5157975e-05
-0.044183481 -0.42471564 -0.1309128 0.0070955129 0.052235246 0.9986096 0.001048194
-0.031823706 -0.42408013 -0.13093062 0.00098357478 0.029801235 0.99955535 9.8505097e-06
-0.024868732 -0.42595974 -0.13087787 0.00095935317 0.029470278 0.99956512 5.4315788e-06
-0.019428803 -0.42281881 -0.13096601 0.0003959022 0.028711509 0.99958766 0
-0.0072502699 -0.42098978 -0.13101733 -4.9922774e-06 0.028107587 0.99960488 0
0.0040723807 -0.42306513 -0.13095908 -1.9495071e-06 0.028063066 0.99960613 7.1481531e-06
0.012750854 -0.42302001 -0.13096035 -0.00028164004 0.028579388 0.99959147 1.4536854e-05
0.033443417 -0.4294692 -0.13077937 -4.2799693e-05 0.071704604 0.99742591 0.0021314952
0.047709897 -0.42435789 -0.13092285 -0.004729162 0.058521587 0.99827492 0.00097387185
0.052538179 -0.42540377 -0.13089198 -0.0045279046 0.060410578 0.99816328 0.00083358923
0.063283138 -0.42879972 -0.13071653 -0.015278214 0.091900498 0.99565095 0.0024645517
0.076565504 -0.42679128 -0.13071851 -0.010196896 0.094087712 0.99551171 0.0020763143
0.085318968 -0.4261415 -0.13054456 -0.026198525 0.096622162 0.99497628 0.0014958697
0.091629602 -0.42509082 -0.13035034 -0.045620762 0.095271483 0.99440539 0.0013432968
-0.12398878 -0.41247997 -0.13007782 0.036974914 0.085278444 0.9956708 9.5614545e-05
-0.11206613 -0.41686749 -0.13017125 0.038175162 0.083355583 0.99578834 0.00037734388
-0.10433848 -0.41279981 -0.13089441 0.028765872 0.066391155 0.99737895 0.00014137571
-0.09336663 -0.41943169 -0.13079089 0.026533131 0.071541466 0.99708468 0.00048703142
-0.085061371 -0.41665399 -0.13107325 0.019305017 0.053611025 0.9983753 0.00016365106
-0.074981004 -0.41472447 -0.13117956 0.0096278181 0.041431867 0.99909496 0.00011130949
-0.062030464 -0.41415644 -0.13120916 0.002698689 0.034031533 0.99941707 4.1995434e-05
-0.059399966 -0.41533267 -0.13117614 0.0028226885 0.033858348 0.99942273 2.7671689e-05
-0.040902764 -0.41479436 -0.13119124 0.00058062881 0.029741718 0.9995575 2.9857765e-06
-0.034575675 -0.4139922 -0.13121374 0.00059390883 0.029747115 0.99955726 0
-0.02670081 -0.41696027 -0.13113044 0.00040591322 0.028858684 0.99958342 3.1963305e-06
-0.014261676 -0.41567355 -0.13116655 7.231754e-05 0.0281562 0.99960357 6.0791062e-06
-0.0061995159 -0.41525447 -0.13117829 -2.8804263e-05 0.028641259 0.99958974 0
0.0036185246 -0.41382492 -0.1312184 -0.00022719183 0.028769504 0.99958605 1.2478026e-05
0.017890839 -0.41857561 -0.13108508 -9.9131954e-05 0.028482134 0.99959433 0
0.031708814 -0.41798463 -0.13110168 -5.9293368e-05 0.02810768 0.99960488 6.420591e-06
0.045298081 -0.41731176 -0.13112059 -0.0011091097 0.029944776 0.99955094 0
0.054008629 -0.41388854 -0.13121666 -0.002544889 0.031107215 0.99951279 1.3798835e-05
0.063966349 -0.41624218 -0.13115062 -0.0074094213 0.036159441 0.9993186 6.7372959e-05
0.076682232 -0.41592416 -0.13113418 -0.0071899961 0.039856851 0.99917954 5.6493955e-05
0.085449748 -0.41503227 -0.13113531 -0.014086855 0.04523208 0.99887717 7.5415788e-05
0.095867738 -0.41681686 -0.13091481 -0.02541407 0.060031038 0.99787295 0.00022805503
0.1037166 -0.41423437 -0.13077801 -0.030257801 0.061769806 0.99763167 0.000171932
0.11324477 -0.41183457 -0.13057181 -0.031582769 0.079565339 0.99632925 7.4330703e-05
-0.15255392 -0.40067607 -0.13014236 0.31095025 0.15480275 0.93773454 0.031160254
-0.14411472 -0.40507138 -0.13020609 0.20064269 0.12207996 0.97202826 0.017761713
-0.13200215 -0.40470344 -0.1304335 0.040623389 0.090090416 0.99510473 0.00038167671
-0.12429354 -0.40744933 -0.13050777 0.029304262 0.082700722 0.99614346 0.00011956917
-0.11499294 -0.4074018 -0.13090967 0.030411312 0.074886329 0.99672824 9.3765593e-05
-0.10530707 -0.40536082 -0.13140535 0.020374708 0.062720388 0.99782312 0.00014819024
-0.092556387 -0.40349939 -0.13150826 0.0114403 0.049227711 0.99872208 0.00011279537
-0.08456824 -0.40231466 -0.13154152 0.003220435 0.041295469 0.99914181 3.8222726e-05
-0.075241745 -0.40306106 -0.13152057 0.0012095224 0.039537605 0.99921739 3.5121077e-05
-0.063363388 -0.40465468 -0.13147582 0.00089724455 0.03364357 0.99943346 7.0774713e-06
-0.054121625 -0.40557742 -0.13144992 0.00093327125 0.031333998 0.99950856 2.328705e-06
-0.043744799 -0.40188015 -0.13155366 0.00093999348 0.038157109 0.99927133 4.3945893e-05
-0.035843544 -0.40613824 -0.13143416 0.00054591236 0.032161828 0.99948251 1.262432e-05
-0.028282538 -0.40538937 -0.13145517 0.0002653297 0.0322861 0.99947864 2.1582107e-06
-0.01611946 -0.40071264 -0.1315864 -0.00061374024 0.038301956 0.99926597 3.8884078e-05
-0.0012880727 -0.40694305 -0.13141154 -0.00021937303 0.030496798 0.99953479 6.8639048e-07
0.0058374181 -0.40624636 -0.1314311 -0.00052096305 0.033067308 0.99945307 2.7079179e-05
0.018737936 -0.40360343 -0.13150528 0.00033045825 0.033822801 0.9994278 1.3554863e-05
0.021116599 -0.40952635 -0.13133906 -0.00012708359 0.029188221 0.99957395 2.8937991e-06
0.035027914 -0.40531811 -0.13145718 2.7518123e-05 0.033875898 0.99942607 2.791995e-05
0.045741361 -0.40349063 -0.13150847 0.00066958327 0.035082165 0.99938416 2.2995966e-05
0.05573903 -0.40539694 -0.13145499 -0.00056047493 0.032221828 0.99948055 0
0.067372859 -0.4018259 -0.1315552 -0.001052037 0.034982067 0.99938738 1.0198665e-05
0.0721021 -0.40507397 -0.13146406 -0.0037206111 0.038188286 0.99926358 2.0811047e-05
0.085750967 -0.408831 -0.13135864 -0.011028961 0.043106418 0.99900961 8.2830433e-05
0.096986189 -0.40322974 -0.13151585 -0.012812643 0.04993939 0.9986701 0.00011379005
0.10569403 -0.40374213 -0.13146177 -0.018464923 0.061671697 0.99792564 0.00019196312
0.1159428 -0.4029094 -0.13126703 -0.021120809 0.074973769 0.99696177 0.00015259281
0.12925458 -0.40682995 -0.13035929 -0.047972847 0.091712788 0.99462926 0.00035736011
0.13839519 -0.40398893 -0.13032162 -0.11336499 0.10722066 0.98775107 0.0045510298
0.14660169 -0.40508699 -0.13020444 -0.27264747 0.13341182 0.95281935 0.022998152
-0.15042248 -0.39201239 -0.13159996 0.25714672 0.10265239 0.96090478 0.020027103
-0.14808099 -0.39274326 -0.13152196 0.22411282 0.10781929 0.96858066 0.019766841
-0.13435262 -0.39411181 -0.13137636 0.035785962 0.085270807 0.99571496 0.00065300026
-0.12835969 -0.39074779 -0.13181448 0.016251162 0.084657237 0.99627757 0.00016160855
-0.11509337 -0.39159617 -0.13184236 0.011265323 0.071905129 0.99734783 0.00012870751
-0.10525195 -0.39599577 -0.13171887 0.01244004 0.062008057 0.99799806 0.00012313981
-0.095618412 -0.39405558 -0.13177331 0.0045585246 0.049954075 0.99874109 8.5410036e-05
-0.082056478 -0.39588171 -0.13172206 0.0020711261 0.040979832 0.99915779 4.0814666e-05
-0.078378528 -0.39682549 -0.13169557 0.0016746576 0.04005776 0.99919593 2.2668481e-05
-0.063510604 -0.39431655 -0.13176596 -0.0011167028 0.044352651 0.99901533 4.1990883e-05
-0.056425799 -0.39536622 -0.13173649 0.0011545559 0.041945856 0.99911922 4.7907484e-05
-0.04601166 -0.39562696 -0.13172916 0.0021639445 0.039749715 0.99920732 3.3677996e-05
-0.035407212 -0.39395726 -0.13177601 -8.7899403e-05 0.045551766 0.99896199 3.4659297e-05
-0.022087321 -0.39503655 -0.13174571 -8.8662928e-05 0.041862857 0.99912339 4.1046806e-05
-0.0063983644 -0.39498895 -0.13174704 0.00043929133 0.042831145 0.99908227 7.0289054e-05
0.0045392918 -0.39484763 -0.131751 -0.00077962386 0.041157778 0.99915236 5.3524862e-05
0.01906137 -0.39720488 -0.13168487 -8.9508641e-05 0.037665032 0.99929041 2.4275396e-05
0.026570624 -0.3939949 -0.13177495 -0.00068681512 0.044433534 0.99901217 5.8412606e-05
0.035645489 -0.39239186 -0.13181996 0.0010645734 0.045302868 0.99897271 5.681923e-05
0.042949025 -0.39545476 -0.131734 0.0018015779 0.039371718 0.99922299 2.9818804e-05
0.054324303 -0.39696893 -0.1316915 -0.00084707281 0.038459338 0.99925983 3.4765086e-05
0.077732518 -0.39314333 -0.13179889 -0.00092595274 0.045600828 0.9989593 4.1936495e-05
0.08353889 -0.39217764 -0.13182601 0.00052675063 0.046641849 0.99891156 4.03919e-05
0.094876915 -0.39694232 -0.13169229 -0.0049622837 0.048055209 0.99883235 5.4791821e-05
0.10839526 -0.39281708 -0.13180807 -0.0093118036 0.057402827 0.99830765 0.00011383327
0.12602252 -0.39082962 -0.13183032 -0.013993669 0.082405291 0.99650067 0.00012940566
0.13512726 -0.39472893 -0.13130996 -0.079256058 0.096178077 0.99220377 0.003086942
0.143813 -0.39606661 -0.13116723 -0.24261425 0.073408633 0.96734148 0.022650413
-0.15429416 -0.38551784 -0.13114336 0.35599101 0.1025537 0.92884499 0.027885016
-0.14427382 -0.38261059 -0.13248673 0.13582708 0.091762953 0.9864738 0.0054497616
-0.13761051 -0.38206148 -0.13253543 0.084055938 0.090419166 0.99235022 0.004220746
-0.12821355 -0.38845897 -0.13196558 0.014223358 0.084727295 0.99630266 0.00017166992
-0.11891266 -0.38949206 -0.13190138 0.0097038168 0.074610166 0.99716556 0.0001362958
-0.10639329 -0.38822687 -0.13197209 0.0045668124 0.064382061 0.99791485 8.3820727e-05
-0.095145851 -0.38419378 -0.13225195 -0.0010033767 0.058592986 0.99828142 6.6417197e-05
-0.086690038 -0.38179368 -0.13241851 -0.0019372015 0.063019387 0.9980104 4.9661419e-05
-0.070667915 -0.38802207 -0.13198623 0.00071627094 0.049182139 0.99878961 6.0027185e-05
-0.069865324 -0.38880268 -0.13193204 0.00063989277 0.049151715 0.9987911 5.3057051e-05
-0.056644142 -0.38522464 -0.13218033 0.0013051593 0.050761599 0.99870992 4.6717887e-05
-0.047512531 -0.38277271 -0.13235047 0.0021077597 0.055779256 0.99844092 4.0364779e-05
-0.032132555 -0.38279915 -0.13234861 -0.00045552512 0.057984024 0.99831742 3.1807358e-05
-0.024220616 -0.3829574 -0.13233761 -0.0012320231 0.057835709 0.99832535 4.8281192e-05
-0.015397628 -0.38379622 -0.13227938 0.00060743192 0.057234764 0.99836051 4.5603407e-05
-0.0065195654 -0.38625294 -0.13210884 0.0010979864 0.049068995 0.99879479 5.9435431e-05
0.014735251 -0.38591337 -0.13213243 -0.00075234345 0.052525055 0.99861932 5.5280507e-05
0.025374386 -0.38645953 -0.13209559 -0.0024968223 0.051980298 0.99864501 4.9245711e-05
0.037609257 -0.38135797 -0.13244864 0.00019689635 0.058566824 0.99828345 4.0127212e-05
0.046232283 -0.38301617 -0.13233358 0.00050025433 0.057005752 0.99837369 4.6994912e-05
0.054729182 -0.38779831 -0.1320017 0.00087523169 0.047964763 0.99884868 6.2253763e-05
0.065673113 -0.38214955 -0.13239378 -0.00097096711 0.057427708 0.99834919 4.6301771e-05
0.072025679 -0.38631034 -0.13210502 0.00027240335 0.048286829 0.99883348 4.8417449e-05
0.080378249 -0.38198382 -0.13240531 0.0016400964 0.058003306 0.99831504 8.3410079e-05
0.094821431 -0.38725591 -0.13203944 0.000914453 0.050962616 0.99870014 6.5218039e-05
0.1039503 -0.38335735 -0.13231003 0.0015168628 0.063540101 0.99797809 6.4556763e-05
0.12556151 -0.38573277 -0.13219416 -0.011736484 0.083316848 0.99645394 0.00011716626
0.13774857 -0.38412347 -0.13235255 -0.13056813 0.079507403 0.9882462 0.006382403
0.1450423 -0.3864328 -0.13214774 -0.25849584 0.088392816 0.96195984 0.021319618
0.15306196 -0.38358882 -0.13184093 -0.32645243 0.036247484 0.94451833 0.027624136
-0.16003561 -0.37119085 -0.13047864 0.5916 0.10386633 0.79951316 0.042899527
-0.15635645 -0.37724453 -0.13128033 0.49545553 0.074621916 0.86542207 0.039499018
-0.14624865 -0.37438548 -0.13321625 0.23211299 0.090735227 0.96844757 0.022073532
-0.1341625 -0.37659952 -0.13301985 0.047368381 0.082983509 0.99542457 0.0024046907
-0.12503135 -0.37681285 -0.13295452 -0.00075274403 0.084879957 0.99639088 3.9174374e-05
-0.11450013 -0.37763044 -0.13277291 -0.0029406997 0.075230695 0.99716187 8.0957776e-05
-0.10749839 -0.37427434 -0.13299802 -0.0049663819 0.078220397 0.99692369 3.3213801e-05
-0.0926065 -0.37662825 -0.13277702 -0.0018089567 0.067143485 0.9977417 7.6467164e-05
-0.085827425 -0.37508374 -0.13288419 -0.0017004661 0.065235473 0.99786848 4.8447386e-05
-0.0731415 -0.37425312 -0.13294183 -0.0028577656 0.06695386 0.99775195 4.570328e-05
-0.06646838 -0.37758347 -0.13271067 0.00041520709 0.061531682 0.99810505 4.4307515e-05
-0.056125008 -0.37531096 -0.13286836 0.00037505885 0.064278625 0.9979319 2.1195583e-05
-0.04231523 -0.37212774 -0.13308924 -0.00104122 0.062841766 0.99802291 2.5757561e-05
-0.035489552 -0.37329 -0.13300857 0.00021327191 0.063223369 0.99799937 1.8037857e-05
-0.026452668 -0.37348056 -0.13299532 -7.310971e-05 0.063353054 0.99799114 1.8052791e-05
-0.019388435 -0.37168887 -0.13311964 0.00017417932 0.064657114 0.99790752 5.9577751e-06
-0.0052354722 -0.37445268 -0.13292782 -4.6460991e-05 0.06434378 0.99792784 6.9824364e-06
0.0030704848 -0.37678969 -0.13276561 0.00055156031 0.062045455 0.99807316 3.7073783e-05
0.01461234 -0.37927026 -0.13259348 -0.00076818099 0.060452357 0.99817079 4.1766121e-05
0.026537513 -0.37691221 -0.13275716 -0.00022698921 0.06044548 0.99817145 4.0534374e-05
0.037122667 -0.37661636 -0.13277772 0.00015236478 0.061110403 0.99813104 4.2344469e-05
0.04607442 -0.37598988 -0.13282122 -0.00097808533 0.062853552 0.99802232 2.1113066e-05
0.055883806 -0.37313804 -0.13301916 0.00029195749 0.067164056 0.99774194 1.5178945e-05
0.069392286 -0.37677556 -0.13276675 4.7014513e-05 0.062685497 0.99803329 4.9426246e-05
0.075703427 -0.37175369 -0.13311529 0.0030945516 0.073797695 0.99726838 0
0.08426109 -0.37656799 -0.13278118 0.0036902924 0.067382008 0.99772048 5.8012385e-05
0.09501484 -0.37496006 -0.13290155 0.0058827661 0.069908522 0.99753612 6.9087968e-05
0.10639271 -0.3740654 -0.13300532 0.0047425684 0.07312087 0.99731183 6.5754524e-05
0.11608548 -0.37387067 -0.13312301 0.0047751619 0.081247076 0.99668252 3.5807923e-05
0.12561178 -0.37742195 -0.13290577 -0.0022611574 0.084080987 0.99645633 8.1837337e-05
0.14496663 -0.3745029 -0.13320583 -0.24192923 0.086416632 0.966438 0.022841593
-0.16140468 -0.36042991 -0.1307849 0.60779953 0.091894247 0.78875548 0.036483698
-0.15334074 -0.36376747 -0.13358442 0.41949597 0.049051758 0.90643096 0.038233258
-0.14568709 -0.3655431 -0.1340005 0.20226674 0.048604678 0.97812361 0.019801671
-0.13582444 -0.3676877 -0.13381025 0.067907952 0.076258533 0.99477297 0.0028987085
-0.1253235 -0.36574817 -0.13393891 -0.0024986789 0.085610852 0.99632549 5.0233462e-05
-0.11046096 -0.36664975 -0.13370496 -0.00700138 0.081873603 0.99661809 1.7651299e-05
-0.10556708 -0.36538804 -0.13376616 -0.0084513798 0.08351557 0.99647063 7.4282052e-06
-0.095951438 -0.36585239 -0.13362536 -0.0074214418 0.0809834 0.99668777 2.3371236e-05
-0.086113118 -0.36383522 -0.13370234 -0.0049027991 0.080109298 0.99677402 1.8159031e-05
-0.078892931 -0.36486316 -0.13360834 -0.004182959 0.077200122 0.99700683 1.7517425e-05
-0.061041869 -0.36765489 -0.13339972 -0.0014145285 0.070356712 0.99752086 1.7910983e-05
-0.054482799 -0.36393532 -0.13365786 -0.0016515469 0.072949961 0.99733424 2.1036274e-05
-0.046469092 -0.36523375 -0.13356771 -0.00074212812 0.070537798 0.99750882 1.8056635e-06
-0.031149918 -0.36724705 -0.13342795 0.00030508489 0.066845715 0.99776334 0
-0.01159752 -0.36139247 -0.13383421 3.5471894e-06 0.069191284 0.99760342 3.5081919e-06
-0.0022445326 -0.3657181 -0.13353401 0.00049492391 0.066992216 0.99775338 1.0575608e-06
0.0022113768 -0.36919039 -0.13329302 1.60937e-05 0.067284249 0.99773383 2.8092273e-07
0.013744016 -0.3618865 -0.13379996 2.5445263e-05 0.069227673 0.99760085 6.0902562e-07
0.028234141 -0.36651239 -0.13347894 -1.7366969e-05 0.067670718 0.99770772 0
0.034328416 -0.36511761 -0.13357574 5.0831397e-05 0.068616502 0.99764311 0
0.051100444 -0.3613064 -0.13384029 0.0023279956 0.072946876 0.99733311 8.8910683e-06
0.063029021 -0.36743855 -0.13341473 0.0017757388 0.072122604 0.9973942 1.3085711e-05
0.088265084 -0.36841667 -0.13334692 0.0043757483 0.075748108 0.9971174 3.4411085e-05
0.099511951 -0.36565205 -0.13368022 0.0074679204 0.0816826 0.99663037 1.5214804e-05
0.13262293 -0.36515892 -0.13403454 -0.03004555 0.085653991 0.99587184 0.00094687473
0.14451128 -0.36521152 -0.13402991 -0.21438538 0.12732069 0.96841544 0.018163523
0.15806267 -0.36284423 -0.13214192 -0.48286638 0.081492007 0.87189394 0.030420568
0.16124867 -0.3682676 -0.13011147 -0.54251921 0.047309749 0.83871007 0.034074623
-0.16195956 -0.35388979 -0.13104555 0.63297874 0.13518213 0.76227534 0.044227581
-0.15730789 -0.35383639 -0.13335659 0.5115068 0.069792949 0.85644013 0.04842503
-0.14595506 -0.35722306 -0.13473842 0.1769606 0.047016263 0.98309422 0.017365204
-0.13313599 -0.35583165 -0.13486181 0.037680719 0.072066545 0.99668777 0.0013498706
-0.12401909 -0.35500717 -0.13487804 -0.0068593142 0.088745348 0.99603069 0
-0.11842019 -0.35715494 -0.13462953 -0.0077567566 0.088173263 0.99607497 8.8407951e-06
-0.10782427 -0.35245556 -0.13493656 -0.0096467724 0.087820232 0.99608958 9.806834e-06
-0.094621025 -0.35352603 -0.13470483 -0.0087307943 0.085138321 0.99633086 2.1446347e-05
-0.084518135 -0.3535293 -0.13459986 -0.0083812857 0.083904579 0.9964385 2.298137e-05
-0.073745564 -0.35215721 -0.13460995 -0.0062014116 0.081865057 0.99662411 1.1249485e-05
-0.067947634 -0.35464337 -0.13433942 -0.0052692359 0.080405511 0.99674833 1.9490064e-05
-0.043463338 -0.35545161 -0.13424662 -0.0029988438 0.07376118 0.99727142 2.1970316e-05
-0.033673633 -0.35651565 -0.13417275 -0.00086770073 0.07100556 0.99747556 1.3157441e-05
-0.02365876 -0.3553513 -0.13425353 -0.00083038618 0.070461251 0.99751413 2.605598e-06
-0.01621972 -0.35638094 -0.13418205 -0.00024303098 0.069419272 0.99758756 5.1325869e-06
-0.0062395721 -0.3503243 -0.13460237 -7.3314013e-06 0.069445916 0.99758571 0
0.0069951774 -0.35314658 -0.13440649 0.00014031307 0.069582246 0.99757624 0
0.012868655 -0.35226068 -0.13446799 0.00075726392 0.070389472 0.99751925 0
0.024007505 -0.35428548 -0.13432749 0.00064498879 0.070977055 0.99747777 2.3048988e-06
0.030845633 -0.35533261 -0.13425484 0.0016054471 0.071632296 0.99742985 3.8935209e-06
0.046031445 -0.35486814 -0.1342871 0.0026874759 0.07290297 0.99733537 0
0.053742014 -0.35652837 -0.1341719 0.0025816488 0.073333845 0.99730408 1.0949379e-05
0.065727815 -0.35214639 -0.13453333 0.0064876527 0.080944158 0.99669755 0
0.076351687 -0.35491607 -0.13439249 0.0056599528 0.079957612 0.99678224 0
0.084853172 -0.35562679 -0.13441753 0.0065478566 0.081864357 0.99662197 1.5400301e-05
0.094516307 -0.35185856 -0.13485184 0.0093812505 0.086093336 0.99624288 0
0.10643823 -0.355793 -0.13462642 0.0092500532 0.086912893 0.99617296 4.7982353e-06
0.1124074 -0.35253805 -0.13497694 0.0091784345 0.087943524 0.99608314 0
0.12584959 -0.35703379 -0.13471746 0.0064602918 0.088219136 0.99608022 1.4007667e-05
0.13516693 -0.35515162 -0.13492212 -0.044937044 0.09510421 0.99445254 0.001446049
0.14734563 -0.35402068 -0.13502246 -0.282065 0.092784904 0.95489812 0.02764466
0.15738542 -0.35223183 -0.13356279 -0.48785672 0.09654016 0.86756891 0.034924176
0.16142316 -0.35444427 -0.13132939 -0.54727864 0.08286076 0.83283865 0.030135492
-0.16212763 -0.34396338 -0.13184458 0.71752709 0.072373338 0.69276041 0.027412631
-0.15857829 -0.34710911 -0.13351706 0.53120017 0.090022199 0.84245032 0.037799783
-0.14500938 -0.34768283 -0.13558456 0.20536755 0.076506585 0.97568995 0.020452019
-0.13174772 -0.34317312 -0.13598451 0.044154823 0.0062970514 0.9990049 0.011770174
-0.12434828 -0.34540048 -0.13573243 -0.0014507436 0.079842508 0.99680644 0.00014982463
-0.1144657 -0.34512547 -0.13565548 -0.0097217932 0.087689087 0.99610049 9.080598e-07
-0.10609109 -0.34363249 -0.13570115 -0.0099474397 0.087578125 0.996108 0
-0.094260216 -0.34459415 -0.13549328 -0.010129509 0.08741913 0.9961201 0
-0.084659435 -0.34742823 -0.13514245 -0.009602976 0.085959345 0.99625242 4.5041602e-06
-0.070457719 -0.34304523 -0.13538405 -0.008202848 0.084792525 0.99636483 1.5404677e-06
-0.061443992 -0.342906 -0.13530301 -0.0072610718 0.082070298 0.99660015 1.2563252e-05
-0.056565925 -0.34938723 -0.1346803 -0.0058082957 0.079147868 0.99684596 8.6814734e-06
-0.034063295 -0.3424983 -0.13514557 -0.0036370193 0.074943408 0.99718118 1.8557925e-05
-0.026780983 -0.34640741 -0.13487424 -0.0028207419 0.072231248 0.99738395 1.5619695e-05
-0.017128492 -0.34384274 -0.13505222 -0.0017140703 0.071435653 0.99744374 2.1028251e-05
-0.0044796909 -0.34678796 -0.13484779 0.00011149893 0.069615677 0.99757391 3.8812045e-06
0.0041286759 -0.34500113 -0.1349718 0.00056505558 0.070199624 0.99753278 2.4883986e-05
0.015915779 -0.34707984 -0.13482757 0.001397903 0.070854239 0.9974857 1.3230414e-05
0.020640383 -0.34581983 -0.13491502 0.0020356788 0.072663993 0.99735445 1.2019741e-05
0.037522703 -0.34824643 -0.13474664 0.0035381969 0.074514292 0.99721366 9.4026899e-07
0.05665379 -0.34248489 -0.13529095 0.0076046558 0.082079604 0.99659675 4.5324482e-06
0.063650988 -0.34530637 -0.13511319 0.007740322 0.081802219 0.99661851 1.2176346e-05
0.074531183 -0.34458822 -0.13528961 0.0079150181 0.084551468 0.99638766 8.0552572e-06
0.081798792 -0.34330451 -0.13547876 0.0098067606 0.086585931 0.99619615 0
0.091245182 -0.34257662 -0.1356412 0.010190482 0.087584876 0.99610496 0
0.11406115 -0.3441844 -0.13573499 0.0090221986 0.087899856 0.99608845 2.3511117e-05
0.12741695 -0.34508702 -0.1357933 0.00059467595 0.087995186 0.99612069 0.00012252183
0.13593559 -0.34431508 -0.13588324 -0.056034405 0.076671317 0.99548066 0.002029371
0.14220035 -0.34232146 -0.13606007 -0.14053001 0.076616697 0.98710746 0.010069744
0.1555381 -0.34313306 -0.13495557 -0.42501527 0.061869122 0.90306932 0.036290247
-0.16389026 -0.33169997 -0.13098359 0.70780027 -0.15182032 0.68990541 0.052487291
-0.15632857 -0.33228287 -0.13578773 0.43756047 -0.053353917 0.89760476 0.043285996
-0.12596829 -0.33318684 -0.13683352 0.080288589 -0.025029877 0.99645734 0.03092188
-0.11416109 -0.33387804 -0.13664989 0.040627781 0.048475191 0.99799776 0.010950557
-0.10348857 -0.33282322 -0.13663289 -0.0081272023 0.083498985 0.99647468 1.5543061e-05
-0.096425973 -0.33707127 -0.13618293 -0.010150179 0.087021947 0.99615473 1.0802638e-06
-0.083544619 -0.33471099 -0.13625883 -0.010324394 0.085170321 0.99631292 5.0966296e-06
-0.074291959 -0.33594826 -0.13605322 -0.010093763 0.086104073 0.99623501 1.2837209e-05
-0.06382937 -0.33334535 -0.13617568 -0.0094069783 0.082502037 0.99654651 4.3058303e-06
-0.056482799 -0.33409718 -0.13603291 -0.0088754222 0.081308849 0.99664944 5.8398082e-06
-0.044428479 -0.33510581 -0.13581854 -0.007151925 0.078863189 0.99685979 2.035786e-05
-0.037550729 -0.33609813 -0.13565928 -0.0061127953 0.077912621 0.99694145 3.0309937e-05
-0.026364163 -0.33525747 -0.13564809 -0.0058973208 0.075107597 0.99715799 1.1673975e-05
-0.015111741 -0.3349086 -0.13567227 -0.0026029495 0.071726687 0.99742091 1.926687e-05
-0.0036781391 -0.33164126 -0.13589901 -0.00094705774 0.071581431 0.99743432 0
0.0044857068 -0.33370715 -0.13575563 0.0023061852 0.07199531 0.99740231 3.0356839e-06
0.016638687 -0.33662975 -0.13555281 0.0031145813 0.073446333 0.99729431 4.7723238e-06
0.025794787 -0.33571222 -0.13562612 0.0040440522 0.074760243 0.99719334 0
0.036365055 -0.33532411 -0.13571587 0.0053551905 0.077482671 0.9969793 6.3300604e-07
0.043181051 -0.33749932 -0.13559355 0.0060373303 0.079366997 0.99682719 4.2584857e-06
0.064507753 -0.3354091 -0.13599989 0.0089751324 0.082648598 0.99653834 1.0175168e-05
0.074392192 -0.33313185 -0.13630429 0.010604419 0.083678037 0.99643642 4.4492481e-06
0.082832016 -0.33991045 -0.1357905 0.010442987 0.086840451 0.99616748 8.112981e-06
0.098948434 -0.33991021 -0.13595749 0.010406848 0.087242164 0.99613279 4.4702692e-06
0.10365401 -0.33212334 -0.13669689 0.0061913491 0.080367289 0.99674612 0.00011735296
0.11135647 -0.33201033 -0.1367867 -0.018708952 0.049406022 0.99860352 0.0053230701
0.12627344 -0.33304611 -0.13684939 -0.084463365 -0.15404817 0.98444653 0.054754499
0.13283885 -0.33663219 -0.13656466 -0.026739422 -0.086071469 0.99593014 0.031976987
0.14557682 -0.33606461 -0.13661502 -0.18867132 -0.12839751 0.97361046 0.04696976
0.15738855 -0.33615699 -0.13513415 -0.49422309 -0.055843886 0.86753958 0.048632611
0.16228592 -0.33460677 -0.13241744 -0.52715504 -0.11935791 0.84134495 0.053597905
-0.16327861 -0.3233189 -0.1328453 0.64495969 -0.17401576 0.7441408 0.10973597
-0.15880188 -0.32979113 -0.1350403 0.53900707 -0.16906504 0.82515955 0.057878185
-0.1440277 -0.32258677 -0.13781041 0.22731775 -0.096076123 0.96906966 0.10561018
-0.13616309 -0.32488513 -0.13760653 0.12588935 -0.06605877 0.98984247 0.0825978
-0.12401933 -0.32330582 -0.13768972 0.13003926 0.061169133 0.98962027 0.052838121
-0.11286765 -0.32392609 -0.13751915 0.11643501 0.0089075491 0.99315834 0.02882372
-0.1029207 -0.32458228 -0.13735791 -0.0083255731 0.078324735 0.99689311 3.6397123e-05
-0.093133241 -0.32370377 -0.13733442 -0.010363878 0.079912499 0.99674797 2.6569385e-06
-0.086544245 -0.32618341 -0.13704623 -0.010603854 0.080841489 0.9966706 1.6624381e-05
-0.07506375 -0.32761425 -0.13680038 -0.011088702 0.082294621 0.99654639 0
-0.068901092 -0.3224498 -0.13719457 -0.01116519 0.079249218 0.99679232 2.3361505e-05
-0.053338651 -0.32823789 -0.13651998 -0.009096168 0.079750091 0.99677336 0
-0.049797159 -0.32816088 -0.13649012 -0.0087975422 0.079761058 0.99677515 7.4225431e-06
-0.034718882 -0.32745111 -0.13639686 -0.0084707225 0.076609276 0.99702519 2.88463e-06
-0.028022854 -0.32704806 -0.13636324 -0.0083343033 0.0752507 0.99712986 1.3217196e-05
-0.011476119 -0.32407618 -0.13645539 -0.0024971166 0.071008526 0.99747258 9.0315318e-08
-0.0052471524 -0.32650673 -0.13625717 -0.0021457565 0.07094577 0.99747789 0
0.0053785378 -0.32350022 -0.13647754 0.0034335072 0.071212374 0.9974553 0
0.014258165 -0.32461524 -0.13644326 0.003992571 0.072093114 0.99738991 0
0.025802542 -0.32534328 -0.13649163 0.0064151962 0.074356303 0.9972111 7.3340666e-06
0.031848244 -0.32956791 -0.13617958 0.0064285262 0.07559932 0.99711758 1.2688999e-05
0.040251218 -0.32792073 -0.13641274 0.0082165785 0.078173272 0.99690592 0
0.054112297 -0.32495898 -0.13681903 0.0083384933 0.079191513 0.99682456 1.4686515e-05
0.067412026 -0.32520053 -0.13693541 0.011280406 0.079851538 0.9967429 1.2391462e-05
0.072323315 -0.3214134 -0.13732217 0.011417731 0.077981137 0.99688947 2.6875177e-05
0.084336512 -0.32147101 -0.13744152 0.01007688 0.076803476 0.99699533 2.1609132e-05
0.09222503 -0.32558644 -0.13715824 0.009560178 0.080241688 0.99672955 1.5224677e-05
0.10442796 -0.32422593 -0.13740535 -0.03538755 0.066450067 0.99716198 0.0052501061
0.12763362 -0.32332051 -0.13772607 -0.15275973 -0.039387424 0.98747814 0.11254763
0.13976461 -0.3239646 -0.13768819 -0.18725602 -0.18439227 0.96484953 0.12684776
0.14340909 -0.32567769 -0.13753626 -0.28405267 -0.17705795 0.94231874 0.11168041
0.1588096 -0.32601106 -0.13538159 -0.44415087 -0.24201356 0.8626467 0.075471133
0.16158733 -0.32106176 -0.13440445 -0.57932085 -0.11054641 0.80756855 0.11793738
-0.16189209 -0.31724429 -0.13457718 0.649598 -0.21333949 0.72973198 0.11696008
-0.15463749 -0.31791139 -0.13590418 0.40897596 -0.081349179 0.90891194 0.15231578
-0.14465176 -0.31726533 -0.13467689 0.28504354 -0.099635705 0.95332205 0.1873313
-0.13468692 -0.31813461 -0.13670596 0.20934401 0.023646343 0.97755611 0.15824223
-0.12558 -0.31688622 -0.13772608 0.19073743 0.091753609 0.97734362 0.1427976
-0.11530287 -0.31557474 -0.1381892 0.10224501 0.10043456 0.98967612 0.064946122
-0.10608242 -0.31464335 -0.13815495 0.12700044 0.084474966 0.98829895 0.036874857
-0.095353574 -0.31487527 -0.1380288 -0.0098040421 0.072572537 0.99731499 1.7600893e-05
-0.084587082 -0.31709585 -0.13777108 -0.011878463 0.076081768 0.99703079 2.5591371e-06
-0.075475127 -0.31316099 -0.13793385 -0.010539091 0.072554305 0.99730879 1.591448e-05
-0.053096492 -0.31602892 -0.13751636 -0.0098961135 0.074135423 0.99719906 2.4851273e-05
-0.047496341 -0.31553835 -0.13749011 -0.011311128 0.07332135 0.99724418 1.4932801e-06
-0.026030967 -0.31515995 -0.13729222 -0.0087929415 0.07252945 0.99732751 3.95097e-06
-0.014453372 -0.315965 -0.13711822 -0.0036911783 0.069423191 0.99758047 0
-0.0052663637 -0.31525058 -0.13706812 -0.0022195077 0.069538489 0.99757683 1.4895595e-05
0.00538819 -0.31670856 -0.13697834 0.0038910774 0.069519214 0.99757302 2.1978187e-06
0.01421687 -0.31618991 -0.13710068 0.0052908803 0.069337018 0.99757928 0
0.028163064 -0.31838956 -0.13710546 0.0086491182 0.072196148 0.99735296 1.9021811e-05
0.031106871 -0.3168295 -0.13723695 0.0090048043 0.072305411 0.99734193 9.2918881e-06
0.043342639 -0.3132953 -0.13759248 0.010360761 0.071914233 0.99735701 4.3166133e-06
0.054461807 -0.31306493 -0.13772258 0.010816553 0.073547192 0.99723303 1.2008106e-05
0.063913748 -0.31665835 -0.13758668 0.011244943 0.076892063 0.99697602 2.6438722e-05
0.077808321 -0.31297901 -0.13797002 0.010230444 0.071300015 0.99740243 1.0086919e-05
0.086603403 -0.31623045 -0.13785066 0.0096116038 0.075360425 0.99711007 3.0043995e-05
0.094061889 -0.31717175 -0.13786699 0.010300381 0.075406536 0.9970997 3.3835437e-05
0.10842744 -0.31531838 -0.13813578 -0.13378143 0.068614803 0.98863262 0.035578221
0.1176359 -0.31989098 -0.13792665 -0.1238714 0.081133515 0.98897582 0.079456799
0.12765972 -0.31417066 -0.13727927 -0.31969261 0.03941486 0.94670117 0.19219275
0.1445068 -0.31770426 -0.13532449 -0.31612548 -0.11036607 0.94227594 0.19314553
0.15596807 -0.31718394 -0.13429767 -0.44925174 -0.1566899 0.87955737 0.15090679
-0.1442278 -0.30083632 -0.13666332 -0.01229985 0.80372506 0.59487373 0.25289375
-0.13382319 -0.30047506 -0.13540193 -0.55657536 0.74046183 0.37674958 0.26415685
-0.1287241 -0.30301359 -0.13599497 0.67399997 -0.24239914 0.69782996 0.25471649
-0.11843289 -0.30849442 -0.13864291 0.14825349 0.066278517 0.98672593 0.13153346
-0.10507864 -0.30629742 -0.13868479 0.040900711 0.08699856 0.99536848 0.047352891
-0.093810566 -0.30165347 -0.13886866 -0.0076466715 0.06177704 0.9980607 0
-0.083463572 -0.3055875 -0.13850683 -0.0093563879 0.066448227 0.99774599 5.2057903e-06
-0.072441161 -0.30574557 -0.13838241 -0.01036003 0.067489721 0.99766618 2.2346662e-06
-0.065317698 -0.30372939 -0.13843912 -0.010233074 0.067400493 0.99767351 1.0680684e-05
-0.058816656 -0.30581549 -0.13823675 -0.01139997 0.069262393 0.99753332 1.587541e-05
-0.047539741 -0.30630228 -0.13808841 -0.010990666 0.069320776 0.9975338 4.8452725e-06
-0.028407255 -0.30296105 -0.13810647 -0.01026848 0.066868633 0.99770892 1.3384099e-05
-0.0151428 -0.30662343 -0.137732 -0.0078785261 0.067562714 0.99768388 0
-0.0062709241 -0.30822647 -0.13753632 -0.0025563855 0.067781702 0.99769694 0
0.0025721951 -0.3012585 -0.13794926 0.0017637501 0.06614241 0.99780858 1.2119838e-05
0.021542542 -0.30330753 -0.13801314 0.0084912684 0.066564009 0.99774605 6.521705e-06
0.030013237 -0.3004711 -0.1382845 0.010103167 0.066755585 0.99771816 9.5891719e-06
0.045965374 -0.30535308 -0.13813375 0.010751639 0.067581341 0.99765581 9.4056131e-06
0.063833795 -0.30576074 -0.13829248 0.010529337 0.068618454 0.99758744 8.9426539e-06
0.074294396 -0.30857199 -0.13821886 0.010070988 0.068999469 0.99756581 1.0186382e-05
0.087361678 -0.30676502 -0.13847122 0.0095997537 0.066508897 0.99773967 8.9819605e-06
0.097182237 -0.30597219 -0.13862427 0.006364692 0.064584121 0.99789196 1.8201772e-05
0.10524869 -0.30151063 -0.1389664 -0.087092414 0.12997787 0.98768443 0.054651115
0.12875699 -0.30500701 -0.13587752 0.86884344 0.46383741 -0.17310664 0.19809504
0.13725057 -0.30063936 -0.13433996 0.41471279 0.84009022 0.34965935 0.24909323
0.14538698 -0.30085075 -0.13769917 -0.36652574 0.75660348 0.54148883 0.26120982
-0.1578643 -0.29421777 -0.13689175 0.95940793 0.20318037 0.19558661 0.18454385
-0.13097659 -0.29977936 -0.13503814 0.55763084 -0.22722718 0.79838318 0.25027692
-0.12648523 -0.2959992 -0.13665511 -0.79393202 0.60281008 -0.079321258 0.25666434
-0.11559843 -0.29563001 -0.13934983 0.13790476 0.17987454 0.97397506 0.18617733
-0.10664048 -0.29564628 -0.13930248 0.037049737 0.095984429 0.99469304 0.08012934
-0.095461667 -0.29785138 -0.13912052 -0.0077353925 0.061613195 0.99807006 1.3955274e-05
