# .PCD v0.7 - Point Cloud Data file format
VERSION 0.7
FIELDS x y z normal_x normal_y normal_z curvature
SIZE 4 4 4 4 4 4 4
TYPE F F F F F F F
COUNT 1 1 1 1 1 1 1
WIDTH 574
HEIGHT 1
VIEWPOINT 0 0 0 1 0 0 0
POINTS 574
DATA ascii
-0.085117795 -0.23504591 0.035277106 0.73264533 0.39712039 -0.55274433 0.16224198
0.034648098 -0.23571183 0.033825263 -0.39685598 0.25103173 0.88288635 0.2466476
0.044762034 -0.23622295 0.035420809 -0.81545556 -0.031707872 0.5779506 0.25093576
0.050433159 -0.23593375 0.032284878 -0.17868781 0.13434888 0.9746902 0.2254134
0.087672584 -0.23524143 0.033673663 -0.7976616 0.31678343 -0.5132097 0.16293393
0.093675792 -0.23614751 0.034175385 -0.80323213 0.37089142 -0.46610901 0.12702917
-0.11345492 -0.22573365 0.035553716 0.49811658 0.61847508 -0.60775685 0.13598633
-0.10352333 -0.22826923 0.033823449 0.68609232 0.54474062 -0.48221865 0.18925148
-0.095164344 -0.22617674 0.034445588 0.69736898 0.43962306 -0.56604606 0.2124248
-0.084150076 -0.22606549 0.035280868 0.83966988 0.21098517 -0.50043958 0.24255906
0.027779231 -0.2220839 0.032815501 0.20264125 -0.0089580137 -0.97921211 0.050110932
0.035238966 -0.22876824 0.037126165 -0.70836794 0.26196712 0.65542966 0.23203839
0.046058286 -0.22319983 0.038431119 -0.64797801 0.43424222 0.62574613 0.23987144
0.051524308 -0.225537 0.035369873 -0.25135955 0.62497139 0.7390731 0.24384019
0.083572626 -0.22715406 0.036258489 -0.8659851 0.17602587 -0.46806476 0.17657726
0.093991317 -0.22434889 0.034429189 -0.7084384 0.39661148 -0.5837931 0.22243042
0.10425965 -0.22444399 0.034100525 -0.67623997 0.69149196 -0.25404409 0.21215644
0.11498496 -0.22187918 0.032313876 -0.56565911 0.78826284 -0.24222209 0.19341335
-0.12398745 -0.2122159 0.037934221 0.8700949 0.49128899 -0.039623812 0.13688609
-0.10468838 -0.21386488 0.03405375 0.38986742 -0.20696074 -0.897313 0.28320795
-0.092708051 -0.21507865 0.03455301 0.70101416 -0.0041121501 -0.71313548 0.26038209
-0.087444246 -0.2160423 0.034502264 0.8865146 -0.37588522 -0.2698186 0.28326526
0.025809333 -0.21565735 0.031527314 0.19670375 0.05456895 -0.97894329 0.050770886
0.034612756 -0.21379989 0.036584929 0.16896012 0.073665082 -0.98286617 0.081304885
0.045258068 -0.21475291 0.037719496 -0.003682059 -0.031492926 -0.99949723 0.16657585
0.054236889 -0.21280386 0.036157511 0.075266406 -0.12217651 -0.98965037 0.1791015
0.086809784 -0.21889862 0.031443298 -0.93566257 0.024992591 -0.35200998 0.23221284
0.092920162 -0.21581085 0.035041388 -0.79776222 0.17304951 -0.5776065 0.25503308
0.10402796 -0.21517257 0.037254263 -0.50941008 0.68353641 -0.52276123 0.2185917
0.11969241 -0.21607107 0.036549587 -0.21024583 0.69820052 -0.68433368 0.15652135
0.12269075 -0.21220444 0.032302022 0.40972131 0.13261466 -0.90251958 0.16345347
-0.11418249 -0.20799357 0.035795506 -0.082934566 0.51484776 0.8532607 0.24022469
-0.10985772 -0.2095848 0.035615206 -0.053761251 0.088322774 -0.99464011 0.24918666
0.089500941 -0.20998493 0.035661057 -0.8483879 -0.19030014 -0.49398765 0.23859257
0.093178526 -0.20846492 0.034703348 -0.85309798 -0.25737464 -0.45385256 0.2333007
0.10713538 -0.20847839 0.034640774 -0.27254739 0.48178673 0.8328262 0.26475498
0.11477798 -0.20324819 0.035689034 -0.11959541 0.22046699 0.96803468 0.22536427
0.12341259 -0.20214076 0.035589039 -0.70268929 0.52916515 0.4756175 0.18870929
-0.092452705 -0.19467479 0.033483125 0.95706594 -0.18357523 -0.22433235 0.18547796
0.028716387 -0.19135229 0.038363807 0.17384796 -0.12249133 -0.97712481 0.064323515
0.091017716 -0.19478482 0.03843848 -0.94019634 -0.18949471 -0.28305912 0.17524657
0.12232294 -0.19884759 0.03283754 -0.70556819 0.51147735 0.49047366 0.21412908
-0.092088185 -0.18600106 0.0352129 0.99075425 0.0054872627 -0.13555719 0.12361107
0.027205527 -0.18728454 0.033400562 0.14817612 -0.094993405 -0.98438817 0.054674797
0.032520961 -0.18790065 0.037517868 0.10554385 -0.17451763 -0.97898114 0.067088142
0.048803505 -0.18775772 0.037966616 -0.13649388 -0.18320014 -0.97355384 0.061166152
0.05394401 -0.18752809 0.034496415 -0.15217268 -0.15174249 -0.97663593 0.055190403
0.092147507 -0.18475091 0.03274719 -0.9345535 -0.27669799 -0.2237142 0.18356891
-0.092520595 -0.17310239 0.03356912 0.98926687 -0.060980655 -0.13278669 0.13973173
0.091350995 -0.17602867 0.035964131 -0.99937314 0.0035018336 -0.035229914 0.17116982
-0.092307307 -0.16849227 0.03460823 0.98067713 -0.12807557 -0.14788161 0.13342817
0.091905147 -0.16316561 0.033210486 -0.99261755 0.022084219 -0.1192595 0.14206651
-0.092456244 -0.15572751 0.034448497 0.98773515 0.020391498 -0.15480117 0.1341614
0.09091574 -0.15065622 0.037040342 -0.9989962 -0.019320017 -0.040414914 0.12470397
-0.092317864 -0.14212534 0.035498291 0.9933849 0.028363906 -0.11127426 0.12974012
0.091354728 -0.14517324 0.035135068 -0.99308348 0.020758137 -0.11556078 0.18300276
-0.092296004 -0.1349155 0.035843294 0.9875809 0.059892047 -0.14524789 0.1130016
0.091419764 -0.13824321 0.034738544 -0.98897749 0.059353784 -0.13564928 0.16317979
-0.0926245 -0.12516765 0.034839407 0.97737116 0.040047601 -0.2077062 0.1532684
0.091563031 -0.12631254 0.033927359 -0.99357295 -0.016169831 -0.11203296 0.16369578
-0.092252575 -0.11656068 0.03667146 0.98830152 -0.006936857 -0.15235493 0.14881937
0.091556132 -0.11652146 0.033772867 -0.99275154 -0.038741764 -0.11376912 0.1447701
-0.092629127 -0.10621259 0.035469782 0.98332924 -0.00073853537 -0.18183257 0.10439135
0.037578091 -0.1010901 0.033538576 -0.11823069 0.27452418 -0.95428401 0.15220496
0.091649324 -0.10417597 0.033156987 -0.9895643 -0.0083486056 -0.14384991 0.11516238
-0.092562407 -0.093586147 0.035907008 0.98894376 0.0019329202 -0.14827812 0.13617605
0.037524574 -0.092959598 0.036384109 -0.10873606 0.2480163 -0.96263403 0.20032395
0.090909094 -0.096858956 0.035937235 -0.99278432 -0.084734738 -0.084848523 0.12248044
-0.092435092 -0.080310158 0.036529358 0.99309444 -0.019346472 -0.11571157 0.10476767
0.037465926 -0.084051102 0.034300953 -0.060964014 0.20478536 -0.97690654 0.20853937
0.090997525 -0.087697029 0.035146315 -0.98643571 -0.14610447 -0.074820176 0.17172742
-0.092577197 -0.075446434 0.035950277 0.99445343 -0.067231111 -0.080884516 0.10037299
0.0374102 -0.075585507 0.035282005 0.074100874 0.48709476 -0.8701998 0.23621413
0.09107241 -0.077245027 0.03432766 -0.96817076 -0.17030725 -0.1834143 0.16971232
-0.092712834 -0.067132995 0.035406791 0.99378306 -0.01926001 -0.10965566 0.11748879
0.01174289 -0.06885007 0.034530297 0.18198869 0.055313714 -0.98174357 0.130015
0.025109498 -0.068569355 0.034686174 0.28050911 0.17488101 -0.94378555 0.23387071
0.035558268 -0.065418243 0.035521898 0.16536221 0.0098966006 -0.98618329 0.26084873
0.04525594 -0.068146251 0.032803394 -0.35595912 -0.015019956 -0.93438089 0.20750059
0.053153861 -0.067980394 0.035742559 -0.30055141 0.22095399 -0.92781901 0.24344078
0.067204535 -0.067685306 0.033126485 -0.1681724 0.17031242 -0.97093338 0.18749997
0.090529978 -0.068121642 0.036107551 -0.9766807 -0.091767542 -0.19409685 0.16488333
-0.092700042 -0.055813462 0.035488561 0.98116118 -0.12593561 -0.14650236 0.147201
0.037273724 -0.054854076 0.034536995 -0.076771617 -0.020709962 -0.99683356 0.20192124
0.090745889 -0.055876907 0.034569222 -0.96330291 0.088250741 -0.2534942 0.17320529
-0.092338502 -0.044745758 0.037020955 0.98403996 -0.10312446 -0.14502002 0.12276974
-0.051743787 -0.041036569 0.033372525 0.11453074 0.15669896 -0.9809832 0.12497528
-0.049936391 -0.04372089 0.030138845 0.088742591 0.19472568 -0.97683501 0.11530754
-0.031695563 -0.041181706 0.032946676 -0.11195523 0.17934369 -0.97739547 0.12193977
-0.025569312 -0.042040039 0.031877778 -0.23004915 0.17106079 -0.95802689 0.13307281
-0.015344182 -0.043288045 0.030310769 -0.12917753 0.11851116 -0.98451424 0.052411284
0.015155054 -0.040919125 0.032436736 0.17045653 0.082630433 -0.98189449 0.067928635
0.034598861 -0.043222785 0.033246834 0.10330418 0.03927321 -0.99387425 0.14052697
0.04403726 -0.040461414 0.032053616 -0.12119017 0.10348504 -0.98722023 0.15244842
0.064524032 -0.040447362 0.031482212 -0.21872547 0.18475036 -0.95813698 0.10604904
0.091461606 -0.042448681 0.030889647 -0.94589388 -0.012416062 -0.32423854 0.16574866
-0.092352822 -0.035672992 0.036984183 0.98028302 -0.056238197 -0.18942645 0.18055034
-0.065625362 -0.033297587 0.036511716 -0.025499433 0.10061079 -0.99459904 0.17165083
-0.05216033 -0.031606674 0.037372202 0.072224081 -0.096294902 -0.99272901 0.17089641
-0.044337388 -0.036191456 0.036052391 0.09410882 0.15332468 -0.98368442 0.19629957
-0.034787361 -0.035393156 0.036410339 -0.17772409 -0.057951402 -0.98237258 0.20934299
-0.025357936 -0.034283593 0.036450882 -0.30500126 -0.017528532 -0.9521907 0.18389893
-0.017159307 -0.034624137 0.035159789 -0.24212177 0.013392379 -0.97015345 0.11650453
0.015174892 -0.035279416 0.034562342 0.21584645 0.0674638 -0.97409391 0.11060206
0.028462231 -0.036828712 0.03581208 0.36389449 0.019571338 -0.93123448 0.18802662
0.035741664 -0.036416046 0.035933353 0.067622155 0.054211013 -0.99623722 0.21434464
0.043951251 -0.035513762 0.035090707 -0.016549669 -0.2393889 -0.9707827 0.23096119
0.06568262 -0.034928266 0.034647398 -0.23556538 0.2430793 -0.94096833 0.17327824
-0.09203621 -0.02314071 0.038333301 0.97316194 0.075197779 -0.21748847 0.15089546
-0.08137548 -0.021440484 0.034427717 0.81366551 0.29950795 -0.49824029 0.22949156
-0.071159005 -0.020717671 0.031165382 -0.004214542 0.082059838 -0.99661851 0.16088155
-0.066932425 -0.027511494 0.036749922 -0.037344284 0.00058536831 -0.99930227 0.18278871
-0.054561179 -0.026164522 0.036798779 -0.073663294 -0.36165726 -0.92939645 0.19378607
-0.049235955 -0.026988205 0.036762606 0.096580729 -0.29188257 -0.95156544 0.13843419
-0.031798076 -0.025506446 0.037424799 -0.10950101 -0.35915864 -0.92683041 0.19041218
-0.015798597 -0.027667442 0.03527258 -0.14563634 -0.080526799 -0.98605549 0.10596042
0.01302837 -0.026051225 0.034932762 0.1700058 -0.041604344 -0.98456442 0.088225603
0.027109053 -0.025350939 0.037415799 0.10499556 -0.33443549 -0.93655157 0.19670264
0.032768026 -0.023601189 0.036842663 0.1394453 -0.29724491 -0.94456363 0.16110969
0.045305349 -0.026093995 0.036730539 -0.13289452 -0.36742133 -0.92051113 0.20957361
0.054083224 -0.024305841 0.036795881 -0.0059970701 -0.25480932 -0.96697271 0.1669129
0.067521803 -0.024846852 0.032717254 -0.11934819 0.13903974 -0.98306865 0.15087177
0.086587936 -0.020336781 0.030007608 -0.9022727 0.15927508 -0.40066868 0.16922131
0.091000497 -0.027429111 0.032022998 -0.91948426 0.06435512 -0.38782352 0.15684329
-0.092381246 -0.015134675 0.03410922 0.95588011 -0.029224196 -0.29229987 0.1531413
-0.084986873 -0.015041383 0.032048196 0.92854738 0.11457134 -0.35309088 0.19798596
-0.059774071 -0.019423313 0.037077263 -0.1346101 -0.25001723 -0.95883864 0.11161147
-0.045072637 -0.019589704 0.037061147 0.061547481 -0.3057563 -0.95011842 0.11998775
-0.033110507 -0.019177988 0.037070289 -0.051313743 -0.32479492 -0.94439149 0.16062753
0.028812656 -0.019422902 0.037015855 0.10328966 -0.24321906 -0.9644562 0.13705364
0.048058327 -0.010381064 0.030035045 0.032831393 -0.10768737 -0.99364257 0.047552142
0.059246518 -0.010117576 0.030114725 0.0015884433 -0.018246511 -0.99983221 0.078328565
0.060286045 -0.016231604 0.033531629 0.011110756 0.067834839 -0.99763477 0.097154528
0.076575741 -0.014986277 0.031829361 -0.54055172 0.46359789 -0.70205468 0.2144942
0.085720316 -0.013262642 0.033738144 -0.90746927 0.21845387 -0.35885561 0.1599959
0.0904193 -0.014780122 0.032325767 -0.92899323 0.024325125 -0.36929637 0.10969612
-0.09228652 -0.0053499234 0.034614582 0.93329889 0.043285143 -0.35648221 0.15028344
-0.08665543 -0.0070992131 0.033530306 0.91831511 0.028025944 -0.39485696 0.18434949
-0.077126235 -0.0056146476 0.03013221 0.50324571 0.074653216 -0.86091268 0.25893098
0.016456943 -0.00043504406 0.030067768 0.029905532 -0.050223418 -0.99829018 0.0090061119
0.02852712 -0.0059166932 0.03001469 0.0069209328 -0.095849715 -0.99537182 0.024313629
0.03571599 -0.0033301257 0.03012418 0.02764366 -0.10627788 -0.99395216 0.026261223
0.046912633 -0.00056408066 0.030264264 0.020360863 -0.078434445 -0.99671131 0.018401738
0.056454193 -0.00022095814 0.030335072 0.12591803 -0.055088263 -0.99050993 0.034499694
0.068021454 -0.0038202794 0.030324092 -0.028432785 0.071731679 -0.99701858 0.18020447
0.075937726 -0.005360865 0.033054877 -0.27551091 0.23808947 -0.93134695 0.22216535
0.086004071 -0.0043891813 0.03343416 -0.87693417 0.17945273 -0.44585121 0.16151203
0.091034621 -0.0041538482 0.031308219 -0.93466908 0.11479701 -0.33647478 0.095147625
-0.093144536 0.0055206595 0.035379559 0.95869219 0.024622617 -0.28337801 0.13714777
-0.083751336 0.0031753269 0.032791976 0.84850603 -0.10161117 -0.51933867 0.20825776
-0.0740823 0.003390728 0.030383034 -0.18644026 -0.028110735 -0.98206407 0.20363423
-0.067466706 0.0059543191 0.030256039 -0.10353816 -0.053764395 -0.99317133 0.089309923
-0.022193111 0.0084897876 0.030029669 0.0064151371 0.024222169 -0.99968606 1.6033459e-07
-0.014765378 0.0069997804 0.030042421 0.0065516788 0.024106719 -0.99968785 1.0180235e-07
-0.0017559864 0.0082286 0.030157316 0.006551947 0.024106422 -0.99968791 0
0.0057330616 0.0038589723 0.030101031 0.0065520201 0.024106616 -0.99968797 0
0.017999928 0.0069011711 0.030254787 0.012543332 -2.3179058e-05 -0.99992132 0.00346418
0.02395297 0.0074739624 0.030307615 0.012504983 0.003413361 -0.99991596 0.0029392701
0.033965118 0.0018281257 0.03023709 0.0030394965 -0.035070408 -0.99938023 0.0081732934
0.045387071 0.0027513877 0.030334216 0.03182213 -0.08729668 -0.99567395 0.015614624
0.05435314 0.0053888839 0.030456578 0.12984024 -0.070033088 -0.98905861 0.029210327
0.077730395 0.003590819 0.033993408 -0.72868848 0.1644693 -0.66480303 0.24215657
0.087731801 0.0035397073 0.036103319 -0.94793326 0.045661718 -0.31517863 0.10685998
0.090899281 0.004276799 0.031139359 -0.91123861 0.058601171 -0.40768877 0.10098839
-0.093649268 0.016505176 0.033780225 0.90301669 0.015862353 -0.42931259 0.16430393
-0.080442049 0.013732113 0.03060486 0.12972535 0.059887242 -0.98973984 0.20189007
-0.077761739 0.019907555 0.030710593 -0.048492514 0.024825109 -0.99851495 0.14402121
-0.068062134 0.01272472 0.030544136 -0.11654131 0.014303314 -0.99308276 0.047496881
-0.058443993 0.015125584 0.030307094 -0.0070043826 0.015125117 -0.999861 0.00097919034
-0.047742113 0.017898884 0.030089112 -0.0087146023 0.03012125 -0.99950832 5.8455949e-05
-0.036746513 0.017781705 0.030158354 -0.00070722605 0.028034013 -0.99960673 4.3283868e-05
-0.028953457 0.012548558 0.030083233 0.0044901418 0.024853403 -0.999681 8.7545623e-06
-0.012720451 0.01543649 0.030259266 0.0065517216 0.024106296 -0.99968791 0
-0.0045713503 0.015036128 0.030303022 0.0065519717 0.024106748 -0.99968791 2.8278552e-07
0.016199624 0.0158625 0.030459082 0.0065518655 0.02410618 -0.99968791 0
0.026059151 0.015268791 0.030509386 0.0065520117 0.024106385 -0.99968797 0
0.037348922 0.011920013 0.030502625 0.0065507637 0.024106529 -0.99968797 2.5006142e-07
0.04570761 0.016800687 0.030675102 0.0065531256 0.024106501 -0.99968791 0
0.054037631 0.013437985 0.030648608 0.081110515 -0.0083357245 -0.99667025 0.01050285
0.066668175 0.015803589 0.030788431 0.086480312 -0.028279822 -0.99585205 0.039459582
0.074841127 0.013181159 0.030778762 -0.15016964 0.037352566 -0.98795438 0.19626863
0.084640406 0.01453542 0.031629845 -0.88705575 -0.044831835 -0.45948038 0.12550803
0.090689264 0.013927437 0.031840805 -0.89793867 0.00030662809 -0.44012058 0.1161525
-0.09401115 0.020971308 0.031633466 0.91822815 0.028352639 -0.3950358 0.13745339
-0.07452374 0.023550853 0.030785603 -0.11574876 -0.04917147 -0.99206078 0.13643238
-0.066204526 0.025375063 0.030979937 -0.061175223 0.022905905 -0.99786413 0.028680056
-0.051443826 0.025078535 0.030458838 -0.001103707 0.021675818 -0.99976444 0.0002773864
-0.045303755 0.025243163 0.03032426 -0.0090221735 0.028030951 -0.99956638 5.717473e-05
-0.035268705 0.025866365 0.030362992 -0.0034647675 0.02737798 -0.99961913 5.4855231e-05
-0.02447124 0.02515433 0.030416591 0.0054148971 0.024229918 -0.99969172 2.448696e-06
-0.013824753 0.024484776 0.03047022 0.0065522911 0.024106383 -0.99968797 0
-0.002887608 0.026428526 0.030588772 0.0065520289 0.024106542 -0.99968791 0
0.0066770995 0.025316086 0.030624636 0.0065520904 0.024106313 -0.99968791 9.0136048e-08
0.016179306 0.024809504 0.030674696 0.0065515437 0.024106614 -0.99968791 0
0.025291154 0.026031097 0.030763876 0.0065521947 0.024105776 -0.99968797 4.6689851e-07
0.036507975 0.023115613 0.030767083 0.0065521863 0.024107127 -0.99968791 0
0.045047402 0.021545812 0.030785197 0.0065524131 0.024106085 -0.99968791 4.7175644e-07
0.06588909 0.023876883 0.030978009 0.1100699 -0.04099096 -0.99307823 0.054710459
0.072659679 0.025479481 0.031061029 -0.0043699611 -0.076739833 -0.99704158 0.12206236
0.086773373 0.022902671 0.033393793 -0.89990169 -0.069603994 -0.4305023 0.13445361
0.090951532 0.021901056 0.031232268 -0.86528039 -0.063659221 -0.4972297 0.11568853
-0.092346042 0.03771425 0.03991415 0.98114622 -0.029740606 -0.19096501 0.16142447
-0.072566859 0.034060404 0.030691372 -0.09108416 0.019623922 -0.99564981 0.068267345
-0.060093258 0.031023711 0.030992262 0.016733749 0.010323891 -0.9998067 0.00066772703
-0.058924861 0.035387211 0.031124372 0.021763898 0.013745586 -0.99966866 0.0007591414
-0.042835344 0.036153022 0.030607795 -0.0032995988 0.027789265 -0.9996084 0.00012495482
-0.031835176 0.038485039 0.030689782 -0.0046599414 0.028208191 -0.99959123 5.6256555e-05
-0.026156897 0.032779995 0.030589426 0.0018336169 0.026536964 -0.99964613 2.8121498e-05
-0.015513293 0.035867706 0.030733643 0.0063286754 0.024137698 -0.99968863 3.8113632e-07
-0.0034526158 0.032177247 0.030723698 0.0065520089 0.024106538 -0.99968791 4.3529985e-07
0.0084197251 0.038103417 0.030944414 0.0065521416 0.024107058 -0.99968797 6.3696257e-07
0.015002558 0.033998962 0.030888582 0.0065524275 0.024106741 -0.99968797 0
0.027258536 0.035916258 0.031015141 0.0065521603 0.024105977 -0.99968797 0
0.035328258 0.034972034 0.031045262 0.006550998 0.024106374 -0.99968797 0
0.048553634 0.032502834 0.031072397 0.0065530739 0.024106361 -0.99968791 0
0.056479413 0.037229259 0.031238317 0.0065540248 0.024106633 -0.99968791 3.5763318e-07
0.065339178 0.035320338 0.031250354 0.084536411 0.018771162 -0.99624354 0.026779747
0.072338901 0.035022046 0.031289037 0.049442627 0.0083702784 -0.99874187 0.11786178
0.086656377 0.035476238 0.035317313 -0.93862426 -0.016098391 -0.34456536 0.19312909
0.090963386 0.034979194 0.030432116 -0.80905515 0.020566208 -0.58737278 0.13636731
-0.071044579 0.04319042 0.030174293 -0.11316668 0.018862635 -0.99339694 0.056718186
-0.066541076 0.045530867 0.03107702 -0.066704109 0.00017733157 -0.99777281 0.028078234
-0.05278891 0.046084791 0.031335365 0.01293698 0.023798151 -0.99963307 0.00050994521
-0.035331331 0.047949515 0.030900294 -0.0060687861 0.028214183 -0.99958348 7.1044851e-05
-0.025734285 0.04390813 0.030860543 -0.0023358299 0.028429424 -0.99959308 4.784538e-05
-0.017237891 0.043817196 0.030914033 0.004275904 0.025232308 -0.99967241 1.2186461e-05
-0.0069425204 0.043805771 0.030981233 0.006532555 0.024110753 -0.99968797 1.8761834e-07
0.0063783578 0.046611041 0.031136187 0.0065520331 0.024107274 -0.99968791 6.4404283e-08
0.014224256 0.045714494 0.031165993 0.0065518413 0.024108151 -0.99968785 1.5647196e-07
0.035293177 0.048980862 0.03138284 0.0065525831 0.024106406 -0.99968791 0
0.043663394 0.045397323 0.031351287 0.0065517686 0.024107482 -0.99968785 2.3676806e-07
0.059923798 0.040372901 0.031336695 0.025208429 0.019229304 -0.99949723 0.00097948965
0.065084286 0.045537602 0.031495064 0.10667225 0.020169644 -0.99408966 0.042211711
0.074046738 0.043255117 0.031498764 0.01252548 0.11169174 -0.99366397 0.13147162
0.085369281 0.046298902 0.031600568 -0.72656608 0.019910019 -0.68680823 0.18520363
0.090615101 0.04506585 0.031422794 -0.89748299 0.0027415184 -0.44104049 0.1433567
-0.09323816 0.05348717 0.03580365 0.93948245 0.057885949 -0.33767137 0.19563937
-0.062271528 0.056314282 0.031248042 0.049736056 0.0054196659 -0.99874777 0.00050184218
-0.050794922 0.059719607 0.03180537 0.02928626 0.020203276 -0.99936688 0.00063921639
-0.044582997 0.055512708 0.031424753 0.015885519 0.023624791 -0.99959469 0.00056764018
-0.030791471 0.053507585 0.031058878 -0.007760061 0.030664269 -0.99949956 4.4056964e-05
-0.025376726 0.055493146 0.031142246 -0.0070176879 0.030877518 -0.99949855 4.7468646e-05
-0.0044931248 0.057373513 0.031324461 0.0064737299 0.024161715 -0.99968714 8.2276341e-07
0.0048111314 0.05671281 0.031369515 0.0065518818 0.024106044 -0.99968791 0
0.017332777 0.055433579 0.03142073 0.0065521928 0.024107898 -0.99968791 2.7788309e-07
0.027334183 0.057070889 0.031525761 0.0065518711 0.024105152 -0.99968797 2.1689074e-07
0.037380155 0.054314472 0.031525135 0.0065513575 0.024106739 -0.99968797 0
0.046519034 0.055530883 0.031614363 0.0065527945 0.024106793 -0.99968791 5.0756972e-07
0.055731606 0.056484483 0.031697739 0.015629273 0.027211156 -0.99950749 0.00026703087
0.066539504 0.056225095 0.031762317 0.11671712 0.01842765 -0.99299425 0.06124622
0.07454703 0.053514648 0.031749438 0.01027838 0.10104854 -0.99482834 0.16255826
0.085765809 0.055622142 0.031847533 -0.77139342 0.074306071 -0.63200533 0.18351108
0.090656854 0.054470278 0.031175982 -0.86335897 -0.0069262665 -0.50454277 0.15483128
-0.093771979 0.068365738 0.033129066 0.9371568 0.0461489 -0.34584317 0.15717629
-0.06626758 0.06461788 0.03027842 -0.040504843 0.01408193 -0.99908006 0.022746488
-0.057961807 0.067246281 0.031315163 0.049227834 0.0089929719 -0.99874705 0.00046901329
-0.043628734 0.067681536 0.031872701 0.023832312 0.024373146 -0.99941874 0.00065845769
-0.038492665 0.06706845 0.03167123 0.010142911 0.025743168 -0.9996171 0.00050117337
-0.028468646 0.062857114 0.031299558 -0.0066002961 0.02917859 -0.99955243 6.7840716e-05
-0.011606053 0.06591025 0.031483699 0.0043450026 0.024862384 -0.99968147 8.96248e-06
-0.0019612126 0.068046592 0.03159843 0.0060910876 0.024362065 -0.99968469 5.3872253e-07
0.0059587811 0.064157896 0.031556565 0.0065517877 0.024106193 -0.99968791 0
0.012301209 0.063273489 0.031576805 0.0065521803 0.024107654 -0.99968791 2.3869751e-07
0.025741421 0.067679949 0.031771153 0.0065520853 0.024105942 -0.99968791 0
0.031277809 0.065138765 0.031746157 0.0065525915 0.024108391 -0.99968791 3.5385096e-07
0.046731874 0.064955086 0.031843014 0.0065534902 0.024108332 -0.99968785 3.0288913e-07
0.058664583 0.064747974 0.031916227 0.014779167 0.024287248 -0.99959576 0.00028809681
0.065770425 0.066199064 0.031997792 0.10002413 0.02250736 -0.99473047 0.031191004
0.075107984 0.065538377 0.032043058 -0.080609612 0.050492283 -0.99546605 0.17768881
0.084514469 0.062994987 0.034043413 -0.7649461 0.05950857 -0.6413393 0.20656027
0.090377212 0.063830003 0.031031014 -0.91179848 -0.053468578 -0.40714213 0.11959976
-0.092981435 0.072499849 0.036966678 0.99159527 -0.032709613 -0.12517519 0.16543438
-0.064537138 0.077246577 0.030329719 0.018380171 0.01131039 -0.99976712 0.0047353473
-0.051675826 0.074744686 0.032115176 0.043623172 0.011641001 -0.99898022 0.00051599654
-0.04580662 0.075106889 0.032241285 0.030322332 0.015609849 -0.99941826 0.00069645018
-0.025605146 0.073165193 0.03158601 -0.010653077 0.030546818 -0.99947655 4.5107063e-05
-0.013226032 0.077577159 0.031754419 0.00032851048 0.027047709 -0.99963409 2.4095176e-05
-0.0077192755 0.075284347 0.031735223 0.0024650905 0.025997093 -0.999659 1.7682749e-05
0.0052825604 0.075650401 0.031829264 0.006552401 0.024109693 -0.99968791 6.2228327e-07
0.01857654 0.0758508 0.031921227 0.0065514487 0.024105109 -0.99968803 0
0.024462081 0.078871734 0.032032646 0.0065520485 0.024104662 -0.99968797 2.8738634e-07
0.03569492 0.074217595 0.031994037 0.0065516033 0.024107862 -0.99968785 0
0.042221654 0.074985236 0.032055326 0.0065514939 0.024107972 -0.99968791 0
0.054283213 0.072760031 0.032080714 0.0065534627 0.024109084 -0.99968779 4.5641607e-07
0.06590952 0.074205384 0.032191768 0.11130869 0.0058602737 -0.99376863 0.053223561
0.072934523 0.071556754 0.032173939 0.027158221 0.091885082 -0.99539918 0.14851472
0.087940648 0.075900368 0.033240672 -0.88982427 0.012016613 -0.45614514 0.16966803
0.090003334 0.071160331 0.034148701 -0.93411893 0.013256287 -0.3567158 0.13112056
-0.093668841 0.082480967 0.032993961 0.94611424 0.043106455 -0.32095131 0.12063092
-0.078602582 0.082260072 0.03001171 0.023933571 -0.081040479 -0.99642336 0.1677871
-0.063348159 0.085224807 0.030497018 0.056193992 0.0016664689 -0.99841845 0.000262671
-0.054511979 0.083459102 0.031010011 0.052264255 0.0014420195 -0.99863225 0.00026610933
-0.045295358 0.084547788 0.032555576 0.035261687 0.0041999849 -0.99936932 0.00054198585
-0.03652456 0.082847364 0.032226857 0.016898455 0.013378193 -0.99976772 0.00051424629
-0.025675403 0.086087875 0.031989381 0.00038688426 0.020163702 -0.99979663 0.00027556971
-0.015386729 0.086649343 0.031959027 -0.0043042866 0.026756633 -0.99963266 4.3697939e-05
-0.00751505 0.085232951 0.031976465 0.00033494609 0.024712319 -0.99969453 2.3731551e-05
0.0064663454 0.083535098 0.032027155 0.0065521966 0.024106327 -0.99968791 0
0.014309344 0.087293804 0.032169197 0.0065518506 0.024108918 -0.99968791 0
0.021495357 0.084765978 0.032155335 0.0065518017 0.024106544 -0.99968791 3.6058634e-07
0.032442689 0.084519997 0.032221153 0.0065514678 0.024106225 -0.99968797 0
0.044310473 0.08274544 0.032256141 0.0065548313 0.024107687 -0.99968779 9.5365186e-07
0.05516836 0.089084849 0.032480177 0.0065535745 0.024106571 -0.99968797 6.7745088e-07
0.061151382 0.087895624 0.032490712 0.046536028 0.019980207 -0.99871677 0.0058322856
0.078802139 0.086897045 0.032582313 -0.085082807 0.0082192682 -0.99633998 0.18405557
0.086127236 0.08410652 0.035130635 -0.97316206 -0.014933817 -0.22963589 0.16547163
0.090330876 0.085196547 0.031164667 -0.8856945 -0.033130825 -0.46308494 0.14582224
-0.093850732 0.09789256 0.032053526 0.93264467 0.057820223 -0.35613301 0.12644854
-0.080683626 0.091907598 0.030113494 0.10442834 0.15838818 -0.98183912 0.20443113
-0.075085215 0.093965009 0.0303078 -0.17155272 0.045731291 -0.98411286 0.14129414
-0.064395554 0.094038807 0.030614395 0.037380651 0.0046964632 -0.99928999 0.00073773129
-0.056388415 0.09634044 0.030881593 0.052609276 -0.0016447933 -0.99861383 0.0002347726
-0.044059079 0.096816234 0.032191705 0.046592146 -0.0022798025 -0.99891138 0.00037957606
-0.032331634 0.094941132 0.032560073 0.018335124 0.0098938411 -0.99978298 0.00052362226
-0.025200436 0.097265869 0.032405846 0.0099873021 0.020901028 -0.99973166 0.00042720509
-0.013252342 0.095353059 0.032182898 -0.0026806439 0.026712682 -0.99963957 2.4064399e-05
-0.0014366234 0.095170893 0.032255948 0.0035780102 0.02483212 -0.99968523 8.8710594e-06
0.0046151476 0.094914347 0.032289423 0.00508691 0.024325458 -0.99969113 3.3263366e-06
0.012136728 0.09738902 0.032398395 0.0063927611 0.024165921 -0.99968749 0
0.025737338 0.094661847 0.032421771 0.0065524909 0.02410827 -0.99968791 2.5948739e-07
0.035728395 0.094223261 0.032476675 0.0065522147 0.024106424 -0.99968791 0
0.045609549 0.092444658 0.032498546 0.0065530618 0.024109872 -0.99968785 0
0.055261146 0.094711348 0.032616463 0.0065537081 0.024108727 -0.99968785 4.5035014e-07
0.065346792 0.095262051 0.032695845 0.065523021 0.056971986 -0.99622339 0.027092908
0.076093145 0.093704313 0.032728713 0.013747198 0.07304281 -0.99723405 0.18002181
0.086631045 0.093668245 0.034348037 -0.92373466 -0.012547154 -0.38282737 0.18751651
-0.093702063 0.10660988 0.033592224 0.94625288 0.088585712 -0.31105947 0.13144141
-0.08438313 0.1037638 0.030205954 0.50142676 0.097109467 -0.8597331 0.2340686
-0.072085299 0.10656476 0.030604063 -0.12633637 0.036082819 -0.99133098 0.073670126
-0.062062863 0.10890308 0.030929439 0.042681869 0.0074789622 -0.99906075 0.00024305537
-0.05013461 0.10851756 0.031263743 0.050041776 0.0047819996 -0.99873567 0.00023964919
-0.044027366 0.10707004 0.031414013 0.046387292 0.004841682 -0.99891186 0.00029742019
-0.036191478 0.105203 0.032796077 0.034343544 0.0061486484 -0.99939114 0.00043062566
-0.023534197 0.10558013 0.032676898 0.017406495 0.018146297 -0.9996838 0.00040765156
-0.015934592 0.10610388 0.03246497 0.0026222679 0.027851004 -0.9996087 0.00014272651
-0.0028203037 0.10685394 0.032528602 -0.00047020204 0.026827252 -0.99964005 3.2404689e-05
0.0049771694 0.1012926 0.032445602 0.0049602468 0.024554031 -0.99968618 5.7641569e-06
0.015148337 0.10765871 0.032665774 0.0063181864 0.02415386 -0.99968821 8.340437e-07
0.023698026 0.10415405 0.032637302 0.0065523237 0.024108566 -0.99968785 0
0.034196876 0.10389326 0.032699816 0.0065517132 0.024103256 -0.99968797 0
0.044603303 0.10475048 0.032788694 0.0065530464 0.024107628 -0.99968791 5.4710642e-07
0.051190507 0.10474797 0.032831807 0.0065529561 0.024107637 -0.99968785 0
0.062636279 0.10674717 0.032955032 0.12474507 0.0021696927 -0.99218637 0.018931979
0.075725079 0.10403828 0.032975495 0.13443011 0.10933965 -0.98487228 0.16552587
0.085085146 0.10399109 0.034213386 -0.91636914 0.0026438383 -0.40032563 0.16546707
-0.093051851 0.11607995 0.036401477 0.96100944 0.0064761755 -0.27643964 0.12595151
-0.089503288 0.11794664 0.030296711 0.81334859 0.051607605 -0.57948309 0.17495883
-0.075272821 0.11497274 0.030653521 -0.086581223 0.024464859 -0.99594438 0.10412897
-0.062473755 0.11568055 0.031030968 0.039896034 0.010039309 -0.99915338 0.00016243459
-0.05098613 0.11783569 0.031395141 0.047538407 0.0077201431 -0.99883962 0.00024037041
-0.04694416 0.11430802 0.031451654 0.049011465 0.0028454396 -0.99879414 0.00025838794
-0.03322031 0.11546264 0.032934368 0.040967435 0.013469817 -0.99906963 0.00037986532
-0.013354095 0.11321592 0.032666929 0.0015363562 0.024152242 -0.9997071 0.00013858393
-0.0099737486 0.11172787 0.032599248 -0.0038717391 0.027233198 -0.99962163 3.4014465e-05
0.0054628914 0.11562998 0.03279452 0.0033263895 0.026090151 -0.99965405 1.5018906e-05
0.014671804 0.11870204 0.032928951 0.0061044092 0.024283942 -0.99968654 5.7596145e-07
0.027085803 0.11552539 0.032933712 0.0065520224 0.024108538 -0.99968785 0
0.033624448 0.11503862 0.032964829 0.0065526161 0.024112953 -0.99968779 4.2288164e-07
0.043323424 0.11239046 0.032964543 0.0065530515 0.024106763 -0.99968797 4.06472e-07
0.055227179 0.11591569 0.033127561 0.0065524112 0.024105839 -0.99968791 0
0.064680889 0.11488466 0.033164661 0.07126379 0.018235898 -0.99729073 0.023427844
0.071483567 0.11385002 0.033184297 0.13910067 0.0053376462 -0.99026388 0.10646464
0.087575123 0.11500963 0.034943033 -0.82252914 0.075546585 -0.56368297 0.17559998
-0.093244061 0.12601137 0.03521844 0.93700838 -2.9457642e-05 -0.34930667 0.15476267
-0.082347505 0.12859263 0.030679038 0.37620398 -0.015537987 -0.92640662 0.21971391
-0.073415473 0.12523262 0.030878039 -0.13607019 -0.010157479 -0.99064714 0.083400831
-0.065766908 0.12506211 0.031093681 -0.051665768 0.0015909231 -0.99866313 0.013324779
-0.056877412 0.1257048 0.031358358 0.037854813 0.01166874 -0.99921513 0.00019680797
-0.044636607 0.12607387 0.031714197 0.04887085 0.0055515235 -0.99878973 0.00021498384
-0.038277354 0.12679364 0.031907886 0.047737684 0.0098660598 -0.99881113 0.00023336659
-0.026576415 0.12222789 0.033413138 0.033022668 0.014078099 -0.99935544 0.00041598524
-0.015881751 0.12492514 0.033177286 0.017643018 0.020881934 -0.99962628 0.00034165537
-0.0042150198 0.1251753 0.032961268 -0.0020455399 0.028202575 -0.99960017 4.2251173e-05
0.0033031665 0.12334062 0.032966297 -0.0012887775 0.028298367 -0.99959868 3.141765e-05
0.014031511 0.12486162 0.033073291 0.0043326169 0.025273932 -0.99967116 6.3210746e-06
0.024372816 0.12655355 0.033181865 0.0062744054 0.024194168 -0.99968749 4.8860147e-07
0.035187241 0.12299922 0.033167034 0.006551805 0.024108648 -0.99968791 5.6397829e-07
0.0488717 0.12637895 0.033338223 0.0065513332 0.024108354 -0.99968785 0
0.056013897 0.12802413 0.033424705 0.0065504382 0.024106761 -0.99968791 0
0.063792743 0.12536311 0.033411518 0.092143402 0.027672686 -0.99536121 0.028246645
0.074698076 0.12560418 0.033488803 0.031681918 0.023213331 -0.99922842 0.18505959
0.087706469 0.12447993 0.035440981 -0.94391429 0.028972294 -0.32891694 0.14558084
0.090208784 0.12237594 0.030535046 -0.8720088 -0.044114292 -0.48749831 0.11950271
-0.093090795 0.13717712 0.033103175 0.91220808 0.063215889 -0.40482125 0.13857837
-0.085390501 0.13600449 0.03071598 0.86042261 -0.063519932 -0.50560683 0.1957003
-0.074702263 0.13444912 0.030995306 -0.21799225 -0.045579795 -0.97488558 0.11703664
-0.052319273 0.1325995 0.031603791 0.041800451 0.011648098 -0.99905807 0.00018990331
-0.043179031 0.13468957 0.031899821 0.049822681 0.0085988306 -0.99872106 0.00018986956
-0.035291135 0.13501665 0.032130614 0.053728811 0.0050454545 -0.99854279 0.00020706207
-0.025642009 0.13441029 0.033218682 0.040060382 0.015049023 -0.99908394 0.00030225021
-0.015693691 0.13484754 0.033562899 0.026006915 0.017101398 -0.99951547 0.0003862475
-0.004031267 0.13308373 0.033216827 -0.0012495467 0.027145933 -0.99963063 4.9107472e-05
0.014531761 0.13781044 0.033388816 0.0016040908 0.025357973 -0.99967712 1.9207851e-05
0.024564615 0.13444382 0.033373389 0.0061592464 0.024274852 -0.99968642 0
0.035203844 0.13658874 0.033494845 0.0065526506 0.024103913 -0.99968803 0
0.04713621 0.13412234 0.033513572 0.0065527079 0.024104901 -0.99968791 8.7671907e-07
0.05291862 0.13061616 0.033466924 0.0065506902 0.02410803 -0.99968791 1.2392013e-07
0.066333428 0.13397428 0.033635821 0.2593177 0.098028407 -0.96080422 0.080640458
0.074213602 0.13306347 0.033665508 -0.0051334179 0.057117056 -0.99835426 0.14414671
0.085904352 0.13497275 0.034146957 -0.79802668 0.090011425 -0.59586179 0.16236009
0.090288237 0.13207094 0.03034004 -0.88098305 -0.0080916286 -0.4730787 0.12261119
-0.093004607 0.14161389 0.034242086 0.94980419 -0.071888454 -0.30447331 0.11786426
-0.084710747 0.14676547 0.030915232 0.53064257 -0.043881934 -0.84645903 0.19621584
-0.074941151 0.14473122 0.031160315 -0.14053226 -0.013098781 -0.98998946 0.14568734
-0.061733104 0.14537902 0.031548444 0.028550858 0.016705088 -0.99945271 0
-0.054902416 0.14208907 0.031688593 0.028551353 0.016700303 -0.99945277 0
-0.037360996 0.14942725 0.032312311 0.04631209 0.0075459699 -0.99889851 0.00013680165
-0.022713184 0.14153454 0.033416443 0.036997356 0.0078262603 -0.99928474 0.00029525984
-0.013152085 0.1460788 0.033919021 0.023356158 0.010234497 -0.9996748 0.00035837572
-0.0052474029 0.14561261 0.033627816 0.01049326 0.017944813 -0.99978393 0.00024988572
0.0044994815 0.14502242 0.033496976 0.00021854082 0.025763229 -0.999668 4.8996659e-05
0.024275683 0.14630447 0.033657506 0.0052324603 0.02414624 -0.99969476 2.2345669e-06
0.037138633 0.14119852 0.033618685 0.0065512699 0.024108872 -0.99968785 0
0.043492138 0.14579354 0.033771131 0.0065520806 0.024107039 -0.99968791 0
0.054638881 0.14343676 0.033787355 0.006553011 0.02410602 -0.99968791 5.979129e-07
0.063960232 0.14505234 0.033887405 0.10669584 0.009760906 -0.99424374 0.031988055
0.074373305 0.14432348 0.033938073 -0.092306361 0.098495983 -0.99084711 0.1601781
0.086556077 0.14583313 0.034016721 -0.87646592 -0.081192486 -0.47456846 0.1469377
-0.093549885 0.15552561 0.033925217 0.94872361 0.019695584 -0.31549239 0.12211324
-0.074916296 0.15642469 0.031356446 -0.18339083 0.027097961 -0.98266649 0.12035993
-0.069724888 0.15893137 0.031546634 -0.11755079 -0.01016102 -0.99301493 0.030502828
-0.046222933 0.15608312 0.032170393 0.03580701 0.011082686 -0.99929726 9.1555659e-05
-0.034388408 0.15344617 0.032464396 0.044309381 0.0093486188 -0.99897408 0.0001120059
-0.024454178 0.15573817 0.032808367 0.049462914 0.007490058 -0.99874789 0.00014584589
-0.01673121 0.15373687 0.03361354 0.038590774 0.0098497607 -0.9992066 0.00025188137
-0.0085053705 0.15051813 0.033934094 0.02437897 0.016355248 -0.99956894 0.00032292513
0.0073040402 0.15792213 0.033849407 0.0049992925 0.022095282 -0.9997434 0.0001296844
0.029247386 0.1509774 0.033802774 0.0063549671 0.024150325 -0.99968809 3.9220041e-07
0.037103489 0.15526003 0.033957537 0.006452641 0.02410939 -0.99968845 8.1301999e-07
0.046178594 0.15519166 0.034015365 0.0065512024 0.024105137 -0.99968791 0
0.054851256 0.1561783 0.034095995 0.0065541822 0.024107842 -0.99968785 3.3240943e-07
0.06452933 0.15662387 0.034170173 0.11310408 -0.015373282 -0.99346417 0.031968918
0.074664712 0.15385492 0.034169827 -0.14594711 0.093637511 -0.984851 0.17077912
0.087518163 0.15542334 0.033970632 -0.86157763 0.040799692 -0.50598371 0.14198115
-0.093940094 0.16417924 0.033312913 0.92145556 -0.027725879 -0.38749319 0.14337842
-0.085974254 0.16561861 0.031194212 0.38242838 -0.018226855 -0.92380536 0.18702744
-0.076069169 0.1683102 0.031522144 -0.043792583 0.018649768 -0.99886656 0.14462256
-0.064636245 0.16398543 0.031776462 -0.038226619 0.020347061 -0.99906188 0.012847466
-0.056198645 0.16301712 0.032001309 0.028551126 0.01670544 -0.99945277 0
-0.046059374 0.16498625 0.032323856 0.02866751 0.016640771 -0.9994505 2.7383865e-07
-0.038059305 0.16705683 0.032586992 0.03392652 0.010110944 -0.9993732 6.7604451e-05
-0.02465253 0.16545933 0.032943275 0.044805389 0.0060357442 -0.99897748 0.00010828315
-0.013452243 0.16442423 0.033622421 0.037589218 0.0076164184 -0.99926424 0.00021570252
-0.0075285579 0.16794115 0.034398906 0.030139413 0.008560597 -0.99950904 0.00025405237
0.0072539444 0.16449463 0.034006223 0.009308625 0.019425124 -0.99976796 0.00019045816
0.017223062 0.16458674 0.034052145 0.0011398223 0.024207519 -0.99970627 5.2442101e-05
0.023707142 0.1654494 0.034115445 0.0015676332 0.025396571 -0.99967629 2.0924068e-05
0.034973238 0.16427244 0.034160901 0.0063460646 0.024062529 -0.99969029 3.6629223e-07
0.043415915 0.16638529 0.034267183 0.0065542627 0.024113024 -0.99968779 6.2608609e-07
0.055878788 0.16572285 0.03433289 0.0065522664 0.024102384 -0.99968797 3.3139588e-07
0.062884107 0.163798 0.034332387 0.065945484 0.061401036 -0.99593234 0.020468954
0.074607931 0.16301501 0.034390345 -0.089365855 0.0062169158 -0.99597943 0.19871823
0.087989353 0.16692805 0.0364196 -0.92833644 0.0052590324 -0.37170392 0.1472888
0.090974838 0.16271901 0.030602887 -0.9004454 0.037979309 -0.43330777 0.1039646
-0.093747176 0.17502987 0.03269751 0.93234622 0.068807222 -0.35495937 0.11440993
-0.084279887 0.17719012 0.031435996 0.78584677 0.016380411 -0.61820436 0.21899271
-0.074557856 0.17485386 0.031674676 -0.116178 -0.070818491 -0.99070042 0.10474884
-0.063578553 0.1777458 0.03203664 -0.0058505652 0.011041991 -0.99992192 0.0049410393
-0.053701848 0.17232978 0.032228265 0.028551627 0.016706469 -0.99945271 0
-0.044986002 0.17617404 0.032541487 0.02870179 0.016629189 -0.99944967 0
-0.036088664 0.17367208 0.03275384 0.035712034 0.013287775 -0.99927378 7.684913e-05
-0.021792084 0.17105594 0.033118516 0.043201718 0.0049893199 -0.99905396 0.00012180312
-0.015186042 0.1731564 0.033365823 0.037979174 0.0079892324 -0.9992466 0.00015403423
-0.001209178 0.17391267 0.034606803 0.026000459 0.011403402 -0.99959689 0.00021500101
0.0011299551 0.17523436 0.034578308 0.024224762 0.0080680251 -0.99967402 0.00022418929
0.01383163 0.17367828 0.034249149 0.010008503 0.019666262 -0.99975657 0.00014842118
0.021955511 0.17689589 0.034379985 0.0036426394 0.023840232 -0.99970913 4.9980754e-05
0.031175077 0.17695913 0.034441933 0.0047853636 0.024452982 -0.99968952 7.7604809e-06
0.042335499 0.17666976 0.034508105 0.0065521826 0.024106393 -0.99968797 6.3260245e-07
0.057858828 0.17440793 0.034555301 0.010668565 0.024119884 -0.99965209 4.725836e-05
0.066195346 0.17455585 0.034613501 0.12321172 0.021116447 -0.99215567 0.069093615
0.075954169 0.17164534 0.034607276 -0.22192881 0.060272571 -0.97319829 0.20804346
0.08685822 0.17491944 0.03558917 -0.89302379 0.22249828 -0.39115608 0.17587845
-0.093052559 0.18448958 0.0333459 0.94291145 0.0029288533 -0.33303061 0.12399939
-0.084695242 0.18899389 0.031621397 0.8226167 -0.075798966 -0.56352139 0.19583046
-0.077057973 0.18584731 0.031786975 -0.041924164 -0.076463349 -0.99619061 0.16679269
-0.064580344 0.18519792 0.032132559 -0.040823121 0.0071671 -0.99914074 0.0125662
-0.054909028 0.18480736 0.032402307 0.028552454 0.016700288 -0.99945277 0
-0.035297874 0.18522914 0.032969572 0.02960776 0.016498674 -0.99942541 2.7671108e-06
-0.022014499 0.1865828 0.033371642 0.040176183 0.0081883157 -0.9991591 9.1857808e-05
-0.0053860568 0.1840625 0.034017786 0.030341126 0.011802654 -0.99946994 0.00014916381
0.0060525164 0.18479621 0.034786288 0.023160817 0.016297204 -0.99959892 0.00019998223
0.018726621 0.18007579 0.034435503 0.0066389716 0.019629071 -0.9997853 0.00012176902
0.026782077 0.18548113 0.034618646 0.0053234305 0.023305919 -0.99971414 6.5756809e-05
0.03352369 0.18559246 0.034665514 0.0040203878 0.025645193 -0.99966305 1.121406e-05
0.047018554 0.18454851 0.034728788 0.0065518827 0.024107896 -0.99968785 3.015557e-07
0.057599165 0.18739042 0.034866661 0.0058849403 0.024161205 -0.99969077 8.6601204e-07
0.067979939 0.18636271 0.034909915 0.14034839 0.050687227 -0.98880392 0.11816256
0.072440237 0.18650046 0.03494247 0.21390063 0.059389967 -0.9750483 0.15441872
0.086850204 0.18553433 0.034883592 -0.83213121 -0.10112356 -0.54528135 0.18511555
0.091815129 0.18134283 0.03027435 -0.91496301 -0.0023880301 -0.40353078 0.081795588
-0.093125924 0.19404523 0.031844452 0.89696234 -0.0052396432 -0.44207588 0.14815277
-0.085520566 0.19543481 0.031705458 0.79339379 0.067825474 -0.60491824 0.19788992
-0.076521762 0.19549511 0.031963523 0.019517895 0.048906479 -0.99861258 0.13426043
-0.06452883 0.19570436 0.032309614 -0.018301383 0.028376523 -0.99942976 0.007631782
-0.054947823 0.19523385 0.032575447 0.028550467 0.016707882 -0.99945271 4.5832013e-07
-0.046253599 0.19441736 0.032810159 0.028550398 0.016697338 -0.99945295 0
-0.031968657 0.19562247 0.033238366 0.029444564 0.016171888 -0.9994356 2.4168774e-06
-0.020395916 0.19298452 0.033524867 0.038958281 0.0087297959 -0.99920273 8.3217361e-05
-0.015895115 0.19262965 0.033647507 0.039806344 0.0082237413 -0.99917358 8.9040899e-05
-0.0039592385 0.1937685 0.034009375 0.034386978 0.010284756 -0.99935561 0.00015634367
0.0008934848 0.19851679 0.034225479 0.031850014 0.012078743 -0.99941969 0.00015091267
0.016988318 0.19374312 0.034800638 0.014392835 0.018670423 -0.99972212 0.00018591662
0.024419939 0.19417238 0.034812745 0.012741682 0.023282472 -0.99964774 0.00010998791
0.034890201 0.19642006 0.034935564 0.0032308958 0.02641155 -0.99964589 1.4506471e-05
0.043458566 0.19234519 0.034893464 0.0063786865 0.024147548 -0.99968815 3.2370608e-07
0.059553735 0.19594865 0.035085842 0.057307009 0.027960362 -0.99796498 0.010947293
0.063258089 0.19386773 0.035059944 0.13635252 0.016629662 -0.99052072 0.034575514
0.079576284 0.19072229 0.035091043 -0.70783508 -0.094265133 -0.70005971 0.2217866
0.08720433 0.1969583 0.034335203 -0.86968136 0.00091040123 -0.49361277 0.16034006
-0.093927048 0.20714732 0.032822832 0.92307025 -0.015751505 -0.38430864 0.12282267
-0.085313633 0.20340768 0.031844608 0.68783617 0.0009120201 -0.72586548 0.20496595
-0.076587439 0.20327114 0.032091603 -0.024694705 0.056792311 -0.99808055 0.14206529
-0.067247808 0.20551825 0.032395951 -0.096557945 0.021805335 -0.99508852 0.031701006
-0.055916298 0.20415826 0.032696925 0.028550034 0.016702408 -0.99945277 0
-0.049026776 0.20811205 0.032959804 0.028552258 0.016703516 -0.99945277 0
-0.034871865 0.20489846 0.033310451 0.028550532 0.016708795 -0.99945265 0
-0.022290684 0.20584835 0.033685721 0.030044287 0.015733631 -0.99942476 6.7119186e-06
-0.014224759 0.202355 0.033857752 0.03906256 0.014762152 -0.99912769 6.3693522e-05
-0.0076357163 0.20792513 0.034139063 0.03836168 0.01401123 -0.99916565 6.0020095e-05
0.0045488346 0.20694812 0.034719214 0.033933479 0.015070049 -0.99931049 0.00010855455
0.015011443 0.2069436 0.035352334 0.026709009 0.020089712 -0.99944139 0.00013866798
0.024100998 0.20381801 0.035043251 0.014242088 0.022599339 -0.99964315 0.00011417064
0.033626676 0.20641433 0.03516829 0.0046396614 0.025251649 -0.99967039 2.5905638e-05
0.046820249 0.20346022 0.035183523 0.006173451 0.024369353 -0.99968392 3.506548e-07
0.057271838 0.20270188 0.03523374 0.0011206939 0.023143522 -0.99973148 9.4500348e-05
0.065645479 0.2040965 0.035322249 0.24615252 0.0076539749 -0.96920091 0.071873382
0.076157816 0.20454666 0.035402004 -0.30746406 0.021724172 -0.95131165 0.22804774
0.084738635 0.20642178 0.034304712 -0.57063127 0.020252666 -0.82095671 0.17468356
-0.092772648 0.21422303 0.036374882 0.95290083 -0.0059658284 -0.30322343 0.13451658
-0.087408043 0.21730633 0.032017056 0.84228837 0.043975573 -0.53723031 0.14320774
-0.075038686 0.21448405 0.032323234 -0.15462305 0.036246039 -0.9873085 0.11023949
-0.067081988 0.21739475 0.03259917 -0.053356394 0.027334474 -0.99820131 0.013410822
-0.056747764 0.21340859 0.032827761 0.028551241 0.016697148 -0.99945283 0
-0.044558968 0.21292137 0.033167806 0.028550362 0.016701173 -0.99945283 4.4249012e-07
-0.03510775 0.21507585 0.033473793 0.028551342 0.01670257 -0.99945277 0
-0.022964561 0.21617904 0.033839114 0.029366098 0.01652332 -0.99943221 3.6993013e-06
-0.010839805 0.21247694 0.034123603 0.036804501 0.015186173 -0.99920708 5.0068833e-05
-0.0064873323 0.21762906 0.034334041 0.036294553 0.014369929 -0.99923784 5.4657659e-05
0.002903806 0.21381959 0.034538642 0.036550287 0.014902646 -0.99922067 7.7042801e-05
0.013409756 0.21362577 0.035614815 0.028690454 0.017377485 -0.99943727 0.00014455352
0.024078831 0.21568441 0.035418656 0.01790325 0.020056654 -0.9996385 0.00013909389
0.037295107 0.21691112 0.035445452 0.0027991899 0.023619013 -0.99971712 1.4992507e-05
0.04430709 0.21433389 0.035429262 0.0053292345 0.024667559 -0.99968153 1.4345284e-06
0.056849465 0.21331997 0.035487015 -0.00036124399 0.025257288 -0.99968094 0.00010025822
0.064454362 0.21281692 0.035524726 0.14044756 0.072404683 -0.98743707 0.04101989
0.076020814 0.21557871 0.035667133 -0.65222144 0.22598776 -0.72355837 0.2103283
0.085394382 0.2168408 0.035394978 -0.81299162 -0.034230329 -0.58126843 0.17339745
-0.093100891 0.22579597 0.035007875 0.89018804 0.14072591 -0.4333145 0.12902564
-0.085200764 0.22246712 0.032166354 0.36312255 0.1009945 -0.92625159 0.19392563
-0.074499406 0.22395718 0.032496952 -0.1737612 0.042628933 -0.98386472 0.11323958
-0.064175397 0.22399879 0.032792564 -0.051082391 0.0088810781 -0.99865496 0.014361679
-0.056462269 0.22664519 0.033057127 0.028549913 0.016705543 -0.99945271 0
-0.043914057 0.22706033 0.033422515 0.028550211 0.01670246 -0.99945277 4.0065146e-07
-0.034868207 0.22706906 0.033681069 0.028551707 0.016702507 -0.99945277 0
-0.023094652 0.22543521 0.033990089 0.028550895 0.016703011 -0.99945277 0
-0.016839135 0.22819996 0.034214988 0.028550353 0.016705105 -0.99945277 0
-0.0058364812 0.22272389 0.034437776 0.036406588 0.014453319 -0.99923247 6.2454172e-05
0.0045550042 0.22592421 0.034788106 0.037115935 0.013577453 -0.9992187 7.1971001e-05
0.016688447 0.22412263 0.035566613 0.027014041 0.014838611 -0.99952501 0.0001151231
0.025845524 0.22575015 0.035721637 0.019973902 0.013885788 -0.99970412 0.00013495756
0.037763283 0.22540769 0.035653412 0.0055328635 0.021684965 -0.9997496 4.1322633e-05
0.044308312 0.22568914 0.035703097 0.0051619373 0.024143562 -0.99969518 3.3835449e-06
0.058001511 0.22544698 0.035786994 0.030837398 0.024934765 -0.99921334 0.0031481364
0.066754952 0.22197312 0.035760596 0.109039 0.010686304 -0.99398005 0.075264387
0.074718051 0.22652549 0.035922565 -0.29513189 0.10269596 -0.94992143 0.17819476
0.085297644 0.22469088 0.036197066 -0.87216717 0.041664328 -0.48743054 0.1851503
0.091123179 0.22628424 0.03132065 -0.89865178 -0.037173938 -0.43708488 0.088562287
-0.093187056 0.23181522 0.033139836 0.9282617 0.11037284 -0.35517329 0.10599066
-0.085782506 0.23501237 0.032359391 0.82895947 0.0042580487 -0.5592925 0.18309373
-0.078707352 0.23541345 0.032568201 0.056417309 0.044236042 -0.99742675 0.17937781
-0.061802037 0.23759565 0.033087596 0.028549725 0.016707169 -0.99945271 0
-0.055187542 0.23542561 0.033240277 0.028550122 0.016703214 -0.99945289 2.7662617e-07
-0.044576723 0.23263469 0.033496745 0.02855026 0.016699126 -0.99945283 0
