# .PCD v0.7 - Point Cloud Data file format
VERSION 0.7
FIELDS x y z normal_x normal_y normal_z curvature
SIZE 4 4 4 4 4 4 4
TYPE F F F F F F F
COUNT 1 1 1 1 1 1 1
WIDTH 577
HEIGHT 1
VIEWPOINT 0 0 0 1 0 0 0
POINTS 577
DATA ascii
-0.28231788 0.14247556 -0.087384582 -0.0054168622 -0.99998111 0.0029233582 0.014315985
-0.25265619 0.14247556 -0.081612654 0.055440202 -0.99751097 0.043567739 0.15865786
-0.24258049 0.14310332 -0.084367923 -0.071387686 -0.98322487 -0.16784713 0.23455355
-0.21427387 0.14544332 -0.080329299 0.79568267 -0.44658893 -0.40920353 0.17340183
0.23933634 0.14985545 -0.086488143 -0.97129482 -0.18601026 0.14827904 0.15536559
0.24031518 0.14809448 -0.08327391 -0.95119852 -0.25355542 0.17587224 0.15176824
0.27745819 0.14478281 -0.086368866 -0.84561461 0.084256969 0.52710211 0.19337499
0.33780277 0.1424104 -0.083858594 0.13881868 -0.99007219 0.022056274 0.038391583
0.34323868 0.1449452 -0.083418958 0.24514738 -0.96924758 0.021492872 0.053755932
0.49038318 0.14214161 -0.083175436 -0.9881897 -0.0034378869 0.1531972 0.0057685515
-0.49826202 0.1553432 -0.082121633 0.96224934 -0.25141108 0.10425276 0.051773127
-0.35625595 0.15211914 -0.087007128 0.81866688 0.22930983 -0.52649927 0.15842299
-0.21427387 0.153778 -0.089055866 0.86877209 -0.49286622 -0.048145171 0.21720423
0.27504125 0.15611552 -0.082617089 -0.90491164 0.19145674 0.38010421 0.16677019
0.35858059 0.15209925 -0.088116579 -0.43211246 0.89985561 0.059487212 0.099322058
0.48937732 0.15406211 -0.084211186 -0.96407962 -0.21155085 0.16061346 0.02368743
-0.3559784 0.16762519 -0.086371556 0.9002676 0.12558375 -0.41682959 0.1879646
-0.23668157 0.16699204 -0.084241211 0.62341183 -0.20125194 0.75554961 0.22963822
-0.21427387 0.16590093 -0.08334624 -0.029216947 -0.98977804 0.13959181 0.19146694
-0.20305049 0.16801623 -0.085627571 0.17546166 -0.96491367 0.19533265 0.11867356
-0.19754726 0.16600676 -0.087438956 0.1361869 -0.96393913 0.228636 0.093618467
-0.18587154 0.16610833 -0.086628683 -0.0062845941 -0.96925974 0.2459594 0.034083396
-0.17389904 0.16691698 -0.080178589 0.019823411 -0.98419929 0.17595103 0.042633172
-0.16032512 0.16588166 -0.088436618 -0.024626071 -0.96093452 0.2756781 0.033948194
-0.15648556 0.16613983 -0.086377382 -0.010539088 -0.97234964 0.23329157 0.033435579
-0.14873378 0.16637979 -0.084463462 0.0045726793 -0.98526955 0.17094763 0.036293007
-0.13489953 0.16634656 -0.084728479 -0.011929693 -0.9769249 0.21324952 0.037686445
-0.12463614 0.16614601 -0.086328059 -0.030858466 -0.97696191 0.21117111 0.035342526
-0.10722294 0.16597304 -0.087707832 -0.038213495 -0.95713842 0.28709885 0.035212018
-0.09951175 0.16580644 -0.089036703 0.025129672 -0.97500616 0.22075185 0.031530693
-0.080650121 0.16623034 -0.08565554 0.078455091 -0.94211048 0.32599485 0.041205104
-0.075225852 0.16647094 -0.083736353 0.019420151 -0.97874331 0.20416731 0.045708273
-0.065202914 0.16649546 -0.08354076 -0.005316393 -0.9752897 0.22086594 0.041978888
-0.050664943 0.1665007 -0.083498985 0.010179901 -0.9885996 0.15022355 0.040626131
-0.041317638 0.16669083 -0.08198227 0.031819392 -0.98760521 0.15369965 0.042476319
-0.034641281 0.1665082 -0.083439209 0.0083898222 -0.98348594 0.18079001 0.050815146
-0.025478909 0.16659391 -0.082755536 -0.0079888161 -0.98625892 0.16501401 0.049818128
-0.0012257452 0.16609892 -0.086703688 0.00048154942 -0.97270924 0.23202664 0.039227441
0.0023362965 0.16581205 -0.08899197 -0.017875418 -0.96307117 0.26865295 0.039742265
0.01333454 0.16641474 -0.084184557 -0.023068121 -0.97606635 0.21624579 0.044179142
0.029943928 0.16679154 -0.081179187 0.022134434 -0.98626781 0.16366394 0.10351082
0.03519921 0.16620715 -0.085840426 0.031465735 -0.96756351 0.25066072 0.03272583
0.053185299 0.16575623 -0.089437306 0.010320053 -0.94489026 0.32722461 0.045374431
0.064952083 0.16587919 -0.088456415 0.0055468753 -0.95591432 0.29359323 0.034848493
0.077962831 0.16662784 -0.082484916 -0.0034399866 -0.98500359 0.17250016 0.093208134
0.086161524 0.16616018 -0.086215161 0.035028819 -0.98161227 0.18764415 0.033748776
0.096829802 0.16628104 -0.085251018 -0.0075162794 -0.97798574 0.20853613 0.038473669
0.11731176 0.16658098 -0.082858786 -0.013033825 -0.98397279 0.17784153 0.04300078
0.12498851 0.16627659 -0.085286558 0.02824156 -0.98123348 0.19074418 0.036346346
0.13030735 0.16576234 -0.08938846 -0.0094022127 -0.96211475 0.27248266 0.041986991
0.14342198 0.16687247 -0.080533691 -0.015607196 -0.98913926 0.1461504 0.042549182
0.15779842 0.16584828 -0.088703014 0.026748586 -0.95850331 0.28382382 0.036093347
0.16161963 0.16648896 -0.083592623 -0.0091450699 -0.98188472 0.18925841 0.039148886
0.17106913 0.16685623 -0.08066304 0.0015431369 -0.98736459 0.15845747 0.040668853
0.18373556 0.16578779 -0.089185558 0.00094576122 -0.958179 0.28616783 0.042033788
0.19491783 0.16608831 -0.086788356 -0.01815089 -0.9705435 0.24024102 0.035927057
0.20471805 0.16573098 -0.089638591 0.0090296976 -0.96744835 0.25290748 0.03806679
0.2120204 0.16617674 -0.086082973 -0.01561735 -0.97430056 0.22470985 0.040348642
0.23604079 0.16579799 -0.084997036 -0.080513507 -0.93301731 0.35070813 0.1568256
0.27598572 0.16046359 -0.082210526 -0.61526823 0.05195016 0.78660417 0.24419038
0.2840983 0.16764052 -0.084852166 0.33434075 -0.93585163 0.11134629 0.16324298
0.39235976 0.16927364 -0.084730372 0.41534293 -0.89086443 0.18398589 0.15254535
-0.49417943 0.17324743 -0.087578952 0.61325741 -0.76763952 0.18613116 0.083059758
-0.48383039 0.17329915 -0.087415755 0.31740358 -0.92575079 0.20552486 0.056129407
-0.47561929 0.17467999 -0.083059072 0.21877459 -0.94210213 0.25412849 0.03840819
-0.45020351 0.17439814 -0.083948366 1.4326586e-05 -0.9532634 0.30214041 8.9939076e-06
-0.44330549 0.173345 -0.087271124 -8.1012964e-05 -0.95326424 0.30213794 7.7028981e-06
-0.43631145 0.17447269 -0.083713174 7.2030161e-05 -0.95326215 0.30214447 0
-0.42754847 0.17522171 -0.081349939 -8.7088401e-06 -0.95326376 0.30213925 1.1843154e-05
-0.41517299 0.17381564 -0.085786164 -1.0443015e-05 -0.95326453 0.3021369 2.8166517e-06
-0.40619823 0.17363343 -0.08636111 2.2864104e-05 -0.95326585 0.30213279 3.4533574e-07
-0.38603863 0.17415403 -0.084718607 0.019142384 -0.95532209 0.29494625 0.0012120771
-0.35500854 0.17132752 -0.084150463 0.9430449 -0.029472312 -0.33135736 0.22793925
-0.30216917 0.17804651 -0.088501558 -0.0025333546 -0.98679626 0.16194676 0.023461968
-0.28402573 0.17804652 -0.087176122 0.001104216 -0.98944604 0.14489758 0.032780237
-0.2365002 0.17054634 -0.084074289 0.68476385 0.07955119 0.72441018 0.22955087
-0.22065853 0.17357458 -0.086546764 -0.28155971 -0.90282398 0.3250123 0.16028558
-0.21598639 0.17220734 -0.08320877 -0.11168489 -0.94397986 0.31052956 0.16154374
-0.20382176 0.1742605 -0.084382705 0.049563605 -0.95933211 0.27789426 0.076963104
-0.19681579 0.17513672 -0.08161822 0.069865562 -0.94729847 0.31264091 0.065351978
-0.18161058 0.17402968 -0.085110962 -0.00020783556 -0.96330231 0.26841876 0.037430894
-0.17778626 0.17373593 -0.086037755 0.037445206 -0.96480918 0.26027107 0.036463957
-0.15329203 0.17454822 -0.083474897 -0.044952482 -0.97102481 0.23471254 0.039174497
-0.14215416 0.1745892 -0.083345644 -0.036262382 -0.98588055 0.16347712 0.036927868
-0.13488042 0.17337498 -0.087176546 -0.015610402 -0.98368931 0.17919718 0.03260095
-0.12857261 0.17418483 -0.084621467 -0.025635464 -0.98514515 0.16979948 0.040284041
-0.092858374 0.17552993 -0.080377623 0.048593238 -0.97126853 0.23297228 0.044575587
-0.074919239 0.17386283 -0.085637368 0.045169968 -0.97820926 0.20264816 0.043475341
-0.066838987 0.174729 -0.08290454 0.0030715601 -0.98796982 0.15461613 0.042626876
-0.052634258 0.17543568 -0.080674961 -0.0061468859 -0.98079556 0.19494176 0.045222357
-0.042907555 0.17459139 -0.0833387 0.026747014 -0.98050636 0.19465832 0.04442329
-0.032451719 0.17424297 -0.084437996 -0.0066876328 -0.97312707 0.23017165 0.055058505
-0.024728697 0.17393944 -0.085395664 -0.0035064875 -0.98069853 0.19549441 0.041073781
-0.015928088 0.1754061 -0.080768287 0.00096174283 -0.97746927 0.21107592 0.046212848
-0.0082226396 0.17311621 -0.087993011 -0.035265379 -0.97442383 0.22193374 0.030609895
0.0055705318 0.17349346 -0.086802766 0.038958479 -0.97372538 0.22436814 0.041474827
0.014436636 0.17341278 -0.087057248 -0.032730691 -0.96918565 0.24414745 0.038192123
0.020421077 0.175422 -0.080718152 0.017085796 -0.97623628 0.2160342 0.055313528
0.034492422 0.17469268 -0.08301916 0.032079197 -0.95656842 0.28973758 0.036520898
0.046789631 0.17343727 -0.08698003 0.0032038915 -0.95840323 0.28539944 0.028669594
0.055979997 0.17384994 -0.085678041 -0.0031297009 -0.96101046 0.27649444 0.035120785
0.063343368 0.17396575 -0.085312612 -0.028271792 -0.97343147 0.22722635 0.036440477
0.072057568 0.17437983 -0.084006265 -0.032776255 -0.97599775 0.21530017 0.042047702
0.085413329 0.17413303 -0.08478488 0.0007929866 -0.98235422 0.18702841 0.040806398
0.10254697 0.17270672 -0.089284942 -0.006785905 -0.96983063 0.24368522 0.032353036
0.1118134 0.17370647 -0.086130679 -0.012187698 -0.98042971 0.19649199 0.036894154
0.12637328 0.17506579 -0.081841946 0.026607793 -0.97270024 0.2305347 0.043119673
0.13925686 0.17277315 -0.089075349 0.022012034 -0.96976829 0.24303287 0.033081565
0.14581931 0.17336719 -0.087201104 0.027605267 -0.97506219 0.2202085 0.035624664
0.15320447 0.17300744 -0.08833614 0.013944633 -0.97062176 0.24020624 0.034918562
0.16338171 0.1749372 -0.082247667 -0.023941867 -0.9783842 0.20540483 0.044421285
0.17055729 0.17271923 -0.089245513 -0.002714305 -0.96931106 0.2458225 0.030426016
0.18470173 0.1741191 -0.084828846 -0.0086513842 -0.96505952 0.26188821 0.040398333
0.19488506 0.17368829 -0.086188026 -0.022610141 -0.96748906 0.25190023 0.039699011
0.20386419 0.17535421 -0.080932006 0.017430484 -0.9655081 0.25978902 0.048156563
0.21581405 0.17433837 -0.084136978 -0.019386595 -0.96250355 0.27057549 0.054145835
0.23039502 0.17477134 -0.082771003 -0.0015124769 -0.94600862 0.32413772 0.088749647
0.24777983 0.17420363 -0.0845621 0.16894498 -0.92431951 0.3421858 0.16090144
0.25555456 0.17412683 -0.084804386 -0.09027493 -0.92187089 0.37683484 0.077585034
0.29905981 0.1746172 -0.08742635 0.38680357 -0.92180514 0.025654817 0.028930802
0.30692932 0.17828684 -0.080115542 0.32639807 -0.94375759 0.0527821 0.020729283
0.31506088 0.17287648 -0.085318334 0.31955209 -0.94149059 0.10715401 0.023107363
0.32960254 0.17783475 -0.083603904 0.41421339 -0.90966392 0.03063968 0.040901285
0.33332011 0.17956829 -0.083530881 0.42961445 -0.89972186 0.077019438 0.039585527
0.39315662 0.17167091 -0.084051453 0.33370343 -0.92818409 0.1646699 0.18385099
0.41702721 0.17483321 -0.082575813 -0.084546611 -0.9760496 0.20044708 0.028029529
0.43617523 0.17473768 -0.082877196 -8.1431361e-05 -0.95325816 0.30215696 0
0.44380784 0.17486298 -0.082481831 4.1342788e-05 -0.95326769 0.302127 1.1605756e-05
0.46276811 0.17531963 -0.081041113 -0.028499829 -0.94939667 0.31278369 0.001560137
0.47264504 0.17391977 -0.085457742 -0.28594467 -0.89220721 0.34957403 0.049939591
0.48808107 0.17222421 -0.084451653 -0.72985756 -0.63610905 0.25034627 0.078193843
-0.34411779 0.18803835 -0.086532645 0.20525971 -0.97298151 -0.10571461 0.081120513
-0.33680156 0.18803835 -0.083684109 0.25751555 -0.96363121 -0.071418136 0.091287546
-0.31604505 0.18629305 -0.084170416 -0.026961543 -0.98861754 0.14801472 0.01838729
-0.30956614 0.18803835 -0.086773232 -0.049082208 -0.98606986 0.15892534 0.021305393
-0.28095135 0.18803835 -0.086743392 0.048629168 -0.9877125 0.14852273 0.024392905
-0.27855331 0.18383715 -0.082775205 0.053422555 -0.99551618 0.078061007 0.022918561
-0.26296294 0.18803835 -0.083818913 0.045203127 -0.99823654 -0.038477372 0.042954687
-0.25486594 0.18803835 -0.084345929 -0.28567165 -0.94128513 -0.17992747 0.073448166
0.31220669 0.18074769 -0.086850628 0.35860726 -0.93223578 0.048344415 0.026300531
0.33907136 0.18533134 -0.086979531 0.4732829 -0.87733239 0.0793171 0.037013389
0.34182936 0.18471268 -0.08221592 -0.493128 0.86588633 -0.084057227 0.034706797
0.38763693 0.1887074 -0.082640044 -0.78427726 -0.55779082 -0.27162221 0.11455864
0.3951962 0.18032631 -0.089169115 -0.7530421 -0.65269691 -0.083153099 0.19588457
0.33839411 0.190238 -0.08640904 0.47120106 -0.87876666 0.075755157 0.034484185
0.34435228 0.19255114 -0.085977294 0.49525189 -0.86514938 0.079007827 0.032690026
0.35245827 0.19878292 -0.086917594 0.44232252 -0.89479864 -0.060714159 0.037011012
0.38657564 0.19757305 -0.08783251 -0.702438 -0.58677566 -0.40283388 0.041665889
0.3587729 0.2024619 -0.081544742 0.33056 -0.93024826 -0.15927431 0.068201832
0.37902296 0.20266479 -0.080052778 -0.3145839 -0.85011387 -0.42230713 0.089290075
0.38261086 0.20125702 -0.08411707 -0.51067609 -0.75574273 -0.40995464 0.051891394
0.30767825 -0.20215081 -0.070631616 0.093236804 0.8763091 -0.47264081 0.077799313
0.29259583 -0.19746223 -0.073663697 0.34936941 0.7897163 -0.50427085 0.07214053
0.31962678 -0.1965791 -0.07023485 -0.19974799 0.95648956 -0.21266967 0.06874831
0.32395494 -0.19456087 -0.075609595 -0.2779327 0.94737726 -0.15883888 0.057847116
-0.35075679 -0.18202074 -0.078612968 0.36651403 0.92528605 0.097536489 0.1452985
-0.34719583 -0.18471983 -0.077449553 0.36799386 0.92921948 0.033639893 0.1405872
-0.32491103 -0.18803833 -0.07331527 0.10656351 0.98038799 -0.16578166 0.058425527
-0.31490329 -0.18555039 -0.076678932 -0.048334789 0.99877876 0.010238981 0.043683138
-0.29734081 -0.18667506 -0.073292106 0.011767669 0.99878007 0.04795688 0.024559988
-0.28312194 -0.18520242 -0.07624495 0.031388376 0.99922764 0.023641327 0.033051036
-0.27437344 -0.18803833 -0.070378654 -0.073569529 0.98872197 -0.13044669 0.072228156
-0.26662952 -0.18803833 -0.075791739 -0.15427054 0.96703839 -0.20257661 0.070601903
-0.25788632 -0.18803835 -0.073406197 -0.14001526 0.9793964 -0.14552794 0.078260466
-0.24812233 -0.1867118 -0.077076122 -0.25138718 0.96531761 -0.070472531 0.091768794
0.28509322 -0.18703301 -0.07666143 -0.64616925 -0.58249623 0.49311593 0.15971895
0.33691493 -0.18817429 -0.074305125 -0.43677557 0.89921021 0.025455575 0.026205372
0.34615692 -0.18320625 -0.073527358 -0.45955062 0.88731766 -0.038478512 0.031222414
0.35248429 -0.18054236 -0.075115889 -0.38841715 0.92136693 -0.014668486 0.033240292
-0.49839538 -0.17010863 -0.079906933 0.8200084 0.54901856 0.16175553 0.10667606
-0.48001838 -0.17799237 -0.072608389 0.082068525 0.98423719 0.15665819 0.062161539
-0.47237599 -0.17714977 -0.075266853 0.083980791 0.98696727 0.13726965 0.04963918
-0.46867311 -0.17664358 -0.0768639 0.0024374549 0.97676486 0.21429998 0.022891223
-0.451682 -0.17679563 -0.076384172 0.027467877 0.97926527 0.20071113 0.031169325
-0.41852033 -0.17586423 -0.07932274 0.0023190721 0.97311419 0.23031163 0.020043613
-0.40553191 -0.17757088 -0.073938191 0.010564936 0.98575693 0.16784424 0.039798602
-0.39420328 -0.17728747 -0.07483235 -0.028963827 0.9819271 0.18703026 0.037991706
-0.3810868 -0.17818321 -0.072006255 -0.063154913 0.99080271 0.11967242 0.058391638
-0.37542224 -0.1768935 -0.076075323 -0.021179179 0.98729002 0.15751158 0.075628392
-0.35192579 -0.17985106 -0.079566307 0.36250997 0.929524 0.067613408 0.14647138
-0.24319768 -0.17370459 -0.074993759 -0.30136728 0.93792176 -0.1716989 0.22487962
-0.23997748 -0.17552701 -0.079359755 -0.41705275 0.90621483 -0.069581911 0.20511147
-0.22387749 -0.17572181 -0.07553149 -0.24682446 0.93577409 0.25180259 0.13795787
-0.21406257 -0.17509434 -0.072527356 -0.086857639 0.95365572 0.28809097 0.12438155
-0.20549348 -0.17455506 -0.072755657 0.13421804 0.92293859 0.36079052 0.10972937
-0.19295448 -0.17695087 -0.075894341 0.0040669255 0.96462679 0.26358822 0.051567227
-0.18075183 -0.17704609 -0.075593948 -0.062690653 0.96548861 0.25278765 0.0530922
-0.17075944 -0.17735796 -0.07460998 0.036335494 0.97420567 0.22271754 0.063710324
-0.14700505 -0.17859584 -0.070704371 -0.0055228872 0.9751277 0.22157516 0.063774578
-0.13435157 -0.17739421 -0.074495591 -0.052013792 0.98096704 0.18707846 0.053211797
-0.12107401 -0.17696285 -0.075856537 -0.0089987479 0.98448342 0.1752464 0.051338647
-0.11695626 -0.17629012 -0.077979058 -0.042891406 0.9806208 0.19116253 0.050980806
-0.10209481 -0.1773681 -0.074578002 0.016293697 0.9844085 0.1751413 0.057320081
-0.068192273 -0.17818087 -0.072013669 -0.0066740955 0.9789325 0.20407504 0.058598641
-0.052185372 -0.17880623 -0.070040643 0.074174203 0.97396666 0.2142127 0.053307578
-0.032222889 -0.17693976 -0.075929441 0.034798797 0.96697098 0.25249976 0.057368435
-0.024476124 -0.1775751 -0.073924914 0.010395912 0.95662004 0.29115289 0.058211464
0.0045592687 -0.17693691 -0.075938426 0.018007251 0.96743226 0.25248894 0.058802634
0.01507952 -0.17731273 -0.074752688 0.032476906 0.9776274 0.20782188 0.06456586
0.023631195 -0.17663698 -0.076884702 -0.02794222 0.98142707 0.18978956 0.059147764
0.036952734 -0.17684782 -0.076219521 0.036609761 0.97263473 0.2294374 0.057835285
0.066512778 -0.17767794 -0.073600411 -0.0059135566 0.97140342 0.23736146 0.053756848
0.070369244 -0.17760301 -0.073836818 -0.0065613566 0.96561372 0.25989816 0.051691927
0.088608995 -0.17809576 -0.07228218 -0.031887483 0.98612851 0.16289185 0.05792284
0.095923819 -0.17721926 -0.075047567 -0.033325966 0.98731071 0.15526436 0.050210569
0.10256846 -0.17702463 -0.075661659 0.047769442 0.97597533 0.21258011 0.054105926
0.11614385 -0.17799598 -0.072597019 0.070545003 0.96827078 0.23973967 0.053566713
0.12146786 -0.17811652 -0.072216719 0.030326791 0.97286791 0.22936524 0.054125506
0.13486421 -0.17684607 -0.076225027 -0.035911124 0.96823072 0.24746627 0.053408634
0.14549717 -0.17792569 -0.072818741 -0.039178248 0.96971828 0.24106342 0.054900393
0.15345807 -0.17688566 -0.076100089 0.0090193721 0.9676339 0.25219697 0.054927211
0.16933545 -0.17806301 -0.072385557 -0.034134079 0.9854551 0.16647305 0.058467545
0.174466 -0.17762606 -0.073764108 0.03231094 0.97873098 0.20258722 0.058714718
0.18405026 -0.17757899 -0.073912598 0.077125721 0.97494024 0.20867009 0.059528686
0.1919011 -0.17637312 -0.077717148 0.0074195918 0.97424054 0.22538912 0.053198725
0.20715925 -0.1777885 -0.073251612 -0.029644484 0.96352327 0.26597732 0.062712081
0.2181454 -0.17793943 -0.072775386 -0.070513315 0.96516901 0.2519457 0.065372616
0.22955628 -0.17807147 -0.072358795 -0.030240458 0.97540241 0.21834764 0.089156404
0.23412862 -0.17683691 -0.076253936 0.058222152 0.97232747 0.22625096 0.11543749
0.24462175 -0.17673735 -0.07656803 0.21969005 0.95284933 0.20931897 0.13346063
0.25492039 -0.1771477 -0.075273357 0.25737467 0.95647651 0.13751721 0.10288075
0.26199532 -0.17699581 -0.075752556 0.11069909 0.97145641 0.20980509 0.092138037
0.2793074 -0.17295857 -0.076628387 -0.35449982 0.86710179 0.34994909 0.12564771
0.28304988 -0.17226282 -0.071159638 -0.42334548 0.80266201 0.42013377 0.13600484
0.34987313 -0.17422156 -0.079667538 -0.40199995 0.91563809 -0.0017266067 0.032396309
0.357537 -0.17696655 -0.077612922 -0.40326276 0.91495049 -0.015644528 0.036058355
0.36402798 -0.17587449 -0.075472124 -0.44665229 0.8853814 -0.12884682 0.055444628
0.3725026 -0.17192271 -0.074359879 -0.47545761 0.87106127 -0.12325761 0.14960311
0.41614303 -0.1771131 -0.07538259 -7.5335534e-05 0.953264 0.30213869 9.9667636e-07
0.42427313 -0.17753853 -0.074040242 -0.0068139611 0.95807356 0.28644133 0.00041485246
0.45618975 -0.17685729 -0.076189645 0.00069816224 0.95363247 0.30097273 2.1929752e-06
0.46545923 -0.17716523 -0.075218022 -0.16355526 0.9329372 0.32074586 0.027253004
0.47107852 -0.17714837 -0.075271234 -0.30471796 0.90069467 0.30967104 0.045563396
0.48863441 -0.17187235 -0.072582021 -0.76172644 0.60056305 0.24309862 0.053551354
-0.49870443 -0.16570657 -0.074774697 0.93658859 0.3468678 0.049845107 0.07746584
-0.34906092 -0.16611683 -0.075976126 0.92439812 -0.2271464 -0.30641887 0.14622803
-0.24365583 -0.16789001 -0.07437259 0.75131673 0.1932724 0.63100636 0.21406028
-0.23977068 -0.16793719 -0.07964012 0.6603747 0.1477665 0.73625427 0.27062029
-0.21427387 -0.16291654 -0.078650057 0.17118692 0.9580459 0.22987656 0.19935031
-0.19208062 -0.16777109 -0.073365696 0.061367374 0.95836282 0.27888122 0.12074064
-0.18209676 -0.16727355 -0.077334255 -0.075768553 0.98160344 0.17525378 0.093337297
-0.17464299 -0.16752698 -0.075312868 0.00096139708 0.98678178 0.16205171 0.10562102
-0.16805369 -0.16739376 -0.076375403 0.0029485242 0.97950655 0.20139082 0.10058024
-0.15503447 -0.16772397 -0.073741525 -0.10933298 0.97723621 0.18181229 0.13331728
-0.14937009 -0.16778916 -0.073221467 -0.0020388423 0.98620045 0.16554298 0.12457839
-0.1335517 -0.16766241 -0.074232571 -0.086423881 0.994865 0.052673571 0.15729353
-0.12387007 -0.1674643 -0.075812876 0.027307093 0.99591964 0.086014315 0.12304056
-0.11543947 -0.16743867 -0.076017186 -0.03693502 0.99662167 0.07335563 0.1246142
-0.10367803 -0.16737963 -0.076488145 0.031510703 0.99519718 0.092680849 0.088456236
-0.093914166 -0.16785018 -0.072734766 -0.043775395 0.99325132 -0.10740431 0.16740094
-0.086125784 -0.1675186 -0.075379737 -0.0068029119 0.99321026 0.11613437 0.14550105
-0.07989604 -0.16796443 -0.071823545 -0.015684536 0.9998076 -0.01178242 0.14915378
-0.062969364 -0.16811477 -0.070624411 0.015741071 0.9837814 0.17867918 0.05444048
-0.055650741 -0.1673207 -0.076958202 0.032062795 0.98973298 0.13928579 0.038317803
-0.033259213 -0.16803506 -0.07126008 0.06092158 0.97438735 0.21646689 0.056315631
-0.023201045 -0.16702762 -0.079295903 0.013122438 0.97095931 0.23888454 0.04724621
-0.013409088 -0.16752672 -0.07531482 -0.042686336 0.97369885 0.22380455 0.06024887
-0.0057994137 -0.1676012 -0.074720748 0.011388674 0.97601324 0.21741328 0.056612462
0.0038072707 -0.16739999 -0.076325804 0.0050695799 0.9784289 0.20652196 0.048480492
0.015247484 -0.16772306 -0.073748864 0.023493407 0.98193133 0.18777342 0.097771145
0.027614852 -0.16786513 -0.072615653 -0.10663312 0.99402815 -0.023180338 0.16371468
0.033015512 -0.16735366 -0.076695278 -0.14968775 0.98758304 0.047678728 0.17541569
0.046334602 -0.16709414 -0.078765258 0.026270302 0.99752718 0.065187998 0.14476837
0.06543602 -0.16718736 -0.078021787 -0.059219413 0.98120308 0.18366686 0.13237453
0.07810843 -0.16749394 -0.075576439 0.018084319 0.99359053 0.11158329 0.11848051
0.087476805 -0.16794088 -0.072011359 -0.04473871 0.99291521 0.11008077 0.091456749
0.095011845 -0.16740936 -0.076250896 -0.032203548 0.99243081 0.11850734 0.090141684
0.10722851 -0.16765197 -0.074315861 0.066637114 0.9944784 0.081069991 0.11897362
0.11174695 -0.16762243 -0.074551441 0.078440323 0.99520844 0.058372326 0.17493089
0.12263638 -0.16749905 -0.075535543 0.033958223 0.99049675 0.13327755 0.17669217
0.13327643 -0.16798279 -0.071677022 0.014290078 0.98117894 0.19257157 0.14660113
0.14549188 -0.16762805 -0.07450664 -0.036192905 0.98128533 0.18912731 0.055458959
0.15569593 -0.16773893 -0.073622167 0.013707913 0.99165386 0.12819827 0.057592098
0.16067073 -0.16789362 -0.072388306 -0.018002426 0.99239278 0.12178863 0.056025036
0.17223588 -0.16776501 -0.073414162 0.035263285 0.98762029 0.1528488 0.05715593
0.18718621 -0.16704103 -0.079188935 0.018980797 0.98246938 0.18545523 0.047005601
0.22114688 -0.16714931 -0.078325249 -0.15953153 0.96063775 0.22743134 0.093370989
0.23657422 -0.16682132 -0.076686278 -0.059047926 0.99122268 0.11828329 0.16630752
0.24226983 -0.16241664 -0.075869754 0.25135121 0.94922644 0.18918723 0.22328731
0.37693715 -0.16985485 -0.070238844 -0.44971406 0.85270542 0.26580209 0.21589015
0.3826296 -0.16720042 -0.074148029 -0.71795392 0.64601302 -0.25924766 0.18941647
0.4892706 -0.16243069 -0.073952831 -0.82664096 0.50208467 0.25411731 0.050878484
-0.49856225 -0.15232371 -0.07713569 0.9914766 0.11474592 0.061703958 0.015971819
-0.35092351 -0.15914638 -0.078310266 0.92173624 -0.16411206 -0.35138249 0.086388968
-0.24249361 -0.15414502 -0.075948328 0.56908756 0.38086301 0.72875422 0.14265309
-0.21427387 -0.15515316 -0.072026633 0.86702007 0.24236782 -0.4353551 0.19026825
0.2428579 -0.150271 -0.074924305 -0.97242785 0.11424671 0.2033021 0.09000136
0.29445583 -0.15804358 -0.075035803 -0.71501827 0.50824416 0.48003832 0.1984293
0.30178228 -0.1546272 -0.075829126 -0.60851544 0.68758357 0.39615378 0.12721634
0.31045318 -0.15058389 -0.07278347 -0.40932524 0.86603808 0.28710774 0.12791957
0.38677454 -0.15487105 -0.074094474 -0.74593973 0.081853621 -0.66096437 0.12585883
0.48981768 -0.15446389 -0.075739071 -0.93628526 0.30678883 0.17102766 0.04394605
-0.49881619 -0.14558959 -0.072919264 0.99972302 0.011281354 0.020652415 0.00085354148
-0.34252021 -0.14423627 -0.074091159 -0.24376713 0.96908188 -0.038182992 0.18950571
-0.31446484 -0.14247556 -0.074775837 -0.050812215 0.98970723 0.13378234 0.073829889
-0.30408061 -0.14247555 -0.077690743 0.012814989 0.99871153 0.049103122 0.01409196
-0.29384273 -0.14247556 -0.075384483 -0.0089981379 0.99766266 0.067736365 0.017927678
-0.27055889 -0.14247558 -0.073890224 0.010003373 0.99493611 0.10001054 0.048786528
-0.26572871 -0.14247556 -0.07073842 0.0073149824 0.99879801 0.048466519 0.14523572
-0.24566896 -0.1468005 -0.074450344 0.64104813 0.0031350995 0.76749426 0.1980475
-0.21427387 -0.14696082 -0.079326428 0.92840236 0.3386977 -0.15281674 0.1450852
0.24210198 -0.14624235 -0.077406615 -0.8902272 0.40900964 0.20051588 0.10315579
0.31816661 -0.14698705 -0.072506204 -0.33421573 0.91026103 0.24438636 0.121272
0.32665622 -0.14302827 -0.074898213 -0.26456022 0.95910108 0.10066269 0.057161652
0.3846868 -0.14528228 -0.077023365 -0.69907838 -0.031625438 -0.7143454 0.14869514
0.49058336 -0.14238177 -0.07451731 -0.99946946 0.031385209 0.0087044491 0.014347658
-0.49853128 -0.13763979 -0.077650025 0.99880457 -0.00053486211 0.048879374 0.00017453697
-0.36111921 -0.13354903 -0.075369462 0.84641784 0.5291391 -0.059905417 0.13688582
-0.35728782 -0.13747965 -0.077011153 0.85032046 0.47204414 -0.23265719 0.10950035
-0.32625255 -0.13747965 -0.070409968 -0.0090642413 0.99992603 -0.0081118494 0.10565694
-0.31649303 -0.13747965 -0.075950399 -0.034466587 0.99893081 0.030808561 0.031662446
-0.29564953 -0.13747965 -0.077430874 -0.012602167 0.99864316 0.050528161 0.013698644
-0.27078277 -0.13747965 -0.072963998 -0.014922614 0.99988866 2.3088458e-05 0.066577338
-0.26429391 -0.13747965 -0.074700698 -0.016230108 0.99975377 -0.01512902 0.084850818
-0.25686353 -0.13747965 -0.074375555 -0.19125165 0.9807328 -0.039823279 0.11431625
-0.24750295 -0.13747965 -0.073977679 0.39793879 -0.7874164 0.4707655 0.1417468
-0.23105845 -0.13599317 -0.074655004 0.046467949 0.74671662 -0.66351718 0.20197245
-0.2294898 -0.13336439 -0.076662965 0.068612516 0.80070752 -0.59511322 0.23383161
-0.21427387 -0.13242874 -0.07754077 0.99511415 0.062294062 -0.076599315 0.16264065
0.24367596 -0.13023876 -0.072238088 -0.95408612 0.20561229 0.21781451 0.20681944
0.26857081 -0.13345359 -0.075706884 -0.018320162 0.93818605 -0.34564614 0.13705754
0.27441353 -0.13747965 -0.075415209 -0.58711648 -0.58351189 0.56107771 0.084700271
0.28359449 -0.13747965 -0.072435848 -0.62194753 -0.55452371 0.55288762 0.13989627
0.29491395 -0.13747965 -0.077215701 -0.41180208 -0.89912266 0.14831547 0.17003679
0.30343902 -0.13747965 -0.078060061 0.18538167 0.98250353 -0.01790511 0.11944831
0.3166503 -0.13747965 -0.075510085 -0.17572837 0.98242521 0.062930837 0.076709963
0.33647209 -0.13845107 -0.078403875 -0.21032797 0.97620654 0.052753855 0.029458102
0.34590864 -0.13485695 -0.074251272 -0.16821043 0.98121363 0.094472542 0.033206031
0.35945782 -0.13747965 -0.078324683 0.0019800186 0.97686374 0.21385339 0.080364421
0.36293089 -0.13747965 -0.076214328 -0.0040360461 0.97521061 0.22124197 0.14048913
0.37417752 -0.13561217 -0.075773664 -0.076775648 0.99121648 0.10768152 0.23029281
0.38498452 -0.13804361 -0.079005614 -0.73047715 -0.24967267 -0.63566232 0.22603042
0.39657918 -0.13445099 -0.072825171 -0.66571516 0.36635777 -0.65008098 0.10252562
0.49088976 -0.1377372 -0.074786954 -0.9997831 0.020654183 -0.0026692189 0.017092343
-0.49872252 -0.12573999 -0.07447432 0.9987849 -0.046368673 -0.016694129 0.013399154
-0.36404213 -0.12099851 -0.079326786 0.89933664 0.27279037 -0.34172943 0.063994415
-0.2332242 -0.12764013 -0.072103441 0.39682573 -0.46407631 0.79193592 0.19633342
-0.22782256 -0.12777548 -0.078721546 0.67444342 -0.48530012 0.55642599 0.24057536
0.24296542 -0.12763512 -0.074571244 0.14895871 0.75746703 0.6356532 0.23643428
0.26597968 -0.12773599 -0.07923314 0.041465636 0.90593642 -0.42137837 0.200425
0.27161005 -0.12199032 -0.072126187 -0.34396103 -0.42271832 0.83845097 0.17104732
0.35824093 -0.12830009 -0.070879862 -0.25631601 0.96487957 -0.057528965 0.1105959
0.36874408 -0.12756404 -0.071224891 -0.44359297 0.87993085 -0.1701379 0.2117283
0.37653342 -0.12817585 -0.076806471 -0.65043747 0.75947809 0.01114012 0.20527326
0.39816248 -0.12468038 -0.073764928 -0.63942116 0.39067984 -0.66220075 0.10765449
0.4014596 -0.12398748 -0.077649452 -0.75518435 0.4233838 -0.50044256 0.15065823
0.49170923 -0.12443937 -0.072013937 -0.99144244 0.11727275 -0.057348989 0.020065699
-0.49864626 -0.11405439 -0.07574109 0.99338561 0.0023873684 -0.11480138 0.03875022
-0.3627477 -0.11428303 -0.077445254 0.96531504 0.10263868 -0.24006698 0.099392489
-0.35877717 -0.11443032 -0.07261017 0.9582237 -0.14387551 -0.24719848 0.12258513
-0.15196484 -0.11421664 -0.072884023 0.36523995 0.49774879 0.78666759 0.11013065
-0.14790572 -0.11421665 -0.073385984 0.38432366 0.54098719 0.74808306 0.1089199
-0.13041839 -0.11421666 -0.077795506 0.18265377 0.86423945 0.46875143 0.095243275
-0.12538305 -0.11421666 -0.075851917 -0.2138696 0.87525457 0.43380773 0.10419002
-0.10234751 -0.11321509 -0.071405478 -0.37038472 0.21142387 0.90449715 0.11581807
0.054658011 -0.11421665 -0.075258911 0.47040299 0.71386975 0.51875907 0.15684806
0.061542518 -0.11421665 -0.070370927 0.16973606 0.7363916 0.65491766 0.14355637
0.073340416 -0.11421665 -0.072029598 0.052867383 0.78768206 0.61380935 0.087010041
0.08449126 -0.11421665 -0.076678276 -0.12869149 0.66631895 0.7344777 0.11518217
0.10055407 -0.11421666 -0.071245871 -0.27054587 0.41102475 0.87055355 0.10257038
0.24385025 -0.11416405 -0.071665771 -0.90769196 -0.35394764 0.22542486 0.22485119
0.26684123 -0.11252816 -0.07787019 -0.56023854 -0.063039571 0.82592899 0.16947572
0.27290207 -0.11792278 -0.070604011 -0.58500057 -0.2512649 0.77112925 0.11998482
0.39744186 -0.11339285 -0.072915927 -0.75114608 0.27207962 -0.60145843 0.10443269
-0.49849978 -0.10748671 -0.078172952 0.99178189 0.025518397 -0.12536949 0.031574331
-0.3581104 -0.10167956 -0.071824625 0.92191744 -0.060664866 -0.38260692 0.11870927
-0.23208411 -0.10573903 -0.073446609 0.83382255 -0.14900167 0.53154355 0.16266868
-0.21427388 -0.10492373 -0.074309036 0.99222308 -0.051138949 0.11348201 0.12237744
-0.15560763 -0.10563495 -0.073624991 0.5537079 0.50518268 0.66196519 0.11073683
0.10330544 -0.10357975 -0.074404866 -0.59244943 0.20495483 0.77910024 0.098501436
0.24291331 -0.10403105 -0.074742429 -0.9469769 0.07748238 -0.31181917 0.1793226
0.27267373 -0.10375394 -0.070873037 -0.70542318 0.050662074 0.70697343 0.11911064
0.39623958 -0.10668227 -0.071499459 -0.74787086 0.068237945 -0.66032773 0.022644287
0.40102512 -0.10307296 -0.07713756 -0.81574827 0.012278443 -0.57827669 0.005609706
0.49277738 -0.10937314 -0.077450708 -0.99553305 0.0886425 0.032503344 0.015645228
-0.49861184 -0.096071929 -0.076311626 0.98909992 0.025656153 -0.1449932 0.030418163
-0.36365932 -0.095569983 -0.078537241 0.88988012 0.0068170619 -0.45614356 0.025620131
-0.23324239 -0.092973553 -0.072082005 0.73508692 0.1660476 0.65732443 0.18416229
-0.21427387 -0.099499181 -0.07506156 0.99051207 0.081218183 0.11085758 0.11930255
-0.15560763 -0.09667556 -0.074361697 0.7852661 0.13030595 0.60529131 0.12548757
-0.10234752 -0.096392989 -0.074531637 0.78576934 -0.15463462 -0.59887785 0.11560225
0.10330544 -0.097030275 -0.072357446 -0.55523032 0.17892264 0.81222284 0.095510282
0.243424 -0.095748149 -0.073065482 -0.96455598 0.25049013 -0.082984619 0.24667062
0.26648444 -0.095163673 -0.078502774 -0.66599971 0.088142641 0.74072617 0.17815569
0.27339005 -0.094173431 -0.070029065 -0.64282042 -0.056561943 0.76392579 0.12368293
0.39522678 -0.096309401 -0.070306242 -0.7210474 0.018717442 -0.69263285 0.0037584757
0.40083829 -0.093452066 -0.07691747 -0.79501975 0.021219961 -0.60621226 0.0036287697
0.49354011 -0.097337924 -0.076235279 -0.99716115 0.071770489 -0.022773819 0.019345934
-0.4987511 -0.084180743 -0.073999777 0.9734754 -0.013556005 -0.22838983 0.037933182
-0.36320531 -0.087339371 -0.077827178 0.93778783 0.068048254 -0.34047538 0.083651245
-0.35982892 -0.083659574 -0.073849253 0.92123032 0.21822999 -0.32204109 0.11671093
-0.23478693 -0.083170488 -0.070262305 0.78057975 0.092454016 0.61818075 0.15375306
-0.22785902 -0.085136801 -0.078646347 0.85942239 0.12768584 0.49506515 0.13840373
-0.10234751 -0.086758941 -0.073332891 0.75571918 0.14116691 -0.63950014 0.14198531
0.050045315 -0.089093938 -0.0755013 0.81304258 0.030575169 0.58140081 0.10001304
0.10330544 -0.086477369 -0.076075874 -0.7507301 -0.15439887 0.64231253 0.13292134
0.26975062 -0.08450909 -0.074316874 -0.69798833 0.059204731 0.7136575 0.20234512
0.27052063 -0.083133779 -0.073409706 -0.56877375 0.10142103 0.81621695 0.1974566
0.49433964 -0.08424817 -0.073068649 -0.99490982 0.074823253 -0.067497849 0.015056333
-0.49864522 -0.07279902 -0.075757951 0.98918313 0.0042340336 -0.14662483 0.038876966
-0.23322266 -0.0720779 -0.072105244 0.79809004 0.025763456 0.60198718 0.14748338
-0.22776997 -0.073364854 -0.078830034 0.85603607 0.052623082 0.51423055 0.11994247
-0.21427387 -0.07495372 -0.079093464 0.96309954 0.02281577 0.26817653 0.12477455
-0.15560763 -0.072148323 -0.070251405 0.47059897 -0.36675721 0.80251211 0.12558089
-0.10234751 -0.070225865 -0.074327491 0.68512785 0.38894626 -0.61589009 0.1693431
0.050045311 -0.072655112 -0.074376076 -0.56234956 0.51409239 -0.64766657 0.13011065
0.10330544 -0.076935127 -0.076677732 -0.67134649 -0.26163867 0.69342566 0.12613821
0.24291882 -0.076405019 -0.074724317 -0.93410385 -0.15771894 0.32027301 0.23935552
0.27242139 -0.074413463 -0.07117033 -0.56841922 -0.080973484 0.81874472 0.1357373
0.39737236 -0.079009868 -0.07283406 -0.76809967 -0.016961113 -0.64010572 0.0047935927
0.40081742 -0.077660814 -0.076892883 -0.81925654 -0.026655259 -0.57280731 0.0050030653
0.4946897 -0.078435756 -0.071357809 -0.99148875 0.088551641 -0.095439225 0.012759701
-0.49880734 -0.065714687 -0.073065989 0.98446578 -0.081378803 -0.15557851 0.040761523
-0.36212444 -0.062265772 -0.076553769 0.97187775 -0.15081598 -0.18085401 0.10648677
-0.35706484 -0.061368231 -0.070592791 0.92892051 -0.1133666 -0.35249782 0.1761522
-0.23432364 -0.069962725 -0.07080812 0.78811139 0.012537827 0.61540496 0.14659549
-0.22795148 -0.062733933 -0.078455634 0.87659001 0.040105745 0.47956386 0.11177896
-0.21427388 -0.066348925 -0.074454956 0.97106308 0.0054499563 0.23876092 0.14282979
-0.15415634 -0.068808801 -0.074175231 0.48514929 -0.48455322 0.72789997 0.15862334
-0.14728396 -0.06840691 -0.075092785 0.45112106 -0.70419884 0.54826438 0.17784636
-0.13864766 -0.06840691 -0.076686658 -0.19400798 0.93004256 -0.3120603 0.092457928
-0.12061055 -0.06840691 -0.072628669 0.28207213 0.83646429 -0.46985409 0.12479339
-0.11204155 -0.06840691 -0.075685576 0.60077184 0.63402021 -0.48692048 0.15119024
-0.10516219 -0.06840691 -0.077789791 0.79416168 0.45565289 -0.40210402 0.13806933
0.054535598 -0.06840691 -0.077819698 -0.40221709 0.68992323 -0.60185325 0.13310759
0.063713491 -0.06840691 -0.077642888 -0.3794117 0.77438056 -0.50634134 0.13137373
0.074067891 -0.06840691 -0.071912065 -0.097277112 0.80846065 -0.58045554 0.093895659
0.094896033 -0.06840691 -0.07576479 -0.36969924 -0.77561516 0.51160878 0.11888915
0.10105772 -0.06840691 -0.075407155 -0.36935058 -0.62709665 0.68580598 0.14294702
0.24311432 -0.064232096 -0.074082315 -0.93210089 -0.20075822 0.30146983 0.21758443
0.26698548 -0.062973849 -0.077912197 -0.55326414 -0.077847831 0.82936031 0.17127971
0.27107143 -0.061591126 -0.072760738 -0.54345918 0.02042478 0.83918697 0.15513985
0.39890218 -0.068813488 -0.0746364 -0.80603093 -0.007218109 -0.59182936 0.0043335818
0.49593303 -0.06112574 -0.078596547 -0.99816298 0.060474299 -0.0036743642 0.0086717578
-0.49877083 -0.056586571 -0.07367225 0.99596757 -0.021285374 -0.087151781 0.025261266
-0.23222101 -0.058157396 -0.073285341 0.85773367 -0.069816478 0.50933146 0.1211108
-0.22860402 -0.053637579 -0.077546723 0.92338204 -0.019044986 0.38340965 0.12367514
-0.21427387 -0.052899286 -0.07866703 0.95791388 -0.042319506 0.28391919 0.11281709
0.24308436 -0.055344541 -0.0741807 -0.68428195 -0.65373462 0.32309318 0.24348338
0.26824272 -0.055404082 -0.076093435 -0.27095565 0.21418346 0.93846077 0.18961012
0.27263546 -0.055910796 -0.070918106 -0.37841091 0.050418153 0.92426354 0.16209438
0.39816695 -0.057015996 -0.073770225 -0.7982558 -0.0033303373 -0.60230935 0.0036262614
0.49606752 -0.058298308 -0.075567231 -0.99647814 0.051801417 -0.065938748 0.0098325834
-0.49881631 -0.045393195 -0.072916418 0.99243063 -0.019435776 -0.12125895 0.029821126
-0.36298785 -0.044268433 -0.077686638 0.93929255 0.065160654 -0.33687323 0.060520172
-0.35922357 -0.041212428 -0.073136076 0.94654256 0.16431561 -0.27759242 0.11907648
-0.23311317 -0.046766266 -0.072234251 0.87595153 -0.10189551 0.47151476 0.13240546
-0.22800095 -0.040135954 -0.078353606 0.8947776 -0.0088450247 0.44642448 0.11187517
-0.21427387 -0.044796348 -0.078877106 0.99375921 0.0017155684 0.11153284 0.10369387
0.20831284 -0.049459569 -0.071604885 -0.98289585 0.15360263 -0.1015974 0.12469438
0.24216549 -0.047511265 -0.077198051 -0.29047525 0.21425863 0.93258637 0.25731725
0.26847714 -0.04597367 -0.075817257 -0.48408875 0.12677154 0.86578691 0.2213302
0.27134463 -0.043474842 -0.072438933 -0.54217505 0.2556738 0.80042303 0.20728654
0.3974539 -0.040619861 -0.072930157 -0.788109 -0.0016443644 -0.61553347 0.0029968184
0.40088731 -0.044831306 -0.076975212 -0.83555627 0.028083893 -0.54868656 0.0041894736
-0.36240953 -0.03672909 -0.076889679 0.97068715 0.086179815 -0.22436488 0.080063798
-0.35790733 -0.037199516 -0.071585365 0.93443781 0.057046052 -0.35152778 0.14972742
-0.23272625 -0.032224346 -0.072690085 0.8775062 6.8661291e-05 0.4795652 0.14620987
-0.22847009 -0.037798703 -0.077704489 0.90201455 -0.074178144 0.42528513 0.11888862
-0.21427387 -0.034577034 -0.076415412 0.98637056 -0.099258259 0.13122801 0.10763657
0.26714316 -0.033307999 -0.077596486 -0.59950918 0.21057458 0.77217036 0.15252596
0.49771059 -0.032464713 -0.073313154 -0.99143004 0.061556324 -0.11522746 0.020842245
-0.49890304 -0.024541494 -0.071477249 0.97887522 0.0077407993 -0.2043118 0.053963631
-0.36210406 -0.023815539 -0.076529741 0.97081238 0.0080685187 -0.23970461 0.10494313
-0.22876783 -0.024168506 -0.077353731 0.86057144 -0.10464145 0.49846464 0.13494281
-0.21427387 -0.023396593 -0.078694925 0.98000211 -0.046315204 0.19352219 0.12917323
0.20972514 -0.024549766 -0.076476052 -0.95578051 0.15919195 -0.24726826 0.11951221
0.26881543 -0.026683621 -0.075418659 -0.64005744 -0.019775122 0.76807261 0.13922797
0.39963618 -0.022949727 -0.075501159 -0.80296659 -0.0020728842 -0.59602046 0.0041782213
0.40189201 -0.024661211 -0.078181468 -0.83305287 0.0054728012 -0.55316627 0.0046105399
0.49815187 -0.026015153 -0.074662499 -0.99388492 0.085369803 -0.070034295 0.018507155
-0.49875706 -0.017468939 -0.073900566 0.984052 -0.018492015 -0.17691702 0.034996077
-0.36267281 -0.013909392 -0.077199794 0.9741618 0.063762091 -0.21666385 0.070958085
-0.23177059 -0.012499662 -0.073816009 0.86865568 0.043220375 0.49352744 0.15679912
-0.22945419 -0.014403377 -0.076545075 0.88016212 0.019814705 0.47425944 0.13590933
-0.21427387 -0.01456993 -0.075386599 0.9845801 -0.042736009 0.16963415 0.1265343
0.20972511 -0.013154994 -0.076300457 -0.99039489 0.10656919 -0.088096231 0.13083209
0.24353391 -0.014561066 -0.072704524 -0.16325027 0.98014569 -0.11253341 0.22937727
0.2712782 -0.010727918 -0.072517164 -0.59966463 0.063348018 0.7977401 0.19410299
0.39635932 -0.017568383 -0.071640551 -0.76748574 -0.0041771447 -0.64105242 0.0040726634
0.49895743 -0.012750602 -0.071168125 -0.98275602 0.062474888 -0.17403308 0.038265262
-0.49883026 -0.0037422106 -0.072685197 0.99538159 0.012524712 -0.095177129 0.022190811
-0.36348021 -0.0065708756 -0.078167766 0.91517448 -0.049310315 -0.40003029 0.043313928
-0.23317803 -0.0055644973 -0.072157808 0.83608544 0.09193521 0.5408411 0.16391443
-0.21427387 -0.0050107166 -0.075944252 0.98068869 0.14443596 0.13186304 0.11227252
0.20972514 -0.0033109593 -0.078159824 -0.97391176 0.22692189 0.0015283799 0.12642573
0.2230113 -0.0098130414 -0.07442145 -0.54965049 0.081415094 -0.83141804 0.17686749
0.26602572 -0.00019840896 -0.079138182 -0.72809637 0.30990922 0.61141795 0.16455844
0.27205381 -0.0071134018 -0.07160341 -0.5465824 0.14660415 0.82447249 0.18269113
0.39663559 -0.0028549004 -0.07196606 -0.79651266 0.0057956371 -0.60459417 0.0040203701
0.40178227 -0.0045326632 -0.078134209 -0.81763852 -0.0054014581 -0.5757066 0.0044784285
0.4996087 -0.0048617339 -0.079662859 -0.99516237 0.013996513 0.097241275 0.0093582543
-0.36290276 0.0034907684 -0.077732272 0.92596555 -0.053650811 -0.3737773 0.082909144
-0.23289032 0.0022280454 -0.072496787 0.85048687 -0.10584316 0.51523709 0.15101197
-0.22827542 0.0016752407 -0.077933848 0.93841904 -0.071401723 0.33804068 0.12843378
-0.21427387 0.0044265571 -0.075198874 0.98866498 0.097734079 0.11397216 0.11374805
0.22351886 0.0013265014 -0.076599903 -0.50717545 -0.12902492 -0.85213012 0.23488191
0.24361092 0.0023650173 -0.072451659 0.052894179 -0.59820521 0.79959536 0.30017617
0.26578665 0.0047444981 -0.079631269 -0.79256409 0.30511186 0.52796674 0.19651411
0.2717979 0.0058847442 -0.071904868 -0.60736656 -0.024386887 0.79404736 0.19804569
0.39819574 0.0012709275 -0.07380411 -0.80941325 -0.010457401 -0.58714628 0.0037369321
0.40086597 0.0057354048 -0.076950058 -0.81446707 0.0041485643 -0.58019501 0.0041190186
0.49944031 0.0068087662 -0.07709676 -0.99950957 0.0071946052 0.030476881 0.016465049
-0.49887726 0.015511931 -0.071904525 0.9721356 -0.031291891 -0.23232116 0.062149819
-0.36236706 0.013936424 -0.077234626 0.92740101 -0.081926994 -0.36498681 0.081035346
-0.35789633 0.016819935 -0.071572408 0.91010028 -0.11237199 -0.3988609 0.13990793
-0.23261836 0.016529433 -0.072817206 0.89075595 0.010877408 0.45435163 0.16185452
-0.22804952 0.01048924 -0.078253448 0.90267962 -0.041038074 0.42835209 0.1198578
-0.21427387 0.010512006 -0.076396465 0.99023139 -0.083868116 0.11139038 0.11537788
0.22375439 0.014644052 -0.077610746 -0.61695772 0.14744514 -0.77306086 0.2614429
0.26675159 0.017446056 -0.077850208 -0.78816283 -0.30081472 0.53694481 0.20780529
0.27236819 0.017718479 -0.07123293 -0.71223104 -0.14340554 0.68714023 0.1775334
0.40011299 0.018204145 -0.076062962 -0.81771761 -0.012667915 -0.57548022 0.0037329956
0.49901411 0.013329929 -0.076962963 -0.99916941 -0.00026799872 0.040746637 0.016385417
-0.49871144 0.021362504 -0.074658096 0.98988956 -0.065959498 -0.12557133 0.036802437
-0.36346582 0.023530906 -0.078312151 0.90026212 0.033790823 -0.43403494 0.05807497
-0.35784721 0.029547889 -0.071514547 0.92390126 0.053058822 -0.3789345 0.096008524
-0.23275143 0.022408277 -0.072660424 0.85409904 0.09111359 0.51206756 0.14861569
-0.22751595 0.026038479 -0.079353966 0.92576277 0.04067326 0.37591076 0.11263867
0.22326572 0.022850953 -0.07551349 -0.56897449 -0.032630172 -0.82170755 0.23832993
0.24215777 0.025872678 -0.077223375 -0.19621523 -0.58452201 -0.7872951 0.25312069
0.267636 0.02501994 -0.077054225 -0.75567091 -0.073430397 0.6508221 0.18564939
0.2730481 0.024782676 -0.070431948 -0.4366841 0.030108616 0.89911091 0.15764584
0.49822286 0.025482595 -0.07689774 -0.99559051 -0.084963463 -0.039759021 0.024151074
-0.49872917 0.037197132 -0.0743642 0.9795329 0.0071210153 -0.20115799 0.041397542
-0.36096156 0.030510053 -0.075183719 0.92897546 0.083104119 -0.36069149 0.083248965
0.20972511 0.035259224 -0.073349983 -0.94958985 -0.16520578 -0.26643237 0.12012119
0.22243473 0.035280675 -0.07194683 -0.59843969 -0.4213804 -0.68140185 0.20434698
0.24256441 0.033764198 -0.075888127 -0.062462565 0.38291249 0.9216705 0.27500391
0.2677846 0.036794949 -0.076633185 -0.62285161 0.0020613123 0.78233725 0.19122201
0.39883256 0.034720089 -0.074554414 -0.81034297 -0.015237304 -0.58575767 0.0026798749
0.49760067 0.035677455 -0.079393744 -0.99530762 -0.069642663 0.067176037 0.0081824409
-0.36131883 0.040708173 -0.075604647 0.93428606 0.039584015 -0.35431987 0.090690784
-0.2329089 0.045644637 -0.072474904 0.8641113 0.072413243 0.49806419 0.18144238
0.20961086 0.049459592 -0.07824374 -0.11237127 -0.98682499 -0.11640016 0.12409762
0.22297865 0.04100148 -0.074281305 -0.58202386 -0.02689429 -0.8127268 0.23349057
0.26587725 0.042610809 -0.079444408 -0.65064716 -0.097719073 0.75306654 0.22747034
0.39714661 0.049558982 -0.072568081 -0.78963917 0.014717236 -0.61339498 0.0049645756
0.49713519 0.041338816 -0.073412769 -0.98599088 -0.052637909 -0.15827617 0.032108761
-0.49884742 0.057935871 -0.072400764 0.96300387 0.064160965 -0.26173809 0.050129481
-0.36217374 0.053169034 -0.076611839 0.9336307 -0.03811074 -0.35620394 0.093777388
-0.3581143 0.058236305 -0.071829192 0.92730188 0.046524048 -0.3714118 0.12486279
-0.2331785 0.055609077 -0.072157279 0.78726977 0.040639076 0.61526805 0.16146976
-0.22763163 0.055450458 -0.079115354 0.89576113 -0.096531063 0.43392828 0.11178347
-0.21427387 0.051044665 -0.075588442 0.99791914 -0.018874267 0.061653264 0.11912045
0.24377933 0.059091557 -0.071898632 -0.84914774 0.3191216 -0.42084387 0.23484892
0.26847985 0.05656286 -0.075814039 -0.65311122 -0.2310954 0.72113842 0.19472814
0.49601513 0.058030367 -0.071275696 -0.99481624 -0.046064369 -0.090657681 0.020070536
-0.49854624 0.06838017 -0.077401936 0.99671715 0.02984358 -0.075261861 0.026760634
-0.35765657 0.061980277 -0.071289934 0.93507767 0.11029541 -0.3368451 0.18253662
-0.23215967 0.064024091 -0.073357627 0.8689363 -0.045322016 0.49284446 0.15900241
-0.227846 0.062997617 -0.078673214 0.87284797 0.038155902 0.48649836 0.10929918
-0.15439039 0.068406932 -0.073574565 0.55689627 0.35118577 0.75268525 0.14435124
-0.13777222 0.068406932 -0.074925877 0.12602669 0.80677199 0.5772661 0.14078107
-0.11792964 0.068406932 -0.076971993 0.26776963 -0.78215575 -0.56261146 0.13812892
-0.10642348 0.068406932 -0.077718347 0.37150484 -0.63450587 -0.67778057 0.13709524
0.056631994 0.068406932 -0.071965121 -0.31389415 -0.65613455 -0.68626368 0.134207
0.065219618 0.068406932 -0.073833615 -0.2495551 -0.67209572 -0.69714385 0.13026859
0.08674214 0.068406932 -0.074541539 -0.12779234 0.77687335 0.61655241 0.12047585
0.09128958 0.068406932 -0.077533379 -0.41423994 0.85850221 0.30228978 0.1610574
0.24255809 0.064393625 -0.075908825 -0.93008763 0.21945523 -0.29457843 0.26069954
0.40217525 0.066542432 -0.078765675 -0.85243088 0.0073249764 -0.52278852 0.0052104271
-0.49894467 0.0759928 -0.070785485 0.97907954 0.0082998574 -0.20330839 0.048576847
-0.35998815 0.072122648 -0.074036904 0.97103566 0.11625137 -0.20874721 0.11591234
-0.23010077 0.077726118 -0.07578332 0.87623507 0.035063617 0.48060659 0.15006299
-0.21427387 0.074518926 -0.072564274 0.99554652 -0.056756616 0.075272635 0.1376873
-0.15560761 0.073149741 -0.075063676 0.62781686 0.4853771 0.60848588 0.16022505
0.24330311 0.075211644 -0.073462412 -0.99832076 -0.044021595 0.037652437 0.14188609
0.26711664 0.078192517 -0.077420115 -0.66418767 -0.043833949 0.74627966 0.20146827
0.39849287 0.076635718 -0.074154176 -0.81120884 -0.0023507911 -0.58475178 0.0042067585
0.40074068 0.070718057 -0.076802455 -0.82846969 0.002904813 -0.56002641 0.0043945326
0.49487981 0.07697776 -0.077211529 -0.99906856 -0.043003194 0.0035690411 0.0076494827
-0.49876863 0.084053189 -0.073709019 0.99377042 -0.00018764689 -0.11144694 0.027810322
-0.36241904 0.085354522 -0.076900847 0.99192059 0.0038604224 -0.12680167 0.094304718
-0.23331998 0.086839773 -0.071990602 0.82052982 -0.0050685671 0.5715813 0.16795149
-0.22852962 0.0843153 -0.077729426 0.910496 0.022349775 0.41291353 0.14802338
-0.15560763 0.083916306 -0.075864561 0.81519181 0.18940218 0.54734725 0.12160994
