# .PCD v0.7 - Point Cloud Data file format
VERSION 0.7
FIELDS x y z normal_x normal_y normal_z curvature
SIZE 4 4 4 4 4 4 4
TYPE F F F F F F F
COUNT 1 1 1 1 1 1 1
WIDTH 579
HEIGHT 1
VIEWPOINT 0 0 0 1 0 0 0
POINTS 579
DATA ascii
0.013569379 -0.16521022 -0.032704629 -0.041682061 0.97901213 0.1994938 0.14055958
0.023060445 -0.1641138 -0.034009874 -0.043322969 0.91217387 0.40750706 0.16222221
0.034484465 -0.1642417 -0.034828793 -0.062763005 0.87585312 0.47847894 0.15346031
0.045929708 -0.16324353 -0.033707786 -0.022573683 0.86133516 0.5075354 0.13082609
0.054374017 -0.16370156 -0.036288999 0.01093489 0.94546676 0.32553494 0.17625576
0.065118805 -0.16230629 -0.037355214 -0.15207019 0.87538648 0.4588826 0.16628808
0.075041458 -0.16228837 -0.034859855 -0.021859439 0.8618744 0.50665039 0.12042295
0.084258445 -0.16212353 -0.03399162 -0.023351552 0.90871054 0.41677308 0.15092133
0.096231833 -0.16177197 -0.037281927 -0.038921375 0.98768842 0.15151483 0.20388684
0.10341581 -0.16153423 -0.035051506 -0.060314108 0.9600786 0.27315053 0.21915455
0.11618935 -0.1617004 -0.034176446 -0.043030623 0.99855977 -0.032043494 0.16346222
0.12813304 -0.16121489 -0.037369665 -0.15112987 0.98742527 0.046379179 0.16690774
0.13455556 -0.1609235 -0.033745553 -0.050758682 0.99608624 0.072358817 0.17902368
0.3611581 -0.16341688 -0.033194605 -0.83358073 -0.28054464 -0.47585478 0.18689308
0.37844363 -0.16365874 -0.03289951 -0.93593794 -0.048506822 -0.34880841 0.17100754
0.38123453 -0.16938269 -0.039216999 -0.9519394 -0.081757627 -0.29517305 0.13006955
0.46136889 -0.16842534 -0.035950746 -0.87975997 0.47277212 0.050089903 0.0098564113
-0.46809068 -0.15248686 -0.036162555 0.88084167 0.47306392 0.018124493 0.0513408
-0.40125152 -0.15976745 -0.031646091 0.96630907 0.070822857 -0.2474488 0.10153941
-0.24521288 -0.15441547 -0.034938529 0.82038492 0.40097177 0.40766433 0.19093569
-0.22930785 -0.15549611 -0.032001913 0.86706221 -0.052446391 0.49543163 0.14900137
-0.15024459 -0.1559225 -0.036376987 0.65895742 0.75094163 -0.043148223 0.017580478
-0.14861333 -0.15813205 -0.037659362 0.65146077 0.75788301 -0.03481552 0.018750388
-0.043472871 -0.1540065 -0.035699423 0.086296067 0.96996593 0.22741801 0.17466751
-0.032248639 -0.15282862 -0.037709758 0.085391805 0.91251802 0.40002379 0.15037386
-0.024091208 -0.15434343 -0.037188381 -0.010928194 0.87984306 0.47513881 0.14716826
-0.01700007 -0.15371703 -0.0337268 -0.0064783795 0.86991441 0.49316019 0.12692764
0.00025854399 -0.15444355 -0.035546955 -0.14713852 0.78732997 0.59871674 0.15330251
0.014928229 -0.15254596 -0.034110099 -0.056772701 0.62732834 0.77668273 0.16221631
0.025282295 -0.15444355 -0.035173822 0.0026871364 0.71420234 0.69993412 0.15739089
0.039501779 -0.15444355 -0.037597906 -0.065823436 0.75615764 0.65107077 0.15126294
0.045600217 -0.15349542 -0.036269519 -0.066855453 0.61480749 0.78583854 0.16003169
0.054681007 -0.15439729 -0.031899955 -0.14347361 0.7178911 0.68121052 0.15274806
0.064191848 -0.15216978 -0.031995945 -0.03140299 0.75857705 0.6508261 0.14639141
0.074260049 -0.1551484 -0.031943366 -0.13747044 0.80907482 0.57140154 0.14014173
0.08999218 -0.15750489 -0.031844478 -0.088664092 0.8890633 0.44911596 0.184442
0.096471295 -0.15030643 -0.031800613 -0.56505162 0.74190408 0.36096415 0.28603658
0.10597104 -0.15751131 -0.031735688 0.06360399 0.98978627 0.12758414 0.20739773
0.11500175 -0.15951134 -0.034219388 -0.031813029 0.99942774 0.011494722 0.18400179
0.12685016 -0.15602668 -0.03157099 -0.081826158 0.99663436 -0.0049492922 0.19456427
0.13487312 -0.15322383 -0.033778794 -0.058813494 0.9758203 0.21051298 0.22105394
0.14355321 -0.15449749 -0.032444153 0.13918811 0.99024493 0.0064612781 0.19430751
0.15383612 -0.15936452 -0.032989342 0.3799898 0.92413688 -0.039734416 0.18618891
0.16350378 -0.15838327 -0.033732679 0.36980581 0.9136433 0.16881847 0.13763471
0.17522115 -0.15716079 -0.039664544 0.01047653 0.99416286 0.10738025 0.055630937
0.20597193 -0.15306437 -0.031916067 -0.92507422 0.025934851 0.37889981 0.12870851
0.21724361 -0.1570645 -0.03965541 -0.95757085 0.039397649 0.28549236 0.15220056
0.22113812 -0.15645105 -0.03047492 -0.88309878 0.20601258 0.42153931 0.17588459
0.36297855 -0.15636967 -0.038076077 -0.81770426 -0.19004638 -0.5433619 0.19710489
0.37832272 -0.1550931 -0.032625739 -0.92561239 -0.084289633 -0.36896729 0.15090407
0.38043082 -0.15274709 -0.03739769 -0.93251473 -0.17920284 -0.31353253 0.13147847
0.46568623 -0.1561511 -0.034897927 -0.94288808 0.33120906 0.035534356 0.0016490574
-0.47030249 -0.14590612 -0.031333108 0.91649151 0.26288056 -0.30155793 0.042247642
-0.46888593 -0.14926928 -0.030130884 0.86909032 0.30492291 -0.38949198 0.059081942
-0.40251279 -0.14330769 -0.034584083 0.9418112 -0.23530298 -0.24005038 0.14510091
-0.38417372 -0.14455019 -0.032844059 0.74556625 -0.5292446 -0.40500766 0.18186158
-0.36688191 -0.14135864 -0.032884926 -0.28529504 0.91561425 0.28329691 0.1197321
-0.2671701 -0.14136791 -0.031941459 0.35316032 0.92406327 0.14623566 0.20354342
-0.24990718 -0.1434778 -0.031249946 0.5788269 0.8013441 0.15101992 0.22893828
-0.22866693 -0.14272429 -0.033773016 0.90249777 0.3549684 0.24391653 0.20997944
-0.16072437 -0.14198044 -0.034923762 0.80221295 0.59703529 -0.001795877 0.00017134027
-0.09501411 -0.14686556 -0.03006155 -0.61487609 0.77671295 -0.13654441 0.14927748
-0.086123191 -0.1468651 -0.034883939 -0.42020079 0.90732837 -0.013659588 0.19721867
-0.074365333 -0.14686511 -0.033152867 -0.050930474 0.98859519 -0.14172432 0.18408267
-0.065157056 -0.1468651 -0.035636656 0.087863371 0.99612635 0.0034905747 0.20540805
-0.055051032 -0.1468651 -0.0329419 0.17889626 0.96208149 0.20590107 0.17450866
-0.045443099 -0.1468651 -0.034742594 0.19628343 0.92309284 0.330715 0.16534804
-0.034758676 -0.14688542 -0.034027021 0.094255619 0.87911344 0.46719962 0.13698684
-0.028944729 -0.14688542 -0.035687398 0.092202835 0.86284024 0.49699646 0.13754515
-0.013679639 -0.14729908 -0.036134932 -0.10039152 0.71208894 0.69487476 0.11201807
-0.0052660122 -0.14739338 -0.035625439 -0.076547973 0.66402453 0.7437821 0.13960728
0.012350767 -0.14777526 -0.033551387 -0.084435053 0.53760481 0.83895874 0.14171721
0.025654551 -0.14735343 -0.035114475 -0.11051501 0.31996357 0.94096214 0.15710755
0.044590831 -0.14344442 -0.039114438 -0.047253843 0.11205364 0.99257797 0.17909391
0.056225576 -0.14765289 -0.034804858 -0.16775739 0.49434671 0.85292369 0.16094327
0.063644052 -0.14709027 -0.03735549 -0.037454918 0.55975944 0.8278082 0.17485112
0.075723931 -0.14810427 -0.034007989 -0.24047683 0.51024753 0.82572293 0.16008481
0.083918661 -0.14745049 -0.034630094 -0.18630336 0.44302052 0.87694001 0.19976364
0.092131555 -0.1468651 -0.03716271 -0.12027252 0.55913728 0.82030481 0.24620366
0.10477424 -0.14099774 -0.032485567 -0.99696481 0.077741183 0.0041813413 0.2476878
0.1136378 -0.14547062 -0.033572394 0.26244545 0.44749448 0.85491002 0.27823305
0.12576921 -0.14233279 -0.03512577 -0.43425882 0.18338132 0.88192433 0.27997226
0.13562146 -0.14500482 -0.035545744 -0.97454464 -0.049079902 0.21875554 0.25724503
0.14216539 -0.1473843 -0.035006121 -0.95604944 -0.22393802 0.18926467 0.26204643
0.20525475 -0.14192367 -0.033964537 -0.92412037 0.10523576 0.36732411 0.15835093
0.22261344 -0.14478248 -0.03636121 -0.6900844 0.69848019 0.1894967 0.19270614
0.23607981 -0.14149699 -0.036976017 -0.3871716 0.85108882 0.35460687 0.13874555
0.34522808 -0.14125578 -0.033778936 -0.52846128 -0.81140172 -0.24971202 0.20190671
0.35734957 -0.14339086 -0.035579145 -0.42458931 -0.88716304 -0.18073675 0.19350943
0.3622317 -0.14802733 -0.037207 -0.77667344 -0.58312207 -0.23821636 0.20348085
0.37919638 -0.14199333 -0.034603402 -0.93592733 -0.21536361 -0.2786729 0.16986972
0.38033167 -0.14336389 -0.037173279 -0.92169917 -0.20533426 -0.32910258 0.15882891
-0.47352481 -0.13801622 -0.036157541 0.93971539 0.24999358 -0.23331994 0.05029504
-0.40329897 -0.13543993 -0.03641551 0.76385695 -0.64143074 -0.071338065 0.1582506
-0.39527214 -0.13015775 -0.036034718 0.47681484 -0.87469792 -0.086897932 0.15644316
-0.38781786 -0.13015775 -0.033849016 -0.21393311 0.97684306 -0.0032088279 0.14229663
-0.37418094 -0.13015775 -0.032867026 -0.1110127 0.99376172 0.010671298 0.096307486
-0.3641229 -0.13015775 -0.03202476 -0.033082951 0.99107188 0.12915912 0.077632144
-0.35618365 -0.13015775 -0.033179846 -0.10459178 0.98838437 0.11025796 0.061179403
-0.34478974 -0.13015775 -0.037963014 -0.09090779 0.98851389 0.12073116 0.037543677
-0.33369708 -0.13015775 -0.034835082 -0.0028843815 0.99089217 0.13462652 0.032490425
-0.32496485 -0.13015775 -0.03572835 -0.040004805 0.98669964 0.15755501 0.031806335
-0.31036466 -0.13015775 -0.03841006 -0.031134022 0.9994868 -0.0075269789 0.060730886
-0.30451018 -0.13015777 -0.034647375 -0.0045391037 0.98679757 0.16189463 0.032360468
-0.29678464 -0.13015775 -0.037019782 0.093845963 0.99456257 0.045148555 0.086305618
-0.28665912 -0.13015775 -0.033676852 0.083196096 0.98970377 0.11646829 0.040599909
-0.27377602 -0.13015775 -0.033616863 0.15793957 0.98691076 0.032591984 0.070704043
-0.26241124 -0.13015775 -0.034183484 0.17249553 0.98389113 0.046941672 0.11946874
-0.25708902 -0.13015775 -0.038283285 0.064362131 0.99497509 0.076694913 0.10796838
-0.2433849 -0.13015775 -0.038787957 0.089536436 0.99518985 0.039754644 0.17012359
-0.23388897 -0.13015775 -0.033282656 0.47976533 0.87372202 0.08021912 0.1838067
-0.2276597 -0.13537186 -0.036556337 0.69305688 0.58226621 0.42501557 0.20547435
0.014808136 -0.13188113 -0.039927289 -0.3677808 0.20872402 0.90618509 0.13735531
0.027099036 -0.13642174 -0.039230317 -0.20826581 0.055122446 0.97651768 0.10651604
0.048405319 -0.13473055 -0.036826633 0.031788323 -0.029986117 0.99904472 0.12325048
0.053844783 -0.13333093 -0.037543014 0.040749229 -0.059855547 0.99737495 0.10561585
0.06346485 -0.13202581 -0.038620144 0.13590436 0.0090164579 0.99068087 0.13202251
0.096533865 -0.13461128 -0.032532163 -0.81844562 0.46519253 0.33725756 0.20282218
0.10205106 -0.13933602 -0.0358641 -0.9067685 0.27888396 0.3162193 0.27105555
0.13799973 -0.13733755 -0.034255672 -0.9546718 -0.12050382 0.27217767 0.1800299
0.14111923 -0.13201582 -0.033018041 -0.96642274 -0.06596636 0.24834551 0.15106149
0.20586292 -0.1325334 -0.034226917 -0.83970112 0.41486505 0.3504127 0.17670979
0.21314368 -0.13015775 -0.03508747 -0.41978738 0.88031775 0.22095068 0.19061853
0.22473502 -0.13015775 -0.033376332 -0.25092778 0.95847106 0.13553037 0.16789199
0.24933363 -0.13015775 -0.03454908 -0.13856535 0.97743154 0.15945952 0.056355428
0.25481176 -0.13015775 -0.036533818 -0.11655489 0.97570384 0.18551825 0.048724636
0.2643252 -0.13015775 -0.039779011 -0.057318922 0.98607397 0.15611778 0.035127141
0.27736235 -0.13015774 -0.030342188 -0.069956265 0.97598958 0.20627768 0.043457646
0.2835806 -0.13015775 -0.037023552 0.050033141 0.99366015 0.10067846 0.019213142
0.2955057 -0.13015775 -0.034969348 -0.017342659 0.99555027 0.092622064 0.019320337
0.31545746 -0.13015775 -0.034196857 0.064526647 0.99371767 0.091441154 0.029947307
0.32509214 -0.13015775 -0.037184618 0.082618058 0.99599093 0.034296703 0.075006537
0.3300975 -0.13015775 -0.037723958 0.024855062 0.99932432 0.027075548 0.079468578
0.34344947 -0.13015775 -0.037158273 0.18212296 0.97893697 0.092269391 0.079895951
0.35553408 -0.13015777 -0.033800893 0.14598088 0.98777497 0.054681607 0.14330488
0.36664975 -0.13015775 -0.033395302 0.32790336 0.93474877 0.13683638 0.17042708
0.3765837 -0.13147418 -0.035808053 -0.8212499 -0.54145163 -0.17994094 0.18620245
0.38034326 -0.13372464 -0.037199512 -0.88041753 -0.43284613 -0.19367316 0.17758545
0.47306377 -0.13399085 -0.033716187 -0.957735 0.28761685 0.0044950107 0.0020343412
-0.47692311 -0.12437082 -0.035050929 0.90420854 0.20423843 -0.3750914 0.046368647
-0.17419368 -0.12410833 -0.034321845 0.81054056 0.58557898 -0.011010656 0.00073301437
0.028726598 -0.1245028 -0.039623875 -0.22920583 -0.013234422 0.97328794 0.046323396
0.035758141 -0.12258103 -0.038956821 -0.13724503 -0.056976475 0.98889703 0.039775956
0.045014933 -0.1210642 -0.039624803 -0.012541646 -0.079857849 0.99672741 0.039500512
0.052859604 -0.12435303 -0.038764924 0.076398604 -0.068590105 0.99471533 0.037294447
0.061792139 -0.12843464 -0.039080914 0.10065325 0.0027247248 0.99491787 0.085040472
0.098998912 -0.12802874 -0.035152406 -0.67688811 0.59869492 0.42823693 0.23509966
0.10221042 -0.12541819 -0.036720447 -0.73430669 0.36917636 0.56965113 0.26461315
0.13761093 -0.12356017 -0.035085946 -0.87604451 0.14864568 0.45874882 0.19806378
0.1457849 -0.12451635 -0.03613941 -0.9521246 0.12350228 0.2796534 0.13294479
0.47630069 -0.12366448 -0.033823766 -0.95842171 0.28522897 0.0084982263 0.0020419552
-0.47920918 -0.11425866 -0.034754898 0.90493906 0.20649518 -0.3720822 0.05652089
-0.18226552 -0.11337016 -0.033216696 0.94598246 0.32420039 0.0033728257 0.0075048432
-0.17946567 -0.11715242 -0.035142463 0.91744369 0.39735666 0.02011938 0.010099328
0.039520621 -0.11271363 -0.039738718 -0.04234207 0.052340537 0.99773121 0.0078290338
0.045601893 -0.11592502 -0.039393388 0.011760562 0.024587108 0.99962854 0.0084468666
0.10912143 -0.11758243 -0.03412243 -0.87330019 0.14323407 0.46565095 0.25283724
0.11513845 -0.11825152 -0.03536924 -0.86055827 -0.46840957 -0.20007972 0.29340044
0.12560928 -0.1182515 -0.033853292 0.61253387 0.78883964 -0.050341494 0.26298705
0.13226269 -0.11837342 -0.03358661 -0.88674265 -0.088092588 0.45379192 0.27160749
0.14692882 -0.11887807 -0.032480497 -0.94484651 0.20506608 0.25536847 0.097726218
0.47924685 -0.11180216 -0.03555632 -0.97100288 0.22836414 0.070733488 0.0018538751
-0.48119518 -0.10460594 -0.033974774 0.96646273 0.10000079 -0.23653696 0.089264862
0.038141504 -0.10508311 -0.03998588 -0.092855401 0.0041868119 0.9956708 0.011584708
0.042664312 -0.10447734 -0.039326787 -0.035363827 0.0085942727 0.99933761 0.0070293085
0.10954147 -0.10418588 -0.037537776 -0.88773733 -0.080356352 0.45328265 0.25074703
0.14681298 -0.10661329 -0.035338175 -0.91639733 0.28454036 0.28151858 0.086577311
0.4800266 -0.10699141 -0.035536095 -0.97149003 0.22574656 0.072426721 0.0016865296
-0.48322245 -0.09512531 -0.035664663 0.98133075 0.14430642 -0.12714401 0.13040823
-0.18511736 -0.095270716 -0.033657622 0.98867065 0.14954813 -0.012874776 0.0037485843
0.038504962 -0.091021992 -0.039920714 -0.057864942 0.00046729165 0.99832428 0.0073349155
0.043579631 -0.092624076 -0.039507385 0.013837158 0.015842425 0.99977875 0.0058297571
0.10966898 -0.094719671 -0.036620092 -0.90503281 -0.058921777 0.42124084 0.20038795
0.11310732 -0.097903229 -0.034579456 -0.98549736 -0.090820618 0.14334099 0.17032309
0.14649025 -0.093475819 -0.036555164 -0.92312765 0.057253469 0.38020706 0.046215851
0.48241317 -0.095803559 -0.038921341 -0.97314316 0.21585082 0.080004759 0.001510238
-0.48417792 -0.086372092 -0.032253288 0.93615204 0.14749244 -0.31916368 0.065693758
-0.18559372 -0.089032806 -0.037044324 0.99448532 0.10478657 0.0043314793 0.0013355707
0.044470433 -0.082889631 -0.03929732 0.0093159601 0.00020617819 0.99995661 0.0064914646
0.10968284 -0.084834285 -0.033524953 -0.98283398 0.066746242 0.17199494 0.15345764
0.14687477 -0.083855651 -0.034115124 -0.93302035 -0.073598593 0.35221621 0.022305032
0.48523793 -0.084796496 -0.033580434 -0.97947729 0.20097373 0.01528821 0.0020811416
-0.18669945 -0.072606392 -0.039786223 0.99767941 0.066407338 0.015028772 0.00028999793
0.039242774 -0.07552781 -0.039788537 -0.044882059 -0.011920293 0.99892122 0.0076465695
0.04175318 -0.077907994 -0.039498534 -0.040292948 0.0032327666 0.99918264 0.007155674
0.10969595 -0.072785556 -0.035390366 -0.93351823 0.020777665 0.35792741 0.19058929
0.11409695 -0.076888129 -0.035152331 -0.99817169 0.059907172 -0.008020347 0.13359529
0.14638695 -0.07329689 -0.035210565 -0.93292594 -0.23535267 0.27250379 0.03291731
0.48717722 -0.073498078 -0.038339946 -0.97893721 0.18536195 0.085574262 0.002366611
-0.48820433 -0.069666684 -0.039980628 0.99530685 0.076074898 0.059807181 0.11458733
-0.18694371 -0.066387318 -0.03357999 0.99801826 0.062044766 -0.010490495 0.00020482474
0.042615339 -0.068804264 -0.039184097 -0.037907261 -0.025755839 0.99894929 0.0087204659
0.10977256 -0.064835414 -0.034406848 -0.99539882 0.081308335 0.050696149 0.22057536
0.14629596 -0.063182339 -0.031199358 -0.92242402 -0.32642367 0.20635283 0.076103792
0.48851588 -0.067462042 -0.033400357 -0.98604548 0.16632785 0.0070230132 0.0017924341
-0.49128953 -0.050908484 -0.038964264 0.97818506 0.20230748 -0.047176067 0.16399875
-0.48883623 -0.057957314 -0.031456009 0.87827855 0.091037005 -0.46940288 0.070535056
-0.18800206 -0.050273087 -0.035174459 0.99796993 0.06310872 -0.0085683651 0.00019955047
0.035470393 -0.051168784 -0.039534654 -0.13257848 0.10247055 0.98586142 0.046225522
0.044186946 -0.052257713 -0.038631026 -0.059465352 0.084795952 0.99462235 0.057715546
0.054982442 -0.050132558 -0.039922975 0.10347602 0.044667598 0.9936285 0.083609775
0.10863331 -0.053211384 -0.035839986 -0.84607631 -0.21540204 0.48760316 0.27501366
0.11003564 -0.053890962 -0.038963493 0.056445353 -0.3441613 0.93721229 0.26500335
0.12846594 -0.053890962 -0.035684433 -0.72187275 0.68218654 -0.1162817 0.28656885
0.13569017 -0.052202612 -0.033460002 -0.784693 -0.44967693 0.42667034 0.23250921
0.48987925 -0.059494942 -0.033686869 -0.98546952 0.16858272 0.020728275 0.0017810574
0.49081063 -0.054066792 -0.03379659 -0.98547459 0.16381273 0.044779975 0.0041825203
-0.1883529 -0.044410471 -0.034332179 0.99983227 0.0034521862 -0.017986624 0.040558346
0.035725996 -0.04567147 -0.03769483 -0.16372363 0.098988369 0.98152733 0.08014901
0.044631392 -0.046575066 -0.037157595 -0.087758631 0.060916975 0.99427742 0.10548901
0.056920219 -0.046086624 -0.038978197 0.16547115 0.094350494 0.981691 0.12986973
0.062714815 -0.040686458 -0.038386703 0.14592578 0.0911965 0.98508316 0.22206613
0.097314738 -0.042302806 -0.033958856 -0.66351449 -0.57631791 0.47708085 0.21732017
0.10203262 -0.04797256 -0.034411535 -0.86217308 -0.37013048 0.34592071 0.25225648
0.13895756 -0.044752218 -0.034801938 -0.82596636 -0.47489056 0.30374089 0.12917508
0.14183554 -0.042325683 -0.034479629 -0.84466279 -0.48796248 0.22008461 0.10427946
-0.4935194 -0.034877852 -0.036931835 0.95229375 0.205552 -0.22557722 0.11979546
-0.18899089 -0.034075156 -0.033631828 0.99961263 0.027821111 0.00076069118 0.11763591
-0.16502759 -0.030387169 -0.032364994 -0.052637633 0.99760842 0.044797059 0.040168796
-0.15842147 -0.030387167 -0.030334095 3.8346354e-08 1 2.1759027e-07 4.4410876e-07
-0.13752748 -0.030387167 -0.032938093 2.4004223e-06 1 -1.1876613e-06 6.4946141e-07
-0.10561549 -0.030319208 -0.037680101 -0.13353957 0.99103028 -0.0051108287 0.019089457
0.014847528 -0.039151542 -0.039828271 -0.41218027 0.099767976 0.90562344 0.098013453
0.026958635 -0.037605096 -0.038001478 -0.40960366 0.14791916 0.90019149 0.11814859
0.04363152 -0.035635382 -0.036888044 -0.15090504 -0.00728674 0.98852146 0.21718097
0.054387547 -0.036386266 -0.038624249 0.082478777 0.15986636 0.98368698 0.24561924
0.061238803 -0.038584847 -0.038416497 0.12756877 -0.088979036 0.9878304 0.22946958
0.094938755 -0.038539361 -0.032070357 -0.55533898 -0.73311287 0.39261204 0.21712008
0.10400834 -0.03302661 -0.03716239 -0.10527007 0.92436033 -0.36670998 0.26251864
0.11831965 -0.030254722 -0.030760305 -0.20872167 -0.84762001 0.48782739 0.26686502
0.12021711 -0.030510634 -0.031828426 -0.45629057 -0.67651653 0.57803488 0.25564936
0.13551496 -0.033015717 -0.035037044 -0.83151782 -0.48804414 0.26531312 0.1079708
0.14085194 -0.039827142 -0.034617539 -0.84213018 -0.49443746 0.21528687 0.1007486
0.493893 -0.035486273 -0.034116216 -0.98495334 0.17084101 0.02608183 0.0014906781
-0.49441323 -0.024263926 -0.033023607 0.92772514 0.17468576 -0.32986495 0.075371228
-0.18942447 -0.027988825 -0.035649646 0.9960674 0.080869637 -0.036189169 0.14073046
-0.09576004 -0.029824033 -0.038506553 0.32147926 -0.94290835 0.087034449 0.053164184
-0.086524412 -0.028773159 -0.034896322 0.57305866 -0.80210078 0.16804175 0.077217072
0.032054555 -0.022118755 -0.03807836 -0.44371703 -0.22936174 0.86631888 0.16006093
0.047138959 -0.028718466 -0.035070345 -0.18980439 -0.47249684 0.86065149 0.20639652
0.054116622 -0.028496653 -0.03449671 0.0088545298 -0.43415779 0.90079325 0.16031164
0.064302467 -0.028235922 -0.034668021 0.033185516 -0.65901893 0.75139385 0.13542366
0.075223647 -0.028034911 -0.036498893 -0.091637276 -0.77242726 0.62845737 0.14048122
0.088055119 -0.027279908 -0.033876009 -0.22841656 -0.79225391 0.56582642 0.17992802
0.098495074 -0.026739774 -0.033549625 0.046148509 0.91746217 -0.39513725 0.24401754
0.10469022 -0.026427038 -0.033667833 -0.26165909 0.9266867 -0.26978946 0.2282818
0.11303081 -0.026089957 -0.035394773 -0.60331786 0.5955416 -0.53041279 0.2400246
0.1231389 -0.024879163 -0.035541058 -0.71832156 -0.57321316 0.39425978 0.20915705
0.13158886 -0.029698474 -0.035874303 -0.77129084 -0.53439683 0.34573174 0.14849079
0.49517542 -0.02862592 -0.033264622 -0.98396218 0.17564213 0.031116381 0.0012919755
-0.49579969 -0.01380102 -0.032326166 0.93344313 0.16227084 -0.31992522 0.075715922
-0.082784861 -0.018958587 -0.037253875 0.61308098 -0.75855917 0.22072549 0.11344669
-0.05814781 -0.014285899 -0.031159351 -0.13823636 0.98576862 -0.095660441 0.11973995
-0.044386003 -0.012195607 -0.032306589 0.5560261 0.73349339 0.39092508 0.16739994
0.12249003 -0.015903039 -0.034554243 -0.98464262 0.082532272 -0.15384175 0.24806617
0.4968783 -0.015612651 -0.038812302 -0.98128611 0.10425498 0.16189034 0.013752045
-0.49654394 -0.0072165704 -0.031061776 0.92624384 0.072186984 -0.36994785 0.059148382
-0.19082451 -0.0069674635 -0.038521171 0.99972481 0.022910781 0.0050441218 0.00046301959
-0.082346886 -0.0097980313 -0.035292163 0.86080337 -0.47147986 0.19163607 0.17375454
-0.056114607 -0.0072427313 -0.033534303 0.12764284 0.96615613 0.22416435 0.14439224
0.032167837 -0.005681457 -0.035210572 -0.59555161 -0.15294033 0.78862381 0.041183271
0.12131111 -0.0068229511 -0.035335071 -0.99326849 -0.057844449 0.10035814 0.10916936
-0.49726892 0.0067247218 -0.03361968 0.93457431 -0.049921088 -0.35224807 0.069611743
-0.19083279 0.0058501037 -0.033296235 0.99964142 -0.022187265 -0.014992154 0.00040737333
0.032013986 0.0085187471 -0.036843639 -0.61689466 0.18340005 0.76537931 0.067817286
0.11992361 0.0021130948 -0.03940019 -0.99856818 -0.051065084 -0.015935289 0.11431032
0.12122057 0.0010471229 -0.03668968 -0.99994117 -0.0082878424 0.0069980356 0.12726423
0.49902526 0.0042904466 -0.037659574 -0.99405617 -0.061493032 0.089839317 0.0041195578
-0.19009261 0.017385863 -0.032923922 0.98682171 -0.16176115 0.0040275524 0.074052684
-0.18997772 0.018611897 -0.03135509 0.98609084 -0.16614589 0.0045249653 0.083477646
-0.081472576 0.013556583 -0.039439682 0.88632298 0.25494939 0.38656494 0.1010899
0.032201469 0.015095037 -0.034853626 -0.41435036 0.35030004 0.84000212 0.13664746
0.12205523 0.017123125 -0.034360647 -0.90603447 0.14717962 0.39678675 0.22408272
0.49651414 0.018827852 -0.038745143 -0.98459959 -0.12733451 0.1197899 0.010433675
-0.49523193 0.025328174 -0.037304252 0.95552844 -0.24558097 -0.16326457 0.10707936
-0.18981111 0.024338271 -0.039593082 0.99414617 -0.079185307 0.073506489 0.082688041
-0.16386652 0.027707154 -0.03883855 -0.020325977 -0.99978215 -0.0047311406 0.042116262
-0.15958288 0.027707154 -0.038588375 -7.2776324e-06 -1 1.5239275e-06 0
-0.14443353 0.027707156 -0.032495942 3.0212063e-06 -1 5.1515457e-07 0
-0.13540347 0.027707154 -0.032713667 -0.00022589698 -0.99999994 9.4262932e-06 0
-0.12923019 0.027707154 -0.032790598 -0.0022471277 -0.99999708 -0.0009055502 6.9459406e-06
-0.11432682 0.027707156 -0.033938624 -0.024343783 -0.99970341 -0.00064707251 0.00032250953
-0.10593244 0.027658524 -0.035626039 -0.14529629 -0.98914039 -0.022144867 0.017274516
-0.093911767 0.026931999 -0.034784202 0.33996642 0.94038785 0.0096728215 0.054763976
-0.083370328 0.024074227 -0.033190209 0.75171077 0.62923217 0.19747859 0.066379182
0.035376504 0.022629006 -0.037929714 -0.35323918 0.33333427 0.87413406 0.19947904
0.043147728 0.026406266 -0.039428551 -0.34063894 0.51891035 0.78402621 0.22213595
0.055411898 0.025821595 -0.03539316 -0.16698039 0.60177958 0.7810114 0.15262981
0.06485983 0.025345029 -0.031875033 0.026876021 0.62161654 0.78286046 0.12957065
0.075089738 0.025108136 -0.032431848 -0.17386754 0.70446491 0.6881128 0.1449829
0.085314542 0.024513988 -0.031292368 -0.11746122 0.62828523 0.76906461 0.18138534
0.096917905 0.02410898 -0.035124034 -0.16113143 -0.80514759 -0.57076627 0.21275543
0.10363311 0.023629125 -0.031950444 -0.44681889 -0.82583398 -0.34402198 0.24040256
0.1257859 0.028634405 -0.033377595 -0.80175757 0.476684 0.36049578 0.19224477
0.49521464 0.027396873 -0.03583014 -0.98889178 -0.14568183 0.029493552 0.0037281138
-0.49476787 0.030119432 -0.038971491 0.98221409 -0.17579597 -0.065963961 0.12325761
-0.18906581 0.034629408 -0.035691667 0.99841613 0.00047075492 0.056258973 0.085111849
0.024926269 0.037392706 -0.03908677 -0.47020483 -0.13747478 0.87178451 0.12864038
0.033315107 0.036946863 -0.038032718 -0.17658243 -0.14269441 0.97388756 0.1714479
0.042082526 0.034400735 -0.038397208 -0.082974553 -0.16121817 0.98342454 0.20113897
0.055140518 0.038287856 -0.038010959 -0.073500656 0.030605862 0.9968254 0.22201549
0.066387951 0.039164886 -0.039651945 0.20781466 0.079139918 0.97496152 0.19834964
0.099636011 0.035304453 -0.034302205 -0.17305091 0.73311466 0.65772051 0.26633754
0.1037603 0.033203606 -0.037008099 -0.37353155 -0.82832837 -0.41754785 0.29905602
0.11422986 0.03187931 -0.035774529 -0.36461928 -0.39686817 -0.84234691 0.27859691
0.12577046 0.032116368 -0.035491783 -0.64769024 0.38578096 0.65701634 0.19473377
0.13646089 0.034167871 -0.033228152 -0.80191034 0.52038348 0.29349756 0.11362039
-0.49197197 0.042756643 -0.034297016 0.95150805 -0.085290641 -0.29556376 0.1079891
-0.18848772 0.043379392 -0.034684204 0.99963892 -0.0061633196 0.026154876 0.04551743
0.0145714 0.04043407 -0.039829951 -0.48901218 -0.14060375 0.86087036 0.085043326
0.024273047 0.042992521 -0.038712062 -0.34591958 -0.11735865 0.93089563 0.11329998
0.035769243 0.04530723 -0.037334591 -0.12785271 -0.11075355 0.98558986 0.10315823
0.0469843 0.045405418 -0.03658472 0.0094413226 -0.053946722 0.99849916 0.094603755
0.05342431 0.046055544 -0.037986934 0.083351463 -0.0092139225 0.9964776 0.10424364
0.064211339 0.042621326 -0.039068393 0.16800827 0.12771817 0.97747701 0.15541784
0.096008353 0.043238066 -0.031829834 -0.81410182 0.48294258 0.32249755 0.22847739
0.10074706 0.04339426 -0.039275393 0.05137556 0.11123408 0.99246538 0.31311554
0.13855347 0.046185501 -0.035843085 -0.8063463 0.45002419 0.38377574 0.14004102
0.14244813 0.045946769 -0.035305426 -0.85882354 0.3786281 0.34505492 0.087270163
0.49295682 0.042829372 -0.032900117 -0.98594511 -0.16298839 0.036701806 0.0049737114
-0.4905273 0.055573829 -0.037662707 0.99933147 0.004959044 -0.036221359 0.12833552
-0.48973194 0.0560637 -0.033745661 0.99127233 0.0049457587 -0.13173717 0.12329785
-0.18777406 0.055264901 -0.03629081 0.99809492 -0.061653901 -0.0023160581 0.00024044669
0.039315496 0.056617696 -0.039417822 -0.038422909 -0.049051441 0.99805689 0.027207395
0.045365091 0.054190349 -0.039257344 0.0043803062 -0.079399429 0.99683326 0.035072636
0.10831568 0.054634649 -0.035515461 0.18076876 -0.51125956 0.84020007 0.31608424
0.11611228 0.054856095 -0.032942127 -0.53145075 -0.83665735 0.13253143 0.27869201
0.12454817 0.054856099 -0.034323171 -0.44675303 -0.23813237 0.86238325 0.26196051
0.13719447 0.052236147 -0.033062838 -0.81406265 0.47935393 0.32790512 0.20746669
0.14305343 0.053981937 -0.039754376 -0.86132419 0.36237562 0.35609639 0.10268211
0.49092898 0.054502986 -0.031640727 -0.98557454 -0.16908358 -0.0073181135 0.0021936002
-0.48855314 0.063062944 -0.033571947 0.9910171 -0.024118951 -0.13154192 0.12223341
-0.18695126 0.067115337 -0.033269368 0.99796969 -0.063609511 -0.0032048295 0.00024619399
0.038594626 0.064156502 -0.039904695 -0.082765475 0.058398489 0.99485654 0.0075912233
0.041994698 0.068220586 -0.039295331 -0.022151416 0.030906137 0.99927688 0.0085675009
0.10975633 0.063703991 -0.034626748 -0.99209285 -0.055915926 0.1123613 0.22166862
0.11002792 0.069353953 -0.030947117 -0.98501927 0.020997504 0.171161 0.13313115
0.1449222 0.062981777 -0.036335804 -0.91554463 0.22964355 0.33021501 0.072470874
0.48904312 0.065821432 -0.03270404 -0.98387331 -0.17309679 -0.045065477 0.0043848646
-0.48647058 0.076484933 -0.034733608 0.98446834 -0.14580464 -0.097791873 0.11389143
-0.18642382 0.077839963 -0.039559495 0.99807703 -0.061189398 0.0099049034 0.00030575015
0.039452437 0.078082323 -0.039852008 -0.058391582 -0.0027959219 0.99828982 0.0073302984
0.044672798 0.074544393 -0.039526951 -0.0017817335 0.035042234 0.99938422 0.0051681786
0.10978784 0.07267116 -0.034200039 -0.96665037 -0.022034328 0.25514996 0.1719335
0.11218652 0.077490091 -0.034574404 -0.99230206 -0.096228689 0.077953711 0.14130139
0.14697988 0.071408138 -0.031857692 -0.94309133 0.24161181 0.22847842 0.0457724
0.48717144 0.075514026 -0.036926635 -0.98118842 -0.18304589 0.061347026 0.0021073152
-0.48483521 0.085405968 -0.034323823 0.91569203 -0.32939908 -0.23022673 0.11422604
-0.18580852 0.086090475 -0.035692796 0.99736643 -0.072472289 0.0028277081 0.00039822629
0.043382131 0.086345598 -0.03952828 0.014560628 0.00095910404 0.99989349 0.0070070005
0.1096508 0.084954023 -0.033827011 -0.98960775 -0.0043592849 0.14372759 0.14398648
0.14580095 0.08222124 -0.038340256 -0.90843463 -0.0057184421 0.41798791 0.037301514
0.48479605 0.087377809 -0.03676708 -0.98016119 -0.19045711 0.0548658 0.0017312855
-0.48249638 0.095906638 -0.031385407 0.86327881 -0.36807474 -0.34535584 0.12254676
-0.1851422 0.097482704 -0.037967872 0.99374497 -0.11164547 0.0024987573 0.0014041946
0.042405523 0.096289918 -0.039221689 -0.010212266 -0.022545837 0.99969363 0.0068775262
0.10980222 0.096767835 -0.033495348 -0.96662295 -0.044056501 0.25238684 0.15853876
0.11171141 0.098039366 -0.033968445 -0.9818359 0.061212532 0.17958677 0.16636088
0.14750656 0.096236676 -0.032497868 -0.95446587 -0.16751882 0.24684483 0.028311456
0.48237199 0.097678855 -0.035706293 -0.9737727 -0.22568448 0.028864883 0.0010600184
-0.18467048 0.10394586 -0.035366274 0.96948367 -0.24437606 -0.019537583 0.010469683
0.039591528 0.10510201 -0.039726015 -0.029270597 -0.039407834 0.99879444 0.0085434513
0.043293603 0.10489696 -0.039438732 -0.0061861644 -0.020740975 0.99976575 0.0070541529
0.1097879 0.1026807 -0.034198999 -0.97034764 0.089751527 0.22443293 0.19915618
0.14667667 0.10383454 -0.036321159 -0.92536038 -0.26245034 0.27354747 0.079808854
0.48120007 0.10365828 -0.035087116 -0.97183508 -0.23310737 0.034604959 0.00094599207
-0.18310754 0.11269791 -0.034407962 0.93142086 -0.36393645 0.0023494782 0.012063546
0.03979807 0.11788242 -0.039688997 -0.032528013 -0.054301921 0.9979946 0.0088507673
0.044321023 0.11444651 -0.039574049 0.0037615451 -0.060910251 0.99813622 0.0078780456
0.10960258 0.1141724 -0.036709871 -0.89993519 -0.087901935 0.42707145 0.26817441
0.11343513 0.11741586 -0.034457732 -0.99115425 -0.087143637 -0.10009547 0.29279885
0.12548928 0.11921687 -0.034721788 0.51547974 -0.85599458 -0.039419308 0.26025349
0.13542601 0.11925147 -0.03392376 -0.83322382 -0.38614446 0.39576569 0.27227589
0.47882304 0.11446909 -0.034088563 -0.96700877 -0.25350347 0.025098566 0.0022455861
-0.47655064 0.1262949 -0.033804759 0.92060781 -0.13817886 -0.36522293 0.055238869
-0.17264469 0.12712526 -0.034289356 0.82746661 -0.56150097 0.0039661024 0.0020484896
0.028437044 0.1246862 -0.039932467 -0.25705424 -0.0025803423 0.96639353 0.055268437
0.036755394 0.1255047 -0.038135525 0.0089027695 0.041323457 0.99910611 0.050069325
0.043907907 0.12365586 -0.038094681 0.015195943 0.051874604 0.99853796 0.036565047
0.054020677 0.12742546 -0.03829062 0.10836774 -0.017270071 0.9939608 0.061686486
0.099423505 0.12745957 -0.033479813 -0.8349033 -0.50661147 0.2151307 0.22910309
0.10379303 0.12414648 -0.038726151 -0.94094282 -0.33379984 0.056605484 0.27408868
0.13826706 0.12467886 -0.032543883 -0.97481543 -0.16157733 0.15371285 0.22172579
0.14666271 0.12052171 -0.033475623 -0.97509497 -0.12200929 0.18521221 0.10523365
0.47527894 0.12710252 -0.034702912 -0.96366006 -0.26559559 0.028605251 0.0015505704
-0.47436392 0.13560845 -0.03492571 0.9244175 -0.2437052 -0.29336002 0.046296109
-0.40259194 0.13387267 -0.037667133 0.675363 0.7159043 -0.17710395 0.19465914
-0.39663634 0.1311231 -0.034648985 0.59483808 0.77511674 -0.21298289 0.18267268
-0.38491726 0.1311231 -0.036064431 -0.26117191 -0.94914037 0.17584597 0.17521311
-0.37459397 0.1311231 -0.036479566 -0.19252403 -0.98023283 0.045586221 0.12367418
-0.362243 0.1311231 -0.03780213 -0.14361747 -0.98304737 0.11398222 0.076764368
-0.35378444 0.1311231 -0.034361966 -0.11678775 -0.99042547 0.073607273 0.048678949
-0.33193195 0.1311231 -0.030662213 -0.079274133 -0.9865883 0.14268568 0.034831416
-0.31328213 0.1311231 -0.036692388 0.012996226 -0.99664593 0.080795884 0.023168389
-0.3053185 0.1311231 -0.033952326 0.039525069 -0.9868753 0.15657228 0.037944857
-0.29651827 0.1311231 -0.036555357 0.099094063 -0.99343342 0.057186667 0.082126997
-0.27629441 0.1311231 -0.035043254 0.1355387 -0.99035966 0.02858302 0.095363103
-0.26383966 0.1311231 -0.036622908 0.128378 -0.98688424 0.097869702 0.10389943
-0.25446188 0.1311231 -0.037572823 0.0044943211 -0.99522537 0.097499996 0.13615318
-0.24583757 0.1311231 -0.033043541 0.23048075 -0.94630146 0.22669876 0.17369895
-0.23611657 0.1311231 -0.036408473 0.32510781 -0.90789318 0.26464099 0.19155674
-0.22888784 0.13538222 -0.033162773 0.66071308 -0.67926353 0.31946728 0.17634661
-0.1676174 0.13371611 -0.03237338 0.80070955 -0.59901518 -0.0067078755 0.0001597162
0.016323987 0.13274935 -0.039586231 -0.52971619 -0.2610451 0.80700445 0.1640386
0.028165709 0.13288006 -0.037339371 -0.19441633 0.042845801 0.97998291 0.12487178
0.034465019 0.13448822 -0.036901798 -0.076908536 0.0096108327 0.99699187 0.09444163
0.046305433 0.13721421 -0.037514668 -0.015149523 0.020823844 0.99966836 0.11909449
0.054995429 0.13531429 -0.037827149 0.11477257 0.029875131 0.99294251 0.11858029
0.097339191 0.13590838 -0.033825431 -0.85827535 -0.47163334 0.20230033 0.2396576
0.10136293 0.13625538 -0.038917787 -0.31772909 -0.34302938 0.88395649 0.28008303
0.13986939 0.13972974 -0.036186118 -0.98344284 0.085736804 0.15965356 0.19770782
0.14329487 0.13629469 -0.035593078 -0.98744631 0.15125254 0.045526359 0.16017587
0.20673586 0.13135605 -0.036399711 -0.64711761 -0.73299402 0.20966326 0.18329708
0.21677659 0.1311231 -0.031865161 -0.11538067 -0.9932937 0.0074135428 0.15710677
0.22536401 0.1311231 -0.032018036 -0.21137366 -0.97514725 0.066401355 0.1429843
0.23621154 0.1311231 -0.034014232 -0.063202858 -0.99276549 0.10208902 0.087517478
0.24670891 0.1311231 -0.036651369 -0.21431549 -0.95763671 0.19235592 0.061315767
0.26446354 0.1311231 -0.036152747 -0.073151171 -0.98479295 0.15758087 0.039883319
0.27154025 0.1311231 -0.033619434 -0.034838211 -0.99279457 0.11465263 0.033475362
0.28202704 0.1311231 -0.034061614 0.020932708 -0.99117404 0.13090421 0.026269587
0.29971346 0.1311231 -0.035654314 0.057444278 -0.98763281 0.14588252 0.032842636
0.3038635 0.1311231 -0.030065194 0.0046243905 -0.99114203 0.13272579 0.043496702
0.31880879 0.1311231 -0.037599705 0.16866113 -0.98522198 0.029849024 0.10520293
0.33295539 0.1311231 -0.033627182 0.12124261 -0.99207973 0.032832988 0.10076793
0.34620732 0.1311231 -0.034210213 0.081039175 -0.99412858 0.071701542 0.11988685
0.35470644 0.1311231 -0.033459865 0.08708442 -0.99619818 0.0023446674 0.13424744
0.36556879 0.1311231 -0.035941709 0.32864261 -0.94101661 0.08050999 0.16192453
0.37778425 0.1311231 -0.033618022 -0.63411993 0.75959837 -0.14457621 0.17343973
0.38078976 0.13657518 -0.038210239 -0.87080389 0.46759963 -0.15182579 0.17550468
0.47393194 0.13167727 -0.036644123 -0.96067137 -0.27502358 0.038373943 0.00144288
-0.40273175 0.14478536 -0.035094194 0.94610989 0.1005671 -0.30783468 0.17766076
-0.38299331 0.14402892 -0.037703279 0.66003019 0.65395194 -0.36973935 0.21384761
-0.36510724 0.14289944 -0.037291124 0.38848579 0.89060026 -0.23645286 0.09611582
-0.2675873 0.14271359 -0.035181154 -0.37853971 -0.91533649 -0.13735679 0.19199875
-0.25565311 0.14276241 -0.034517735 0.41348162 -0.81818753 0.39950237 0.17293167
-0.24579477 0.14746669 -0.035381403 0.71499568 -0.57001638 0.40479931 0.22790594
-0.22894745 0.14753306 -0.032997984 0.91107023 -0.13050289 0.39104977 0.18058923
-0.16110033 0.1423973 -0.03357074 0.79879028 -0.60159802 -0.0037240069 0.0001427746
-0.15888897 0.14548638 -0.037822932 0.79904735 -0.60116667 0.011046719 0.00018411581
-0.097807288 0.14783135 -0.03272178 -0.67415762 -0.72385627 -0.14677742 0.11835634
-0.083099917 0.14783096 -0.034701776 -0.062985048 -0.97430831 -0.21623176 0.21758389
-0.068263188 0.14783064 -0.039595939 -0.027792983 -0.98389858 0.17655368 0.15422043
-0.0476094 0.14843541 -0.032325134 0.23154961 -0.89814007 0.37380368 0.14108115
-0.032165483 0.14785124 -0.035708182 0.064585105 -0.8854838 0.46015999 0.13672976
-0.026197517 0.14785124 -0.037272137 0.030156337 -0.89163506 0.45174932 0.13454169
-0.015971541 0.14793186 -0.035103615 0.01574537 -0.85197473 0.52334625 0.1261632
-0.0096696988 0.14785124 -0.034396823 -0.081121907 -0.75900966 0.64600581 0.11719631
0.0018803924 0.14785124 -0.036987983 -0.078153655 -0.62204385 0.77907217 0.14937772
0.018356029 0.14858527 -0.033042647 -0.08406806 -0.48882791 0.86832011 0.17382306
0.024303667 0.14890438 -0.033101439 -0.22617269 -0.37215716 0.90019166 0.17709307
0.037514973 0.14063343 -0.03981965 -0.074420169 -0.014261299 0.99712503 0.16761886
0.045281071 0.14537455 -0.0382156 0.056103848 -0.088050164 0.99453485 0.18586785
0.05686231 0.14821905 -0.034929294 -0.026175167 -0.49429232 0.86890161 0.18530548
0.070379704 0.14782955 -0.038513325 -0.070300192 -0.49008462 0.86883539 0.18127112
0.088924892 0.14821893 -0.033814482 -0.53157967 -0.5078125 0.67790079 0.24033542
0.091918387 0.14834888 -0.034754001 -0.58167213 -0.55563307 0.59407866 0.22904193
0.10508221 0.14564827 -0.034086537 0.050926745 -0.15837485 0.98606485 0.30271772
0.11329652 0.14621301 -0.03498657 0.20357804 -0.77045846 0.60411084 0.25826979
0.12473075 0.14265847 -0.036547173 -0.61147022 0.37402722 0.69728601 0.25653306
0.13535209 0.14486937 -0.033617772 -0.96245319 0.054858077 0.26584673 0.20466578
0.1452983 0.14853306 -0.033899568 -0.98681659 0.14257938 -0.076578058 0.19578665
0.20511065 0.14548144 -0.0343761 -0.92327589 -0.076035254 0.37653723 0.13231263
0.22342007 0.14485055 -0.033909846 -0.55021358 -0.72751009 0.4098708 0.1877317
0.23784371 0.14222114 -0.032689106 -0.49936837 -0.81073213 0.30552375 0.15324362
0.24365118 0.14265424 -0.031638578 -0.41406712 -0.87232727 0.25998744 0.11731608
0.33814347 0.14295836 -0.036144547 -0.037477326 -0.99512482 0.091224879 0.21293032
0.35768223 0.14405993 -0.03681419 -0.40535986 0.90529484 -0.12698275 0.18995051
0.37928936 0.14495169 -0.034813818 -0.94431317 0.15680377 -0.28928378 0.17963494
0.38108185 0.14071731 -0.038871475 -0.92617393 0.3550072 -0.12716798 0.16036561
0.47036508 0.1433789 -0.036014903 -0.95335597 -0.30154952 0.013426667 0.0014849774
-0.46836296 0.15297031 -0.035201941 0.87623119 -0.45636523 -0.15475653 0.043382373
-0.4011111 0.15238932 -0.031318925 0.88600922 0.12683417 -0.44598296 0.14311247
-0.38791543 0.15547664 -0.0362036 0.84927309 0.22653246 -0.47688404 0.16830905
-0.24468978 0.15515825 -0.036167681 0.7865181 -0.25137198 0.56409341 0.21553506
-0.22933872 0.15498739 -0.031916663 0.92668003 -0.01639593 0.37549347 0.15853833
-0.15288353 0.15342356 -0.037250467 0.7573877 -0.65296519 -0.00060919177 0.0029746303
-0.14950728 0.15794295 -0.038461097 0.66758573 -0.74451405 -0.0053003803 0.017536458
-0.044414178 0.15407044 -0.03194578 0.19026472 -0.91935301 0.34436804 0.1392999
-0.039015897 0.15540935 -0.034909166 0.11379653 -0.91273117 0.39239281 0.14068723
-0.026326003 0.15540937 -0.037514567 0.021842889 -0.90418673 0.42657858 0.13535701
-0.015772091 0.15514226 -0.034742031 -0.038901348 -0.91668248 0.39771852 0.13709642
-0.0054573049 0.15497567 -0.035013054 -0.027602158 -0.83668309 0.54699129 0.1474878
0.0040917727 0.15446165 -0.032370206 -0.090687394 -0.8116675 0.57703692 0.15719195
0.013853286 0.15315221 -0.034613676 -0.11604276 -0.72630155 0.6775102 0.17285296
0.028134326 0.15467879 -0.033332545 -0.039145108 -0.69658816 0.71640259 0.17403539
0.045173373 0.15355289 -0.034318041 0.0055901338 -0.52376628 0.85184371 0.17612784
0.054488849 0.1553202 -0.03189522 -0.029307835 -0.65119928 0.7583406 0.17252167
0.069545515 0.15057442 -0.031971555 -0.050170902 -0.53934586 0.84058845 0.15609314
0.077759326 0.15307555 -0.03192763 -0.21908408 -0.76921207 0.60026246 0.15693636
0.088673212 0.15414503 -0.031854324 -0.41219404 -0.73930758 0.53246629 0.22346948
0.091354236 0.15240365 -0.031835772 -0.40122032 -0.76757467 0.49985135 0.21792126
0.11375235 0.15343048 -0.031675495 0.16390485 -0.90206987 0.39925593 0.16981748
0.12673461 0.15723217 -0.032275435 -0.047025889 -0.98726958 0.15194513 0.19259515
0.13529873 0.15524817 -0.036188025 0.25456649 -0.96609873 0.043001637 0.21251658
0.14609423 0.1551625 -0.033058789 0.39018375 -0.92056429 0.017833263 0.20235115
0.16351612 0.15935394 -0.03349008 0.20314449 -0.97274321 0.11181613 0.13118806
0.20403042 0.15966846 -0.037461553 -0.93527389 0.07025791 0.34688112 0.11788371
0.21814397 0.15593535 -0.037737969 -0.91164923 -0.16449624 0.3766121 0.16778553
0.22106077 0.15747212 -0.030652707 -0.86094594 -0.20718236 0.46459401 0.17959008
0.36118808 0.15243219 -0.034448758 -0.70381391 0.46920964 -0.53337437 0.25149661
0.37863863 0.15317902 -0.033340849 -0.96135116 -0.029078374 -0.2737855 0.16604446
0.38118309 0.15427467 -0.039100636 -0.93144929 -0.054348473 -0.35978952 0.15859683
0.46628198 0.1555773 -0.0334423 -0.94490576 -0.32683399 0.018238254 0.0013317328
-0.46245643 0.16363716 -0.037384551 0.81403595 -0.57993865 -0.031884376 0.053199232
-0.40240034 0.16442838 -0.034322165 0.951011 0.10398641 -0.29114407 0.12551153
-0.38800135 0.16433057 -0.035599962 0.86349821 0.2749247 -0.42283237 0.12551123
-0.24476559 0.16346218 -0.035144325 0.85314399 -0.14351638 0.50154603 0.15640551
-0.22904396 0.16721749 -0.032731097 0.87528032 0.033078395 0.48248333 0.15361947
-0.14359283 0.16568714 -0.035947915 0.61548692 -0.78639936 -0.052458692 0.070184842
-0.12564962 0.1680758 -0.035178535 0.078308292 -0.99425352 0.072991885 0.13933238
-0.11473311 0.16813666 -0.034983728 -0.16472073 -0.98632878 -0.0047509996 0.07775908
-0.099206015 0.16820163 -0.031130154 -0.26066488 -0.95049769 -0.16913903 0.15218779
-0.087019302 0.16829857 -0.035905126 -0.12451655 -0.98332864 0.13251561 0.17786822
-0.071790971 0.16831198 -0.031048892 -0.12565745 -0.99181682 0.022575447 0.15039468
-0.065703288 0.16832757 -0.037300359 -0.080697469 -0.99543238 -0.051012892 0.16443633
-0.055421531 0.16825712 -0.03363632 0.19885169 -0.97950476 0.03206937 0.16934688
-0.044125181 0.16501284 -0.035870835 0.033275351 -0.98781794 0.15201458 0.16736141
-0.034212489 0.16692546 -0.034653611 0.090412177 -0.95833242 0.27096966 0.13042589
-0.025936337 0.16720939 -0.03460915 0.058627218 -0.96146989 0.26858601 0.12267862
-0.014864357 0.16619144 -0.038423963 0.0021740852 -0.97534257 0.22068562 0.15030366
-0.0072691776 0.16605529 -0.033784155 0.021751363 -0.95967394 0.28027281 0.13406348
0.0088762697 0.16688117 -0.030419521 0.030403921 -0.97483307 0.22085322 0.097648829
0.013834703 0.16582727 -0.035329662 -0.069018789 -0.90369457 0.42257833 0.1685759
0.020551607 0.16592875 -0.032034446 -0.044792786 -0.98268682 0.17977823 0.15168805
0.034947399 0.16553532 -0.035870846 0.02198128 -0.97499716 0.22112733 0.16606721
0.044809543 0.16343889 -0.034736115 -0.06150439 -0.95773238 0.28100857 0.17388581
0.052514642 0.16473731 -0.037234258 0.065603852 -0.97453982 0.21440233 0.20883761
0.064762153 0.16432859 -0.034164842 0.0025859661 -0.9753288 0.2207424 0.13695519
0.075866215 0.16143593 -0.03210444 -0.03922708 -0.9380883 0.34416801 0.13533774
0.085216694 0.16318242 -0.03518834 -0.076594539 -0.895024 0.439392 0.16185865
0.094996668 0.16222844 -0.033108599 -0.29794547 -0.89976615 0.31882498 0.20397539
0.10530206 0.1621255 -0.034449112 -0.17410338 -0.95176935 0.25263226 0.17283079
0.11501916 0.16148169 -0.03477665 0.06200137 -0.99807161 -0.0029892651 0.15806741
0.13639838 0.16627908 -0.034275353 0.16321658 -0.98630553 -0.023701498 0.19512066
0.15542425 0.16024129 -0.034618556 0.461909 -0.8867448 -0.01798946 0.19457497
0.21828538 0.16217411 -0.036747873 -0.86013436 -0.28363445 0.42393437 0.15460485
0.22049317 0.16259129 -0.031462923 -0.86742592 -0.14956462 0.47455534 0.1523997
0.35973358 0.16044655 -0.030274954 -0.85191 0.23935582 -0.46578762 0.20860597
0.36291218 0.16507882 -0.037241656 -0.85838675 0.19574811 -0.47418877 0.16886967
0.37717021 0.16630217 -0.0300168 -0.92587698 -0.07715375 -0.3698636 0.14966629
0.38098186 0.16523878 -0.038645074 -0.92856991 -0.065766029 -0.36528444 0.13406575
0.46193197 0.16746868 -0.035241414 -0.89499789 -0.44489112 0.032413766 0.0093188304
-0.44491509 0.17879736 -0.030045222 0.55800664 -0.75110024 -0.35281304 0.042675003
-0.40162599 0.17951797 -0.03251835 0.95823431 0.28577617 -0.01091333 0.19941133
-0.38909522 0.17124979 -0.038028911 0.92502636 0.1023718 -0.36585003 0.11284607
-0.24534477 0.17483151 -0.033690423 0.83368921 0.085321985 0.54560286 0.13294259
0.20473756 0.17687738 -0.035441741 -0.90238172 -0.091465071 0.42111927 0.10670686
0.21844639 0.17700303 -0.036120608 -0.89145046 -0.11642646 0.43790504 0.1077881
0.22043768 0.17814715 -0.031399257 -0.87728173 0.0082947565 0.47990417 0.11749925
0.36176789 0.17480451 -0.034540731 -0.87802923 -0.038557746 -0.47705135 0.14248919
0.37933332 0.17323829 -0.034913339 -0.88047493 0.23470055 -0.41192165 0.17363638
0.45816746 0.17695735 -0.03598262 -0.79447591 -0.60702413 0.018159363 0.020208048
-0.43233085 0.18520164 -0.032863058 0.42485043 -0.86238903 -0.27529496 0.037026752
-0.42550427 0.18818033 -0.034886204 0.2708607 -0.94680387 -0.17377238 0.09706869
-0.40288571 0.18349057 -0.035452835 0.92729539 0.37149993 0.045945276 0.25545409
-0.38730651 0.18293658 -0.033854015 0.91929007 -0.038862024 -0.39165747 0.20911737
-0.24507578 0.18462357 -0.034480564 0.90401548 0.051892538 0.42433858 0.19380298
-0.22791831 0.18541141 -0.035841484 0.83249515 -0.45323142 0.31864265 0.17122284
0.15945482 0.18710089 -0.032666378 -0.89037269 0.029099103 0.45430142 0.17771612
0.20431757 0.18801971 -0.036641438 -0.90211385 -0.30091923 0.30925414 0.18771975
0.2175971 0.18343508 -0.038168572 -0.91850936 0.062820956 0.39037675 0.12076174
0.22039589 0.18445338 -0.031529762 -0.83927345 0.08183372 0.53751588 0.1478467
0.36261207 0.18287213 -0.036574177 -0.83599317 -0.10395291 -0.53880346 0.12729466
0.44451922 0.18740651 -0.030395307 -0.40776145 -0.9130851 -0.0024663967 0.024468185
0.45525271 0.18192911 -0.037063845 -0.70371497 -0.70929271 0.041098095 0.024826296
-0.42003047 0.19086918 -0.035735175 0.34053606 -0.93693113 -0.078710362 0.099460371
-0.4136292 0.19505805 -0.030286152 0.2774497 -0.95433956 -0.11071445 0.12911801
-0.40401548 0.19533777 -0.034847934 0.36514291 -0.92570311 0.098713212 0.18275024
-0.3868579 0.19688444 -0.03397423 0.42368022 -0.90579283 -0.005856615 0.19028135
-0.3548851 0.19603266 -0.035022486 -0.048945155 -0.98809427 0.14585637 0.095588483
-0.33936444 0.19105582 -0.037688699 -0.075809985 -0.93396777 0.3492237 0.11511213
-0.32193062 0.19105582 -0.034923691 -0.049611699 -0.94842845 0.3130846 0.16935749
-0.31804264 0.19105582 -0.033245604 0.10962752 -0.93560374 0.33560026 0.18005706
-0.30099106 0.1910558 -0.030496128 0.10979429 -0.85713369 0.50325638 0.18085897
-0.27621761 0.19186783 -0.037295558 0.59032941 0.28898686 -0.75365627 0.16926795
-0.24564916 0.19438393 -0.0339588 0.79057598 0.60946685 0.059495103 0.25822112
-0.22902663 0.19199283 -0.032778803 0.72066796 -0.62910759 0.29130957 0.20075546
-0.13251863 0.19044019 -0.035698809 0.9903661 0.13846767 0.0013330044 0.21295549
0.15604995 0.19474256 -0.038726792 -0.11464182 -0.99334019 -0.011513179 0.074099466
