# .PCD v0.7 - Point Cloud Data file format
VERSION 0.7
FIELDS x y z normal_x normal_y normal_z curvature
SIZE 4 4 4 4 4 4 4
TYPE F F F F F F F
COUNT 1 1 1 1 1 1 1
WIDTH 576
HEIGHT 1
VIEWPOINT 0 0 0 1 0 0 0
POINTS 576
DATA ascii
-0.15571083 -0.42931494 -0.075441822 -0.41817957 0.90035099 0.12039111 0.051565427
-0.14620443 -0.42527631 -0.074027777 -0.69239157 0.71883702 0.062187124 0.056119427
0.14751996 -0.42401657 -0.075309165 0.79680604 0.6015588 0.056807239 0.063198954
0.15331887 -0.4294478 -0.074432321 0.58730543 0.80365652 0.095960848 0.049886957
0.16429894 -0.42933741 -0.075270958 0.13729379 0.98559475 0.098759115 0.026192073
0.17760967 -0.42893815 -0.078303672 0.067387946 0.98716295 -0.14480369 0.21846427
0.18388422 -0.4291234 -0.076896541 -0.92414027 0.24627887 0.29208139 0.21063654
0.19274464 -0.42451692 -0.074924365 -0.94511056 0.29200599 0.14662376 0.14607109
-0.19473097 -0.41470283 -0.073997557 0.97685188 0.19770604 0.081686437 0.067249596
-0.1422057 -0.41304207 -0.077327214 -0.89454389 0.44306931 0.058999132 0.048816971
0.1430915 -0.41149533 -0.077980317 0.93625301 0.34414127 0.070689276 0.03724321
0.19582488 -0.41548115 -0.074516967 -0.98228747 0.13341902 0.1315698 0.055194017
-0.19525625 -0.40463221 -0.074652217 0.9905467 -0.13632143 0.015288702 0.082751781
-0.1416087 -0.40670612 -0.075301282 0.96394265 -0.26459274 -0.028375713 0.02572377
0.14333673 -0.40521058 -0.074941449 -0.99345672 -0.1086047 -0.035338007 0.012922287
0.1969071 -0.40569484 -0.076913998 -0.99253762 -0.10684671 -0.058761202 0.084199019
-0.19329126 -0.39598301 -0.074021749 0.93930638 -0.33033371 -0.092645779 0.076478921
-0.17544864 -0.39005023 -0.0703995 -0.89506805 0.44400939 0.041338794 0.11546747
-0.14343359 -0.39866796 -0.074759036 0.99868518 -0.050365746 -0.0095501151 0.0047759134
0.14526232 -0.39694706 -0.072712764 -0.99996942 0.0055369739 -0.0055289255 0.0045046085
0.19393922 -0.39307418 -0.071379155 -0.92095554 -0.38966337 -0.0018499068 0.076519102
-0.19015466 -0.38564813 -0.079465255 0.94217008 -0.29840675 -0.15254115 0.10065551
-0.18893892 -0.38663822 -0.077805944 0.93586278 -0.31573647 -0.15643324 0.097527966
-0.17659062 -0.38738614 -0.075632922 0.92749321 -0.34689876 -0.13934709 0.12209893
0.17602421 -0.38627252 -0.07511846 0.88649786 0.44943842 0.11012157 0.12060311
0.18374914 -0.38468653 -0.075588688 -0.96946096 -0.24222751 -0.038358755 0.12547804
0.1919865 -0.38901368 -0.073483169 -0.95175201 -0.3057453 -0.026227335 0.099167638
-0.19021392 -0.37057838 -0.070043981 0.99655944 0.067416362 -0.048210632 0.13687265
-0.18591706 -0.37757948 -0.075542733 0.97897738 -0.19464302 -0.060970563 0.13473715
-0.174009 -0.37384257 -0.073677525 0.97666436 -0.20618658 -0.060114898 0.12293802
0.17539029 -0.37819436 -0.076937765 -0.95853394 -0.26415625 -0.10693064 0.11945534
0.18749906 -0.37599453 -0.074533805 -0.99754834 -0.041539337 0.056319203 0.13099402
-0.19077821 -0.3609682 -0.074953787 0.9934662 0.087307177 0.073501304 0.13384254
-0.1886646 -0.36429811 -0.077101059 0.99471343 0.10008317 0.022986947 0.13528839
-0.174009 -0.36517274 -0.076402493 0.99465132 -0.062350493 -0.082348205 0.11183313
0.17539029 -0.36413059 -0.073260903 -0.99868292 0.016069258 -0.048725333 0.1375211
0.18913619 -0.36672863 -0.076745383 -0.98511124 0.14181098 0.097187437 0.12776448
0.19368777 -0.36244452 -0.072779275 -0.97311407 0.20162186 0.11134487 0.138243
-0.19695942 -0.35415852 -0.073796064 0.94256872 0.20239928 0.26570415 0.16065054
-0.17400901 -0.35391095 -0.075399414 0.98796499 -0.094989009 0.12207478 0.15964572
0.17539027 -0.35206994 -0.075815119 -0.98976469 -0.050301939 0.13354985 0.17346661
0.19627468 -0.35455069 -0.074885458 -0.945503 0.2069405 0.25139555 0.16083084
0.20056573 -0.35231814 -0.074035436 -0.96017063 0.18044125 0.21333857 0.1509501
-0.20006366 -0.34829393 -0.071062565 0.97787428 0.019368928 0.20829476 0.14726263
-0.1964234 -0.34335497 -0.074887 0.95904952 -0.15744893 0.23544392 0.14557315
-0.174009 -0.34537053 -0.076577052 0.98821306 0.024232987 0.15115456 0.17646006
0.17539029 -0.34617823 -0.074585713 -0.9912318 -0.047946032 0.12312859 0.17973259
0.19610244 -0.34656644 -0.077755868 -0.96266353 -0.080654874 0.25840601 0.13796875
0.20144498 -0.34810093 -0.072302558 -0.98412925 0.012764976 0.17699383 0.14630574
-0.19218925 -0.33752465 -0.074542135 0.9901166 -0.099926323 0.098406151 0.15193366
-0.18923041 -0.335747 -0.079535536 0.98848945 -0.10559748 0.10834154 0.13413674
-0.17400898 -0.33377358 -0.074308418 0.99808609 -0.059910957 0.015320851 0.13895078
0.17539029 -0.33163032 -0.072732151 -0.99697572 0.061685458 -0.047268309 0.1212545
0.19394499 -0.33548933 -0.073342815 -0.97485548 -0.19604468 0.10594071 0.13373198
-0.18774357 -0.32513532 -0.074855417 0.99615604 -0.076465018 -0.042734209 0.14946188
-0.174009 -0.32207823 -0.07631804 0.96244115 0.23325942 -0.13891388 0.11514365
0.17539027 -0.32357901 -0.077874772 -0.96844363 0.23444389 -0.08457493 0.10620214
0.18820167 -0.32456511 -0.076092146 -0.99324656 -0.088605776 0.074901775 0.14796384
0.1907596 -0.3294532 -0.070952065 -0.97805947 -0.20698512 0.023597512 0.13393019
-0.18793447 -0.31194419 -0.076341249 0.92346418 0.34037146 -0.17709059 0.09326677
-0.17400901 -0.31620863 -0.071582615 0.95699447 0.27705893 -0.086022623 0.1135202
0.17539029 -0.31489655 -0.074999094 -0.90810847 0.40575114 -0.10346507 0.12355735
0.18725054 -0.31631294 -0.074525088 -0.9918744 0.11485972 -0.054702554 0.13051441
-0.19223607 -0.3046892 -0.075983144 0.89043134 0.41995159 -0.1754213 0.063882604
-0.18878409 -0.30888709 -0.079034247 0.9302662 0.32944825 -0.16145812 0.087413512
-0.17508319 -0.30722648 -0.07550782 0.8431567 0.52133673 -0.13150968 0.074847832
-0.14411469 -0.30133533 -0.077063866 0.99998724 0.0042661545 0.002717295 0.004564777
0.1461814 -0.30413109 -0.075607754 -0.99811202 -0.061019983 0.0069999122 0.0038622669
0.17830092 -0.30693409 -0.074347183 -0.86449403 0.49619192 -0.080272451 0.098852657
0.18497851 -0.30752292 -0.075315118 -0.92108023 0.37342685 -0.11028817 0.099988639
0.1920926 -0.30763572 -0.075264603 -0.94266647 0.31637323 -0.10624517 0.099376515
-0.19446853 -0.29562777 -0.075766474 0.95483291 0.25905973 -0.14554065 0.065760486
-0.14233379 -0.293405 -0.077399008 0.98801011 0.15346026 -0.01691016 0.018206682
0.14497195 -0.29840386 -0.072929919 -0.99967307 0.018806271 -0.017324928 0.0052675582
0.19542024 -0.29709452 -0.072422445 -0.95496833 0.28767237 -0.072662771 0.065081045
-0.19626866 -0.2871936 -0.072465077 0.99992067 0.0028072272 0.012274724 0.047170419
-0.14132133 -0.28599444 -0.075915478 0.96710366 0.25393689 -0.015052249 0.025828335
0.14279902 -0.28561527 -0.075206369 -0.93802822 0.33987975 -0.06771072 0.046901215
0.19642714 -0.28342569 -0.076711863 -0.97312438 -0.22304678 0.057263181 0.087170072
-0.1920929 -0.27443451 -0.076346047 -0.71462697 0.68998069 -0.11504295 0.052872736
-0.14505138 -0.27510288 -0.076792441 0.77324545 0.62056643 -0.13034134 0.07997226
0.14640431 -0.27501455 -0.075496189 -0.84859258 0.52421838 -0.071314543 0.072839163
0.19456999 -0.27759549 -0.075785242 -0.8880223 -0.45708618 0.049885966 0.059838519
-0.19053273 -0.2690165 -0.070162445 -0.60444182 0.7817288 -0.15346065 0.14439133
-0.1846835 -0.26696306 -0.072899409 -0.46496043 0.88271099 -0.068066165 0.061374478
-0.17192322 -0.2672765 -0.075280078 -0.02633159 0.99347377 -0.11097995 0.013086577
-0.16549206 -0.26730075 -0.075464532 0.063206643 0.99080986 -0.11958589 0.02526854
-0.15410371 -0.26703972 -0.073481724 0.45695433 0.88653541 -0.072441526 0.063800626
-0.14699399 -0.2689133 -0.073320672 0.63032675 0.7711792 -0.089279525 0.076162167
0.14819197 -0.26961228 -0.074530989 -0.71503866 0.69685614 -0.055779126 0.068899609
0.15715316 -0.26725745 -0.075135797 -0.31882197 0.9459908 -0.058770083 0.045511674
0.16562696 -0.26695651 -0.072849572 -0.10977884 0.99224192 -0.058348343 0.02151883
0.17669782 -0.26710066 -0.07394468 0.19179605 0.97485381 -0.11346494 0.030247599
0.18696858 -0.26713449 -0.074201606 0.20502041 0.95097643 -0.23153906 0.13016045
0.19046827 -0.26758382 -0.077614523 0.48943964 0.84681708 -0.2082058 0.11909819
-0.20353505 -0.23652813 -0.070312679 0.99859893 -0.035815004 0.038954362 0.001839357
0.20400111 -0.23472132 -0.073540308 -0.99742335 0.024100551 0.067571722 9.9131685e-05
-0.20310542 -0.22924611 -0.071762502 0.9988398 -0.041592054 0.024272133 0.00091713556
0.20412886 -0.22398324 -0.075153373 -0.99730343 0.017293578 0.071322605 0.00018534693
-0.20225398 -0.21315195 -0.077588268 0.99876606 -0.049660664 0.00023560517 3.9792456e-05
0.20411631 -0.21487078 -0.077111289 -0.99689859 0.01238067 0.077716753 0.00022623177
-0.20199272 -0.20874217 -0.073977932 0.99880743 -0.045949355 0.016504781 0.00047503604
0.20440653 -0.20614454 -0.074944854 -0.99680465 0.011622618 0.079028405 0.00022566815
-0.20131104 -0.19393981 -0.074926943 0.99887651 -0.047254488 0.0035729052 1.5546733e-05
0.2043684 -0.19450065 -0.076958023 -0.99463379 0.00071231351 0.10345579 0.00045854822
-0.2008823 -0.18478362 -0.077191614 0.99903446 -0.043605022 0.0053574895 3.2511438e-05
0.20460384 -0.1844829 -0.075533263 -0.99399906 0.00092546816 0.10938463 0.00038524877
-0.20034766 -0.17290995 -0.075072125 0.99983734 -0.016541934 0.0071942513 0.00056379958
0.20482245 -0.17482726 -0.074283265 -0.99367476 0.0045895795 0.11220258 0.0003169644
-0.19988562 -0.16285612 -0.07548853 0.99967837 0.025241684 0.0024560927 0.00092559197
-0.20031947 -0.1559397 -0.074480243 0.99889553 0.046660922 0.0055230292 0.00094973075
-0.19992377 -0.15953985 -0.072987124 0.99939227 0.033920363 0.0080316728 0.0010624966
0.20492432 -0.15449952 -0.07382533 -0.99356425 0.011559448 0.11267834 0.00025564525
-0.20171697 -0.14333004 -0.075431645 0.99591112 0.088368349 0.018762531 0.00038319186
0.2048896 -0.14324588 -0.073724523 -0.9932667 0.015075947 0.1148648 7.5971649e-05
-0.20249966 -0.13629617 -0.074803486 0.99491644 0.09846957 0.021096781 0.00016141799
0.20449822 -0.13483977 -0.075491637 -0.99270123 0.011683989 0.12003224 9.5288182e-05
-0.20389983 -0.12293266 -0.078116223 0.99650908 0.059641495 0.058417365 0.00093781104
-0.057691205 -0.1201582 -0.070357345 -0.37030414 0.78783685 0.49212608 0.086122185
0.060388837 -0.12040271 -0.070308611 0.33115375 0.79883802 0.50219035 0.079171903
0.20479541 -0.12665199 -0.07277222 -0.99334651 0.01246705 0.114487 0.00010445882
-0.20472185 -0.11630686 -0.073103003 0.9959867 0.064813361 0.061723817 0.00081302266
-0.10672939 -0.1107856 -0.071378142 0.13710526 0.87759829 0.459373 0.040844556
-0.09627004 -0.11179769 -0.072082184 0.16938101 0.85054457 0.49787945 0.041495964
-0.081629701 -0.11197421 -0.073531464 0.11809147 0.73425436 0.6685245 0.033691745
-0.074574284 -0.1160868 -0.071621314 0.042292859 0.85086817 0.52367425 0.051913481
-0.068617329 -0.11316939 -0.073670775 -0.15505321 0.78070194 0.60536176 0.076891243
-0.055291951 -0.11684287 -0.070869356 -0.53294158 0.6949861 0.48266718 0.085769176
0.054379027 -0.11324079 -0.073596656 0.57967091 0.66299713 0.47372615 0.057450205
0.065100186 -0.11752221 -0.071956478 0.23203063 0.81192183 0.53567219 0.06613896
0.074993797 -0.11470139 -0.073325746 0.032953698 0.80111957 0.59759635 0.053035244
0.085279226 -0.11446344 -0.072203659 -0.19307268 0.87079895 0.45214179 0.037123375
0.092437543 -0.11327143 -0.072495349 -0.16742158 0.85324544 0.49390525 0.038592082
0.10603479 -0.11094473 -0.071156517 -0.20916739 0.85559213 0.47350922 0.093206175
0.2049187 -0.11624882 -0.075598806 -0.99237686 0.017443635 0.12199956 7.9036712e-05
-0.20499304 -0.10459992 -0.076336809 0.98296905 -0.16476721 0.081385732 0.079422466
-0.14978655 -0.10083102 -0.071886122 0.18721582 0.93119204 0.31278029 0.030163534
-0.13173687 -0.10435976 -0.073472731 0.16407497 0.83864999 0.51937038 0.03893185
-0.12664384 -0.10138457 -0.076749265 0.14180101 0.75759828 0.63713211 0.031907994
-0.11921157 -0.10549536 -0.074767321 0.14445533 0.76190221 0.63137752 0.038410123
-0.10263656 -0.1062961 -0.075455077 0.14274004 0.75915682 0.63506395 0.030951047
-0.09829995 -0.1035164 -0.077322967 0.07463561 0.65555966 0.75144601 0.021727392
-0.084421903 -0.10421813 -0.077799931 0.070264526 0.64996552 0.7567085 0.021999147
-0.075025566 -0.10592532 -0.077416711 -0.013820884 0.64151359 0.76698714 0.029397674
-0.06476295 -0.10656071 -0.077702671 -0.25455165 0.62595576 0.73714501 0.057461083
-0.052668054 -0.1053812 -0.075572833 -0.57326072 0.56386435 0.59449899 0.069913939
0.054001171 -0.1063471 -0.073348828 0.61530209 0.56695682 0.54768908 0.06064808
0.074543729 -0.105544 -0.079052664 0.063369215 0.60529357 0.79347593 0.043589666
0.088902935 -0.10613687 -0.078695692 -0.061627366 0.65418094 0.75382304 0.050553206
0.094431341 -0.10776455 -0.077623263 -0.12334965 0.66569871 0.73595524 0.077747852
0.10567941 -0.10608044 -0.07775154 -0.095467582 0.7551384 0.6485768 0.074700974
0.11518522 -0.10613595 -0.075615987 -0.10123423 0.79623759 0.59645396 0.081376687
0.12513636 -0.10497925 -0.074927099 -0.096622169 0.85155737 0.5152806 0.044158634
0.13537297 -0.10321504 -0.074630201 -0.18672889 0.9188078 0.34774208 0.029551124
0.14601891 -0.10116974 -0.074343629 -0.17948623 0.93353713 0.31031123 0.031218987
0.15114744 -0.10050718 -0.070385389 -0.20399162 0.95525521 0.21418428 0.020668672
0.20518382 -0.10381003 -0.07691773 -0.96158487 -0.2697826 0.050714724 0.085860528
-0.20513611 -0.096089065 -0.077963077 0.98514706 -0.17026545 0.022247948 0.10369765
-0.18416247 -0.092261933 -0.078334093 -0.13444857 0.8771885 0.46093813 0.17139111
-0.17308386 -0.095390745 -0.073165655 0.24840127 0.91995203 0.30329034 0.02705951
-0.16113968 -0.097705007 -0.075699002 0.10764949 0.93538475 0.33684844 0.028895533
-0.15203956 -0.096430108 -0.077980086 0.13192971 0.84639174 0.51596081 0.028357103
-0.14599603 -0.096529201 -0.078306139 0.15071867 0.8216933 0.54963982 0.032649342
-0.13600788 -0.095478207 -0.079541251 0.080132619 0.75460404 0.65126908 0.025481302
-0.12490787 -0.099146351 -0.078142047 0.10568929 0.73688865 0.66770118 0.030828416
-0.11499635 -0.09859141 -0.079087995 0.10923231 0.70112175 0.70462519 0.032041293
-0.050374031 -0.098188534 -0.071709648 -0.7455247 0.46017411 0.48211265 0.052499499
0.048662826 -0.091376141 -0.076457314 0.76698011 0.43112633 0.47525963 0.10868346
0.14517269 -0.099592693 -0.077713326 -0.12466696 0.86423874 0.48739049 0.027996395
0.15675566 -0.097263552 -0.076830834 -0.16981059 0.90114981 0.39886516 0.03099807
0.16645189 -0.096576639 -0.074989654 -0.21589385 0.91323924 0.34551984 0.023097374
0.17473285 -0.094453461 -0.075238511 -0.28010443 0.88112086 0.38100851 0.023621885
0.18388534 -0.092255145 -0.077112563 -0.032243166 0.9083271 0.41701588 0.12112565
0.20553581 -0.096187964 -0.075650662 -0.96681851 -0.23731065 -0.094580993 0.15382358
-0.20575012 -0.084587499 -0.075153887 0.99149638 0.067754894 0.11110421 0.12610371
-0.19178958 -0.086377725 -0.07134515 0.45641837 0.83810276 0.29877433 0.20376422
-0.046487387 -0.084399804 -0.072455458 -0.82147163 0.43405539 0.36983815 0.020122636
0.046637829 -0.084403351 -0.07500796 0.79591614 0.44875351 0.40637156 0.093306236
0.067275591 -0.085776024 -0.076956481 0.10419934 0.75303954 0.64967209 0.25726363
0.085383549 -0.083964482 -0.076111823 -0.16262732 0.84513223 -0.50921887 0.26008895
0.10538095 -0.084347501 -0.076214664 0.50961411 0.39896312 0.76231349 0.23834674
0.18820989 -0.089235537 -0.077038422 -0.11526237 0.88655025 0.44804376 0.17520314
0.19332895 -0.08305037 -0.075086102 -0.51354003 0.60728556 0.60620195 0.22201411
0.20553976 -0.085348241 -0.077273101 -0.99148136 -0.053550608 0.11873096 0.15795559
-0.20449066 -0.076009624 -0.073969766 0.97194326 0.094856516 0.21524072 0.099062823
-0.19322309 -0.078875929 -0.07926105 0.61050355 0.56262165 0.55744267 0.20705162
-0.043102056 -0.074893229 -0.072816961 -0.83807737 0.42505139 0.34199068 0.015247425
0.044999041 -0.078360967 -0.076935656 0.80066323 0.48343813 0.35387295 0.093867078
0.19146486 -0.079183906 -0.079646043 -0.66711622 0.51125091 0.54182881 0.23154032
0.20579672 -0.073149048 -0.075119875 -0.92464834 0.21357992 0.31529194 0.10407936
-0.20450956 -0.06432052 -0.071332037 0.97192681 0.099271044 0.21331561 0.055766996
-0.041058823 -0.068143673 -0.076010652 -0.82032347 0.40348452 0.40530184 0.020685568
-0.03763051 -0.06133312 -0.073733933 -0.7855764 0.44736084 0.42747867 0.024527464
0.038621128 -0.063431136 -0.073525429 0.74984813 0.46445134 0.47118229 0.02692844
0.040741336 -0.068317287 -0.073803194 0.77392888 0.48511833 0.40705553 0.048161585
0.2053199 -0.066760883 -0.075203352 -0.93392044 0.092137396 0.34540316 0.083832175
-0.20458429 -0.055946864 -0.074791029 0.95419991 -0.0065812855 0.2990973 0.062685534
-0.035011951 -0.052830908 -0.077559106 -0.71545869 0.44430426 0.53917766 0.023037842
0.029430099 -0.050664932 -0.071362928 0.57686609 0.50587702 0.64133757 0.038181603
0.035517622 -0.054222595 -0.077051699 0.71836221 0.4316251 0.54557806 0.028397396
0.20483819 -0.052317195 -0.07769075 -0.92895502 0.026407288 0.36924958 0.074066922
-0.20483971 -0.04362734 -0.07591904 0.93601608 0.066840649 0.34555209 0.071447216
-0.025710696 -0.043269426 -0.075467333 -0.52161175 0.44980654 0.72497958 0.041442949
-0.016292011 -0.041200362 -0.07400474 -0.40564919 0.41557479 0.81409234 0.040527642
-0.0069802334 -0.042470276 -0.072490044 -0.13298389 0.47350219 0.87069571 0.017802097
0.0054223374 -0.042782713 -0.072234839 0.097840309 0.48204136 0.87066835 0.014644508
0.014717561 -0.041188717 -0.073798269 0.33928397 0.40377364 0.84961945 0.040218879
0.025575705 -0.042572193 -0.076430351 0.57140005 0.44130477 0.69191915 0.037832439
0.20539579 -0.045534566 -0.076672792 -0.94626528 0.044309117 0.32034162 0.065174945
-0.027021183 -0.038473323 -0.079894908 -0.58999795 0.39223677 0.70572847 0.030179605
-0.015059453 -0.036338881 -0.077168673 -0.41682282 0.36530241 0.83235383 0.041582156
-0.0071101487 -0.031698685 -0.078027114 -0.21184459 0.29645878 0.93125397 0.038142037
0.0028190243 -0.0370843 -0.076043226 0.10357931 0.33664241 0.93591833 0.019090846
0.018557584 -0.033252034 -0.079500198 0.41463536 0.35609955 0.83741903 0.045536261
0.023402443 -0.037354149 -0.078970335 0.59787673 0.35210359 0.7201156 0.039397605
0.20578641 -0.036896355 -0.072220214 -0.96473718 0.026226727 0.26190531 0.047524128
-0.20475259 -0.02240066 -0.075122125 0.95132613 -0.047401611 0.30451864 0.062114507
-0.01235402 -0.023014734 -0.07895609 -0.41263053 0.1582347 0.89704949 0.052884039
-0.0050497367 -0.024910325 -0.078350417 -0.25717357 0.042632319 0.96542442 0.073316015
0.0045405137 -0.023661837 -0.078411542 0.14372651 0.089144468 0.98559415 0.064672224
0.01359869 -0.024006091 -0.078850731 0.43017459 0.13832842 0.89208466 0.055227794
0.20542628 -0.023957461 -0.075388968 -0.94903845 -0.036703352 0.31301591 0.058024134
-0.20459425 -0.015206208 -0.07577841 0.95776093 -0.023800641 0.28657916 0.063100107
-0.012811032 -0.013201241 -0.07954625 -0.3415308 -0.052067231 0.93842721 0.10983949
-0.004713268 -0.014898071 -0.078872204 -0.20632917 0.052949954 0.97704881 0.10612171
0.0054411851 -0.013513369 -0.078959778 0.22482003 0.022009945 0.97415167 0.11351423
0.011590557 -0.015444009 -0.079169281 0.28879425 0.012514878 0.95730942 0.094661109
0.20537183 -0.012640719 -0.074774668 -0.97525686 0.0043965285 0.22103117 0.051406816
-0.20491868 -0.0062507722 -0.075774238 0.9441244 -0.059929423 0.32409504 0.060779598
-0.1153551 -0.00094127643 -0.073346615 0.1222575 0.99190456 0.034328688 0.052039437
-0.10496842 -0.0014926547 -0.073572472 0.061144404 0.99742866 0.037382785 0.070640542
-0.098945364 -0.0024521174 -0.071920082 0.048468865 0.99615121 0.073030561 0.0245088
-0.085280724 -0.0021076514 -0.075199664 -0.013804205 0.98884743 0.14829111 0.085559897
-0.074770346 -0.0020338239 -0.076377414 -0.030716386 0.99641776 0.078792006 0.093323924
-0.063490309 -0.0012839834 -0.074500836 -0.13390747 0.98511887 0.10774746 0.083352163
-0.055938724 -0.00063133374 -0.073048204 0.19123329 -0.98151273 -0.0079084886 0.045358073
-0.011129767 -0.0034860934 -0.079939052 -0.16817366 -0.096623771 0.98101044 0.17297038
-0.0036865536 -0.0049530654 -0.079379149 -0.21329932 0.022969991 0.97671688 0.12873507
0.0040440741 -0.0061721578 -0.078463495 0.20567092 -0.1509587 0.96690792 0.14482485
0.058395453 -0.00099665043 -0.072683126 -0.15670791 -0.98375988 -0.087516889 0.045574971
0.063447878 -0.0010823798 -0.073301695 0.11532557 0.9887594 0.095156997 0.043731585
0.072122619 -0.0016033152 -0.073321864 0.077704228 0.99377948 0.079776995 0.036004055
0.086056933 -0.001508695 -0.075950727 0.010877976 0.99764067 0.067785189 0.060420427
0.095013656 -0.0017391185 -0.076828606 0.016663186 0.99832773 0.055353101 0.09761367
0.10410343 -0.0023120202 -0.072778381 -0.039006922 0.99823743 0.04472601 0.06665919
0.1153505 -0.0012597402 -0.071795464 -0.13307305 0.98988944 0.049097594 0.039806485
0.20530948 -0.0043284995 -0.073656879 -0.96401155 0.0019731983 0.26585299 0.050768416
-0.20521119 0.0038943342 -0.07217484 0.95308578 0.0086372541 0.30257699 0.039600298
-0.14694783 0.0074540763 -0.075094588 0.55437416 0.83078742 -0.049615033 0.090784699
-0.13457453 0.0034584512 -0.075396299 0.34199318 0.93451333 0.098617956 0.074143685
-0.12145367 0.0010318744 -0.077812061 0.13719864 0.98690194 0.084858045 0.083875202
-0.11293447 0.00052832242 -0.077854276 0.069494329 0.99351311 0.090013057 0.10852421
-0.045519277 0.0015709035 -0.075384304 0.27404252 -0.96154439 0.018254383 0.10410286
-0.036541332 0.0049268831 -0.076533914 0.32989714 -0.94357681 0.028822867 0.19313955
-0.027194384 0.0085580125 -0.073411778 0.46126896 -0.87201881 0.16375029 0.25641957
-0.0034766425 0.0035871393 -0.07982327 -0.093396433 0.11748857 0.98867255 0.14136834
0.0042705415 0.0038154204 -0.07985425 0.071755588 0.12421895 0.98965687 0.1983172
0.02626195 0.008713996 -0.075531408 -0.41964555 -0.88798946 0.18807502 0.24422324
0.038363565 0.0040873904 -0.071430974 -0.28366396 -0.95238054 0.11183083 0.071134999
0.044682838 0.0026176528 -0.075386018 -0.22964771 -0.97316742 -0.014391098 0.063679047
0.058120869 0.0011143301 -0.078521326 -0.16062081 -0.98029655 -0.11497583 0.11596633
0.060256388 0.00052004587 -0.077227101 0.14770557 0.9805795 0.12902348 0.1232008
0.12584053 0.00045300214 -0.078535967 -0.22750817 0.96959126 0.090182185 0.098185465
0.13516355 0.002800158 -0.074934304 -0.34972289 0.93602526 0.039377708 0.058020197
0.14505288 0.0069877463 -0.07606709 -0.48468378 0.87468886 -0.0010340634 0.11996456
0.20507208 0.0027397899 -0.077528194 -0.96084118 -0.014482388 0.27672091 0.064837538
-0.20483774 0.012971919 -0.074865229 0.94276893 -0.012344883 0.33321816 0.053516418
-0.15473837 0.014756088 -0.078956038 0.86189646 0.49764502 -0.097385459 0.13857837
-0.023668755 0.013916916 -0.075285122 0.96331805 -0.244261 -0.11115241 0.28107277
0.019732673 0.016299738 -0.070530608 -0.90927809 0.036871281 0.41455242 0.26463169
0.023028161 0.011859971 -0.07316035 -0.44381246 -0.86791861 0.22304215 0.24666782
0.15360692 0.015104653 -0.075587109 -0.86875367 0.49524125 -0.0017765483 0.10976771
0.20493361 0.014584487 -0.075773478 -0.95836544 -0.06212908 0.27870369 0.070319965
-0.20515163 0.026645416 -0.074516766 0.96730947 0.030662442 0.2517384 0.057336029
-0.15749116 0.026665255 -0.078035541 0.97170156 0.22652715 -0.066944018 0.11977784
-0.021355953 0.022542644 -0.079308614 0.9291082 -0.2269204 -0.29200187 0.23116395
0.018873673 0.027632331 -0.074921951 -0.98335278 -0.16870956 0.067486085 0.17545445
0.15553075 0.024819681 -0.079676107 -0.98344493 0.17004153 -0.062626265 0.16737662
0.20491123 0.024526337 -0.075261988 -0.95585006 -0.019190926 0.29322761 0.060333986
-0.20475146 0.033318333 -0.076503769 0.94651729 0.026246205 0.32158396 0.06817054
-0.15880334 0.038917027 -0.07720986 0.99409795 0.10841956 -0.003791553 0.083340585
-0.020301469 0.038210243 -0.073548459 0.98734033 -0.030698739 0.1556171 0.13799341
0.017499536 0.038117848 -0.07420978 -0.97801548 -0.20817436 0.012208912 0.15464109
0.15650967 0.035468727 -0.074502625 -0.99575424 0.080878653 -0.043956287 0.06268204
0.20473272 0.032561112 -0.074709341 -0.95229173 0.02863708 0.30384266 0.05526647
-0.20481445 0.042972505 -0.077184305 0.96078867 -0.0147512 0.27688915 0.068943985
-0.16150436 0.049178675 -0.070829503 0.9889093 0.052869909 -0.13879195 0.031008225
-0.15952961 0.043537185 -0.077138305 0.99226606 0.12056392 -0.029536201 0.08825884
-0.020242024 0.043603875 -0.073848732 0.97910243 -0.079715841 0.18709294 0.16636997
0.016516699 0.04590328 -0.075209036 -0.99161369 -0.10000023 0.081867106 0.15357149
0.15654454 0.04415201 -0.073816419 -0.9947772 0.017358402 -0.10058367 0.04515947
0.20475383 0.047461651 -0.076005436 -0.97481042 -0.021867158 0.22196046 0.039832827
-0.20455404 0.053761374 -0.077097021 0.94780195 -0.049051657 0.31506416 0.066402629
-0.16172181 0.053577155 -0.071604922 0.98403281 -0.011135705 -0.17763826 0.038804796
-0.019339355 0.058152664 -0.074969985 0.99811769 -0.024822108 0.056079552 0.17660008
0.014794176 0.052576914 -0.070052907 -0.95333308 -0.013096727 0.30163637 0.12106738
0.15705498 0.053440999 -0.075993277 -0.98938406 0.13026175 -0.064428307 0.094174683
0.20449714 0.055353865 -0.076075785 -0.9393329 -0.084141515 0.33252639 0.059224043
-0.20492138 0.065978445 -0.075402446 0.95298487 -0.021595173 0.30224746 0.059155829
-0.16188739 0.062672757 -0.073136881 0.99050409 -0.016474174 -0.13649251 0.056247927
-0.01905079 0.063762248 -0.076720968 0.99577934 -0.07592795 -0.051560193 0.1734741
0.015056407 0.064945877 -0.074890785 -0.98270851 0.012137523 0.18476118 0.1422359
0.15783618 0.065290153 -0.075885855 -0.99294668 0.018232802 -0.11715208 0.070717774
0.20465219 0.064880267 -0.074866749 -0.96341926 -0.00032664809 0.26799849 0.047619019
-0.20535544 0.074274577 -0.074650787 0.92630255 0.027618404 0.37576699 0.062689707
-0.16173691 0.076211698 -0.075199872 0.99753767 -0.017358117 -0.067950934 0.085084341
-0.018259738 0.076357335 -0.078380421 0.99654847 -0.08010146 0.021790702 0.16895474
0.01479737 0.074552931 -0.074702598 -0.99397326 0.056376491 0.094015427 0.17465955
0.15908577 0.07793764 -0.073113613 -0.99625719 0.027591793 -0.081916332 0.05464473
0.20424516 0.075218864 -0.076047346 -0.96561724 -0.077140614 0.24825932 0.058440696
-0.20558086 0.086412422 -0.073678292 0.96405625 0.0056329202 0.26563838 0.04587353
-0.16095223 0.084915616 -0.072524048 0.99704432 -0.028707832 -0.071263641 0.059791297
-0.01730548 0.084351651 -0.075626299 0.9796387 -0.0023871213 0.20075428 0.19078916
0.01571244 0.084657528 -0.074480057 -0.97323501 0.10727117 0.20324023 0.16749652
0.15931864 0.08333829 -0.0759826 -0.99339074 -0.010143261 -0.11433322 0.076716788
0.20400339 0.087045535 -0.075966284 -0.958336 -0.0063632131 0.28557247 0.060320932
-0.20512564 0.094368331 -0.075729042 0.93841088 -0.014178289 0.34523034 0.057680234
-0.01790913 0.094104975 -0.07362929 0.91877246 0.3033126 0.25270244 0.17242336
0.016109398 0.096764028 -0.073857568 0.85989684 -0.43501982 -0.26708639 0.18470113
0.15885787 0.093934767 -0.07227397 -0.96980631 -0.23968068 -0.045041677 0.075735755
0.20435035 0.094349764 -0.074926779 -0.965877 -0.015710726 0.25852442 0.057241555
-0.20592539 0.10455346 -0.074447416 0.94524622 -0.0030628799 0.3263436 0.055588514
-0.15968436 0.10341713 -0.07479842 0.742926 -0.66639048 -0.063124359 0.12560658
-0.018582195 0.10093281 -0.076384589 -0.834001 -0.52768338 -0.1612224 0.22822283
0.017865743 0.10643816 -0.075075582 0.52004004 -0.84916848 -0.092039265 0.25268248
0.15740418 0.1048732 -0.07760416 -0.88301814 -0.44152987 -0.15915543 0.15724412
0.20420119 0.10610361 -0.075921029 -0.95657998 -0.02953507 0.28996953 0.060170326
-0.20482902 0.11796387 -0.074571989 0.95687485 0.010804981 0.29029945 0.048536211
-0.15282798 0.11162569 -0.077485852 0.54181182 -0.83978385 -0.034684721 0.14372791
-0.14201027 0.11415326 -0.070615686 0.30880895 -0.94005156 0.14470647 0.06279128
-0.13509573 0.11303115 -0.074242301 0.10220084 -0.97912794 0.17567977 0.066505708
-0.12104243 0.11222731 -0.076840252 -0.048003517 -0.97933871 0.19644719 0.092125915
-0.1156376 0.11286422 -0.074781753 0.057622809 -0.97521597 0.21361989 0.079398423
-0.10181159 0.11332285 -0.073299453 -0.003438995 -0.97205925 0.23471028 0.064232983
-0.097790204 0.11263325 -0.075528219 0.030422488 -0.98399019 0.17560713 0.081365384
-0.085568488 0.11361803 -0.072345458 0.031300891 -0.9945125 0.099825718 0.053256214
-0.074938297 0.11195057 -0.07773459 -0.034297269 -0.98471057 0.17078884 0.10493232
-0.063490123 0.11291432 -0.074619778 -0.025435567 -0.9830218 0.18171729 0.076142013
-0.055792965 0.11351646 -0.072673701 -0.0040216688 -0.98064995 0.19572793 0.023691971
-0.043222338 0.11310668 -0.073998034 -0.16279507 -0.98088002 0.10664019 0.091276415
-0.03455954 0.11187348 -0.077983707 -0.12099226 -0.99257982 -0.012088479 0.14571488
-0.026846077 0.11294815 -0.072489515 -0.27277982 -0.95809823 -0.087401047 0.12939714
0.024562715 0.112472 -0.074196152 0.61383164 -0.77576774 -0.14627072 0.1760575
0.03405875 0.11323123 -0.073400922 0.24692734 -0.96897471 0.010720966 0.10605852
0.044722259 0.11292789 -0.074576013 0.082564019 -0.99228942 0.092438594 0.07599327
0.056636378 0.11300737 -0.074319109 -0.048563574 -0.97968352 0.19458124 0.080022939
0.065395616 0.11234183 -0.076470092 -0.025783123 -0.97253692 0.23131588 0.075416364
0.075355701 0.11222517 -0.076847143 0.0075046998 -0.96909392 0.24657775 0.083773635
0.084733978 0.11257096 -0.075729519 0.031232281 -0.96894026 0.24531484 0.083200254
0.09255404 0.11258562 -0.075682148 0.021928847 -0.9778145 0.20832178 0.070802175
0.1070588 0.113224 -0.073618941 -0.0081859082 -0.97259182 0.23237513 0.027846478
0.11556892 0.11286966 -0.074764132 -0.0251812 -0.97403187 0.22500624 0.068711042
0.12689877 0.11253437 -0.075847752 0.017330259 -0.97468078 0.22292826 0.058310736
0.13859612 0.11208473 -0.077300921 -0.22569706 -0.95990396 0.16626893 0.10207287
0.14436112 0.11315573 -0.073839553 -0.31474966 -0.94093364 0.12480639 0.093562268
0.15330996 0.11110689 -0.073759958 -0.61623162 -0.78657633 -0.039451458 0.12918039
0.20410694 0.11458227 -0.07515882 -0.96178007 -0.012407328 0.27354184 0.046647809
-0.20379943 0.12467683 -0.074538514 0.96027178 0.034685645 0.27690256 0.052588917
0.20369068 0.12447796 -0.076547652 -0.96937722 0.070297651 0.23529971 0.044575062
-0.20337053 0.13251074 -0.075847 0.97317523 0.047788773 0.22504714 0.034428105
0.2033224 0.13604428 -0.077317782 -0.97934538 0.04174884 0.19783756 0.025366265
-0.20349915 0.14068313 -0.074242927 0.98548442 0.037076209 0.16566773 0.021407407
0.20356612 0.14236209 -0.074369431 -0.98628062 0.039052639 0.1603916 0.016747436
-0.20343091 0.15629835 -0.074721426 0.93540245 -0.33612248 0.1097451 0.037270498
0.20345667 0.15904605 -0.075519338 -0.93223852 -0.34580505 0.1065374 0.045180447
-0.20296979 0.16172504 -0.078487687 0.90688336 -0.38576704 0.16954799 0.055568852
0.20359331 0.16322792 -0.073759705 -0.9025026 -0.40430763 0.14840622 0.070802175
-0.19039509 0.17513177 -0.070655517 0.31219736 -0.94473475 -0.10004531 0.25284159
-0.18405265 0.17371193 -0.075120062 -0.04739539 -0.98086649 -0.18882431 0.18169835
-0.1773874 0.17395824 -0.076990969 -0.28921047 -0.95125091 -0.10714013 0.08454024
-0.16611969 0.17359462 -0.074229158 0.096580237 -0.99276477 -0.071346804 0.016466167
-0.15784663 0.1735568 -0.073941901 0.31733808 -0.94789714 -0.028065227 0.038395289
-0.14653318 0.17709203 -0.076073237 0.73246789 -0.68079036 0.0039065257 0.072598085
0.14812784 0.17628475 -0.074733607 -0.70558673 -0.70613009 -0.059394032 0.064473614
0.15560985 0.17376868 -0.0755511 -0.36291826 -0.92865187 -0.076785177 0.042508032
0.16473001 0.17413758 -0.078353219 -0.15348577 -0.97726083 -0.14629892 0.023806671
0.17643143 0.17380279 -0.075810321 0.11387241 -0.97976184 -0.16462009 0.047055926
0.18658897 0.17385828 -0.076231822 -0.38534254 -0.8870365 -0.25431752 0.24288772
0.19210558 0.1765468 -0.074015148 -0.92504197 -0.24951714 -0.28642389 0.26264474
-0.19395094 0.18605122 -0.073895052 0.9636727 0.2145627 0.15905266 0.11496653
-0.14409678 0.18427484 -0.076022059 0.87257838 -0.48483807 -0.059490204 0.076025069
0.14540055 0.18461083 -0.076846182 -0.88732952 -0.45370293 -0.082462028 0.055542789
0.19598266 0.18817487 -0.075437136 -0.9920429 0.11094324 -0.05951798 0.089199282
-0.19556189 0.1972715 -0.07611534 0.9982692 -0.05378142 0.023795076 0.060434483
-0.14182216 0.19730446 -0.0752462 0.97990602 -0.19828664 -0.021599423 0.029034017
0.14301658 0.19609737 -0.072370321 -0.96961749 -0.2408642 -0.04273719 0.018900862
0.19667599 0.1982227 -0.074336901 -0.9874444 -0.15332736 0.038003683 0.063591324
-0.19370668 0.20563833 -0.077046029 0.95359784 -0.30053267 0.018199459 0.059154794
-0.14324923 0.20384914 -0.076788574 0.99960226 -0.027624728 -0.0056617968 0.0058839722
0.14499016 0.20506856 -0.07389614 -0.99847722 -0.054722443 -0.006980781 0.0055947788
0.19506986 0.20559612 -0.076130316 -0.95616585 -0.28715354 -0.057355974 0.06742537
-0.19210123 0.21248817 -0.074885905 0.93570155 -0.34916547 -0.050458092 0.079578608
-0.18468367 0.21529669 -0.074609436 0.89547974 -0.43492535 -0.094635904 0.091449566
-0.174009 0.21810567 -0.072533198 0.67896444 -0.71076208 -0.18391438 0.2227542
-0.14497921 0.21128812 -0.074899331 0.85713714 0.48631093 0.16975753 0.099545181
0.14627022 0.21067229 -0.07325393 -0.99994087 0.0070902882 0.0082463874 0.0035186158
0.17636752 0.21519229 -0.077415228 -0.86668003 -0.48202255 -0.12853007 0.094674572
0.18689993 0.21576184 -0.074325338 -0.94466233 -0.32328171 -0.055696528 0.092691109
0.19274527 0.21394914 -0.07829763 -0.93513906 -0.33998534 -0.09962412 0.085203543
-0.18603885 0.22563033 -0.075245954 0.98906201 -0.1194596 0.086520053 0.1468765
-0.17400898 0.22782014 -0.072828531 0.98589957 -0.16700901 0.010494624 0.12851126
0.18718342 0.22283119 -0.073454089 -0.98397112 -0.17234041 -0.045822658 0.13397898
-0.19279994 0.23635563 -0.070505649 0.96474105 0.26319829 -0.0011641508 0.1266602
-0.174009 0.23666824 -0.076596186 0.99944168 0.0026784043 0.0333042 0.13649657
0.17539029 0.2321521 -0.07396023 -0.98946816 -0.12773368 -0.068094239 0.13110557
0.18797827 0.23164451 -0.077776477 -0.99890071 0.04681823 0.0023162593 0.1425422
0.19136216 0.23568532 -0.072422087 -0.98141629 0.1844673 0.052856591 0.13422212
-0.20006368 0.24950771 -0.070281766 0.96917123 0.15863626 0.18852514 0.14056225
-0.19372055 0.2444547 -0.074088007 0.96761531 0.23739637 0.085811697 0.16129239
-0.174009 0.24548355 -0.074315339 0.97067988 0.10235555 0.21749447 0.16467775
0.17539029 0.24328178 -0.075618446 -0.99815971 -0.011530378 0.0595342 0.1396134
0.1961257 0.24289432 -0.072001673 -0.97176456 0.21565101 0.095751338 0.1518598
0.20109108 0.24604407 -0.071122408 -0.94924581 0.25608757 0.18262389 0.14219132
-0.20006366 0.25480464 -0.072519146 0.98567009 -0.052175362 0.16041233 0.14123426
-0.19807753 0.2561866 -0.07530205 0.95588636 -0.044166982 0.2903972 0.14960116
0.17539029 0.25294244 -0.071572438 -0.98409826 -0.060776126 0.16690338 0.18124135
0.19640055 0.25519812 -0.076884307 -0.93459201 -0.013777019 0.35545462 0.14951414
0.20144498 0.25393558 -0.074024618 -0.95679688 -0.0020275924 0.29075021 0.15207146
-0.19355164 0.26467919 -0.073042221 0.97173482 -0.23110986 0.048163071 0.15611039
-0.18923561 0.26666084 -0.079342514 0.95761544 -0.11123461 0.26570556 0.13143729
-0.174009 0.26517111 -0.076806769 0.99097091 -0.062800996 0.11845957 0.14097516
0.17539029 0.26826593 -0.077887371 -0.99896085 0.0067313034 0.045077663 0.13274089
0.19517402 0.26667204 -0.071385339 -0.96341723 -0.25565097 0.080435127 0.14822651
-0.18726513 0.2752538 -0.074755646 0.98783106 -0.15066212 0.038610443 0.15541977
-0.174009 0.2745108 -0.073199511 0.9990958 0.017641924 0.038682394 0.13959937
0.17539027 0.27959311 -0.073654592 -0.99406123 0.10823252 0.011314034 0.13512722
0.18819731 0.27673966 -0.074609727 -0.99973291 -0.010498905 0.020584468 0.15231597
0.19536448 0.27122629 -0.070317321 -0.97117949 -0.23695368 0.025754681 0.14605001
-0.18690614 0.28622973 -0.075812973 0.98834139 0.12486719 -0.087118499 0.14362577
-0.174009 0.28513736 -0.078970969 0.96395296 0.25477597 -0.076706931 0.12747137
0.17539029 0.28586125 -0.075132184 -0.95952308 0.27386555 -0.065674894 0.12063932
0.18723284 0.28491843 -0.077819355 -0.9726088 0.22390419 -0.0624418 0.11930928
-0.19244671 0.29785466 -0.078691155 0.93660057 0.33380547 -0.10655224 0.067007966
-0.18489552 0.29281983 -0.074356861 0.94748515 0.31633571 -0.046942137 0.1054551
-0.17577116 0.29356864 -0.074007846 0.89911306 0.43599689 -0.038761619 0.11454959
-0.14517507 0.29744548 -0.074304506 0.99874234 -0.046990022 0.01748291 0.0034746267
0.17539027 0.29077089 -0.077889264 -0.87128055 0.46261057 -0.16389532 0.10938771
0.18329512 0.29438338 -0.077417694 -0.8989861 0.42060813 -0.1221183 0.095858052
0.19194597 0.29467535 -0.072331406 -0.95005894 0.31066206 -0.029615792 0.11074575
-0.19380379 0.3041546 -0.07829468 0.96882206 0.23816472 -0.068274103 0.055454656
-0.14408875 0.30214629 -0.075266369 0.99873668 -0.047072463 0.017582312 0.004156678
0.1438238 0.30936328 -0.076000147 -0.98885602 0.14662129 -0.025807839 0.018341856
0.19486669 0.30323076 -0.074580058 -0.9509747 0.30926216 0.0020203323 0.069642916
-0.19582349 0.31719357 -0.076404259 0.98668009 -0.15999237 0.029408611 0.062733963
-0.14160989 0.31459674 -0.074724413 0.97983128 0.19828272 -0.024792694 0.023416968
0.14300998 0.31572795 -0.075673454 -0.95014268 0.30826461 -0.046923533 0.034260269
0.19689849 0.312334 -0.074016131 -0.9968493 0.077580966 0.016514286 0.047920689
-0.19405372 0.32322517 -0.073485516 0.92872834 -0.36644617 0.056397948 0.07975816
-0.14425267 0.325546 -0.077274896 -0.88982511 -0.45062238 0.071768723 0.063812271
0.14500627 0.32439432 -0.071963295 0.85459411 -0.5157333 0.060730346 0.043114565
0.194462 0.3259626 -0.074492142 -0.93581223 -0.32565302 0.1349283 0.14424469
-0.19113669 0.33211768 -0.071322434 0.98387253 -0.11646902 0.13575681 0.17539176
-0.18337187 0.33609974 -0.072948039 0.031223338 -0.99321496 0.11202233 0.17682941
-0.17434366 0.33564854 -0.076375499 0.11407406 -0.98294961 0.14421193 0.049814787
-0.16644955 0.33613694 -0.072665542 -0.045440909 -0.99623531 0.073826231 0.01969542
-0.15482359 0.33597657 -0.073884018 -0.34886631 -0.93509966 0.062297758 0.042008776
-0.14750297 0.33397675 -0.073696673 -0.55095899 -0.83371496 0.036926921 0.06195157
0.14792758 0.33305547 -0.071654238 0.65154117 -0.75440913 0.079755619 0.056581445
0.15789461 0.33525661 -0.079352371 0.40264586 -0.90335882 0.14771311 0.055881452
0.16533399 0.33556229 -0.077030547 0.18008308 -0.97632682 0.11981656 0.029559175
0.17331362 0.33621228 -0.072093502 -0.068004273 -0.99667937 0.044783786 0.037367944
0.18430305 0.33562103 -0.076584034 -0.23702946 -0.94840682 0.21057452 0.22020131
0.19195437 0.33324346 -0.075394787 -0.40875715 -0.84364563 0.34810865 0.24323562
0.19968684 0.3481763 -0.074621953 -0.95203739 0.25887898 0.1631148 0.066631705
-0.19948208 0.35559353 -0.072929129 0.96631932 0.20352763 0.15749085 0.023514073
0.19898546 0.35483277 -0.076897494 -0.95714855 0.20814341 0.20135321 0.038762417
-0.19854991 0.36508819 -0.075910479 0.99375194 -0.050776172 0.099392787 0.00050415873
0.19856364 0.36496508 -0.076349653 -0.99352479 -0.051407881 0.10131956 0.00058839848
-0.19809893 0.37816247 -0.073667213 0.99311215 -0.052704163 0.10464547 0.00038829286
0.19791067 0.37665021 -0.076299883 -0.99282908 -0.050766785 0.10822741 0.00028524516
-0.197684 0.38484687 -0.073869348 0.99323183 -0.050970316 0.10436766 0.00036136204
0.19806534 0.38188398 -0.072948635 -0.9938888 -0.048125017 0.099342763 0.00039402972
-0.19645971 0.39265031 -0.079520822 0.99057847 -0.056559052 0.12472099 0.00012455058
0.1974328 0.39498934 -0.072020747 -0.99142087 -0.051249426 0.12024193 0.0022263161
-0.19636118 0.40589452 -0.074625753 0.99155414 -0.05816751 0.11591764 0.00022691079
0.19633627 0.40536085 -0.07564795 -0.99154466 -0.055524979 0.11728685 0.00027390692
-0.19547033 0.41615719 -0.07671608 0.98694819 -0.077767529 0.14101614 0.00043245062
0.19595739 0.41173521 -0.075717948 -0.98873347 -0.067840815 0.13343102 0.0002069731
-0.19495691 0.42167535 -0.07782992 0.9823553 -0.09482678 0.16120178 0.00054214417
0.19529858 0.42522568 -0.074075446 -0.98516911 -0.096161075 0.14210878 0.0006669272
0.19395496 0.43640387 -0.074123345 -0.95407116 -0.19732687 0.22541131 0.0092409607
-0.19182427 0.44945198 -0.073693208 0.8697539 -0.37146896 0.32486776 0.022227079
-0.14139846 0.448805 -0.077584833 -0.14367658 -0.96767348 0.20728052 0.091424756
-0.13767333 0.44889399 -0.075727351 -0.073776312 -0.96271962 0.26024616 0.10433121
-0.125092 0.44789386 -0.074646093 0.064292371 -0.98735732 0.14488663 0.088134043
-0.11312947 0.44919503 -0.076356471 0.085940957 -0.99035466 0.10868184 0.080633953
0.11344618 0.44959506 -0.074730098 -0.10251418 -0.98966259 0.10029367 0.058695156
0.12528196 0.44632989 -0.079543017 -0.056114234 -0.99450147 0.088420257 0.076262251
0.132284 0.44615376 -0.078660816 0.0057851677 -0.9951129 0.098574042 0.088790447
0.19221714 0.44533575 -0.075499564 -0.87581366 -0.33980963 0.34275317 0.019460667
-0.19047396 0.45300555 -0.074774154 0.79422951 -0.44395366 0.41485506 0.042453866
-0.18797602 0.45644784 -0.076967977 0.72500432 -0.51365542 0.45883211 0.047707532
-0.15372504 0.45829022 -0.076486833 -0.30387473 -0.86444724 0.4004885 0.064760506
-0.14544646 0.45431581 -0.071639381 -0.2833657 -0.94305271 0.17422824 0.076022223
-0.1311079 0.45868859 -0.076650098 -0.088545687 -0.97063082 0.22368626 0.092387773
-0.12585281 0.45774755 -0.076526508 0.01278142 -0.98477226 0.17337868 0.080923051
-0.11409727 0.45400739 -0.07409808 0.095360108 -0.98906189 0.11253064 0.063040301
-0.10432689 0.45220083 -0.077681497 0.04082695 -0.98702371 0.15529777 0.072030723
-0.093611933 0.45737267 -0.073384471 0.15334615 -0.96858138 0.19579355 0.02394611
-0.086720139 0.45835245 -0.075106516 0.17830354 -0.94138855 0.28634837 0.011420493
-0.076952703 0.45961425 -0.07715667 0.19620037 -0.93238926 0.30357146 0.0014334809
0.087503076 0.45791984 -0.075754553 -0.15871105 -0.95436811 0.25296709 0.021344036
0.09449406 0.45649472 -0.074917048 -0.17461775 -0.95376843 0.24461083 0.029544283
0.10147192 0.45476502 -0.073811837 -0.14125812 -0.98354852 0.112599 0.050031424
0.11410856 0.45298538 -0.072534554 -0.11387307 -0.98552936 0.12555753 0.047394685
0.12653956 0.45774758 -0.074185677 0.011929677 -0.9887377 0.14918289 0.055818193
0.13131818 0.45774752 -0.077999875 0.062437057 -0.97864896 0.19582616 0.085951611
0.14511415 0.45271406 -0.074414209 0.21247527 -0.93306124 0.2902602 0.082359701
0.15254991 0.45706284 -0.076121628 0.32633543 -0.83838582 0.43659401 0.056281131
0.18888113 0.45440897 -0.077271447 -0.73876661 -0.46826181 0.48472145 0.038276598
0.19198315 0.45271277 -0.070119359 -0.84184366 -0.3771556 0.38607377 0.024669887
-0.18356523 0.46389475 -0.074801333 0.65252209 -0.55364841 0.51738602 0.0531873
-0.17605257 0.46735615 -0.076346651 0.29917887 -0.70549917 0.64246625 0.07621403
-0.16439076 0.46745658 -0.075099058 -0.25392467 -0.73349404 0.63048285 0.061692711
-0.15759908 0.46296301 -0.076034322 -0.34521097 -0.75140381 0.56233603 0.04103357
-0.1271646 0.46253324 -0.076211952 0.012828621 -0.98476154 0.17343663 0.080918498
-0.11521614 0.46086335 -0.076357566 0.095894814 -0.98632455 0.13404538 0.071012013
-0.07501559 0.46101856 -0.074645892 0.1794064 -0.94326329 0.27940607 0.0020920443
-0.06693849 0.46213138 -0.075309776 0.15362109 -0.94695699 0.28226405 0.00098401599
-0.055139542 0.46349564 -0.076492466 0.14308327 -0.95163953 0.27186266 0.00092662784
-0.040196337 0.4644995 -0.079671867 0.12339435 -0.94402277 0.3059327 0.0011653828
-0.033343721 0.4674972 -0.073642023 0.13545676 -0.97096825 0.19716029 0.003630141
-0.023384396 0.46889454 -0.0732233 0.10851546 -0.96719682 0.22968373 0.0043507335
-0.014738028 0.46803507 -0.07723929 0.077875458 -0.95174938 0.29683086 0.0024032139
-0.0029785882 0.46806079 -0.07802733 0.023933576 -0.94821966 0.31671223 0.0036321047
0.016019795 0.46732035 -0.078567497 -0.074762404 -0.94827449 0.30852208 0.0023405354
0.025348686 0.46804005 -0.074866772 -0.098146632 -0.96241915 0.2532126 0.0042262385
0.037105158 0.46756732 -0.071925044 -0.13534711 -0.9661178 0.21976729 0.0036552229
0.044068936 0.46559826 -0.074874595 -0.13238178 -0.96918696 0.20772979 0.0033334272
0.056841206 0.46416268 -0.073865362 -0.13886525 -0.95821834 0.25006801 0.0033896442
0.063459396 0.46124482 -0.07913404 -0.14977293 -0.94227725 0.29946887 0.0011727861
0.073681884 0.46029803 -0.077110216 -0.17421415 -0.94145751 0.2886298 0.0018930925
0.087699145 0.46000749 -0.070857406 -0.18688439 -0.95254189 0.24028777 0.014190739
0.11670786 0.46243548 -0.077421449 -0.093750782 -0.99116439 0.093829326 0.057722889
0.1241475 0.46253324 -0.074814081 -0.040923521 -0.98498374 0.16772652 0.058414005
0.1556294 0.46108007 -0.074930727 0.34736589 -0.77853423 0.52270579 0.038843729
0.16455375 0.46701771 -0.075709112 0.29053846 -0.72813433 0.62081218 0.049909297
0.17481418 0.46698368 -0.076466046 -0.13080163 -0.6627298 0.73734671 0.082859606
0.18381123 0.4636499 -0.075935446 -0.58781528 -0.58561063 0.55815172 0.065169469
-0.18031785 0.47208387 -0.072738014 0.37062633 -0.75189072 0.54524899 0.073945567
-0.17697573 0.47401688 -0.075408041 0.27884543 -0.72973466 0.6242857 0.089184292
-0.16800338 0.47241348 -0.07257551 -0.2054334 -0.76801008 0.60659516 0.067205735
-0.0099747907 0.47128534 -0.071139336 0.065942161 -0.96759862 0.24373069 0.004046706
0.0083941165 0.47180521 -0.07030534 -0.033078115 -0.96555853 0.25807434 0.007060111
0.012110787 0.47138429 -0.070517398 -0.058057826 -0.96010369 0.27355108 0.0067392844
0.022677865 0.47015801 -0.070206255 -0.10294119 -0.96652168 0.23502965 0.0049789483
0.16930673 0.47338694 -0.070914298 0.1632513 -0.80175275 0.57492751 0.076600611
0.17669737 0.47394404 -0.071918942 -0.16501212 -0.7665652 0.62060356 0.087452561
0.18027002 0.47128764 -0.071140684 -0.41597801 -0.70765877 0.57112283 0.092649572
-0.17454617 0.48013771 -0.072300568 0.16263285 -0.85213655 0.49740696 0.072792269
0.17108911 0.4800339 -0.070935532 0.16307965 -0.81674707 0.55347025 0.071435429
-0.055432376 -0.49600181 -0.066331759 0.32861272 0.92733598 -0.1790581 0.10562576
-0.043220282 -0.49388322 -0.063341156 0.019154983 0.99035364 -0.13723236 0.10300756
-0.036096368 -0.49108592 -0.066114314 -0.043079112 0.99846375 -0.034847096 0.10918929
-0.016154127 -0.49149951 -0.067259252 -0.045008771 0.9989779 -0.0041551958 0.08058545
-0.006149332 -0.49119762 -0.065482907 -0.036063202 0.9982183 -0.0475353 0.093863569
0.0039284835 -0.49146971 -0.065132134 0.0047790464 0.99788153 -0.0648809 0.080144368
0.017107975 -0.49180272 -0.068546884 0.030654155 0.99827248 0.050122973 0.089999378
0.027047615 -0.49124312 -0.066542402 0.065174662 0.9959271 0.062302012 0.1013258
0.034326483 -0.49145257 -0.06786032 0.074634358 0.99717134 0.008885975 0.12736107
0.04298649 -0.49350381 -0.067552909 -0.084091879 0.99508858 -0.052223414 0.12704723
0.056784272 -0.49438134 -0.066405989 -0.3742024 0.92345226 -0.084902555 0.090489
-0.16069441 -0.48420149 -0.061605707 0.09711723 0.9529388 0.28718626 0.077512212
-0.15638807 -0.48544654 -0.063590489 -0.0012675829 0.95132953 0.30817297 0.083710417
-0.14996463 -0.4825393 -0.063702166 -0.13529803 0.92671341 0.35056636 0.056834545
-0.058640342 -0.48538658 -0.068516076 0.60764962 0.7933951 0.035862293 0.1721258
-0.044837397 -0.48436746 -0.064977378 0.1436549 0.98504031 -0.095179021 0.2812866
-0.035987999 -0.48516628 -0.066610821 -0.12342297 0.99116039 0.048660908 0.22879905
-0.024331303 -0.48807818 -0.06532371 -0.019442296 0.99094218 0.13287421 0.14130327
-0.014635357 -0.48608398 -0.06503883 -0.086158127 0.98200691 0.1680453 0.19200461
-0.0041920515 -0.48490089 -0.065356754 0.056742005 0.97413361 0.21873268 0.23413482
0.0028960418 -0.48791933 -0.064682685 0.02039637 0.99971592 0.012334693 0.15290907
0.015863197 -0.48356465 -0.067036442 0.12893711 0.94596267 0.29753944 0.20168886
0.026192237 -0.48936087 -0.06487941 0.054115344 0.99706107 0.054228913 0.1107014
0.03894059 -0.4866038 -0.065454341 0.018586388 0.99982721 0.00034578916 0.20997135
0.044972461 -0.48596311 -0.066710964 -0.14754543 0.98166811 0.12065675 0.20950137
