# .PCD v0.7 - Point Cloud Data file format
VERSION 0.7
FIELDS x y z normal_x normal_y normal_z curvature
SIZE 4 4 4 4 4 4 4
TYPE F F F F F F F
COUNT 1 1 1 1 1 1 1
WIDTH 568
HEIGHT 1
VIEWPOINT 0 0 0 1 0 0 0
POINTS 568
DATA ascii
-0.030524766 -0.1415439 0.16759075 -0.0033773873 0.5749808 -0.81815988 0.023440221
-0.026968716 -0.14417039 0.16444597 -0.01826732 0.68187594 -0.73123968 0.015896959
-0.015641745 -0.14570457 0.16229273 -0.054122332 0.6882354 -0.72346586 0.018602557
-0.00471415 -0.14290686 0.16528854 -0.060767021 0.57273036 -0.81748849 0.026064212
0.004632866 -0.14365092 0.16420713 -0.063347407 0.57733381 -0.81404722 0.023552736
0.016131077 -0.14314103 0.16392137 -0.012465386 0.5889594 -0.80806643 0.023519188
0.025504893 -0.14320728 0.1638255 -0.017568668 0.48873922 -0.872253 0.025558596
0.037034146 -0.14364448 0.16268913 -0.049942598 0.58270037 -0.81115109 0.031326365
0.04492734 -0.14135858 0.16301338 -0.091753311 0.48374557 -0.87038577 0.028036371
0.051679369 -0.14233071 0.16167903 -0.082326442 0.47519812 -0.87601888 0.032876328
0.067827627 -0.14066635 0.16025215 -0.16070618 0.33467415 -0.92852932 0.021683341
-0.35290408 -0.13538729 0.16386184 0.27094907 0.39036617 -0.87988681 0.022814043
-0.34327722 -0.13517015 0.16591443 0.18299937 0.31228802 -0.93219495 0.013134462
-0.33557197 -0.13490002 0.16749561 0.14103085 0.30960026 -0.94034994 0.014021409
-0.32487062 -0.13503277 0.16905434 0.099973403 0.33147177 -0.93815339 0.016221374
-0.31375989 -0.13752975 0.1688021 0.05818601 0.4029969 -0.91334975 0.021963974
-0.30270648 -0.13725325 0.16943055 0.061654773 0.48519239 -0.87223107 0.02424057
-0.28234518 -0.13857304 0.16927643 0.019170165 0.50358033 -0.86373568 0.024204133
-0.10049597 -0.13991855 0.16993159 0.030045707 0.62299854 -0.78164577 0.026467364
-0.091099977 -0.13965896 0.16996212 0.034165192 0.59690309 -0.80158561 0.028507769
-0.08297912 -0.13981342 0.16982511 -0.0018804946 0.60769558 -0.79416788 0.030362466
-0.021381706 -0.13997039 0.16828105 -0.061685946 0.54902273 -0.83352804 0.028382007
-0.0039013664 -0.13599905 0.16881953 -0.073676236 0.473883 -0.87750024 0.023982003
0.0049169697 -0.13517626 0.16849704 -0.077319279 0.35610786 -0.93124056 0.019529412
0.01588393 -0.13604544 0.16734992 -0.07447084 0.36052388 -0.92977238 0.020280354
0.024674594 -0.13381231 0.16698897 -0.069146283 0.31500641 -0.9465673 0.018724477
0.035286512 -0.134749 0.1658639 -0.054949295 0.32605222 -0.94375342 0.018767113
0.047019597 -0.13742436 0.16399354 -0.078585446 0.42172697 -0.90331095 0.025527036
0.054088555 -0.13562448 0.16306409 -0.13861306 0.37359607 -0.91717631 0.024591701
0.06453146 -0.13454226 0.16139674 -0.18541203 0.30517825 -0.93407094 0.020328555
0.070954807 -0.13140945 0.16059159 -0.18957277 0.23661503 -0.95292997 0.012786266
-0.36170968 -0.12514275 0.16135994 0.39932775 0.14597879 -0.90511191 0.0078905039
-0.35042855 -0.12741418 0.16500634 0.29865029 0.15446535 -0.94177949 0.0065005478
-0.34561455 -0.12423279 0.16623661 0.25533029 0.15653893 -0.95409751 0.0071150828
-0.33396384 -0.1250826 0.16864713 0.14806101 0.2007708 -0.96838474 0.0099894358
-0.32657367 -0.12548056 0.16955431 0.12399014 0.23511826 -0.96402586 0.01205898
-0.31816539 -0.12781808 0.16997391 0.094284169 0.27677917 -0.95629692 0.015793392
-0.0019657221 -0.12964149 0.1697835 -0.062532313 0.30235779 -0.95114112 0.019914478
0.0036853801 -0.12680347 0.16948275 -0.081141122 0.25414357 -0.9637568 0.014387134
0.016249282 -0.12556507 0.16841604 -0.10066864 0.16814241 -0.98060894 0.0063855969
0.025046358 -0.12478549 0.16766235 -0.095714346 0.14590241 -0.98465794 0.0052445354
0.031947568 -0.12552968 0.16696486 -0.09531825 0.19929495 -0.97529274 0.011723152
0.046649009 -0.12686862 0.1650847 -0.11861847 0.17953292 -0.97657442 0.008014976
0.056522965 -0.1243678 0.16369058 -0.16211876 0.15233724 -0.97494149 0.0050295386
0.067308679 -0.12508881 0.16181479 -0.19073482 0.15365329 -0.96954155 0.0044729151
0.070375055 -0.12243322 0.16154018 -0.19766936 0.11751268 -0.97319973 0.001359427
-0.35623956 -0.11633748 0.16438691 0.33159354 0.076084986 -0.94034928 0.0036031541
-0.34507573 -0.11365405 0.16709571 0.22535717 0.061193816 -0.97235256 0.0019267505
-0.33540967 -0.11389636 0.1691072 0.16990645 0.064081758 -0.98337448 0.00064305059
-0.32809168 -0.11730915 0.16995126 0.13279684 0.082212053 -0.98772782 0.0014876956
0.012006219 -0.1177999 0.16941887 -0.093163565 0.10859698 -0.98971069 0.0015286182
0.02246777 -0.11210313 0.16886608 -0.095880523 0.06807296 -0.99306244 6.2856758e-05
0.036968332 -0.11637404 0.16721714 -0.11680937 0.090425313 -0.98902923 0.00062643661
0.044551104 -0.11375038 0.16645125 -0.13607354 0.079056896 -0.98753941 0.00023389746
0.053099375 -0.11618091 0.16488194 -0.15398182 0.087197408 -0.9842186 0.00038747265
0.074470818 -0.11409563 0.16137135 -0.20109181 0.074779049 -0.97671396 0.00015189007
0.080916196 -0.11067924 0.16008678 -0.21517985 0.07487452 -0.97369993 0.00017303645
-0.35228997 -0.10365127 0.16607812 0.29597679 0.061927222 -0.95318562 0.003258195
-0.34874088 -0.10552035 0.16670628 0.2638514 0.067982376 -0.96216464 0.0028854155
-0.33644354 -0.10741034 0.16920607 0.15829156 0.058993265 -0.98562855 0.00040878938
0.01443932 -0.10797243 0.16985175 -0.091262534 0.06662482 -0.99359566 3.5457975e-05
0.0255154 -0.10494567 0.16898549 -0.10101178 0.059273768 -0.99311793 4.0011128e-05
0.035379805 -0.10229389 0.16821152 -0.11395293 0.057687387 -0.99180984 0.00010603554
0.045701794 -0.10402535 0.16684884 -0.12928653 0.06125981 -0.98971325 0.00012192744
0.054163873 -0.10342878 0.16558823 -0.15506645 0.062142823 -0.98594761 0.00017088864
0.063080683 -0.10371248 0.1641289 -0.17042965 0.06566371 -0.98317951 0.00014489295
0.075446136 -0.10488773 0.16177942 -0.20257984 0.069728613 -0.97678 0.00018824966
0.081779584 -0.10203756 0.16048795 -0.21660742 0.06810049 -0.97388065 0.00015229387
-0.36380768 -0.094122306 0.16262473 0.41409898 0.05263672 -0.90870869 0.0041310722
-0.35556659 -0.095967121 0.16579747 0.31617287 0.050053403 -0.94738024 0.0036650235
-0.34461889 -0.096953437 0.16798787 0.22356357 0.059394322 -0.97287798 0.0019533702
0.02457788 -0.096741088 0.16953743 -0.098473623 0.054544903 -0.9936437 4.4557306e-05
0.035306212 -0.097233675 0.16850466 -0.11702193 0.056223527 -0.99153656 0.00011454721
0.047043722 -0.091783226 0.1673481 -0.13476102 0.05023231 -0.98960406 0.00011049114
0.057285607 -0.094599657 0.16561204 -0.16257623 0.058808796 -0.9849419 0.00014455654
0.064816922 -0.095506147 0.16439167 -0.17302105 0.059782375 -0.98310208 0.00012410921
0.075466707 -0.094611429 0.16247684 -0.19812457 0.058623403 -0.97842216 0.00020359849
0.084937468 -0.094001554 0.16030186 -0.22630791 0.062384419 -0.97205603 0.00018996575
-0.35723433 -0.083852135 0.16602521 0.31705716 0.052738551 -0.94693893 0.0037886577
-0.34265542 -0.084211871 0.16897395 0.18085267 0.039468355 -0.98271793 0.00069842243
-0.33898216 -0.087014198 0.16963798 0.17424254 0.036872216 -0.98401225 0.00074029493
0.034548525 -0.082216024 0.16932033 -0.11290727 0.046061527 -0.99253738 5.353423e-05
0.047115471 -0.083192304 0.16775876 -0.13346955 0.045090377 -0.99002665 9.1326918e-05
0.055304218 -0.086247429 0.16635904 -0.15319133 0.049641319 -0.98694891 8.0469865e-05
0.065630049 -0.085587963 0.1647962 -0.17925158 0.052820425 -0.98238432 0.00013520507
0.073464647 -0.083877772 0.16354418 -0.18968937 0.052741282 -0.98042655 0.00020066343
0.080615751 -0.08214885 0.16200162 -0.20902248 0.052131284 -0.9765203 0.00015109754
-0.36217195 -0.078068301 0.16439773 0.38907015 0.054567624 -0.91959047 0.0041519906
-0.34828433 -0.073410265 0.16817665 0.231774 0.039129455 -0.97198242 0.001834746
0.035964206 -0.073602274 0.16951731 -0.11540438 0.03891065 -0.99255621 8.699856e-05
0.045871913 -0.073417976 0.16833177 -0.13301885 0.040491182 -0.99028599 9.0566544e-05
0.055546295 -0.074092977 0.1668717 -0.15414073 0.041121997 -0.98719275 9.0095156e-05
0.063609377 -0.072111383 0.16572925 -0.16783354 0.039694428 -0.98501581 9.9440404e-05
0.074645139 -0.07394471 0.16373566 -0.19003429 0.046350904 -0.98068273 0.00015551872
0.082707405 -0.074742377 0.16186807 -0.21756704 0.047002457 -0.974913 0.0001646348
0.090454683 -0.071304642 0.16024862 -0.22449711 0.044927526 -0.97343856 9.8686658e-05
-0.36794829 -0.069474891 0.16177185 0.44241461 0.030347856 -0.89629704 0.0041830475
-0.35537586 -0.062840074 0.16713807 0.28299993 0.040111389 -0.95828074 0.0018032476
-0.34628886 -0.062849239 0.16894294 0.20522845 0.028836874 -0.97828919 0.00071583939
0.04391459 -0.063071869 0.16901794 -0.12289264 0.03323001 -0.99186343 7.6417025e-05
0.054695107 -0.064233929 0.16737859 -0.14281823 0.033688579 -0.98917544 8.3627172e-05
0.063738152 -0.064343102 0.16602983 -0.16690542 0.036439568 -0.98529929 0.00014257494
0.076114886 -0.066047117 0.16379081 -0.194057 0.039584938 -0.98019123 0.00016625039
0.084885277 -0.063734174 0.1618835 -0.22093727 0.041486289 -0.97440529 0.00013158769
-0.36309075 -0.058654934 0.16477209 0.36823887 0.029448273 -0.92926472 0.0037281974
-0.35359177 -0.0539947 0.16770335 0.27626297 0.017513495 -0.96092254 0.0025953329
-0.34611738 -0.055237543 0.16916931 0.21167925 0.023725862 -0.9770512 0.00084637624
0.039354805 -0.053575866 0.16986361 -0.11761443 0.027955204 -0.99266577 8.6409738e-05
0.04478902 -0.056483217 0.16909428 -0.12526688 0.028827388 -0.99170417 0.00010155005
0.056339666 -0.055714116 0.16740616 -0.1492032 0.030188322 -0.98834562 0.00012579095
0.066126421 -0.05692732 0.16591789 -0.16995306 0.032219607 -0.98492527 0.00010798759
0.076405868 -0.053202096 0.1641788 -0.19650932 0.031401806 -0.97999901 0.00017279718
0.084421061 -0.054142416 0.16231772 -0.20964375 0.032602109 -0.97723418 0.00010697978
-0.36372995 -0.042214461 0.16482368 0.36691511 0.038840804 -0.92944324 0.0025906272
-0.34644523 -0.044978 0.16929112 0.20766804 0.011529597 -0.97813135 0.0011326005
0.045028858 -0.045504943 0.16931504 -0.12329854 0.023046214 -0.99210197 5.7271009e-05
0.055983052 -0.046220969 0.16770847 -0.14458251 0.025516989 -0.98916364 6.3767759e-05
0.063465908 -0.046325941 0.16659753 -0.16198131 0.02514933 -0.98647326 0.0001198575
0.076115504 -0.046786904 0.16441964 -0.19821084 0.028070694 -0.97975737 0.00015739398
0.085923329 -0.049913362 0.16210721 -0.22486536 0.030942433 -0.97389841 0.00020915957
0.09317448 -0.044529449 0.16060166 -0.23795806 0.025865443 -0.97093093 0.00022650258
-0.37144035 -0.034481488 0.16118541 0.41689569 0.024932388 -0.90861237 0.0029523147
-0.36580813 -0.033734079 0.16408013 0.38709319 0.02661318 -0.92165649 0.0036089544
-0.35432246 -0.034134269 0.16796269 0.26863998 0.017537281 -0.963081 0.0022261217
-0.34954205 -0.03490651 0.16888803 0.22691375 0.013677027 -0.9738189 0.0011136954
0.048166908 -0.033848442 0.16912271 -0.12868188 0.017133707 -0.99153793 8.0963495e-05
0.054272082 -0.035844501 0.16819392 -0.13919611 0.018735006 -0.99008757 5.5622713e-05
0.065964989 -0.035722405 0.16649972 -0.16831644 0.017442096 -0.98557866 0.00018471266
0.074120142 -0.03512593 0.16515794 -0.18428624 0.017590286 -0.98271519 0.00018681724
0.085096061 -0.034773886 0.16271079 -0.21425322 0.018250134 -0.97660762 0.00012350627
-0.37124246 -0.022414014 0.16147918 0.39470366 0.016439293 -0.91866136 0.0035374283
-0.36338621 -0.024593955 0.16541617 0.36110091 0.027397884 -0.9321242 0.0040597441
-0.35739714 -0.021927107 0.16749433 0.28476778 0.011982111 -0.95852166 0.0022327921
-0.34588754 -0.022282965 0.16974834 0.231506 0.01376674 -0.97273606 0.0015538238
0.046612751 -0.02422552 0.16947596 -0.12801158 0.014169941 -0.99167144 0.00010906024
0.053172328 -0.024697162 0.16852266 -0.13332143 0.012673826 -0.99099189 3.1740023e-05
0.063524306 -0.023590008 0.16703051 -0.15775244 0.01154067 -0.98741126 0.00013023897
0.073324732 -0.025196608 0.16551079 -0.18225315 0.013134936 -0.98316395 0.0001919713
0.084266722 -0.025759116 0.16304959 -0.2153191 0.016436739 -0.97640544 9.6443466e-05
0.09328226 -0.025818503 0.16100125 -0.23897277 0.017963981 -0.97086012 0.00022622258
-0.37122375 -0.014616793 0.16156253 0.42381254 0.00089540175 -0.9057495 0.0048978431
-0.36222485 -0.014071632 0.16605781 0.3444584 0.010937319 -0.93873793 0.004233974
-0.35704127 -0.014398806 0.16761465 0.30152577 0.010478684 -0.95340037 0.0018825686
-0.34796381 -0.013896893 0.16939242 0.24112014 0.0026153957 -0.97049177 0.0015402326
0.047370292 -0.013661193 0.16944605 -0.12876129 0.007178958 -0.99164969 0.00010099795
0.055422604 -0.016363105 0.16826653 -0.1431098 0.008438834 -0.98967081 0.00011813649
0.064111456 -0.014071144 0.1670291 -0.16356769 0.0063540838 -0.98651165 0.00017954556
0.083060957 -0.01315738 0.1634445 -0.20151494 0.0067627919 -0.97946209 0.00014342139
0.092179835 -0.011833386 0.1613967 -0.22765505 0.0083716633 -0.97370583 0.00025863
-0.37218577 -0.0034368758 0.16118279 0.45360905 0.00089452032 -0.8912003 0.0044476031
-0.36603859 -0.0045722458 0.16427964 0.38632324 0.0072176722 -0.92233521 0.0035713557
-0.35449699 -0.0050130617 0.16816136 0.28678975 -0.00072445511 -0.95799333 0.0021272751
-0.3470065 -0.0094560627 0.1696095 0.2386083 0.0056574782 -0.9710995 0.0014443483
0.045441646 -0.0033473824 0.16979916 -0.12649095 0.00064865849 -0.9919675 7.5705393e-05
0.055587105 -0.0063582798 0.16831915 -0.15095788 0.0037824202 -0.98853296 0.00010410813
0.065123983 -0.0025907026 0.16697536 -0.16428734 0.0022817755 -0.9864099 0.00014234104
0.077625319 -0.0053383848 0.16474205 -0.19937837 0.0034777191 -0.97991645 0.00016456367
0.084058575 -0.0025993453 0.16331398 -0.20621584 0.0035779083 -0.97850001 0.00021060965
0.090154223 -0.00026602435 0.16195853 -0.22457315 0.00030869653 -0.9744572 0.00022965156
-0.37097061 0.0022530798 0.16180965 0.43491477 -0.0040484886 -0.90046257 0.0048351777
-0.36315319 0.0030903134 0.16564517 0.34464753 -0.011792013 -0.93865812 0.0038198768
-0.35586962 0.0076683634 0.16788895 0.28416035 -0.0025249266 -0.95877349 0.0019235294
-0.34645948 0.0061839656 0.16973837 0.21653032 -0.0015385291 -0.97627467 0.0012788918
0.046745904 0.0052698613 0.16959742 -0.12571341 -0.0027170843 -0.99206293 6.1427891e-05
0.058144398 0.0044274898 0.16796574 -0.15045589 -0.001334548 -0.98861587 8.7473061e-05
0.067101553 0.0059344261 0.16666521 -0.16955759 -0.0029888586 -0.98551571 0.00017315797
0.076513723 0.0060418299 0.16498657 -0.18960701 -0.002522602 -0.98185688 0.00020559135
0.081407435 0.0044342224 0.16389596 -0.20129567 0.00025606842 -0.97953045 0.00019237857
0.095812909 0.0060878699 0.16062796 -0.24317101 -0.0063849129 -0.96996242 0.00028972377
-0.37243593 0.019719943 0.16089649 0.47854951 -0.017106466 -0.87789392 0.0030896785
-0.36340776 0.014342113 0.16553091 0.35772258 -0.0047408957 -0.9338159 0.0031560923
-0.35705486 0.01528048 0.16759481 0.30553272 -0.016217152 -0.95204353 0.0024460531
-0.34693471 0.013382552 0.16959694 0.21978605 -0.0046465825 -0.975537 0.0012903663
0.049591027 0.012786277 0.16913328 -0.1331079 -0.006834554 -0.99107796 0.00010977819
0.055366416 0.01605005 0.16827698 -0.14597242 -0.0092303567 -0.98924559 8.5021093e-05
0.065383419 0.017844677 0.16681126 -0.16554412 -0.0098566758 -0.98615319 0.0001461413
0.077374324 0.01364183 0.16472407 -0.19494957 -0.0057129893 -0.98079664 0.00023377444
0.088242605 0.015551307 0.16225187 -0.22292952 -0.010405241 -0.97477907 0.00016196648
0.090974331 0.019676931 0.16158965 -0.22914362 -0.010994338 -0.97333056 0.00023134222
-0.36443338 0.024805643 0.16492185 0.34480169 -0.0070886784 -0.93864882 0.0030932892
-0.35581517 0.026206829 0.16777623 0.29926112 -0.01551818 -0.95404506 0.0026239455
0.045833789 0.025082333 0.16958109 -0.12874427 -0.013409546 -0.9915871 7.8320605e-05
0.055099398 0.025501553 0.16823594 -0.14199512 -0.013762475 -0.98977166 0.00010571469
0.065666184 0.022453168 0.16672972 -0.16581613 -0.013297871 -0.986067 0.00018218052
0.075123832 0.026913574 0.16508731 -0.18679179 -0.013863686 -0.98230171 0.00022439149
0.08290866 0.02541614 0.16336244 -0.20916028 -0.015057928 -0.97776544 0.00022884233
0.092651419 0.027032074 0.16113189 -0.23030454 -0.017094666 -0.9729684 0.00017727964
-0.37143195 0.033645105 0.16121662 0.45561415 -0.022632489 -0.8898896 0.0040609138
-0.36397973 0.038300976 0.16487984 0.3678751 -0.030350382 -0.92937976 0.0047099767
-0.3554374 0.036369335 0.16770101 0.27262306 -0.02338456 -0.9618367 0.0016385542
-0.34600329 0.036116168 0.16955769 0.23575713 -0.017906155 -0.97164708 0.0017386135
0.04223904 0.038322441 0.16988042 -0.12080435 -0.01971247 -0.99248058 8.6228945e-05
0.053343136 0.034939494 0.16834874 -0.13695756 -0.019523844 -0.99038452 0.00012683416
0.069742754 0.036505312 0.16592683 -0.17696118 -0.020340221 -0.98400766 0.00019423489
0.075829506 0.035317898 0.16476712 -0.18765296 -0.020781577 -0.98201549 0.00016869984
0.083697632 0.037135184 0.16296428 -0.21636829 -0.020884423 -0.97608846 0.00011771698
0.094088227 0.036493991 0.1606265 -0.23984303 -0.022921052 -0.97054106 0.00019904911
-0.37293583 0.040418673 0.16023412 0.45613757 -0.040822133 -0.88897246 0.0043030945
-0.36602554 0.044522125 0.16360439 0.40224475 -0.039160561 -0.91469431 0.0048168143
-0.35605788 0.041868784 0.16746628 0.27547953 -0.023959741 -0.96100831 0.0017890433
-0.34762299 0.044728979 0.16906309 0.25515583 -0.023816593 -0.96660656 0.0021452892
0.04773137 0.046455134 0.1689024 -0.13028963 -0.025362393 -0.99115157 9.0342488e-05
0.051991433 0.043164875 0.16835956 -0.13865781 -0.022553461 -0.99008352 8.3908235e-05
0.063806869 0.044114511 0.16660602 -0.15826185 -0.024918072 -0.98708272 0.00012128668
0.07450828 0.044545639 0.1648283 -0.18819284 -0.026366927 -0.98177809 0.00018423471
0.084824219 0.042913638 0.16255125 -0.21889804 -0.024774827 -0.97543317 0.00013634549
-0.37160254 0.052293856 0.16056357 0.45123559 -0.035951484 -0.89168042 0.0041552968
-0.36398163 0.055205721 0.16435926 0.38056743 -0.030952908 -0.92423505 0.0045226421
-0.34704483 0.050418321 0.16906993 0.23582481 -0.023456393 -0.97151244 0.0017551171
0.037541099 0.057373993 0.16995054 -0.11591144 -0.030720226 -0.99278438 9.4745927e-05
0.044284139 0.054617327 0.16920537 -0.12211376 -0.030087156 -0.99205995 9.1846327e-05
0.05298233 0.053954169 0.16795267 -0.14060187 -0.028502967 -0.98965591 0.00011465339
0.062916122 0.058084596 0.16636443 -0.16260517 -0.02980742 -0.98624086 0.00012316328
0.077381395 0.052015059 0.16399005 -0.19110616 -0.030043682 -0.9811095 0.00017196167
0.080813684 0.050179422 0.16326213 -0.20612766 -0.034231894 -0.97792619 0.00020680619
0.091666378 0.05421716 0.16064487 -0.23304106 -0.034321669 -0.97186106 0.00018027562
-0.36748901 0.065022521 0.16223101 0.41283298 -0.033485241 -0.910191 0.0037264838
-0.35429949 0.062750362 0.16735506 0.29003459 -0.03394625 -0.95641387 0.0030439892
-0.34748191 0.062689021 0.1687116 0.23265085 -0.029999195 -0.97209752 0.00097929256
0.037305582 0.06798213 0.16960645 -0.11477897 -0.034906991 -0.99277759 6.1326144e-05
0.0490232 0.067258976 0.16810291 -0.13385251 -0.036633179 -0.9903239 0.00011456651
0.054723263 0.062945843 0.16742486 -0.15099491 -0.033965323 -0.98795086 0.00010663757
0.063329771 0.068827383 0.16591907 -0.16511068 -0.038429692 -0.98552608 0.00011830381
0.076143712 0.065275177 0.16380912 -0.19593173 -0.041842863 -0.97972441 0.00015387233
0.083529241 0.062558375 0.16224159 -0.2092433 -0.038701937 -0.97709751 0.00013690855
-0.36286786 0.07703916 0.16406286 0.39943719 -0.033809811 -0.91613692 0.0030962555
-0.35649049 0.074530274 0.16650264 0.30425549 -0.032912608 -0.95202178 0.003126452
0.033023398 0.076141126 0.16969728 -0.11030166 -0.040229302 -0.99308366 7.4807082e-05
0.045019478 0.073078997 0.16847125 -0.12347149 -0.039174728 -0.99157459 8.6333792e-05
0.056461722 0.076701596 0.16661496 -0.14982729 -0.043013811 -0.9877761 0.00013403286
0.06673298 0.076063097 0.1650645 -0.18152827 -0.043719113 -0.98241341 0.00016084098
0.075106166 0.074437335 0.16360596 -0.19825251 -0.046254572 -0.97905898 0.00017819142
-0.3653276 0.084742069 0.1623845 0.45914251 -0.054391969 -0.88669586 0.0030178002
-0.35512668 0.083881021 0.16641127 0.30456647 -0.037946902 -0.9517349 0.0027041673
0.035426836 0.086698472 0.16906498 -0.11314824 -0.04699162 -0.99246621 6.0338134e-05
0.046119366 0.085276648 0.16781475 -0.13132976 -0.047267947 -0.99021119 7.7864497e-05
0.053127237 0.083891056 0.16680652 -0.14307588 -0.045703545 -0.98865592 7.0133421e-05
0.062532708 0.083912037 0.16535205 -0.16722028 -0.052231167 -0.98453504 0.0001657931
0.07595481 0.083319113 0.16301799 -0.19806172 -0.048496809 -0.97898912 0.00016870964
0.084700599 0.080384791 0.16114016 -0.21764016 -0.050126899 -0.97474098 0.00015617603
-0.354229 0.099506468 0.16590063 0.32136059 -0.05235922 -0.94550824 0.0029858078
-0.34557247 0.095435858 0.16786785 0.20091945 -0.04413889 -0.9786129 0.0010605243
-0.33719501 0.097053066 0.16951659 0.1804117 -0.048914842 -0.98237413 0.0010738476
0.027520606 0.094704911 0.169377 -0.10433866 -0.051321402 -0.99321675 5.3892225e-05
0.035125166 0.093667544 0.16872333 -0.11584739 -0.050891429 -0.99196243 9.6954725e-05
0.04438046 0.096742392 0.16745673 -0.12806746 -0.055689111 -0.9902007 9.726706e-05
0.052777678 0.096793279 0.16618019 -0.14910603 -0.057231035 -0.9871636 0.00010700299
0.063915811 0.096552454 0.16446233 -0.178048 -0.059231881 -0.98223752 0.00016836468
0.072379418 0.095087871 0.1631391 -0.19084793 -0.057799365 -0.97991651 0.0001771392
0.081136398 0.097522907 0.16095163 -0.21212701 -0.065123633 -0.97506976 0.00018794213
-0.36449921 0.10356572 0.16157575 0.42690206 -0.053799268 -0.90269613 0.0048273406
-0.35219494 0.10743779 0.16590117 0.27633262 -0.049236644 -0.9598 0.003080911
-0.34319362 0.104397 0.16792281 0.20876326 -0.053216975 -0.9765172 0.0014882542
-0.33512592 0.10735802 0.16948538 0.16228209 -0.058166586 -0.98502856 0.00081647659
0.016700534 0.10427961 0.16984884 -0.094477117 -0.061045382 -0.99365366 2.7002396e-05
0.028369386 0.10822318 0.16853276 -0.10539446 -0.064121202 -0.99236107 5.5095134e-05
0.033964265 0.10111336 0.16841087 -0.11040795 -0.059743702 -0.99208909 8.9268186e-05
0.046150118 0.10561166 0.16669624 -0.13567922 -0.064604126 -0.9886443 0.00015673657
0.05469935 0.10453172 0.16542491 -0.15297793 -0.062604338 -0.98624462 0.0001546813
0.06430465 0.10507642 0.16383752 -0.18143691 -0.065900981 -0.98119205 0.00013439725
0.075072393 0.10610148 0.16178328 -0.19687119 -0.067257755 -0.97811973 0.00015946633
0.082142122 0.10263366 0.16036147 -0.21788536 -0.071557678 -0.9733476 0.00016038456
-0.36232507 0.11152315 0.16222012 0.39639023 -0.058851596 -0.91619396 0.0047031166
-0.35600311 0.1156797 0.16452323 0.31740475 -0.076317146 -0.94521421 0.0034513422
-0.34305409 0.11629799 0.16733365 0.19627687 -0.08708369 -0.97667384 0.0022623718
0.01473083 0.11598456 0.16930686 -0.085274115 -0.10811776 -0.9904741 0.0019964455
0.025462333 0.11804613 0.16814327 -0.10297152 -0.10968681 -0.98861808 0.0016751203
0.035171233 0.11386767 0.16757634 -0.11650332 -0.080330588 -0.98993635 0.00028069038
0.046735648 0.11051568 0.16631788 -0.14062309 -0.071200989 -0.98749971 0.0001099349
0.056115653 0.11308647 0.16462113 -0.1584225 -0.072746962 -0.98468786 0.00016641691
0.062606841 0.11599519 0.16335741 -0.17365457 -0.077175654 -0.98177797 0.00019510103
0.074492685 0.11552427 0.16123822 -0.20144585 -0.081813417 -0.97607696 0.00023567835
-0.36206296 0.12651631 0.16101953 0.40285689 -0.15553334 -0.90195101 0.0067655337
-0.35498857 0.12548919 0.16406989 0.32349375 -0.15569665 -0.93333292 0.0065605477
-0.34576559 0.12526162 0.16613667 0.23017024 -0.12643263 -0.96490234 0.0036941625
-0.33389062 0.12506282 0.16870448 0.13980746 -0.16251159 -0.97675169 0.0060455138
-0.32835105 0.12536146 0.16943967 0.12074555 -0.18132664 -0.97598213 0.0086740619
-0.0012911912 0.12997854 0.16969453 -0.091732159 -0.30855331 -0.94677359 0.020626031
0.0098560285 0.1292235 0.16872111 -0.082181461 -0.25383902 -0.96374887 0.012299237
0.015251772 0.12287275 0.16871966 -0.083111018 -0.16732863 -0.98239177 0.0062928353
0.026396707 0.12573974 0.16746247 -0.10192201 -0.2198267 -0.97020006 0.0098541444
0.033881966 0.12088395 0.16715001 -0.11501142 -0.1162141 -0.98654276 0.001952856
0.047136456 0.12335873 0.16528423 -0.1363132 -0.11649058 -0.98379296 0.0017917783
0.055522699 0.12550035 0.16376215 -0.15759546 -0.16733886 -0.97322214 0.0058394801
0.062733248 0.12406981 0.16269417 -0.16808605 -0.14963371 -0.97434944 0.0055125882
0.073988892 0.12167432 0.16081946 -0.20068449 -0.096959867 -0.97484589 0.00056291471
-0.35616255 0.13374369 0.16313009 0.32136214 -0.31960642 -0.8913911 0.017598407
-0.34599113 0.13369016 0.16544937 0.23388602 -0.27390337 -0.93288493 0.018391807
-0.32713729 0.13327411 0.16902025 0.074421383 -0.32499906 -0.94278151 0.021069873
-0.31594777 0.13696255 0.1690108 0.063411817 -0.43084157 -0.90019691 0.023430983
-0.30791095 0.13604441 0.16983868 0.068572633 -0.40456209 -0.91193604 0.021889353
-0.29416701 0.13736576 0.16956793 0.071818471 -0.42902872 -0.90043122 0.019020172
-0.28343558 0.13799615 0.1695085 0.042885873 -0.4817858 -0.87523901 0.019089451
-0.27816328 0.13893305 0.16920237 -0.011005433 -0.5159328 -0.85655832 0.02458586
-0.26725745 0.13810223 0.16978882 0.020059733 -0.51713955 -0.85566598 0.024475068
-0.25348681 0.13887458 0.16972426 0.033936679 -0.57327414 -0.81866044 0.022628503
-0.24453913 0.13900128 0.16983303 0.022569776 -0.56759566 -0.82299799 0.020443393
-0.060796943 0.13909279 0.16994366 -0.013179492 -0.50271147 -0.8643539 0.024338443
-0.048804894 0.13918075 0.16970161 -0.0023740255 -0.53042275 -0.84772992 0.030338082
-0.035125762 0.1374898 0.16991462 -0.058658782 -0.495271 -0.86675584 0.023313012
-0.025248095 0.13907459 0.16883284 -0.058385901 -0.51502877 -0.85518211 0.027583726
-0.01397861 0.13678905 0.16940352 -0.068250239 -0.46778259 -0.88120449 0.025427066
0.0060399249 0.13595864 0.16808325 -0.074231841 -0.45266375 -0.88858604 0.020691592
0.016361827 0.13217287 0.16788734 -0.12445968 -0.31372789 -0.94132066 0.020354779
0.028509857 0.13415593 0.16660683 -0.071988113 -0.34663165 -0.93523479 0.019765925
0.036919739 0.13703804 0.16517542 -0.0541992 -0.40901539 -0.91091645 0.022330159
0.047262568 0.13733032 0.16394693 -0.066261753 -0.36114758 -0.93015152 0.021217106
0.054292284 0.13434832 0.16316013 -0.12489779 -0.27584833 -0.95305204 0.016074058
0.06526915 0.13463673 0.16126129 -0.14972498 -0.32351178 -0.93430322 0.022801485
0.071827859 0.13280459 0.16024522 -0.18687926 -0.25685036 -0.94821095 0.017115695
-0.35326934 0.14229576 0.16154419 0.2276528 -0.49165121 -0.84050781 0.024239613
-0.34486678 0.14129272 0.16393408 0.17837769 -0.49300951 -0.85154158 0.025979988
-0.33415607 0.14408785 0.16302262 0.11219445 -0.60440081 -0.78874075 0.022299318
-0.32518032 0.14329804 0.16454686 0.082301639 -0.62650871 -0.7750569 0.01973887
-0.31480399 0.1445215 0.16333632 0.10602362 -0.67800158 -0.7273739 0.021458535
-0.29860979 0.14461529 0.16373014 0.023568336 -0.703731 -0.71007556 0.021405883
-0.28614759 0.1446564 0.16377196 0.0077030994 -0.64060855 -0.767829 0.022031192
-0.27271408 0.14445874 0.16413322 0.012241685 -0.67550743 -0.73725158 0.018200943
-0.26510543 0.14415078 0.16459081 -0.0044162911 -0.66097808 -0.75039226 0.021834904
-0.25584477 0.14422733 0.16454451 0.0016809857 -0.68450296 -0.72900814 0.015871048
-0.24214035 0.1425525 0.16682929 0.027459804 -0.61714894 -0.78636706 0.022705674
-0.23270759 0.14286137 0.16648991 0.027733516 -0.65893942 -0.75168455 0.02533859
-0.22917354 0.14293981 0.1664114 0.011662083 -0.6689254 -0.74323815 0.023567056
-0.21635588 0.14165565 0.16811585 -0.048141818 -0.62839216 -0.77640563 0.018281203
-0.20554686 0.14301313 0.16639684 -0.059662051 -0.61889112 -0.78320771 0.024294944
-0.19629478 0.14346085 0.16580185 0.025585841 -0.65003288 -0.75947529 0.021639233
-0.18572283 0.14279065 0.16669302 -0.00098345615 -0.59584188 -0.80310118 0.025930651
-0.17334454 0.14418577 0.16485412 0.023169458 -0.67297292 -0.73930407 0.019178726
-0.16509666 0.14749384 0.16045368 0.0023900212 -0.75504422 -0.65566951 0.014523061
-0.15158162 0.14076602 0.16932245 0.021164631 -0.56956571 -0.82167321 0.024028474
-0.14612091 0.14266434 0.16686648 0.0025196823 -0.63762891 -0.77033949 0.023731848
-0.13500458 0.14095917 0.16908009 0.0058180057 -0.61545497 -0.78815061 0.023424985
-0.12442642 0.14196156 0.16778643 0.0026750967 -0.62524825 -0.78042132 0.022626068
-0.11532766 0.14283845 0.16664793 -0.010579714 -0.6328162 -0.77422976 0.02041835
-0.10317059 0.14510348 0.16365078 -0.0024002355 -0.68441415 -0.72908956 0.01726901
-0.097350374 0.14106245 0.16891265 -0.027913583 -0.58219498 -0.81256998 0.023988545
-0.087595746 0.14380312 0.165227 0.037021115 -0.67406601 -0.73774272 0.018705824
-0.074226677 0.14381739 0.16527902 0.011282639 -0.62259126 -0.78246576 0.019503184
-0.065332934 0.14285789 0.16649997 0.0088776574 -0.60070044 -0.79942495 0.022676714
-0.057594303 0.14060669 0.16912408 -0.011315327 -0.50117403 -0.86527258 0.028136466
-0.04504101 0.1456681 0.16268343 -0.022605253 -0.71524686 -0.69850624 0.017531088
-0.034904569 0.14349158 0.16529308 -0.0021741197 -0.65164167 -0.75852388 0.022571841
-0.021943025 0.1431479 0.16532761 -0.011106516 -0.64027977 -0.76806152 0.019913904
-0.015329687 0.1439628 0.16449663 -0.068330683 -0.67073965 -0.73853856 0.023857556
-0.0057299086 0.14222249 0.16602674 -0.063610651 -0.52365386 -0.84955305 0.020826967
0.0049342862 0.14378384 0.16429074 -0.067720026 -0.55368918 -0.82996523 0.028257577
0.015296034 0.14448081 0.16308646 -0.023071738 -0.62175834 -0.78286922 0.03339028
0.025958862 0.14546382 0.16170943 -0.017601348 -0.64410645 -0.76473331 0.0364477
0.03507407 0.14288828 0.16328785 -0.032286011 -0.53935802 -0.84145743 0.030791806
0.053387437 0.14093401 0.16207512 -0.12974758 -0.41775325 -0.89924842 0.027381822
0.061623305 0.1402023 0.16130038 -0.15985754 -0.35148829 -0.92244321 0.021002397
-0.30597728 -0.13351753 0.17035425 0.070194587 0.37107706 -0.92594522 0.0210317
-0.29245844 -0.13287245 0.17103182 0.043710522 0.33276558 -0.94199598 0.018200148
-0.28776744 -0.1319017 0.17121904 0.036307957 0.29503885 -0.95479512 0.017404135
-0.27956504 -0.13689265 0.17007285 0.0022854023 0.45053247 -0.89275712 0.022010759
-0.26517215 -0.13354097 0.17127232 -0.0059406436 0.38235098 -0.92399806 0.021816166
-0.25616863 -0.13438721 0.17118795 0.016693786 0.3715685 -0.92825544 0.024303127
-0.24433891 -0.13415504 0.17139816 -0.010388826 0.40071926 -0.91614205 0.025994489
-0.23496473 -0.13439439 0.17194279 0.0063780365 0.47083899 -0.88219607 0.021084877
-0.22534901 -0.13332537 0.17236149 0.03023112 0.41484791 -0.90938836 0.027320938
-0.21333976 -0.13371243 0.1727407 -0.002763178 0.39087743 -0.92043853 0.017989742
-0.20382555 -0.1378042 0.17096347 0.0039997608 0.49265197 -0.87021726 0.022103623
-0.19139378 -0.13619007 0.17166579 0.015892919 0.49559492 -0.86840832 0.023672165
-0.18463244 -0.13575268 0.17184722 0.035684336 0.45730498 -0.88859367 0.026797704
-0.17515382 -0.1346789 0.17216568 -0.0046260464 0.43454349 -0.900639 0.023266902
-0.16597757 -0.13452072 0.17228122 0.00032477611 0.41162282 -0.91135424 0.022030063
-0.15522461 -0.13558485 0.1717654 -0.032983262 0.514108 -0.85709113 0.028712105
-0.14385435 -0.13702095 0.17117698 0.010104815 0.52173084 -0.85305029 0.02578954
-0.13513 -0.13818951 0.17077164 -0.023340151 0.53751063 -0.84293383 0.02682163
-0.1219999 -0.1350023 0.17208526 -0.0056085135 0.43865627 -0.89863741 0.020476032
-0.11667258 -0.13700642 0.17128003 0.017678015 0.47427243 -0.88020068 0.022000939
-0.10516949 -0.13431628 0.17220615 0.057729814 0.38883799 -0.9194957 0.020810734
-0.092054412 -0.13633533 0.17139167 0.0031651768 0.4900403 -0.87169409 0.029534407
-0.082160577 -0.1350638 0.17185611 -0.010351344 0.41205165 -0.91110164 0.025671374
-0.077279545 -0.13569276 0.17154638 -0.03348944 0.40422779 -0.91404504 0.016228743
-0.065178148 -0.13410509 0.17188871 -0.05749926 0.36121511 -0.93070811 0.013300157
-0.054285504 -0.13349023 0.17187074 -0.066881783 0.38910738 -0.91876131 0.019585112
-0.043735445 -0.13361555 0.17137754 0.0116727 0.42556849 -0.90485096 0.023235526
-0.033536129 -0.13312563 0.17122453 -0.0064065289 0.38462469 -0.92305088 0.022767369
-0.023741942 -0.13506027 0.17053293 -0.017616944 0.40100724 -0.91590548 0.021863038
-0.016122559 -0.1338505 0.17042507 -0.061740424 0.36216256 -0.93006796 0.023330526
-0.32443309 -0.12004413 0.17003459 0.11716398 0.11291994 -0.98667204 0.0034873195
-0.31355524 -0.12485372 0.17046377 0.10145778 0.23340765 -0.96707147 0.011824898
-0.30507889 -0.12585843 0.17093675 0.064350195 0.2586447 -0.96382672 0.014189848
-0.29334468 -0.12486351 0.17155316 0.038346615 0.16018985 -0.98634106 0.0044847722
-0.28589728 -0.12622279 0.17166874 0.010835694 0.22552812 -0.97417635 0.0090378951
-0.27441403 -0.12453163 0.17208523 0.029725868 0.22393072 -0.97415161 0.0095165251
-0.26834375 -0.12622052 0.17212111 0.0033372901 0.26423681 -0.96445203 0.011786665
-0.2530207 -0.12258743 0.17276798 0.033069223 0.19738075 -0.97976905 0.010111755
-0.24544199 -0.124649 0.17279343 0.0016968388 0.1837993 -0.98296231 0.0053631784
-0.22572497 -0.12469497 0.17345122 0.02728457 0.22441624 -0.97411132 0.011584121
-0.21375072 -0.12623265 0.17366196 0.03420122 0.23873127 -0.97048324 0.011545702
-0.2064583 -0.12587637 0.17368163 0.011312699 0.31783566 -0.94807833 0.0171434
-0.1954478 -0.12659562 0.17359097 0.03344816 0.31423998 -0.94875419 0.018987667
-0.18555567 -0.1227383 0.17384081 -0.004624404 0.17953107 -0.98374146 0.0093144216
-0.17703745 -0.12524137 0.17361805 0.0060356371 0.23654498 -0.97160178 0.0093837688
-0.16364619 -0.12545772 0.17357016 -0.03197477 0.21796252 -0.97543317 0.0088227382
-0.1575309 -0.12227624 0.17379659 -0.011200702 0.21228474 -0.97714365 0.010054201
-0.14444068 -0.12518154 0.17355645 -0.0091787577 0.22990225 -0.97317046 0.0087046465
-0.13591707 -0.12419268 0.17361674 -0.012292889 0.24721493 -0.96888268 0.01368251
-0.12531203 -0.12619171 0.17345425 0.023202322 0.29770178 -0.95437688 0.015427819
-0.11533596 -0.12444463 0.17356795 0.0059230505 0.26785615 -0.96344066 0.01225087
-0.10265861 -0.12302363 0.17357525 0.0081833489 0.1725435 -0.98496789 0.0052249036
-0.094070494 -0.12480003 0.17336674 0.0040795803 0.20005946 -0.97977531 0.005393126
-0.084781066 -0.12980039 0.1728794 -0.02062648 0.32801002 -0.94444901 0.022048563
-0.074175999 -0.12424964 0.17320946 -0.028787011 0.21361881 -0.97649288 0.011430186
-0.065717451 -0.12581201 0.17299321 -0.026643287 0.25135565 -0.96752799 0.0096461121
-0.054790936 -0.12374532 0.17300947 -0.030116977 0.20391834 -0.97852457 0.0082824817
-0.046457984 -0.12365109 0.17273322 -0.035540119 0.19018859 -0.98110408 0.0065049198
-0.036346674 -0.12789576 0.17189085 -0.043525048 0.28140172 -0.95860243 0.014068646
-0.024031054 -0.12532589 0.17148724 -0.051456753 0.25294009 -0.96611261 0.014375286
-0.012504327 -0.12633657 0.17084219 -0.055760056 0.26087219 -0.96376157 0.016270598
-0.0096720345 -0.12614444 0.17071816 -0.056114871 0.23010257 -0.97154719 0.012169646
-0.32224613 -0.11081637 0.17073348 0.10769765 0.05775059 -0.99250495 0.0005894854
-0.31561002 -0.11449023 0.17151749 0.084630907 0.079749964 -0.99321574 0.0012336035
-0.30331779 -0.11286519 0.17324102 0.062551722 0.063058324 -0.99604762 0.00045206639
-0.29619393 -0.11448964 0.17258754 0.053131841 0.081642412 -0.99524444 0.00090391986
-0.28423482 -0.11384089 0.17394347 0.036278561 0.074959248 -0.99652648 0.0010847109
-0.27353969 -0.11223686 0.17444302 0.023031561 0.07520932 -0.99690175 0.00087714661
-0.26756784 -0.11353131 0.17446226 0.018518863 0.092746004 -0.99551755 0.0013673148
-0.25708058 -0.11522023 0.17397091 0.0019744597 0.11827759 -0.99297857 0.0038758763
-0.24448556 -0.11393164 0.17362987 0.017467702 0.10468753 -0.99435174 0.0019156132
-0.22432643 -0.11271144 0.17437595 0.028089484 0.069365107 -0.99719584 0.0002462721
-0.21518326 -0.11363377 0.1754663 0.025387406 0.076180771 -0.9967708 0.00096363039
-0.2047734 -0.11456776 0.17445965 0.021139212 0.093877628 -0.99535924 0.0035565044
-0.19262674 -0.11408447 0.17448619 0.021683127 0.097873382 -0.99496263 0.005977991
-0.18659288 -0.11250393 0.1771401 0.011208595 0.089482769 -0.99592531 0.0066002347
-0.17553596 -0.11522766 0.17510641 0.00028409649 0.13006401 -0.99150556 0.0098265884
-0.16390277 -0.11654528 0.17424184 -0.027227445 0.15046184 -0.98824078 0.0094518913
-0.1529202 -0.11812609 0.17409956 -0.012159803 0.15178953 -0.98833805 0.0087713543
-0.1411896 -0.11610398 0.17422715 0.0051225498 0.14992814 -0.98868364 0.0087973541
-0.13294673 -0.11844887 0.17403489 -0.0059733214 0.17040256 -0.98535645 0.0095574632
-0.12485014 -0.1170651 0.17412487 -0.0029326288 0.12889619 -0.99165374 0.0061456794
-0.11463211 -0.11322874 0.17670019 0.0037116078 0.078838974 -0.99688047 0.0056028347
-0.10498876 -0.11360382 0.17428781 -0.014854179 0.091336362 -0.9957093 0.0048263795
-0.094447643 -0.11121804 0.17947415 0.0021479321 0.080459647 -0.99675548 0.0048076776
-0.084875919 -0.11356335 0.17545795 -0.0063132616 0.10076939 -0.9948898 0.0047428403
-0.077030271 -0.11284941 0.17635137 -0.013292596 0.09903916 -0.99499476 0.0048907259
-0.065309495 -0.11553124 0.17380223 -0.05064043 0.14193863 -0.98857927 0.0057484997
-0.055146601 -0.11120778 0.17664143 -0.045319192 0.080130316 -0.99575365 0.0024498673
-0.045086104 -0.11536223 0.17427702 -0.042033263 0.10434292 -0.9936527 0.002763828
-0.033060458 -0.11240298 0.17383789 -0.059394885 0.082445867 -0.99482411 0.0012092007
-0.02563131 -0.11470529 0.17266221 -0.068632029 0.096843921 -0.99293047 0.0013248229
-0.01455642 -0.11438108 0.17187349 -0.067785949 0.081065066 -0.9944011 0.00041685213
-0.0046811602 -0.11590791 0.17111146 -0.076829113 0.094898313 -0.99251777 0.0010565786
0.0031666236 -0.11470512 0.17048106 -0.082844697 0.097255178 -0.99180549 0.0013889681
-0.33114448 -0.10412248 0.17037733 0.14452526 0.053352259 -0.98806179 0.00057356356
-0.3243506 -0.10220516 0.17098999 0.11181284 0.0439125 -0.99275857 0.00061553193
-0.31674331 -0.10868371 0.17140344 0.085276999 0.05669748 -0.99474287 0.00040229168
-0.30567175 -0.10180163 0.17232189 0.068312585 0.043450803 -0.99671727 0.00026125929
-0.29618126 -0.10684523 0.17263408 0.057980023 0.054016754 -0.99685532 0.00048184252
-0.28599036 -0.1054251 0.1730008 0.037670005 0.049606904 -0.99805814 0.00061555352
-0.27557692 -0.10524257 0.17330705 0.027471934 0.046930265 -0.99852037 0.00050452864
-0.26512983 -0.10823195 0.1734281 0.029217331 0.079679012 -0.99639231 0.0027049389
-0.25363618 -0.10685784 0.17381796 0.015214706 0.087007016 -0.99609149 0.002257948
-0.24494462 -0.10400178 0.17421281 0.0065421653 0.06299293 -0.99799252 0.0025042174
-0.23536491 -0.10405005 0.17447676 0.01429148 0.066438273 -0.99768811 0.0025372838
-0.22568519 -0.10591737 0.17471807 0.026234543 0.060608767 -0.99781674 0.00015972105
-0.21371984 -0.10348823 0.17510299 0.018366981 0.051448166 -0.99850678 0.00073755707
-0.19366933 -0.10513206 0.17502478 0.025551435 0.039085157 -0.99890918 0.0053332862
-0.18423776 -0.10607773 0.17496863 0.025991749 0.048660491 -0.9984771 0.0067355153
-0.17309615 -0.10677 0.17491968 -0.0038695498 0.055380642 -0.99845779 0.0073201447
-0.16689637 -0.10311954 0.1751018 -0.013348898 0.031671226 -0.9994092 0.0068468298
-0.15533327 -0.10372522 0.17504029 -0.006662027 0.03675016 -0.99930227 0.0075513041
-0.14423786 -0.10576069 0.17490827 -0.0026738304 0.04915477 -0.99878764 0.005078461
-0.13567986 -0.10578232 0.17488879 -0.013908385 0.046209875 -0.99883497 0.0063091437
-0.12522012 -0.10709637 0.17479664 -0.0052033509 0.060511142 -0.99815392 0.003707645
-0.1155609 -0.10571638 0.17484619 0.0028988833 0.044011939 -0.99902678 0.0046483092
-0.09455768 -0.1069188 0.17463121 0.0068354509 0.069463372 -0.9975611 0.0047393567
-0.083640426 -0.10621592 0.17458007 -0.0041740499 0.063831329 -0.99795198 0.0047578616
-0.066261306 -0.10552987 0.17447117 -0.043699272 0.060077377 -0.99723673 0.0048522837
-0.056109816 -0.10399202 0.17447321 -0.043533321 0.066311382 -0.99684882 0.0030833806
-0.043730132 -0.10571365 0.17470971 -0.041673969 0.064617507 -0.99703956 0.00082172215
-0.035393838 -0.10395712 0.17358328 -0.059878603 0.055549648 -0.9966588 0.0007093192
-0.024988541 -0.10589603 0.17294544 -0.06147055 0.063182831 -0.9961071 0.00020465725
-0.018019754 -0.10520961 0.17263091 -0.068707787 0.058310695 -0.99593127 0.00014960003
-0.0054315436 -0.10412955 0.17193055 -0.079304636 0.058412857 -0.99513757 7.2253875e-05
0.012828333 -0.10549673 0.17014271 -0.090226427 0.059718963 -0.99412912 3.4409964e-05
-0.33285776 -0.09264636 0.1705914 0.13986889 0.038051344 -0.98943865 0.00063970726
-0.32741699 -0.093393512 0.17115423 0.13051185 0.039278723 -0.99066836 0.00064754375
-0.31726143 -0.094196379 0.17186235 0.09315183 0.037178986 -0.99495751 0.00033289168
-0.30127501 -0.090265632 0.1731955 0.0579568 0.033362441 -0.99776149 0.00024160276
-0.2953527 -0.096621782 0.17316338 0.055142816 0.032833863 -0.99793851 0.00036720879
-0.28614014 -0.094464362 0.17354403 0.03648499 0.024305312 -0.99903864 0.00033409498
-0.26428321 -0.095326103 0.17415021 0.032564178 0.046558138 -0.99838465 0.0025058181
-0.25276563 -0.094948269 0.17449506 0.021546757 0.048009332 -0.99861443 0.0022749321
-0.24518213 -0.097185001 0.17458157 0.013006713 0.061610971 -0.99801552 0.0022524521
-0.22861655 -0.096174993 0.17510663 0.0087770214 0.052018125 -0.99860758 0.0020867279
-0.21519469 -0.091188788 0.17570826 0.012570154 0.04131297 -0.99906719 8.563244e-05
-0.20515375 -0.09535253 0.17552686 0.025918033 0.021861512 -0.99942499 0.0021755062
-0.19555709 -0.095628008 0.17553274 0.02096574 0.016645592 -0.99964166 0.0045852563
-0.18693888 -0.094102785 0.17561671 0.016090063 0.013894172 -0.99977404 0.0041804821
-0.17723218 -0.093305334 0.17565978 0.007235982 -0.0076463539 -0.99994457 0.005974452
-0.16542149 -0.091324069 0.17573948 -0.023764698 0.0032335261 -0.99971235 0.0049834293
-0.15516029 -0.095310986 0.17549524 -0.0044324649 0.012297195 -0.99991459 0.00623143
-0.14736865 -0.093759082 0.17555887 0.0028016439 0.022793645 -0.99973631 0.004047886
-0.13407011 -0.0964683 0.17537992 -0.013808921 0.026011523 -0.99956626 0.0048634969
-0.12577049 -0.093876399 0.17549987 -0.0033448695 0.029609852 -0.99955595 0.0024792617
-0.1137637 -0.093843915 0.17547312 -0.0023858775 0.0061391159 -0.9999783 0.0039448887
-0.10526981 -0.093616605 0.17543027 0.021501847 0.024164017 -0.99947673 0.0032504769
-0.094983168 -0.092961587 0.1753964 0.021334171 0.023584088 -0.99949419 0.005710491
-0.085114531 -0.091897666 0.17538702 0.0025587105 0.027636351 -0.99961478 0.006281212
-0.074974231 -0.096040003 0.17508847 -0.025454501 0.041280955 -0.99882334 0.0076595149
-0.065465659 -0.09574306 0.17502694 -0.029561635 0.050222527 -0.99830049 0.0048542474
-0.057753254 -0.094214119 0.17505181 -0.050057895 0.049282365 -0.99752969 0.0037398417
-0.043810885 -0.094610713 0.17455268 -0.047440987 0.039834522 -0.99807942 0.00067672634
-0.034890164 -0.095273316 0.17405501 -0.058432925 0.034751285 -0.99768633 0.00041142106
-0.024488211 -0.094945423 0.17354035 -0.064065129 0.04436205 -0.99695921 9.6385083e-05
-0.014082178 -0.098914906 0.17278624 -0.070679702 0.054856449 -0.9959895 8.7767912e-05
-0.0063422965 -0.093233384 0.17263071 -0.073664866 0.051070467 -0.99597454 3.4985824e-05
0.0040912605 -0.094988249 0.17155574 -0.085073039 0.051572792 -0.99503905 3.1895219e-05
0.014327546 -0.095885932 0.17054603 -0.09188129 0.053861879 -0.99431223 1.4755025e-05
-0.3329131 -0.08536464 0.1708937 0.1425962 0.03601345 -0.98912549 0.00054677529
-0.32850426 -0.085400343 0.1714035 0.12731119 0.036668845 -0.99118471 0.00060981291
-0.31477341 -0.084406629 0.17244892 0.078505948 0.037077248 -0.99622393 0.00018040024
-0.30544207 -0.083913408 0.17315377 0.064826228 0.034558397 -0.99729794 0.00014526249
-0.29642075 -0.083738416 0.17372824 0.0463106 0.033950701 -0.99834996 0.00016230985
-0.28488418 -0.085191593 0.17402102 0.039608352 0.030729713 -0.99874264 0.00015910952
-0.27543178 -0.081670508 0.1744439 0.054383811 0.038855236 -0.99776381 0.0018263299
-0.26567897 -0.084488392 0.17463036 0.044497889 0.049280893 -0.9977932 0.0029005953
-0.25556344 -0.085662149 0.17487738 0.033035975 0.060900755 -0.99759698 0.0032304164
-0.24325678 -0.083158746 0.17534623 0.0085556544 0.07546901 -0.99711144 0.0043966533
-0.2273749 -0.084110439 0.17576319 0.0024666367 0.043952093 -0.99903053 0.0016173347
-0.21851996 -0.089678586 0.17577484 0.016465249 0.041644778 -0.99899673 0.00010679897
-0.20780753 -0.088320434 0.17586793 0.005800915 0.04257891 -0.99907625 8.7595392e-05
-0.19517463 -0.086645544 0.17598033 0.015700154 0.020015636 -0.99967641 0.0026932554
-0.18392426 -0.08463046 0.17608896 0.0062238309 -0.0021268607 -0.99997836 0.0035170875
-0.17533906 -0.084501244 0.17611413 -0.0096232165 0.0069286092 -0.99992973 0.0032840376
-0.16452773 -0.084654883 0.17607047 -0.0026716983 0.0069225682 -0.99997252 0.0033701234
-0.14547786 -0.08380428 0.17606254 -0.0086363237 0.019959111 -0.99976349 0.0021093609
-0.13797428 -0.086118713 0.17594939 -0.00073874992 0.020340247 -0.99979287 0.0021534115
-0.12635913 -0.084482312 0.17599331 -0.0064256894 0.020511134 -0.99976903 0.0022073013
-0.11520224 -0.085758947 0.17589492 -0.004359269 0.036656406 -0.99931842 0.00035205481
-0.10302715 -0.084004074 0.17589058 0.034114216 0.028300403 -0.99901712 0.0044723921
-0.095520563 -0.086335182 0.17574339 0.030309744 0.024880491 -0.9992308 0.00505155
-0.083402559 -0.084395282 0.17574883 -0.008486785 0.019400125 -0.99977577 0.0048897238
-0.07338506 -0.086041845 0.17560174 -0.014330558 0.038694654 -0.99914837 0.0045840396
-0.062952325 -0.085570745 0.17556702 -0.04073019 0.035935991 -0.99852371 0.0044249431
-0.054282859 -0.086139031 0.17547919 -0.058024365 0.032385837 -0.99778974 0.0036061734
-0.044060849 -0.085044764 0.17507045 -0.043467995 0.0326082 -0.99852252 0.00042890926
-0.034557257 -0.083658099 0.17466514 -0.049674384 0.041757204 -0.9978922 0.00010291328
-0.025046699 -0.084464595 0.17413513 -0.057970855 0.041314509 -0.99746299 6.7688074e-05
-0.016201165 -0.0819574 0.17377743 -0.062423088 0.044349503 -0.99706388 5.5882698e-05
-0.0047860858 -0.081639722 0.17303382 -0.077776007 0.044939309 -0.99595755 6.5140106e-05
0.0031647237 -0.085443318 0.17214923 -0.082862459 0.047588132 -0.99542409 5.9521681e-05
0.015609532 -0.084276326 0.17102757 -0.093942128 0.045979284 -0.99451536 1.258758e-05
0.023697842 -0.082842983 0.17031969 -0.098275863 0.044701774 -0.99415469 1.3382937e-05
-0.33233669 -0.076917052 0.17125481 0.13249964 0.028395204 -0.99077624 0.00057269481
-0.32293624 -0.07540413 0.17214298 0.10132346 0.026863931 -0.99449086 0.00037032738
-0.31411535 -0.074387401 0.17283852 0.076332659 0.034485161 -0.99648589 8.8330788e-05
-0.30376095 -0.074391022 0.17359903 0.058541678 0.035114869 -0.99766713 0.00011716538
-0.29237562 -0.070874624 0.17429207 0.043233771 0.032506738 -0.99853599 6.8918343e-05
-0.28454852 -0.07772401 0.17431046 0.042382389 0.039138496 -0.99833459 8.5535175e-05
-0.27455017 -0.074796766 0.17472237 0.064097926 0.038853701 -0.99718702 0.0028762654
-0.26380631 -0.078174688 0.17492194 0.058470398 0.059130989 -0.99653631 0.0046033496
-0.25491172 -0.074874356 0.17641574 0.040479764 0.063552536 -0.99715722 0.0059626438
-0.24262813 -0.076872565 0.17560378 0.0044601229 0.081365108 -0.99667436 0.0051471042
-0.23678012 -0.076968849 0.17577046 0.00066959701 0.06079568 -0.99814999 0.0040678792
-0.225959 -0.074666671 0.1761387 -0.014385266 0.033646297 -0.99933028 0.002443223
-0.21477623 -0.072018847 0.17645384 0.012707921 0.034925271 -0.99930912 3.9624359e-05
-0.20490031 -0.074679397 0.17640656 0.0058922488 0.034837913 -0.99937558 5.1382344e-06
-0.19320886 -0.072410971 0.17652686 0.003042964 0.036039226 -0.99934578 6.6544417e-06
-0.18660572 -0.075063363 0.17644638 0.0022299516 0.036321484 -0.99933767 1.5911407e-06
-0.17479979 -0.073853716 0.17650715 -0.00025992608 0.036309358 -0.99934059 1.0487433e-05
-0.16657051 -0.075096011 0.17644414 -0.0014211081 0.038547944 -0.99925566 2.0964646e-06
-0.1590744 -0.07244774 0.1765188 -0.0026803331 0.036975894 -0.99931252 3.1226373e-05
-0.14683856 -0.074604519 0.17640392 -0.0031028099 0.038010366 -0.99927258 1.7571385e-05
-0.13587147 -0.071202137 0.17649683 -0.0033093654 0.035668861 -0.99935818 1.2438608e-05
