# .PCD v0.7 - Point Cloud Data file format
VERSION 0.7
FIELDS x y z normal_x normal_y normal_z curvature
SIZE 4 4 4 4 4 4 4
TYPE F F F F F F F
COUNT 1 1 1 1 1 1 1
WIDTH 577
HEIGHT 1
VIEWPOINT 0 0 0 1 0 0 0
POINTS 577
DATA ascii
0.0043505793 0.29418847 0.037900805 -0.0051658563 0.0068072123 -0.99996346 0.049597908
0.016923686 0.29319927 0.038363878 -0.097939998 -0.0003707321 -0.99519223 0.049091142
0.028381288 0.29298913 0.038242847 -0.028879726 -0.014625628 -0.9994759 0.048071526
0.038816743 0.29250807 0.036970764 -0.0039497009 -0.0039110007 -0.99998456 0.049042322
0.04336068 0.29224044 0.037736066 0.017133225 -0.029784456 -0.9994095 0.048588276
0.052797534 0.2940577 0.038036473 0.033891115 0.027459968 -0.99904823 0.051783755
0.063198738 0.29432485 0.038046639 0.028096188 0.048064534 -0.99844897 0.055287138
0.072520539 0.29322976 0.036591724 -5.4885528e-05 0.049273517 -0.99878532 0.049954195
0.08373487 0.29398289 0.038945306 -0.025799172 0.035343442 -0.99904215 0.042810269
0.1037153 0.29250112 0.036362063 -0.058071755 0.0013985231 -0.99831146 0.031895019
0.14583005 0.29787672 0.036602579 -0.25527591 -0.14998472 -0.95516431 0.010040234
0.15679331 0.2939586 0.031856116 -0.30576658 -0.13505875 -0.94247854 0.012001491
0.16252886 0.29335776 0.032901421 -0.41216281 -0.13602331 -0.90089923 0.017224509
0.17081444 0.29306576 0.031072386 -0.51305979 -0.13340166 -0.8479231 0.027586784
-0.1659835 0.3040472 0.030887261 0.39315754 -0.16267626 -0.904966 0.013005246
-0.15235496 0.30966005 0.033123758 0.26621392 -0.15107884 -0.95200068 0.0026916827
-0.14529365 0.30640686 0.035297807 0.24889806 -0.15776946 -0.95559335 0.0035369748
-0.13777965 0.30547217 0.037362736 0.22054197 -0.13688663 -0.96572417 0.0072579789
-0.12490039 0.30791831 0.039828025 0.16395165 -0.098806508 -0.98150754 0.013395384
0.12941472 0.30691144 0.039018586 -0.17451601 -0.144475 -0.97399747 0.015147832
0.13133276 0.30481264 0.039018676 -0.21402743 -0.15451467 -0.96452963 0.011587352
0.14572579 0.30563122 0.035307996 -0.24406251 -0.13320407 -0.96056759 0.004989963
0.1566788 0.30320069 0.032604218 -0.29457119 -0.13763249 -0.94566649 0.0044837995
0.16332243 0.30406982 0.0314781 -0.39144412 -0.11661645 -0.91278267 0.015308528
-0.15988083 0.31692085 0.030453965 0.32711866 -0.13491751 -0.93530244 0.0079001402
-0.14023744 0.31066445 0.035669088 0.23564222 -0.15291665 -0.9597339 0.0029186956
-0.13325761 0.31247813 0.036962673 0.22098649 -0.14758524 -0.96404541 0.0026132353
-0.12735198 0.31333011 0.03816738 0.17411219 -0.16891138 -0.97013086 0.00087315479
-0.11449834 0.31668639 0.039231006 0.13762556 -0.18207447 -0.97360575 0.00082283502
0.11898161 0.31437361 0.039454337 -0.14766034 -0.14229302 -0.97874874 0.0079656336
0.12454698 0.31109768 0.039208509 -0.14638098 -0.15205322 -0.97747248 0.011050303
0.13915342 0.31498319 0.035253845 -0.2315391 -0.13690835 -0.96314365 0.0051895534
0.14777766 0.31558248 0.033244014 -0.23787676 -0.13372602 -0.96204573 0.0024085119
0.15543777 0.31634817 0.031445019 -0.26548421 -0.13477024 -0.95464927 0.003582011
0.1614798 0.31815514 0.030059434 -0.31086606 -0.12949547 -0.94159079 0.0080822911
-0.15039802 0.32793716 0.030830193 0.23056306 -0.15182504 -0.96113986 0.0013813593
-0.14842418 0.32417601 0.031841114 0.22519243 -0.15529741 -0.96185815 0.0012534657
-0.1320556 0.32344285 0.035547897 0.20601316 -0.16195033 -0.96505475 0.0015738081
-0.12547636 0.32539487 0.036666658 0.16560858 -0.1640808 -0.97244602 0.00077521487
-0.11762383 0.32446837 0.037921663 0.14416043 -0.16475759 -0.97574216 0.00072616758
-0.09953443 0.32971585 0.038843397 0.099614754 -0.17598221 -0.9793402 0.00027689344
0.10724694 0.32943314 0.0378391 -0.12122978 -0.17916021 -0.97632217 0.00014622853
0.12764506 0.32060063 0.036931269 -0.17196509 -0.17225789 -0.96992534 0.00071431848
0.1369613 0.32720757 0.033890031 -0.21190311 -0.15002368 -0.96570694 0.0018338002
0.14029382 0.32728958 0.033140391 -0.22650911 -0.14658046 -0.96291625 0.0018328744
0.15401015 0.32565966 0.030405596 -0.22391027 -0.13503121 -0.9652102 0.0020476114
-0.15031278 0.33123967 0.030309636 0.23372984 -0.14674388 -0.96116418 0.0017184784
-0.14258449 0.33710945 0.031022996 0.21947704 -0.14419781 -0.96490252 0.0013561615
-0.13883817 0.33307281 0.032513112 0.22133756 -0.15264657 -0.96317631 0.0013697601
-0.12631823 0.33244985 0.035416849 0.16747849 -0.15643984 -0.97338456 0.00077960826
-0.11959559 0.33810699 0.036042187 0.13917556 -0.15592948 -0.97791415 0.00085032766
-0.1063522 0.33643687 0.036705002 0.10639918 -0.16648267 -0.98028713 0.0003194829
-0.09331774 0.33202443 0.03928021 0.096551791 -0.17996366 -0.97892332 0.00020708475
-0.083288327 0.33753484 0.039174981 0.082720682 -0.17657822 -0.9808045 0.00020533417
-0.075653359 0.33990365 0.039179325 0.065625697 -0.17443897 -0.98247868 7.5265983e-05
0.084353559 0.33455336 0.039643742 -0.082261167 -0.19043113 -0.97824794 0.00024517521
0.097158112 0.33334208 0.038515266 -0.10510817 -0.18237546 -0.97759473 0.00014710259
0.10354163 0.33396462 0.037532136 -0.10748271 -0.17411445 -0.97884196 0.00019519489
0.1165408 0.33532104 0.03579523 -0.14057899 -0.16263525 -0.97662038 0.00054222543
0.13627064 0.33370274 0.032985244 -0.19785382 -0.16078711 -0.96695471 0.00108055
0.14436971 0.33232147 0.031411342 -0.20770602 -0.1284164 -0.96972537 0.002154452
-0.14148273 0.34417593 0.030130964 0.22103091 -0.1495923 -0.96372581 0.0010620878
-0.1311007 0.34764233 0.031891659 0.18796121 -0.14859729 -0.97087044 0.0012674779
-0.12554675 0.34320948 0.033889122 0.15958016 -0.14800926 -0.9760263 0.0010545027
-0.11442319 0.34593534 0.034078538 0.12467634 -0.15723868 -0.97965902 0.00083003129
-0.10687394 0.34369257 0.035343703 0.098536283 -0.16238312 -0.98179537 0.00031317733
-0.09301237 0.3450993 0.037000414 0.08530499 -0.17495018 -0.98087484 0.00024308593
-0.082425825 0.34614974 0.037697539 0.082050055 -0.17660111 -0.98085672 0.00018196725
-0.075042859 0.34719571 0.03791992 0.059139464 -0.17942886 -0.98199171 2.2935841e-05
-0.064617768 0.34844577 0.038279407 0.052240625 -0.17821933 -0.98260307 1.4331896e-05
-0.04524792 0.349572 0.039054774 0.036640365 -0.18068868 -0.98285758 2.9856063e-05
-0.037617028 0.34828573 0.039486155 0.030612994 -0.18057227 -0.98308522 2.1032389e-05
0.024006018 0.34899911 0.039690107 -0.02340572 -0.18211885 -0.98299795 1.3861704e-05
0.045647938 0.34827164 0.039274558 -0.036487624 -0.18111591 -0.98278469 2.5281573e-05
0.05514241 0.34764963 0.038946532 -0.047234386 -0.17911065 -0.98269439 2.5760759e-05
0.064166635 0.34486261 0.03893901 -0.051648833 -0.17913619 -0.98246759 1.5520385e-05
0.076562196 0.34674352 0.037917852 -0.069000527 -0.17454763 -0.9822281 0.00011483867
0.086763293 0.34030369 0.038491875 -0.084855199 -0.18318127 -0.97941017 0.00020141098
0.094336927 0.34652784 0.036565829 -0.090716176 -0.17246094 -0.98083019 0.00033083674
0.10365011 0.34592283 0.035388984 -0.097637646 -0.17122175 -0.98038256 0.00033645757
0.11260115 0.34264126 0.034739058 -0.12737876 -0.16320482 -0.97833461 0.00048581557
0.12629659 0.34481522 0.033449702 -0.15187642 -0.14880517 -0.97713387 0.00063587981
0.13506857 0.34526128 0.031376116 -0.1851185 -0.14349312 -0.97218347 0.0012554768
-0.12564263 0.35673511 0.031736325 0.15593882 -0.15016164 -0.97628617 0.0010957456
-0.11754121 0.35097134 0.034501463 0.12255287 -0.15218566 -0.98072439 0.00090680696
-0.10543273 0.35487145 0.033606343 0.093732782 -0.16536036 -0.98176885 0.00042229609
-0.09151648 0.35563233 0.035318021 0.083966441 -0.17016107 -0.98183239 0.00023120972
-0.084938474 0.35481381 0.035977341 0.084226862 -0.17616388 -0.98075086 0.00016523447
-0.077771962 0.35539877 0.036249455 0.068381377 -0.18041793 -0.98121011 0.00011106294
-0.053256743 0.35338551 0.038008254 0.044280253 -0.17882955 -0.9828831 3.2087592e-05
-0.043693472 0.35438994 0.038194776 0.034246255 -0.18037777 -0.98300099 2.7037268e-05
-0.037264466 0.35709518 0.037848376 0.031398796 -0.1794996 -0.98325682 2.4448284e-05
-0.026516164 0.35215777 0.039047867 0.02538112 -0.1811808 -0.98312223 2.8288709e-06
-0.015621443 0.35261118 0.039230552 0.020011457 -0.18149076 -0.98318905 1.2944611e-05
0.0063763587 0.35365817 0.039266698 -0.0098011214 -0.18044879 -0.98353559 5.4615808e-05
0.016643956 0.35244447 0.039236031 -0.020145517 -0.18130741 -0.9832201 2.277521e-05
0.025482628 0.35681665 0.038193662 -0.024355935 -0.18145072 -0.98309833 7.7098593e-06
0.064312592 0.35978311 0.036170527 -0.050813142 -0.17880251 -0.98257196 7.486392e-06
0.074266985 0.35546118 0.03643148 -0.05664815 -0.17628157 -0.98270839 2.012701e-05
0.10737096 0.35293466 0.033672959 -0.10215072 -0.16270491 -0.98137271 0.00054463733
0.11488342 0.35422277 0.032996338 -0.12594852 -0.1563344 -0.97964102 0.0006443006
0.12212554 0.35524201 0.032757591 -0.13654289 -0.13868883 -0.98087782 0.00073952461
-0.12003137 0.36475623 0.031751271 0.12428775 -0.1598545 -0.97928494 0.0011639994
-0.11581907 0.3658061 0.03167 0.10594514 -0.16699293 -0.98024946 0.0009069572
-0.10305145 0.36136502 0.032769553 0.080283798 -0.16394737 -0.98319668 0.00039613585
-0.095614016 0.36439073 0.033193685 0.074561059 -0.16793332 -0.98297465 0.00039822428
-0.085533485 0.36258683 0.034531526 0.08042258 -0.17515583 -0.98125052 0.00016085622
-0.075198703 0.36998856 0.033757184 0.064172357 -0.17728336 -0.98206538 0.0001088639
-0.062841192 0.36697382 0.034939542 0.048092995 -0.17804839 -0.98284572 1.5670845e-05
-0.055641569 0.36645642 0.035412788 0.044971623 -0.17863753 -0.98288673 2.2469623e-05
-0.047696382 0.36446285 0.036191959 0.039080821 -0.17935932 -0.98300707 3.8791513e-05
-0.034600038 0.36512476 0.036388315 0.028245006 -0.18098265 -0.98308057 2.1333626e-05
-0.024729498 0.36561558 0.036528245 0.022398842 -0.18156035 -0.98312473 1.9416782e-06
-0.013746871 0.36117685 0.037646152 0.016859932 -0.18121004 -0.98329985 2.846996e-05
-0.0070659812 0.36115521 0.037808146 0.0083203409 -0.1811808 -0.98341459 7.0180584e-05
0.0040310398 0.3618027 0.037754595 -0.0047767186 -0.18119334 -0.98343593 8.0620186e-05
0.013238162 0.36686707 0.036557622 -0.014132724 -0.18350081 -0.98291796 3.5743076e-05
0.023582134 0.36556709 0.036563676 -0.0235587 -0.18195008 -0.98302555 5.5449368e-06
0.057592779 0.36628592 0.035336193 -0.0480255 -0.18019933 -0.98245704 1.5833919e-05
0.072612934 0.3635112 0.035045829 -0.056202333 -0.17689244 -0.98262423 1.4535963e-05
0.083898343 0.3648375 0.03421022 -0.082734652 -0.17426796 -0.98121643 0.00017009758
0.10400235 0.36648324 0.031738833 -0.079032205 -0.16856781 -0.98251659 0.0005178799
0.11748772 0.36224243 0.03240623 -0.11902615 -0.15382484 -0.98090297 0.0010644834
-0.11396965 0.3715677 0.030817747 0.097535253 -0.17049097 -0.98052007 0.00071443873
-0.10331418 0.37314942 0.030685624 0.078158796 -0.17399977 -0.98163909 0.00044901701
-0.096806109 0.37409341 0.031369239 0.072333433 -0.17783467 -0.98139828 0.00041168684
-0.08855474 0.37566474 0.032092337 0.070789598 -0.17683978 -0.98169065 0.00037170088
-0.064275809 0.37485015 0.033486519 0.04840726 -0.17966847 -0.98253548 1.0953338e-05
-0.056014799 0.37309813 0.034217633 0.045061905 -0.17983964 -0.98266327 1.5679901e-05
-0.049087409 0.3797614 0.033421781 0.036979206 -0.18134063 -0.98272485 2.4556724e-05
-0.036769323 0.37683046 0.034227736 0.02920635 -0.18207991 -0.98284984 1.7884313e-05
-0.013709835 0.3760812 0.034897313 0.017122529 -0.18191195 -0.98316574 3.3321325e-05
-0.0013891661 0.37872863 0.034731537 -0.00083298498 -0.18269032 -0.98317015 9.1685703e-05
0.0013943324 0.373705 0.035597324 -0.0043964176 -0.18097401 -0.98347807 7.2995914e-05
0.016879233 0.37827498 0.034444436 -0.018229099 -0.1838726 -0.98278099 1.6424236e-05
0.027376559 0.37026599 0.035585273 -0.023504321 -0.18201995 -0.98301393 1.525015e-06
0.039767675 0.37589625 0.03431911 -0.03103978 -0.18010435 -0.98315763 2.3141121e-05
0.049841441 0.37637243 0.033970989 -0.037213802 -0.18052268 -0.98286659 3.4287346e-05
0.064707197 0.37693372 0.033104345 -0.048902091 -0.17860563 -0.98270476 7.0773317e-06
0.07567358 0.37531555 0.032820545 -0.067797452 -0.17651056 -0.98196107 0.00013546245
0.084162317 0.37519336 0.032407682 -0.082107484 -0.17509347 -0.98112214 0.00017864404
0.11039391 0.37168586 0.030019052 -0.087262623 -0.16324422 -0.982719 0.00065921422
-0.086680554 0.38360503 0.030729666 0.06884174 -0.18001281 -0.98125237 0.00026630837
-0.079554334 0.38891667 0.030094199 0.069412567 -0.17898759 -0.98139971 0.0001726145
-0.068096764 0.38467833 0.03149344 0.052616734 -0.17978407 -0.98229784 4.7596161e-05
-0.05462246 0.38537291 0.032072887 0.041212577 -0.18075153 -0.98266494 2.1279791e-05
-0.045436859 0.38452092 0.032631349 0.032560401 -0.18188681 -0.98278022 3.4897123e-05
-0.038558979 0.38882577 0.031964801 0.029629091 -0.1824476 -0.98276907 2.0425487e-05
-0.026375061 0.387658 0.032486785 0.023072965 -0.18420812 -0.98261642 6.4549718e-06
-0.016338835 0.38080153 0.034021668 0.020840611 -0.18322574 -0.98284996 7.7064924e-06
-0.0068911347 0.38416219 0.033638768 0.0090497779 -0.18297185 -0.98307657 5.4821288e-05
0.0038098188 0.3827987 0.033963684 -0.0076345131 -0.1848658 -0.98273414 5.2091611e-05
0.015348203 0.38626194 0.03301993 -0.019059805 -0.18481973 -0.98258758 4.2594452e-06
0.024290701 0.38930336 0.03220465 -0.021455107 -0.18454042 -0.98259073 1.7606366e-06
0.033201266 0.38238084 0.033345021 -0.027165843 -0.18096763 -0.98311383 1.2469133e-05
0.04810584 0.3873086 0.032025758 -0.034490451 -0.18165369 -0.98275757 3.6775062e-05
0.057672206 0.38254705 0.032458119 -0.044877551 -0.17953466 -0.98272747 1.9277197e-05
0.063569397 0.389947 0.030723561 -0.046640761 -0.18038827 -0.98248905 1.4944567e-05
0.073717609 0.3869887 0.030759122 -0.054778937 -0.18074268 -0.98200375 4.139193e-05
0.084180109 0.38596025 0.030412691 -0.086743787 -0.17676091 -0.98042393 0.00024430972
-0.052038938 0.39227736 0.030888021 0.039320849 -0.18216762 -0.98248094 2.8389655e-05
-0.042194486 0.39426127 0.030830687 0.030569883 -0.18342288 -0.98255873 3.4064458e-05
-0.03653267 0.39650998 0.030543115 0.027035559 -0.18680005 -0.98202586 1.7478804e-05
-0.026204221 0.39572436 0.030918919 0.021603635 -0.18601659 -0.9823091 2.7595581e-06
-0.016519466 0.39240685 0.031761099 0.020681776 -0.18593444 -0.98234445 5.8210808e-06
-0.0057921992 0.39618099 0.031274851 0.0055238036 -0.18871473 -0.98201644 5.0747742e-05
0.025856493 0.39357805 0.031333536 -0.022295572 -0.18507327 -0.98247176 5.9859258e-06
0.035969924 0.39536026 0.030765593 -0.027407 -0.18433623 -0.98248112 1.2535947e-05
0.045540832 0.39470178 0.030676877 -0.034066077 -0.18483455 -0.98217899 3.2493899e-05
-0.016403552 0.40021285 0.030305944 0.017933577 -0.19093502 -0.98143888 1.2436142e-05
-0.0015704283 0.40074751 0.030476348 0.00095995527 -0.18803325 -0.98216218 6.9537389e-05
0.00023615942 0.40155467 0.030345846 -0.0021957187 -0.188913 -0.98199141 6.3739346e-05
0.019706059 0.40121138 0.030051246 -0.018209813 -0.19085245 -0.98144984 1.2038974e-05
0.0013979762 -0.48019779 0.042646199 -0.012148659 0.98371351 -0.17933226 0.019207828
-0.073872373 -0.47259414 0.042618506 0.12936479 0.95016694 -0.28363284 0.017538486
-0.066294819 -0.47251597 0.043413397 0.12564188 0.94975716 -0.28666258 0.01975669
-0.053676594 -0.4739823 0.044906843 0.19582984 0.93518138 -0.295104 0.020584485
-0.045001056 -0.47501144 0.042203199 0.13879511 0.97872609 -0.15109998 0.011965455
-0.035610057 -0.47772089 0.042972781 0.079358101 0.9798587 -0.18324625 0.015337539
-0.024262555 -0.47756475 0.042390406 0.040320423 0.97939199 -0.19790314 0.015434743
-0.014089593 -0.47507295 0.043089885 0.021369226 0.97950971 -0.20026007 0.01689849
-0.0040559163 -0.4774906 0.045590118 0.019088082 0.96973711 -0.24340424 0.019985922
0.0063524023 -0.47747177 0.048246235 0.009104589 0.96931595 -0.24564953 0.020691825
0.013925004 -0.47836393 0.04374624 -0.032838579 0.98288244 -0.18128335 0.016079988
0.02307214 -0.47859949 0.044140141 -0.075465448 0.98150784 -0.1759183 0.014643628
0.035317257 -0.47599915 0.04204917 -0.087372281 0.98323154 -0.16006827 0.010804935
0.044313312 -0.4754692 0.041173719 -0.091885492 0.98107439 -0.17044042 0.013268825
0.055698432 -0.47524548 0.045405496 -0.10704125 0.96201652 -0.25113019 0.025189312
0.063478567 -0.47277579 0.046394598 -0.13396803 0.95428079 -0.26720935 0.022663964
0.073017851 -0.47295585 0.042295456 -0.16097279 0.94680417 -0.27865705 0.023876311
0.083213881 -0.47054952 0.040969606 -0.18905604 0.94747961 -0.25795379 0.016556894
-0.12180316 -0.46085483 0.041091107 0.25053522 0.88873082 -0.38391346 0.038208291
-0.10413232 -0.46459231 0.042752717 0.34635797 0.89356112 -0.2856302 0.025824877
-0.090069309 -0.46879062 0.041256584 0.24976932 0.93675625 -0.24515899 0.020695359
-0.086137883 -0.46726504 0.048725244 0.1762137 0.91288429 -0.36822677 0.027154109
-0.062297393 -0.46914989 0.040652726 0.16214156 0.95550436 -0.24641733 0.020703496
0.063779019 -0.46892512 0.040715616 -0.127487 0.96061498 -0.24691275 0.024637276
0.099172443 -0.46658888 0.041022066 -0.33503324 0.90402395 -0.26550579 0.040767685
0.10878535 -0.46145907 0.046687365 -0.3193635 0.88336688 -0.34303039 0.066300929
0.11534818 -0.46062458 0.04365743 -0.24739188 0.9114244 -0.32879004 0.069339097
-0.14211819 -0.45337731 0.044720232 0.27468336 0.83114433 -0.48347509 0.032943234
-0.12463029 -0.45438308 0.047482006 0.23748809 0.79917485 -0.55219471 0.056841575
-0.11549766 -0.45716938 0.044920962 0.27317938 0.82945919 -0.48720685 0.049275719
0.11636986 -0.45723677 0.046485193 -0.20493625 0.88692552 -0.41396162 0.089575917
0.12307661 -0.45598871 0.045196477 -0.22021312 0.87284833 -0.4354789 0.073979259
0.13300733 -0.45577869 0.045570273 -0.21710588 0.86648721 -0.44951639 0.057172757
0.14213121 -0.4535197 0.045165885 -0.33930373 0.81997442 -0.46099338 0.032947376
-0.160359 -0.44531572 0.044149674 0.53333861 0.68719351 -0.49326965 0.043093767
-0.1555932 -0.44533929 0.046441499 0.48092049 0.68311006 -0.54961455 0.039877724
-0.14577074 -0.44621161 0.045190681 0.34692222 0.71378005 -0.6084103 0.039930772
-0.13566884 -0.44804537 0.044515703 0.26511237 0.78632468 -0.55804026 0.047218107
-0.11388963 -0.44859943 0.04760173 0.27656654 0.69346619 -0.66529357 0.070904046
0.11463587 -0.44016153 0.048994247 -0.27238896 0.58251035 -0.76582372 0.098453522
0.13715932 -0.44825533 0.04261107 -0.25564522 0.81284386 -0.5233835 0.062598258
0.14153558 -0.44588605 0.044285595 -0.32909608 0.72585249 -0.60401481 0.053611867
0.15680271 -0.44415072 0.045722067 -0.52801985 0.61553937 -0.58506954 0.032127656
0.16166192 -0.4443078 0.044087995 -0.59397686 0.65747952 -0.4635863 0.034584947
-0.17025688 -0.43111265 0.04080179 0.80857897 0.4147251 -0.41737661 0.031484526
-0.16731511 -0.43223152 0.045130126 0.68035686 0.46520144 -0.5663057 0.040800065
0.15951255 -0.43640068 0.049906407 -0.53557682 0.50947613 -0.67349213 0.038569909
0.16515729 -0.43526912 0.045616891 -0.63812488 0.51007491 -0.57673228 0.034468122
-0.17083931 -0.42525065 0.042305257 0.80906314 0.30886462 -0.50001949 0.028905906
-0.16769944 -0.42443079 0.047354698 0.72397482 0.2933346 -0.62435186 0.038563538
0.1705427 -0.42004579 0.044667855 -0.79423416 0.26903462 -0.54480493 0.027119951
-0.17028522 -0.41603747 0.046604931 0.74705631 0.12386727 -0.65311855 0.029891901
-0.16982575 -0.41133723 0.049785189 0.68698221 0.076910436 -0.72259277 0.032738741
0.16848582 -0.41449267 0.048957855 -0.72484851 0.22345518 -0.65166128 0.030728135
0.17256233 -0.41682664 0.040749483 -0.88299823 0.2095495 -0.42000359 0.02115549
-0.1731656 -0.40056726 0.045069065 0.76881951 0.084068798 -0.6339156 0.022178814
0.172153 -0.40574795 0.04592203 -0.85513538 0.12160709 -0.50393969 0.030245118
-0.17368387 -0.39288875 0.046135053 0.77734739 0.077104047 -0.62432849 0.027447483
0.17459479 -0.39793485 0.042394057 -0.88786834 0.10663462 -0.44756988 0.026309527
-0.17638239 -0.38760376 0.041138023 0.90524167 0.074533328 -0.41830885 0.023290152
0.17526495 -0.38629636 0.044241741 -0.87289476 0.10043328 -0.47745985 0.031951834
-0.17518558 -0.37574187 0.047186762 0.78037292 0.10088208 -0.61712307 0.024795173
0.17635207 -0.37581539 0.04459168 -0.82944882 0.10493078 -0.54863846 0.028813327
-0.17674211 -0.36650991 0.045416072 0.81345481 0.094310045 -0.57393104 0.020395553
0.17717376 -0.36479706 0.044716865 -0.85828573 0.054710537 -0.51024741 0.018892499
-0.1763536 -0.3573997 0.0476369 0.81089044 0.11766776 -0.573246 0.023647442
0.17896494 -0.35460848 0.042350221 -0.88304484 0.072852217 -0.46359926 0.01673116
-0.17874287 -0.3418107 0.044757351 0.89654458 0.057629857 -0.43918851 0.01482124
0.17809816 -0.34466794 0.045746822 -0.84102672 0.097545236 -0.53212684 0.017319117
0.18019716 -0.34296536 0.041401841 -0.90882736 0.10163599 -0.4046022 0.014163855
-0.18001318 -0.33341366 0.043206695 0.88281834 0.01337234 -0.46952432 0.01637161
-0.17773443 -0.3381404 0.047592282 0.85618973 0.023859251 -0.51611036 0.012586006
0.17862207 -0.3349672 0.046115208 -0.80369282 0.061680734 -0.5918389 0.014583743
0.18034527 -0.33264357 0.042519409 -0.9194743 0.022562552 -0.39250222 0.013825884
-0.18026586 -0.32777005 0.043042533 0.89466333 0.032484904 -0.44555837 0.014983195
0.1792949 -0.32443926 0.04529937 -0.88782173 0.017527107 -0.45985362 0.013152084
-0.18056782 -0.31418392 0.043088883 0.87357891 0.013409414 -0.48649779 0.011555441
0.17892686 -0.31637117 0.046567246 -0.87151212 -0.01172513 -0.49023366 0.010115099
0.18132351 -0.31541434 0.041448087 -0.90298146 0.0138963 -0.42945477 0.01123703
-0.1781846 -0.3016181 0.048948403 0.81967688 0.0021999695 -0.57282197 0.0085673817
0.18118763 -0.30856988 0.041706964 -0.90087408 0.012165621 -0.43390998 0.011318826
-0.17799997 -0.29853597 0.049537592 0.82731998 0.0031005195 -0.56172228 0.0083226003
0.18104501 -0.29585427 0.042267282 -0.8673963 -0.021990925 -0.49713176 0.010049552
-0.18095574 -0.28762907 0.042913675 0.88681823 0.024716631 -0.46145695 0.012825021
0.18201765 -0.28628436 0.040207487 -0.88700175 0.015648963 -0.46150079 0.010972049
-0.18226321 -0.27417397 0.040156327 0.92893308 0.011443479 -0.37007073 0.0081376629
0.18144184 -0.2741724 0.042265549 -0.87839025 0.00045119919 -0.47794393 0.0085130045
-0.17970574 -0.26365843 0.046655308 0.83418632 -0.092316583 -0.54370099 0.033618815
0.17857435 -0.26350001 0.049161822 -0.84595919 -0.096618876 -0.52442151 0.027669445
0.18155476 -0.26355925 0.042570315 -0.87773275 -0.10655808 -0.46715149 0.032578487
-0.18130779 -0.25361577 0.042414073 0.84872264 -0.1963622 -0.4910315 0.087891102
-0.17791851 -0.25210288 0.048688043 0.8043825 -0.22252558 -0.55086404 0.092500344
0.17972939 -0.25190967 0.045161247 -0.84810507 -0.22078787 -0.48163304 0.073179848
0.18066511 -0.25118318 0.042633269 -0.87628466 -0.23605116 -0.42000598 0.075880542
-0.18113692 -0.24622625 0.043419678 0.81412131 -0.15321434 -0.56011784 0.11171508
-0.17649329 -0.24484375 0.043904047 0.78478414 -0.31920481 -0.53124571 0.12788014
-0.16599771 -0.24522316 0.045381952 0.82117373 -0.33035389 -0.46533859 0.13273102
0.16396891 -0.24465445 0.043425173 -0.80794376 -0.39863887 -0.43395141 0.081202112
0.17581019 -0.24714375 0.045936819 -0.82221287 -0.26969725 -0.50122792 0.079507619
0.18056048 -0.24702486 0.044757117 -0.83679974 -0.23706715 -0.49352342 0.090736844
-0.18039165 -0.2329812 0.04523303 0.86416382 -0.13383797 -0.4850859 0.15283877
-0.16449928 -0.23234206 0.044611327 0.91834491 -0.24700585 -0.30924231 0.17003959
-0.15871546 -0.23516548 0.04273745 0.92806685 -0.33343041 -0.16587986 0.14759466
0.15890408 -0.2382862 0.044967223 -0.90833753 -0.29636332 -0.29511309 0.12044308
0.16417408 -0.23364322 0.046746325 -0.93545508 -0.23347594 -0.26535377 0.12783855
-0.18024702 -0.22175589 0.045703251 0.88566911 0.036441859 -0.4628846 0.16070771
-0.17939223 -0.22376539 0.047834989 0.8003723 0.086228982 -0.59326953 0.14908248
-0.16407511 -0.22481778 0.048118681 0.97674102 -0.032973282 -0.21187204 0.15279837
-0.15915681 -0.22352169 0.045363575 0.99252397 -0.052080728 -0.1103798 0.13577548
0.15896101 -0.22688806 0.042889632 -0.98350406 -0.12724075 -0.12856707 0.14578366
0.16425943 -0.2234913 0.046956792 -0.97165859 -0.0047574406 -0.23634087 0.13835125
0.18138796 -0.2238065 0.042892843 -0.90065295 -0.021086466 -0.43402728 0.16082902
-0.18035825 -0.21047822 0.045684379 0.86928827 -0.023654077 -0.49373925 0.17072949
-0.17956039 -0.21866556 0.047525994 0.88001472 0.011432471 -0.47480881 0.15778126
-0.16409102 -0.2138876 0.048829995 0.98345298 0.014742631 -0.18056288 0.14757815
-0.15908556 -0.21699774 0.042566344 0.99743527 0.055724479 -0.044916935 0.15494026
0.15903211 -0.21053766 0.040298238 -0.99869084 0.023667378 0.045348667 0.16068676
0.16501565 -0.21406162 0.042498559 -0.98053241 0.048395518 -0.19029993 0.16993923
0.1787864 -0.21818569 0.049510431 -0.86150593 0.10484162 -0.4968057 0.14486387
0.18143229 -0.21321982 0.042882282 -0.87894285 0.22060345 -0.42283994 0.1433256
-0.18139118 -0.20569247 0.043163732 0.88358545 0.025930127 -0.46755156 0.18888348
-0.178882 -0.20648697 0.049540974 0.88300675 -0.0082669267 -0.4692876 0.16661924
-0.16449481 -0.20546483 0.046753146 0.98007727 -0.094506018 -0.17469171 0.16501307
0.15954281 -0.20661142 0.047622219 -0.99590713 0.049057309 -0.075910106 0.14106588
0.16407284 -0.20190339 0.049811769 -0.98809671 0.011077788 -0.15343465 0.15552978
0.17908315 -0.20691973 0.049018335 -0.84251958 0.056235261 -0.5357222 0.14810127
0.1824334 -0.20749055 0.04046477 -0.89590746 0.15777224 -0.41528034 0.17948934
-0.18086264 -0.19727165 0.04470855 0.88733327 -0.14757192 -0.43687779 0.17473373
-0.17955229 -0.1948729 0.048104897 0.85882956 -0.14558382 -0.49113855 0.16046327
-0.16446154 -0.19433863 0.047784593 0.98594987 0.077691011 -0.147875 0.15206507
-0.15936136 -0.19603167 0.043956619 0.99896729 0.033772338 -0.030392788 0.14604683
0.15983641 -0.19910979 0.049199678 -0.99496913 0.033173133 -0.09453056 0.14121334
0.16470224 -0.19568482 0.046083927 -0.97986031 0.010689663 -0.19939819 0.15971045
0.18022281 -0.19362159 0.046425253 -0.83565164 -0.027530739 -0.54856932 0.14435291
-0.18113472 -0.18537955 0.044294778 0.91965026 -0.12773007 -0.37138712 0.19861571
-0.1651082 -0.18701445 0.043984968 0.98432434 -0.038496412 -0.17211534 0.16717017
-0.15957636 -0.18398926 0.045078136 0.99642038 -0.039845429 -0.074556969 0.14571969
0.15963808 -0.18161911 0.045480262 -0.99995941 0.007668179 0.0047307299 0.12747458
0.16504455 -0.1845403 0.04461823 -0.99884105 -0.03366388 -0.034398928 0.16453189
0.17942968 -0.18651228 0.048613906 -0.87057269 -0.067500532 -0.48738781 0.13848931
0.1816642 -0.18836789 0.042874284 -0.85619742 -0.090728052 -0.50862008 0.1654841
-0.18196785 -0.1746982 0.042450488 0.92717534 0.011128999 -0.37446225 0.17800966
-0.16017532 -0.17397788 0.048992515 0.98858309 -0.077272899 -0.129354 0.10031597
-0.15959485 -0.1763825 0.044289667 0.99893045 -0.015495959 -0.043564353 0.12258094
0.16488504 -0.17411865 0.04653316 -0.99916697 -0.0082643284 -0.03996392 0.14426427
0.18127514 -0.17648707 0.044144839 -0.90715146 -0.014808832 -0.42054361 0.15599439
-0.18170853 -0.16487592 0.043347646 0.86050415 0.070729375 -0.50450963 0.17166461
0.16467524 -0.16616222 0.048555866 -0.99894035 0.017737379 -0.042467576 0.13817842
0.18124804 -0.16684033 0.044440322 -0.89541 0.0086398441 -0.44515878 0.15992048
-0.18240002 -0.15082785 0.041806288 0.8851667 0.098463312 -0.45473596 0.17450666
-0.17982182 -0.15099773 0.048447371 0.86962283 0.14959934 -0.4705064 0.17583941
-0.16483311 -0.15825188 0.048088975 0.97935045 0.14104211 -0.14484403 0.12722158
-0.15964863 -0.1544906 0.042087801 0.9962002 0.085809961 0.014891149 0.13387571
0.15983695 -0.15714151 0.044597656 -0.99863714 0.050987896 -0.011142963 0.1345946
0.16391872 -0.15336618 0.046702787 -0.99091309 0.088034518 -0.10169158 0.15028355
0.17977317 -0.15351418 0.048512626 -0.87395245 0.0073851142 -0.48595533 0.17435232
0.18135765 -0.15155387 0.044557847 -0.83916616 0.055652436 -0.54102033 0.16343883
-0.18153706 -0.14460838 0.044183686 0.88203919 0.034992483 -0.46987495 0.17235117
-0.16324435 -0.14646496 0.044453025 0.99362171 -0.032854799 -0.10787207 0.16784666
-0.15962709 -0.14532258 0.040659174 0.99791002 0.032279883 0.055979226 0.16847327
0.15987486 -0.14903873 0.043983974 -0.9991585 0.040678393 -0.0052577048 0.14164791
0.16373773 -0.14516178 0.047432054 -0.98330116 -0.0063544274 -0.18187483 0.15819669
0.17950587 -0.14931652 0.04920559 -0.86841613 0.02336538 -0.49528515 0.15428233
0.18099695 -0.14525968 0.045585349 -0.83870101 0.053979367 -0.54191035 0.17441033
-0.18198942 -0.13766545 0.043129403 0.90352815 0.019030772 -0.42810577 0.18996517
-0.16256317 -0.13563275 0.047928654 0.98616433 -0.047159661 -0.15892097 0.13490036
0.15988553 -0.13379902 0.042131953 -0.98301864 -0.069637313 0.16977948 0.17153889
0.16625096 -0.13015696 0.041649286 -0.99069691 -0.054000638 -0.12491432 0.18407616
0.17980908 -0.13127273 0.048824415 -0.76379442 -0.076821767 -0.64087164 0.14038362
0.18229266 -0.13677728 0.042333141 -0.88449973 0.090576991 -0.4576636 0.17853794
-0.182064 -0.12442894 0.043155152 0.90200382 -0.068932883 -0.42618939 0.14899434
-0.16521336 -0.12515669 0.047877669 0.99893999 -0.040766917 -0.021377752 0.13366818
0.16246586 -0.12293205 0.04533428 -0.9987154 -0.050464913 -0.0045677926 0.16114627
0.18318382 -0.12699173 0.040114433 -0.90512985 -0.07380572 -0.41867968 0.18008691
-0.16540265 -0.11507148 0.047294274 0.99139291 -0.06064605 -0.11602645 0.1344188
0.16331241 -0.11351506 0.045736056 -0.98773372 -0.053468935 -0.1467077 0.13182892
0.17902167 -0.11356459 0.049417742 -0.80374467 0.092361964 -0.58776164 0.11481215
0.18211009 -0.11335068 0.04295063 -0.79599553 0.040335145 -0.603957 0.18182711
-0.18180452 -0.10820198 0.043574121 0.83853328 -0.021442639 -0.54442811 0.14433201
-0.17664844 -0.10561365 0.049817778 0.9116618 -0.0038916126 -0.410923 0.11347448
-0.16463308 -0.10776144 0.043823261 0.99499404 -0.0019057264 -0.099916361 0.13638729
0.16268487 -0.10560548 0.047083598 -0.98765451 0.13024096 -0.087039441 0.12903163
-0.18273035 -0.097545996 0.040704727 0.82222301 -0.096321158 -0.56095588 0.14289649
-0.16393216 -0.093158916 0.046181884 0.99401349 -0.039945256 -0.10169354 0.11686041
0.16078906 -0.094006874 0.046133704 -0.99368793 -0.051310971 -0.099757493 0.13301469
0.17729947 -0.091245562 0.048893422 -0.87563998 -0.079908974 -0.47630787 0.090148129
0.1815889 -0.098558359 0.043790191 -0.78234166 -0.023568947 -0.62240338 0.15031882
-0.18006393 -0.082384333 0.046875522 0.87318391 -0.028759882 -0.48654157 0.13844995
-0.16667609 -0.085347869 0.042571396 0.9965114 -0.07738588 -0.031247903 0.15727574
0.16413254 -0.08658018 0.043534886 -0.98957968 -0.025253793 -0.14175461 0.14814258
0.17901276 -0.08322151 0.047714051 -0.87925065 -0.044378977 -0.47428766 0.1141792
0.18181214 -0.086396888 0.042740434 -0.8323589 -0.090069011 -0.54686958 0.13519052
-0.18235844 -0.076547846 0.040914234 0.83499068 0.048598867 -0.54811382 0.17318113
-0.1760886 -0.076979078 0.048770439 0.9412111 -0.027329875 -0.3367115 0.13310575
-0.16506967 -0.074372165 0.045506716 0.9962163 -0.023157258 -0.083766408 0.14275791
0.16629823 -0.076328054 0.045146793 -0.98512501 -0.11076152 -0.13137965 0.13348231
-0.17534159 -0.062489182 0.048386738 0.93314439 -0.015167193 -0.35918176 0.11101218
-0.16306083 -0.064484507 0.044624031 0.99977535 -0.0020552569 -0.021093221 0.12258485
0.16529761 -0.065162219 0.04518884 -0.98834211 -0.043819584 -0.14580707 0.10165378
0.17167036 -0.065176956 0.049948711 -0.97044325 -0.042554487 -0.23754814 0.092564285
-0.1778983 -0.052669868 0.047071747 0.88680226 0.0076262332 -0.46208608 0.12116172
-0.16223715 -0.056374025 0.044561129 0.9841994 0.075996369 -0.1599253 0.12231579
0.16351132 -0.053814758 0.043597467 -0.99106175 0.12353923 -0.050345693 0.10809501
0.18177319 -0.056989927 0.041567106 -0.89594042 -0.020693859 -0.44369194 0.13357644
-0.18154854 -0.049549349 0.041799247 0.87689841 0.089192644 -0.47232819 0.1575956
-0.17275028 -0.043874767 0.048645228 0.87195909 0.15555295 -0.46420979 0.10886852
-0.16392632 -0.045125011 0.042601649 0.89714074 0.35247344 -0.26627234 0.12651223
0.16320013 -0.045073155 0.044902541 -0.98102319 0.13904922 -0.13512479 0.12895709
0.17685433 -0.043544419 0.047069222 -0.90639937 0.15412323 -0.39330161 0.12819694
-0.18080087 -0.035925057 0.043067276 0.88335645 0.19874319 -0.42447907 0.11298107
-0.17408681 -0.036363453 0.046302676 0.86680859 0.20412497 -0.45494595 0.096002974
-0.16576988 -0.0388381 0.044723745 0.90399832 0.26798135 -0.33312622 0.10957178
0.16424933 -0.039712876 0.046542853 -0.96737552 0.11723297 -0.2245909 0.12322563
0.17568269 -0.036637533 0.044733603 -0.92438191 0.20387468 -0.32241777 0.12886807
0.18033794 -0.034577552 0.040242273 -0.89054102 0.23885661 -0.38714895 0.14110789
-0.1808733 -0.024600998 0.041831575 0.89679277 0.068495311 -0.4371168 0.066827141
-0.17472549 -0.025455171 0.046291471 0.86892492 0.11442064 -0.48153636 0.06170927
0.16865578 -0.028168809 0.049327247 -0.91038489 0.18332569 -0.37093249 0.083989486
0.17558756 -0.026346421 0.045889623 -0.88964087 0.15772228 -0.42855898 0.10054216
0.18038344 -0.024879441 0.041009735 -0.88293618 0.13364744 -0.45006886 0.09128762
-0.18020497 -0.015234252 0.043731581 0.8660776 -0.062461764 -0.49599195 0.060058579
-0.17588925 -0.01568624 0.045019563 0.87296271 -0.11475029 -0.47409755 0.065362535
0.17607605 -0.015833296 0.044392172 -0.8820284 -0.064840421 -0.46671364 0.075310089
0.18083876 -0.010708923 0.04183184 -0.85743964 -0.13077843 -0.49768883 0.082207188
-0.18070681 -0.0038010618 0.041949935 0.85510707 -0.1354755 -0.50043821 0.11949452
-0.17610116 -0.007739217 0.043159135 0.87452191 -0.19550657 -0.44383392 0.10700604
-0.16572054 -0.005253471 0.044894695 0.89061773 -0.30505323 -0.33725756 0.13377973
0.16541418 -0.0047123875 0.045966618 -0.94556993 -0.22814746 -0.23204789 0.12062354
0.17401037 -0.0093738968 0.046754647 -0.85907209 -0.16056991 -0.48601681 0.068817921
0.18092936 -0.0036223021 0.041331176 -0.87712467 -0.1821181 -0.44439325 0.15198351
-0.18103927 0.0061221858 0.040683009 0.85586542 -0.031105034 -0.51626247 0.13214597
-0.17834482 0.0015096271 0.044704396 0.87557256 -0.12236314 -0.46733284 0.10312495
-0.16458771 0.004451192 0.04821055 0.95023608 -0.12721477 -0.28437284 0.10573211
0.16460405 0.0026710103 0.043154012 -0.9721368 -0.19515297 -0.1298666 0.14463629
0.17083317 0.0036612991 0.047559001 -0.93218976 -0.10009357 -0.34785557 0.14812939
0.1804454 0.008276307 0.042136874 -0.84376746 -0.020535411 -0.53631598 0.13578659
-0.18058625 0.015447831 0.041599259 0.84996641 -0.040759049 -0.52525777 0.1289634
-0.1740374 0.015571348 0.045783482 0.91678125 -0.044796698 -0.39686948 0.14382684
-0.16583718 0.014872369 0.041989725 0.98170406 0.0055767507 -0.19033144 0.16676338
0.16413011 0.016135711 0.042322885 -0.99556035 -0.081694998 -0.046749424 0.14692368
0.17375156 0.011619767 0.04604315 -0.90566516 -0.070218392 -0.41813862 0.13435678
0.18077047 0.015342693 0.041096024 -0.83298349 -0.038100224 -0.55198443 0.12838951
-0.18024677 0.020972606 0.042319514 0.82313085 -0.14750849 -0.54835832 0.12931819
-0.1745801 0.023434276 0.045253828 0.85442597 -0.13064851 -0.50287896 0.14254253
-0.16603082 0.025468817 0.046436656 0.9351536 -0.12191311 -0.33260348 0.13662307
-0.15999264 0.029882886 0.040059406 0.99941581 -0.022950381 -0.025324874 0.14037198
0.16466226 0.02393759 0.046668835 -0.9906255 -0.06661202 -0.11926457 0.11200647
0.17942543 0.024933796 0.043313771 -0.84046352 -0.029711165 -0.54105306 0.12304439
-0.18039216 0.038487341 0.041316532 0.81949288 -0.092984512 -0.56549579 0.12416577
-0.17795078 0.034203965 0.043519113 0.83563697 -0.11346345 -0.53743553 0.11750177
-0.16501434 0.036343094 0.044687226 0.94099236 -0.020189006 -0.33782515 0.12749197
0.16393875 0.035507139 0.045533326 -0.98878318 -0.013331971 -0.14876185 0.11595442
0.1744846 0.038460579 0.044761479 -0.89935935 -0.06329792 -0.43260393 0.13785115
-0.16360839 0.043129187 0.045271363 0.92762953 -0.094337657 -0.36139163 0.11223948
0.16624416 0.044446077 0.044621032 -0.98568338 0.00085698412 -0.16860451 0.12203918
0.17513023 0.047237657 0.043953374 -0.93212134 0.02330905 -0.36139524 0.12779391
-0.17222317 0.058695596 0.044852145 0.91697198 -0.04164001 -0.39677265 0.13820343
-0.16600977 0.053921316 0.046003368 0.96893936 -0.073519923 -0.23611711 0.12014981
0.16429777 0.057733852 0.046009932 -0.97778654 -0.081341155 -0.19317648 0.10343902
0.17405228 0.055033226 0.044193674 -0.9405266 0.010514986 -0.33955744 0.13711894
-0.16419607 0.064766154 0.048991822 0.97956568 -0.0047436757 -0.20106848 0.094445623
0.16362809 0.065028608 0.044625431 -0.98995012 -0.034998309 -0.13701746 0.12784748
0.1764565 0.065519653 0.042908095 -0.8839488 -0.043644875 -0.46554223 0.14614891
-0.17692825 0.076757237 0.042289227 0.84717011 0.096404046 -0.52250266 0.13505626
-0.16433376 0.072507113 0.046051171 0.98876792 0.013518748 -0.14884688 0.10296644
0.1641002 0.075148396 0.042375881 -0.99133635 0.037148725 -0.12598492 0.13893409
0.17486155 0.076467067 0.043071862 -0.91794133 0.043251999 -0.39435139 0.1480376
-0.16510178 0.085363135 0.045364935 0.9678328 0.036365315 -0.24895205 0.11191211
0.1631241 0.08590439 0.046906054 -0.97837061 0.017598724 -0.20610939 0.08071328
0.17328036 0.086893938 0.043245852 -0.90058482 0.05458577 -0.43123931 0.14580566
-0.17503992 0.095327601 0.04225152 0.84071922 0.023979532 -0.54094005 0.13909237
-0.16528304 0.095538616 0.045722742 0.9580828 0.0094440412 -0.28633597 0.13204935
0.16501276 0.096285485 0.046958216 -0.95743138 0.054053303 -0.28355488 0.1230637
0.17686427 0.096278042 0.041549027 -0.83819455 0.085932896 -0.53855854 0.1626491
-0.17022917 0.10096226 0.043708045 0.94377261 -0.043433044 -0.32772997 0.1342767
-0.16400436 0.10384974 0.044315778 0.99260354 -0.049188402 -0.11098948 0.11755657
0.16219552 0.10552374 0.044351462 -0.97593099 0.10184282 -0.19283845 0.12998119
0.1769278 0.10049288 0.041377768 -0.86875665 -0.0035840932 -0.49522623 0.15646426
-0.16484953 0.11506741 0.046145681 0.9747901 -0.057707686 -0.215532 0.12966125
0.16315353 0.1146489 0.044674546 -0.97293234 -0.06925945 -0.22046718 0.10219607
0.17869356 0.11340548 0.040041264 -0.88881916 -0.058180414 -0.45454997 0.14162074
-0.1753127 0.12478934 0.040756658 0.92492384 -0.042992979 -0.37771356 0.14131881
-0.16542444 0.12500443 0.04533428 0.96586937 0.091955297 -0.24215811 0.12441383
0.1650617 0.12442791 0.0447294 -0.98753065 -0.071186319 -0.14041263 0.12775853
0.17366627 0.12481125 0.041326866 -0.97035491 -0.094485931 -0.22244978 0.15737808
-0.17487226 0.1315736 0.04056631 0.86335796 0.12359992 -0.4892199 0.15022916
-0.16319828 0.13397208 0.04525603 0.95939964 0.14023632 -0.24471633 0.11541618
0.16353078 0.13551798 0.045440346 -0.97401321 -0.021898307 -0.22542995 0.11709585
0.17452453 0.13209577 0.040652771 -0.94170398 0.0077247778 -0.33635381 0.15524276
-0.1702061 0.14994019 0.041345678 0.98548174 0.14353542 -0.090681955 0.19351025
-0.16522191 0.14533813 0.044960182 0.96099299 0.092848703 -0.26052189 0.13878462
0.16396621 0.14494613 0.044131484 -0.98308492 -0.049480263 -0.17633981 0.12293249
0.17057735 0.14270438 0.041526821 -0.98784471 -0.0063492171 -0.15531455 0.13821596
-0.16429484 0.15459752 0.042919893 0.99007016 -0.0020084693 -0.14056005 0.15276399
0.16557527 0.15475743 0.045231692 -0.99365401 0.10983952 0.024228262 0.17164285
-0.16293299 0.16896118 0.046243198 0.98442549 -0.13739404 0.10967784 0.13172454
0.16335018 0.16607353 0.043867316 -0.9912951 -0.044258151 0.12399705 0.14215417
-0.16508399 0.17614995 0.044157002 0.97722596 -0.20584045 0.051566765 0.13289402
0.16415088 0.17580897 0.043751713 -0.99504071 -0.099429153 0.0027909819 0.13900332
-0.16367216 0.18482332 0.045660809 0.96783346 -0.25066102 -0.021621384 0.12952967
-0.15997784 0.18679041 0.049657345 0.97385138 -0.20678699 -0.094088785 0.10642611
0.16397223 0.18533677 0.044173121 -0.98974591 -0.12953486 -0.060197875 0.16113307
-0.16257702 0.19686663 0.043178823 0.99194783 0.098913364 -0.079092629 0.10700649
-0.1585864 0.19823746 0.046705067 0.9903084 -0.038050082 -0.13357234 0.088074595
0.16309704 0.19477305 0.042649347 -0.96253026 0.014874456 -0.27076587 0.093953244
-0.1629923 0.20244229 0.044031776 0.97573692 0.013440251 -0.21853349 0.10426842
-0.15981607 0.20134486 0.04239672 0.98121715 0.13064367 -0.14193362 0.10735864
0.15863721 0.20070018 0.04330989 -0.97159082 0.029500335 -0.23482108 0.072579704
0.16299127 0.20357215 0.043363746 -0.95421278 0.074805789 -0.28962386 0.081431881
-0.16590336 0.21294162 0.042372607 0.8938002 0.13860539 -0.42650881 0.08012066
-0.013091474 0.21154845 0.042253174 9.1913469e-05 -0.92954469 0.36870933 4.8870312e-05
-0.0040126438 0.21229811 0.04398822 6.4783817e-05 -0.92952037 0.36877072 7.3132556e-05
0.0023476463 0.2139962 0.048345424 0.00013104513 -0.92958945 0.36859658 0
0.013248119 0.21350539 0.047332443 0.00010860497 -0.92956609 0.36865541 2.4265717e-05
0.16476037 0.21493344 0.043246232 -0.90711588 0.09989161 -0.40885511 0.048428312
-0.16484487 0.22620775 0.045686327 0.76035303 -0.065078579 -0.64624149 0.052226264
0.16347203 0.22861376 0.04855343 -0.71498835 -0.21493828 -0.66527689 0.045651279
0.16336894 0.23592332 0.046014685 -0.61226135 -0.3037948 -0.72996223 0.022389537
-0.1642268 0.24455664 0.041138429 0.53533822 -0.27097571 -0.79999071 0.028701367
-0.15058516 0.24827246 0.046619903 0.2609067 -0.42408058 -0.86722744 0.028424548
-0.14401944 0.24730952 0.048217099 0.22554876 -0.44384092 -0.86725605 0.020436371
-0.13804525 0.24839993 0.048355471 0.16624792 -0.44054982 -0.88220048 0.020778798
0.12955745 0.24914391 0.049239561 -0.096925043 -0.45597503 -0.88469899 0.018936032
0.14365788 0.24785213 0.04780088 -0.21355429 -0.43762755 -0.87342811 0.01878172
0.15565234 0.24643451 0.047651056 -0.39935303 -0.38568145 -0.8317253 0.028163655
0.16192584 0.24481912 0.04363586 -0.5258134 -0.34286037 -0.77843887 0.023532828
-0.15602648 0.25739548 0.046596248 0.25989994 -0.28881735 -0.92143172 0.02486336
-0.14355642 0.25409356 0.044188239 0.19810189 -0.33480436 -0.92122841 0.026198251
-0.133981 0.2506398 0.047170572 0.079811759 -0.45179403 -0.88854498 0.011528594
-0.12628886 0.25550362 0.045518793 0.082677677 -0.39205861 -0.91621745 0.018850764
-0.11304018 0.25518656 0.047466751 0.080934063 -0.4362739 -0.89616674 0.015086737
-0.10039064 0.25857207 0.047331549 0.090807371 -0.39965883 -0.91215509 0.013943329
-0.09242408 0.25831208 0.048670746 0.089726061 -0.42430174 -0.90106452 0.012145638
-0.088054352 0.25950685 0.048682608 0.12223002 -0.36397541 -0.92335355 0.017057754
0.10557963 0.25780326 0.046966258 -0.074326009 -0.40076163 -0.91316247 0.023536019
0.11906606 0.25818157 0.045098543 -0.09356831 -0.37935445 -0.92050815 0.025304103
0.12484214 0.25606927 0.045559734 -0.11245355 -0.37282729 -0.9210614 0.029489517
0.13762991 0.25443083 0.044379566 -0.11774281 -0.39786413 -0.90985751 0.022991782
0.14832228 0.25391194 0.043813352 -0.23406935 -0.35430166 -0.90536278 0.023576515
0.15544018 0.25609151 0.043179501 -0.30957252 -0.32006299 -0.89539069 0.021427143
-0.15559089 0.26349032 0.044439834 0.25964779 -0.28646886 -0.92223561 0.02369816
-0.14563534 0.26615411 0.044000857 0.1302101 -0.27476594 -0.95265365 0.02349392
-0.13350905 0.26159182 0.041737985 0.067848332 -0.30578405 -0.94968033 0.021419719
-0.126509 0.26411024 0.041726347 0.042911243 -0.2924841 -0.95530713 0.020400632
-0.11281431 0.2666409 0.043351568 0.090216957 -0.25964987 -0.96147954 0.02580105
-0.10440356 0.26387113 0.045236781 0.13522539 -0.29959702 -0.94443411 0.031236446
-0.096828014 0.26382691 0.045640003 0.12859164 -0.3104271 -0.94185942 0.026376333
-0.083411098 0.26620373 0.047393467 0.14255382 -0.25622368 -0.95604801 0.031295374
-0.074356943 0.26765013 0.046660021 0.099642411 -0.2648491 -0.95912784 0.033729702
-0.062166005 0.26952749 0.047372904 0.076185413 -0.25327086 -0.96439087 0.033224456
-0.034252062 0.26858136 0.049363449 0.038348459 -0.27641049 -0.96027428 0.026742598
-0.0073388149 0.26939994 0.049930476 0.020623185 -0.33685964 -0.94132894 0.026177656
0.029111937 0.2687782 0.049463715 -0.065159991 -0.40083623 -0.91382957 0.012884258
0.035582397 0.26714748 0.049881928 0.0042320318 -0.37326276 -0.92771602 0.024760172
0.045855224 0.26681608 0.049307838 -0.017879266 -0.37551609 -0.92664343 0.0208837
0.056053296 0.26643437 0.048789442 -0.011020354 -0.3292473 -0.94417948 0.025772048
0.069212593 0.26618946 0.047506265 -0.081076629 -0.29117104 -0.95322925 0.0342668
0.075396299 0.26513574 0.04776695 -0.12028842 -0.28124598 -0.95206696 0.032385845
0.086936057 0.26661465 0.045843229 -0.11086816 -0.2677815 -0.95707953 0.036320042
0.093672901 0.26460359 0.04596711 -0.04148851 -0.26311445 -0.96387213 0.039074823
0.10548526 0.26547411 0.044100612 -0.087968275 -0.26400423 -0.96050161 0.037458137
0.11520427 0.26122129 0.044969007 -0.084509112 -0.37277389 -0.92406589 0.029953776
0.12465655 0.26559955 0.041314892 -0.10875134 -0.22687216 -0.96783382 0.032145709
0.14492907 0.26520333 0.043976862 -0.18409231 -0.23477539 -0.95445824 0.022684406
0.15496811 0.26420343 0.04148744 -0.30150527 -0.24239685 -0.92213792 0.020509437
-0.1463289 0.27356774 0.040459476 0.14647338 -0.21988314 -0.96446717 0.01985877
-0.13461603 0.27615196 0.044649858 0.078254849 -0.14979868 -0.98561478 0.023241945
-0.12465616 0.27913561 0.044135936 0.078740671 -0.057525061 -0.99523401 0.025586454
-0.11382227 0.27034551 0.041121501 0.098795488 -0.15345809 -0.98320395 0.025854861
-0.10505322 0.27189642 0.042035744 0.10123934 -0.1443415 -0.98433542 0.029000815
-0.093581297 0.2707127 0.043189511 0.13442785 -0.15147932 -0.97927684 0.029979354
-0.085078336 0.27405202 0.043547977 0.1051504 -0.14231695 -0.98422009 0.035189595
-0.075745448 0.27441591 0.044466235 0.089294851 -0.15791711 -0.9834066 0.033498086
-0.068774149 0.27401543 0.046149611 0.068651371 -0.19322744 -0.97874933 0.034032535
-0.056586727 0.27436438 0.046296496 0.013379171 -0.24509244 -0.96940744 0.034452595
-0.048224613 0.27553043 0.046698645 0.040955238 -0.21134901 -0.97655219 0.039638199
-0.035677761 0.27620962 0.046473425 -0.0082573779 -0.2648415 -0.96425664 0.034670126
-0.029743342 0.27418774 0.0481943 -0.013188183 -0.27509478 -0.96132672 0.034848046
-0.016998775 0.27657539 0.048002243 0.061886031 -0.29392257 -0.95382369 0.033943586
-0.0031766193 0.27627742 0.047136828 -0.04888856 -0.2621645 -0.9637841 0.040370636
0.0036333534 0.27454525 0.048041742 -0.042591993 -0.280664 -0.95886064 0.037279181
0.012959834 0.27414191 0.047999457 -0.090653978 -0.26421192 -0.96019465 0.035829075
0.026405526 0.27665502 0.046214275 -0.092351153 -0.27787334 -0.95616823 0.036002565
0.034633722 0.27904117 0.044713583 -0.026052713 -0.25314668 -0.96707702 0.04471264
0.047004778 0.27722082 0.045031022 0.042507887 -0.24388096 -0.96887308 0.036857493
0.052617736 0.27278888 0.046545412 0.040849943 -0.30414852 -0.95174843 0.031305555
0.066653088 0.2754069 0.044498991 -0.036381628 -0.22348495 -0.97402805 0.042169303
0.075401939 0.27457654 0.044090044 -0.089666769 -0.18737875 -0.97818661 0.047064014
0.083570898 0.27482313 0.042514663 -0.090983868 -0.17608248 -0.98016167 0.047986243
0.094095021 0.27352655 0.041836109 -0.053957913 -0.12839083 -0.9902547 0.044176251
0.10041639 0.27437055 0.040607177 -0.066177979 -0.12079511 -0.99046904 0.040511865
0.12588821 0.27819207 0.046115357 -0.099357441 -0.103539 -0.98965031 0.026156645
0.13644668 0.27717933 0.04492892 -0.16642527 -0.14364533 -0.97553509 0.025877085
0.14421482 0.27253559 0.044633422 -0.16697001 -0.19266868 -0.96695387 0.024297137
0.15286365 0.2748172 0.040506002 -0.22025499 -0.18458936 -0.95781755 0.017531557
-0.14327967 0.28068 0.041751228 0.16838114 -0.15008004 -0.97422981 0.021782545
-0.13522409 0.28256163 0.043979555 0.10647632 -0.1027017 -0.98899698 0.020040965
-0.12385409 0.28213328 0.044787329 0.092225283 -0.068190381 -0.99340057 0.021527957
-0.1152376 0.28345814 0.04469493 0.12036557 -0.040084466 -0.99191999 0.020012537
-0.10458612 0.28482559 0.045732196 0.13550007 -0.032484345 -0.99024463 0.026171887
-0.095287368 0.28643534 0.044665065 0.093169801 -0.041716971 -0.99477589 0.025445018
-0.082049385 0.28832406 0.045741059 0.062807634 -0.020384138 -0.99781746 0.033372559
-0.073481962 0.28857315 0.043824755 0.032323688 -0.043625735 -0.99852496 0.046804603
-0.065336011 0.28814965 0.048632868 0.0067754327 -0.04410059 -0.99900407 0.04562977
