# .PCD v0.7 - Point Cloud Data file format
VERSION 0.7
FIELDS x y z normal_x normal_y normal_z curvature
SIZE 4 4 4 4 4 4 4
TYPE F F F F F F F
COUNT 1 1 1 1 1 1 1
WIDTH 573
HEIGHT 1
VIEWPOINT 0 0 0 1 0 0 0
POINTS 573
DATA ascii
-0.28213999 -0.17257862 0.031996619 0.1192735 0.70978564 -0.69424641 0.048071697
-0.27315247 -0.17218888 0.033505484 0.11302059 0.70711464 -0.698008 0.06241823
-0.26348647 -0.17270547 0.033194341 0.059364714 0.76421118 -0.64222825 0.066921867
-0.25308773 -0.17301469 0.035000805 0.021905497 0.68039858 -0.7325148 0.06291385
-0.24506275 -0.17327303 0.034273259 -0.028808389 0.75711173 -0.65265 0.060399488
-0.23854208 -0.17333999 0.032189023 -0.031287141 0.81703597 -0.57573718 0.063870206
-0.22561955 -0.17300746 0.034750827 0.019110518 0.71247202 -0.70144022 0.056997433
-0.21339594 -0.17284985 0.034380611 0.080170542 0.81409854 -0.5751664 0.06372644
-0.20378751 -0.17276658 0.035454109 0.092241608 0.82430571 -0.55857986 0.061812986
-0.19333082 -0.1726051 0.035824277 0.082970731 0.8445428 -0.52902108 0.050841406
-0.18639103 -0.17282882 0.032350242 0.022483442 0.91772979 -0.39656842 0.034772526
-0.1762428 -0.17259625 0.034077361 0.035802655 0.90206468 -0.43011332 0.025912907
-0.16613623 -0.17261925 0.036332376 0.0549233 0.90359068 -0.42486146 0.027470184
-0.15548563 -0.17269345 0.037741296 0.02150861 0.90930986 -0.41556346 0.028890198
-0.14600213 -0.17291944 0.035476331 -0.0075164838 0.93970162 -0.34191263 0.024999764
-0.13508064 -0.17307976 0.031918354 -0.045851719 0.9544301 -0.29489124 0.024687778
-0.11530103 -0.17321983 0.034991894 0.011485345 0.94195098 -0.33555409 0.023831947
-0.10441153 -0.17338897 0.034155767 0.020336336 0.95096254 -0.30863675 0.024446445
-0.094854057 -0.17356269 0.03263979 0.04617279 0.95935136 -0.27841172 0.025426092
-0.084629916 -0.17366433 0.033625074 0.06615898 0.96444643 -0.25586334 0.02336948
-0.076007113 -0.17374626 0.034573451 -0.01108775 0.9585911 -0.28457004 0.023722017
-0.060160711 -0.17404644 0.031683348 0.025009464 0.97691882 -0.21214187 0.021996383
-0.055579197 -0.17399228 0.035212409 -0.028464086 0.95836061 -0.28413871 0.023911154
-0.045145556 -0.17407387 0.036902528 0.013849616 0.94457155 -0.32801321 0.030609483
-0.038566709 -0.17408766 0.039134134 0.027389921 0.93192297 -0.36162037 0.029553493
-0.024352677 -0.17432852 0.035034731 0.02360064 0.95975375 -0.27984935 0.027374113
-0.013947566 -0.17433126 0.036572501 0.051181119 0.96160203 -0.2696332 0.022445578
-0.0093662655 -0.17448972 0.030905077 0.013390026 0.98410082 -0.17710528 0.014339488
0.0060175145 -0.17469394 0.030235568 0.047883749 0.98275292 -0.1786164 0.015139024
0.015432659 -0.17473233 0.034674995 0.032451622 0.96153867 -0.27274564 0.024293067
0.024364352 -0.17482787 0.035574682 0.032822944 0.96355981 -0.26547155 0.0214851
0.033358492 -0.17492777 0.036274571 0.055074424 0.96029639 -0.27349174 0.025580203
0.043730676 -0.17502794 0.037924133 0.042037386 0.95979345 -0.27754164 0.027094679
0.053306311 -0.17520869 0.034503371 -0.025683904 0.97962654 -0.19917874 0.021186087
0.062903538 -0.17531946 0.03501619 0.0088207303 0.98319554 -0.18234213 0.022902742
0.074579738 -0.17549816 0.033180453 0.05045427 0.97932762 -0.19588667 0.026776742
0.08618369 -0.17565803 0.032348897 0.02950288 0.98881978 -0.14616734 0.01939258
0.10535028 -0.1756541 0.037490301 0.00070148893 0.99097109 -0.13407366 0.016655074
0.11539727 -0.17583819 0.032395076 0.036681835 0.99379927 -0.10496419 0.010960019
0.12574944 -0.1759702 0.031681977 0.01991608 0.99105632 -0.13194962 0.016136896
0.13421339 -0.17602666 0.036961064 0.020622507 0.98298442 -0.18252791 0.019366857
0.14525287 -0.17618842 0.033807565 0.017632285 0.99312389 -0.11573177 0.011084796
0.15670946 -0.17630948 0.035873696 0.0035569111 0.99280941 -0.11965322 0.016551536
0.16340443 -0.17640065 0.034751154 0.015952244 0.99312431 -0.1159728 0.015217188
0.17505541 -0.17656769 0.033482112 0.0049971198 0.99444038 -0.10518257 0.010583229
0.1844247 -0.17672375 0.034263089 0.0066922046 0.99303854 -0.11759944 0.011571665
0.19386671 -0.17684902 0.033051968 0.0091566499 0.99474275 -0.10199524 0.0084736012
0.20466241 -0.17697449 0.030921279 0.011461432 0.99662179 -0.081323527 0.0044848551
0.21314994 -0.17698482 0.032827415 0.016861044 0.99615979 -0.085914858 0.0057214703
0.2235283 -0.17706703 0.032531958 0.0016198527 0.99823231 -0.05941166 0.0035965329
0.23349996 -0.17717566 0.033603422 0.012733991 0.9976449 -0.067398809 0.0038845674
0.24272346 -0.17728679 0.033523433 0.0015197826 0.9974674 -0.071109667 0.0037675737
0.25336832 -0.17740379 0.035636287 0.025138332 0.99712032 -0.071548626 0.0046399306
0.26746306 -0.17756891 0.036435861 0.0068374011 0.99522406 -0.097377233 0.010095644
0.27108797 -0.1776243 0.034118753 0.001533994 0.99930209 -0.03732197 0.0046871211
0.28495413 -0.17767631 0.035123467 0.008819717 0.99645096 -0.083711565 0.0046663149
0.29853576 -0.17767631 0.03759351 -0.010205351 0.99441308 -0.10506456 0.0079643959
0.305484 -0.17767632 0.034078725 -0.0064478493 0.99622869 -0.086526819 0.0040422156
0.31541073 -0.17767632 0.034182582 -0.00092257763 0.99951142 -0.031243956 0.0006207251
0.32571647 -0.17767632 0.036199331 -0.027010515 0.99246603 -0.11950579 0.010800229
0.33447343 -0.17767631 0.036045767 -0.016124306 0.99227583 -0.12299865 0.012187128
0.34503219 -0.17767631 0.034244776 -0.0028365885 0.99623096 -0.086693369 0.0083162664
0.3534818 -0.17767631 0.035742965 -0.00072884257 0.9919855 -0.12635024 0.013716481
0.36582461 -0.17767629 0.034531802 -0.038708828 0.98857868 -0.14564978 0.01777349
0.37408561 -0.17765099 0.034775883 -0.11494095 0.98063469 -0.15856928 0.019537577
0.38451186 -0.17592447 0.03627637 -0.18731476 0.97169888 -0.14392512 0.013124673
0.39671269 -0.17278703 0.03335204 -0.22275582 0.96531099 -0.13621545 0.015006655
0.40408748 -0.17092633 0.033503033 -0.2548095 0.95517439 -0.1507111 0.020025846
-0.3263129 -0.16116676 0.030034386 0.22459626 0.45379075 -0.86234015 0.11599688
-0.31094837 -0.16312861 0.031936448 0.18905212 0.54742134 -0.81522346 0.05958952
-0.30394405 -0.16430932 0.032465156 0.068737574 0.58831394 -0.80570579 0.031410675
-0.29578903 -0.16600636 0.032990638 0.088803828 0.61479777 -0.78366929 0.037757147
-0.2818954 -0.16560163 0.035452791 0.081141174 0.61745852 -0.78240728 0.048660498
-0.27287129 -0.16441949 0.03709168 0.1018231 0.57373291 -0.81268859 0.049719315
-0.26874775 -0.16978961 0.035386167 0.086572535 0.59479898 -0.79919922 0.047441058
-0.25514585 -0.16603145 0.038282868 -0.04821242 0.51297963 -0.85704577 0.063972637
-0.24351284 -0.16521899 0.038744152 0.079661287 0.44136631 -0.89378393 0.056128401
-0.23490572 -0.16597754 0.038492985 0.057779964 0.59569478 -0.80112994 0.062302426
-0.21775003 -0.16532195 0.039649546 0.046557829 0.64501393 -0.76275122 0.049456373
-0.20693213 -0.16746387 0.039995696 0.077232122 0.71333057 -0.69655925 0.053039741
0.40990508 -0.16950426 0.030038349 -0.2414557 0.96874696 -0.056819484 0.0028547868
0.41325194 -0.16866979 0.035190672 -0.23177265 0.96262091 -0.14015123 0.017118538
0.42500314 -0.16566378 0.035663489 -0.23867545 0.95476747 -0.17735027 0.024919737
0.43471918 -0.16318806 0.036740258 -0.26590669 0.93746102 -0.22463375 0.032028973
0.44446194 -0.16064355 0.036752012 -0.39786622 0.89705056 -0.19236138 0.04124729
-0.32590216 -0.15369713 0.031002562 0.33982986 0.47493881 -0.81175655 0.1751487
-0.31310543 -0.15577814 0.032881241 0.1336408 0.33807158 -0.93158346 0.017080547
-0.30479079 -0.15649694 0.034178197 0.13890053 0.31779033 -0.93793172 0.015391554
-0.29359969 -0.15679291 0.036004737 0.16482809 0.29359436 -0.94161248 0.016946524
-0.28528368 -0.1541429 0.037385006 0.10418414 0.26751429 -0.95790493 0.016493252
-0.27440023 -0.15314502 0.038913965 0.074649006 0.23987937 -0.96792841 0.020070929
-0.26304987 -0.15518925 0.039496552 0.05962668 0.23296402 -0.97065568 0.018225664
-0.25516549 -0.1585623 0.039539833 0.018536858 0.30284581 -0.95285922 0.033494852
-0.24436629 -0.15431027 0.039395824 0.076268829 0.24198914 -0.96727681 0.021651402
-0.23786917 -0.15480226 0.03966609 0.094703875 0.34379506 -0.93425703 0.037129249
0.44943634 -0.15957426 0.03945861 -0.41935712 0.88089639 -0.21945673 0.041699905
0.45681086 -0.15550457 0.035895802 -0.66636086 0.7323916 -0.13987808 0.042399131
0.46022058 -0.15012076 0.034353964 -0.79471779 0.59667689 -0.11135651 0.037180118
-0.3327094 -0.1470125 0.030694727 0.23611386 0.28728837 -0.92828643 0.14161144
-0.32564831 -0.1483109 0.031693652 0.30146495 0.2490672 -0.92037183 0.12063508
-0.30661327 -0.1468434 0.035038866 0.14585659 0.1623325 -0.97589648 0.0012586996
-0.2909618 -0.14571208 0.037504993 0.12649815 0.15136428 -0.98035049 0.0012238779
-0.28165954 -0.14934526 0.038320016 0.096119523 0.1736142 -0.98011184 0.0067386576
-0.27815655 -0.14649351 0.039069939 0.078902356 0.13074209 -0.98827165 0.0020598886
-0.26301998 -0.14526725 0.039610147 0.042861838 0.11299067 -0.99267113 0.0017926407
-0.25562233 -0.14515314 0.039532796 0.045627397 0.10066748 -0.99387336 0.001954173
-0.24794802 -0.14509022 0.039478995 0.047173064 0.093323745 -0.99451762 0.0021501828
0.46220604 -0.14607722 0.036599636 -0.84546244 0.51238358 -0.15052044 0.039136898
-0.34433052 -0.13139431 0.030864393 0.20956995 0.15759502 -0.96500999 0.0010339939
-0.33616513 -0.1365823 0.031516925 0.18871467 0.14401847 -0.97141415 0.00052139908
-0.32445133 -0.13609156 0.033532891 0.16261314 0.1319211 -0.97783118 5.7095007e-05
-0.31683275 -0.13523598 0.034922853 0.15312316 0.12875254 -0.97978365 4.9063667e-05
-0.30301866 -0.1324078 0.037540436 0.13539296 0.11844561 -0.98368663 0.00016867684
-0.29602858 -0.13142252 0.038583897 0.11273891 0.10389081 -0.98817843 0.00054530031
-0.28787899 -0.13544999 0.039139524 0.087576725 0.097151235 -0.99140906 0.00085353805
-0.25271851 -0.13788812 0.039835349 0.036789417 0.066149339 -0.99713135 0.00052573578
-0.24840868 -0.13723998 0.039837439 0.056515753 0.070337653 -0.99592096 0.00066364213
0.46767151 -0.1302664 0.033159666 -0.9580605 0.2699044 -0.096289709 0.017194655
-0.3512311 -0.12167892 0.031038571 0.21983771 0.16956848 -0.96068621 0.0016115962
-0.34748781 -0.12393735 0.03135404 0.2086062 0.15524694 -0.96559918 0.0010714802
-0.33481157 -0.1244519 0.033397675 0.16466372 0.1338042 -0.97723198 9.2969203e-06
-0.32278216 -0.12196873 0.03577299 0.15409538 0.12845871 -0.97966981 6.8166868e-05
-0.31313312 -0.12308332 0.037244573 0.14327185 0.12571792 -0.98166603 0.00013307527
-0.30426922 -0.12137476 0.038748421 0.12791751 0.11236202 -0.98539937 0.00025112895
0.46858531 -0.12387672 0.033790749 -0.969612 0.23075867 -0.081258789 0.017445227
-0.35285452 -0.11609329 0.031528741 0.22236106 0.15743035 -0.96217006 0.0015394514
-0.34416506 -0.1141694 0.033249773 0.18189798 0.12936634 -0.97477049 0.00039217391
-0.33542395 -0.11364239 0.034802388 0.16280566 0.13042359 -0.97800004 2.4469267e-05
-0.32445651 -0.11456017 0.036528964 0.15455118 0.12022512 -0.98064262 0.00013318306
-0.31397969 -0.1145668 0.038280834 0.1343784 0.11122274 -0.98466849 0.0003184723
-0.3063283 -0.11334903 0.039416619 0.11829977 0.095190167 -0.98840481 0.00060499628
0.46944198 -0.11928436 0.032015309 -0.97843552 0.20339687 -0.035968713 0.0082893232
0.47049743 -0.1119782 0.03261891 -0.98808128 0.15393244 -0.00034390297 0.0075987573
-0.3707968 -0.10008179 0.030404836 0.25909817 0.14165278 -0.95540702 0.0017789712
-0.366081 -0.10510506 0.030823555 0.25314027 0.15482235 -0.95496082 0.0017096522
-0.35525545 -0.1025112 0.033008996 0.18177207 0.11620574 -0.97645032 0.00064516824
-0.3391729 -0.10590827 0.035253085 0.16351983 0.11301068 -0.9800458 0.00011849443
-0.31652987 -0.10283998 0.0394134 0.12926583 0.088424206 -0.98765957 0.00040895859
0.47146496 -0.10474852 0.034074139 -0.98991257 0.14136344 -0.009462934 0.0095534725
-0.37332672 -0.093192458 0.030766172 0.26195541 0.12210716 -0.95732403 0.0018527093
-0.36894184 -0.090922907 0.031839926 0.23910277 0.1114333 -0.96457893 0.0018421581
-0.35076445 -0.095531061 0.034493133 0.16585487 0.091795787 -0.98186851 0.0003417682
-0.34791055 -0.096079923 0.034925673 0.16080824 0.092269957 -0.98266315 0.00026519381
-0.33245248 -0.096198231 0.037529819 0.15164694 0.085632309 -0.98471838 0.00033676278
-0.32192418 -0.095972463 0.039257169 0.13520943 0.08190839 -0.98742563 0.0003548745
-0.31700674 -0.0973159 0.039742533 0.12456449 0.083725803 -0.98867267 0.0003702071
0.47315073 -0.094284534 0.032996755 -0.98853141 0.13771179 -0.061977405 0.014382097
-0.37260261 -0.084236264 0.031684779 0.25467408 0.095548756 -0.962295 0.0017029815
-0.36424935 -0.084205754 0.033096198 0.19965877 0.066979595 -0.97757363 0.0011992226
-0.35885546 -0.084174134 0.034009028 0.17940371 0.060501706 -0.98191345 0.00042361693
-0.34658894 -0.08470761 0.036072779 0.16232099 0.063241065 -0.98470932 0.00022403666
-0.33247954 -0.083722264 0.038484138 0.14751144 0.050850742 -0.98775226 0.00018323022
-0.32415721 -0.084761895 0.039598387 0.13295028 0.058703583 -0.98938274 0.00035442229
0.47438183 -0.084346168 0.036815349 -0.98883337 0.10518553 -0.10556787 0.030283302
-0.37779287 -0.076569021 0.030894388 0.28517795 0.060262199 -0.95657825 0.001239632
-0.35394892 -0.07602831 0.035030741 0.16885924 0.043907877 -0.9846617 0.00010636577
-0.34394157 -0.075839281 0.036728028 0.15939124 0.042788003 -0.98628777 0.00011618524
-0.33646694 -0.071860723 0.038084764 0.15622474 0.042019062 -0.98682737 9.0310488e-05
-0.32880908 -0.079369232 0.039206032 0.14809263 0.049429007 -0.98773748 0.0001789884
0.47489616 -0.07407067 0.036452606 -0.99448401 0.090842828 -0.052432958 0.022211034
-0.38023421 -0.069886044 0.030492488 0.2786625 0.058131918 -0.95862812 0.001040469
-0.36891451 -0.069467023 0.03265129 0.21117903 0.047895599 -0.97627318 0.00089119584
-0.34589839 -0.068162791 0.036575075 0.16262542 0.037141554 -0.98598856 5.6043271e-05
-0.33333027 -0.067951061 0.038706079 0.15518764 0.040425237 -0.98705757 0.00010290902
0.47553983 -0.063178591 0.036283065 -0.9984464 0.032490011 -0.04526858 0.018585425
-0.37579775 -0.055566523 0.031914391 0.24291061 0.046300117 -0.96894312 0.0015444614
-0.36454734 -0.052899849 0.033977751 0.19328739 0.0464794 -0.98004061 0.00058154413
-0.35901386 -0.050898209 0.03503406 0.16522542 0.046934914 -0.98513842 3.7079622e-05
-0.34663638 -0.055901509 0.036845222 0.164474 0.039479647 -0.98559105 3.1495354e-05
-0.33526278 -0.054719009 0.038817085 0.16118433 0.039972499 -0.9861145 6.2815889e-05
0.47571331 -0.052417047 0.034647737 -0.9989965 0.044628147 0.0037734348 0.0071629235
-0.38038567 -0.042419463 0.03192798 0.25212795 0.067335367 -0.96534836 0.0011858725
-0.37555897 -0.043098815 0.032703683 0.22665247 0.055430818 -0.97239709 0.00094641093
-0.36440811 -0.043667134 0.034555886 0.19488008 0.053189605 -0.97938377 0.00055443338
-0.35794264 -0.044091582 0.035624117 0.16322933 0.047891002 -0.98542517 3.8662078e-05
-0.33415416 -0.046646237 0.039343789 0.1578961 0.040696491 -0.98661673 3.5381796e-05
0.47613645 -0.042234451 0.035518624 -0.99834698 0.049821045 -0.028655373 0.013086239
-0.38378289 -0.032711852 0.031525511 0.25032374 0.062090583 -0.96616918 0.0009971034
-0.37120998 -0.032947499 0.034049131 0.20508365 0.057475921 -0.97705537 0.00067455898
-0.36001608 -0.036629334 0.035721604 0.16810152 0.051615227 -0.98441756 0.00016315885
-0.3582271 -0.035108291 0.036115602 0.1631134 0.051040985 -0.98528624 5.809066e-05
-0.34403831 -0.032359052 0.038472407 0.1574242 0.045217581 -0.98649532 3.0359679e-05
-0.33844739 -0.037365995 0.039093472 0.15670286 0.043185778 -0.98670119 3.4090754e-05
0.47684646 -0.033973243 0.036790758 -0.99849206 0.054640532 -0.0052930769 0.013295214
-0.38537887 -0.023901621 0.031507872 0.25870511 0.059787717 -0.96410429 0.0010156794
-0.36437961 -0.022984292 0.035786934 0.17024249 0.053113259 -0.98396969 0.00025278094
-0.3545123 -0.024443116 0.037247855 0.15318209 0.048928805 -0.98698592 1.8372632e-05
-0.34833658 -0.026913185 0.038061485 0.15356405 0.046760693 -0.9870317 2.199162e-05
-0.3366403 -0.02360286 0.039935462 0.14828284 0.032074101 -0.98842472 7.5854216e-05
0.47709075 -0.025545318 0.036305416 -0.99750978 0.065917693 -0.025081906 0.013709027
-0.38157368 -0.013646606 0.033455294 0.23576933 0.036037222 -0.97114062 0.001000469
-0.37644866 -0.015295355 0.034223236 0.2127232 0.048180472 -0.9759239 0.00075085065
-0.36264539 -0.013629843 0.036491539 0.15968202 0.031796172 -0.98665631 0.00025105558
-0.35487923 -0.013953034 0.037630733 0.14900291 0.031348143 -0.98833972 0.00010671734
-0.34096253 -0.016725628 0.039580662 0.14555021 0.030963784 -0.98886621 6.8832655e-05
-0.33921021 -0.017039575 0.039827649 0.14643654 0.029881706 -0.98876858 6.6885441e-05
0.47769731 -0.013085088 0.034112252 -0.99878526 0.048364241 0.0094262324 0.0047142203
-0.3848244 -0.0037921842 0.032992102 0.24631104 0.017871603 -0.96902609 0.0010118443
-0.3771584 -0.0058313282 0.03466263 0.22168563 0.018253362 -0.97494733 0.00099986896
-0.36475754 -0.0071021272 0.036450192 0.16613971 0.019888123 -0.98590159 0.00032484744
-0.35855669 -0.0068910816 0.037379321 0.15194941 0.021335077 -0.98815793 0.00017937648
-0.34093067 -0.0092057101 0.039898898 0.14277956 0.018280381 -0.9895857 0.00012110823
-0.39064154 0.0060023102 0.030850802 0.28272456 -0.026204554 -0.95884311 0.062508725
-0.38595462 0.0051259254 0.032587968 0.26416647 -0.024023907 -0.96417785 0.0010621013
-0.36572441 0.0012378301 0.03655117 0.16378959 -0.0090561695 -0.98645377 0.00029645921
-0.35466099 0.0070515913 0.037950836 0.14846218 -0.015831964 -0.98879141 0.00016713937
0.47795883 0.0068793162 0.035514098 -0.99825627 -0.057827573 0.011848312 0.007006662
-0.38408265 0.014065956 0.032622386 0.25706112 -0.04310365 -0.96543342 0.0010232872
-0.3747364 0.014857158 0.034522355 0.19386776 -0.041810047 -0.98013628 0.00065109023
-0.36579189 0.015626639 0.035896912 0.17440815 -0.034857601 -0.98405623 0.00038376238
-0.35661635 0.01370198 0.037383366 0.15585743 -0.02913784 -0.98734969 0.00013129011
-0.34132656 0.014988391 0.039599054 0.14216788 -0.029215058 -0.98941129 8.9343121e-05
-0.33971125 0.017212247 0.039746087 0.14410099 -0.028043501 -0.9891656 0.00010072465
-0.3833383 0.024005011 0.032222226 0.25336853 -0.056118228 -0.96574074 0.0012019726
-0.37293875 0.0233115 0.034335487 0.2003087 -0.054071352 -0.9782396 0.00064941979
-0.36504388 0.025945574 0.035512388 0.17586398 -0.050620943 -0.98311216 0.00040599817
-0.35596785 0.025949255 0.036961876 0.15769777 -0.049103532 -0.98626578 3.8714887e-05
-0.34774929 0.025471052 0.038208771 0.15343933 -0.045894507 -0.98709178 2.0484469e-05
0.47721624 0.025776422 0.036165453 -0.99858207 -0.0483808 0.022207191 0.0042169797
-0.3815794 0.033967718 0.032216161 0.24872662 -0.069051959 -0.96610916 0.0012008123
-0.36779147 0.038773134 0.034277502 0.19896072 -0.054860391 -0.97847074 0.00064892578
-0.35505122 0.033433963 0.036726691 0.1584516 -0.051738873 -0.98601019 2.1528305e-05
-0.34634918 0.034137264 0.038055286 0.15588368 -0.046433549 -0.98668343 2.2192115e-05
-0.33661571 0.031234933 0.039620936 0.1514236 -0.037792407 -0.98774624 5.9404454e-05
0.47685438 0.036363557 0.030734658 -0.99859005 -0.052987143 0.0031950511 0.0040265634
-0.38106194 0.044954076 0.031661328 0.2578693 -0.058073912 -0.96443295 0.0013399882
-0.37397644 0.047840174 0.032686591 0.22720413 -0.059338156 -0.97203767 0.00094795495
-0.36460748 0.046790522 0.03433454 0.18444867 -0.052375514 -0.98144567 0.00042329187
-0.3566255 0.043113589 0.035905682 0.16080764 -0.052088443 -0.98561031 2.7850665e-05
-0.34331313 0.04364175 0.03810966 0.16043741 -0.047053069 -0.98592389 2.5486806e-05
0.47645673 0.045304179 0.033744261 -0.99843681 -0.044865027 -0.033332106 0.0077643301
-0.3726086 0.053362355 0.032586291 0.23095037 -0.05104699 -0.97162545 0.0010402971
-0.36456287 0.059568319 0.033617061 0.19548044 -0.039684176 -0.97990441 0.00061223749
-0.3536813 0.058038183 0.035523448 0.16834931 -0.043194462 -0.98478055 5.3472017e-05
-0.33823702 0.057620607 0.038172428 0.16212586 -0.039832961 -0.98596579 5.2699772e-05
0.47595823 0.05340983 0.034184087 -0.99856627 -0.053430002 -0.0032463665 0.0059878719
-0.38137132 0.066285059 0.030246951 0.26420134 -0.06337516 -0.96238309 0.0011775193
-0.3758992 0.0645096 0.031584729 0.24833263 -0.049434502 -0.96741259 0.0013236792
-0.36424696 0.064961612 0.03354539 0.19659004 -0.049033199 -0.97925895 0.00065466441
-0.3553215 0.065053634 0.035053149 0.16721322 -0.037261203 -0.98521638 6.2105755e-05
-0.33243191 0.065582015 0.038913012 0.15764846 -0.039725006 -0.98669595 9.0437396e-05
-0.32939577 0.061903045 0.039432496 0.15474603 -0.042030156 -0.98705977 0.0001167383
0.47527409 0.065909974 0.032140028 -0.99802512 -0.062810525 -0.0007916934 0.0054996582
-0.36428386 0.072473824 0.033364885 0.20234008 -0.051743265 -0.97794741 0.00048978301
-0.34384245 0.074908137 0.036766395 0.16287781 -0.039224651 -0.98586625 0.00010300677
-0.33556172 0.075571388 0.038151819 0.15874358 -0.04378248 -0.98634857 0.00012248484
0.47492999 0.072955586 0.037172392 -0.99690562 -0.077030793 -0.015666164 0.014352877
-0.37086031 0.083022811 0.032007676 0.24331266 -0.076580532 -0.96692002 0.0010035185
-0.36400026 0.086533524 0.033025421 0.22123408 -0.077266894 -0.97215497 0.00093020068
-0.34642154 0.084107712 0.036116697 0.16605435 -0.055030625 -0.98457986 0.00020797001
-0.33031163 0.086143494 0.038715605 0.14366186 -0.062041342 -0.98768008 0.00028417207
-0.32386041 0.086597413 0.0395649 0.1383204 -0.062298533 -0.98842615 0.00019448937
0.47399664 0.085596062 0.034842141 -0.99199587 -0.11768294 -0.045770045 0.010292449
-0.36160451 0.099581897 0.032288596 0.2235882 -0.13052669 -0.96590436 0.0013055034
-0.35311377 0.097923137 0.033876758 0.18720946 -0.10482137 -0.97671133 0.00070440094
-0.34394503 0.09493494 0.035701301 0.16606349 -0.09541744 -0.98148787 0.00016780219
-0.33139545 0.093368232 0.037967656 0.14823128 -0.074308373 -0.986157 0.00041354506
-0.31670019 0.098061174 0.039732933 0.1267609 -0.084058858 -0.98836523 0.00026324761
0.47317386 0.094232008 0.032827947 -0.99103272 -0.11382269 -0.069989309 0.0093142809
-0.36786276 0.10429538 0.030465165 0.26592752 -0.14959291 -0.95231533 0.0020208727
-0.35866761 0.1078045 0.031691052 0.22859678 -0.14092024 -0.96326786 0.0012801745
-0.34524351 0.10247384 0.0347079 0.16641101 -0.10885252 -0.98002988 0.00021731488
-0.33313841 0.10644557 0.036198549 0.16200703 -0.12115579 -0.97932374 7.7444216e-05
-0.32522932 0.10478559 0.037769336 0.14593557 -0.10712096 -0.98347747 0.000315226
-0.31729823 0.10406709 0.039128538 0.12804346 -0.096725807 -0.98704052 0.00032034976
0.47176415 0.10443687 0.033716049 -0.98623067 -0.1390906 -0.089458644 0.013879354
-0.35490507 0.11562921 0.0312507 0.23003331 -0.166483 -0.95883679 0.0014258447
-0.34538317 0.11654031 0.032719012 0.175202 -0.13668436 -0.9749983 0.00021433549
-0.33641082 0.11466128 0.03449253 0.16590419 -0.13012667 -0.97751868 8.302385e-05
-0.32199004 0.11423135 0.036992334 0.1542529 -0.12415511 -0.98019975 9.5230287e-05
-0.31226221 0.11566687 0.038405605 0.12821911 -0.11345426 -0.98523498 0.00029860495
-0.30403924 0.11705767 0.039285921 0.11291174 -0.10548145 -0.9879902 0.00057738269
0.469861 0.11392969 0.03641127 -0.98361492 -0.12211785 -0.13262327 0.027894229
0.47053885 0.11309797 0.030260861 -0.98822069 -0.14925447 -0.033808894 0.0060588946
-0.35195816 0.12513046 0.030447774 0.23116031 -0.15786918 -0.96002197 0.0013421485
-0.34484476 0.12560734 0.031566523 0.20196974 -0.14374894 -0.96878499 0.00075735012
-0.33509183 0.12753679 0.032926779 0.16897489 -0.13566625 -0.97623879 6.6072113e-05
-0.3288883 0.1272634 0.033997342 0.16479388 -0.13389702 -0.97719729 4.7707781e-05
-0.31421691 0.12339036 0.037022516 0.14361614 -0.12546061 -0.98164862 0.00015973857
0.46828899 0.12584065 0.034425281 -0.96765399 -0.2182053 -0.12661852 0.029592268
-0.34383854 0.13235433 0.030815581 0.20153822 -0.14791846 -0.96824712 0.00079923775
-0.33598408 0.13656199 0.031549823 0.18838637 -0.1497622 -0.97060895 0.00077453937
-0.32455122 0.13438371 0.033748738 0.16361886 -0.13215731 -0.97763151 1.727448e-05
-0.31105217 0.13630977 0.035745632 0.15146473 -0.13261124 -0.9795267 0.00015108925
-0.29392365 0.13449033 0.038479503 0.11206026 -0.1065282 -0.98797488 0.00046793534
-0.28748608 0.13413158 0.039372224 0.092296019 -0.091701098 -0.99150008 0.00084365869
-0.26829907 0.13948078 0.039922874 0.038024776 -0.067332283 -0.99700576 0.00057853619
-0.25330102 0.13863498 0.039805785 0.042968825 -0.061351694 -0.99719089 0.00053959532
-0.24834688 0.13483316 0.039998863 0.056992035 -0.067281507 -0.99610502 0.00071677932
0.46679822 0.13524003 0.034394965 -0.94237816 -0.32139564 -0.092888556 0.029559998
-0.33424202 0.14627789 0.03052621 0.19309466 -0.30850562 -0.93141758 0.12816167
-0.32663837 0.14690019 0.031703632 0.19204526 -0.24924572 -0.94920766 0.083143257
-0.31420633 0.14287642 0.034314118 0.155688 -0.14629084 -0.97691363 0.00040301259
-0.30491266 0.14496207 0.03557511 0.14815755 -0.1605247 -0.97584897 0.0017070894
-0.29535481 0.14679027 0.036789399 0.13409351 -0.17534983 -0.97533143 0.0031100914
-0.28481275 0.14791828 0.038041878 0.11237716 -0.17289692 -0.97850806 0.0059427707
-0.27688381 0.1463809 0.03926884 0.080581963 -0.12674661 -0.98865664 0.002683531
-0.26493472 0.14774427 0.039576799 0.049832731 -0.10238706 -0.99349564 0.0024644639
-0.25284266 0.14612491 0.039522089 0.043909263 -0.093101427 -0.99468797 0.0017393297
-0.24692959 0.14420521 0.03957402 0.053940523 -0.088805266 -0.99458742 0.0018587123
0.46266246 0.14533466 0.034392674 -0.84583735 -0.52384537 -0.10072348 0.033029217
-0.3311891 0.15013361 0.030552097 0.22129896 -0.29687572 -0.92891955 0.12932858
-0.32498199 0.15434766 0.031077314 0.20461053 -0.3829706 -0.90081525 0.12769327
-0.31487402 0.15421382 0.032775391 0.22012961 -0.33282661 -0.91693479 0.081336282
-0.30230477 0.15188758 0.035147138 0.13253115 -0.25916365 -0.95669729 0.0057436721
-0.29299292 0.15733054 0.035986792 0.12663575 -0.37330085 -0.91902655 0.026034031
-0.28556287 0.1543408 0.037329361 0.12792373 -0.27208334 -0.95373279 0.01232136
-0.27571377 0.15541251 0.038524669 0.097778589 -0.2707364 -0.95767492 0.018979352
-0.26459381 0.15593705 0.039543174 0.051063612 -0.23261775 -0.97122681 0.023314923
-0.25401792 0.15323983 0.039487939 0.030790357 -0.17835267 -0.98348475 0.019412184
-0.24775378 0.15462364 0.039433327 0.034001548 -0.20235369 -0.97872204 0.023287501
-0.23639953 0.15708391 0.039505523 0.074934825 -0.25469607 -0.96411335 0.027448943
0.44906667 0.15951474 0.03091538 -0.44180864 -0.89679134 -0.023882497 0.019084139
0.45431715 0.1570732 0.034680553 -0.61074853 -0.78826088 -0.075039908 0.034401141
-0.32324743 0.16150683 0.03046832 0.18273373 -0.47712177 -0.85962963 0.12615845
-0.31569093 0.16504225 0.030214246 0.18664011 -0.55617619 -0.80983549 0.10679747
-0.30475876 0.16477458 0.032113079 0.13496925 -0.54819626 -0.8253873 0.05182381
-0.29423967 0.16452211 0.03394457 0.097887076 -0.57833964 -0.80990207 0.039095618
-0.28371993 0.16518719 0.035398871 0.12747569 -0.63479674 -0.76209128 0.054362312
-0.27176765 0.16512443 0.036971334 0.10285659 -0.51217729 -0.85269862 0.045307141
-0.26370794 0.16490078 0.03817036 0.011847625 -0.48278496 -0.87565881 0.053284347
-0.25619939 0.16319533 0.039261494 0.032517757 -0.44891521 -0.89298248 0.05859137
-0.24570543 0.16261172 0.039219059 0.046939936 -0.45255381 -0.89050084 0.0648138
-0.23374641 0.16747586 0.038156975 0.1231231 -0.57204008 -0.81093204 0.057086408
-0.2282462 0.16473934 0.038896561 0.06839826 -0.56410486 -0.82286543 0.054578457
-0.21528234 0.16918972 0.038341817 0.14583442 -0.68195468 -0.71670789 0.059979454
-0.2062207 0.16835697 0.039709967 0.079468861 -0.70041823 -0.70929474 0.060935117
0.40841055 0.1698181 0.032957107 -0.24186416 -0.96596956 -0.091675855 0.012173539
0.41442302 0.16834886 0.0355254 -0.24600422 -0.95741367 -0.15113214 0.025357742
0.42505112 0.16564304 0.034029599 -0.25351459 -0.963458 -0.086481124 0.012757719
0.43510211 0.16303639 0.035612129 -0.27698526 -0.94592112 -0.16885625 0.025520863
0.44584304 0.16027176 0.033701263 -0.39707121 -0.91198915 -0.10300622 0.029916795
-0.29217279 0.17286634 0.030142838 0.049780127 -0.72734863 -0.68446028 0.043158166
-0.28242326 0.17283113 0.031546716 0.091249704 -0.74057668 -0.66574752 0.049836121
-0.27884352 0.17255116 0.032236863 0.07202246 -0.74218452 -0.66631442 0.052712686
-0.26492894 0.17190254 0.034969512 -0.0028441299 -0.6730746 -0.73956919 0.057238862
-0.25268981 0.17188816 0.036140632 0.031373896 -0.69685829 -0.71652228 0.065263577
-0.24530014 0.1730513 0.034637485 0.030606266 -0.76915324 -0.63833117 0.068547338
-0.23443493 0.17202038 0.036834016 0.1047716 -0.64444166 -0.75744158 0.058257196
-0.22516306 0.17279561 0.034815446 0.082375772 -0.72840363 -0.68017823 0.067366682
-0.21329924 0.17336336 0.034247391 0.079680778 -0.81101876 -0.57956845 0.053455181
-0.20644134 0.17293964 0.034856547 0.058168992 -0.85257667 -0.51935464 0.041506782
-0.19553334 0.17222814 0.037288211 0.032821782 -0.84626251 -0.53175414 0.044026587
-0.18337055 0.17259684 0.035351362 0.028448472 -0.91700536 -0.39785933 0.033378426
-0.17711149 0.17247482 0.036196344 0.030194199 -0.92845649 -0.37021181 0.030765286
-0.16450882 0.17281456 0.032984771 0.006115912 -0.95620745 -0.29262599 0.027614651
-0.15687537 0.17268831 0.037469383 -0.021516876 -0.9110536 -0.41172615 0.027832376
-0.14339089 0.17294981 0.034736864 -0.0099369064 -0.93721473 -0.3486113 0.027473064
-0.13633335 0.17301847 0.032725342 0.00096141285 -0.94817853 -0.31773636 0.026448181
-0.12538078 0.17308585 0.035065889 0.010143651 -0.94115615 -0.33781976 0.028455496
-0.11306293 0.17320929 0.036222387 0.080379568 -0.94382453 -0.3205218 0.024432058
-0.093191072 0.17346121 0.036453284 -0.013741754 -0.93796664 -0.34645307 0.023067603
-0.0625135 0.17381266 0.037969708 0.048029851 -0.95241266 -0.30100378 0.030907575
-0.059409656 0.17393757 0.035357151 0.05012735 -0.96029919 -0.27443162 0.031105099
-0.043644365 0.1742954 0.030649461 0.042961121 -0.97421867 -0.22147772 0.025591418
-0.031889606 0.17421764 0.037808016 -0.0036848995 -0.94827157 -0.31743887 0.027736982
-0.025204681 0.17428282 0.036999203 -0.026951205 -0.9385407 -0.34411478 0.023320902
-0.014861749 0.17434992 0.035287607 -0.025224121 -0.95835322 -0.28446952 0.023542704
-0.001310057 0.17455685 0.032783389 -0.012023869 -0.96347803 -0.26751736 0.019496549
0.017500028 0.1747721 0.033893123 0.07457754 -0.9565472 -0.28187913 0.024020646
0.022418588 0.17476092 0.037961137 0.060212687 -0.94236952 -0.32911125 0.02585347
0.04476561 0.17509332 0.034986176 -0.012317374 -0.97881001 -0.20439978 0.024117615
0.057564747 0.1752568 0.034787964 0.049300037 -0.97075796 -0.23494364 0.026842883
0.067774624 0.17534855 0.036796372 0.009601512 -0.96975851 -0.2438774 0.024628812
0.093557559 0.17565732 0.03632934 -0.026806418 -0.97502261 -0.22048177 0.028376924
0.10046096 0.17571101 0.032319546 0.00031910231 -0.99243957 -0.12273428 0.01543351
0.11201553 0.17581084 0.030830001 0.022610964 -0.99924779 -0.031504553 0.0010468983
0.12607318 0.17591475 0.038445286 0.022930795 -0.97966945 -0.19930367 0.025172632
0.13273394 0.17600822 0.037014745 0.027304158 -0.9884429 -0.1491147 0.018046133
0.14950615 0.17620212 0.03813611 0.020442346 -0.98429561 -0.17534022 0.021847598
0.15696533 0.17630632 0.036586106 -0.0028867009 -0.98890406 -0.14852722 0.019384399
0.16675538 0.17642063 0.03711462 0.0067264028 -0.98388773 -0.17866051 0.026353082
0.17616069 0.17656159 0.035334714 0.003154994 -0.99120498 -0.13229784 0.016273027
0.18559678 0.17671341 0.036335435 0.014442598 -0.9906342 -0.13577649 0.014987324
0.19470398 0.17682321 0.035447363 -0.0012490107 -0.99253708 -0.12193719 0.011162882
0.20466208 0.17687821 0.036275081 -0.02029923 -0.98323745 -0.18119602 0.01709526
0.21596898 0.17697875 0.034276132 0.026261657 -0.990762 -0.13304536 0.010813365
0.22574103 0.17706786 0.036462545 0.038056392 -0.98908758 -0.14232875 0.013958774
0.23540156 0.17718145 0.036929525 0.0089980708 -0.99255651 -0.12145228 0.011010785
0.24370071 0.17729308 0.034590632 0.012977382 -0.9986062 -0.0511593 0.0008744006
0.25639629 0.1774451 0.034666326 0.018988522 -0.99783617 -0.062948301 0.0027318425
0.26565629 0.17755432 0.035049208 0.0073116566 -0.99721611 -0.074206598 0.0045613637
0.27328438 0.17763335 0.03744803 0.027014913 -0.99347007 -0.11084837 0.0091741681
0.28293642 0.17767631 0.035853412 0.010538951 -0.99769044 -0.067102917 0.0049705449
0.2947087 0.17767632 0.035526376 0.0051765773 -0.99925572 -0.038224969 0.0042549954
0.30491734 0.17767631 0.035235222 -0.015268667 -0.99777615 -0.064880937 0.0035712852
0.31837854 0.17767631 0.03589046 -0.00053600175 -0.99780786 -0.06617602 0.004081259
0.32561937 0.17767632 0.034993853 0.0041973749 -0.99687779 -0.078848235 0.0045696464
0.33529562 0.17767632 0.036598865 -0.024847925 -0.9876799 -0.15450241 0.011427733
0.3445079 0.17767632 0.034148321 -0.020618377 -0.99217629 -0.12313023 0.0077287219
0.35520831 0.17767631 0.035908241 -0.033203222 -0.98965228 -0.13959196 0.010654463
0.36314988 0.17767629 0.036635034 -0.034473985 -0.9787358 -0.20220731 0.019312024
0.37640923 0.17756617 0.035621502 -0.10396296 -0.97968262 -0.17150407 0.016074514
0.38623509 0.175528 0.036865197 -0.1530624 -0.9790377 -0.13437644 0.012847916
0.39315033 0.17374732 0.035342515 -0.17440768 -0.97813809 -0.11325958 0.013062813
0.40319845 0.17117305 0.034487061 -0.23557064 -0.96690226 -0.098012716 0.013955773
-0.18502906 -0.17215689 0.04049179 0.085274845 0.80686843 -0.58454382 0.037356004
-0.16636595 -0.17130958 0.041297674 0.072529726 0.84567511 -0.52874672 0.031930164
-0.1542124 -0.17250091 0.041809872 0.064479768 0.90175194 -0.4274177 0.023527469
-0.14777446 -0.17178856 0.042787619 0.015093488 0.89614999 -0.44349444 0.020470165
-0.13878497 -0.17272092 0.040947892 -0.036924813 0.91238832 -0.40765688 0.019863619
-0.12496296 -0.17136294 0.043898027 -0.00063701603 0.91434252 -0.40494111 0.022985058
-0.10532884 -0.17312455 0.041972458 0.059264284 0.91126221 -0.40754002 0.021819729
-0.09504652 -0.17191584 0.044473886 0.03190216 0.90661895 -0.42074248 0.020438388
-0.083694063 -0.17282835 0.043684267 0.039060678 0.91698003 -0.39701617 0.020076804
-0.075797938 -0.17269854 0.043346841 -0.00018262157 0.90276694 -0.43013009 0.019834746
-0.06508448 -0.17148244 0.044717778 0.0078169368 0.89464116 -0.44671699 0.020143701
-0.053546656 -0.17373078 0.044130556 -0.0031668784 0.89984208 -0.43620417 0.021523515
-0.044397376 -0.173232 0.044508904 0.047910377 0.88047802 -0.47166002 0.022029703
-0.034531064 -0.1737515 0.044577718 0.029994732 0.88266051 -0.46905312 0.020427652
-0.02345009 -0.17334557 0.046449389 0.041270912 0.89161438 -0.45091081 0.020000156
-0.015047849 -0.17358029 0.045012068 0.034420472 0.89367342 -0.44739601 0.021498321
-0.0030959882 -0.17297645 0.046696991 0.013054537 0.8929233 -0.45001957 0.018102435
0.0027197618 -0.17122152 0.0493664 -0.0040958836 0.88989681 -0.45614338 0.01450649
0.011146331 -0.17456406 0.041097563 0.0031742319 0.93977529 -0.34177801 0.022475185
0.026755741 -0.17451577 0.044956077 0.069749132 0.92383373 -0.37638578 0.027663482
0.037182439 -0.17479672 0.046288807 0.072579391 0.9039818 -0.42136565 0.026706751
0.044213165 -0.17484559 0.046803877 0.057921287 0.89724576 -0.43771592 0.031214762
0.05623458 -0.17506151 0.044794191 0.049367398 0.92817038 -0.36886659 0.032783572
0.072858989 -0.17528361 0.043990687 -0.023242759 0.92521304 -0.37873551 0.037300866
0.085333966 -0.17543891 0.044024076 0.035746288 0.93325341 -0.35743579 0.036655765
0.097567305 -0.17552581 0.046665318 0.025687523 0.92799902 -0.37169617 0.036028177
0.10578807 -0.17558339 0.048121154 -0.019432483 0.92019033 -0.39098874 0.037922569
0.11614873 -0.17574328 0.044245631 0.020005075 0.93945879 -0.3420774 0.037198685
0.12611473 -0.17587979 0.042484567 0.017218288 0.96168065 -0.27363065 0.03168451
0.13847253 -0.17598557 0.047535382 0.01326682 0.93149298 -0.36351725 0.030950673
0.15531716 -0.17621613 0.044579905 0.065981798 0.94273782 -0.32694322 0.034357395
0.16401722 -0.17634034 0.042471644 -0.019701207 0.97218698 -0.23337598 0.03200186
0.17704932 -0.17649078 0.045277882 0.016110629 0.94832593 -0.31688848 0.031901248
0.18242273 -0.17654951 0.046934187 -0.013046404 0.91738296 -0.39779177 0.031628639
0.19498402 -0.17669238 0.043808557 0.035483219 0.95636398 -0.29001528 0.031798974
0.20324989 -0.17676556 0.043666296 0.0052062222 0.969006 -0.24698241 0.02323886
0.21533804 -0.1768958 0.045686066 0.0080204699 0.95514429 -0.29603213 0.025153857
0.2276141 -0.17705093 0.04417127 0.035373069 0.94461322 -0.32627413 0.028637705
0.23252605 -0.17710035 0.046043094 0.045673709 0.94626254 -0.32015783 0.029829888
0.24590218 -0.1772718 0.04391969 0.041669048 0.96345502 -0.26460946 0.027358862
0.25525823 -0.17737576 0.045548193 -0.0030622163 0.94123447 -0.33774003 0.030761801
0.26591915 -0.1775151 0.043332744 0.056573853 0.97838223 -0.19891597 0.022386899
0.27630877 -0.17763138 0.044986788 0.025800608 0.963682 -0.26580319 0.029969644
0.28375 -0.17767632 0.041761123 0.0054682139 0.99135834 -0.1310679 0.015936824
0.29145154 -0.17767631 0.044526689 -0.0088720247 0.97720677 -0.21210442 0.023020491
0.30505374 -0.17767632 0.045614492 -0.019503439 0.97364748 -0.22722301 0.02234141
0.31679702 -0.17767631 0.047550883 -0.044652227 0.96264416 -0.26706243 0.020784764
0.32275981 -0.17767631 0.04567638 -0.010235437 0.9636901 -0.26682711 0.019859957
0.33479622 -0.17767631 0.044127978 -0.017456276 0.97082794 -0.23914105 0.022198603
0.3451848 -0.17767631 0.045816481 -0.039619476 0.9370321 -0.34698853 0.02663384
0.35489699 -0.17767632 0.044876333 -0.024559353 0.9364146 -0.35003519 0.026842641
0.36498857 -0.17767632 0.04379636 -0.043482095 0.9378143 -0.34440327 0.031421628
0.37687299 -0.17767631 0.044026822 -0.11125416 0.92201662 -0.37082058 0.036627807
0.38588467 -0.17614616 0.046220154 -0.14501573 0.89992076 -0.41123354 0.03812081
0.40335861 -0.17199494 0.044779923 -0.22901307 0.93067765 -0.2852931 0.034581155
0.41010857 -0.17065586 0.048547462 -0.22605953 0.85849988 -0.46029884 0.049926527
-0.2246758 -0.16121514 0.040521197 0.14198647 0.50976121 -0.84851831 0.053457979
-0.21385248 -0.16383831 0.040840168 0.062349278 0.58544701 -0.80830956 0.053223781
-0.20595129 -0.1631344 0.042212408 0.1176492 0.59264559 -0.79682481 0.053429373
-0.19611201 -0.16716233 0.04150366 0.14047423 0.69299835 -0.70712119 0.05156453
-0.18531211 -0.16264138 0.044242613 0.14463247 0.64918041 -0.74675715 0.042078648
-0.17684621 -0.16665359 0.043264773 0.13107897 0.77443653 -0.61892354 0.033378541
-0.16300461 -0.16482472 0.04446204 0.11581361 0.77237529 -0.62451869 0.024761399
-0.15688391 -0.16518234 0.044602722 0.071365342 0.8071357 -0.58603656 0.020147076
-0.14701584 -0.16412762 0.04537325 0.077701978 0.81810242 -0.56979901 0.016766591
-0.13521031 -0.16385944 0.045985725 0.0005998945 0.86458182 -0.50249159 0.015417973
-0.12152176 -0.16658776 0.04563573 -0.0019227217 0.8939786 -0.44810569 0.018934762
-0.11628296 -0.16576269 0.046152368 0.029585091 0.90104711 -0.43271095 0.01717067
-0.095051765 -0.16182888 0.048415963 0.051494136 0.89579523 -0.44147402 0.015881311
-0.088968046 -0.16740224 0.04674644 0.023374332 0.90485412 -0.4250797 0.018099556
-0.075264581 -0.1642454 0.048427433 0.025338134 0.90598428 -0.42255232 0.0161894
-0.065779388 -0.16498148 0.048589502 0.008332314 0.88692093 -0.46184602 0.016100084
-0.059400845 -0.16281022 0.049616374 0.0069591897 0.8781383 -0.47835624 0.017862868
-0.046124022 -0.1657327 0.049156565 0.022017069 0.87084949 -0.49105644 0.017335484
-0.034987323 -0.16537665 0.049729962 0.039658137 0.88731289 -0.45945945 0.019777054
-0.020149004 -0.16678077 0.04987555 0.053165402 0.88607603 -0.46048099 0.017925225
-0.011929726 -0.16873264 0.049573969 0.026581623 0.8942548 -0.44676828 0.016162856
0.41390857 -0.16921861 0.044051249 -0.25337341 0.90583354 -0.33951077 0.049083766
0.42789081 -0.16552873 0.043376427 -0.24091867 0.90060741 -0.36175194 0.044141445
0.43380171 -0.16408373 0.044128049 -0.24460657 0.89618266 -0.37016788 0.049774386
0.4474206 -0.1603215 0.04174434 -0.40029219 0.87289101 -0.27897573 0.050365962
-0.23326007 -0.15233631 0.040334962 0.089851663 0.23602025 -0.96758515 0.018395538
-0.22746436 -0.15468283 0.040939566 0.11253805 0.3011373 -0.94691676 0.02361938
-0.21785538 -0.15420957 0.042414214 0.11368879 0.3067213 -0.94498515 0.029037915
-0.20570111 -0.15342607 0.044166129 0.17199208 0.38751319 -0.9056778 0.031042619
-0.19740632 -0.15469757 0.046211191 0.20168416 0.38762364 -0.89948398 0.022013213
-0.18800399 -0.15928626 0.048211165 0.18592206 0.52558863 -0.83017445 0.025403537
-0.17374176 -0.15925847 0.048305005 0.17761216 0.63309944 -0.75341821 0.030111605
-0.16644853 -0.1595948 0.046525136 0.14281705 0.71240497 -0.68708259 0.033900097
-0.15769733 -0.15908986 0.049187228 0.14605759 0.73146904 -0.66604823 0.027748793
-0.14173371 -0.15973771 0.047251143 0.04660162 0.82482225 -0.56346828 0.016104681
-0.12789875 -0.15954229 0.048774511 0.033875648 0.89480948 -0.44516125 0.017497083
-0.10494409 -0.15958641 0.049795009 0.035054192 0.89772516 -0.4391591 0.022766557
-0.086209707 -0.15992327 0.049517322 0.025085725 0.88402271 -0.46677041 0.019447219
0.45459583 -0.15848224 0.04514477 -0.48882273 0.81476068 -0.3117969 0.057999738
0.46110669 -0.15350723 0.043951437 -0.70759469 0.66427433 -0.24093431 0.051664785
-0.24147812 -0.14198163 0.04011013 0.081108853 0.075211152 -0.99386346 0.00080374099
-0.23367278 -0.14512922 0.040770985 0.10232822 0.12677769 -0.9866389 0.0034853546
-0.21369979 -0.14741395 0.043173902 0.16835462 0.20081225 -0.96505499 0.0067447787
-0.204322 -0.14676152 0.045000799 0.23109044 0.24889064 -0.94055867 0.010020974
-0.19663458 -0.14657821 0.047976032 0.27746165 0.28624719 -0.91710281 0.0096623125
0.4659203 -0.14214912 0.042886063 -0.85663229 0.43576911 -0.27619997 0.054800969
-0.28028086 -0.13350244 0.040189747 0.057664547 0.078844883 -0.99521774 0.00082315877
-0.27390808 -0.13257524 0.040295813 0.034730557 0.065121457 -0.99727279 0.00047606893
-0.2644802 -0.1316995 0.040237892 0.023499271 0.059935983 -0.99792558 0.00028774352
-0.2588051 -0.13082553 0.040225517 0.038261127 0.065988652 -0.99708652 0.00046906536
-0.24633715 -0.13667817 0.040057462 0.05664783 0.070632599 -0.99589252 0.00071662461
-0.23461857 -0.13590941 0.041616887 0.10201694 0.087525211 -0.99092478 0.00048729518
-0.21556418 -0.13494125 0.044043113 0.21651646 0.14002949 -0.96618444 0.0024944916
-0.20015232 -0.13850915 0.048424836 0.32386333 0.19963726 -0.92480135 0.003392553
0.47005668 -0.13261467 0.046054829 -0.91182172 0.27855739 -0.30164051 0.064684063
-0.29388037 -0.12029013 0.040055703 0.084509082 0.093122944 -0.99206167 0.0008189748
-0.28498542 -0.12700151 0.040320989 0.063369639 0.077841729 -0.99494976 0.0007615909
-0.27162457 -0.12262477 0.040725634 0.026771177 0.063131079 -0.99764609 0.0002489879
-0.25435016 -0.12376653 0.040622167 0.054368246 0.08204332 -0.99514472 0.00063945516
-0.24514037 -0.1240434 0.041543175 0.090447918 0.086687639 -0.99212116 0.00063453376
-0.23417681 -0.12384463 0.042938851 0.13758639 0.099872932 -0.98544168 0.00099061488
-0.22276735 -0.12476698 0.044130556 0.19580737 0.12558569 -0.97256762 0.002363235
-0.21620609 -0.1272396 0.044842441 0.22585064 0.13368863 -0.96494496 0.0027113657
-0.20628276 -0.12300822 0.049231526 0.31573951 0.18419051 -0.93079662 0.0018122182
0.46939594 -0.12435568 0.040313728 -0.95074058 0.27569628 -0.14171825 0.034055382
0.47110733 -0.126167 0.046268903 -0.93019217 0.25792453 -0.2611846 0.054108061
-0.3007527 -0.11134298 0.040196877 0.093739398 0.089668937 -0.99155045 0.00066159898
-0.29384831 -0.11409468 0.04062894 0.058289587 0.069298573 -0.99589151 0.00056110392
-0.27508008 -0.11419207 0.041157868 0.026653595 0.059937876 -0.99784619 0.00024389027
-0.26486155 -0.11440857 0.041076437 0.033807319 0.062947273 -0.99744409 0.00049765909
-0.25413632 -0.11247285 0.041662388 0.06912411 0.071188234 -0.99506485 0.00058552978
-0.24496642 -0.11563054 0.042425856 0.096392475 0.086599462 -0.99156898 0.00050752208
-0.23485053 -0.11734433 0.043433741 0.15340653 0.098065868 -0.98328507 0.0015950402
-0.22681387 -0.11301607 0.04470754 0.20221005 0.11425862 -0.97265416 0.0030830586
-0.21636713 -0.11732926 0.046278112 0.25828889 0.15736002 -0.95316559 0.0036129307
0.47317094 -0.11583516 0.048040565 -0.94416529 0.1863139 -0.27173355 0.055224832
-0.30294019 -0.10266936 0.040777843 0.079160489 0.076453537 -0.99392575 0.0007286559
-0.29554129 -0.10479196 0.041316867 0.065328561 0.070530556 -0.99536812 0.0004444287
-0.28647098 -0.10443956 0.041717321 0.039083667 0.05811464 -0.99754453 0.00042799124
-0.27548638 -0.10489898 0.041612044 0.023672922 0.049550314 -0.99849105 0.00014763779
-0.26507503 -0.10621902 0.041481469 0.045783807 0.062907435 -0.99696869 0.00049711292
-0.25230771 -0.10472097 0.042593129 0.08690232 0.069967464 -0.99375677 0.00048206828
-0.24325557 -0.10603119 0.043486904 0.12568127 0.085172988 -0.98840773 0.00065013702
-0.2371525 -0.10410497 0.044334628 0.14474641 0.11040185 -0.98329031 0.0019423886
-0.22468355 -0.10603955 0.045589585 0.23912881 0.13134424 -0.96206349 0.0032104538
-0.21689489 -0.10338669 0.049062692 0.31475958 0.16316468 -0.93504202 0.0028592281
0.47389042 -0.10475292 0.045390815 -0.94648552 0.13969491 -0.29094741 0.058222167
-0.30572766 -0.093667194 0.041057892 0.091103777 0.06131405 -0.9939521 0.00040221727
-0.29439321 -0.091667205 0.041919611 0.047655512 0.055202499 -0.99733728 0.00050045713
-0.28522551 -0.095848031 0.04187179 0.027476102 0.054504585 -0.99813545 0.00018064152
-0.27438724 -0.094192304 0.041790534 0.033693381 0.051903497 -0.99808359 0.00026750454
-0.26615119 -0.093395352 0.041994948 0.047215391 0.056698829 -0.99727428 0.00038837758
-0.25707772 -0.092477113 0.042907525 0.081549361 0.070284612 -0.99418801 0.00057528989
-0.24462523 -0.09202648 0.044321839 0.14319593 0.092008501 -0.98540825 0.0016277815
-0.22724505 -0.094063297 0.046815 0.2691012 0.1325123 -0.95395231 0.0035078712
0.4752557 -0.096319124 0.04616287 -0.9603889 0.11388487 -0.25432929 0.05772933
-0.31693423 -0.085061826 0.040354099 0.11986062 0.056778654 -0.99116576 0.00028199051
-0.30647618 -0.083961889 0.041515511 0.087948516 0.063330859 -0.99410975 0.00041914679
-0.29520255 -0.088330343 0.041912712 0.053384677 0.055261984 -0.99704373 0.00050354551
-0.28588033 -0.082355864 0.042135093 0.020140298 0.058342382 -0.99809349 0.00019533548
-0.26516348 -0.085629977 0.042450126 0.056520544 0.063927852 -0.99635267 0.00047247767
-0.24355985 -0.085864492 0.044869989 0.16685987 0.094307482 -0.98146009 0.0018600958
-0.23296835 -0.084311515 0.046456419 0.23595522 0.11434776 -0.96501279 0.0032740515
-0.22775909 -0.084620841 0.048522256 0.30921143 0.13230604 -0.94174486 0.0032348123
0.47640562 -0.087048352 0.046147026 -0.96729845 0.070505217 -0.24364471 0.055605229
-0.32029977 -0.077479117 0.040123269 0.12686116 0.050966911 -0.99061018 0.0003599925
-0.31529436 -0.074247457 0.040798809 0.11399048 0.05102301 -0.99217075 0.00044936727
-0.30088851 -0.070040323 0.043134689 0.067500554 0.055081323 -0.99619764 0.00068944896
-0.29558089 -0.07646066 0.042631 0.05059164 0.056941301 -0.99709487 0.00053881679
-0.28617328 -0.074387126 0.042716913 0.031818911 0.067057893 -0.99724156 0.00035357114
-0.27488121 -0.072308116 0.042923898 0.02974923 0.065249987 -0.99742538 0.00026397186
-0.26661828 -0.073825039 0.04346858 0.066911265 0.074072815 -0.99500561 0.00048092648
-0.25495815 -0.078952119 0.04425475 0.12204543 0.086391203 -0.98875755 0.00049818971
-0.24327028 -0.072983585 0.046153594 0.20331016 0.096054718 -0.97439134 0.003264694
-0.23572347 -0.073057115 0.04741054 0.26876426 0.093152635 -0.95869094 0.0028021799
0.47684747 -0.075107843 0.045611251 -0.95365411 0.059293274 -0.29500529 0.060608719
-0.30213642 -0.063327134 0.043638371 0.065383784 0.051125173 -0.99654961 0.00066580332
-0.29507163 -0.069210634 0.043154746 0.045392152 0.058433458 -0.99725878 0.0004691506
-0.28498366 -0.062572464 0.043718681 0.036627803 0.051078204 -0.99802274 0.00043219235
-0.27624887 -0.065134726 0.043537498 0.031067263 0.063152649 -0.99752021 0.00037045183
-0.26690504 -0.064089373 0.044410225 0.078307204 0.074794516 -0.99411958 0.00049385038
