# .PCD v0.7 - Point Cloud Data file format
VERSION 0.7
FIELDS x y z normal_x normal_y normal_z curvature
SIZE 4 4 4 4 4 4 4
TYPE F F F F F F F
COUNT 1 1 1 1 1 1 1
WIDTH 583
HEIGHT 1
VIEWPOINT 0 0 0 1 0 0 0
POINTS 583
DATA ascii
0.12585369 0.13343869 0.085013159 -0.51144785 -0.30031288 -0.80512941 0.083671987
0.13251926 0.13052589 0.084419206 -0.56450754 -0.24404477 -0.78852606 0.13041304
-0.15364195 0.14384201 0.088672526 0.21479104 -0.6246475 -0.75078648 0.032424055
-0.14840031 0.14733839 0.088689178 0.25766721 -0.67417431 -0.69216806 0.033141103
-0.032927711 0.14456685 0.086648636 -0.73168427 -0.33298352 -0.59477741 0.17031462
-0.027241759 0.14400914 0.082675926 -0.56439704 -0.34360343 -0.75059485 0.25389281
0.066791907 0.14400686 0.082456201 -0.88005531 -0.44620672 -0.16248757 0.21230401
0.071250871 0.14881063 0.083604887 -0.039957002 -0.98086774 -0.19053058 0.18323322
0.10961184 0.14165437 0.089612514 -0.48401478 -0.37526345 -0.79051059 0.056092069
0.11328921 0.14373198 0.085202955 -0.49915293 -0.40130955 -0.76798242 0.058685608
0.1219306 0.14804405 0.080104686 -0.51904356 -0.54907703 -0.65506339 0.099248201
-0.16287994 0.15509364 0.080340423 0.18648642 -0.82943976 -0.52654773 0.043079052
-0.15495612 0.15549484 0.081764877 0.16096406 -0.88657022 -0.43368638 0.040504031
-0.14694443 0.15443473 0.084545307 0.17964517 -0.85273743 -0.49047583 0.054529313
-0.13225815 0.15580976 0.082559988 0.098044612 -0.94698226 -0.30596054 0.035717297
-0.12033185 0.15580975 0.08680436 0.14706233 -0.91875952 -0.36640632 0.039544832
-0.11526334 0.15580975 0.084424928 0.11286413 -0.95831245 -0.26248583 0.034534756
-0.10008281 0.15580975 0.08964695 0.10169969 -0.9284156 -0.35735357 0.042194068
-0.093810275 0.15580975 0.084824279 0.0054206387 -0.98595858 -0.16690224 0.022421306
-0.077618897 0.15580975 0.083018012 0.0099639744 -0.99643248 -0.083802886 0.012146682
-0.064942278 0.15580975 0.082321167 -0.022823095 -0.99711645 -0.072373047 0.0063510793
-0.044874929 0.15580975 0.081651837 -0.26538348 -0.96026653 -0.086369485 0.08085987
-0.03455025 0.1539683 0.084188223 -0.2822032 -0.92830056 -0.24211472 0.14577504
-0.025299033 0.15528944 0.083961383 0.074324355 -0.99712938 0.014453521 0.13915309
-0.01477778 0.15580975 0.083766669 0.22992964 -0.95695347 0.17712279 0.090871394
-0.0023858221 0.15580975 0.085481495 0.14039533 -0.97183102 0.18929768 0.063209966
0.0016302159 0.15580975 0.087092727 0.11143936 -0.98684388 0.1171343 0.042415932
0.012236539 0.15580975 0.086804897 0.045267768 -0.98978096 0.13522027 0.017393341
0.026936866 0.15580975 0.086180188 0.0059302156 -0.99880677 0.048475813 0.015216772
0.034275021 0.15580976 0.085572779 -0.0039016306 -0.999906 -0.013140612 0.0096197436
0.044135269 0.15580975 0.085177191 -0.11671235 -0.99004322 -0.078694031 0.03625961
0.051359877 0.15580975 0.087497175 -0.29478696 -0.93438846 -0.20004731 0.079351842
0.068076 0.15570018 0.084181942 -0.049178809 -0.98701715 -0.15290064 0.19021538
0.07394889 0.15559988 0.083268352 -0.086314633 -0.99345839 -0.074767493 0.17101364
0.08662454 0.15580975 0.087407984 0.068955578 -0.9609167 -0.26811242 0.11518593
0.094604962 0.15538651 0.086714521 -0.13617076 -0.95457464 -0.2650373 0.091251731
0.10724935 0.1537738 0.084418625 -0.40400404 -0.64841819 -0.64523995 0.057770539
-0.13045265 -0.15389112 0.091245726 0.20438556 0.82971108 -0.51942855 0.058176171
-0.12400448 -0.15389153 0.09265922 0.24472234 0.80131155 -0.54590362 0.054067302
-0.11234514 -0.15403524 0.095239729 0.12078425 0.85556948 -0.50340044 0.036318835
-0.10525242 -0.15562537 0.09392184 0.11200229 0.87933308 -0.46284857 0.04855001
-0.094541438 -0.15580975 0.091823086 0.061756559 0.95289046 -0.29696098 0.035189319
-0.084086441 -0.15580975 0.09271279 0.019608596 0.94958651 -0.31289124 0.039524574
-0.07621213 -0.15580975 0.093443751 0.0098397015 0.93050861 -0.36613789 0.037886892
-0.065044686 -0.15580975 0.09345787 -0.028258493 0.93287534 -0.35908911 0.041190151
-0.052427132 -0.15580976 0.09321931 -0.052046798 0.95101601 -0.30472884 0.09372808
-0.043467376 -0.15443723 0.097424746 0.092745885 0.91743296 -0.38693029 0.15991548
-0.035939191 -0.15501548 0.093445636 0.019149134 0.99576032 -0.089970887 0.16759476
-0.026020126 -0.15580975 0.097350247 0.097988904 0.99516654 -0.0064583817 0.13392143
-0.015230902 -0.15580973 0.097104684 0.084818892 0.99392295 -0.070164301 0.051184837
-0.003711103 -0.15580976 0.094052441 0.11486905 0.99235141 -0.045209546 0.039215099
0.004431563 -0.15580973 0.095865406 0.03872237 0.98227775 -0.18338747 0.027875125
0.017541964 -0.15580975 0.097634196 -0.016198004 0.97188985 -0.2348782 0.033731386
0.024423314 -0.15580975 0.094866626 -0.042593628 0.99129158 -0.12460638 0.015298892
0.034767136 -0.15580975 0.09778285 -0.11957075 0.96901524 -0.21613039 0.023172174
0.046366546 -0.15580975 0.09254609 -0.15312272 0.95978963 -0.23528141 0.052654911
0.057324242 -0.15537925 0.096807711 -0.32428426 0.85859549 -0.39705598 0.13654551
0.064976074 -0.15509222 0.094342679 -0.17116666 0.87782103 -0.44736144 0.14346202
0.075197287 -0.15485077 0.096118733 -0.13368855 0.90353256 -0.4071317 0.10576623
0.082682177 -0.15480548 0.09515018 -0.11048176 0.88971227 -0.44295126 0.10244297
0.096157044 -0.15219243 0.09078598 -0.23825009 0.77588189 -0.58416116 0.069517545
-0.13726838 -0.1482525 0.091727875 0.22759438 0.66136372 -0.71470195 0.044404902
-0.12170886 -0.14474833 0.098180786 0.26317972 0.57805902 -0.77238864 0.024640027
-0.042350248 -0.14747547 0.097201146 -0.1287654 0.86696351 -0.48144951 0.21211666
-0.03681751 -0.14409128 0.092353731 -0.89694673 0.028003437 -0.44125089 0.22070841
0.059593875 -0.14440918 0.097859293 -0.47142607 0.68399704 -0.55669159 0.17880356
0.066961199 -0.14610375 0.09278436 -0.24715371 0.87188673 -0.42276293 0.21498641
0.08810997 -0.14453672 0.098827705 -0.25457296 0.64344746 -0.72191966 0.093920954
0.094152212 -0.1457057 0.095197521 -0.22574227 0.63712204 -0.73696405 0.082482927
-0.16059932 -0.13026878 0.092946127 0.25488845 0.41508874 -0.87334603 0.00050190254
-0.15448776 -0.13055046 0.094570801 0.25905016 0.41375178 -0.87275565 0.00053071976
-0.14168051 -0.13302131 0.097381718 0.26437306 0.4140726 -0.87100559 0.0005358372
-0.13938224 -0.13536622 0.097014546 0.2462769 0.46183652 -0.85208851 0.0042355824
-0.041486353 -0.13354409 0.096168995 -0.89374661 0.048984777 -0.44588959 0.14729169
-0.037644804 -0.13473259 0.092901431 -0.89414686 0.037660129 -0.44618735 0.13371745
0.06128855 -0.13565767 0.094232857 -0.89781356 0.19570382 -0.39450088 0.19024172
0.098629504 -0.13754466 0.096636869 -0.48451939 0.41514167 -0.76999891 0.030549586
0.10404078 -0.13391396 0.094161749 -0.55135596 0.3066996 -0.77584922 0.038013626
-0.17590696 -0.12289255 0.092346147 0.24806264 0.38096172 -0.89069247 0.0025402238
-0.16856092 -0.12680262 0.092442051 0.25381437 0.41234532 -0.87495691 0.00057971332
-0.15410471 -0.12554494 0.097273387 0.25573245 0.39084327 -0.88421851 0.00092436792
-0.14622559 -0.12805815 0.098258153 0.26902217 0.3967883 -0.87760252 0.00080574607
-0.041751742 -0.12313186 0.097661339 -0.89754796 -0.0036521347 -0.4409017 0.12078645
-0.036779966 -0.12568629 0.092308879 -0.88997555 0.014455916 -0.45577914 0.089171678
0.062157236 -0.12800688 0.092373945 -0.9560914 0.030842854 -0.29144129 0.12457117
0.094559506 -0.12015161 0.099063888 -0.52108389 0.2199984 -0.82466495 0.11720853
0.10470951 -0.12644543 0.097264171 -0.52976799 0.21090171 -0.82150251 0.064579815
0.11402795 -0.12525533 0.09608075 -0.50596088 0.27853322 -0.8163473 0.075053327
0.12406372 -0.12331824 0.092776924 -0.53662449 0.21277253 -0.81655496 0.097849362
0.13300298 -0.12058614 0.090308398 -0.42506561 0.3217293 -0.84605521 0.14320432
-0.19280429 -0.11372057 0.092119336 0.26317033 0.29422653 -0.91878843 0.0057061934
-0.18417434 -0.11494738 0.094029151 0.25538659 0.2968145 -0.92015159 0.0057713338
-0.17591377 -0.11508606 0.096392572 0.23913097 0.2937887 -0.9254753 0.0046342914
-0.041685253 -0.11974808 0.096406624 0.90212345 0.032649789 0.4302409 0.1089851
-0.037606444 -0.11586491 0.092708699 -0.88149476 -0.0085592959 -0.4721162 0.071596757
0.059988502 -0.11839053 0.09701483 -0.94826591 0.0057995305 -0.31742427 0.15507598
0.064691678 -0.11586671 0.092295721 -0.98750001 -0.038544822 -0.15283296 0.15917261
0.097955383 -0.115426 0.095987134 -0.54850024 0.14845267 -0.82286656 0.1048408
0.10264659 -0.113847 0.092958219 -0.61444771 0.092634119 -0.78350043 0.07164564
0.11643894 -0.11519787 0.095660359 -0.5889594 0.12152419 -0.7989735 0.11054206
0.12557231 -0.11402243 0.094783284 -0.43013358 0.20216782 -0.87983704 0.1314677
0.13552564 -0.11532266 0.092374988 -0.37760738 0.2971096 -0.87700546 0.18450496
-0.20294039 -0.10333586 0.090868741 0.26589873 0.20757066 -0.94138843 0.0043908413
-0.19670115 -0.10778899 0.092311993 0.25365338 0.24466121 -0.93584228 0.0050791944
-0.1875571 -0.10678377 0.095036782 0.2488212 0.19936122 -0.9478097 0.0042068907
-0.041613422 -0.10587077 0.097202256 -0.910335 -0.0035586497 -0.4138568 0.11159749
-0.03823762 -0.10408396 0.094403006 -0.88732249 0.0072028958 -0.46109328 0.10934581
0.058828887 -0.1053707 0.099496298 -0.96505588 0.06868574 -0.25288203 0.14798611
0.063419364 -0.10743033 0.096800081 -0.97272098 0.057320304 -0.22478473 0.17306423
0.09763442 -0.10415007 0.097041354 -0.63177615 0.01067948 -0.77507734 0.075970769
0.10571508 -0.10373947 0.096176803 -0.60897917 0.026938004 -0.79272872 0.089600079
0.11346224 -0.10867743 0.096359082 -0.61215645 0.091946654 -0.78537267 0.10543972
0.13168937 -0.10409163 0.097028293 -0.29543108 0.22798802 -0.92776185 0.16427915
-0.1959517 -0.091998234 0.093806744 0.27211714 0.10737827 -0.95625424 0.00074786379
-0.18712375 -0.090967745 0.096442193 0.27365854 0.092592284 -0.95735979 0.0002331423
-0.1776631 -0.094281718 0.098908909 0.27707499 0.10983693 -0.95454985 0.0011815056
-0.043865956 -0.093814105 0.09901204 -0.892106 -0.042603526 -0.44981313 0.091253445
-0.035630863 -0.093209021 0.091817424 -0.86064535 0.031197442 -0.50824821 0.071165636
0.064380914 -0.094974741 0.093724318 -0.99097109 -0.0076579219 -0.13385686 0.17094022
0.098131515 -0.097848713 0.098117784 -0.63119775 0.0048457952 -0.77560681 0.076056167
0.10375831 -0.097350381 0.091747381 -0.64823198 -0.010938072 -0.76136434 0.098896936
0.11623488 -0.095213823 0.093833856 -0.53311259 0.080431804 -0.84221238 0.14363502
0.14443065 -0.095085204 0.0920754 -0.16509674 0.20159306 -0.96545488 0.18493572
-0.20299226 -0.085872658 0.092267208 0.27366775 0.083840176 -0.9581632 4.0086215e-05
-0.18385686 -0.08522737 0.097851224 0.27531198 0.084538914 -0.95763063 0.00013093099
-0.04018949 -0.080023386 0.098145328 -0.90598881 0.023040634 -0.42267403 0.12987976
-0.036832765 -0.084706359 0.09295959 -0.86443096 -0.019771548 -0.50236249 0.073432609
0.063341089 -0.08573807 0.093404092 -0.99526304 0.04161597 -0.087860852 0.15309797
0.096263036 -0.085944124 0.09813118 -0.58147037 0.02160445 -0.8132807 0.17378964
0.10128899 -0.087754145 0.094493613 -0.61173099 0.028382605 -0.79055655 0.10186612
0.11203846 -0.089000836 0.09765581 -0.54381001 0.15071847 -0.82556325 0.13788231
0.13938293 -0.084521919 0.095544994 -0.31886446 0.25693044 -0.91231143 0.20101747
0.14914495 -0.082650512 0.091213763 -0.29531935 0.29650527 -0.90822423 0.17880617
-0.19783556 -0.073599041 0.094751358 0.27367949 0.081460111 -0.9583652 1.5360862e-05
-0.18572836 -0.076678492 0.098002136 0.27518505 0.079542406 -0.95809507 3.1595548e-06
-0.035746429 -0.076539814 0.092836946 -0.8855471 0.042376012 -0.46261272 0.086563304
0.059380181 -0.071749896 0.098316595 -0.96151477 -0.0024461872 -0.2747421 0.10177396
0.063175298 -0.075639449 0.093758881 -0.97271037 -0.08678928 -0.21517931 0.12462682
0.097163484 -0.077468231 0.099758267 -0.62453663 0.13473119 -0.76928633 0.090907477
0.10470587 -0.077521548 0.09292464 -0.65884268 0.14289755 -0.73858422 0.11737533
0.1138037 -0.0753382 0.096048087 -0.5971486 0.20435853 -0.77566171 0.15325007
0.13499853 -0.077834956 0.098293237 -0.20051053 0.093425453 -0.97522676 0.22482412
0.14495642 -0.073408999 0.094143592 -0.19013584 0.1228165 -0.97404546 0.21161324
-0.21395981 -0.063547947 0.091107331 0.2697714 0.08695925 -0.95898986 9.2200962e-06
-0.20503257 -0.065614544 0.093420826 0.27123281 0.084189616 -0.95882469 0
-0.18553977 -0.06586279 0.098933883 0.2736662 0.080665201 -0.95843619 3.451328e-06
-0.041313976 -0.06290599 0.097373351 0.91476423 0.071424618 0.39762419 0.12454006
-0.037037585 -0.06167252 0.093204312 -0.92034674 0.00078666315 -0.39110264 0.088178165
0.062667795 -0.066785991 0.094844885 -0.96954793 0.11143062 -0.21808273 0.16484228
0.10606772 -0.066548325 0.090672873 -0.71986055 0.058106367 -0.69168228 0.13620231
0.11521158 -0.065054916 0.094765842 -0.71630335 0.18420143 -0.67303741 0.17090799
0.13497895 -0.068039678 0.099330977 -0.50166327 0.15262613 -0.85149235 0.23281766
0.14579377 -0.065763786 0.094567463 -0.28313202 -0.040371183 -0.95823091 0.19974132
-0.21415229 -0.055011284 0.091837421 0.26905534 0.087935269 -0.95910203 3.2310281e-06
-0.2027427 -0.052223995 0.095292836 0.26994818 0.086975798 -0.9589386 0
-0.19351399 -0.056222528 0.097513437 0.27116534 0.084512301 -0.9588154 9.1484453e-06
-0.18767448 -0.056987453 0.099080659 0.27228743 0.083077915 -0.95862275 2.7453405e-06
-0.042080294 -0.054284297 0.097583756 -0.89994335 -0.041225202 -0.43405363 0.11768598
-0.036390569 -0.056915775 0.093606539 0.93591529 0.060334601 0.34701926 0.1051323
0.059494343 -0.05892558 0.098072305 -0.95634145 -0.011148901 -0.29203886 0.13490668
0.064203329 -0.054059435 0.095122471 -0.99375314 -0.056766789 -0.096084461 0.1416458
0.097450614 -0.058248252 0.097055197 -0.59805751 0.078513011 -0.79759818 0.1690715
0.10126079 -0.055062778 0.095282562 -0.67119712 -0.0036536029 -0.74126995 0.139621
0.11384083 -0.050594475 0.096014276 -0.73679084 -0.059626743 -0.67348647 0.16706817
0.14567254 -0.057492167 0.095434919 -0.39796695 0.15400659 -0.90438056 0.19919461
0.15180327 -0.056158882 0.09277942 -0.12359195 0.12473501 -0.98446232 0.17149895
-0.21626268 -0.045523085 0.092117101 0.26895085 0.088098571 -0.95911628 0
-0.20388067 -0.044024456 0.095726833 0.26926321 0.087739676 -0.9590615 2.456834e-07
-0.1951462 -0.046358868 0.097961687 0.26988941 0.086995788 -0.95895332 0
-0.18875228 -0.047422081 0.099656992 0.27050844 0.085875742 -0.95887983 0
-0.040576052 -0.041798837 0.098607183 -0.89989609 -0.051794522 -0.43301785 0.1086807
-0.039139342 -0.047729496 0.093364865 -0.87632519 0.010125906 -0.48161358 0.069351271
0.063056879 -0.045698855 0.095030427 -0.98711729 -0.024791984 -0.15806592 0.15294708
0.098410465 -0.045391858 0.095574826 -0.65490246 -0.14449418 -0.74177098 0.19165722
0.10397819 -0.046120103 0.092057124 -0.73789155 -0.057483919 -0.67246681 0.15318745
0.11276617 -0.046163213 0.096993051 -0.67827952 -0.062309682 -0.73215735 0.18704905
0.14474986 -0.044267695 0.097001649 -0.45600784 -0.016331717 -0.88982594 0.20361564
0.15315546 -0.043775197 0.093260266 -0.11003334 0.20407847 -0.97275102 0.20459311
-0.22628501 -0.036041595 0.090177551 0.26894855 0.088097416 -0.95911711 2.0394616e-06
-0.21460922 -0.032147899 0.093809225 0.26894435 0.088090025 -0.9591189 3.5896383e-06
-0.20153052 -0.038573742 0.096886486 0.2691406 0.087922685 -0.95907927 8.0954496e-06
-0.19249532 -0.034228399 0.099819191 0.26909018 0.087854348 -0.95909959 0
-0.04368687 -0.034469012 0.098798066 -0.8893277 -0.050308187 -0.45449466 0.088481314
-0.037763517 -0.034480728 0.094071619 -0.87466127 -0.06376221 -0.48052269 0.080043338
0.062661074 -0.034435559 0.096641004 -0.9569453 -0.097092204 -0.27354848 0.14642981
0.097629987 -0.034716614 0.096281968 -0.71692634 -0.074587956 -0.69314742 0.12676503
0.10139687 -0.035154298 0.093886934 -0.64418143 -0.058145784 -0.76265937 0.15453482
0.11436646 -0.032947954 0.095535576 -0.69573224 -0.064649574 -0.71538585 0.18046702
0.13992837 -0.03506555 0.099973463 -0.46547991 0.1384308 -0.87416548 0.20586364
0.14572728 -0.03494411 0.097373337 -0.21776596 0.15453626 -0.96368897 0.17376077
-0.22538321 -0.02422666 0.091515601 0.27067015 -0.024026617 -0.9623723 0.024375575
-0.21722245 -0.028168082 0.093441978 0.27125272 0.029333927 -0.96206111 0.0090110376
-0.20586641 -0.026344046 0.096793897 0.25786835 -0.0078998692 -0.96614778 0.020474939
-0.19729328 -0.025516659 0.09927392 0.25920659 -0.036044162 -0.9651491 0.027958307
-0.043802444 -0.029701503 0.098936148 -0.86721098 -0.062429864 -0.49401188 0.11630965
-0.036908213 -0.023872182 0.092814684 -0.87557358 -0.12340391 -0.46705717 0.085986353
0.063480467 -0.024810312 0.094887584 -0.97121936 -0.086553931 -0.22190361 0.13593782
0.097961709 -0.025796182 0.098271631 -0.69463801 -0.01761782 -0.71914369 0.11659596
0.10282959 -0.026504759 0.093752131 -0.72750646 -0.099662952 -0.67882371 0.13536654
0.11427665 -0.02523905 0.095617361 -0.65503818 -0.17576982 -0.73486733 0.18960083
0.14422537 -0.026303798 0.098801717 -0.3319591 0.32904461 -0.88404346 0.18307133
0.15542829 -0.023987424 0.093959764 -0.25866255 0.12329023 -0.95806748 0.1559723
-0.23223171 -0.015816437 0.090367638 0.22668606 -0.10365986 -0.96843594 0.053982232
-0.22597478 -0.014982422 0.092198782 0.25423408 -0.096448585 -0.96232146 0.061979469
-0.21606341 -0.012020106 0.095250145 0.22073637 -0.12936944 -0.96671557 0.074365035
-0.20572406 -0.015602042 0.097820461 0.2478473 -0.12947695 -0.9601081 0.061588224
-0.043268219 -0.014812376 0.098297879 0.90895045 0.30293757 0.28642252 0.1913809
-0.037416816 -0.014126892 0.093069777 -0.8766973 -0.23466893 -0.41991949 0.14052069
0.05891664 -0.01697235 0.099308521 -0.92260516 -0.038892388 -0.38377988 0.14750561
0.063661829 -0.018935954 0.092717744 -0.97234666 -0.026692145 -0.23201196 0.087074332
0.10412782 -0.013451521 0.092430472 -0.78390861 0.024416139 -0.62039602 0.124543
0.11739577 -0.013387153 0.092776589 -0.78347707 -0.015120381 -0.62123668 0.2371138
0.15497415 -0.011545464 0.095247418 -0.31641766 0.12502792 -0.94034457 0.13184719
0.16352409 -0.016368771 0.090978257 -0.35953361 0.08133433 -0.92958069 0.049298376
-0.23279172 -0.00078523107 0.091591179 0.30176124 0.008559186 -0.95334512 0.12815268
-0.22696809 -0.0072956071 0.092626251 0.29369295 -0.078982301 -0.95263118 0.093659252
-0.20593186 -0.0037235944 0.098853186 0.31603152 -0.11444379 -0.94182098 0.11771755
-0.041641712 -0.005800317 0.098117501 0.91133302 0.17089497 0.37452239 0.19933875
-0.036699682 -0.0056455624 0.092464812 -0.88195175 -0.22034624 -0.41666374 0.17325991
0.05898983 -0.0058242441 0.099151909 -0.95039171 0.012007714 -0.3108238 0.1410087
0.063404031 -0.0047410647 0.093269408 -0.97437817 -0.022160878 -0.22382174 0.1444875
0.096592814 -0.0082284408 0.097221673 -0.72505164 0.063112386 -0.68579662 0.16940543
0.10395885 -0.0038585775 0.093601443 -0.75378412 0.0030331777 -0.65711516 0.15175033
0.11662312 -0.003293759 0.093480274 -0.78829485 0.08757592 -0.60903341 0.24603994
0.15649189 -0.0060278364 0.095044486 -0.28500393 0.17992115 -0.9414888 0.15024301
0.16223454 -0.0033306563 0.092693917 -0.41064426 0.018651027 -0.91160488 0.00065737765
-0.23602089 0.0072885696 0.090088367 0.26061285 0.078156829 -0.96227455 0.11478986
-0.22471531 0.00067358586 0.09252166 0.24261434 0.019566625 -0.9699254 0.14774087
-0.21983087 0 0.095214099 0.21630292 -0.029416645 -0.97588307 0.079545163
-0.20387049 0.0025670845 0.095610097 0.30028641 0.057751663 -0.9520992 0.14798811
-0.19235277 0 0.094616346 0.11159557 -0.065891415 -0.99156684 0.22331421
-0.18508343 0 0.093495883 0.40036944 -0.31181893 -0.86166894 0.27554575
-0.17307691 0 0.097225152 0.12986471 0.051762499 -0.99017966 0.23622347
-0.16750555 0 0.094052076 0.069889866 -0.99720001 -0.026599323 0.21327962
-0.15436491 0 0.097289242 -0.036961388 -0.98545074 -0.16589373 0.22560935
-0.14377536 0 0.095451497 0.0093581704 -0.99955779 -0.028225897 0.11070219
-0.13473323 0 0.094375536 0.0025233687 0.99997473 -0.0066458015 0.047105327
-0.12710032 0 0.094636962 0.028399542 -0.99843156 -0.048247267 0.031589895
-0.11566649 0 0.095451958 0.019429326 0.99871463 -0.046814922 0.011281152
-0.10583003 0 0.095434628 -0.0010505561 0.99994475 -0.010462553 0.00032851828
-0.095414244 0 0.095085852 0 -1 0 0
-0.082979724 0 0.096247576 -0.00059681421 0.9999336 -0.011509087 0.00028259226
-0.074997939 0 0.094983414 0.00019760255 -0.99999994 -0.00021422697 0.0055651935
-0.06466148 0 0.094373651 -0.015717212 -0.99973279 -0.016949371 0.10276276
-0.056708459 0 0.09544158 0.051684089 0.99742186 -0.049784221 0.24842292
-0.044966102 0.0037786115 0.09728384 0.97009027 -0.15270485 0.18869589 0.20502645
-0.036970701 0.0037931667 0.093712032 -0.91843104 0.10299133 -0.3819387 0.18861277
0.059414741 0.0046243756 0.09824264 -0.94910598 0.021843586 -0.31419873 0.10075109
0.061712187 0.004203937 0.096889794 -0.96698576 -0.069238357 -0.24524428 0.14616224
0.098271087 0.0037846414 0.096464522 -0.71233344 -0.024823256 -0.70140213 0.17005478
0.10633923 0.0014285004 0.096112132 -0.7508508 0.016827865 -0.66025752 0.15766338
0.1159255 0.0021809044 0.093516886 -0.79122227 -0.015223801 -0.61133915 0.24853577
0.14791837 0.0033355479 0.099138752 -0.30387405 -0.10523667 -0.94688213 0.19019049
0.15405671 0.0087442463 0.095904328 -0.21364048 -0.15273534 -0.96489882 0.11941338
0.16196492 0.0063863695 0.092549279 -0.41685387 -0.024550416 -0.90864193 0.00059769442
-0.2333608 0.010541799 0.090535492 0.27056485 0.075305954 -0.95975184 0.094981752
-0.22920802 0.015966868 0.091201715 0.24935952 0.091266826 -0.96410066 0.045697752
-0.21541297 0.015578373 0.095105723 0.24438828 0.14292385 -0.95908654 0.069749095
-0.20359826 0.013832985 0.098579042 0.2524668 0.099163227 -0.96251082 0.066902958
-0.042471625 0.016402811 0.099109039 0.91469908 -0.13312335 0.38158056 0.1679346
-0.038139168 0.014620163 0.094520442 0.88742352 -0.28844583 0.35955316 0.14931785
0.059100736 0.017052414 0.098914579 -0.95980644 -0.012227457 -0.28039646 0.14353226
0.062908322 0.01455847 0.095042869 -0.98317766 0.045127675 -0.17698909 0.1636042
0.09831322 0.013184506 0.095662944 -0.74141413 -0.013466145 -0.67091268 0.14815062
0.10497907 0.013893403 0.090641357 -0.76479822 -0.048480138 -0.64244324 0.13790631
0.14964963 0.013953867 0.097434878 -0.22169751 -0.28960228 -0.93111801 0.12331621
0.15537313 0.013460642 0.094901063 -0.27642521 -0.11047433 -0.95466453 0.073192202
-0.22229791 0.022638856 0.0925266 0.25015017 0.079612635 -0.96492839 0.037967891
-0.21861763 0.02584509 0.09326411 0.26851824 -0.0044561797 -0.96326435 0.010249649
-0.20749563 0.024042711 0.096548423 0.25096074 0.035874117 -0.96733224 0.026459355
-0.19615233 0.025607295 0.099585541 0.24817967 0.054665092 -0.96717048 0.027268846
-0.042063013 0.025629845 0.098620847 -0.8947745 0.11742858 -0.4308005 0.12059607
-0.036534242 0.026213948 0.092015304 -0.87003738 0.050124642 -0.49043086 0.078864433
0.059487976 0.026375543 0.098085918 -0.94707066 0.059988245 -0.31537056 0.13411589
0.063569114 0.023123747 0.096479647 -0.95526505 0.11665346 -0.27177316 0.15251482
0.096837416 0.026133161 0.09700007 -0.71395546 0.035431683 -0.69929409 0.19431083
0.10361473 0.026099328 0.093302496 -0.74205828 0.035724439 -0.66938275 0.13677697
0.11684043 0.025796611 0.093282357 -0.72316682 0.0052235122 -0.69065374 0.19902371
0.14479232 0.026971214 0.098488376 -0.15838595 -0.10914057 -0.98132676 0.18976995
0.15696703 0.023457143 0.093313172 -0.11324926 -0.20204481 -0.97280651 0.16839056
-0.22517656 0.034681682 0.090613291 0.26898941 -0.088101767 -0.95910525 0
-0.21522203 0.031139178 0.09373004 0.26898274 -0.08809036 -0.95910811 2.3490986e-06
-0.20425446 0.031144708 0.096804999 0.26834807 -0.072693326 -0.9605754 0.00081703544
-0.19583727 0.037549675 0.098577008 0.26919687 -0.087834626 -0.95907146 6.8002832e-06
-0.042690996 0.033573575 0.0987835 -0.88276756 0.093094774 -0.4604941 0.12375663
-0.036935568 0.033326689 0.093250319 -0.85963041 -0.025684576 -0.51027042 0.08611431
0.065081388 0.036153287 0.093243502 -0.98862618 -0.080669373 -0.12692837 0.16481622
0.097073518 0.033623818 0.098312944 -0.73712045 0.0686955 -0.67226058 0.15509279
0.10402203 0.034042619 0.091253996 -0.73747438 0.040134404 -0.67418146 0.14185043
0.11964551 0.03537257 0.090727575 -0.64923126 0.2072752 -0.73180312 0.22455674
0.14428258 0.037728943 0.097781293 -0.23366982 -0.11820622 -0.96510398 0.1926436
0.15251207 0.038294129 0.094027117 -0.13125522 -0.06875255 -0.98896164 0.22122563
-0.22204518 0.045616914 0.090486996 0.26896542 -0.088083155 -0.95911366 0
-0.21520264 0.041717727 0.092763871 0.26896998 -0.088098466 -0.95911092 0
-0.20463446 0.044699125 0.095453501 0.26897064 -0.088001661 -0.95911968 8.2432707e-06
-0.19526809 0.047409821 0.097830988 0.26942447 -0.087382913 -0.95904881 0
-0.041297521 0.045293137 0.097118638 -0.87374777 0.028495731 -0.48554379 0.1124106
-0.037119497 0.04661588 0.092714541 -0.89491409 0.044695072 -0.44399461 0.084715873
0.059798785 0.041998018 0.097420827 -0.97191006 0.026103871 -0.23390062 0.15289816
0.064987615 0.044956785 0.093444169 -0.98957187 -0.052794058 -0.13401617 0.15859914
0.097701989 0.045060433 0.097743534 -0.74042618 -0.040457707 -0.67091888 0.12187371
0.10212113 0.043252446 0.095266476 -0.73287261 0.0009253138 -0.6803652 0.13949454
0.11318129 0.046106089 0.096614979 -0.69385082 0.030238176 -0.71948361 0.17121349
0.14498131 0.047967207 0.096575364 -0.15839019 0.0096100867 -0.98732984 0.15320928
0.15430154 0.04325055 0.09278997 -0.10992482 0.02023145 -0.993734 0.18809204
-0.22097984 0.050892703 0.090301156 0.26903492 -0.088041708 -0.95909804 0
-0.21305215 0.055848226 0.092069045 0.26931599 -0.087739252 -0.95904672 4.7557813e-07
-0.20334938 0.053441849 0.095010854 0.26920339 -0.087522894 -0.9590981 0
-0.19212277 0.055106599 0.09800604 0.2716611 -0.084893711 -0.95864135 3.4730028e-06
-0.18937109 0.054929584 0.098793924 0.27164084 -0.084508009 -0.95868123 0
-0.043050736 0.055519521 0.099213302 -0.85866654 -0.012719329 -0.51237673 0.11123925
-0.035745103 0.055762757 0.092835359 -0.87603402 -0.012217283 -0.48209462 0.097451426
0.059014399 0.055935159 0.099099323 -0.96235031 0.041007869 -0.26870102 0.1594758
0.065191165 0.056684725 0.094433986 -0.96481735 -0.10413189 -0.24142081 0.20687161
0.096282154 0.053328969 0.097503126 -0.69269019 0.065654434 -0.7182408 0.14388242
0.10336247 0.052828174 0.091088161 -0.72355092 0.068777025 -0.68683612 0.12193999
0.11342566 0.050865367 0.096392408 -0.61786377 0.050256856 -0.78467733 0.17273667
0.13700099 0.05627121 0.099445216 -0.098986588 -0.01070421 -0.99503118 0.20862895
0.14488822 0.056121077 0.095907398 -0.21604313 -0.26820821 -0.93882364 0.1711939
0.1542051 0.05904033 0.091383711 -0.23092979 -0.2257905 -0.94640911 0.20000467
-0.21496488 0.063112043 0.090865523 0.26957315 -0.086621754 -0.95907611 5.5308656e-06
-0.20874211 0.063535362 0.092571586 0.27092063 -0.085570611 -0.95879072 0
-0.1931961 0.064552769 0.096849658 0.2731095 -0.082363859 -0.9584505 0
-0.040965959 0.064726882 0.095547229 -0.88525456 -0.075760156 -0.45889506 0.09306255
-0.035508383 0.064556874 0.091377281 -0.85890317 -0.070887499 -0.50720835 0.082088888
0.059436746 0.065642342 0.098195553 -0.95192075 0.028601684 -0.3050063 0.15979569
0.062328726 0.064359136 0.095570453 -0.97418976 0.041053552 -0.22196625 0.15804723
0.094520599 0.063965566 0.099099144 -0.62639409 -0.015351623 -0.77935529 0.15857442
0.10469302 0.065929957 0.093690149 -0.68158871 0.077221923 -0.72764933 0.13990238
0.11308424 0.065210424 0.096703365 -0.57636648 0.030983945 -0.81660372 0.17179035
0.13694149 0.067193426 0.098521106 -0.46590281 -0.12353688 -0.87616956 0.23694053
0.14502244 0.066543952 0.094845235 -0.2170803 -0.32811168 -0.9193579 0.19129869
-0.20606939 0.073634371 0.092404686 0.27290154 -0.083490685 -0.95841229 4.7958297e-06
-0.19615206 0.076164484 0.09503039 0.27468282 -0.081815332 -0.95804781 0
-0.18442246 0.077444762 0.098317631 0.2759766 -0.078815654 -0.95792741 2.8493935e-06
-0.041408405 0.07329943 0.097486176 -0.88543862 0.073184997 -0.45895788 0.11607904
-0.037510693 0.072876193 0.092594296 -0.85516036 -0.0007075374 -0.51836306 0.053785317
0.064098433 0.077465452 0.096237808 -0.97900331 -0.092074774 -0.18186469 0.16800493
0.096480273 0.071534224 0.097323634 -0.59430242 0.10551356 -0.79729015 0.16640556
0.10271776 0.075927094 0.093199097 -0.66392463 0.058714043 -0.74549103 0.1129996
0.1165617 0.072691694 0.093536191 -0.50981045 0.049704984 -0.8588497 0.18540616
0.13801675 0.075535275 0.097137704 -0.37153152 -0.27216142 -0.88763309 0.20972203
0.14244065 0.074039318 0.09524399 -0.42198065 -0.12754832 -0.89758772 0.19898412
0.15165296 0.07344377 0.091031805 -0.13118525 -0.48418382 -0.86507601 0.20880921
-0.20973605 0.088863991 0.090075552 0.27428669 -0.083246879 -0.95803797 0
-0.1913037 0.084195003 0.095782012 0.27628383 -0.078971475 -0.95782602 7.6648448e-06
-0.18640201 0.084788404 0.097150989 0.27666587 -0.077804647 -0.9578113 0
-0.17857434 0.083666921 0.099504635 0.27679801 -0.077624746 -0.95778769 7.3079076e-07
-0.041420896 0.082487553 0.096090771 -0.87987119 0.053007588 -0.47224659 0.089589149
-0.036306325 0.086109117 0.090861551 -0.86645156 -0.046410222 -0.4970994 0.068308942
0.061827336 0.083347291 0.094416209 -0.9755559 -0.044264447 -0.21524712 0.14383234
0.097604729 0.085836023 0.097322702 -0.58439624 -0.040884551 -0.81043786 0.15490414
0.10147738 0.08455047 0.093559504 -0.62299418 -0.029446125 -0.78167206 0.12940754
0.11536479 0.086998172 0.094626307 -0.65764773 -0.029498117 -0.75274783 0.15874298
0.13385382 0.0835765 0.098212086 -0.28565276 -0.2268115 -0.93110633 0.1940144
0.14497052 0.081825122 0.093239293 -0.37578091 -0.1889271 -0.90724605 0.2144264
-0.205694 0.09066993 0.091097876 0.27503765 -0.09714064 -0.9565134 0.0004144749
-0.19298072 0.09475664 0.094442345 0.27285379 -0.10899524 -0.95586127 0.00086822035
-0.18584418 0.092984021 0.096648902 0.27669543 -0.10235213 -0.9554913 0.0008383044
-0.17714925 0.096734636 0.098858915 0.26887187 -0.12700118 -0.95476621 0.0018030008
-0.041139878 0.094972059 0.097165346 -0.88743603 -0.039945036 -0.45919669 0.1225847
-0.036755629 0.093912609 0.093539022 -0.90154546 0.04238493 -0.43060338 0.096244127
0.059494071 0.097460754 0.098072879 -0.95024031 0.073404267 -0.30274606 0.17613575
0.065547824 0.094880871 0.095808856 -0.99527025 0.072146088 -0.065054037 0.1685905
0.09686926 0.092493124 0.096971199 -0.59267366 0.044819914 -0.80419469 0.15184395
0.10311799 0.095775291 0.096446067 -0.58506799 -0.036985517 -0.81014037 0.11663275
0.1293243 0.09802264 0.098773383 -0.44315529 -0.16369563 -0.88137233 0.1817158
0.13446824 0.095300943 0.096676253 -0.45582619 -0.19133668 -0.86925983 0.21529871
0.14656937 0.096704684 0.090910003 -0.36637095 -0.13274926 -0.92095059 0.21526551
-0.20351954 0.1061781 0.090471268 0.27416849 -0.21704297 -0.9368692 0.0040148334
-0.19875199 0.10871875 0.09164387 0.25528857 -0.23901635 -0.93685579 0.0051022223
-0.18166998 0.10817676 0.096625909 0.26187578 -0.19256723 -0.94569504 0.0041594831
-0.17421283 0.10387827 0.099129602 0.28979495 -0.17254221 -0.94140744 0.0040111435
-0.040594921 0.10588827 0.097748287 -0.92389983 -0.050273575 -0.37931728 0.10994324
-0.035691597 0.10534742 0.092066281 -0.88062298 -0.12817572 -0.45615152 0.088362649
0.062282 0.10330162 0.095670439 -0.97773618 0.011774961 -0.20950727 0.1521025
0.096414529 0.1063065 0.097383194 -0.59567535 -0.086385794 -0.7985664 0.076498777
0.10289796 0.10254328 0.096645802 -0.59558278 -0.047886506 -0.80186528 0.11138184
0.11828714 0.10549159 0.091964737 -0.54202306 -0.079765499 -0.83656949 0.144467
0.12814146 0.10326683 0.098762974 -0.48476961 -0.20626204 -0.84997308 0.16569509
0.13588051 0.10250547 0.095252253 -0.1916679 -0.20357218 -0.96011549 0.19737083
0.14377926 0.10698062 0.091108829 -0.21507852 -0.40074974 -0.89058453 0.18761396
-0.19308954 0.11498211 0.091481186 0.25980389 -0.29906332 -0.91818464 0.0042409822
-0.18863136 0.11678596 0.091834538 0.24249642 -0.32139772 -0.91536826 0.0034109473
-0.15865235 0.11881481 0.099448919 0.27836213 -0.33256546 -0.90106314 0.0027378085
-0.042709611 0.11620629 0.097630478 -0.90471005 -0.0033167193 -0.42601487 0.13096914
-0.037703574 0.11431506 0.093412369 -0.90497178 -0.02651336 -0.42464474 0.11167175
0.059490565 0.1122542 0.098080382 -0.95182538 0.031455223 -0.3050231 0.12432514
0.065646268 0.11368703 0.094070986 -0.98337358 0.081492759 -0.16228168 0.11975376
0.097768448 0.1160334 0.097377956 -0.57529467 -0.19834557 -0.79353338 0.072955661
0.10493837 0.11539093 0.092713974 -0.62453026 -0.16893286 -0.76251137 0.086548999
0.11478384 0.11452185 0.096441552 -0.55594957 -0.24298723 -0.79490709 0.10835212
0.12438323 0.11661448 0.096751943 -0.43164337 -0.30222335 -0.84990889 0.13309564
0.13670239 0.11573765 0.091573559 -0.38241386 -0.50034851 -0.77679539 0.17585905
-0.18313965 0.12012063 0.091692775 0.24998535 -0.34262797 -0.90560108 0.00360045
-0.16532136 0.12249275 0.095613644 0.26369658 -0.3476555 -0.89977759 0.002724794
-0.15582757 0.12796512 0.095520236 0.26435235 -0.3960596 -0.87934887 0.001261788
-0.14676878 0.12507302 0.09963882 0.25670344 -0.37961015 -0.88881922 0.0010731677
-0.041973263 0.12726904 0.097925983 -0.87999421 -0.11020353 -0.46202299 0.13842404
-0.036130995 0.12519054 0.092414968 -0.89948255 -0.030147795 -0.43591541 0.099255875
0.066052437 0.12613085 0.094729006 -0.97379035 0.12870061 -0.18753263 0.17197563
0.098283172 0.12506683 0.096453555 -0.53570741 -0.28785259 -0.79382521 0.06466265
0.1036614 0.12635048 0.094234608 -0.56504351 -0.29572108 -0.77024341 0.064723313
0.1153725 0.1256417 0.09441068 -0.55778283 -0.29931042 -0.77413929 0.097260527
0.12008482 0.12435377 0.093986735 -0.51784688 -0.32562301 -0.79107779 0.10672856
-0.15349762 0.1345645 0.092996627 0.27344272 -0.4363752 -0.85720819 0.00096469378
-0.13443735 0.13652174 0.098018676 0.26881802 -0.49728453 -0.82489091 0.011659293
-0.12393449 0.1393259 0.09999004 0.27133393 -0.50607049 -0.81870055 0.013872177
-0.036349706 0.13735759 0.09355773 -0.83863449 -0.055874266 -0.54182118 0.1361465
0.066274434 0.13523957 0.091581352 -0.95380718 -0.021927701 -0.29961807 0.20568317
0.10204262 0.13387468 0.094266035 -0.53013968 -0.3444269 -0.77480459 0.046357192
0.11189511 0.13421391 0.092385538 -0.53771961 -0.35542116 -0.76454782 0.058180414
-0.14048886 0.14585826 0.091831133 0.26194218 -0.6381017 -0.72402525 0.029193962
-0.13306008 0.1457153 0.094206281 0.27729252 -0.58508468 -0.76209235 0.022252476
-0.12367792 0.14277834 0.098477364 0.24314794 -0.53871197 -0.80664033 0.016428178
-0.11881254 0.14576818 0.098610684 0.26793101 -0.55107576 -0.79027116 0.016818034
-0.10984506 0.14895488 0.099928334 0.19613157 -0.59781903 -0.77726752 0.017174164
-0.041952282 0.1490607 0.098488554 -0.39693207 -0.69094032 -0.60419071 0.1689875
-0.035511535 0.14468859 0.091674857 -0.7259689 -0.13008179 -0.67531323 0.15685175
0.063717365 0.1436507 0.094380654 -0.50099075 -0.78580368 -0.36265808 0.1887899
0.08861278 0.1448268 0.098424233 -0.17289574 -0.6697256 -0.72220123 0.13910231
0.093883768 0.14556849 0.095403634 -0.30547938 -0.57216865 -0.76112115 0.087451316
0.10316736 0.14373502 0.091103651 -0.46537718 -0.43198359 -0.77253759 0.043881707
-0.1328887 0.1521028 0.09131334 0.22421134 -0.81249589 -0.53812611 0.041419264
-0.12400685 0.15580975 0.091217652 0.25949293 -0.80884302 -0.52767068 0.04005
-0.11371858 0.1544791 0.094271101 0.19129919 -0.71747559 -0.669801 0.021032829
-0.10575579 0.15580973 0.095520414 0.1017381 -0.84596503 -0.52344292 0.03364161
-0.090732671 0.15580975 0.097600162 0.074468717 -0.84977257 -0.52186304 0.045081753
-0.08468096 0.15580975 0.093124747 0.014845366 -0.90841949 -0.41779622 0.041233338
-0.077421024 0.15580975 0.094504282 0.037936255 -0.92408681 -0.38029504 0.050493751
-0.060441211 0.15580975 0.094828241 -0.061782662 -0.91619694 -0.39593694 0.056990407
-0.055278573 0.15580975 0.094949469 -0.10598926 -0.92322278 -0.36935881 0.062331095
-0.043329149 0.15541399 0.094611049 -0.13387117 -0.92825603 -0.34701487 0.111283
-0.032677662 0.15580975 0.096619114 0.10335549 -0.99232012 -0.067959458 0.15397145
-0.024569256 0.15580975 0.095517308 0.17821886 -0.98325384 -0.038078062 0.096935034
-0.013448818 0.15580976 0.096459836 0.13875653 -0.98516667 -0.10096196 0.072798453
-0.0056249816 0.15580975 0.093964383 0.080363795 -0.99674785 -0.0059497938 0.04567318
0.0029346447 0.15580975 0.09547279 0.022236392 -0.98278826 -0.18339223 0.035857428
0.01675419 0.15580975 0.095583282 0.03105456 -0.97473031 -0.2212158 0.025418006
0.028733589 0.15580975 0.091069058 -0.020432033 -0.9905321 -0.13575217 0.014165579
0.035048123 0.15580975 0.098151542 -0.045626201 -0.9326486 -0.3578895 0.042495955
0.045244798 0.15580973 0.091011785 -0.22631513 -0.94902623 -0.21938705 0.051859602
0.056853443 0.1549082 0.093908459 -0.32154158 -0.90410477 -0.28143486 0.12520824
0.064536311 0.15191236 0.094409905 -0.40794694 -0.79590452 -0.44734251 0.18651302
0.079129785 0.15157419 0.099608809 -0.098538406 -0.84177887 -0.53075272 0.17450851
0.086146444 0.15401176 0.094341323 0.018444221 -0.93961221 -0.34174374 0.12890296
0.095105648 0.15196839 0.091428488 -0.20179304 -0.80210495 -0.56205618 0.097634375
-0.10264913 -0.15279059 0.10039596 0.13160507 0.76573431 -0.62954831 0.034907497
-0.093040444 -0.15164576 0.10375339 0.093255021 0.74525267 -0.66022867 0.048926987
-0.088273987 -0.15268229 0.10385816 0.054727416 0.73723793 -0.67341298 0.044790804
-0.074732438 -0.1530768 0.10530961 0.047022272 0.74019599 -0.67074502 0.03709713
-0.06571728 -0.15368745 0.10521892 -0.026301265 0.78827155 -0.61476517 0.038738854
-0.054220557 -0.15392989 0.10497332 0.010672925 0.77659094 -0.62991476 0.12306251
-0.044174809 -0.15449853 0.10497239 0.062304955 0.83914626 -0.54032558 0.15123247
-0.035416815 -0.15482157 0.10929683 0.19306085 0.84296143 -0.50213891 0.12439872
-0.027775457 -0.15580973 0.10588266 0.15773496 0.91162276 -0.37955722 0.11914282
-0.014626831 -0.15580975 0.10290015 0.066274621 0.95958143 -0.27351621 0.070381239
-0.0044525731 -0.15580975 0.10701644 0.012661928 0.81817651 -0.57482749 0.065871492
0.0036573503 -0.15580973 0.10961477 -0.00094998593 0.8030479 -0.59591377 0.065915637
0.012530388 -0.15580975 0.10486048 -0.018947516 0.89768195 -0.44023627 0.051688548
0.026584022 -0.15580973 0.10534482 -0.088758014 0.84767157 -0.52304399 0.064039119
0.034394879 -0.15580975 0.10406049 -0.1017479 0.8650108 -0.4913286 0.05038229
0.045166437 -0.15387537 0.10614852 -0.18585521 0.81983232 -0.54160208 0.068974338
0.056515388 -0.15331677 0.10522301 -0.23378749 0.69762474 -0.67724669 0.12834223
0.063423112 -0.15156119 0.10690281 -0.3372739 0.59890419 -0.72633332 0.13040982
0.073083155 -0.15564896 0.10048379 -0.17189661 0.86443079 -0.4724519 0.099836983
-0.11056387 -0.14768976 0.10028844 0.15160333 0.65646142 -0.73896867 0.03959645
-0.10229078 -0.14358538 0.10475321 0.17004117 0.58315843 -0.79436278 0.029494131
-0.094401404 -0.14575803 0.10598382 0.1742631 0.62385261 -0.76186639 0.035715118
-0.087612264 -0.14590968 0.10669136 0.082163051 0.70613438 -0.70329463 0.039554365
-0.077626698 -0.14732398 0.1072508 0.07942716 0.65735805 -0.74938095 0.035301916
-0.052085094 -0.14971144 0.10933115 0.0073976591 0.69043183 -0.72335958 0.11041468
-0.04671371 -0.14327735 0.10241443 -0.26514071 0.60934639 -0.74725997 0.18451667
0.055896889 -0.14801006 0.10795464 -0.33381888 0.62614918 -0.704629 0.12566611
0.064798288 -0.14383809 0.1043954 -0.43383932 0.60549837 -0.66719949 0.1903138
0.07549905 -0.145055 0.10484886 -0.22652501 0.62911206 -0.74357551 0.14881885
-0.12454455 -0.13674648 0.10099014 0.25865382 0.47492057 -0.84115922 0.0064073252
-0.11815618 -0.13466357 0.10393668 0.25262755 0.44945592 -0.8568365 0.0041155978
-0.10118995 -0.13390392 0.10956095 0.20369716 0.43829003 -0.87544811 0.0057844832
-0.096779943 -0.13759184 0.1090671 0.1951316 0.47876653 -0.85598266 0.010476242
-0.051411115 -0.13481733 0.10802668 -0.22230379 0.40367892 -0.88748205 0.1419023
-0.045892622 -0.13745044 0.10319631 -0.55666715 0.34870967 -0.75400478 0.20016468
0.056437206 -0.13109042 0.10817774 -0.49723238 0.28625107 -0.81903619 0.13517529
0.06214929 -0.13471085 0.10308138 -0.556229 0.31911057 -0.76731849 0.17778894
0.079678021 -0.13976924 0.10554274 -0.24877268 0.5807538 -0.77513683 0.13321917
0.087431662 -0.13263837 0.10498776 -0.27089891 0.45066965 -0.85059434 0.10599724
0.092066601 -0.13530737 0.10170627 -0.30858675 0.45672297 -0.83437312 0.086962931
-0.14353359 -0.12227465 0.1020253 0.27333808 0.34798717 -0.89676708 0.0023461331
-0.13600224 -0.12819457 0.10137311 0.27432084 0.38682365 -0.8804065 0.00072367484
-0.12775204 -0.12513311 0.10534976 0.26698712 0.37055308 -0.88961136 0.0012703072
-0.11693272 -0.12622249 0.10821041 0.25410327 0.35547307 -0.8994835 0.0015003678
-0.046101578 -0.12577859 0.10420149 -0.6977849 0.16772695 -0.69639349 0.17537561
0.056903299 -0.12402473 0.10514408 -0.69529307 0.15317447 -0.70221448 0.15860614
0.063172922 -0.12688951 0.10089091 -0.8794837 0.16956796 -0.44469672 0.18753967
0.087251201 -0.12581363 0.10677152 -0.29920626 0.44182408 -0.8457346 0.12241916
0.093343571 -0.12380624 0.10660092 -0.51988685 0.26663351 -0.8115567 0.040274024
0.10302554 -0.12114511 0.10387805 -0.55584824 0.23029381 -0.79874742 0.065188117
-0.16579343 -0.11310241 0.10034693 0.26793951 0.25814861 -0.92820668 0.0049505136
-0.14694144 -0.11320782 0.10566042 0.29595366 0.27133849 -0.91585314 0.0050487975
-0.13588968 -0.11555549 0.10771957 0.2796261 0.28706625 -0.91618901 0.0036306297
-0.045740634 -0.11363184 0.10360235 -0.88419092 -0.0084433556 -0.46704936 0.15118441
0.055570655 -0.11344626 0.1064686 -0.72130036 0.045967933 -0.69109529 0.1924601
0.086789444 -0.11770089 0.10915745 -0.40638247 0.25528437 -0.87731588 0.091430627
0.090581886 -0.11966834 0.10266775 -0.42239568 0.26554227 -0.86664248 0.12453388
0.10623663 -0.11410148 0.10432889 -0.54465711 0.13662219 -0.82745576 0.080698937
-0.1624046 -0.1068418 0.10230333 0.27895021 0.24023506 -0.92977089 0.0045588505
-0.15514539 -0.10542237 0.10451677 0.28827211 0.22115333 -0.93166006 0.004602666
-0.1444933 -0.10378668 0.10772853 0.28038076 0.19038647 -0.94081861 0.0043127746
-0.13961121 -0.10570781 0.10898438 0.28473693 0.20709325 -0.93596858 0.0050203665
-0.051132832 -0.102543 0.10769419 -0.73313922 -0.011640271 -0.67997891 0.16297968
-0.045527246 -0.10265867 0.10275976 0.89664018 0.046007201 0.44036317 0.13751048
0.056233156 -0.10404226 0.10505092 -0.79099125 0.35754478 -0.49648231 0.21520723
0.060528457 -0.10013241 0.10654981 -0.88629675 0.044620365 -0.46096322 0.25922933
0.089649335 -0.10382351 0.10351267 -0.38690096 0.0098967189 -0.92206818 0.15652955
0.093642719 -0.10494332 0.10111599 -0.59961337 0.049654096 -0.79874802 0.067690209
0.10356876 -0.10749775 0.10753962 -0.5552699 0.049718391 -0.83018279 0.075978652
0.11537866 -0.10518724 0.10448173 -0.50059897 0.12946327 -0.85594392 0.11675074
0.12053815 -0.10474367 0.10213438 -0.50141501 0.15626466 -0.85097849 0.14322455
-0.17018484 -0.090238445 0.10139804 0.28178123 0.089465424 -0.95529854 0.00014635855
-0.16194434 -0.09119381 0.10370293 0.28054732 0.087703809 -0.95582491 0.00010360839
-0.1547659 -0.094870277 0.10548055 0.27432075 0.11322851 -0.95494902 0.0014595144
-0.14545111 -0.097270966 0.10797902 0.27898604 0.11073458 -0.95388925 0.0012557914
-0.052073594 -0.098623976 0.10881817 -0.69607317 0.12133657 -0.70764375 0.1544527
-0.04661639 -0.093574539 0.10494248 -0.87135899 0.014925466 -0.49041897 0.15202889
0.056122333 -0.094352543 0.10528807 -0.89939767 0.051410004 -0.43409774 0.18691996
0.063026354 -0.095659703 0.10120455 -0.98937839 -0.07317698 -0.12560062 0.22216833
0.086761475 -0.094123073 0.10765597 -0.37686032 0.10513709 -0.92028391 0.15876973
0.092743717 -0.094036594 0.10223588 -0.52573979 0.048956025 -0.84923565 0.13126612
0.10427988 -0.09407267 0.10472208 -0.5856812 0.077030331 -0.80687284 0.091102041
0.11411071 -0.094889008 0.10616875 -0.48653954 0.052494604 -0.87208003 0.14157684
-0.17213693 -0.08479771 0.10127409 0.27675176 0.079627931 -0.95763659 1.6605502e-05
-0.16514096 -0.085205525 0.10326351 0.27759808 0.080214232 -0.95734268 1.4258091e-05
-0.15438288 -0.086930931 0.10623388 0.27710053 0.08176709 -0.95735544 2.7195998e-05
-0.14515086 -0.087778091 0.10883417 0.27474964 0.085085429 -0.9577437 0.0001697988
-0.052531213 -0.089649625 0.10936491 -0.70343059 0.044586882 -0.70936406 0.1518126
-0.045586523 -0.086908117 0.10388833 -0.87441778 0.024767034 -0.48454115 0.15821731
0.057237189 -0.084518194 0.10646587 -0.86204225 -0.085114285 -0.49963862 0.23893404
0.062306091 -0.085791372 0.10274584 -0.99472678 0.048786104 -0.090214178 0.21414675
0.087302707 -0.08645723 0.10563878 -0.3328279 0.078164399 -0.93974251 0.22746158
0.093513332 -0.084463693 0.10153858 -0.61895889 0.075955987 -0.78174198 0.13776428
0.10515573 -0.087089591 0.10392436 -0.59352863 0.10914886 -0.79737717 0.10046151
0.11353306 -0.084143683 0.10758306 -0.35128215 0.13849597 -0.9259696 0.12050719
0.12637107 -0.084940009 0.10153959 -0.30897507 0.24206585 -0.9197492 0.18424027
-0.17410986 -0.076835006 0.10134823 0.27640441 0.078004941 -0.95787048 1.3697562e-05
-0.16549876 -0.075429767 0.10395132 0.27672952 0.077657022 -0.9578048 9.1712818e-06
-0.15169653 -0.074104503 0.10804863 0.27688858 0.077523164 -0.95776975 0
-0.14682497 -0.077084243 0.10921575 0.2768681 0.077516928 -0.95777619 9.0545327e-06
-0.044883732 -0.074445695 0.10311276 -0.92918694 0.061747964 -0.36441588 0.10841855
0.062977858 -0.073184192 0.10130832 -0.98103875 0.091721721 -0.17073381 0.19728166
0.086860597 -0.075148784 0.10778429 -0.32183808 0.13987198 -0.93640602 0.16783795
0.094307989 -0.075947866 0.10444051 -0.61358881 0.15088896 -0.77507508 0.074397191
0.10913967 -0.075605929 0.10029595 -0.56382 0.17728402 -0.80664581 0.12834741
0.11662008 -0.073402777 0.10712937 -0.35255161 0.26393259 -0.89780122 0.14514425
0.12639655 -0.077753834 0.10229433 -0.34347513 0.22897755 -0.9108206 0.19689274
-0.18096337 -0.062988013 0.10048773 0.27413175 0.080257647 -0.95833743 5.7221091e-06
-0.17369013 -0.064780772 0.10244524 0.27504185 0.079487309 -0.95814073 1.2131248e-05
-0.16493592 -0.061937928 0.10520605 0.27556184 0.078952298 -0.95803559 0
-0.15560639 -0.063978471 0.10773794 0.27657598 0.078002892 -0.95782107 0
-0.051214494 -0.06723889 0.10779175 -0.80716878 -0.011943971 -0.59019983 0.14179696
-0.046388432 -0.063646935 0.10437631 -0.90086824 -0.0079494072 -0.43401992 0.14957538
0.056964807 -0.067685373 0.10348527 -0.93712103 -0.018710975 -0.3485027 0.17655233
0.087666899 -0.065784574 0.10836244 -0.39594355 0.055603035 -0.9165898 0.14632328
0.09747687 -0.063048273 0.10328504 -0.59753901 0.047124397 -0.8004539 0.10972568
0.10506597 -0.06179598 0.10400613 -0.54779005 0.089143798 -0.83185309 0.13547063
0.12338973 -0.065476857 0.10477165 -0.30803058 0.22970198 -0.92323029 0.18764497
0.13068806 -0.066544771 0.10139292 -0.30157921 0.25995654 -0.91731811 0.22193594
-0.18150459 -0.059791543 0.10059 0.27261332 0.082172856 -0.95860815 7.8724206e-06
-0.17788167 -0.056144256 0.10193255 0.27259365 0.082152158 -0.95861548 6.8819863e-06
-0.16474921 -0.052958652 0.1059868 0.27495733 0.080344789 -0.95809352 0
-0.15933579 -0.054339163 0.10744002 0.27565455 0.07985916 -0.95793378 3.4051316e-06
-0.047492802 -0.053811599 0.10422668 0.93020302 0.12374767 0.34555593 0.15323539
0.055608734 -0.053377394 0.10638714 -0.85640395 0.00765495 -0.51624966 0.22100416
0.08643467 -0.056121036 0.10795207 -0.21211123 0.011299291 -0.97718018 0.19553059
0.0986415 -0.05389994 0.10985732 -0.47714466 0.036085006 -0.87808365 0.12558651
0.10430861 -0.056794804 0.10469591 -0.54968524 0.055838373 -0.83350354 0.14245704
0.11888191 -0.05077596 0.10808098 -0.385263 0.12249228 -0.9146409 0.17155316
0.12436857 -0.054930437 0.10524914 -0.25968286 0.086969167 -0.96176988 0.19793709
0.13348967 -0.056268021 0.10102631 -0.45203599 0.10915711 -0.88529551 0.20565736
-0.18653619 -0.044307902 0.10056445 0.27079409 0.086185738 -0.95877141 6.8767567e-06
-0.17531031 -0.043250643 0.10380945 0.27118811 0.085266523 -0.95874226 0
-0.16202298 -0.043117665 0.10757758 0.27412364 0.082271248 -0.95816892 0
-0.15521285 -0.046476673 0.10926829 0.27494487 0.080478035 -0.95808589 3.120065e-06
-0.046375316 -0.044250026 0.10447817 0.94089556 0.064591728 0.33248061 0.15784262
