# .PCD v0.7 - Point Cloud Data file format
VERSION 0.7
FIELDS x y z normal_x normal_y normal_z curvature
SIZE 4 4 4 4 4 4 4
TYPE F F F F F F F
COUNT 1 1 1 1 1 1 1
WIDTH 588
HEIGHT 1
VIEWPOINT 0 0 0 1 0 0 0
POINTS 588
DATA ascii
0.063025177 -0.39390028 -0.10890963 6.6735283e-06 -6.0405699e-05 1 4.732241e-06
0.073934413 -0.39389154 -0.10890963 4.755143e-06 -5.8395741e-05 1 4.3380696e-06
0.08457312 -0.39450288 -0.10890963 1.1155837e-05 -5.4623826e-05 1 9.3423732e-06
0.095714562 -0.39614362 -0.10890963 3.8218382e-06 -3.0128649e-05 1 3.9878269e-06
0.10323825 -0.39447671 -0.10890962 8.7461322e-06 -3.1364423e-05 1 4.044889e-06
0.11480059 -0.39540431 -0.10890962 1.4752593e-05 -3.969371e-05 1 1.2495029e-05
0.12842664 -0.39225975 -0.10890962 -0.014097042 -0.098777778 0.99500966 0.017833421
0.13559815 -0.39691624 -0.10890962 -0.00084413774 -0.0038997666 0.99999201 8.4414562e-05
0.14549255 -0.39328679 -0.10890963 0.0051143519 -0.1193084 0.99284405 0.024580671
0.15466192 -0.39772213 -0.10890962 -0.01855343 -0.014751859 0.99971902 0.0011608129
0.16619781 -0.39516038 -0.10890963 -0.16559508 0.00029410826 0.98619384 0.028612563
0.17263398 -0.39588761 -0.10890963 -0.25972122 0.03232494 0.96514249 0.047680132
0.18445316 -0.39709002 -0.10631396 -0.57893246 0.19543935 0.79160637 0.084303126
0.19183891 -0.39399645 -0.10497922 -0.76228833 0.29860324 0.57424092 0.071147852
-0.19460127 -0.3850314 -0.10752958 0.77001858 -0.017018721 0.63779455 0.13425077
-0.17399591 -0.38711083 -0.10890964 0.19731767 -0.097803831 0.97544867 0.068896011
-0.16387762 -0.38588396 -0.10890963 0.078583308 -0.29907492 0.95098835 0.056568626
-0.15461183 -0.38402262 -0.10890963 -0.051844191 0.38052064 -0.92331803 0.074347921
-0.14279729 -0.38579151 -0.10890962 0.031759363 -0.19756284 0.97977561 0.028890995
-0.13772066 -0.38427058 -0.10890963 0.0091581903 0.27193704 -0.96227145 0.061179176
-0.12284753 -0.38595471 -0.10890964 0.083086655 -0.20118093 0.97602397 0.045619652
-0.11473055 -0.38431093 -0.10890963 0.069412343 -0.11978961 0.9903698 0.020784156
-0.1017031 -0.38493252 -0.10890963 -3.5490823e-06 1.8335411e-05 1 4.3645327e-06
-0.094296515 -0.38604033 -0.10890963 -7.5079461e-06 -4.556754e-07 1 2.1509327e-06
-0.083662942 -0.38479745 -0.10890963 -1.5942931e-05 -1.8011935e-05 1 2.2877746e-06
-0.07471814 -0.38374007 -0.10890963 -7.2164112e-06 -5.0804167e-05 1 4.0697423e-06
-0.066158041 -0.38596088 -0.10890963 -2.9322887e-06 -1.7382707e-05 1 4.2111897e-06
-0.056299552 -0.38133049 -0.10890963 7.4425736e-07 -3.4651406e-05 1 1.9655388e-06
-0.04534024 -0.38466781 -0.10890962 -3.6566469e-06 -3.144786e-05 1 3.9197016e-06
-0.031097766 -0.38835216 -0.10890963 -8.2512734e-06 -6.0911556e-05 1 8.5698666e-06
-0.022379303 -0.38478592 -0.10890963 1.5472732e-06 -3.5443529e-05 1 4.1718786e-06
-0.01593847 -0.38605598 -0.10890963 8.5339002e-07 -5.3546693e-05 1 5.9969066e-06
-0.0066091814 -0.38466743 -0.10890963 -1.9651118e-06 1.6225638e-05 1 6.1527003e-06
0.0047900653 -0.38447773 -0.10890963 1.2996356e-06 -5.7745267e-05 1 5.8618407e-06
0.012911994 -0.38381425 -0.10890964 4.1321596e-06 -1.6451415e-05 1 1.0751352e-05
0.03385162 -0.38319594 -0.10890963 6.0626016e-06 -3.3812514e-05 1 4.1228345e-06
0.043849889 -0.38574374 -0.10890961 6.5917616e-06 -4.3447391e-05 1 2.0896205e-06
0.052704744 -0.38733387 -0.10890963 -7.366456e-06 -0.00012129583 1 2.1514713e-06
0.069901489 -0.38906044 -0.10890963 4.5586849e-06 -3.6744888e-05 1 4.2203628e-06
0.074538462 -0.38650659 -0.10890962 6.2504996e-06 -1.8670285e-05 1 4.1344506e-06
0.084814042 -0.38718137 -0.10890963 1.1147386e-05 -1.5220512e-05 1 8.5557022e-06
0.097389236 -0.38643226 -0.10890963 8.8554116e-06 -5.3609212e-05 1 4.281203e-06
0.10688327 -0.38659683 -0.10890963 -0.01485416 -0.017982466 0.99972796 0.0015645967
0.12342581 -0.38572669 -0.10890963 -0.076971203 -0.13725032 0.98754132 0.040715545
0.13554433 -0.38317609 -0.10890963 -0.038888801 -0.28574538 0.95751613 0.060721725
0.14465477 -0.38213685 -0.10890964 -0.0058388771 0.3110145 -0.95038724 0.063953236
0.15594929 -0.38594386 -0.10890962 0.0038656811 -0.24713075 0.96897441 0.047353625
0.16385661 -0.38079202 -0.10890962 0.05834635 0.36099711 -0.93073988 0.090049244
0.17170936 -0.38872236 -0.10890963 -0.20721872 -0.084660381 0.97462451 0.064275287
0.18630165 -0.38544923 -0.10890964 -0.4022159 0.0084696542 0.91550571 0.10667821
0.19393164 -0.38999605 -0.10156313 -0.8050999 0.214718 0.55291069 0.11110181
-0.20153299 -0.3729144 -0.10445057 0.90599692 -0.17705134 0.38447663 0.14668402
-0.19542053 -0.37507433 -0.10794283 0.78951097 -0.10477955 0.60472602 0.17116274
-0.18444277 -0.37609968 -0.10890963 0.45540813 -0.25950402 0.85162258 0.12227116
-0.17419143 -0.3754403 -0.10890963 0.14436872 -0.26000839 0.95475298 0.11820263
-0.16481714 -0.37556955 -0.10890962 -0.03080829 0.33885968 -0.94033235 0.094071165
-0.15397249 -0.37714082 -0.10890963 -0.014317099 0.34891364 -0.93704557 0.096596777
-0.14757216 -0.37481856 -0.10890963 -0.021465654 0.37881625 -0.92522293 0.10598833
-0.13398954 -0.37547055 -0.10890961 -0.090929277 0.35511765 -0.93038881 0.09011852
-0.12590335 -0.37332395 -0.10890963 0.15354665 -0.30103061 0.94117165 0.088315487
-0.11474689 -0.37304196 -0.10890963 0.15792179 -0.16493201 0.97358012 0.054435186
-0.10417014 -0.37508604 -0.10890962 0.088739462 -0.057311445 0.99440467 0.018746568
-0.09507148 -0.37595978 -0.10890962 -1.9175899e-05 2.2710606e-06 1 9.4008601e-06
-0.084974244 -0.37448049 -0.10890962 -8.8653796e-06 -1.8051922e-05 1 8.3343139e-06
-0.075346336 -0.37452418 -0.10890963 -3.8740827e-06 -6.2874392e-08 1 1.9266354e-06
-0.055350706 -0.37313551 -0.10890963 -6.9031871e-06 -1.9669489e-05 1 6.3818061e-06
-0.047186688 -0.37472841 -0.10890963 -4.9775149e-06 -3.5081939e-05 1 1.9622482e-06
-0.034408357 -0.37634119 -0.10890963 -4.6892083e-06 -1.7187876e-05 1 8.9885543e-06
-0.02860689 -0.37758279 -0.10890963 -2.8900829e-06 -2.2393827e-07 1 5.9737222e-06
-0.019136168 -0.3734991 -0.10890962 -3.1523322e-07 -3.3086537e-05 1 3.9999363e-06
-0.0041441964 -0.37216887 -0.10890963 -3.5131577e-06 -3.4711764e-05 1 6.383601e-06
0.0024805968 -0.37525743 -0.10890963 -2.1980691e-06 -3.8686758e-05 1 7.2154421e-06
0.013641028 -0.37318349 -0.10890963 0 0 1 6.8686813e-06
0.025408462 -0.37523687 -0.10890963 1.0047686e-06 -1.6298645e-05 1 6.0427778e-06
0.033668108 -0.37460431 -0.10890963 6.2856469e-07 -1.7727385e-05 1 6.3537072e-06
0.044836432 -0.37677115 -0.10890963 -1.123324e-07 -1.5951733e-05 1 7.1043978e-06
0.056072962 -0.3723655 -0.10890963 1.0150836e-06 -2.8232958e-05 1 3.9633805e-06
0.065165929 -0.37717855 -0.10890963 -5.4411828e-07 -1.6557622e-05 1 5.8638875e-06
0.076382652 -0.37592921 -0.10890963 2.303676e-06 -3.243464e-05 1 8.2136221e-06
0.085038997 -0.37530836 -0.10890963 3.1340523e-06 -7.379039e-05 1 4.1324415e-06
0.092996255 -0.37442553 -0.10890963 7.706607e-06 -1.7662436e-05 1 6.8792256e-06
0.10518596 -0.3755416 -0.10890964 -0.066199929 -0.030309089 0.99734592 0.01101758
0.11697365 -0.37579876 -0.10890963 -0.14937614 -0.17723429 0.97276658 0.064222857
0.12690912 -0.37532428 -0.10890963 -0.1340155 -0.28402144 0.94940591 0.090691999
0.13591395 -0.3763783 -0.10890962 0.043474954 0.31219637 -0.94902229 0.08659979
0.14185071 -0.37822789 -0.10890962 0.071219377 0.3075465 -0.94886404 0.072400756
0.15224539 -0.37338075 -0.10890963 0.012385039 -0.15848902 0.98728299 0.14472738
0.16163126 -0.37294227 -0.10890962 0.021633802 0.0014383066 0.99976498 0.14797896
0.17768604 -0.37775412 -0.10890963 -0.21031542 -0.18063027 0.96080184 0.10561395
0.18802544 -0.37914801 -0.10890963 -0.43311426 -0.10513195 0.89518678 0.11006486
0.19334769 -0.37487215 -0.10890963 -0.50213379 -0.066280492 0.86224622 0.12775506
0.20094268 -0.37424096 -0.10315035 -0.87163848 0.025573321 0.48948163 0.14748178
-0.19510975 -0.36981881 -0.1056337 0.73557895 -0.32143924 0.59632242 0.12582342
-0.18750186 -0.36981881 -0.10230225 0.69611633 -0.34541395 0.62937367 0.16791824
-0.17129463 -0.36981881 -0.10421234 0.14587976 -0.31529608 0.93771392 0.15806001
-0.16562381 -0.36981881 -0.10149296 0.15207626 0.56250221 -0.81268936 0.19780852
-0.15456128 -0.36981881 -0.1043059 -0.037042506 0.33895376 -0.94007343 0.17466061
-0.14264278 -0.36981881 -0.10493437 -0.061605539 0.318739 -0.94583839 0.13399707
-0.13456099 -0.36981881 -0.10426778 0.20851098 -0.27230483 0.93934721 0.15098549
-0.12486804 -0.36499688 -0.10381409 0.36122137 -0.25588092 0.896685 0.15285245
-0.1170774 -0.36697829 -0.10890963 0.24906363 -0.15432666 0.95611227 0.067981035
-0.10315337 -0.36669821 -0.10890963 0.11224341 -0.029553713 0.99324119 0.018548833
-0.095403709 -0.36306337 -0.10890963 0.020340879 0.0014565561 0.99979204 0.0013581687
-0.087148093 -0.36355439 -0.10890963 -1.4997954e-05 1.4998612e-06 1 8.4208041e-06
-0.074974097 -0.36440396 -0.10890963 -9.5347582e-07 -1.9587444e-05 1 4.2718493e-06
-0.065871164 -0.36431029 -0.10890963 -6.3343809e-06 -1.8348081e-05 1 8.5857637e-06
-0.05355629 -0.36408904 -0.10890964 -4.610818e-06 -1.7415461e-05 1 8.6237969e-06
-0.046574224 -0.36466533 -0.10890963 -3.9495867e-06 -5.886504e-05 1 6.3565244e-06
-0.035501234 -0.36469948 -0.10890964 -9.4408341e-07 -3.3396478e-05 1 4.218894e-06
-0.022543039 -0.3651343 -0.10890963 3.1188438e-07 -3.6642319e-05 1 1.1376793e-05
-0.013100086 -0.3625783 -0.10890963 9.957123e-07 2.110621e-08 1 2.068035e-06
-0.0042812983 -0.36372769 -0.10890962 -1.0009212e-07 -5.4713557e-05 1 2.129618e-06
0.0076650856 -0.36551458 -0.10890964 -4.2421984e-06 -4.5660083e-05 1 6.1936626e-06
0.015984844 -0.36808389 -0.10890963 2.0209723e-06 -1.6838652e-05 1 6.2155832e-06
0.024670349 -0.36637607 -0.10890963 4.1246653e-06 -1.8260329e-05 1 2.0343907e-06
0.033342399 -0.36202267 -0.10890964 3.5900496e-06 -5.6321001e-05 1 8.3631521e-06
0.045514833 -0.36614358 -0.10890964 2.6544271e-07 -1.8441953e-05 1 6.9704815e-06
0.053550739 -0.36413249 -0.10890963 2.3123562e-06 -2.2994681e-07 1 4.0452846e-06
0.062284958 -0.36761957 -0.10890962 1.6460104e-06 -3.1391257e-05 1 3.5519386e-06
0.08823815 -0.36202297 -0.10890962 1.016442e-05 -2.7344449e-05 1 3.9846091e-06
0.091554359 -0.36424619 -0.10890962 6.4403653e-06 -3.8486618e-05 1 6.3251759e-06
0.10481661 -0.36318004 -0.10890962 -0.16114528 -0.065386966 0.98476219 0.023846475
0.11332074 -0.36931366 -0.10890963 -0.15041669 -0.13700946 0.97908288 0.050048791
0.12526572 -0.36666018 -0.10451619 0.39178631 0.46430197 -0.7943092 0.12782541
0.14003135 -0.36981881 -0.10786019 -0.017611453 0.33235714 -0.94298923 0.157737
0.16218166 -0.36981881 -0.10500801 0.081417538 -0.11473785 0.99005371 0.18189734
0.17291339 -0.36981881 -0.10474031 -0.041153472 -0.046952244 0.99804902 0.17048641
0.18437776 -0.36981881 -0.10516151 -0.47643256 -0.08312542 0.87527257 0.19109476
0.19374625 -0.36981881 -0.10149236 -0.82407033 -0.016748611 0.56623989 0.17947388
0.20181815 -0.36981881 -0.10301114 -0.84302121 0.031978536 0.53692889 0.13352719
-0.1742066 -0.35102728 -0.10542775 0.066191904 0.45259619 0.88925552 0.24200657
-0.16850381 -0.35284525 -0.10198729 -0.60786194 0.54454911 0.57790142 0.25231898
-0.12480515 -0.35329458 -0.10376693 0.33515885 0.015900068 0.94202751 0.16258712
-0.11505982 -0.35322642 -0.10890963 0.29757202 -0.019449228 0.95450133 0.072855398
-0.10505527 -0.3552528 -0.10890963 0.19954231 -0.0074204532 0.97986108 0.038677737
-0.091454908 -0.35356969 -0.10890964 -6.8479917e-06 -1.8406627e-05 1 4.319902e-06
-0.085227095 -0.35388902 -0.10890964 3.3734061e-06 -3.7281246e-05 1 4.4234453e-06
-0.075648658 -0.35248151 -0.10890963 -3.0643366e-06 -5.3735079e-05 1 4.5766583e-06
-0.067773268 -0.35243332 -0.10890964 -1.7795485e-06 -1.6718332e-05 1 2.0393775e-06
-0.055853497 -0.35734197 -0.10890964 -1.3302079e-05 -6.3364467e-05 1 8.3084033e-06
-0.045446619 -0.35342833 -0.10890962 4.3108523e-07 -5.5152901e-05 1 5.8961318e-06
-0.030942172 -0.35479367 -0.10890963 -1.5136173e-06 -3.3631095e-05 1 2.1045437e-06
-0.024006397 -0.35492229 -0.10890962 2.6787185e-07 -1.656235e-05 1 9.0945023e-06
-0.012965349 -0.35451853 -0.10890963 -1.9333288e-06 -1.9077808e-05 1 9.5254081e-06
-0.0085736737 -0.35203236 -0.10890963 1.1457344e-06 -5.2858628e-05 1 4.260176e-06
0.0051853471 -0.35618702 -0.10890964 -1.6537552e-06 -4.7642829e-05 1 1.9411261e-06
0.0149981 -0.35628286 -0.10890963 9.7843144e-07 -2.9811268e-08 1 4.0242498e-06
0.025087565 -0.35399351 -0.10890964 4.4300809e-06 -3.7095615e-05 1 7.5289818e-06
0.03671401 -0.35262808 -0.10890963 1.8407019e-06 -1.7133598e-05 1 1.9465076e-06
0.04480974 -0.35634947 -0.10890963 5.9958347e-06 -3.1933978e-05 1 4.2839843e-06
0.055320591 -0.35503903 -0.10890963 9.8128576e-06 -4.2497399e-07 1 6.9868915e-06
0.065238215 -0.35476115 -0.10890963 7.2387097e-06 6.3862234e-07 1 3.963215e-06
0.075883627 -0.35078219 -0.10890963 1.2353789e-05 -5.4965398e-07 1 1.9232157e-06
0.08716812 -0.35752872 -0.10890964 9.9578883e-06 -6.4246429e-05 1 6.4655533e-06
0.095977753 -0.35676196 -0.10890963 -0.019325864 -0.0034131098 0.99980742 0.00080509397
0.10176229 -0.35395774 -0.10890963 -0.14324483 0.015537655 0.98956525 0.020137275
0.11867435 -0.35710526 -0.10890962 -0.43762657 -0.19017503 0.87881535 0.089778461
0.12449674 -0.35405841 -0.10576069 -0.4765113 -0.22913811 0.84878314 0.095236562
0.15871389 -0.35124817 -0.10651132 -0.54249996 0.58571076 0.60219318 0.16529982
0.1648483 -0.35730773 -0.10452305 -0.55056542 0.51448005 0.65741009 0.19564201
0.1769667 -0.35360479 -0.10558526 -0.31375194 0.49699172 0.80904824 0.20254821
0.1811668 -0.35173786 -0.10732003 -0.32345572 0.42096254 0.84744734 0.18283774
-0.18152085 -0.34332156 -0.10709685 0.76091152 0.33604768 0.55505466 0.22794203
-0.16292581 -0.34908319 -0.10724954 0.0024359992 0.48948765 0.87200689 0.21823753
-0.15408352 -0.34723824 -0.10601962 0.10758443 0.63348508 0.76623905 0.19867603
-0.14466849 -0.34579739 -0.10352179 -0.19534825 0.59786052 0.7774328 0.22770251
-0.13965118 -0.34432608 -0.10317096 -0.071077019 0.69760627 0.71294713 0.2147678
-0.12486804 -0.34535804 -0.10461133 0.2929638 0.00092512945 0.95612305 0.15147355
-0.1167715 -0.34268874 -0.10890963 0.25716335 0.098658063 0.96131873 0.089585811
-0.10588681 -0.34517249 -0.10890964 0.18124126 0.0069252397 0.98341435 0.019917067
-0.095169261 -0.34121192 -0.10890963 -3.999734e-06 -4.7503033e-07 1 2.0765797e-06
-0.084042639 -0.34439427 -0.10890962 -7.5215935e-06 -1.7253093e-05 1 4.4318836e-06
-0.073755845 -0.34613466 -0.10890962 3.0871615e-06 -5.8842172e-05 1 6.8197819e-06
-0.06565126 -0.34326988 -0.10890963 -3.802249e-06 2.4950873e-07 1 4.2696561e-06
-0.053008195 -0.34292233 -0.10890963 -4.8801844e-06 -1.8710609e-05 1 2.1561887e-06
-0.043880552 -0.3434138 -0.10890962 -6.2013337e-06 -7.2140734e-05 1 4.5393804e-06
-0.034902144 -0.34816357 -0.10890963 -4.9252999e-06 -2.9444434e-05 1 1.9891854e-06
-0.024064925 -0.34598714 -0.10890962 3.3819637e-07 -4.7673155e-05 1 6.4135802e-06
-0.013761852 -0.34558043 -0.10890964 -2.3109258e-06 -1.605684e-05 1 2.0610576e-06
-0.0089797229 -0.34484878 -0.10890963 -4.7392682e-06 -3.7955619e-05 1 6.7225897e-06
0.0085559953 -0.34500277 -0.10890963 7.004038e-07 -1.8143121e-05 1 6.5863646e-06
0.015402266 -0.34444293 -0.10890961 9.0850261e-07 -3.2481108e-05 1 1.9601155e-06
0.024295028 -0.34593955 -0.10890962 2.2910992e-06 -1.5096864e-05 1 2.1045512e-06
0.034563489 -0.34622657 -0.10890964 1.6368879e-06 -3.3189899e-05 1 4.2834504e-06
0.044936709 -0.3456524 -0.10890963 -3.5063584e-07 -3.5444416e-05 1 4.2554348e-06
0.055140402 -0.34610868 -0.10890963 1.4088529e-05 -3.586807e-05 1 9.4762336e-06
0.065274723 -0.34416497 -0.10890963 9.6795784e-06 -3.0345824e-05 1 0
0.075334221 -0.34472165 -0.10890964 3.9717834e-06 -5.7695521e-05 1 4.3371438e-06
0.084502436 -0.34473458 -0.10890963 -5.8034893e-06 -6.2850151e-05 1 9.7023822e-06
0.093195327 -0.3446756 -0.10890963 1.9957923e-05 -1.815727e-05 1 2.1248779e-06
0.10555327 -0.34602797 -0.10890963 -0.23801197 -0.016201321 0.97112709 0.040077507
0.116553 -0.34300265 -0.10890963 -0.50776875 0.012738831 0.86139929 0.070471756
0.15680446 -0.34479567 -0.10713141 -0.70763463 0.46718442 0.53008676 0.14849783
0.16329287 -0.34117424 -0.10316689 -0.84156328 0.33357379 0.42485276 0.17027408
0.17015633 -0.34093398 -0.10064188 -0.64220524 0.60033566 0.47662312 0.20257707
0.19720183 -0.3460874 -0.10718606 -0.96568424 -0.063529804 0.25182918 0.14870234
-0.18301183 -0.33996958 -0.10961962 0.73630208 0.56659764 0.36990061 0.13661008
-0.17461818 -0.33715338 -0.10273752 0.81177241 0.54909784 0.19878919 0.19740917
-0.16832201 -0.33463109 -0.10372033 0.53244269 0.75204635 0.38849843 0.22251973
-0.15609142 -0.33098963 -0.10444339 0.16659282 0.83520389 0.52410042 0.18829073
-0.14232844 -0.33400682 -0.10595445 -0.23163612 0.81573951 0.53001291 0.12381876
-0.12442055 -0.33483028 -0.10521118 0.24382624 -0.071245119 0.96719849 0.23152292
-0.11593466 -0.33535403 -0.10890963 0.31677777 -0.0027226927 0.94849592 0.10968503
-0.10593247 -0.3364217 -0.10890963 0.18032086 0.020103823 0.98340243 0.023632096
-0.093791902 -0.33486056 -0.10890962 -1.4697799e-06 -1.4967985e-05 1 0
-0.085068688 -0.3382414 -0.10890963 -4.1117864e-06 -1.6916189e-05 1 2.1197848e-06
-0.074985296 -0.33174655 -0.10890963 5.6853237e-06 -8.414068e-05 1 6.932316e-06
-0.068752654 -0.33268577 -0.10890963 2.1713477e-06 -1.9325527e-05 1 4.2700049e-06
-0.055559874 -0.33564934 -0.10890963 -5.1523834e-06 -3.7777714e-05 1 4.0114096e-06
-0.046766922 -0.33140862 -0.10890963 -0 -0 1 2.1993535e-06
-0.034540445 -0.33205792 -0.10890963 -2.5278555e-06 -5.3478885e-05 1 2.2096356e-06
-0.026073579 -0.33428547 -0.10890963 -4.622696e-06 3.6927457e-07 1 2.1648486e-06
-0.01510331 -0.33482876 -0.10890963 -1.3015673e-06 1.5322988e-05 1 4.2257507e-06
-0.0021773526 -0.337695 -0.10890963 3.2933585e-07 -1.5326385e-05 1 1.981886e-06
0.0046319235 -0.33321282 -0.10890963 4.3842331e-07 6.8080142e-09 1 6.3493467e-06
0.014497545 -0.33786038 -0.10890963 2.5568315e-06 -3.7842176e-05 1 8.7157541e-06
0.025039662 -0.33488226 -0.10890962 -1.1180163e-08 -1.4712268e-05 1 1.9233235e-06
0.037280649 -0.33353731 -0.10890963 -1.5758689e-06 -3.3916556e-05 1 3.963481e-06
0.046524666 -0.33379215 -0.10890963 5.4373841e-06 -4.1103271e-05 1 9.2254941e-06
0.054237004 -0.33511314 -0.10890963 2.1292133e-06 -1.7774331e-05 1 6.6640259e-06
0.065336443 -0.33415815 -0.10890963 7.8511503e-06 4.6851898e-07 1 6.7385959e-06
0.073326617 -0.33687732 -0.10890963 1.3119144e-05 -4.1133371e-05 1 2.1419391e-06
0.085982449 -0.33457685 -0.10890963 5.9764425e-06 -3.0487276e-05 1 2.1074743e-06
0.094338 -0.33270711 -0.10890963 1.3417569e-05 -3.0425968e-05 1 6.2817735e-06
0.10145842 -0.33518592 -0.10890962 -0.15040818 -0.0008538469 0.98862362 0.024219837
0.11674009 -0.33213231 -0.10890962 -0.45037988 0.037524179 0.89204812 0.069003657
0.12486804 -0.33535567 -0.10312832 -0.89165884 0.025748631 0.45197517 0.076908715
0.15620518 -0.33832294 -0.10928857 -0.76004744 0.38091677 0.52652675 0.1672442
0.16669378 -0.33708799 -0.10730889 -0.56734401 0.64642829 0.51014817 0.19546176
0.17125551 -0.33617729 -0.10691735 -0.51695865 0.65722412 0.54846168 0.17465402
0.18462387 -0.33476686 -0.10404921 -0.86322325 0.39172715 0.31842649 0.19812225
0.19287339 -0.33567089 -0.10185239 -0.98826832 0.097424358 0.117619 0.17749093
-0.18694642 -0.32173744 -0.10597616 0.97101629 0.22269565 -0.086798683 0.088027135
-0.1564022 -0.3282586 -0.10797074 0.17593656 0.7616365 0.62366349 0.19263004
-0.12486803 -0.32469413 -0.10427097 0.16824113 -0.060806349 0.98386866 0.23578852
-0.11545084 -0.32367712 -0.10890964 0.39208576 -0.03683766 0.91919082 0.083952658
-0.10612913 -0.32508802 -0.10890962 0.27291965 -0.02757678 0.96164155 0.049863469
-0.09479811 -0.32249179 -0.10890963 -6.5780459e-06 -1.8018585e-05 1 4.5699999e-06
-0.082418971 -0.32611787 -0.10890963 -3.9363872e-06 -2.8223448e-07 1 4.1167714e-06
-0.074484304 -0.32530951 -0.10890963 1.2396029e-06 -3.3052216e-05 1 4.1134704e-06
-0.061824344 -0.32429585 -0.10890963 -4.2613422e-07 -2.278088e-05 1 8.9294308e-06
-0.057326037 -0.32772568 -0.10890963 -7.3435552e-07 -1.8366498e-05 1 9.0823378e-06
-0.04681344 -0.32584897 -0.10890964 2.4273577e-06 -3.6799553e-05 1 2.1726451e-06
-0.036682211 -0.32630226 -0.10890963 -6.5901108e-06 -1.7091716e-05 1 4.2353236e-06
-0.024556179 -0.32659191 -0.10890963 1.5567838e-06 -1.6557718e-05 1 2.0932114e-06
-0.016193489 -0.32550862 -0.10890964 2.2881454e-06 -6.4003005e-05 1 4.439662e-06
-0.0037342918 -0.3245903 -0.10890961 -1.1596532e-06 -3.6076672e-05 1 8.5781076e-06
0.0023502102 -0.32690731 -0.10890963 7.9178262e-06 -5.4806733e-05 1 8.7370081e-06
0.014754444 -0.3244471 -0.10890962 1.0441278e-06 2.1362629e-07 1 9.3854924e-06
0.020158652 -0.32782358 -0.10890962 1.0392909e-06 1.1587601e-07 1 2.0753837e-06
0.034488238 -0.32176316 -0.10890962 2.4791293e-06 -1.6127129e-05 1 8.4067333e-06
0.044414103 -0.32373446 -0.10890962 6.1766641e-06 -4.8431091e-05 1 5.7861971e-06
0.055044826 -0.32461929 -0.10890963 1.0214259e-05 -2.0689911e-05 1 8.9589448e-06
0.061401535 -0.32561833 -0.10890964 7.7629411e-06 3.8244562e-07 1 1.9646741e-06
0.078195848 -0.32571581 -0.10890962 1.0727468e-05 -3.88558e-05 1 2.3566713e-06
0.084565699 -0.32739121 -0.10890963 8.2518054e-06 -3.4866756e-05 1 2.2329682e-06
0.095013887 -0.3215124 -0.10890962 -0.0090375328 4.1116549e-05 0.99995917 0.0001445041
0.10272957 -0.32665521 -0.10890963 -0.17366448 0.018946337 0.9846226 0.031781703
0.1149429 -0.32727447 -0.10890963 -0.44935337 0.031072179 0.8928135 0.070275605
0.12486802 -0.3238897 -0.10755823 -0.70576382 0.074092098 0.70456213 0.088556387
-0.19123261 -0.31289685 -0.10330015 0.98394823 0.15961702 -0.079801515 0.10061415
-0.18823637 -0.31479287 -0.10552293 0.97594839 0.18812305 -0.11015603 0.096377537
-0.1734782 -0.31211665 -0.10178608 0.9435668 0.32193446 0.077717312 0.16175808
-0.12438951 -0.31616023 -0.10663565 0.25718626 -0.048349433 0.96515161 0.21285485
-0.11240339 -0.31716168 -0.10890962 0.38254824 0.0012066468 0.9239347 0.059545793
-0.10466286 -0.31678951 -0.10890962 0.23266833 -0.03274785 0.97200459 0.042352557
-0.096930049 -0.31563818 -0.10890963 0.031193431 0.0065950397 0.99949157 0.0015240897
-0.086937487 -0.31739095 -0.10890963 -1.2759751e-05 -6.2898522e-07 1 6.4167939e-06
-0.077340171 -0.31509531 -0.10890963 -6.4402293e-06 -1.805453e-05 1 4.098184e-06
-0.063575663 -0.31332114 -0.10890963 -1.2285913e-07 -5.3727865e-05 1 6.6581397e-06
-0.054755852 -0.319738 -0.10890963 -2.1037504e-06 -1.7679504e-05 1 4.3236946e-06
-0.04253431 -0.31935453 -0.10890962 -1.3630131e-06 -6.9931993e-05 1 2.1463877e-06
-0.032579586 -0.31795824 -0.10890964 -3.7546793e-06 4.3859637e-07 1 2.0549394e-06
-0.026132289 -0.313627 -0.10890963 5.3582033e-07 -1.6392969e-05 1 2.1213723e-06
-0.014452286 -0.31939089 -0.10890963 -1.9160884e-06 -3.25213e-05 1 2.0630439e-06
-0.005388645 -0.31467563 -0.10890963 -1.5654938e-07 1.819381e-05 1 5.8250448e-06
0.0048631709 -0.31339329 -0.10890963 3.9480924e-06 -3.3293294e-05 1 7.1973122e-06
0.013769793 -0.31528446 -0.10890963 0 0 1 4.166071e-06
0.023426428 -0.31178543 -0.10890963 8.8981305e-06 -6.3476291e-05 1 5.9399813e-06
0.036687329 -0.31436124 -0.10890964 1.05673e-06 -3.5260578e-05 1 6.7542651e-06
0.04631282 -0.31505531 -0.10890963 1.7297126e-06 -1.820175e-05 1 6.3684834e-06
0.059231564 -0.3164002 -0.10890963 6.5841655e-06 -3.4693538e-05 1 2.0851139e-06
0.067110568 -0.3151859 -0.10890962 5.9321542e-06 -4.9415958e-05 1 2.0291245e-06
0.07293614 -0.31695646 -0.10890963 5.6933104e-06 -1.7506422e-05 1 2.1724261e-06
0.08330097 -0.31465614 -0.10890963 1.4472471e-05 -6.4083608e-05 1 4.6460082e-06
0.091971219 -0.31821284 -0.10890963 8.3375662e-06 -1.6925496e-05 1 2.2020965e-06
0.1034058 -0.31294671 -0.10890964 -0.12988576 0.023696428 0.99124581 0.020479294
0.11518198 -0.31449804 -0.10890964 -0.46542042 0.071922228 0.88216269 0.070495933
0.12309577 -0.31315026 -0.10801669 -0.60719186 0.054458808 0.7926867 0.07458616
0.17426901 -0.31364286 -0.10355206 -0.99128878 -0.021730054 0.12990165 0.1961925
0.18816081 -0.31505403 -0.10488069 -0.96176904 -0.26161638 -0.080976203 0.13308783
0.19190429 -0.3173461 -0.10754457 -0.96624732 -0.24396832 -0.082738638 0.11505956
-0.19267364 -0.30292818 -0.10620049 0.97829282 0.18458037 -0.094197981 0.10146222
-0.18984523 -0.30894083 -0.10583074 0.9916333 0.12216104 -0.041712765 0.1088024
-0.17673938 -0.30351505 -0.10535018 0.97636139 0.16330194 0.14160058 0.17812109
-0.12466319 -0.30448705 -0.10560729 0.38753691 -0.037974715 0.92107165 0.18657981
-0.11657923 -0.30584985 -0.10890963 0.48595884 -0.023123039 0.87367576 0.079195775
-0.10453697 -0.30808938 -0.10890963 0.17537479 -0.0068631871 0.98447776 0.025503287
-0.092512153 -0.30489957 -0.10890963 -3.1521657e-07 -3.4513479e-05 1 8.7106591e-06
-0.088511258 -0.30449861 -0.10890964 -8.0288646e-06 -4.1275733e-05 1 6.7959463e-06
-0.066032209 -0.30457699 -0.10890963 -5.8968071e-06 8.9726015e-08 1 1.8273619e-06
-0.055239778 -0.30655468 -0.10890962 -3.3164367e-06 -1.3065862e-05 1 1.8634886e-06
-0.042883269 -0.3055433 -0.10890963 -6.158939e-07 -3.0720654e-05 1 4.3283467e-06
-0.030164124 -0.30437976 -0.10890962 -4.3219043e-06 1.5746895e-05 1 6.1683768e-06
-0.024663284 -0.30677947 -0.10890962 -3.4937609e-06 -2.7105107e-05 1 6.2853082e-06
-0.012457764 -0.30015197 -0.10890962 1.2736738e-06 -3.3714048e-05 1 2.1222588e-06
-0.0038881728 -0.30915472 -0.10890964 -4.1862128e-07 -1.5879907e-05 1 4.0071977e-06
0.0053581502 -0.30538291 -0.10890963 1.7487793e-06 -1.5317179e-05 1 8.6783939e-06
0.015595514 -0.30656847 -0.10890964 1.9965216e-06 -1.5507168e-05 1 6.2377358e-06
0.02381064 -0.30779815 -0.10890964 1.055579e-06 -3.6052115e-05 1 8.4715266e-06
0.035472061 -0.30160546 -0.10890964 -3.8354369e-06 -3.7651607e-05 1 6.9053617e-06
0.04707827 -0.30366296 -0.10890963 -2.597769e-06 -1.8160326e-05 1 4.1494081e-06
0.066650867 -0.30573028 -0.10890964 2.5451347e-06 -1.6341761e-05 1 4.294051e-06
0.07698261 -0.30412415 -0.10890963 4.7378767e-06 -3.8382121e-05 1 4.2143793e-06
0.085091271 -0.30767819 -0.10890963 1.063244e-05 -1.7510474e-05 1 6.7015349e-06
0.094229676 -0.30726919 -0.10890963 -0.0037362685 0.00082822016 0.99999273 4.9778206e-05
0.10363965 -0.30494443 -0.10890961 -0.1372034 -0.015500985 0.99042159 0.022226451
0.11747824 -0.30250061 -0.10890963 -0.42330152 0.027430994 0.90557355 0.060876552
0.12486803 -0.30644047 -0.10251435 -0.78161228 -0.010713569 0.62367266 0.08878807
0.16933584 -0.30558926 -0.10508893 -0.9623847 -0.16991924 0.21199776 0.21080369
0.17340122 -0.30429325 -0.10577062 -0.92878854 -0.30995533 0.20317359 0.16981831
0.18677667 -0.30414182 -0.10264351 -0.92606926 -0.35966623 -0.11417507 0.10220172
0.19054711 -0.30669266 -0.10632814 -0.94021702 -0.29650319 -0.16756433 0.092324801
-0.19326074 -0.29434767 -0.10601699 0.95663679 0.27269253 -0.10239547 0.11477056
-0.18044296 -0.29409829 -0.10232493 0.96550673 0.15029389 -0.21262296 0.12458762
-0.17723779 -0.2955873 -0.10452442 0.98190123 0.1818098 0.053058829 0.18468946
-0.12444193 -0.29313791 -0.10621946 0.66065818 0.0081235673 0.75064284 0.082037397
-0.11449947 -0.29572931 -0.10890963 0.32810894 -0.01266943 0.94455498 0.055801392
-0.10459395 -0.29462349 -0.10890962 0.16049421 0.021167448 0.98680973 0.022424502
-0.097702406 -0.29511529 -0.10890963 0.041116826 0.00039452559 0.99915427 0.0015503111
-0.089783117 -0.29124033 -0.10890962 -8.6886748e-06 -1.5146648e-05 1 4.1798589e-06
-0.075979397 -0.29629618 -0.10890963 2.9650305e-06 -1.7757422e-05 1 6.2991412e-06
-0.065869987 -0.29236287 -0.10890963 -4.1267672e-06 -1.7013761e-05 1 6.2186141e-06
-0.052960157 -0.2927061 -0.10890963 2.1953363e-06 1.9295113e-07 1 6.5617814e-06
-0.041570738 -0.29842761 -0.10890963 -2.4751869e-06 -1.6300495e-05 1 4.0176046e-06
-0.030935001 -0.29154333 -0.10890962 -9.7126269e-07 6.2011274e-08 1 6.2406875e-06
-0.02722726 -0.29465583 -0.10890962 -3.6768208e-06 -2.7913935e-05 1 2.0729651e-06
-0.016156821 -0.2914933 -0.10890963 2.820162e-07 -1.6941e-05 1 6.685043e-06
-0.0072913216 -0.29359517 -0.10890962 2.6700636e-07 -2.1869264e-08 1 6.4655665e-06
0.0040773363 -0.29442328 -0.10890963 -3.1682439e-06 -1.9890811e-05 1 4.4065559e-06
0.014374214 -0.29331526 -0.10890963 5.2070372e-06 -4.1087525e-05 1 7.1260602e-06
0.025527146 -0.2903859 -0.10890962 3.0213826e-06 -3.3196888e-05 1 4.4189951e-06
0.033653628 -0.29443672 -0.10890963 2.1395963e-06 -1.3630964e-07 1 4.4144135e-06
0.045925062 -0.29551339 -0.10890963 4.5776092e-06 -3.0302253e-05 1 3.9982319e-06
0.055104353 -0.29411274 -0.10890963 2.5642232e-06 -3.0459152e-05 1 3.8567127e-06
0.064897373 -0.29639122 -0.10890962 4.2594361e-06 -1.6218619e-05 1 1.0958971e-05
0.076859228 -0.29913783 -0.10890963 1.4383133e-05 -2.8961244e-05 1 6.0013481e-06
0.083977349 -0.29336277 -0.10890963 4.6392724e-06 1.522898e-05 1 6.1845749e-06
0.097830921 -0.29520512 -0.10890963 -0.057849854 -0.0014016746 0.99832428 0.0051191198
0.10376591 -0.29605547 -0.10890963 -0.14834535 0.0024332919 0.98893267 0.023656104
0.11666515 -0.29436031 -0.10890963 -0.42515782 0.0056774309 0.90510142 0.066095628
0.12391553 -0.29237479 -0.10779712 -0.45714563 0.090733148 0.88475162 0.13376608
0.16795339 -0.29484078 -0.10296294 -0.97515941 -0.20532528 -0.083100349 0.1804837
0.17948887 -0.29383495 -0.10002273 -0.9363445 -0.2836214 -0.2069248 0.10613818
0.18416822 -0.29291037 -0.10471563 -0.94114381 -0.27866802 -0.1912912 0.099233657
-0.19656329 -0.2850078 -0.10462617 0.94494897 0.2375723 -0.22501267 0.10710324
-0.18260062 -0.28277302 -0.10245239 0.94946206 0.25593343 -0.18171392 0.14751029
-0.17904666 -0.28621832 -0.10332554 0.95898336 0.24249323 -0.14679217 0.16412085
-0.12412559 -0.28686225 -0.10510895 0.65032512 -0.065387331 0.75683671 0.081801929
-0.11415531 -0.28203893 -0.10890964 0.4314025 0.018246247 0.90197504 0.072872326
-0.1055521 -0.28520259 -0.10890963 0.22800721 -0.026125293 0.9733088 0.045957502
-0.096846044 -0.28563988 -0.10890963 0.027254123 0.0018676124 0.99962676 0.0014356435
-0.089277565 -0.28661591 -0.10890963 -3.0514177e-06 -1.0623425e-05 1 6.5657641e-06
-0.074591875 -0.28522879 -0.10890963 -7.7121067e-06 -8.210096e-06 1 4.1150711e-06
-0.06505961 -0.28306535 -0.10890963 -9.5719379e-06 -1.8445968e-05 1 6.9869943e-06
-0.05724144 -0.28472608 -0.10890962 -9.606124e-06 -1.7758235e-05 1 6.547526e-06
-0.045714512 -0.28684974 -0.10890964 -3.0230703e-06 -2.2762126e-05 1 6.6983002e-06
-0.033088624 -0.28447479 -0.10890962 -1.6285793e-06 -2.124538e-05 1 4.5301235e-06
-0.023253117 -0.28562576 -0.10890963 3.1692109e-06 -3.2199103e-05 1 4.599553e-06
-0.014715625 -0.28501928 -0.10890963 1.8137533e-06 -4.9630511e-05 1 7.1423779e-06
-0.0053872759 -0.28517246 -0.10890962 -4.6933084e-07 -1.8953724e-05 1 4.5510574e-06
0.0061093299 -0.28331858 -0.10890963 1.2340296e-06 -3.3548335e-05 1 2.0632917e-06
0.01756596 -0.2864106 -0.10890963 -2.4401429e-06 -1.6251537e-05 1 2.0527405e-06
0.026067868 -0.28408644 -0.10890962 2.5756092e-06 -2.1427255e-05 1 1.9494917e-06
0.033625323 -0.28843352 -0.10890962 1.7412001e-06 -1.4488394e-05 1 4.2198935e-06
0.043574225 -0.28276637 -0.10890964 2.4901606e-06 -3.467725e-05 1 4.6627497e-06
0.055383477 -0.28372812 -0.10890962 3.1340244e-06 -1.8609508e-05 1 6.2940494e-06
0.064075053 -0.28670609 -0.10890963 1.0525034e-06 -3.2477932e-05 1 8.3141413e-06
0.084810741 -0.2838479 -0.10890963 1.2128061e-05 -1.5640695e-05 1 1.9591723e-06
0.095760129 -0.286607 -0.10890962 -0.035548631 -0.0034814833 0.99936187 0.0029705577
0.10352238 -0.2854034 -0.10890963 -0.15516089 -0.0046509751 0.98787832 0.02604487
0.11334644 -0.2865316 -0.10890963 -0.37614375 -0.040587746 0.92567188 0.063550331
0.12486804 -0.28420132 -0.10214435 -0.76457793 0.025973547 0.6440078 0.15431976
0.16578858 -0.28347361 -0.10395011 -0.96572769 -0.25878721 0.019978482 0.15447009
0.17898357 -0.28489283 -0.10407378 -0.9636718 -0.24897242 -0.096692659 0.10424986
0.18328206 -0.28825337 -0.10411374 -0.95263427 -0.23953749 -0.18737547 0.097649448
-0.20136283 -0.27289271 -0.10601702 0.93634224 0.31166026 -0.16165131 0.088245355
-0.19710402 -0.27629361 -0.10461225 0.93399799 0.31013319 -0.1773842 0.094625294
-0.1849146 -0.27464792 -0.10589412 0.97579485 0.21808338 0.016246906 0.16061971
-0.12214565 -0.27560821 -0.10878236 0.58211625 -0.039758522 0.81213289 0.077012785
-0.11633921 -0.27500668 -0.10890963 0.51654214 0.033244394 0.85561615 0.078199454
-0.10661884 -0.27255863 -0.10890963 0.28577507 -0.033645134 0.95770591 0.05141028
-0.097817197 -0.27443996 -0.10890963 0.027613714 0.0018627287 0.99961698 0.0014235449
-0.0821326 -0.27396804 -0.10890963 -5.0963627e-07 -3.1073476e-05 1 6.8810859e-06
-0.074995227 -0.27355775 -0.10890962 -8.2756269e-06 -9.4400675e-06 1 6.5471254e-06
-0.064652085 -0.27419266 -0.10890963 -1.0301811e-05 -1.7917e-05 1 7.5631224e-06
-0.056088567 -0.27684593 -0.10890963 -1.061999e-05 -1.6900847e-05 1 4.1359067e-06
-0.045786843 -0.27425256 -0.10890963 1.3004608e-06 -3.05002e-05 1 4.0693417e-06
-0.033839993 -0.27504399 -0.10890963 -7.0986034e-06 -1.9165009e-05 1 4.1562439e-06
-0.014568187 -0.27489886 -0.10890963 -1.5105127e-06 -9.1426145e-06 1 9.2686023e-06
-0.0067215473 -0.2744219 -0.10890963 5.5209748e-06 -4.4081e-05 1 1.968594e-06
0.0042249011 -0.27386481 -0.10890962 2.8756201e-06 -5.0485862e-05 1 2.1018207e-06
0.013092844 -0.27494714 -0.10890962 7.1918174e-07 2.0174679e-05 1 6.3557559e-06
0.025005555 -0.27541378 -0.10890963 3.7241025e-06 -1.6859614e-05 1 6.5535719e-06
0.033099156 -0.27552006 -0.10890962 4.3770656e-06 -1.63654e-05 1 6.3000311e-06
0.045694906 -0.27121234 -0.10890964 4.1835438e-06 -1.6384669e-07 1 4.0684818e-06
0.052838638 -0.27533337 -0.10890962 5.6063955e-06 -3.2505886e-05 1 4.37361e-06
0.064439796 -0.27431357 -0.10890964 9.4084808e-06 -3.8407219e-05 1 4.0651294e-06
0.075044103 -0.27801916 -0.10890963 4.7374542e-06 -1.6877875e-05 1 8.3463865e-06
0.085200518 -0.2735979 -0.10890963 5.3511626e-06 -2.9975783e-05 1 6.3863099e-06
0.091284536 -0.27654377 -0.10890964 1.2316585e-05 -2.3017108e-05 1 6.798025e-06
0.10695314 -0.27488208 -0.10890963 -0.17121664 0.020225639 0.98502582 0.027905105
0.11535019 -0.27666897 -0.10890963 -0.19334647 0.060181249 0.97928309 0.11837575
0.12364354 -0.27645659 -0.10744039 -0.65289903 0.10326696 -0.75037247 0.17934772
0.1645899 -0.2766932 -0.10505801 -0.92039555 -0.38707393 0.055188086 0.17542917
0.17735928 -0.27331141 -0.10312054 -0.97486639 -0.22017594 0.034031861 0.10047441
0.18078038 -0.27015352 -0.10664998 -0.96841794 -0.24231757 -0.058728058 0.10034636
-0.20170137 -0.26961437 -0.10282487 0.93594241 0.33770168 -0.099847361 0.10265364
-0.19905221 -0.26797807 -0.10300632 0.94591361 0.31121966 -0.091596171 0.11816528
-0.18501365 -0.26485747 -0.10257336 0.99315459 0.11523867 -0.019077117 0.21222328
-0.12486804 -0.2630589 -0.10609096 0.7725777 0.048416425 0.6330716 0.068244889
-0.11438289 -0.26567304 -0.10890964 0.48756495 -0.026046675 0.87269807 0.065515906
-0.094340183 -0.26642966 -0.10890963 0.0005768938 9.8189201e-05 0.99999982 8.1059279e-06
-0.083600223 -0.26342672 -0.10890963 -4.2590054e-06 2.9556512e-07 1 8.1732778e-06
-0.076220348 -0.26268816 -0.10890962 -5.5648115e-06 -2.4873378e-05 1 4.4853382e-06
-0.066070676 -0.26363102 -0.10890963 -1.1966327e-05 -2.4683928e-05 1 2.271235e-06
-0.056972403 -0.26228121 -0.10890963 -5.172381e-06 -2.4561738e-05 1 4.0997606e-06
-0.047818124 -0.26796308 -0.10890963 -2.4237332e-07 -2.7155906e-05 1 4.2716597e-06
-0.033625141 -0.26606032 -0.10890963 -4.3713071e-06 -1.2145744e-06 1 6.102819e-06
-0.02404703 -0.26587772 -0.10890963 -5.9229915e-06 -4.2059091e-05 1 1.8839061e-06
-0.014692187 -0.26765233 -0.10890964 8.8075876e-07 -1.3883733e-05 1 4.0589312e-06
-0.0063158688 -0.26978046 -0.10890963 2.3619798e-06 -4.8208527e-05 1 4.1271319e-06
0.0051244125 -0.26302317 -0.10890962 6.1671835e-06 -4.0512248e-05 1 3.9432944e-06
0.017890122 -0.26310307 -0.10890963 -6.7398183e-08 -1.5531114e-05 1 4.0399232e-06
0.024922904 -0.2630071 -0.10890963 2.9570849e-06 -1.4621191e-05 1 6.1014989e-06
0.034415781 -0.26058453 -0.10890964 7.4372238e-06 8.9569367e-06 1 2.1511428e-06
0.044774499 -0.26388401 -0.10890963 6.7401043e-06 -3.4509303e-05 1 4.4035346e-06
0.053102367 -0.26425833 -0.10890963 5.8867058e-06 -1.4664874e-05 1 4.2762631e-06
0.063516125 -0.26635575 -0.10890963 2.5847899e-06 -3.6803009e-05 1 8.4922949e-06
0.074890755 -0.26668847 -0.10890964 4.8599122e-06 -2.6850164e-05 1 6.4767096e-06
0.084768966 -0.26661852 -0.10890963 1.0484942e-05 -4.831544e-05 1 9.1276397e-06
0.095171526 -0.26505172 -0.10890962 -0.021809004 -0.0015874421 0.99976093 0.0014041561
0.105872 -0.2634953 -0.10890963 -0.13744071 0.0038033302 0.99050277 0.026364516
0.11385807 -0.26423618 -0.10890963 -0.095742054 0.21685562 0.9714973 0.14656484
0.12426484 -0.26347393 -0.10483329 -0.52347517 0.27766609 -0.80552804 0.20062312
0.16406712 -0.26746517 -0.10108653 -0.94150305 -0.32645261 0.083669804 0.16827141
0.1770048 -0.26477927 -0.1067433 -0.9680928 -0.25051746 -0.0061066989 0.097675949
0.18022504 -0.26858485 -0.10947829 -0.96825278 -0.24065568 -0.067613579 0.091502421
-0.20045026 -0.25343084 -0.10953212 0.99466783 -0.014992292 0.10203548 0.17604925
-0.19441667 -0.25072819 -0.10783125 0.92436463 -0.28103361 0.25801176 0.21948582
-0.12293692 -0.25444144 -0.10853679 0.6825313 -0.0099110492 0.73078912 0.08019004
-0.1154297 -0.2528536 -0.10890963 0.45769775 0.024183119 0.88877892 0.068487972
-0.10629585 -0.25186422 -0.10890963 0.28333223 0.030254951 0.95854449 0.062718414
-0.093730845 -0.25352621 -0.10890964 0.001620763 0.00030237157 0.99999869 1.7158258e-05
-0.084617138 -0.25539052 -0.10890962 -1.6516346e-06 -2.0131502e-05 1 8.7342542e-06
-0.073491953 -0.25434247 -0.10890963 -8.6783784e-06 -1.7190048e-05 1 6.8186228e-06
-0.064869702 -0.25234717 -0.10890962 -7.4898162e-06 -2.6147847e-05 1 4.5760526e-06
-0.055271551 -0.25778735 -0.10890964 -1.143737e-06 -3.5542842e-05 1 1.9709639e-06
-0.047272976 -0.2537272 -0.10890964 -6.2833105e-06 -9.2524751e-06 1 8.7443059e-06
-0.034116153 -0.25428081 -0.10890964 -4.0233131e-06 -1.9316642e-05 1 6.2916633e-06
-0.026346762 -0.25341377 -0.10890963 -3.422525e-06 -8.1283451e-06 1 6.2282675e-06
-0.004655492 -0.2538763 -0.10890963 -4.9964643e-07 -9.1532002e-06 1 8.5594729e-06
0.0086622257 -0.25231278 -0.10890963 -1.525766e-07 7.7405321e-06 1 8.5593556e-06
0.01484175 -0.2544415 -0.10890963 3.5324147e-06 -1.5877011e-05 1 8.5671209e-06
0.024181487 -0.25510955 -0.10890963 5.2890377e-06 -4.2678847e-05 1 6.3479742e-06
0.031918116 -0.25683153 -0.10890962 4.4877956e-06 -1.8048921e-05 1 2.2270076e-06
0.044821896 -0.25289375 -0.10890963 7.3830256e-06 -3.4270892e-05 1 4.1502258e-06
0.052020684 -0.25577894 -0.10890964 7.7128689e-06 -1.6898914e-05 1 6.301751e-06
0.065371774 -0.25347507 -0.10890964 -9.8882381e-08 -2.2509037e-05 1 8.1338594e-06
0.082937777 -0.2576254 -0.10890963 1.9049228e-06 -5.1967556e-05 1 4.1123403e-06
0.09364903 -0.255245 -0.10890963 -0.0029882912 0.00010636464 0.99999553 2.6660722e-05
0.10607808 -0.25499576 -0.10890963 -0.074733436 -0.00080840458 0.99720317 0.031095622
0.11698002 -0.25659475 -0.10890964 0.038567476 0.051240299 0.99794137 0.17216106
0.12360597 -0.25404814 -0.10836908 -0.35006413 0.46656671 -0.81226265 0.20532899
0.13302186 -0.25219715 -0.10292691 -0.36238816 0.76080739 -0.53837436 0.19687895
0.1484423 -0.25219861 -0.10590544 0.0087393345 0.81125796 -0.58462316 0.2020352
0.15894124 -0.25204179 -0.10923486 0.51910484 0.62626028 -0.58165997 0.19832546
0.175633 -0.2584323 -0.10827818 -0.95678717 -0.27540001 0.093343996 0.11321047
-0.20673952 -0.24699529 -0.10649858 0.98451525 -0.070952408 0.16029833 0.16594684
-0.19687736 -0.24847633 -0.10415278 0.99384379 -0.089046821 0.06591782 0.18670061
-0.18285805 -0.24256113 -0.10092035 -0.39905888 0.76864612 -0.49993521 0.20014569
-0.17864537 -0.24390744 -0.10435786 -0.58872753 0.68368429 -0.43124905 0.19342647
-0.16596174 -0.24348877 -0.10871984 0.68913466 -0.58413231 0.42881566 0.1548133
-0.12421083 -0.24485199 -0.1052589 0.74321294 0.036295932 0.66806972 0.079197504
-0.11456075 -0.24159901 -0.10890963 0.52970487 -0.021856565 0.84790039 0.088216022
-0.10504286 -0.24390373 -0.10890963 0.18834949 -0.012344969 0.98202449 0.033779088
-0.09728425 -0.24582237 -0.10890963 0.014484134 0.0010406278 0.99989456 0.00083111302
-0.081329256 -0.24346752 -0.10890963 -4.5646866e-06 -1.9671497e-05 1 6.6787111e-06
-0.073655151 -0.24398056 -0.10890964 -1.4474846e-05 -3.0473166e-06 1 8.9607347e-06
-0.065007687 -0.24263716 -0.10890963 -1.9902511e-06 -1.8367105e-05 1 7.3932661e-06
-0.055895392 -0.24623866 -0.10890963 -0 -0 1 6.8994932e-06
-0.044860072 -0.24463102 -0.10890962 -2.3311105e-07 -3.7185797e-05 1 5.8991259e-06
-0.034915991 -0.24380468 -0.10890963 -3.3671452e-06 -8.4203857e-06 1 9.1453585e-06
-0.024130309 -0.24437714 -0.10890963 -2.2232307e-06 -9.6174417e-06 1 6.4797136e-06
-0.010975413 -0.24287143 -0.10890964 2.1526462e-08 -1.8185745e-05 1 6.2636605e-06
-0.0066403388 -0.24921033 -0.10890962 -7.6927398e-07 -1.6132102e-05 1 5.9800823e-06
0.0041565611 -0.24204777 -0.10890964 -6.8247897e-07 -8.9380655e-06 1 4.2894053e-06
0.015612198 -0.24335897 -0.10890963 1.9414667e-06 -1.0091822e-05 1 9.3107001e-06
0.025585329 -0.24376172 -0.10890964 2.5914976e-06 -1.8802821e-05 1 6.9759071e-06
0.032735098 -0.24639465 -0.10890963 2.2289717e-07 -8.277173e-06 1 4.3182981e-06
0.045817994 -0.24259278 -0.10890963 5.0289259e-06 -3.0762585e-05 1 3.9509359e-06
0.058292724 -0.2466704 -0.10890962 5.8703754e-06 -3.1403211e-05 1 3.9185961e-06
0.062630534 -0.24313851 -0.10890963 4.3041591e-06 -3.4771394e-05 1 6.9499943e-06
0.074009791 -0.24605177 -0.10890963 9.7649117e-06 -3.2214808e-05 1 5.8712294e-06
0.085289113 -0.24512288 -0.10890962 2.9873222e-06 -8.9552532e-06 1 4.1128405e-06
0.094893657 -0.24386272 -0.10890963 -0.0031980462 -0.0013737367 0.99999398 3.9500261e-05
0.10594879 -0.24429999 -0.10890962 -0.14254971 0.014686032 0.98967868 0.034408826
0.11325945 -0.24486469 -0.10890964 -0.15782432 -0.13500744 0.97819448 0.13507336
0.12480011 -0.2445004 -0.10534708 0.19683646 0.57979143 -0.79063094 0.22711463
0.13076591 -0.24761221 -0.1037918 -0.23027545 0.76969689 -0.59543258 0.19607025
0.15648642 -0.24783179 -0.10313372 0.39670733 0.75254339 -0.52564412 0.210853
0.16739959 -0.24432081 -0.10342401 -0.80238509 -0.54540086 0.24231401 0.16262168
-0.20542891 -0.23457552 -0.10347194 0.92838073 -0.13177156 0.34748462 0.16547452
-0.19609623 -0.23084767 -0.1040901 0.32750297 -0.54873186 0.76917815 0.22332688
-0.16841102 -0.23476803 -0.10433915 0.58480459 -0.55475944 0.59181553 0.15927567
-0.12297873 -0.23560005 -0.10890796 0.61746091 0.074281611 0.78308636 0.094474092
-0.11273865 -0.23645873 -0.10890963 0.38483408 -0.020475043 0.92275864 0.065093197
-0.10558643 -0.23470978 -0.10890963 0.20210595 0.025590956 0.97902924 0.0337492
-0.095365785 -0.23360452 -0.10890963 -2.2627773e-06 -2.7569693e-05 1 4.3204595e-06
-0.084266663 -0.23180172 -0.10890963 -6.5473241e-06 -2.2262759e-05 1 3.9173974e-06
-0.074175395 -0.23649183 -0.10890964 -0 -0 1 4.5163938e-06
-0.066054672 -0.23663516 -0.10890963 -7.4836439e-06 -7.3998585e-06 1 5.7898101e-06
-0.055129003 -0.23305771 -0.10890964 -3.6372771e-06 -1.4798823e-05 1 3.7542554e-06
-0.04109107 -0.23599215 -0.10890963 -1.0983674e-06 -1.640731e-05 1 4.2770498e-06
-0.032011803 -0.23479971 -0.10890964 -2.9825499e-06 -2.3843215e-05 1 1.1995875e-05
-0.019390931 -0.23880577 -0.10890964 -1.0685606e-06 -7.912663e-06 1 8.0036916e-06
-0.0041018333 -0.23317671 -0.10890963 -2.273364e-07 -2.6965708e-08 1 1.1383431e-05
0.0039352933 -0.23399885 -0.10890962 -1.7578819e-06 -3.4748176e-05 1 1.020841e-05
0.014764082 -0.23738803 -0.10890964 1.6161442e-06 -1.6647971e-05 1 4.1816711e-06
0.024353107 -0.23498543 -0.10890963 2.5648208e-06 -2.5345682e-05 1 6.7387646e-06
0.036414985 -0.2349541 -0.10890964 2.9340995e-06 -1.0172758e-05 1 6.7742235e-06
0.044587716 -0.23819844 -0.10890962 3.569603e-06 -3.907537e-05 1 4.2158367e-06
0.056810208 -0.23572531 -0.10890963 5.1645102e-06 -2.5802316e-05 1 4.3136915e-06
0.068603434 -0.2348959 -0.10890963 2.6957248e-06 -2.4986357e-05 1 4.047024e-06
0.072858207 -0.23318885 -0.10890962 1.6544234e-06 -3.5115245e-05 1 4.4073868e-06
0.086284712 -0.23629843 -0.10890962 7.0745e-06 -3.9177656e-05 1 4.1691801e-06
0.093498349 -0.23400316 -0.10890962 -0.0032821184 0.00012425492 0.99999458 3.8613034e-05
0.10365395 -0.2356576 -0.10890963 -0.19039944 -0.0048589841 0.9816947 0.035211381
0.11667297 -0.23320241 -0.10890964 -0.2687825 -0.10482962 0.95747942 0.12475833
0.12254605 -0.23261094 -0.10823354 -0.33596659 -0.12548929 0.93347675 0.17844841
0.13407297 -0.23664021 -0.10265472 0.0012274622 0.6480279 -0.76161563 0.23904176
0.14453077 -0.2332992 -0.1014041 -0.023029124 0.79480571 -0.60642689 0.21222554
0.15293495 -0.23247829 -0.10472517 -0.023938725 0.65511191 -0.75515246 0.20042829
0.16693068 -0.23159537 -0.10712325 -0.53101248 0.49236968 -0.68963593 0.20659457
0.1708412 -0.23705703 -0.10837318 -0.89622951 -0.27787706 0.34577009 0.17481764
-0.18602514 -0.22793756 -0.10359743 0.34931937 -0.52419299 0.776658 0.22190163
-0.17047675 -0.22833452 -0.10641376 0.70459431 -0.49646166 0.50702339 0.1722519
-0.11833132 -0.22693512 -0.10890963 0.44528678 0.012569264 0.89529979 0.091589861
-0.1059541 -0.22431794 -0.10890963 0.15613241 0.0047804499 0.98772454 0.026947087
-0.092612132 -0.22352214 -0.10890963 -3.0502233e-06 -1.730578e-05 1 3.9936394e-06
-0.083199799 -0.22540425 -0.10890961 -3.9084134e-06 -2.1106338e-05 1 9.754126e-06
-0.075159647 -0.22237208 -0.10890963 -0 -0 1 7.189758e-06
-0.065784484 -0.22590277 -0.10890962 3.3659157e-07 -3.3413155e-05 1 2.1172145e-06
-0.043849576 -0.22532408 -0.10890963 -3.7773671e-06 1.0375805e-05 1 1.1782428e-05
-0.035735488 -0.22316138 -0.10890963 -5.3251438e-06 -1.0955012e-05 1 8.6677628e-06
-0.02886864 -0.22595949 -0.10890963 -2.7638705e-06 -1.785375e-05 1 8.4069043e-06
-0.016690144 -0.22605415 -0.10890963 6.7424514e-07 -1.9367833e-05 1 6.3498469e-06
-0.0053957654 -0.22540775 -0.10890963 -0 -0 1 8.0312193e-06
0.0047346451 -0.22491772 -0.10890963 1.4210736e-06 -2.8973447e-05 1 8.318907e-06
0.016595388 -0.22497866 -0.10890963 2.8218778e-06 -1.4200044e-05 1 6.0968737e-06
0.02375772 -0.22655085 -0.10890964 9.0387636e-07 -3.1933541e-05 1 2.1315616e-06
0.035484411 -0.22344971 -0.10890964 4.1242956e-06 2.0108502e-08 1 6.1722994e-06
0.042765278 -0.22627656 -0.10890964 5.9948655e-07 -5.6081863e-05 1 4.4423755e-06
0.057521734 -0.225407 -0.10890964 3.4507789e-06 -1.928187e-05 1 9.6273425e-06
0.063381091 -0.22879228 -0.10890963 2.0901437e-06 -8.3784045e-08 1 8.6052632e-06
0.078266114 -0.22880229 -0.10890962 1.3106982e-05 -9.1857582e-06 1 2.0076473e-06
0.088713296 -0.22333184 -0.10890963 4.7015474e-06 -5.2712927e-05 1 1.1025171e-05
0.093112163 -0.22330105 -0.10890963 -5.5213618e-06 -2.6524944e-05 1 4.3348737e-06
0.10446105 -0.22456878 -0.10890963 -0.14943559 0.0050565982 0.9887585 0.0320553
0.11594952 -0.22516611 -0.10890964 -0.26390791 -0.032370716 0.96400458 0.095787577
0.12486802 -0.22422114 -0.10351972 -0.54171139 -0.025109375 0.84018946 0.17667094
0.15954179 -0.22959322 -0.10213802 -0.16544983 0.50948769 -0.8444221 0.24517763
0.165595 -0.22812542 -0.10249586 -0.65715665 0.37843278 -0.65186948 0.23044851
-0.20216787 -0.21125162 -0.10846844 0.68418002 -0.042698782 0.72806209 0.16322346
-0.19561449 -0.21185455 -0.10504134 0.3586528 0.012544135 0.93338674 0.21269323
-0.18352161 -0.21198003 -0.1045168 0.17030396 0.24738793 0.95383215 0.17484133
-0.17275736 -0.21198003 -0.10538744 0.048952509 0.31791508 0.94685459 0.18557325
-0.16622891 -0.21184328 -0.10890963 -0.12919094 0.21103032 0.9689045 0.20692955
-0.15588278 -0.21198003 -0.10222077 -0.24724782 0.72262341 0.64551067 0.14105913
-0.14759359 -0.21173355 -0.10600425 0.0041815764 0.52608234 0.85042334 0.099296853
-0.13498317 -0.21198004 -0.10421521 0.21453892 0.46342021 0.85977596 0.10970142
-0.12382201 -0.21616815 -0.10698181 0.36652949 0.27816013 0.88785303 0.115443
-0.11332122 -0.21638858 -0.10890962 0.3262226 0.10390543 0.93956506 0.080631837
-0.10117341 -0.21748912 -0.10890963 0.082854234 -0.00067134219 0.99656147 0.016745219
-0.09540613 -0.21453568 -0.10890961 0.0071487045 0.000275509 0.99997437 0.00026900996
-0.081989184 -0.21654072 -0.10890963 -0 -0 1 6.2565077e-06
-0.072307214 -0.21039462 -0.10890964 -2.134119e-08 8.1336739e-06 1 6.1676355e-06
-0.068028323 -0.21409678 -0.10890963 -4.3574328e-06 -8.0107193e-06 1 4.4380195e-06
