# .PCD v0.7 - Point Cloud Data file format
VERSION 0.7
FIELDS x y z normal_x normal_y normal_z curvature
SIZE 4 4 4 4 4 4 4
TYPE F F F F F F F
COUNT 1 1 1 1 1 1 1
WIDTH 582
HEIGHT 1
VIEWPOINT 0 0 0 1 0 0 0
POINTS 582
DATA ascii
0.4822506 -0.05597391 0.02621847 -0.99193156 0.02001035 -0.12518489 0.0010855746
-0.38264161 -0.044425886 0.020774685 0.29074183 6.3232642e-06 -0.95680159 0
-0.37611139 -0.044520617 0.022758394 0.29068062 -3.1471359e-06 -0.95682013 0
-0.36461228 -0.049421106 0.026251523 0.29062206 -5.1829629e-06 -0.95683795 5.7117268e-06
-0.35705259 -0.041696798 0.028547958 0.29063642 -1.5606713e-06 -0.95683354 4.2593406e-06
-0.23426247 -0.046244588 0.025143895 1 -8.5442789e-06 -6.0554571e-06 8.3568784e-06
-0.063800626 -0.045490894 0.022074446 0.52375591 -0.62608004 -0.57767069 0.18877622
-0.05605498 -0.040512271 0.026722651 0.7073285 -0.46532026 -0.53213102 0.17269865
-0.049719043 -0.040512275 0.02404974 0.67030638 0.61496079 0.41534629 0.23463896
-0.03783894 -0.041339025 0.024727598 0.73381048 0.65744162 0.17115107 0.18340243
0.11189416 -0.043763794 0.022735374 -0.30243412 -0.029298723 0.95271993 0.19856493
0.13235092 -0.048519984 0.027055392 -0.9264915 0.22813839 0.29927632 0.1771532
0.29385155 -0.047974672 0.020329555 -0.98417062 -0.10114774 -0.14552441 0.21802288
0.4822863 -0.043463238 0.025884913 -0.98950851 0.028767092 -0.14158155 0.0013552146
-0.380573 -0.03752017 0.021403074 0.2906031 3.5823036e-06 -0.95684367 7.4221939e-06
-0.35630089 -0.033162169 0.028776297 0.29069933 -4.7476485e-07 -0.95681447 0
-0.23426244 -0.03441048 0.021948177 1 3.7341163e-06 2.1762626e-06 8.6378968e-06
-0.20045052 -0.036323011 0.02813773 0.9871341 -0.024081385 0.15807073 0.0084718699
0.13235092 -0.030794106 0.024762575 -0.99792641 -0.062415324 0.015722046 0.18609142
0.27296495 -0.03296911 0.025677212 -0.59339726 -0.39504397 0.70129883 0.25294012
0.29385155 -0.034391314 0.027457945 -0.94336128 -0.31316161 0.1095413 0.20033452
0.48216063 -0.03446069 0.027057882 -0.98843259 0.037095129 -0.14705446 0.0014430956
-0.37562162 -0.024401356 0.022907177 0.29067045 5.2342773e-07 -0.95682323 0
-0.36614284 -0.026126022 0.025786579 0.29064876 1.2242533e-06 -0.95682979 2.1850379e-07
-0.35734174 -0.027492857 0.028460121 0.29067996 1.6204762e-06 -0.95682031 0
-0.23426244 -0.024295952 0.025404995 0.99951959 -0.0012855502 -0.030966137 0.0015521968
-0.20045052 -0.024127338 0.026996728 0.96140987 -0.042810868 0.2717689 0.056422099
0.11120893 -0.022045376 0.027685551 -0.52706724 -0.31058204 0.79103655 0.26715341
0.13235092 -0.024243653 0.022615116 -0.99631357 0.030284926 0.080262221 0.20933491
0.29385155 -0.025016109 0.023120869 -0.91113609 -0.28030798 0.30209008 0.22028127
0.48521775 -0.023078598 0.020538032 -0.99053687 0.029243317 -0.13409498 0.0021442757
-0.38323429 -0.013232621 0.020594651 0.29066452 -1.0442816e-06 -0.95682502 0
-0.37256345 -0.01496796 0.023836175 0.29065847 -9.6333088e-07 -0.95682687 1.1381227e-06
-0.36671939 -0.016016677 0.025611432 0.29065484 -1.1941924e-06 -0.95682794 1.3381671e-06
-0.355575 -0.013578066 0.028996808 0.29069969 1.9298966e-06 -0.95681435 0
-0.23426244 -0.014618835 0.023835959 0.9999581 0.0013419904 -0.0090575293 0.00024667935
-0.20045052 -0.017674929 0.024335561 0.90107584 -0.017017292 0.43332759 0.11495828
0.11111408 -0.013689157 0.028431211 -0.37864977 -0.46985039 0.7974115 0.24937837
0.13235092 -0.013027169 0.025795532 -0.96833241 -0.13969007 0.206928 0.23756878
0.27316555 -0.014065158 0.024121443 -0.30874425 -0.27457121 0.91065234 0.20980522
0.48426214 -0.013745856 0.021990664 -0.99017471 -0.0007623522 -0.1398335 0.002177886
-0.38320354 -0.0077049858 0.020603992 0.29076606 1.5544248e-06 -0.9567942 0
-0.37363061 -0.0034518577 0.023511993 0.29066285 -3.9045807e-07 -0.95682555 0
-0.36212361 -0.0020890757 0.027007518 0.29068723 -1.1765928e-06 -0.95681816 0
-0.35784012 -0.0025911387 0.028308734 0.29065099 1.6169719e-06 -0.95682913 1.8799001e-06
-0.23426245 -0.0062321275 0.026524903 0.99913216 0.0037469559 -0.04148408 0.0051875613
-0.20045051 -0.0063324533 0.025331821 0.90011597 -0.048745446 0.43291473 0.10265919
0.1115897 -0.0015399083 0.024692371 -0.45102561 -0.14179143 0.88117594 0.20021771
0.13235092 -0.0086946692 0.024316812 -0.98200196 0.038814086 -0.18483977 0.24161613
0.2726157 -0.00026831031 0.028423138 -0.72355789 0.20057245 0.66048062 0.19211762
0.29385155 -0.0086278319 0.025535306 -0.99278349 0.026881376 0.11686919 0.20345397
0.4831838 -0.0046808058 0.026327413 -0.9863016 -0.0030286373 -0.16492449 0.0011487376
-0.38045716 0.0043151244 0.021438261 0.29065251 -4.221032e-07 -0.95682865 2.6758977e-07
-0.37532666 0.0056443922 0.022996768 0.29065612 1.018122e-07 -0.95682758 1.4804264e-07
-0.36682206 0.0046894751 0.02558025 0.29066211 1.6959935e-07 -0.95682579 1.1315163e-06
-0.35626179 0.0048270463 0.028788183 0.29064262 1.6341303e-06 -0.95683169 2.1802773e-06
-0.23426247 0.004122775 0.026246725 0.99910706 -0.0042699212 -0.04203378 0.0054910136
-0.20045051 0.0089968303 0.027209477 0.90286076 -0.0087212995 0.42984471 0.073536068
0.11140035 0.0064538494 0.026180819 -0.53007126 0.12114715 0.83925438 0.23213762
0.13235092 0.00084698386 0.025733193 -0.98374015 -0.10654329 0.14458175 0.19272947
0.27342013 0.0022944212 0.022514537 -0.51741433 0.16672781 0.83933562 0.2225309
0.29385155 0.0064653754 0.022751356 -0.97844982 0.20562483 0.018827694 0.20492584
0.48410639 0.0054794694 0.024316736 -0.98924488 -0.00053384143 -0.14626798 0.0011183799
-0.38435805 0.016139265 0.020253275 0.2906211 1.5184825e-06 -0.95683819 6.3848893e-06
-0.37652722 0.013495571 0.022632083 0.29064327 -3.8054324e-07 -0.95683146 2.6171879e-06
-0.36576003 0.01652189 0.025902877 0.29057392 -1.239546e-05 -0.9568525 1.5113074e-05
-0.35623133 0.016198609 0.028797435 0.29065481 2.8738827e-07 -0.95682794 6.1337221e-07
-0.23426247 0.014805631 0.026629383 0.9984042 -0.0027181897 -0.056405474 0.0066902991
-0.20045052 0.01114026 0.021597041 0.74111056 -0.027901756 0.67080301 0.071389735
0.11171354 0.0151884 0.024024941 -0.50851566 0.013307104 0.86094981 0.25298902
0.13235092 0.015495501 0.028592095 -0.96637142 -0.25714755 -0.0011564242 0.20019768
0.29385155 0.017486298 0.025039999 -0.98333675 0.17944902 0.029102232 0.19826695
0.48345718 0.01625618 0.024696682 -0.99063778 -0.0069849952 -0.13633823 0.0013236617
-0.37579852 0.023220107 0.022853428 0.2907148 1.5870967e-07 -0.95680976 0
-0.36500999 0.022481993 0.026130706 0.29063442 1.3597273e-06 -0.9568342 2.8647553e-06
-0.35774702 0.022865191 0.028337009 0.29071084 7.0784236e-06 -0.95681095 0
-0.23426247 0.029674925 0.02067003 1 -3.6751944e-06 -1.8020571e-06 1.5400732e-05
-0.20045052 0.026900606 0.023205288 0.80225748 0.03044655 0.59620124 0.099631272
0.11183374 0.026628112 0.023291826 -0.44823331 -0.0023695659 0.89391345 0.28411096
0.13235092 0.025050275 0.024600375 -0.99190503 -0.036373924 -0.12166026 0.25842005
0.27292383 0.027213413 0.026000805 -0.68511403 0.053737871 0.7264511 0.24112968
0.29385155 0.024663314 0.023891877 -0.98283607 -0.12619378 0.1345679 0.20217104
0.48461136 0.024514783 0.023237662 -0.99051791 -0.014816004 -0.13658214 0.0011415735
-0.38477421 0.032172419 0.020126864 0.29063213 -9.8882754e-07 -0.95683485 4.1610606e-06
-0.37421951 0.035896733 0.023333102 0.29058489 -7.8231715e-06 -0.95684928 1.4037771e-05
-0.36617726 0.033858694 0.025776122 0.29071099 1.9410943e-06 -0.95681095 0
-0.35594854 0.034782819 0.028883336 0.29065424 -2.0312866e-06 -0.95682818 2.3880948e-06
-0.23426244 0.034824193 0.024677396 0.99966562 -0.0013598548 -0.025823878 0.0019635689
-0.20045052 0.033516578 0.027895026 0.91129249 -0.011653769 0.41159466 0.059641983
0.1109589 0.033261295 0.029651096 -0.84255725 -0.35216972 0.40752155 0.2675086
0.13235092 0.031289585 0.025432505 -0.99455178 -0.104187 0.0034354096 0.25290054
0.27307522 0.036162175 0.025028795 -0.30423462 0.21096057 0.92894399 0.23571536
0.29385155 0.037678584 0.025230018 -0.95223731 -0.24863754 0.17726685 0.21268687
0.48420924 0.032603879 0.026343172 -0.98924172 -0.026140254 -0.14393558 0.0011019789
-0.37008831 0.049824923 0.024588048 0.29066285 1.4933e-06 -0.95682555 0
-0.36683846 0.043861032 0.025575273 0.29063135 -5.4287263e-08 -0.95683515 3.7661107e-06
-0.35602954 0.046355203 0.028858731 0.29064283 1.0090591e-06 -0.95683163 1.8292814e-06
-0.23426247 0.04573657 0.023851708 1 3.7280293e-07 -2.2683778e-06 1.6875676e-05
0.11199382 0.044085033 0.022062145 -0.16982786 -0.10954771 -0.97936606 0.26559949
0.13235092 0.046048265 0.023747167 -0.97961855 0.15775196 -0.12434547 0.18701319
0.29385155 0.042873684 0.02539432 -0.9256562 -0.083631031 0.36900726 0.22818653
0.48240599 0.04264842 0.024768561 -0.99091792 -0.028335109 -0.13144931 0.0010457129
-0.38383353 0.056862976 0.020412616 0.29061663 4.8664774e-06 -0.95683962 6.7231163e-06
-0.37592673 0.055860452 0.022814494 0.29070109 -4.470206e-06 -0.95681393 0
-0.36357415 0.05495606 0.02656688 0.29065496 2.5866764e-06 -0.95682794 1.6384549e-06
-0.35559502 0.056661364 0.028990731 0.29067087 1.4872975e-06 -0.95682305 0
-0.23426245 0.058371667 0.025148753 1 -1.16561e-05 -1.7908061e-06 1.6707379e-05
-0.20045054 0.050728466 0.027492046 0.9644106 0.058055807 0.25795656 0.030964006
-0.071968183 0.055254892 0.024328239 -0.2829603 -0.73876083 0.61169118 0.16122499
-0.065732546 0.050844129 0.023033733 -0.3142947 -0.80768996 0.49885422 0.16399148
-0.054706518 0.050844122 0.026444944 0.14460026 -0.8679778 0.47508448 0.18069836
-0.04660961 0.054415036 0.024495551 0.51683986 -0.7894066 0.33123061 0.21688224
0.13235092 0.054953564 0.025137961 -0.96896559 -0.1317966 0.20912993 0.19133912
0.27294961 0.055640705 0.02580899 -0.63912302 -0.18333496 0.74693376 0.25445178
0.29385155 0.051985618 0.020464886 -0.99410278 -0.051716786 0.095315389 0.19631825
0.48213899 0.058336183 0.027259868 -0.99242014 -0.01897499 -0.1214174 0.00074105529
-0.38044924 0.067194395 0.021440675 0.29062515 4.3335535e-06 -0.956837 5.7168695e-06
-0.37520736 0.063827753 0.023033019 0.29066947 -2.3634807e-06 -0.95682347 0
-0.35650551 0.065764591 0.02871415 0.29067436 -7.4601649e-06 -0.95682198 0
-0.23426245 0.064758293 0.028231919 0.99291903 0.0030269336 -0.1187543 0.025954807
-0.20045052 0.064267583 0.026695281 0.99269253 0.0064501516 0.12049888 0.0051890714
-0.071598969 0.060582679 0.02779722 0.62974912 0.55283946 -0.5456965 0.14830767
-0.045124743 0.067513555 0.026544362 0.83222246 -0.45911008 0.31084353 0.18915804
0.11227542 0.06342908 0.020346232 -0.22426444 -0.056572296 0.97288495 0.22446561
0.13235092 0.064134553 0.024219029 -0.96375239 0.21952793 0.15162086 0.20052008
0.27345043 0.065316603 0.022368174 -0.093126677 -0.16263387 0.98228186 0.23876391
0.48220837 0.065413371 0.026612258 -0.99303269 0.00089991116 -0.11783579 0.00022430153
-0.38265848 0.077766076 0.020769557 0.29071748 -1.513224e-05 -0.95680892 0
-0.37313288 0.071954608 0.0236632 0.29067329 -3.7982079e-07 -0.95682234 0
-0.36626127 0.075578675 0.025750604 0.29071218 -9.8261198e-06 -0.95681053 0
-0.35868818 0.075303465 0.028051116 0.29065841 -1.2308177e-06 -0.95682693 5.4478517e-07
-0.23426244 0.075218953 0.02461317 0.99999249 -0.00043717204 -0.0038466565 6.9949005e-05
-0.20045052 0.075573549 0.02423349 0.99225509 -0.016895318 0.1230633 0.004371135
-0.072045974 0.076429427 0.024744654 0.36844376 0.061610516 -0.92760623 0.17794502
-0.045124743 0.076775551 0.025130257 0.91705126 -0.025198862 0.39797226 0.18266158
0.13235092 0.075854048 0.023785204 -0.98871207 -0.13796633 0.058426544 0.16579047
0.29385155 0.073816374 0.024830444 -0.97856933 0.13660641 0.15408029 0.16998452
0.48211494 0.074236654 0.027484374 -0.99219894 0.00058469706 -0.12466302 0.00057916978
-0.3822349 0.087104455 0.020898236 0.29071271 -7.0323599e-06 -0.9568103 0
-0.37734634 0.08149454 0.022383247 0.29061094 2.365078e-06 -0.95684129 8.7353819e-06
-0.36249965 0.085202463 0.026893288 0.2906667 -1.5796563e-06 -0.95682424 0
-0.35594812 0.088339455 0.028883463 0.29067975 -1.5743792e-05 -0.95682037 0
-0.23426247 0.082758829 0.024127066 0.99983698 -0.00036688999 -0.018055471 0.0011629238
-0.20045051 0.080286339 0.020511242 0.98339385 0.016965341 0.18068977 0.0055169524
-0.071690544 0.082337998 0.027176509 0.75193185 0.0060735354 -0.65921295 0.15773244
-0.045124743 0.086799771 0.028694732 0.51873177 -0.85493368 0.0023616683 0.26503313
0.11169372 0.085391484 0.024092527 -0.44513997 0.17402378 0.87838829 0.27164665
0.27299041 0.086593397 0.025692893 -0.81193864 -0.25977498 0.52275473 0.28414395
0.29385155 0.084360793 0.021978408 -0.98230529 0.16918337 0.080332205 0.18070979
0.48222345 0.081044167 0.026472012 -0.99430758 -3.330226e-06 -0.10654745 0
-0.38397679 0.091379456 0.020369096 0.29065335 -5.3285348e-06 -0.95682842 0
-0.37436831 0.094069831 0.0232879 0.29071695 -1.2270286e-05 -0.9568091 0
-0.3633115 0.092434622 0.026646672 0.29066724 5.3431254e-06 -0.95682418 0
-0.35607338 0.09615092 0.028845411 0.29063594 -7.2160237e-06 -0.95683372 5.0100771e-06
-0.23426247 0.097287573 0.024026178 0.99996603 0.002301669 -0.0079130335 0.00024201947
-0.20045052 0.097295165 0.028418237 0.98225993 0.015963493 0.18684383 0.016572531
-0.071924493 0.094840437 0.025590669 0.6669274 -0.040558491 -0.74401814 0.19509161
0.11205526 0.093689613 0.021687817 -0.14689694 -0.15010944 0.97769547 0.24266852
0.13235092 0.090520665 0.025284521 -0.99395949 -0.072490342 -0.082399145 0.20162314
0.29385155 0.091917619 0.024707872 -0.96232128 -0.19520584 0.18929473 0.17658192
0.48238084 0.096166201 0.025003068 -0.99430722 -2.3403598e-05 -0.1065515 1.6594743e-06
-0.38229501 0.10624617 0.020879976 0.29066262 -4.3931091e-06 -0.95682561 3.1003884e-07
-0.37533671 0.10420487 0.022993727 0.29067484 -1.7325131e-06 -0.95682186 0
-0.36444026 0.10501511 0.026303787 0.29070619 -1.0487961e-05 -0.95681238 0
-0.35572281 0.10129925 0.028951908 0.29068053 -3.3638576e-06 -0.95682013 0
-0.23426247 0.10642581 0.025829297 0.99968415 0.0010432675 -0.025109632 0.0014229739
-0.20045052 0.10788997 0.020186057 0.9845798 0.011653053 0.17454743 0.0054357769
-0.07242246 0.10439352 0.022159353 0.31994653 -0.027601035 -0.94703352 0.16834174
-0.045124743 0.10130904 0.020602424 0.98147768 0.02246698 0.19025427 0.18359405
0.11102281 0.10324632 0.029148687 -0.57330567 -0.48208955 0.66250306 0.28161991
0.13235092 0.10417519 0.027015209 -0.98731703 0.130925 0.089798167 0.21894716
0.27314007 0.10829841 0.024300683 -0.4785209 -0.066509545 0.87555367 0.26656199
0.29385155 0.10348967 0.026395908 -0.9753381 -0.097691104 0.1979191 0.17713809
0.48243603 0.10429709 0.024487985 -0.9943068 7.9625983e-07 -0.10655463 4.5386892e-06
-0.382559 0.11692496 0.02079979 0.29065901 -2.0711861e-05 -0.95682669 3.7887696e-07
-0.37629628 0.11429415 0.022702226 0.2906535 -1.4372033e-05 -0.95682842 1.5934025e-06
-0.36254454 0.11358014 0.02687965 0.2906729 -7.8088178e-06 -0.95682251 0
-0.3550868 0.1128886 0.029145112 0.29069024 -1.3869816e-05 -0.95681721 0
-0.20045052 0.11183413 0.022897482 0.98828131 0.0055837473 0.15254152 0.0058155586
-0.071747378 0.11595869 0.026787676 0.54643363 0.018749155 -0.83729249 0.1630473
0.13235092 0.11683442 0.02319246 -0.97008109 -0.22151124 0.099375851 0.20107153
0.2734479 0.11518433 0.02247403 -0.37882522 0.15280922 0.91276544 0.225748
0.29385155 0.11617716 0.024868172 -0.98086649 -0.087596297 0.17386118 0.17312211
0.48216248 0.11423844 0.027041102 -0.99338269 0.0055225971 -0.1147189 9.751001e-06
-0.38456905 0.12551272 0.020189187 0.29057282 1.3839687e-06 -0.95685291 1.546472e-05
-0.37329745 0.12573051 0.023613194 0.29064369 -8.450972e-06 -0.9568314 2.4417814e-06
-0.36441773 0.12197005 0.026310617 0.29070967 -1.1970604e-05 -0.95681131 0
-0.35525981 0.12302937 0.029092547 0.2907142 -8.0103325e-07 -0.95681 0
-0.23426247 0.12562224 0.027692933 0.99562222 0.0075563421 -0.093163051 0.014696171
-0.07267569 0.12273622 0.020374388 0.77363718 -0.25347584 -0.58071977 0.19979443
-0.045124743 0.12261707 0.023063211 0.90649164 0.21535492 0.36317369 0.19288595
0.13235092 0.12478129 0.022912342 -0.88474542 -0.45217791 0.11296371 0.15417664
0.27299789 0.12115901 0.025418721 -0.32174408 0.30582482 0.89607584 0.23640203
0.29385155 0.12556022 0.025457691 -0.9422856 -0.21089457 0.26004088 0.15646012
0.4823432 0.12539834 0.025354184 -0.99430805 3.1866148e-06 -0.10654327 0
-0.38127387 0.13257574 0.021190176 0.29060531 -2.2024227e-05 -0.95684302 8.300628e-06
-0.3759259 0.13281029 0.022814753 0.29065511 -1.7599546e-05 -0.95682782 0
-0.36140385 0.13629864 0.027226165 0.29064375 -5.5105584e-06 -0.95683134 2.4175936e-06
-0.35695729 0.13652177 0.028576909 0.29064015 4.9372525e-06 -0.95683247 3.9493666e-06
-0.23426245 0.13676049 0.024700025 0.99998868 0.0024046812 -0.0041180747 0.00011837506
-0.20045054 0.13605386 0.027649254 0.98702395 -0.003065093 0.16054398 0.009115722
-0.071460798 0.13151853 0.028725643 0.51063704 -0.6214655 -0.5941636 0.20528872
-0.045124743 0.13731565 0.026072448 -0.50879359 -0.84346199 -0.1723396 0.18333775
0.11387342 0.13313691 0.023745583 -0.047436312 -0.9945308 0.093049459 0.16483456
0.27538738 0.13360696 0.02576605 0.11552871 -0.99208105 -0.04927893 0.11990812
0.28894725 0.13399915 0.021156967 0.19211566 -0.97818971 0.078970946 0.13098842
0.29385155 0.13042992 0.0297534 -0.83208853 -0.51583409 0.20382296 0.15424815
0.48199692 0.13019323 0.028585654 -0.99285418 0.0017015593 -0.11932196 0.00040690511
-0.37621173 0.14445835 0.022727912 0.29072347 -1.8455616e-05 -0.9568072 0
-0.36345428 0.14560552 0.0266033 0.29061997 -9.7067787e-06 -0.95683861 5.549326e-06
-0.3588447 0.14750218 0.028003562 0.29068193 -8.6287555e-06 -0.95681971 0
-0.23426245 0.14430773 0.024775386 0.99928135 -0.035072241 -0.014376841 0.0029740015
-0.071736313 0.14289607 0.025327692 0.36651701 -0.8158195 -0.44732961 0.12754042
-0.06463071 0.14482689 0.02810972 0.44140381 -0.88914251 -0.12078179 0.15379837
-0.055744048 0.14482689 0.024796668 0.0023691519 -0.99368739 -0.11215986 0.16841854
-0.04820729 0.14482689 0.024816964 -0.31503183 -0.94069386 -0.12589696 0.1465876
0.48253393 0.14626616 0.023574214 -0.99430639 -2.1126531e-05 -0.10655888 0
-0.38377491 0.15342425 0.020430423 0.29066753 -4.968449e-06 -0.95682412 0
-0.37615049 0.15674148 0.02274652 0.29139689 -0.013988771 -0.95649999 0.00067782466
-0.35641366 0.15627009 0.028742045 0.28092924 -0.034425005 -0.95911092 0.0019347965
-0.23426244 0.15613055 0.025749339 0.98229885 -0.13759382 0.1271102 0.15530431
-0.20045054 0.15543032 0.028402194 0.98960584 0.051291455 0.13434778 0.080025338
0.48230466 0.15583922 0.025713973 -0.99062955 -0.049666457 -0.12722492 0.004993421
-0.38054889 0.16296384 0.021410396 0.29058403 -0.14452662 -0.94587153 0.024492281
-0.37512937 0.16372649 0.023056701 0.27226406 -0.19541033 -0.94217151 0.033192307
-0.36516106 0.16769412 0.026084814 0.27970925 -0.21463962 -0.93578452 0.031177266
-0.35587987 0.16362849 0.0289042 0.26543373 -0.14984095 -0.95241416 0.0262761
-0.23426247 0.16450648 0.023664976 0.98128408 -0.083468907 0.17353512 0.26722685
-0.21247636 0.16967328 0.027239701 -0.073467188 -0.99374712 -0.084078863 0.21657659
-0.20772097 0.16967329 0.020196591 0.14947271 -0.98576468 -0.076980464 0.24375348
0.48254216 0.1669848 0.023497602 -0.94942218 -0.26362473 -0.17058575 0.055059385
-0.38099033 0.1749537 0.021276306 0.2732178 -0.39228889 -0.8783288 0.052904613
-0.37513345 0.17274959 0.023055479 0.28600478 -0.25643173 -0.92327893 0.038942557
-0.36603326 0.17645344 0.025819873 0.27740392 -0.40053722 -0.87327945 0.054901753
-0.35681447 0.17477398 0.028620282 0.24152102 -0.39730731 -0.885333 0.066898942
0.48225999 0.17630792 0.02613103 -0.74221504 -0.62954694 -0.22975519 0.095256038
-0.37554589 0.18285863 0.022289133 0.21643141 -0.62645692 -0.74880511 0.070406027
-0.36287346 0.18228644 0.026391232 0.22326981 -0.68320149 -0.69525993 0.06736099
-0.3533518 0.18254142 0.025240874 0.15626423 -0.73379427 -0.66115618 0.0685478
-0.3455534 0.18190271 0.028122636 0.17161036 -0.69311696 -0.70009905 0.073289648
-0.33491793 0.18272792 0.024399454 0.091861196 -0.84708738 -0.52345437 0.053412169
-0.32417309 0.18259376 0.025004659 0.061786965 -0.86900681 -0.49092725 0.039966661
-0.31302893 0.18319492 0.022292441 0.034172025 -0.93773496 -0.34566677 0.024793524
-0.30679095 0.18180457 0.028565438 0.11278941 -0.87412989 -0.4724144 0.053174309
-0.29701006 0.18253347 0.025276674 0.049099836 -0.94271964 -0.32995281 0.021986855
-0.28476462 0.18262911 0.024845252 0.013166565 -0.96283209 -0.26977959 0.0072586439
-0.27017215 0.18215558 0.026981685 0.0011952647 -0.97314894 -0.23017314 0.00051682838
-0.26253334 0.1830883 0.022773469 -0.00083144434 -0.97838163 -0.20680587 0.00019282853
-0.25590292 0.18243968 0.025699919 -0.085016876 -0.96704358 -0.23999755 0.030176161
-0.24549428 0.18296602 0.023325149 -0.35838526 -0.9163956 -0.178267 0.11722735
-0.23695007 0.18261421 0.024912547 -0.15549685 -0.95395201 -0.25650769 0.12027782
-0.22604336 0.18226269 0.026498647 -0.020320328 -0.97854859 -0.20501144 0.14560966
-0.21360061 0.18268523 0.024592198 0.072518058 -0.98617947 -0.14896701 0.10720498
-0.20318522 0.18251884 0.025342882 0.1246674 -0.98957217 -0.072145797 0.16327734
-0.19950676 0.18360455 0.020444352 0.1883024 -0.96614736 -0.17635615 0.13944112
-0.18198393 0.18294676 0.0234123 0.10884935 -0.97662455 -0.18535416 0.037839483
-0.17169949 0.18282659 0.023954367 2.5741956e-05 -0.97630554 -0.21639656 0
-0.16667193 0.18231401 0.02626716 4.4598119e-06 -0.97630608 -0.21639399 0
-0.15596241 0.18261255 0.024920063 -4.3486711e-05 -0.97691464 -0.21362989 3.3356755e-05
-0.14584783 0.18213521 0.027073767 -7.6933131e-05 -0.97635806 -0.21615952 9.522415e-06
-0.13392791 0.18326306 0.021985181 -0.00044993713 -0.98052579 -0.19639005 0.00039497679
-0.12633598 0.18260524 0.024953002 9.1415452e-05 -0.976358 -0.21615978 0
-0.1137954 0.18234538 0.02612555 -1.2395401e-05 -0.97630686 -0.21639064 1.3756946e-05
-0.10349608 0.18209095 0.027273415 1.7793185e-05 -0.97630513 -0.21639854 0
-0.09651421 0.18281496 0.024006929 2.4124131e-05 -0.97630596 -0.21639469 0
-0.08779721 0.18274558 0.02431988 -0.00015437264 -0.97636205 -0.21614131 2.1696669e-06
-0.072963774 0.18286233 0.023793058 -0.0003107182 -0.97868162 -0.20538308 0.00016280157
-0.065978505 0.18291704 0.023546256 -0.00094559655 -0.97754884 -0.21070671 8.2391904e-05
-0.054107834 0.18294179 0.023434443 -0.00041131757 -0.97925103 -0.20265016 0.00026828374
-0.048560634 0.18290435 0.023603465 0.00030944651 -0.97890592 -0.20431164 0.00020948148
-0.03271883 0.18316206 0.023813114 -0.0032200154 -0.97776401 -0.20968343 0.0001237949
-0.024212575 0.18194878 0.027914649 -0.00069078122 -0.97643548 -0.21580829 7.562071e-06
-0.0011722632 0.18253532 0.025268316 0.00029848839 -0.9764154 -0.21589997 0
0.0047363155 0.18286617 0.023775592 0.0067494418 -0.97869819 -0.20519353 0.00031524856
0.013315325 0.1828182 0.023991585 0.0042420486 -0.97642529 -0.21581385 0.00020407862
0.024227321 0.18253021 0.025290972 0.0015386002 -0.97736686 -0.21154583 0.00026520251
0.031036086 0.18392229 0.026091946 0.00042462631 -0.97636563 -0.21612474 0.00021304301
0.042858187 0.18239379 0.025906423 -0.0017615088 -0.97775054 -0.20976353 0.00028158291
0.055000789 0.1826176 0.024896683 -0.0037831417 -0.97770512 -0.20994857 0.00024952542
0.064317033 0.18306506 0.026425714 -0.00032540207 -0.97629976 -0.21642254 4.7641326e-05
0.076901332 0.18254456 0.025226256 -0.0019271105 -0.97730714 -0.21181832 0.00010501939
0.087407738 0.18271546 0.024455115 -0.0027577628 -0.97630411 -0.21638565 5.6014091e-05
0.097132303 0.18273346 0.024374003 3.1521071e-05 -0.97634101 -0.21623658 0
0.10687351 0.18329793 0.021827186 -0.0017186034 -0.97903943 -0.20366356 0.00027601141
0.11690734 0.18184304 0.028391948 6.8100212e-06 -0.97630376 -0.21640466 3.7016354e-05
0.12447471 0.18185741 0.028327132 -1.0143009e-05 -0.9763065 -0.21639231 1.0749673e-05
0.13701718 0.18164074 0.02930459 -2.0712294e-05 -0.9763068 -0.21639089 1.0181716e-05
0.14297836 0.18254204 0.025238115 -8.7843646e-06 -0.97630501 -0.21639919 2.5541334e-05
0.15488236 0.18294865 0.023403609 -0.00078506983 -0.97725469 -0.21206748 6.4160806e-05
0.16039683 0.18182947 0.028452929 -0.00015429997 -0.97661173 -0.21501058 0
0.17541397 0.18275529 0.02427591 0.0005802681 -0.97664881 -0.21484119 0
0.18687339 0.18240723 0.025846172 -0.00040116621 -0.97711611 -0.21270633 4.3910586e-05
0.19555336 0.18276635 0.024225861 0.00038646912 -0.97790915 -0.20902991 0.00011411253
0.20685551 0.18257031 0.025110275 4.3624485e-05 -0.97639406 -0.21599677 0
0.21346524 0.18256906 0.025115928 -0.00062635937 -0.97742528 -0.21128035 7.5443022e-05
0.2210546 0.18368708 0.020071737 -0.00089899567 -0.97868025 -0.20538756 0.00014054551
0.23455837 0.18292418 0.023513548 0.0010699946 -0.97805548 -0.20834191 0.00012309967
0.2458553 0.18321475 0.022202618 0.00088400271 -0.97811574 -0.20805982 0.00012602503
0.25485197 0.18251495 0.025359867 -6.1742653e-06 -0.97632581 -0.21630527 0
0.26293695 0.18288763 0.023678502 -0.00082929921 -0.9777838 -0.20961429 0.00012702684
0.27473906 0.18241191 0.025824832 -3.2495598e-05 -0.97631294 -0.21636331 0
0.28455269 0.18230422 0.026310626 -1.3913091e-05 -0.97631311 -0.21636264 5.8084711e-06
0.29361075 0.18251039 0.025380541 2.9672125e-05 -0.97631317 -0.21636237 0
0.30717039 0.18198255 0.027761947 5.1476571e-05 -0.9763099 -0.21637709 2.5981093e-05
0.31763515 0.18273541 0.024365267 -0.00011560324 -0.97634339 -0.21622562 0
0.32373419 0.18352491 0.02080325 0.0011393265 -0.97963345 -0.20079094 0.0002901355
0.33508906 0.18209992 0.027232399 5.7862697e-05 -0.97634566 -0.21621548 1.6638249e-05
0.34810576 0.18244991 0.025653405 -0.00014488037 -0.97712839 -0.21265005 5.5590092e-05
0.35465446 0.1827139 0.024462324 -0.00056345382 -0.97753155 -0.21078821 7.6213837e-05
0.36547509 0.18221211 0.026726333 -0.00010204379 -0.97704393 -0.21303798 5.1283274e-05
0.37740451 0.18270282 0.024512343 -9.6946074e-05 -0.97797251 -0.20873374 9.9498902e-05
0.3831735 0.18240345 0.025863031 -0.00018136557 -0.97640443 -0.21595001 0
0.4074378 0.18230315 0.026315553 0.000121836 -0.97644919 -0.21574739 1.8476248e-05
0.4145647 0.18238084 0.025965028 0.00018940664 -0.97646189 -0.21568993 0
0.42294985 0.18241742 0.025799979 -0.0012810023 -0.97731769 -0.21177495 5.4616186e-05
0.43164665 0.18279263 0.024107136 0.00032449761 -0.9773097 -0.2118151 4.0821396e-05
0.44069952 0.1815583 0.029676102 7.2705632e-05 -0.97635221 -0.2161857 0
0.45552012 0.18245798 0.025617063 -0.032818668 -0.97442925 -0.22228496 0.0026930638
0.4655686 0.1822477 0.02656569 -0.19675517 -0.95076776 -0.23943296 0.038456008
0.47694004 0.18240571 0.025852727 -0.52764004 -0.82960504 -0.1826238 0.08612252
-0.34108049 -0.18016073 0.032478016 0.23580119 0.43071851 -0.87113678 0.051558193
-0.33731776 -0.18063226 0.030350512 0.059071608 0.72688764 -0.68421108 0.062401462
-0.32582194 -0.18006349 0.032916747 0.091339722 0.70996904 -0.69828433 0.056755077
-0.31674725 -0.18060938 0.030453799 0.07156036 0.83581102 -0.5443337 0.0591571
-0.30627257 -0.18046181 0.031119602 0.10589822 0.87617606 -0.47021386 0.041832384
-0.28546044 -0.18011215 0.032697149 0.069215864 0.91731709 -0.39209512 0.029571723
-0.27854538 -0.18043809 0.031226639 0.024509801 0.94455481 -0.32743776 0.013073326
-0.25306112 -0.18023759 0.032131154 -0.065814145 0.97181118 -0.22638796 0.026674872
-0.24606645 -0.18017399 0.032418113 -0.22546865 0.92573851 -0.30359846 0.079899475
-0.22426862 -0.18055093 0.030717544 -0.055081297 0.93384254 -0.35341778 0.1351795
-0.21385278 -0.18059185 0.03053301 -0.060716886 0.94900638 -0.30935487 0.1607499
-0.19437331 -0.18045045 0.031170959 0.42017666 0.90717512 -0.02201836 0.1431738
-0.12415573 -0.1803256 0.031734295 1.9233141e-05 0.97630596 -0.21639463 0
-0.1152904 -0.18024215 0.032110803 -8.5832198e-06 0.97630608 -0.21639414 1.7417646e-05
-0.10834701 -0.18064091 0.03031173 8.3181003e-06 0.97630543 -0.21639712 3.1520672e-06
-0.083041608 -0.18019609 0.032318652 9.5166779e-06 0.97630644 -0.21639256 0
-0.077022456 -0.18001851 0.033119835 7.1849408e-06 0.97630435 -0.21640183 0
-0.063783161 -0.1804854 0.031013431 -1.0506712e-05 0.97631717 -0.21634419 0
-0.054808345 -0.18021998 0.032210901 0.00087826478 0.97626704 -0.21656819 7.203997e-06
-0.047281321 -0.18009673 0.032766938 0.00064177514 0.97624236 -0.21668029 2.8704218e-05
-0.03106655 -0.18013458 0.032596216 0.0010125032 0.97613686 -0.21715391 1.0845887e-05
-0.0067834342 -0.18005684 0.032946978 -0.00093969144 0.97608232 -0.21739918 2.0362084e-05
0.0061367191 -0.18043225 0.031253316 0.0017390837 0.97600883 -0.21772406 4.3311586e-05
0.013837297 -0.18055394 0.030704122 0.00062213326 0.97617632 -0.21697818 4.7456553e-05
0.033064503 -0.1800662 0.032904834 0.00045290092 0.9761349 -0.21716446 3.500162e-05
0.041979864 -0.18004553 0.032998029 -0.00077172532 0.97606421 -0.21748127 3.6875241e-05
0.056084134 -0.18061411 0.030432809 -0.0025523 0.97612947 -0.21717419 2.8059534e-05
0.087231062 -0.18033724 0.031681914 -8.6330867e-05 0.97638369 -0.21604365 0
0.096040055 -0.18042329 0.031293642 -8.3049628e-05 0.97641253 -0.21591339 0
0.12915592 -0.18005304 0.032963991 2.2885417e-05 0.97633106 -0.21628158 2.5823718e-05
0.13530621 -0.18034559 0.031644017 3.352881e-05 0.97634828 -0.21620366 9.6929753e-06
0.14527959 -0.18056181 0.030668493 -4.0976684e-05 0.97635376 -0.216179 1.5729867e-06
0.18360332 -0.1805169 0.030871164 -3.2558237e-05 0.97630596 -0.21639463 0
0.19420035 -0.1804699 0.031083237 7.4816417e-06 0.97630602 -0.21639422 0
0.20044121 -0.1805058 0.030921165 -3.5736197e-05 0.9763037 -0.21640506 0
0.21603854 -0.18019199 0.032336991 -1.0516023e-05 0.97636265 -0.21613894 3.2382923e-05
0.22655508 -0.18040004 0.031398311 -2.6465428e-05 0.97636008 -0.21615036 1.0530412e-05
0.24993491 -0.18020615 0.032273047 1.4486603e-05 0.97631884 -0.21633667 1.3534873e-06
0.26001847 -0.18028878 0.031900275 4.2742108e-06 0.97631741 -0.21634331 3.836964e-06
0.30221808 -0.18036617 0.031551063 -3.4816192e-05 0.97632056 -0.21632905 0
0.32534808 -0.18033692 0.031683043 3.0707808e-05 0.97630584 -0.21639523 1.108701e-05
0.34208387 -0.18053421 0.030792912 -8.4333529e-05 0.97640443 -0.21594997 0
0.36571345 -0.18040313 0.031384282 -7.2628332e-05 0.97633636 -0.21625756 0
0.37618983 -0.18035546 0.031599425 -4.4209792e-05 0.97632009 -0.21633092 0
0.38578188 -0.18014807 0.032535098 -1.6434751e-05 0.97630614 -0.21639393 0
0.39755803 -0.18043005 0.031262774 -7.8881705e-05 0.97635072 -0.21619253 0
0.40345347 -0.18015854 0.032487877 -0.00015664641 0.97635901 -0.21615534 0
0.43494943 -0.1803585 0.031585619 -4.3538901e-05 0.9763447 -0.21621993 6.8841341e-06
0.44830573 -0.18021835 0.03221802 -9.3462477e-05 0.97630721 -0.21638913 0
0.46222639 -0.18048233 0.031027002 -0.15960491 0.95330256 -0.25639907 0.036205295
0.47093162 -0.18021709 0.032223739 -0.3933489 0.88063806 -0.26410839 0.072886631
-0.35134321 -0.17787626 0.030282315 0.25449857 0.46420354 -0.84837824 0.055422544
-0.34434488 -0.17423919 0.032408215 0.25015217 0.34892589 -0.9031471 0.045485746
-0.33736134 -0.17176162 0.034529649 0.25798464 0.35467753 -0.89869225 0.051883351
-0.32590726 -0.17508352 0.038009081 0.12583746 0.5549975 -0.82227898 0.052738521
-0.31630373 -0.17926481 0.036520116 0.12524502 0.68183225 -0.72070688 0.0618916
-0.30644709 -0.17984359 0.033908848 0.10160534 0.85223597 -0.51319605 0.045168255
-0.29729635 -0.17947975 0.035550352 0.0749522 0.84024084 -0.53700793 0.046442617
-0.28201962 -0.17934778 0.036145762 0.064090252 0.89018101 -0.45107681 0.029659789
-0.2748625 -0.17931263 0.036304362 0.077393934 0.88515931 -0.45880628 0.036100399
-0.26221016 -0.17858484 0.039587919 0.092256732 0.91469443 -0.39347529 0.031351663
-0.25672746 -0.17908172 0.037346188 -0.0024336053 0.9525125 -0.30448976 0.02627066
-0.24497485 -0.17873196 0.038924213 -0.19374992 0.93909943 -0.28381914 0.095511682
-0.23242036 -0.17949763 0.03546977 -0.16032284 0.94676846 -0.27915213 0.1555384
-0.22895351 -0.17894638 0.037956879 -0.18851332 0.91588676 -0.35442096 0.16305579
-0.20523036 -0.17922008 0.03672196 0.17045575 0.98029053 -0.099876016 0.19146058
-0.19871499 -0.17973763 0.034387015 0.31223381 0.94999892 -0.0034757638 0.14686702
-0.18244749 -0.17902669 0.037594646 0.20322858 0.97730809 -0.059724584 0.10873796
-0.17336527 -0.17948449 0.035529211 -0.11011109 0.9925434 -0.052279308 0.056452729
-0.16381897 -0.17915075 0.037034888 -0.12374797 0.98328221 -0.13357566 0.039684817
-0.15627974 -0.17914614 0.037055686 -1.4045606e-05 0.97630703 -0.21638986 0
-0.14505123 -0.17933656 0.036196526 1.489381e-05 0.9763062 -0.21639389 5.4453922e-06
-0.1330567 -0.17909759 0.037274711 -7.8859202e-06 0.97630692 -0.21639059 1.0092513e-05
-0.12565349 -0.17897335 0.03783536 -5.8316373e-06 0.97630709 -0.21638975 2.8516174e-06
-0.1124658 -0.17966235 0.034726731 2.7009526e-05 0.9763062 -0.21639375 0
-0.10466388 -0.17944336 0.035714783 1.8794855e-05 0.9763031 -0.21640749 0
-0.096829347 -0.17919913 0.036816724 5.4972946e-07 0.97630596 -0.21639451 1.030859e-05
-0.082341418 -0.17950937 0.035417028 1.8619741e-05 0.97630376 -0.21640483 0
-0.078454405 -0.1789366 0.038001157 1.2894488e-05 0.97630644 -0.21639241 2.1221467e-06
-0.066445902 -0.17927197 0.036488105 -1.3457209e-05 0.97630781 -0.21638623 7.7118457e-06
-0.055698238 -0.17933398 0.036208324 -4.519824e-06 0.97630769 -0.21638669 0
-0.046976767 -0.1792462 0.036604322 0.00063634856 0.97621089 -0.21682227 1.4488108e-05
-0.037690684 -0.17931968 0.036272831 0.0017434566 0.97602767 -0.21763946 1.3728388e-06
-0.02099503 -0.17893746 0.037997339 0.00011997648 0.97601008 -0.21772504 1.8369656e-05
-0.017867273 -0.17898941 0.037762925 7.3284005e-05 0.97598165 -0.21785279 7.0579731e-06
-0.0046168435 -0.17851958 0.039882835 -0.001190872 0.97593176 -0.21807295 2.1561353e-05
0.0053777397 -0.17901896 0.037629735 0.0013112591 0.9758485 -0.21844445 3.7701931e-05
0.018270953 -0.17889959 0.038168278 0.0013962898 0.97600621 -0.21773823 2.1389562e-05
0.026678953 -0.17943728 0.035742316 0.0011538721 0.97604251 -0.21757701 2.8841947e-05
0.03264311 -0.17910366 0.03724749 0.00056002114 0.97594082 -0.21803495 6.074971e-05
0.045532241 -0.17974791 0.034340795 -0.0013144074 0.97607404 -0.21743463 4.9026072e-05
0.057651978 -0.17885236 0.038381316 -0.0029780415 0.97582549 -0.21853109 6.2353407e-05
0.064758226 -0.17861781 0.039439455 -0.00066899008 0.97617954 -0.21696301 1.3273568e-05
0.085510552 -0.17920387 0.036795285 3.2535718e-06 0.97630882 -0.21638183 0
0.090909481 -0.17936578 0.036064718 -1.2903391e-05 0.97630697 -0.21639021 0
0.10487418 -0.17904314 0.037520386 -2.1537076e-06 0.97630721 -0.216389 0
0.11391155 -0.17918614 0.036875226 4.9938817e-06 0.97630519 -0.21639797 0
0.12509106 -0.17912006 0.037173323 6.7031842e-06 0.97630703 -0.21638992 0
0.13368937 -0.17928852 0.036413275 -1.2536821e-05 0.97630495 -0.21639921 0
0.14206223 -0.17946267 0.035627574 -2.7682345e-06 0.9763056 -0.21639615 0
0.15312922 -0.1786575 0.039260268 3.4663833e-06 0.97630537 -0.21639742 0
0.1654793 -0.17931515 0.036293074 2.0451543e-08 0.97630596 -0.21639468 0
0.17490524 -0.17926875 0.036502428 -2.4106203e-06 0.97630548 -0.2163969 3.6487677e-06
0.19699238 -0.17947656 0.035564769 5.0001061e-05 0.97630793 -0.21638572 4.3765792e-07
0.20238045 -0.17949674 0.035473749 1.0001207e-05 0.97630596 -0.21639456 0
0.215867 -0.17940779 0.035875071 4.3583117e-05 0.97630328 -0.21640685 4.6466103e-05
0.22282934 -0.17853765 0.039800867 1.4305518e-06 0.97630638 -0.21639293 1.4481813e-05
0.23519216 -0.17946605 0.035612103 -3.6378366e-05 0.97630543 -0.21639736 0
0.24551177 -0.17950067 0.035456005 9.3361734e-07 0.97630584 -0.21639517 8.3853129e-06
0.25163466 -0.17941943 0.0358225 -4.2451611e-06 0.97630477 -0.21640018 7.4480872e-06
0.26263657 -0.179984 0.033275299 -1.647092e-05 0.97630614 -0.21639407 4.0135619e-06
0.27248913 -0.1788896 0.038212955 -4.9976941e-05 0.97630703 -0.2163897 1.7038163e-05
0.28585961 -0.17916395 0.036975201 2.5244615e-05 0.97630721 -0.21638884 8.2216675e-06
0.29640451 -0.17928027 0.036450386 7.9245374e-06 0.97630638 -0.21639295 6.7815213e-06
0.31417039 -0.178951 0.03793598 -5.7358389e-05 0.97630751 -0.21638761 0
0.32629406 -0.17886624 0.038318373 -2.406595e-05 0.97630692 -0.21639048 3.2032558e-06
0.33814728 -0.17974916 0.034334902 3.4025317e-05 0.97630459 -0.21640101 9.3816343e-06
0.34618944 -0.17954344 0.035263062 -5.8439418e-05 0.97630733 -0.2163882 2.4132228e-06
0.3503511 -0.17930111 0.036356356 7.0281126e-06 0.97630471 -0.21640052 2.6915153e-05
0.36635643 -0.17924878 0.036592375 -3.0253017e-05 0.97630674 -0.21639122 4.1538083e-06
0.37775344 -0.17954686 0.035247587 -4.4356148e-05 0.97630596 -0.21639484 0
0.38686937 -0.17895232 0.037929956 6.5490667e-06 0.97630703 -0.2163901 0
0.39407033 -0.17900655 0.037685294 -2.0797288e-06 0.97630435 -0.21640182 1.4144603e-05
0.40183252 -0.17862925 0.039387565 -6.7979134e-05 0.97630572 -0.21639594 2.402435e-06
0.41327214 -0.17954542 0.035254084 -0.00010344441 0.97630632 -0.2163931 0
0.43508449 -0.17906189 0.03743571 4.580367e-05 0.97630644 -0.21639244 0
0.4455983 -0.1791718 0.036939792 -5.36962e-05 0.97630566 -0.21639603 0
0.4556931 -0.17879255 0.038650922 -0.068838134 0.97223651 -0.22364585 0.0067658653
0.46753246 -0.17888728 0.03822355 -0.33690283 0.89337951 -0.29727018 0.06489104
0.47478777 -0.17930655 0.036331896 -0.53682321 0.79498065 -0.28253612 0.095382944
0.48125401 -0.17481686 0.035307847 -0.83844495 0.49688381 -0.22386707 0.080141433
-0.34458929 -0.16505718 0.032333978 0.270731 0.22391714 -0.93625098 0.037343182
-0.33454192 -0.16472039 0.035386097 0.27435848 0.24620907 -0.92957437 0.040613186
-0.32692203 -0.16330817 0.037700821 0.26670492 0.24544317 -0.93200117 0.040577698
-0.23237142 -0.16404963 0.033246584 0.93959278 -0.32376671 0.11108803 0.24117798
-0.2250251 -0.16453731 0.034833796 -0.15026245 0.71108282 -0.6868642 0.27573693
-0.21549006 -0.16453731 0.034173239 0.17111316 0.89341629 -0.41536447 0.26373115
-0.20368184 -0.16453731 0.033746488 -0.49161965 0.70864296 -0.50609809 0.25685552
0.48144302 -0.16338617 0.033755038 -0.94468886 0.25903943 -0.20115042 0.048240799
-0.35175216 -0.15293643 0.030158088 0.29347432 0.019258302 -0.955773 0.0013625314
-0.34931383 -0.15229221 0.030898791 0.28947222 0.0029346279 -0.95718187 3.8836111e-05
-0.33530247 -0.1528814 0.035155069 0.29366791 0.031171642 -0.95539916 0.0019187653
-0.32585508 -0.15660684 0.038024943 0.25988978 0.12488545 -0.95752859 0.017712481
-0.31944191 -0.15919107 0.039973084 0.28736144 0.16200866 -0.94402146 0.020254647
-0.23426245 -0.15099114 0.03070423 0.97509563 0.21965274 -0.03067806 0.056112405
0.48100412 -0.15004542 0.037850611 -0.98344862 0.031351686 -0.17845373 0.0051164743
-0.35102904 -0.14026541 0.030377755 0.29067871 9.2848313e-06 -0.95682073 0
-0.34368226 -0.14502682 0.032609511 0.29067677 1.5924839e-05 -0.95682132 0
-0.33768639 -0.14543572 0.034430902 0.29064792 -1.0904694e-05 -0.95683008 2.5827114e-06
-0.32442835 -0.14380336 0.038458332 0.29066175 3.4447739e-06 -0.95682585 0
-0.23426247 -0.1428767 0.034497809 0.97233188 0.20890462 -0.10454472 0.053185605
-0.20045052 -0.14821871 0.038650133 0.86441004 -0.37118909 0.33913717 0.090225585
0.48118815 -0.14548068 0.036133386 -0.98726183 0.0037534756 -0.15905991 0.0031582329
-0.35111713 -0.13347593 0.030351 0.2906898 -3.6599731e-06 -0.95681739 0
-0.3419337 -0.1367726 0.033140682 0.29067442 -2.7829365e-06 -0.95682204 0
-0.33522597 -0.13532792 0.035178307 0.29067019 3.6891261e-06 -0.95682329 0
-0.32339382 -0.13383105 0.038772602 0.29068863 8.3819432e-06 -0.95681775 0
-0.23426247 -0.13323565 0.032813523 0.99291158 0.028886123 -0.11529208 0.030983614
-0.20045052 -0.13444822 0.03337916 0.98369402 -0.075942308 0.16302998 0.021609327
-0.062420875 -0.13205442 0.031281568 0.36456877 0.8882038 -0.27961323 0.14348954
-0.045663323 -0.13449505 0.034399029 -0.20765421 0.97792816 -0.023153389 0.15091534
-0.038323998 -0.1343791 0.035234205 -0.48201728 0.87395751 -0.062109388 0.1244075
0.12743911 -0.13108408 0.038261905 0.13485017 0.98784751 0.077283673 0.19341901
0.13220838 -0.13072729 0.033129528 -0.4994241 0.86634648 -0.0043918551 0.16373202
0.27305478 -0.13096106 0.036350507 0.35737997 0.92413056 -0.13513777 0.16339719
0.28847674 -0.13135067 0.037225675 -0.48626298 0.82248276 -0.29507679 0.19141121
-0.3507669 -0.12692761 0.030457387 0.29069385 1.3184027e-05 -0.95681614 0
-0.34535152 -0.12730938 0.032102428 0.29066715 5.8227211e-06 -0.95682424 0
-0.33669841 -0.12729138 0.034731012 0.29063848 -1.7528005e-06 -0.95683289 4.2421116e-06
-0.32403952 -0.1291936 0.038576446 0.29064935 8.0639427e-07 -0.95682967 2.3094574e-06
-0.23426245 -0.12355702 0.039134584 0.97369736 0.0076935142 -0.22771548 0.055921033
-0.20045052 -0.12529559 0.035912443 0.97566634 -0.086320005 0.20155434 0.041204166
-0.19805065 -0.12751722 0.037459724 0.97885531 -0.090024889 0.18367863 0.033881374
-0.061783537 -0.12461614 0.035252523 0.54823482 0.70860106 -0.44421062 0.18562442
-0.036485538 -0.12029396 0.032184117 -0.85969412 0.49772426 -0.11487634 0.17942013
0.11045521 -0.12436087 0.034542009 0.53401494 0.81101304 -0.23892651 0.16817132
0.13235092 -0.1261628 0.036184933 -0.98464805 -0.17235819 0.027583664 0.20090385
0.27151278 -0.1254849 0.039926816 0.24787711 0.96637386 -0.068400212 0.16304512
0.29385155 -0.12664269 0.033256195 -0.69492233 0.71543938 -0.072314948 0.16571905
0.48148841 -0.12714535 0.033331007 -0.99284011 0.0030057309 -0.11941318 0.00050708145
-0.3511894 -0.11253666 0.030329034 0.29062834 -2.4025669e-06 -0.95683604 6.953067e-06
-0.34705901 -0.11165807 0.031583745 0.29066119 -1.8582075e-07 -0.95682603 1.4886575e-06
-0.33629552 -0.11619297 0.034853406 0.29061639 7.2564978e-07 -0.95683968 7.2925636e-06
-0.32670689 -0.116764 0.037766181 0.29063645 2.4498424e-06 -0.95683354 5.2795294e-06
-0.23426245 -0.11411591 0.031410642 0.99746704 -0.028728852 -0.065070748 0.010621465
-0.20045052 -0.11428785 0.038742647 0.97673488 -0.048719708 0.20884307 0.059364036
-0.036485538 -0.11107247 0.036098935 0.98902923 -0.10933143 0.099336959 0.19092488
0.13235092 -0.11557867 0.031331994 -0.99040049 0.13772818 -0.011738931 0.1746453
0.27199763 -0.11341323 0.034080513 -0.94761455 -0.27264363 0.16640973 0.21698388
0.29385155 -0.11166608 0.035932578 -0.94081545 0.15641633 -0.30066624 0.20475352
0.48134702 -0.11418811 0.034650676 -0.98931515 -0.0056867586 -0.14568165 0.0024479839
-0.35019866 -0.10277028 0.030630004 0.29064476 1.4226481e-05 -0.95683104 3.3391718e-06
-0.3435106 -0.10607105 0.032661662 0.29065439 5.8261509e-07 -0.95682812 3.8623543e-07
-0.3344208 -0.10458413 0.035422891 0.29065919 -5.7102028e-08 -0.95682663 2.3821822e-06
-0.32690346 -0.10423703 0.037706465 0.29062644 -7.3788024e-06 -0.95683664 6.6149464e-06
-0.23426245 -0.10922576 0.033497661 0.97291076 -0.048572093 -0.22602089 0.05405299
-0.20045054 -0.10879336 0.035330236 0.97559297 -0.067770101 0.20886722 0.054991368
-0.19824654 -0.10093756 0.036025502 0.97126561 -0.02496871 0.23668446 0.064773031
-0.0620814 -0.10620359 0.03341943 0.71398401 -0.085765824 -0.69488925 0.18821856
0.11077281 -0.10362019 0.031113951 -0.9106124 -0.10229526 0.40040082 0.21465202
0.27174702 -0.10505807 0.036963094 -0.97886407 0.038212948 0.20091033 0.20917988
0.29385155 -0.1053904 0.033649921 -0.99899346 -0.022016723 -0.039079767 0.19501673
0.48126054 -0.10398208 0.035457879 -0.99177521 -0.005270611 -0.12788358 0.00048041818
-0.34422445 -0.094047047 0.032444812 0.29065311 -6.8530567e-06 -0.95682853 0
-0.32575589 -0.094371751 0.038055066 0.29065478 6.5900631e-06 -0.956828 2.42705e-06
-0.23426247 -0.093073972 0.033834357 0.97481561 -0.0057309773 -0.22293875 0.042767439
-0.20045052 -0.094795607 0.031776533 0.98074466 0.0044600018 0.19524343 0.057837579
-0.19160569 -0.097366445 0.035170265 0.98880959 -0.061828833 0.13576761 0.04571854
-0.06144651 -0.094955258 0.037346952 0.93104392 0.1361095 -0.33857274 0.21053998
-0.036485538 -0.092958808 0.032615922 0.99879789 -0.0045009577 0.048811518 0.24077822
0.11052796 -0.093712516 0.033739187 -0.95067769 0.22426043 0.21428733 0.2336283
0.27197021 -0.092717752 0.034383181 -0.92068553 0.0094391871 0.39019111 0.21929955
0.29385155 -0.091122873 0.030985679 -0.99835521 0.028211014 0.049911126 0.22120748
0.48168102 -0.093412317 0.031534106 -0.99214655 0.0011946359 -0.12507477 0.00044218972
-0.35079157 -0.080856636 0.030449882 0.29058871 -4.8016022e-06 -0.95684808 1.1596276e-05
-0.34323066 -0.084395654 0.032746695 0.29069105 2.1780581e-06 -0.95681697 0
-0.33472022 -0.083914652 0.035331942 0.29064661 -3.7982077e-06 -0.95683044 2.6039588e-06
-0.32517543 -0.087664142 0.038231403 0.29064173 -3.9746087e-06 -0.95683193 2.0721577e-06
-0.23426245 -0.082845435 0.031309053 0.99090844 0.035147212 -0.12986548 0.026313934
-0.20045052 -0.089930736 0.030658919 0.98825717 0.053455465 0.14314446 0.044351764
-0.19246733 -0.084189616 0.033402752 0.99670386 0.074049719 0.033137016 0.026829535
-0.061643861 -0.086413875 0.036132682 0.84175134 -0.0048107416 -0.53984404 0.19127685
-0.036485538 -0.083912887 0.03389433 0.93849081 -0.037413884 0.34327149 0.1934128
0.11038333 -0.083510511 0.03533509 -0.80724674 0.37052131 0.45942 0.22613555
0.13235092 -0.083081573 0.032767639 -0.96248192 0.27127627 -0.0061389934 0.19372641
0.27219996 -0.085079439 0.031910922 -0.79386675 0.21433371 0.56906652 0.22884904
0.29385155 -0.084542915 0.033457357 -0.98349231 -0.1286471 -0.12725115 0.22250742
0.48111305 -0.084120512 0.036834165 -0.98328036 -0.0093142446 -0.18185972 0.0037758886
-0.35125959 -0.078275152 0.030307718 0.29060134 -3.4026627e-06 -0.95684427 1.0968394e-05
-0.34476838 -0.075435333 0.032279581 0.29063979 -1.7978842e-06 -0.95683259 2.5722788e-06
-0.33481684 -0.074449949 0.035302587 0.29072681 -1.2469075e-06 -0.95680612 0
-0.3247399 -0.074835658 0.038363699 0.29063383 2.5126026e-06 -0.95683438 4.6680375e-06
-0.23426244 -0.072466947 0.033543155 0.99422336 0.009641191 -0.1068966 0.015669199
-0.20045052 -0.073300168 0.03548418 0.95845038 0.15974574 0.23633485 0.051473252
-0.061618079 -0.075988591 0.036283709 0.86447787 0.10893854 -0.49072441 0.20570639
-0.036485538 -0.078120634 0.036459617 0.94805843 -0.27666047 0.15698482 0.24312024
0.11023858 -0.075035118 0.036932491 -0.64087558 0.59730291 0.48219058 0.16678159
0.13235092 -0.070402473 0.035289168 -0.97428375 0.15723796 0.16139214 0.1885633
0.27200553 -0.074665353 0.033993471 -0.94701695 0.037683319 0.31896541 0.23398793
0.29385155 -0.074995026 0.032866817 -0.97663605 -0.01323107 0.21449231 0.20214142
0.48159975 -0.076898441 0.032292224 -0.99069637 -0.0034586673 -0.13604696 0.0011473261
-0.35013819 -0.066564828 0.030648366 0.29067248 2.6840382e-06 -0.95682263 0
-0.34879184 -0.061304465 0.031057354 0.29064426 -4.9580708e-06 -0.95683116 3.9599968e-06
-0.33379936 -0.065635234 0.035611678 0.29061684 -4.9720296e-07 -0.95683956 7.2911653e-06
-0.3243846 -0.065409169 0.038471632 0.29066977 -4.727865e-06 -0.95682341 0
-0.20045052 -0.061033659 0.036871389 0.94226438 0.11473992 0.3145991 0.061597597
-0.19832836 -0.065670475 0.039449677 0.95289743 0.1379524 0.27010301 0.053690083
0.1105262 -0.067442954 0.033758659 -0.7364257 0.22960107 0.63636512 0.2353588
0.13235092 -0.067568339 0.038090538 -0.97499132 0.17776261 0.13338827 0.1795211
0.27229142 -0.063343227 0.030972566 -0.83455783 -0.12068714 0.53753871 0.26045564
0.29385155 -0.060835578 0.033877209 -0.99261916 0.11966655 0.019676318 0.21865603
0.48140496 -0.067371979 0.034109961 -0.98633546 0.0042232997 -0.16469523 0.002900352
-0.34521222 -0.055649709 0.032144748 0.29060853 -1.8418419e-06 -0.95684206 1.1139196e-05
-0.33690554 -0.05567814 0.034668107 0.29067048 -4.3258656e-06 -0.95682323 0
-0.32227659 -0.053433582 0.039111994 0.29070613 3.3436045e-06 -0.95681238 0
-0.3197386 -0.051081836 0.039882969 0.29064608 1.8480931e-06 -0.95683068 1.4726719e-06
-0.23426245 -0.059017591 0.035773605 0.96591085 0.0027563393 -0.2588602 0.047330499
-0.20045051 -0.053209916 0.034275852 0.95607114 0.027572367 0.29183501 0.044327669
-0.061832853 -0.051783517 0.035020456 0.77930331 -0.5652554 -0.27050456 0.15503921
-0.036485538 -0.054876912 0.031533841 0.8816483 0.47076979 0.032742906 0.20500021
0.11035814 -0.057731733 0.035613146 -0.82254702 0.47863704 0.30712041 0.23674867
0.13235092 -0.052892961 0.034647353 -0.98119742 0.053618614 0.18540913 0.18942675
