# .PCD v0.7 - Point Cloud Data file format
VERSION 0.7
FIELDS x y z normal_x normal_y normal_z curvature
SIZE 4 4 4 4 4 4 4
TYPE F F F F F F F
COUNT 1 1 1 1 1 1 1
WIDTH 575
HEIGHT 1
VIEWPOINT 0 0 0 1 0 0 0
POINTS 575
DATA ascii
-0.12550135 -0.19668376 -0.054637067 -0.010012791 0.99789011 0.064148948 0.05937276
-0.11571705 -0.19603908 -0.055061866 0.021961097 0.99860978 0.047918539 0.062548406
-0.10534738 -0.19587791 -0.052224193 -0.02449378 0.99964291 0.010681367 0.067397766
-0.095724106 -0.19668376 -0.056151323 0.056208402 0.99840802 -0.0046906476 0.060046613
-0.087133706 -0.19507204 -0.056522653 -0.012621221 0.99977189 0.017230799 0.065443218
-0.078165069 -0.19668376 -0.058052067 -0.010719596 0.99938214 0.033472251 0.061493397
-0.061179694 -0.19614653 -0.053119227 -0.030034443 0.99601185 0.084013797 0.065495744
-0.053259175 -0.19560927 -0.054494005 -0.047049083 0.99698436 0.061713155 0.066317618
-0.047052253 -0.19560927 -0.05610697 -0.02073399 0.99978167 -0.002593705 0.070139587
-0.034541495 -0.19587791 -0.05277551 0.040835872 0.99793398 0.04960027 0.059463322
-0.02561665 -0.19587791 -0.052939065 0.07943178 0.99651855 -0.025325013 0.061643634
-0.01544017 -0.19668376 -0.053488765 0.057900093 0.9983145 -0.0039657596 0.06667763
-0.0043764776 -0.1953944 -0.055044781 0.089101508 0.995942 -0.012671796 0.070063904
0.015652517 -0.1964823 -0.0540451 -0.00029137437 0.99485224 -0.10133582 0.058953203
0.038349964 -0.19668376 -0.054054119 -0.36666358 0.92770594 -0.070139423 0.17339216
0.046021715 -0.19668376 -0.053311158 0.068425409 0.98561007 -0.15456617 0.23923789
0.059782796 -0.19507204 -0.058319695 0.47056806 0.82201201 -0.320721 0.24409847
0.066214994 -0.19668376 -0.055496939 0.26100823 0.95361865 -0.14995369 0.20794107
0.075355813 -0.19507205 -0.056416865 0.17286359 0.97598207 -0.13257879 0.17732073
0.096334428 -0.19547497 -0.057180896 -0.00170747 0.99941349 -0.034200765 0.066813417
0.14162491 -0.19507204 -0.056565739 0.13449809 0.99030799 -0.034646343 0.066647507
0.24218874 -0.19263731 -0.054913715 -0.91721046 0.38527682 0.10142396 0.19273429
0.27577099 -0.19002452 -0.05172779 -0.24949946 0.93512189 0.25158912 0.23482159
0.28011802 -0.19002452 -0.059737526 -0.028152801 0.98464662 0.1722744 0.18062414
0.3244617 -0.19893134 -0.056674451 -0.057651311 0.948645 -0.31104517 0.19177271
0.33493713 -0.19969273 -0.053030435 -0.23400025 0.969006 -0.079190917 0.1981215
0.38720527 -0.193867 -0.056644168 -0.13261078 0.10590637 -0.98549396 0.27284634
0.40457502 -0.1959846 -0.053567369 -0.90849167 -0.33114129 -0.25492811 0.23053077
0.45661783 -0.19853657 -0.056587361 -0.80181217 0.59074509 0.090097718 0.04726439
-0.40884399 -0.18434216 -0.057273161 0.75735426 0.65276992 0.01749072 0.0022742259
-0.35261926 -0.1867383 -0.052517373 0.9691304 0.10887864 -0.22120517 0.18403001
-0.32415688 -0.1822232 -0.054579839 -0.20805532 0.97460759 -0.082782663 0.24055269
-0.31276867 -0.1816466 -0.053632025 0.17934029 0.9807241 -0.077571273 0.23226061
-0.30956361 -0.18477802 -0.059464809 0.1753976 0.98322707 0.050001517 0.16358836
-0.21819459 -0.18831936 -0.051479299 0.53993827 0.4420886 -0.71625721 0.27065715
-0.19808504 -0.18790761 -0.050404683 0.53905553 0.07628566 0.83880848 0.26518533
0.24200907 -0.18386814 -0.055793185 -0.98365772 0.15283094 0.095185556 0.19598632
0.26758584 -0.18036653 -0.058012109 0.27808249 0.95904666 -0.0538477 0.20888719
0.27607912 -0.18164055 -0.054111809 -0.048505824 0.99816477 -0.036254108 0.19827901
0.28532943 -0.18207632 -0.054190438 0.18771546 0.97666532 -0.10434462 0.16387632
0.29316044 -0.18421036 -0.056407165 0.27441484 0.96141452 0.019458877 0.14978005
0.30534005 -0.18333876 -0.055488694 0.25525358 0.96171677 -0.099732287 0.14856811
0.3131251 -0.18371581 -0.055105194 0.18224166 0.9791404 -0.089843586 0.18816911
0.32383594 -0.18390433 -0.056350127 -0.094792612 0.99542147 -0.012267694 0.21793391
0.33497593 -0.18285397 -0.052841902 -0.13778138 0.9901433 -0.02514828 0.15915455
0.34403774 -0.18362029 -0.053690411 -0.20870732 0.97783291 -0.016849462 0.17441145
0.35670155 -0.18164204 -0.055825345 -0.0031157576 0.99599731 -0.089329012 0.20472576
0.36487827 -0.18418711 -0.054005489 -0.053069733 0.99019319 -0.12923296 0.22668651
0.37221527 -0.18325877 -0.059297044 -0.13336757 0.92575145 0.35383233 0.21976021
0.38711125 -0.18734471 -0.056208692 -0.090751179 0.16523787 0.98206961 0.24437344
0.40818882 -0.18603273 -0.058419887 -0.89092624 -0.032574974 -0.4529781 0.17450047
0.46161559 -0.18284133 -0.056172766 -0.93398809 0.34576479 0.090071574 0.0053194994
-0.35510123 -0.17642483 -0.055752106 0.90926015 0.34565771 -0.2318763 0.1702576
-0.32321715 -0.17627113 -0.055314254 -0.022922935 0.95752543 -0.28743625 0.20033832
-0.31314403 -0.17739658 -0.055289805 0.34163243 0.93392032 -0.10526215 0.1865706
-0.30477339 -0.1773809 -0.054065168 0.39944693 0.91431624 0.066842772 0.16445079
-0.29498947 -0.17894061 -0.053770892 -0.054755911 0.99592042 0.071723759 0.21333207
-0.28465396 -0.17894062 -0.058375012 -0.29810438 0.91783452 -0.26213273 0.21046105
-0.27249816 -0.17599154 -0.052193701 0.47270146 -0.71292883 0.51796311 0.23380198
-0.26334155 -0.17744945 -0.050817586 -0.18606107 0.94448978 -0.2707777 0.25167179
-0.2542727 -0.17524211 -0.052002031 0.14426222 0.93682462 -0.31866613 0.25527319
-0.24340226 -0.17710651 -0.053567834 -0.10973022 0.89128226 -0.43997189 0.2405149
-0.23554888 -0.1773881 -0.053270608 0.054239444 0.8104409 -0.58330405 0.23656289
-0.22811858 -0.17179036 -0.051351126 0.27958053 0.16458657 -0.94591022 0.24969412
-0.20339599 -0.17060238 -0.052158266 0.16884194 0.36571485 0.91528416 0.26950002
-0.19301635 -0.17730092 -0.053063184 0.67308939 0.028280277 0.73902023 0.2989696
-0.18304808 -0.17130701 -0.051351126 0.003619812 0.12037955 0.99272132 0.21454601
-0.17559923 -0.17312664 -0.050021123 -0.26652053 0.19080031 0.94475502 0.18784548
0.041961536 -0.1746611 -0.055219915 0.92536688 0.36500254 0.1023194 0.25675082
0.05483757 -0.17391175 -0.054612413 -0.97018248 -0.10459053 -0.21864748 0.25377983
0.060825646 -0.17139532 -0.0517404 -0.83325988 0.41679576 0.36326191 0.26091912
0.2563054 -0.17489341 -0.056355253 -0.61878538 -0.74577117 0.24684003 0.22666752
0.26906523 -0.17948166 -0.053778429 0.29196349 0.94629991 -0.13882978 0.22965199
0.27286655 -0.17877135 -0.055274971 -0.64875937 -0.68827307 0.32464063 0.2519677
0.28533432 -0.17826478 -0.053744268 0.16086763 0.96754152 -0.19489746 0.13888161
0.40325928 -0.17539436 -0.05681197 -0.84303129 0.24152498 -0.48058698 0.16776219
0.41115162 -0.17469104 -0.057016078 -0.86819565 0.39022022 -0.3065362 0.1347338
0.46596369 -0.17034402 -0.051857457 -0.92598468 0.35854706 0.11830639 0.0041750455
-0.36375165 -0.1626747 -0.052963614 0.72443527 0.57347465 -0.38251865 0.13947779
-0.3532643 -0.16655776 -0.054074641 0.83551067 0.38806552 -0.38900775 0.19836627
-0.27403778 -0.16133811 -0.050435096 0.63776755 -0.40922269 0.65252542 0.20553923
-0.26601118 -0.16596892 -0.051351126 0.74554336 -0.44058546 0.50004965 0.23920113
-0.25373548 -0.1643828 -0.051351126 -0.022079837 0.63331145 -0.77358198 0.23126011
-0.24573505 -0.16438261 -0.05135113 0.069794074 0.57145572 -0.81765962 0.20350996
-0.23768227 -0.16429566 -0.051351126 -0.12459895 -0.051396102 0.99087512 0.22965074
-0.22627831 -0.16185676 -0.051351126 -0.0076210983 -0.018461391 0.99980056 0.22915407
-0.21674897 -0.16681273 -0.051644731 0.45239118 0.005586579 0.89180207 0.26456329
-0.20511401 -0.16503927 -0.055392612 0.78444093 0.21379253 0.58218998 0.29443163
-0.19464071 -0.16228104 -0.053359792 -0.073206648 0.028512457 0.99690914 0.28065544
-0.18410401 -0.16642772 -0.051272888 -0.28716049 0.28160438 0.91555321 0.2339357
-0.17385557 -0.1681338 -0.051921774 -0.1886609 0.084433876 0.97840583 0.1718611
-0.044397727 -0.16390306 -0.056078311 0.31508061 0.7223748 -0.61554766 0.088826217
-0.033966418 -0.16427043 -0.052443914 0.036537144 0.69396573 -0.71908039 0.099929944
-0.013066446 -0.16462299 -0.054044966 0.024579152 0.67039287 -0.74159914 0.10598553
-0.0074023884 -0.16482437 -0.054959431 0.056208786 0.71499401 -0.69686729 0.099208422
0.013629287 -0.16439897 -0.05302763 0.12709445 0.43249115 -0.8926357 0.11213215
0.027145457 -0.16522616 -0.059352465 0.112974 0.78073305 -0.61456722 0.21013156
0.045662224 -0.16400635 -0.054015636 0.43953109 0.86488968 0.24244222 0.25895301
0.054319739 -0.16264589 -0.055151761 0.2175269 0.93476188 0.28089556 0.25223538
0.063130781 -0.16421123 -0.055605341 -0.27776623 0.95416844 0.11139341 0.16852292
0.07175982 -0.16582145 -0.053830773 -0.64735675 0.71846062 0.25444746 0.19517298
0.1763224 -0.16292092 -0.052193187 -0.99999917 0.0012781601 -8.3970554e-06 4.3166706e-06
0.24254788 -0.16714804 -0.055190962 -0.97499812 -0.10870393 0.19380935 0.13319823
0.38654226 -0.16402203 -0.053880706 -0.4875215 0.79691339 -0.35672387 0.20614453
0.40343773 -0.165631 -0.057791442 -0.74766165 0.59735733 -0.2901144 0.19851992
-0.43290597 -0.15295437 -0.055135109 0.80798584 0.58738315 0.046258807 0.00062050909
-0.3723194 -0.15267158 -0.057707969 0.69286615 0.6804055 -0.23871477 0.13536298
-0.36828303 -0.15907106 -0.058975026 0.72709846 0.67362738 -0.13249171 0.11671279
-0.33518371 -0.15497798 -0.056737348 0.5838328 0.7651155 -0.27154642 0.1983041
-0.27275077 -0.15394661 -0.050822675 0.56687444 -0.13318679 0.81296664 0.11131515
-0.26548284 -0.15446602 -0.051351126 0.53656334 -0.0025721854 0.84385616 0.16802764
-0.25772771 -0.15691105 -0.051351126 0.052111097 -0.12877508 0.9903037 0.20808436
-0.24403369 -0.15818788 -0.051351126 0.0020931715 -0.011090005 0.9999364 0.15603432
-0.23516077 -0.154378 -0.05135113 0.059665684 0.25577971 -0.96489209 0.18145974
-0.22293876 -0.15863563 -0.051351126 0.23829332 -0.31801268 0.91765147 0.25068843
-0.2148308 -0.15251398 -0.055657346 0.5539242 -0.044496536 0.83137721 0.19637088
-0.20542829 -0.15452947 -0.053313632 0.26711032 -0.37247881 0.88876969 0.25995982
-0.19546627 -0.15523469 -0.054308303 0.027149519 -0.25684339 0.96607167 0.27861652
-0.18576722 -0.15758018 -0.051351126 -0.041303951 0.0094339782 0.99910206 0.22950833
-0.17017114 -0.15845099 -0.055937931 0.087846711 0.3475163 0.93354982 0.22279301
-0.16724701 -0.15860647 -0.059125334 0.2980561 0.43980733 0.84719074 0.20417009
0.043237895 -0.1536413 -0.054509033 0.41787618 0.76509947 -0.48990032 0.28400895
0.062788449 -0.15979618 -0.053978644 -0.24731922 0.94888413 0.19609211 0.24828297
0.078863032 -0.15133923 -0.058122296 -0.90417588 0.34627023 0.25012591 0.14428537
0.080914102 -0.15784839 -0.050467588 -0.78232336 0.53791404 0.31403619 0.11801778
0.17633009 -0.15685244 -0.053321302 -0.99999928 0.0012434666 -6.2716072e-07 0
0.24277918 -0.15717569 -0.055989064 -0.99035674 -0.032182351 0.13475092 0.063256085
0.25637773 -0.15786222 -0.056130126 -0.84721547 -0.48357785 0.21995099 0.11307324
0.39824697 -0.15611218 -0.053059872 -0.63988072 0.72866309 -0.24413677 0.18539868
0.41773212 -0.15254471 -0.055139896 -0.88008469 0.41029516 -0.23897436 0.032554913
0.47009051 -0.1588555 -0.051276401 -0.8950237 0.38952941 0.21725401 0.029713806
-0.44050127 -0.14213054 -0.057773113 0.81571376 0.57543498 0.059039149 0.0007126283
-0.43765402 -0.14656106 -0.054075904 0.81252193 0.58221382 0.028900152 0.0014511307
-0.37602705 -0.14595237 -0.054798484 0.62221122 0.71060622 -0.32846922 0.10449288
-0.35164517 -0.14718534 -0.050165668 0.6548034 0.67095333 -0.34792843 0.2291646
-0.27107105 -0.14785101 -0.051351123 0.72817731 -0.034010451 0.68454444 0.10580058
-0.26790747 -0.14484134 -0.051351126 0.67889214 0.074030511 0.73049647 0.095918149
-0.25078315 -0.14406189 -0.051351126 0.099884138 0.0091683902 0.99495685 0.027472241
-0.23647599 -0.1446805 -0.05135113 -0.082023077 0.10354266 0.99123722 0.17614163
-0.22323371 -0.14500283 -0.051351126 0.26094517 0.087412521 0.96138787 0.24579091
-0.21250662 -0.14521599 -0.052031696 0.53963542 0.23373576 0.80880225 0.25886142
-0.20377129 -0.14546911 -0.051351123 0.26091397 -0.16073516 0.95188665 0.27998084
-0.19133566 -0.14649141 -0.051351123 0.076124333 0.35528904 -0.93165159 0.22545451
-0.18778211 -0.14208341 -0.051351123 0.075999066 -0.31020111 0.94762832 0.19576919
-0.17966436 -0.1456778 -0.05073534 0.3927376 0.016260415 0.91950685 0.19262069
-0.16961846 -0.14524804 -0.05654037 0.11088651 0.13740095 0.98428911 0.21506096
-0.053337753 -0.14364508 -0.053553894 -0.64412749 0.0034657652 0.76491028 0.10269393
-0.026461018 -0.14389169 -0.051465418 0.089636832 -0.1532778 0.98410934 0.039621238
-0.017020356 -0.14389171 -0.053189293 0.058508564 -0.14531918 0.98765332 0.058565091
-0.0030734874 -0.14389171 -0.050879806 0.01895334 -0.022574233 0.99956542 0.017125286
0.0040204721 -0.14383531 -0.052672509 -0.064850017 0.0047742408 0.99788356 0.01941208
0.026100898 -0.14099331 -0.053423777 0.13729626 0.14968517 0.97915477 0.11407753
0.044337429 -0.1470603 -0.050405491 -0.45457277 -0.068693265 0.88805681 0.22673281
0.056164306 -0.14389171 -0.053066228 0.57344711 0.23428272 0.78502864 0.22878866
0.061573893 -0.14442265 -0.051218364 0.54190063 0.018641254 0.84023577 0.23228845
0.17634475 -0.14529184 -0.055807784 -0.99999917 0.0012861952 -8.989532e-06 0
0.24432702 -0.14371683 -0.054301564 -0.97247946 -0.025653947 0.23157173 0.032305103
0.42146391 -0.14196303 -0.057194155 -0.87794834 0.41237229 -0.24321945 0.031457972
0.47642425 -0.14122331 -0.054958057 -0.9211688 0.29848331 0.24971145 0.02526815
-0.443295 -0.13851495 -0.056088462 0.82697767 0.56041378 0.045213599 0.0017477743
-0.38102487 -0.13860422 -0.054424845 0.77809703 0.59152228 -0.21134424 0.042724796
-0.27273136 -0.13277005 -0.051062565 0.8755362 -0.034481443 0.48192051 0.071420789
-0.26657948 -0.13608642 -0.05135113 0.67660218 -0.11607429 0.72714245 0.084047779
-0.25274363 -0.13546199 -0.051351126 0.17992979 -0.06106665 0.98178202 0.038134485
-0.23547167 -0.13481764 -0.05135113 0.18678811 -0.061778013 0.98045582 0.17121133
-0.22221644 -0.13485551 -0.051559359 0.83050108 0.20055155 0.51966053 0.25196463
-0.21714497 -0.13597853 -0.051547959 0.46852678 0.15086579 0.87047237 0.26165065
-0.2055544 -0.13314658 -0.05135113 0.045197289 0.038555387 0.9982338 0.29135042
-0.19327854 -0.13290639 -0.051351126 0.016128145 -0.1471516 0.98898238 0.21265221
-0.18574102 -0.13314198 -0.051351126 0.24060938 -0.17118664 0.95540684 0.22074297
-0.17562369 -0.13492098 -0.051165391 0.50306845 -0.080914587 0.86045045 0.1769824
-0.053456128 -0.13896199 -0.054032683 0.74382114 0.035560455 -0.66743201 0.098678254
-0.02720193 -0.13568765 -0.053423781 -0.00560635 0.053010888 0.99857819 0.020143906
-0.011311205 -0.13509385 -0.053423777 0.004986837 0.067574188 0.99770176 0.0077009602
-0.0074268412 -0.13915816 -0.053423777 0.017400175 0.027384037 0.99947351 0.0080908705
0.0038823553 -0.13135253 -0.053423777 -0.0026039293 0.080566049 0.99674582 0.0041194856
0.013820827 -0.13268271 -0.053423777 -0.041478373 0.10749619 0.99333984 0.0041411375
0.02033427 -0.13664767 -0.053423777 0.11597301 0.13723218 0.98372638 0.044781968
0.045442544 -0.13593554 -0.055826135 0.072680883 0.0539391 0.99589562 0.22060566
0.06426511 -0.1300106 -0.059217978 -0.63564914 0.24528617 -0.73197323 0.27076
0.07910987 -0.13277689 -0.057201065 -0.95908338 -0.1611384 0.23279482 0.13393509
0.080683403 -0.13758394 -0.051328562 -0.87406474 -0.0040018242 0.48579299 0.096407346
0.17635889 -0.13413569 -0.053384662 -0.99999923 0.0012876973 2.4475366e-06 3.5612143e-06
0.24444458 -0.13656104 -0.055122852 -0.96946156 -0.052648529 0.23952535 0.024011033
0.42322612 -0.13436574 -0.054063492 -0.91345567 0.33623359 -0.22922881 0.0021472317
0.4797489 -0.1319679 -0.056500077 -0.91314036 0.32602343 0.24471095 0.012964863
-0.4521594 -0.1245871 -0.057294842 0.85520005 0.51687407 0.03839343 0.002257467
-0.38815022 -0.12613003 -0.05204631 0.83956534 0.45171154 -0.30180582 0.0018875678
-0.27171236 -0.12363869 -0.051351123 0.83588332 -0.010553994 0.54880583 0.078296505
-0.26441067 -0.12563637 -0.05135113 0.54525685 -0.12144022 0.82942587 0.10626003
-0.25857368 -0.12518063 -0.051351126 0.26700646 0.012881316 0.96360868 0.069061048
-0.24060662 -0.12605882 -0.05135113 -0.064571559 0.0022107488 0.99791062 0.1148717
-0.23517436 -0.12422496 -0.051351126 0.028519765 0.088908181 0.9956314 0.13391347
-0.22272772 -0.12444764 -0.052721366 0.80758822 0.29132062 0.51277065 0.22164327
-0.21565139 -0.12481815 -0.052187026 0.43078741 0.16953866 0.8863852 0.23250292
-0.20858331 -0.1238566 -0.05135113 0.36311403 -0.11559049 -0.92454696 0.23662212
-0.194754 -0.12492383 -0.051351126 0.046501521 -0.073651142 0.99619931 0.20496866
-0.18166345 -0.12341882 -0.051351126 0.39897013 0.048407841 0.9156853 0.1842826
-0.17669746 -0.12350848 -0.051420607 0.45102918 0.011986711 0.89242876 0.14451654
-0.16904357 -0.12435403 -0.057167027 0.56785262 0.0014452602 0.823129 0.166098
-0.014999317 -0.1266651 -0.053423777 0.031094769 0.069686547 0.9970842 0.0039592204
-0.0046404516 -0.12647967 -0.053423777 0.024799734 0.040753774 0.99886137 0.0032061227
0.0088645034 -0.12604909 -0.053423777 0.0021725653 0.052564003 0.99861521 0.0031270275
0.016740808 -0.12902208 -0.053423777 -0.0084985374 0.091420926 0.99577606 0.0062716352
0.056217596 -0.12032754 -0.053423777 0.73014611 0.053581201 0.68118691 0.20345305
0.062227856 -0.12032692 -0.05198963 0.70775765 0.37206572 0.60053831 0.21114525
0.17637566 -0.12093899 -0.057473961 -0.99999911 0.0012856373 7.2680641e-06 3.8532739e-06
0.24603878 -0.12404555 -0.054629475 -0.96067518 0.15382716 0.23117185 0.0023791755
0.42603856 -0.12734589 -0.055989452 -0.90620691 0.36592701 -0.21186447 0.0020901526
0.47984284 -0.12922686 -0.058809947 -0.90739638 0.32527727 0.26613265 0.014357564
0.48110211 -0.12771225 -0.056227088 -0.9084065 0.33903289 0.24465148 0.013935796
-0.4581216 -0.11267251 -0.054205 0.89435017 0.44539756 0.041937668 0.0012186727
-0.39379358 -0.11564897 -0.054709356 0.85596347 0.40812531 -0.31742764 0.0015369797
-0.35568413 -0.11389706 -0.059916638 0.95138341 0.034079824 -0.30611795 0.0023404751
-0.26559567 -0.11569525 -0.05135113 0.51563579 -0.057803631 0.85485584 0.082361147
-0.24288376 -0.11438856 -0.05135113 0.079719961 -0.068207629 0.99448103 0.18436696
-0.22148469 -0.11721794 -0.056938268 0.51572847 0.24184293 0.82191008 0.24442706
-0.21517658 -0.11427847 -0.051351126 0.15948623 -0.1646965 0.97336489 0.22981073
-0.20538425 -0.11467461 -0.051351126 0.50548708 -0.24023297 -0.82871646 0.24634297
-0.1834268 -0.11631636 -0.051111884 0.3169587 0.11061864 0.94196641 0.17874174
-0.17513603 -0.11370963 -0.052169804 0.44664297 -0.10610206 0.88839883 0.16893265
-0.16992706 -0.11481047 -0.056203987 0.60222638 -0.16087958 0.78194702 0.17979601
-0.054906651 -0.11541705 -0.059899792 0.94738817 -0.051309507 -0.31594789 0.057457969
0.0015178153 -0.11437355 -0.053423777 0.0072198976 0.01201692 0.99990171 0.00056345569
0.017673912 -0.11248221 -0.053423777 0.047265742 -0.0037694813 0.99887526 0.0056838323
0.036782295 -0.11881609 -0.053423777 -0.21126287 0.14773002 0.96620071 0.15023863
0.045256402 -0.11901154 -0.053423777 -0.40632921 0.017471783 0.91355968 0.18504974
0.17638636 -0.11250106 -0.050113894 -0.99999923 0.0012669537 -1.1984898e-06 0
0.24647692 -0.11763328 -0.057694353 -0.96402287 0.18094656 0.19472599 0.0020146158
0.42958435 -0.1174503 -0.051715568 -0.88812184 0.38914511 -0.24455218 0.0025224197
-0.40024167 -0.10344383 -0.05759304 0.88628674 0.36344686 -0.28705782 0.0010293782
-0.39728647 -0.10742377 -0.054114159 0.87085676 0.38069478 -0.31093401 0.00087376597
-0.35531205 -0.10647829 -0.059018329 0.94850957 0.043807767 -0.31370428 0.002369418
-0.27195123 -0.10306048 -0.051351126 0.73613232 -0.013386292 0.67670512 0.084606372
-0.26278198 -0.10638958 -0.05135113 0.43045694 -0.025276663 0.9022572 0.078001231
-0.25478265 -0.10546533 -0.05135113 0.034514304 -0.016660463 0.99926531 0.10312328
-0.23254973 -0.10141525 -0.051351123 0.74529225 0.12703168 0.65452462 0.14228773
-0.22572401 -0.10411838 -0.051873256 0.18852566 0.33033952 0.9248426 0.25217524
-0.21526185 -0.10998769 -0.051351126 0.10994931 0.1650584 0.9801361 0.25623509
-0.20600991 -0.10463061 -0.051351126 0.38673538 0.3226175 -0.86391765 0.23239334
-0.1975036 -0.10309147 -0.051351126 0.060317688 -0.07002575 0.99571991 0.24149004
-0.18896195 -0.10214467 -0.05135113 0.40776503 -0.045418683 0.91195661 0.24139297
-0.17427462 -0.10531143 -0.051464994 0.27597356 -0.14730763 0.94981003 0.18920428
-0.16845326 -0.10540207 -0.05781047 0.25412014 -0.49583793 0.83040208 0.18150342
-0.053301096 -0.10556328 -0.053405609 0.75749624 -0.044576094 -0.65131593 0.073994696
-0.030443866 -0.10729832 -0.053423777 -0.1658477 -0.11094081 0.97989118 0.034449544
0.0093591558 -0.10012431 -0.053423777 -0.0065849479 -0.077869341 0.99694175 0.0051460718
0.015293399 -0.10358281 -0.053423777 -0.0070062345 -0.061647467 0.9980734 0.0030912308
0.036674131 -0.10522813 -0.053423777 -0.32421008 -0.15601002 0.93303204 0.23579647
0.042703442 -0.10450441 -0.053423777 -0.38548598 -0.020697972 0.92248154 0.25768232
0.050884269 -0.10616317 -0.053423777 -0.77544087 -0.30585262 0.55239981 0.25543034
0.063694403 -0.10951483 -0.057193078 0.60414582 0.015625322 0.79672056 0.18660222
0.1764019 -0.10025517 -0.056308731 -0.99999923 0.0012778869 -7.2885023e-06 8.5278762e-06
0.24883255 -0.10652798 -0.057686541 -0.96197677 0.18614359 0.19987799 0.0029710974
0.25107887 -0.10093939 -0.054151073 -0.96343207 0.15061368 0.22161737 0.0046363482
0.43523178 -0.10598558 -0.054494791 -0.90575439 0.36635214 -0.21306121 0.0029308272
0.4921194 -0.10487918 -0.052882269 -0.90759069 0.37028623 0.19790709 0.007022474
-0.46739179 -0.093462855 -0.052647162 0.93660438 0.34274942 0.072767712 0.00227728
-0.40322569 -0.097322963 -0.058295645 0.8981818 0.3355934 -0.28398347 0.0015164597
-0.35456148 -0.09480238 -0.057206303 0.91407776 0.014244741 -0.4052889 0.0011319154
-0.27199912 -0.092766114 -0.051351123 0.67868024 -0.017233061 0.73423177 0.10269768
-0.26637441 -0.090336889 -0.051351123 0.69971895 0.071068943 0.71087456 0.093289375
-0.24473953 -0.094132297 -0.05135113 -0.071957491 0.16661212 0.98339337 0.14750776
-0.23688032 -0.097112671 -0.05135113 0.65113795 0.087597147 0.7538873 0.17831971
-0.22628805 -0.093991831 -0.053662639 0.86486733 0.47729963 -0.15553001 0.25854936
-0.20546256 -0.09757708 -0.051351126 0.16390048 0.42882767 -0.88839376 0.21543087
-0.19411646 -0.097187161 -0.052619409 0.44700599 -0.15773037 0.88051504 0.22145486
-0.18130146 -0.099655695 -0.051269926 0.18602476 -0.022168962 0.98229504 0.19020647
-0.17445116 -0.092261724 -0.05207932 0.022671981 -0.079183087 0.99660224 0.14713591
-0.16657673 -0.09143877 -0.059855957 0.77051568 -0.33367604 0.54310757 0.23040383
-0.030491641 -0.093464233 -0.05236518 -0.084047772 -0.13138296 0.98776239 0.037901323
-0.016575947 -0.095380478 -0.053423777 0.056195542 -0.15638542 0.98609614 0.00522285
-0.0047641629 -0.09001638 -0.053423777 0.029932177 -0.061670449 0.99764764 0.020595172
0.0042715147 -0.094596229 -0.053423777 -0.007876765 -0.15513456 0.98786199 0.0063462299
0.010794537 -0.093753085 -0.053423777 -0.035282381 -0.15049952 0.98798025 0.0043368274
0.026007392 -0.090038732 -0.053423777 0.22365987 0.052487068 0.97325295 0.13109164
0.047183678 -0.099192142 -0.053878941 -0.91335756 -0.20176508 0.35365078 0.20293204
0.051625025 -0.09200304 -0.053423777 -0.90385127 -0.087677971 0.41876653 0.24148174
0.061080102 -0.095396601 -0.052139837 0.52198851 0.074795581 0.84966671 0.21415989
0.1764138 -0.09085089 -0.059148915 -0.99999923 0.0012560867 -1.6966687e-06 8.8394963e-06
0.25190878 -0.093961358 -0.056310833 -0.97556305 0.091478609 0.19977084 0.0044780658
0.4402056 -0.095040917 -0.055051506 -0.94216305 0.25942594 -0.21219561 0.0055919918
0.49413133 -0.099085204 -0.05674025 -0.91354024 0.31859696 0.25286406 0.0068260641
-0.46950287 -0.087641016 -0.054913275 0.94769758 0.31174919 0.068423487 0.0022655993
-0.4050504 -0.085470363 -0.050481826 0.9041332 0.27575418 -0.32634765 0.0014509484
-0.26854959 -0.083315171 -0.051351123 0.67403954 0.05748963 0.73645478 0.098321527
-0.24726754 -0.087054707 -0.05135113 0.0053933025 -0.059995603 0.99818408 0.13279802
-0.23332822 -0.083235517 -0.050898343 0.90263474 0.12811433 0.41089818 0.093262039
-0.22147617 -0.080508441 -0.051351126 0.53643149 -0.1078392 -0.83702558 0.22931784
-0.21516186 -0.084556319 -0.05135113 0.45464414 0.25120357 -0.85451472 0.23738457
-0.19585006 -0.08451663 -0.052254923 0.53800291 -0.086874135 0.83845437 0.24496746
-0.17941771 -0.085383758 -0.050654799 0.13167188 0.016222052 0.99116057 0.17688559
-0.053747941 -0.081409305 -0.055213019 0.83775777 -0.17432959 -0.51746607 0.084674463
-0.013529643 -0.084419027 -0.05318667 0.056716483 0.050026581 0.99713624 0.044338509
-0.0045764167 -0.085562192 -0.053423777 0.11699555 0.12293422 0.98549443 0.055559672
0.0046738824 -0.082819283 -0.050822772 0.086666495 0.17695248 0.98039621 0.065314807
0.011189805 -0.082819283 -0.05135414 -0.015353336 0.21060227 0.97745121 0.072384693
0.042644344 -0.081300296 -0.056724183 -0.92782509 -0.12109049 0.35281393 0.25941962
0.050619528 -0.084905297 -0.053423777 -0.71530408 -0.072638199 0.69502801 0.23215452
0.064072192 -0.084843472 -0.058533497 0.52355695 -0.15149815 0.83841306 0.25459823
0.079753019 -0.085917085 -0.054800797 -0.91657102 -0.068578191 0.39394733 0.15947188
0.17641555 -0.089488469 -0.059910625 -0.99999917 0.0012570965 3.6763367e-06 0
0.25377777 -0.089278355 -0.053279448 -0.96553332 0.080351368 0.24756634 0.0049617179
0.44336277 -0.088235803 -0.058377996 -0.96453565 0.18197288 -0.19119845 0.0061073042
0.49762678 -0.083875321 -0.058220048 -0.93296695 0.16395834 0.32045341 0.0078599341
-0.47342378 -0.070842721 -0.054873347 0.96800381 0.24334304 0.061260097 0.0021878846
-0.40864521 -0.076453164 -0.055091694 0.91872346 0.24452715 -0.31008643 0.0018567332
-0.35197249 -0.073466897 -0.050955918 0.89512646 -0.0088958582 -0.44572365 0.0044323877
-0.26205233 -0.073507927 -0.051351123 0.21261446 0.095525146 0.97245574 0.10193028
-0.2529816 -0.077703819 -0.051351126 0.11294795 -0.11406945 0.9870314 0.13301702
-0.23597574 -0.077231698 -0.051351123 0.87961316 0.14640805 0.45259857 0.10540438
-0.22789875 -0.074439384 -0.054247994 -0.16636992 0.01387663 0.98596579 0.21560451
-0.20137635 -0.078581274 -0.051351126 0.032474723 -0.0053981915 0.99945796 0.22425237
-0.19685556 -0.076801792 -0.052835271 0.48010534 -0.034299999 0.87653995 0.19446529
-0.17443931 -0.075605713 -0.051285475 -0.00048135725 0.059683017 0.99821723 0.19091247
-0.053842962 -0.074605234 -0.05692102 -0.78579748 0.39411962 0.47664663 0.066228241
0.042133007 -0.071323186 -0.058632541 0.5350222 0.78419775 -0.31430101 0.27996728
0.063153893 -0.072065212 -0.055275276 0.35679957 0.93187827 0.065550573 0.27850324
0.17643103 -0.077277139 -0.053650882 -0.99999923 0.0012602708 3.8388052e-06 6.8580316e-06
0.25330812 -0.078426093 -0.05244993 -0.96999991 -0.00057419838 0.24310467 0.0042301589
0.44235474 -0.073090054 -0.05405429 -0.97704601 0.022847453 -0.21179968 0.0011988149
-0.47355029 -0.069319665 -0.057159636 0.9726643 0.23040858 0.028914031 0.003661809
-0.41017389 -0.0638576 -0.051131018 0.92332613 0.20625894 -0.32392299 0.0018226696
-0.4096218 -0.069272414 -0.05314669 0.92424279 0.22106139 -0.31129897 0.001429735
-0.35381666 -0.063816823 -0.055408176 0.92301899 -0.014112976 -0.38449553 0.0045827259
-0.27241638 -0.062327635 -0.051351126 0.61305749 0.0065344004 0.79001129 0.070774503
-0.26389751 -0.065400824 -0.051351123 0.1077634 -0.054429743 0.9926855 0.10819858
-0.23302567 -0.066386037 -0.053775959 0.73996675 0.06018145 0.6699459 0.16906936
-0.227193 -0.065360025 -0.051351123 0.20521943 0.19851647 -0.95837164 0.26414922
-0.19747648 -0.067472674 -0.051738083 0.31518826 -0.139918 0.93865824 0.22227542
-0.18511902 -0.06443315 -0.051351126 0.47522226 -0.041747477 0.87887484 0.18672203
-0.17032382 -0.060657732 -0.055771496 0.5203976 0.074635491 0.85065615 0.21359055
-0.1694904 -0.061134983 -0.05667996 0.55035657 0.10013127 0.82890368 0.20706734
-0.010697875 -0.062626876 -0.050461374 -0.12629926 0.21862878 0.96760011 0.11432911
0.00019771978 -0.062640414 -0.05894734 -0.034393799 0.51755071 0.85496098 0.1686334
0.015346849 -0.062701792 -0.052668635 -0.21994556 0.26915342 0.93764615 0.15236489
0.021597341 -0.06278494 -0.055118758 -0.26962799 0.41369894 0.86957115 0.20701279
0.039692327 -0.06067453 -0.052052062 -0.57161361 -0.71660805 0.39966333 0.27049574
0.0468654 -0.065904841 -0.054487184 0.055873185 0.97354424 -0.22156198 0.19718163
0.059815533 -0.062823534 -0.056255855 0.35809326 0.88885546 -0.28584111 0.24530819
0.065404862 -0.065256216 -0.056441426 0.43138734 0.89200872 -0.13500153 0.18778096
0.073319711 -0.065244451 -0.056084864 0.45475483 0.87893093 -0.14380005 0.12340643
0.17644392 -0.067115806 -0.056243967 -0.99999928 0.0012478522 -1.8349422e-06 3.3840843e-05
0.25193712 -0.067110911 -0.054518789 -0.97627968 -0.0512578 0.21035844 0.0022697255
0.44181049 -0.060935073 -0.051913876 -0.97882438 -0.009793615 -0.20446719 0.00042756836
0.49758792 -0.062226944 -0.057835266 -0.94345582 0.0056851595 0.33144954 0.010176615
0.5 -0.069242597 -0.050998114 -0.98171902 0.048403945 0.1840786 0.0093616135
-0.47694701 -0.056064773 -0.054099709 0.97098029 0.23427814 0.048073597 0.0021979564
-0.41565451 -0.051899884 -0.059368834 0.93708497 0.21596654 -0.27428144 0.0015757016
-0.26347035 -0.053607676 -0.051351123 0.0079840589 0.020254266 0.99976295 0.13180907
-0.24720673 -0.051149182 -0.051351126 0.32107475 0.051134579 0.94567233 0.17520268
-0.23362845 -0.05700421 -0.053939864 0.86979413 0.15237284 0.46929795 0.13542199
-0.22778448 -0.052621037 -0.051351123 0.080722719 0.14548735 0.98606157 0.23589393
-0.21470469 -0.052118987 -0.05135113 -0.12033103 0.24683671 0.96155709 0.14319202
-0.2066613 -0.055109948 -0.051351126 0.37603346 -0.4331032 -0.81915832 0.18758813
-0.19118392 -0.052380223 -0.051351126 0.49665603 0.073824845 0.86480212 0.21329454
-0.18662301 -0.05267657 -0.051351126 0.37535581 0.1166396 0.91951245 0.203436
-0.17573228 -0.053263091 -0.052222718 0.35875925 0.12112078 0.92553854 0.21516447
-0.16971952 -0.053498387 -0.056430213 0.5507322 0.013050456 0.83458 0.19950625
0.039893109 -0.052832138 -0.053683791 -0.93894184 -0.27423346 0.207808 0.25420132
0.04298136 -0.052049547 -0.051595543 -0.43100116 -0.30974337 0.84752411 0.25007719
0.17645322 -0.059791174 -0.055552628 -0.99824274 -0.059188008 0.0028651347 0.033467755
0.24948649 -0.052647021 -0.059487373 -0.98320019 -0.063223615 0.17123136 0.003544952
0.25218397 -0.05697589 -0.051462255 -0.96970135 -0.065797314 0.23526566 0.0024112114
0.44231236 -0.056748703 -0.054638579 -0.98097432 -0.0095639471 -0.19390184 0.00044740835
0.49961603 -0.054758959 -0.053509779 -0.98170096 0.0014108622 0.19042356 0.0091188634
0.5 -0.053579975 -0.050719649 -0.9864397 -0.0032222397 0.1640925 0.0082515962
-0.48014191 -0.043071881 -0.052822925 0.97082663 0.23246063 0.058802109 0.0011710207
-0.3524009 -0.047629364 -0.051990196 0.91566986 0.0072876276 -0.40186515 0.0032084454
-0.25467575 -0.046238381 -0.05135113 0.24076119 0.042588286 0.96964949 0.16303875
-0.24147329 -0.047483664 -0.051351123 0.64517158 0.18822524 0.74048972 0.17326903
-0.23570448 -0.042596329 -0.055136081 0.90750474 0.2033127 0.36755842 0.1076241
-0.22845678 -0.047069333 -0.051351126 0.28798696 0.26790658 0.91939628 0.20329915
-0.20305076 -0.043877326 -0.051351126 -0.09459269 0.27508208 0.956756 0.24422941
-0.19418447 -0.042345103 -0.051351126 0.64336288 0.19101554 0.74134833 0.22372442
-0.18202409 -0.044269547 -0.051108152 0.3884874 -0.023387259 0.92115724 0.20791346
-0.1724868 -0.047451772 -0.053413782 0.46558833 0.14788269 0.87255841 0.20327522
-0.16931501 -0.049864288 -0.056871146 0.56430423 0.16589794 0.80872655 0.20194334
0.17647086 -0.045883257 -0.0567858 -0.99238122 0.039358757 -0.11674999 0.18786632
0.24933052 -0.044691425 -0.058228992 -0.97774088 -0.059571728 0.20118134 0.0020682684
0.25123185 -0.045156818 -0.052005816 -0.97358185 -0.058505047 0.22071594 0.0020661284
0.44204363 -0.043943316 -0.053919978 -0.97995377 -0.012721057 -0.19881842 0.0006726947
0.49788088 -0.048873998 -0.056947052 -0.9521215 -0.009775579 0.30556357 0.0087068779
0.5 -0.047684014 -0.051210761 -0.98281533 -0.027125815 0.18258774 0.0073513505
-0.48275578 -0.030218851 -0.05767725 0.97124666 0.23653542 0.027033295 0.003811053
-0.41929817 -0.031154731 -0.055813976 0.94404978 0.20796815 -0.25596726 0.0021325555
-0.35514402 -0.039717935 -0.058612771 0.94345045 -0.012920144 -0.33126178 0.0050655412
-0.26524365 -0.030256674 -0.051351126 0.18098287 0.091030531 0.97926438 0.1623794
-0.24260305 -0.036463376 -0.05135113 0.79269856 0.24219047 0.55943972 0.15056747
-0.23434305 -0.03168799 -0.051351126 0.72049558 -0.0066424115 0.69342768 0.18454729
-0.22477636 -0.035340134 -0.051351126 -0.18586637 0.0042739068 0.98256576 0.17209896
-0.20337957 -0.036108725 -0.05135113 0.17687677 0.35041785 -0.91974014 0.22883479
-0.19637153 -0.033346187 -0.054503258 -0.10774015 -0.17052826 0.97944486 0.2635358
-0.18543668 -0.038210835 -0.051351126 0.38122955 0.064051107 0.92225891 0.17401996
-0.16851568 -0.034540236 -0.057742435 0.41218379 -0.20765421 0.88712126 0.16843827
-0.14120816 -0.030854162 -0.057430461 0.0023340727 0.99088687 -0.13467717 0.20436299
-0.13396861 -0.034056947 -0.055120226 0.0809111 0.99490422 0.060158432 0.12872848
-0.12737417 -0.034056947 -0.051852457 0.18228669 0.9810369 0.065865085 0.078291066
-0.117384 -0.034056947 -0.055020291 0.079792619 0.99679351 0.0059930398 0.0091777518
-0.10448332 -0.034056947 -0.056497574 5.6031108e-06 1 5.2623009e-06 0
-0.084329441 -0.034056947 -0.056325011 1.9421336e-06 1 1.1112994e-06 0
-0.075312272 -0.034056947 -0.054841395 -0.033430494 0.99509174 -0.093139514 0.012355566
-0.060989272 -0.034056947 -0.05840984 -0.018973192 0.98579669 -0.16686754 0.037928466
-0.050153654 -0.034056947 -0.054265477 0.014427138 0.93200338 -0.36216238 0.075616553
-0.044029556 -0.034056947 -0.051011231 -0.010246351 0.91139591 -0.41140312 0.086641014
-0.031640112 -0.034056947 -0.053287685 -0.057455093 0.86743283 -0.49422586 0.109153
-0.012479102 -0.034056947 -0.055405699 0.024748608 -0.83492249 0.54981089 0.1222002
-0.0057226866 -0.034056947 -0.056426935 0.086119197 -0.78159648 0.61781096 0.18735646
0.007688574 -0.034056947 -0.056286294 -0.028279141 -0.58424789 0.81108236 0.18340306
0.016064219 -0.034056947 -0.054798875 -0.1750989 -0.16656314 0.97035927 0.15499759
0.024096021 -0.034056947 -0.052843682 -0.30254003 -0.26252204 0.91627055 0.22074044
0.03807595 -0.034056947 -0.058556497 0.34742635 0.89996171 -0.26337007 0.20972157
0.049556531 -0.034056947 -0.058548011 0.0064826007 0.97127354 -0.23787746 0.2098629
0.057032961 -0.034056947 -0.05747347 -0.11403544 0.92656666 -0.35842738 0.21276215
0.06605088 -0.034056947 -0.056754727 -0.26324508 0.94617659 -0.18828714 0.15547867
0.080596082 -0.034056947 -0.056222539 0.098848164 0.96714664 -0.23421466 0.063293695
0.097058855 -0.034056947 -0.052464534 0.064569011 0.98655868 -0.15010895 0.077400088
0.10247618 -0.034056947 -0.057314496 -0.0012264019 0.98908985 -0.14730866 0.062810309
0.11589028 -0.034056947 -0.055468336 -0.015050684 0.99235964 -0.12245695 0.041068405
0.12635413 -0.034056947 -0.057167377 -0.16557595 0.9711116 -0.1718335 0.052818365
0.13492888 -0.034056947 -0.056055836 -0.14742801 0.96158081 -0.23157577 0.087967955
0.14063908 -0.034056947 -0.055778008 -0.078756005 0.95957339 -0.27021539 0.10032747
0.16938123 -0.034056947 -0.053557776 -0.44969305 -0.8582589 0.24732122 0.22206087
0.17647083 -0.034487415 -0.054187853 -0.60174382 -0.79694754 -0.052716006 0.24985848
0.19592172 -0.034056947 -0.05542304 -0.20739473 0.93203235 -0.29715851 0.13571678
0.20638816 -0.034056947 -0.054701429 -0.36275434 0.89862192 -0.24675478 0.086189844
0.2488374 -0.035225179 -0.05771197 -0.98388875 -0.046804931 0.1725464 0.0026472183
0.44200972 -0.032958239 -0.054303825 -0.97849518 -0.0060210763 -0.20618182 0.0016409077
0.49720263 -0.035365999 -0.058041032 -0.93796676 -0.020589845 0.34611326 0.0072395871
0.5 -0.037887968 -0.051964417 -0.97577959 -0.016531011 0.21813032 0.0076627675
-0.42077127 -0.02634389 -0.056837812 0.95006925 0.20010392 -0.23943031 0.0024678085
-0.35549474 -0.029518574 -0.05945937 0.95248681 -0.013645865 -0.30427414 0.0039530662
-0.27333155 -0.025344901 -0.05135113 0.82563263 0.0078557739 0.56415343 0.072247624
-0.26457083 -0.022093816 -0.051351126 0.25322011 0.17323914 0.95177084 0.13908568
-0.25534895 -0.025327468 -0.05135113 0.28253087 0.11236791 0.952654 0.13341807
-0.24298285 -0.023687115 -0.05135113 0.61395073 0.19191651 0.76565826 0.18039256
-0.23521456 -0.024438012 -0.052537847 0.59349573 0.14013538 0.79254329 0.18505993
-0.22358391 -0.026303558 -0.051351126 0.3600961 -0.077204198 -0.92971522 0.19162296
-0.2119689 -0.024493763 -0.051351126 0.28936651 0.19169995 -0.93782628 0.15423182
-0.20672137 -0.024184078 -0.051351126 -0.12015505 -0.28411204 0.95123243 0.18035534
-0.18430126 -0.024696613 -0.051174305 0.40350178 0.0080086505 0.91494375 0.15936349
-0.17748141 -0.027907839 -0.050868545 0.20887731 -0.035644367 0.97729206 0.14225337
0.02316444 -0.026195485 -0.054781705 0.0024074975 -0.73716623 0.67570722 0.15000957
0.034639582 -0.020760344 -0.055686824 -0.27255142 -0.70842654 0.6510359 0.17534323
0.14420789 -0.021260219 -0.055686824 -0.1733328 0.81274331 -0.55624104 0.14974764
0.15594187 -0.026439071 -0.055686824 -0.06008986 0.87141579 -0.48685071 0.14588638
0.17649633 -0.025809459 -0.0585519 -0.39221343 -0.9189629 0.040936716 0.21578559
0.21678452 -0.02682738 -0.052639872 -0.76591003 0.51730335 -0.38181031 0.1103968
0.4420017 -0.022898773 -0.054770943 -0.97846723 -0.0070648473 -0.20628145 0.00058691931
0.49788004 -0.023662785 -0.056390092 -0.95984286 -0.0014737328 0.28053439 0.0057785115
-0.48637787 -0.016571853 -0.054364428 0.98496163 0.14357866 0.09610346 0.0046234149
-0.27180225 -0.015662607 -0.05135113 0.28900653 0.28792378 0.91300333 0.16713387
-0.26212573 -0.018803978 -0.05135113 0.3467541 0.24741127 0.90473711 0.13329476
-0.25732741 -0.011108892 -0.05135113 0.22302181 0.049824871 0.97353929 0.12585559
-0.24355718 -0.015462928 -0.051351596 0.50157869 0.073506758 0.86198354 0.17598441
-0.23706698 -0.016970513 -0.054031461 0.70537949 0.057486732 0.70649493 0.19843322
-0.21591374 -0.015925223 -0.051351126 0.27028093 -0.065967582 -0.9605189 0.13142376
-0.20229411 -0.01785963 -0.05135113 0.19387318 0.16549487 0.96696669 0.21852957
-0.19426346 -0.013881274 -0.05237801 0.3219403 0.043443918 0.94576269 0.19809352
-0.18335481 -0.01054963 -0.051351126 0.30479336 -0.057620615 0.95067394 0.18142869
-0.17015475 -0.017800737 -0.055955797 0.55022037 -0.049854498 0.83352995 0.19495043
-0.16984361 -0.016129732 -0.056294926 0.5506047 -0.082235165 0.83070564 0.22397423
0.018212909 -0.012861125 -0.055686824 0.017514298 -0.30846763 0.95107359 0.15373187
0.02411402 -0.01791979 -0.055686824 -0.29227483 -0.42171308 0.8583318 0.16247466
0.037555948 -0.01775172 -0.054535992 -0.40584165 -0.55447412 0.72653359 0.17518742
0.14867756 -0.019259397 -0.055686824 -0.23083247 0.77138704 -0.59302485 0.12969761
0.15197422 -0.014298451 -0.055686824 -0.35340497 0.6967997 -0.62415963 0.14142081
0.17651445 -0.011515912 -0.052689537 -0.96978396 0.093451828 0.22535692 0.23944859
0.21678452 -0.016008297 -0.054990128 -0.91666287 0.25977948 -0.30371663 0.077980459
0.24864063 -0.016260719 -0.054042399 -0.97922564 -0.036759652 0.19941413 0.001424383
0.44154254 -0.015304837 -0.052848265 -0.97499704 -6.2014376e-05 -0.22221781 0.0011792709
0.49870101 -0.013598069 -0.054480568 -0.96919352 -0.018147741 0.24563095 0.0068570692
-0.4871501 -0.00023193168 -0.053745266 0.99012989 -0.11384959 0.081738003 0.0054580807
-0.42448205 -0.001801937 -0.057974495 0.96370542 -0.02686793 -0.26561251 0.0053039696
-0.35194391 -0.0038639903 -0.050886873 0.91807991 0.029182104 -0.39531973 0.0052143242
-0.27386928 -0.0077664256 -0.051351123 0.51801139 -0.055801813 0.85355151 0.10275742
-0.26748991 -0.0093397088 -0.051351126 0.1224522 0.072418705 0.98982877 0.11901894
-0.25682569 -0.0046498505 -0.05135113 0.16597769 -0.079112642 0.98295105 0.11721156
-0.24635987 -0.0041735102 -0.051576603 0.35084045 -0.10825493 0.93015689 0.18108296
-0.23436375 -0.0079839602 -0.051351126 0.34573722 0.047228139 0.93714207 0.17506625
-0.22540911 -0.0069759577 -0.05135113 0.36909348 0.0068809716 -0.92936683 0.14658354
-0.20749813 -0.0039211549 -0.051351126 0.26704612 -0.16873525 -0.94879645 0.20186892
-0.19739002 -0.0061894311 -0.051306359 0.074534453 -0.0066357562 0.99719638 0.19993062
-0.18264747 -0.0036896672 -0.051351126 0.31491834 0.17172807 0.9334538 0.14163297
-0.17722593 -0.0066551017 -0.050624065 0.18194337 0.15739177 0.97063088 0.16175549
-0.16684875 -0.0080487682 -0.059559446 0.45795548 0.068748355 0.88631278 0.21504256
-0.14120816 -0.0062582586 -0.05589398 0.97772169 0.20981292 0.006231335 0.15765248
0.023559062 -0.0081592426 -0.05180189 -0.35193303 -0.063322522 0.93388087 0.11975129
0.15601212 -0.0089675738 -0.055686824 -0.51373667 0.27253971 -0.81350899 0.20398103
0.21678452 -0.0038495052 -0.055221099 -0.94018567 0.034361042 -0.33892524 0.075374775
0.24737824 -0.0032822452 -0.056994852 -0.98315394 -0.0052991286 0.18270275 0.0023953177
0.44245037 -0.0040105116 -0.057669938 -0.987073 -0.0071376311 -0.16011257 0.0012815214
0.49749035 -0.0058655366 -0.056850992 -0.96256709 0.005362465 0.27099034 0.0057096053
-0.48580351 0.0061632521 -0.052818276 0.98766422 -0.13899852 0.072102018 0.0045532882
-0.42227525 0.0058324062 -0.05638358 0.94939518 -0.13750075 -0.28238687 0.0031963582
-0.35476485 0.0058182478 -0.057697311 0.94269645 0.0062514367 -0.33359322 0.0021192238
-0.27403778 0.0047420487 -0.050495032 0.61848068 -0.11784349 0.77691346 0.079312004
-0.26874119 0.0061386302 -0.05135113 0.29779026 -0.071935885 0.95191717 0.11218648
-0.25739792 0.0046083224 -0.05135113 0.24986298 -0.12043639 0.96076196 0.14051615
-0.24388011 0.002031805 -0.051351126 0.54273027 -0.026321413 0.83949447 0.17561139
-0.2374084 0.0075979773 -0.051351123 0.5299713 -0.09693303 0.84245735 0.1810232
-0.22178149 0.0058713648 -0.05135113 0.3266083 -0.032700017 -0.94459397 0.12771383
-0.2179215 0.0053423122 -0.051351123 0.32578734 -0.062944077 -0.94334549 0.13120949
-0.20205222 0.0013503339 -0.051351126 -0.074493423 0.090089314 0.9931438 0.17588468
-0.19465901 0.0084967185 -0.055389389 0.17464973 0.097479068 0.97979343 0.17103836
-0.18038738 0.00054879673 -0.050971437 0.32712737 0.14333311 0.93404675 0.12868743
-0.1712051 0.005801185 -0.054810897 0.22026268 0.091696486 0.97112107 0.1961191
-0.16837034 0.0014347171 -0.057900872 0.33067393 0.13509312 0.934026 0.21014088
-0.14120816 0.0090395175 -0.050251249 0.97345632 -0.090886302 -0.21005364 0.13386939
0.024838887 0.00858845 -0.053102247 -0.39833841 0.046915982 0.91603792 0.11993784
0.031220026 0.0088048689 -0.052943774 -0.43045297 0.066389292 0.90016812 0.11479038
0.17653498 0.0046819495 -0.05556494 -0.99186271 -0.09946581 0.079466328 0.23132029
0.21678451 0.003215156 -0.052776925 -0.95013237 0.011946234 -0.31161812 0.073574804
0.24769592 0.0052829259 -0.057760336 -0.98283976 0.027836133 0.18234874 0.0022931835
0.25020516 0.008155386 -0.050018579 -0.9678641 0.042031266 0.24793649 0.0011424498
0.44243699 0.0043570679 -0.057208735 -0.98534667 0.0076321959 -0.17039268 0.0012067115
0.49741989 0.0044882041 -0.057210073 -0.94605184 -0.011480181 0.32381189 0.0081873154
-0.48329723 0.015782297 -0.056231834 0.97254288 -0.22304231 0.066426694 0.0016584371
-0.42072266 0.012710472 -0.05624719 0.94249505 -0.1842265 -0.27886143 0.0017842973
-0.2640917 0.019465655 -0.051351126 0.28519791 -0.030235946 0.9579916 0.13593546
-0.25456321 0.011319526 -0.05135113 0.35550526 -0.16940907 0.91919345 0.16937922
-0.2461828 0.015689343 -0.05135113 0.49587488 -0.19574581 0.84604466 0.20313245
-0.2353954 0.012480609 -0.05135113 0.51850736 -0.068871774 0.85229504 0.17094117
-0.22538096 0.013785176 -0.05135113 0.3292672 -0.15979436 -0.93061745 0.19181128
-0.21424104 0.018212333 -0.051351119 -0.12387026 0.029057359 0.99187291 0.15542355
-0.20357168 0.012083834 -0.051351123 0.23788749 0.080074407 0.9679864 0.23510608
-0.16733156 0.015705125 -0.05903317 0.22194242 0.24502248 0.94377196 0.19656427
-0.14120816 0.011972817 -0.053422198 0.92447221 -0.34213614 -0.16820848 0.15235303
0.017170141 0.016019193 -0.054979295 0.1024932 0.21570252 0.97106522 0.15584449
0.028788116 0.019275725 -0.055686824 -0.30543014 0.4803386 0.8221845 0.15871613
0.036151126 0.015046213 -0.054390855 -0.4698154 0.4727954 0.74547839 0.1502284
0.14497992 0.018105127 -0.055686824 -0.23961283 -0.66038203 -0.71167487 0.17945468
0.15542649 0.019438326 -0.055686824 -0.36158022 -0.67556447 -0.64255142 0.19125856
0.1765483 0.015164358 -0.056673322 -0.97398025 0.19212838 -0.12020457 0.21765366
0.21678452 0.015658904 -0.059168965 -0.97900504 -0.14972155 -0.13832086 0.04958098
0.24771927 0.011761914 -0.059061512 -0.98388612 0.048853073 0.17199279 0.0027506712
0.25021112 0.010851629 -0.050572656 -0.97003609 0.052798092 0.2371549 0.0014487073
0.44179994 0.018379157 -0.053349197 -0.98107558 0.012094662 -0.19324684 0.00042618203
0.49872249 0.016730277 -0.05478844 -0.96204096 0.014692316 0.27250925 0.0077124755
-0.48224151 0.022238748 -0.05225848 0.97155374 -0.22057295 0.086202607 0.00018690973
-0.41577011 0.027487678 -0.051139947 0.92633706 -0.20591705 -0.31543282 0.0011392327
-0.3544575 0.027887456 -0.056955248 0.92964208 -0.014045269 -0.36819607 0.0031143369
-0.26046988 0.026644502 -0.05135113 0.16659573 -0.031885635 0.98550963 0.10861872
-0.25678429 0.026410056 -0.05135113 0.23532248 -0.066501774 0.96963954 0.13756211
-0.24648298 0.023588385 -0.05135113 0.4956578 -0.047285859 0.8672297 0.18283285
-0.23293544 0.026069049 -0.05135113 0.35940021 -0.034488361 0.93254602 0.19557981
-0.2048806 0.029331964 -0.05135113 0.10545067 -0.017066896 0.99427807 0.21810766
-0.19595426 0.023329649 -0.054083727 0.18702896 0.033885263 0.98176986 0.19460692
-0.17510563 0.023091543 -0.052132692 0.048219956 -0.057310846 0.99719119 0.17685381
-0.16825774 0.024581874 -0.058023609 0.30496433 -0.15575819 0.93954033 0.19011654
-0.14120814 0.026624966 -0.05832909 0.17308672 -0.98490536 0.0015708592 0.20764129
0.016194195 0.021621827 -0.055490315 0.31376889 0.65006423 0.69207346 0.15381993
0.024707558 0.025794998 -0.054660887 -0.17616938 0.48468956 0.85676157 0.19081503
0.14699855 0.025501885 -0.055686824 -0.058701213 -0.89897865 -0.43404099 0.1243219
0.15530351 0.024551032 -0.055686824 -0.31378248 -0.8324641 -0.45666635 0.15595435
0.17655584 0.021114897 -0.057513736 -0.96512669 0.10228116 -0.24097514 0.26164982
0.24970701 0.025540564 -0.055377018 -0.97454745 0.064380705 0.21473792 0.0015515833
0.25139457 0.028242471 -0.050334372 -0.96887785 0.056204207 0.2410742 0.0015770686
0.44121951 0.027263146 -0.050015979 -0.97127372 0.0049605314 -0.23791318 0.0018995057
0.49832058 0.022975709 -0.055743273 -0.95403194 0.0048455321 0.29966572 0.0056724781
-0.47802532 0.039911136 -0.054726154 0.97614247 -0.21078882 0.052095801 0.0018059076
-0.27065095 0.035785235 -0.051351123 0.60612798 0.0035390209 0.79535931 0.083114222
-0.26284534 0.033489093 -0.05135113 0.19281268 -0.056404438 0.97961313 0.12969713
-0.25267076 0.032551862 -0.051351126 0.27012387 -0.13720386 0.95299953 0.15806428
-0.24601679 0.035856724 -0.051351126 0.55827117 -0.083779164 0.8254177 0.19472161
-0.23438942 0.034801267 -0.052167039 0.42255193 -0.12486628 0.89769608 0.18864384
-0.2290135 0.034178399 -0.051351126 0.24566527 -0.011708 -0.969284 0.21495666
-0.21308404 0.033196893 -0.051351123 0.25397718 0.13752949 -0.95738256 0.22943924
-0.20605153 0.031309977 -0.051351126 0.13992356 -0.14167726 0.97997397 0.21238908
-0.1969967 0.039296627 -0.053032145 0.30636108 -0.066926815 0.94955969 0.2263943
-0.18837003 0.033058394 -0.05135113 0.22072691 0.085956395 0.97154057 0.18537146
-0.17338356 0.03421523 -0.053048529 0.062879346 -0.1195066 0.9908402 0.2116652
-0.1682521 0.034622245 -0.05802976 0.13970737 -0.29445681 0.94539779 0.21508102
-0.14120814 0.030773239 -0.050624471 -0.18415776 -0.9804638 0.069113582 0.20885231
-0.12431855 0.035342574 -0.054523554 0.28149766 -0.95921862 -0.025665829 0.066747382
