# .PCD v0.7 - Point Cloud Data file format
VERSION 0.7
FIELDS x y z normal_x normal_y normal_z curvature
SIZE 4 4 4 4 4 4 4
TYPE F F F F F F F
COUNT 1 1 1 1 1 1 1
WIDTH 579
HEIGHT 1
VIEWPOINT 0 0 0 1 0 0 0
POINTS 579
DATA ascii
-0.22550841 0.34179765 0.051996708 0.92234874 -0.14453374 -0.35830534 0.033312101
0.17827193 0.34086546 0.058021437 0.016669799 -0.030398926 -0.99939877 0.07243219
0.18577957 0.34256014 0.058021437 0.05004777 -0.016964067 -0.99860275 0.075723007
0.19073425 0.34007061 0.058082644 0.071347527 -0.026614152 -0.99709636 0.07707078
0.22466946 0.34504235 0.054090701 -0.82618052 -0.2123135 -0.52187043 0.045620922
-0.22389108 0.3550266 0.052119564 0.92430598 -0.059914954 -0.37691993 0.037021592
0.22240335 0.35594779 0.055730283 -0.8379162 -0.098649822 -0.53680962 0.044796448
-0.22019759 0.36583251 0.058259897 0.75345731 -0.0082829501 -0.65744454 0.053611577
0.21955806 0.36227822 0.059969962 -0.78683692 -0.084372491 -0.61136645 0.041730605
0.22243699 0.36620045 0.05232396 -0.91942799 -0.11179579 -0.37703288 0.033928908
-0.21786255 0.37639835 0.059069477 0.76663178 -0.10523475 -0.63340455 0.049210142
-0.22057533 0.38294208 0.050939478 0.84694511 -0.16468683 -0.50553161 0.034486428
-0.21671267 0.38602224 0.057987582 0.79900301 -0.16858773 -0.5772109 0.048638806
0.21906011 0.38392559 0.054788519 -0.84155345 -0.16464359 -0.51447088 0.04250937
-0.21599968 0.39426112 0.055544119 0.74049455 -0.21570078 -0.63650686 0.045077786
0.21631075 0.39403978 0.05497561 -0.79625481 -0.1670872 -0.58142942 0.05546169
-0.21491593 0.40749422 0.051757086 0.79591471 -0.24375598 -0.55416846 0.04505726
-0.20847872 0.40702218 0.059166536 0.54523575 -0.21380021 -0.81055999 0.042363461
0.20664696 0.40921536 0.059898213 -0.55849296 -0.22850715 -0.7974146 0.059777558
0.21384448 0.40308785 0.055254262 -0.75928479 -0.22456127 -0.61078548 0.055381227
-0.21253288 0.41532648 0.0523265 0.77792561 -0.24942432 -0.57673144 0.058581389
-0.20594281 0.41421834 0.059170626 0.63495082 -0.23429874 -0.73616678 0.040003028
0.12797593 0.41963327 0.05996573 -0.0030579828 -0.12248889 -0.99246514 8.8130488e-05
0.14261675 0.41965431 0.059902869 -0.009817617 -0.12054753 -0.99265903 0.00015290621
0.16968521 0.41613019 0.059619155 0.010746993 -0.11253256 -0.99358994 0.00050181098
0.17045838 0.41524297 0.059310392 0.017900325 -0.11516237 -0.99318534 0.00075752713
0.208582 0.41402808 0.057405483 -0.62418449 -0.19615875 -0.75625092 0.059375327
-0.20565557 0.4264673 0.055649381 0.66299182 -0.21543851 -0.71695751 0.040899266
-0.19621572 0.42488068 0.059423596 0.39527342 -0.16246562 -0.9040817 0.045784798
-0.17366864 0.4247604 0.059003361 -0.047048386 -0.11443771 -0.99231571 0.0014056149
-0.16450821 0.42196858 0.059557091 -0.00083926786 -0.12442197 -0.99222904 0.00040164028
-0.15382679 0.42334557 0.059434306 0.010187203 -0.1267821 -0.99187833 0.00010586052
-0.13480338 0.42420679 0.059410453 0.0052220253 -0.12316503 -0.99237245 5.7873756e-05
-0.12535428 0.42749071 0.059070986 0.0058017317 -0.13608254 -0.99068058 0.00036817649
-0.11416581 0.42753947 0.05911155 -0.00017289449 -0.12648897 -0.99196804 0.000104432
-0.093687445 0.42609572 0.059434846 0.0059785326 -0.14136006 -0.98994017 0.00037385771
-0.065648064 0.42344007 0.059983395 0.011725885 -0.12609042 -0.99194944 0.00012197295
-0.046630356 0.42774007 0.059656613 0.011523898 -0.13434501 -0.99086761 0.00029211884
-0.035554431 0.42941886 0.059561104 0.010933639 -0.14025037 -0.99005574 0.00043403197
-0.020245224 0.42869312 0.059778936 0.0057820529 -0.13627595 -0.99065405 0.00035221913
-0.018125949 0.42831463 0.059841014 0.0065974453 -0.13576916 -0.99071854 0.000310523
0.035886779 0.42877358 0.059632298 -0.0051929518 -0.14233226 -0.98980534 0.0003828292
0.043016188 0.42801204 0.059657123 -0.0074242265 -0.13879949 -0.99029267 0.00036124745
0.051171571 0.42518595 0.059910052 -0.0096389158 -0.12524354 -0.99207914 0.00010344492
0.061727248 0.4254564 0.059786268 -0.008675904 -0.13457096 -0.99086595 0.00024143903
0.07635428 0.42294389 0.059946824 -0.007577138 -0.12271697 -0.99241275 7.3813557e-05
0.097634643 0.42517099 0.059507594 -0.0079035033 -0.13720615 -0.99051106 0.00027968499
0.11507449 0.42350662 0.059572581 -0.0087083187 -0.12469015 -0.99215752 0.00010291753
0.12521702 0.42318127 0.059568211 -0.0056040226 -0.12491342 -0.99215186 9.8272845e-05
0.13113315 0.42506665 0.0593265 -0.0014819304 -0.13393301 -0.99098927 0.00026806293
0.14855117 0.42435494 0.059337839 -0.010064953 -0.13177948 -0.99122792 0.00033142575
0.15590048 0.4229911 0.059468724 -0.0095903017 -0.12350825 -0.99229723 0.00022820535
0.1601548 0.42534488 0.059180733 -0.0070909765 -0.13496715 -0.9908247 0.00043152695
0.17577784 0.4267368 0.058952201 0.030793745 -0.1184269 -0.99248517 0.0016160635
0.18205552 0.4226234 0.0594039 0.020584319 -0.10485502 -0.9942745 0.0028787134
0.19594052 0.42490625 0.059278779 -0.17196207 -0.20123895 -0.96432978 0.036974814
0.2027296 0.42330551 0.059269764 -0.49414665 -0.17506593 -0.85156971 0.063725866
-0.20556422 0.43523857 0.053843409 0.7644006 -0.30179676 -0.56974602 0.024328154
-0.1961332 0.43338385 0.059702665 0.48732463 -0.27269062 -0.82955074 0.045767907
-0.16426061 0.43258676 0.058327138 -0.025761275 -0.1598575 -0.98680389 0.0025804464
-0.15955873 0.43190336 0.058422562 0.0077607408 -0.1652804 -0.98621607 0.0010425881
-0.1404397 0.43670297 0.057947002 0.010079449 -0.17627506 -0.98428935 0.00085694826
-0.13541161 0.43504116 0.058159277 0.010618825 -0.17296229 -0.98487121 0.00080347806
-0.12332268 0.4341785 0.058308601 0.0034994269 -0.16033186 -0.98705697 0.00090826931
-0.1134941 0.43436623 0.058327541 -0.0023904827 -0.17076667 -0.98530865 0.00091091264
-0.1059392 0.43804184 0.057953052 0.0044226092 -0.18488994 -0.98274928 0.0010276458
-0.08098302 0.43761641 0.05822058 0.0064400975 -0.18816905 -0.98211557 0.0010992457
-0.072746314 0.43673149 0.058394562 0.012165261 -0.17212425 -0.98500007 0.00080561591
-0.062157258 0.43174717 0.059060019 0.011619743 -0.14476401 -0.989398 0.00047974347
-0.055874366 0.43332198 0.058934342 0.0087450482 -0.15046261 -0.98857701 0.00049253536
-0.044303924 0.43813303 0.058483452 0.0042007831 -0.18231545 -0.98323113 0.00087515952
-0.038043763 0.43398592 0.059014723 0.011762002 -0.16516228 -0.98619622 0.00084328285
-0.024886526 0.43469223 0.059049189 0.012266565 -0.16279705 -0.98658329 0.00072331663
-0.012563381 0.43545446 0.059069891 0.0082706269 -0.17732151 -0.98411822 0.00078315189
-0.0039632278 0.43356586 0.059362341 0.0011958079 -0.16074117 -0.98699588 0.00069432618
0.0033013704 0.43365937 0.059357416 -0.0056184079 -0.16160053 -0.98684025 0.00057554041
0.013864507 0.4340179 0.059223451 -0.0062770164 -0.15826912 -0.98737603 0.00047781362
0.025161212 0.43524083 0.058983762 -0.011063189 -0.15895735 -0.98722339 0.00042073053
0.038171303 0.43988422 0.058336198 -0.0096141677 -0.18198189 -0.98325491 0.00077668065
0.056167074 0.43627495 0.058592632 -0.0085138455 -0.17534035 -0.98447102 0.00070679816
0.062383246 0.43686968 0.05846972 -0.0078759883 -0.17770204 -0.98405284 0.00085505081
0.074502409 0.43156025 0.058973037 -0.012300167 -0.1483662 -0.98885602 0.00042199192
0.089776345 0.43034601 0.05897852 -0.010879712 -0.14706862 -0.98906642 0.00038541562
0.092549399 0.43410149 0.058522932 -0.0069420952 -0.16089931 -0.98694646 0.00076583656
0.10436316 0.4352231 0.058291655 -0.0073374938 -0.17065842 -0.98530287 0.0006774395
0.1161481 0.43432468 0.058321372 0.00028891829 -0.16074969 -0.98699516 0.00064624276
0.12437034 0.43375307 0.058353305 -0.0004305375 -0.16579401 -0.98616028 0.00065037422
0.13301465 0.43450463 0.058231004 -0.0041891686 -0.17664684 -0.98426533 0.00075282168
0.14494455 0.43456468 0.058174849 -0.0022068592 -0.17001142 -0.98543966 0.00077094435
0.15278053 0.43618214 0.057956081 -0.012499825 -0.17290625 -0.98485893 0.00096694619
0.16509445 0.43476748 0.058071483 0.024407854 -0.1668611 -0.98567826 0.0026377619
0.17651784 0.43282941 0.058241826 0.024546335 -0.16543047 -0.98591596 0.0024614702
0.19663534 0.43056229 0.059324868 -0.28296536 -0.26304832 -0.92235363 0.02876568
0.20710012 0.43825033 0.05109898 -0.82367176 -0.23289034 -0.5170368 0.025562108
-0.20167761 0.44655821 0.052853443 0.70462644 -0.33486316 -0.62559438 0.031830218
-0.19471665 0.44380903 0.057352606 0.45935819 -0.27506891 -0.84458697 0.055060018
-0.17119543 0.44669735 0.055773973 -0.050373442 -0.24169666 -0.96904349 0.0031863225
-0.16502027 0.44702053 0.055711281 -0.038422864 -0.26281297 -0.96408147 0.0054269806
-0.15543139 0.44448161 0.056467097 0.020399816 -0.22337587 -0.9745189 0.0010612954
-0.14441876 0.44607887 0.056070227 0.0035336537 -0.23562206 -0.97183836 0.00091017009
-0.1338674 0.44475365 0.056493357 0.010729847 -0.22483717 -0.97433728 0.00066354958
-0.12584662 0.4425157 0.057148855 -0.00079711369 -0.21763611 -0.97602969 0.0010711309
-0.1122711 0.44332507 0.056901924 0.0065506576 -0.21229798 -0.97718298 0.00095953973
-0.10565224 0.44756949 0.055822473 0.017356209 -0.26806173 -0.96324539 0.0026675272
-0.093879715 0.44609565 0.056350566 0.015427851 -0.23659487 -0.97148591 0.00050219562
-0.084203951 0.44489953 0.056780215 0.0041738884 -0.20832723 -0.97805023 0.001085562
-0.07737194 0.44811219 0.055914525 0.0015511082 -0.2492089 -0.96844852 0.0023931924
-0.066674255 0.4435128 0.057333793 -0.0022773277 -0.20621702 -0.97850358 0.0010089458
-0.056088641 0.44710362 0.056392089 0.0001545101 -0.25479952 -0.96699387 0.0023508172
-0.035253484 0.44642314 0.056771193 0.0081743645 -0.21752521 -0.97602046 0.000766135
-0.021198599 0.44284999 0.057924252 0.010094553 -0.20464733 -0.97878373 0.00077796716
-0.011570316 0.44387531 0.057713106 0.0064986111 -0.20071414 -0.97962826 0.00076261541
-0.0019627721 0.44700548 0.056893088 0.0053689252 -0.21843167 -0.97583747 0.0012023362
0.0060677161 0.44301152 0.057963777 0.0015581615 -0.20945069 -0.97781795 0.0014061575
0.010795275 0.44441986 0.057563242 0.0010362009 -0.21329279 -0.97698778 0.0013398688
0.025551436 0.44188279 0.058099549 -0.023462102 -0.19983026 -0.97954959 0.0010139244
0.030826757 0.44800639 0.056353878 -0.01304298 -0.22600928 -0.97403789 0.0016549011
0.042714261 0.44685984 0.056579825 -0.013016122 -0.22784545 -0.97361022 0.0023857346
0.05975363 0.44721299 0.05632839 -0.013893995 -0.23246759 -0.97250491 0.0024175006
0.064291671 0.44425562 0.057140671 -0.010344241 -0.19526896 -0.98069513 0.00084568502
0.076728657 0.44330409 0.057305604 -0.010202005 -0.19677907 -0.98039478 0.0008500478
0.085447542 0.44348481 0.05717694 -0.0084646232 -0.1948242 -0.98080164 0.00082569831
0.11438109 0.4429509 0.057069637 -0.012572409 -0.18868047 -0.98195803 0.00074021309
0.12483127 0.44752491 0.055734195 0.0052555045 -0.2262636 -0.97405201 0.0025651266
0.1339585 0.44536072 0.056274187 -0.01023827 -0.20127426 -0.97948134 0.00128593
0.14460622 0.44635925 0.05590485 -0.0059947874 -0.22015855 -0.97544569 0.0010278494
0.15414639 0.44159383 0.057202302 -0.014179062 -0.19865911 -0.9799661 0.00090657361
0.16668479 0.44571224 0.055586409 0.025797997 -0.22122991 -0.97488034 0.0017377653
0.17253333 0.44407114 0.056525558 0.02449223 -0.2032982 -0.97881049 0.0021995162
0.19262603 0.4455643 0.058005601 -0.24323291 -0.28317913 -0.92771083 0.031049905
0.20274428 0.44657373 0.052061632 -0.78019643 -0.31726661 -0.53910619 0.021483993
-0.19243462 0.45414716 0.055462711 0.36955026 -0.38495409 -0.84572035 0.048207536
-0.18637101 0.45522857 0.054653965 0.31631574 -0.43074223 -0.8452251 0.045129728
-0.17573106 0.45501971 0.053384691 0.0033915697 -0.40892652 -0.912561 0.025513036
-0.16468962 0.45912397 0.0517864 -0.045811176 -0.45128304 -0.89120424 0.028877648
-0.15432836 0.45636106 0.053062916 0.031506505 -0.39401904 -0.91856217 0.022527939
-0.14309077 0.45912647 0.052311659 0.021384709 -0.41394228 -0.91005194 0.018897198
-0.13620393 0.4574618 0.052821003 -0.0076017822 -0.42199981 -0.906564 0.023823235
-0.12736706 0.45581961 0.053332284 -0.015587144 -0.35742217 -0.93381286 0.016829021
-0.11789982 0.45739162 0.052920125 -0.0053904513 -0.42815751 -0.90368801 0.024368953
-0.1050755 0.455854 0.053440385 0.0073862895 -0.42446175 -0.90541577 0.021513117
-0.09434139 0.45436528 0.053963657 -0.00062169274 -0.36556676 -0.93078488 0.013418372
-0.083734132 0.45344362 0.054322403 0.015877668 -0.34594819 -0.93811923 0.0092136096
-0.067663141 0.45379573 0.054362118 -0.03773585 -0.36814865 -0.92900085 0.012648208
-0.054183178 0.45505214 0.054118015 0.035763141 -0.3527073 -0.93505007 0.013012492
-0.034578986 0.45672315 0.053805709 -0.060489554 -0.50567937 -0.86059827 0.085238665
-0.024305893 0.45973176 0.053025894 0.10751358 -0.56398314 -0.81875747 0.079292178
-0.014093849 0.45584226 0.054237042 0.027969355 -0.37052473 -0.92840141 0.019161176
-0.0014159119 0.4562906 0.054217175 -0.033884548 -0.42676145 -0.9037292 0.046748403
0.0050700158 0.45239264 0.05531095 -0.0065099737 -0.2879191 -0.9576326 0.0038968602
0.014911617 0.45346379 0.054916654 -0.0050030439 -0.32987434 -0.94401157 0.012275836
0.023629764 0.45209563 0.05523631 -0.020561736 -0.28645146 -0.95787412 0.0042424332
0.0349443 0.4550589 0.054282926 0.0035605722 -0.34745589 -0.93768954 0.014103564
0.046167713 0.45765439 0.053436723 -0.064605124 -0.55556947 -0.82895643 0.062384848
0.055940155 0.45594677 0.053844724 -0.012460679 -0.46861848 -0.88331276 0.048960213
0.062996857 0.45356235 0.054470357 -0.032958981 -0.33875978 -0.94029546 0.0093716402
0.08582633 0.45477805 0.05391952 -0.0014088929 -0.35674131 -0.93420213 0.0089629535
0.09150818 0.45058525 0.05507775 -0.014676138 -0.29147527 -0.95646572 0.0038224887
0.10530016 0.45280209 0.054317813 0.0038770814 -0.33904943 -0.94076055 0.011667737
0.11599273 0.45463881 0.053721562 0.0018821924 -0.42407715 -0.90562415 0.016481275
0.12701656 0.45375848 0.053927839 0.014686988 -0.33667302 -0.9415071 0.0090756938
0.14480312 0.45437273 0.053675875 0.011541576 -0.35087326 -0.93635184 0.010270108
0.15375811 0.45307398 0.054013588 -0.004633456 -0.32756528 -0.94481719 0.014276295
0.16849615 0.45814571 0.051942095 0.035750613 -0.36094645 -0.93190104 0.015717879
0.17187631 0.45328465 0.053870291 0.020673908 -0.34829494 -0.93715698 0.015767911
0.184774 0.45727277 0.054327954 -0.23603347 -0.40771797 -0.88207376 0.036742661
0.19386925 0.45664889 0.052645572 -0.39178368 -0.42023009 -0.81848156 0.054850493
-0.19071366 0.46006703 0.053002466 0.34488529 -0.49447477 -0.79784012 0.045387231
-0.18543911 0.46543977 0.052609794 0.18806529 -0.63295597 -0.75099814 0.052544225
-0.1642521 0.46131155 0.051302508 -0.042302411 -0.48582199 -0.87303352 0.026597952
-0.15546717 0.46537709 0.050457552 0.025364494 -0.72724378 -0.6859104 0.071640745
-0.14559664 0.46464527 0.050710641 0.021715144 -0.65161562 -0.75823843 0.059928276
-0.12404269 0.46565828 0.050511651 -0.073550276 -0.72115904 -0.68885422 0.090939507
-0.11572623 0.46302333 0.051306732 -0.059351385 -0.67706656 -0.73352456 0.088215165
-0.10670301 0.46401918 0.051073343 -0.05113136 -0.71846104 -0.69368535 0.095614873
-0.093877666 0.46616107 0.050568517 -0.016294461 -0.75727212 -0.65289623 0.097238205
-0.083330162 0.46634105 0.050607711 0.007421508 -0.72234893 -0.69148892 0.095563851
-0.073322654 0.46532243 0.050988276 0.01234632 -0.63297033 -0.77407753 0.07787396
-0.043700937 0.46473676 0.051413331 0.050566912 -0.77279282 -0.63264072 0.091011316
-0.034308873 0.46289754 0.052025482 0.037642494 -0.69428879 -0.71871144 0.10180601
-0.0274627 0.46418858 0.051711917 -0.066403992 -0.77994233 -0.62231874 0.087365687
-0.014880825 0.4628973 0.052193433 -0.050225399 -0.73471522 -0.67651385 0.092986681
-0.0021151644 0.46508011 0.051673569 0.034655608 -0.72287303 -0.69011128 0.085587062
0.0057964665 0.466232 0.051309198 0.065336682 -0.77728379 -0.62574834 0.097807325
0.021768291 0.46873307 0.050449111 0.023642899 -0.79304892 -0.60869896 0.10160775
0.039191183 0.46745387 0.050667871 -0.0049904441 -0.71881747 -0.69518095 0.0824873
0.055774603 0.46467185 0.051327731 -0.03814223 -0.67414111 -0.73761702 0.089292161
0.064174719 0.46439523 0.051335007 -0.082402818 -0.7301051 -0.67834812 0.10307141
0.074181817 0.46428657 0.051279902 -0.033001747 -0.73768312 -0.67434007 0.081524216
0.083323352 0.46515644 0.050949577 0.024302876 -0.76240015 -0.64664936 0.075098298
0.098804995 0.46187511 0.051760525 0.026105756 -0.56511772 -0.82459718 0.056610059
0.10817483 0.46078429 0.051992536 -0.033417165 -0.5642063 -0.82495731 0.060024958
0.12794991 0.46224922 0.051477108 -0.0038482572 -0.58601266 -0.81029272 0.066637278
0.13788255 0.46225879 0.051431537 -0.011027306 -0.59144008 -0.80627352 0.076372869
0.14874361 0.46164173 0.05156254 0.041963592 -0.53510118 -0.84374511 0.050837263
0.15518075 0.46222454 0.051367961 0.032340236 -0.53618741 -0.84347922 0.045466427
0.16208799 0.46500304 0.050537676 0.080352783 -0.66828167 -0.73955601 0.05672409
0.17372307 0.46153784 0.051480614 -0.033426818 -0.47338623 -0.88022047 0.03713103
0.1875695 0.46458617 0.052448846 -0.26648602 -0.57090908 -0.77656174 0.053333074
0.19228971 0.46087801 0.052097186 -0.41995355 -0.48526996 -0.76691073 0.058624431
-0.18728182 0.47087318 0.050580405 0.17763154 -0.72727132 -0.66296577 0.05900326
0.17858145 0.47030836 0.050483584 -0.13580857 -0.67651552 -0.7237975 0.059381515
0.18669862 0.47002846 0.050095052 -0.26818636 -0.76154864 -0.59001666 0.050459806
-0.23318982 -0.28625429 0.064589456 0.22793931 0.97248298 -0.048172735 0.15475711
-0.2230314 -0.28739345 0.065339625 -0.060907129 0.44506997 -0.89342213 0.24182075
-0.21647072 -0.28662589 0.063471243 0.071419388 0.19823678 -0.97754866 0.17120655
-0.2076923 -0.28257063 0.06061653 -0.067605458 0.035299804 -0.99708748 0.14629674
0.21342877 -0.28445598 0.066146597 0.017645892 0.28280565 -0.95901495 0.19282599
0.22406961 -0.28696245 0.066192612 -0.31932163 0.78084373 -0.5369513 0.1742329
0.23233038 -0.28325546 0.067914307 -0.019865464 0.99787265 -0.062092863 0.1067927
-0.23429716 -0.27723756 0.063288704 -0.091793507 0.90918928 0.40613881 0.21243344
-0.22731273 -0.27878746 0.065741688 0.24360363 0.84441817 0.47709054 0.23607676
-0.21343425 -0.27902842 0.061422344 -0.022187212 -0.16204202 -0.98653442 0.15247658
0.20765889 -0.27963015 0.06055868 0.094422087 0.08988037 -0.99146658 0.14456846
0.21551219 -0.27835864 0.065649107 0.09113612 0.03851727 -0.99509323 0.25093466
0.22522862 -0.27896386 0.064342529 0.26642096 0.91544354 -0.30163375 0.26199389
0.2325702 -0.27813298 0.062730223 0.26635283 0.95829946 -0.10352959 0.26770291
-0.11180182 -0.14501409 0.061802819 0.032885075 0.26118025 -0.96472979 0.04511337
-0.10532315 -0.14571819 0.062543139 0.018292664 0.24024497 -0.97053987 0.046345171
-0.089365229 -0.14345188 0.066194415 0.22279115 0.38141382 -0.89715523 0.11559189
0.0022770255 -0.1454677 0.060766328 -0.096806109 0.469477 -0.87762171 0.10905808
0.012718357 -0.14598471 0.062753618 0.013357026 0.46725661 -0.88402086 0.099172086
0.024428636 -0.14237489 0.064683877 0.10358562 0.48280779 -0.86957842 0.11866256
0.03489849 -0.14403613 0.068613097 0.20058821 0.53045714 -0.8236379 0.13298149
0.044199318 -0.14136839 0.069667235 0.078600563 0.62461108 -0.77697039 0.16862005
-0.12561348 -0.13105728 0.064294651 0.066002563 0.40795094 -0.91061503 0.11813924
-0.10519724 -0.13359345 0.060742058 -0.011403303 0.25707099 -0.96632522 0.083794586
-0.091878295 -0.13215476 0.065481931 0.21489742 0.30523491 -0.92771262 0.18412693
-0.082373261 -0.13263884 0.063885637 0.25133401 0.20496659 -0.94594926 0.1896821
-0.077263139 -0.13178499 0.06671235 0.28183675 0.083081499 -0.95585853 0.23329104
-0.066564821 -0.13120538 0.067928836 0.14302412 0.052992705 -0.98829943 0.24901336
-0.057757754 -0.13149714 0.066711783 -0.00055528531 0.17212725 -0.98507458 0.24328236
-0.045841057 -0.13326912 0.061809201 -0.014750684 0.38487518 -0.92285079 0.23798713
-0.038020443 -0.13170131 0.066514336 0.043459561 0.26074046 -0.96443021 0.25945663
-0.014056938 -0.1317461 0.066829368 -0.038748816 0.36541319 -0.93003851 0.22850357
-0.0050198347 -0.13184592 0.066175722 -0.19877431 0.40291739 -0.89339036 0.19082834
0.0045983521 -0.13151009 0.067621052 -0.046449412 0.4735707 -0.87953013 0.16471183
0.014463482 -0.13272634 0.063599639 0.059802003 0.37121865 -0.92661768 0.16278119
0.02337876 -0.13223141 0.065250732 0.13224669 0.49733713 -0.8574186 0.1601948
0.03193422 -0.13123907 0.068576083 0.17026581 0.59763509 -0.78348058 0.19525951
0.04444503 -0.13231808 0.064972103 0.19194411 0.35698619 -0.91417629 0.25146246
0.054346945 -0.13251883 0.064297341 0.0022500481 0.61668789 -0.78720456 0.21449165
0.068243466 -0.13244985 0.064504765 -0.24349506 0.45778143 -0.85507089 0.23111399
0.074741043 -0.13013886 0.06901779 -0.27965662 0.82515877 -0.49082083 0.24220195
0.082668751 -0.13335055 0.061541282 -0.24726517 0.21369137 -0.94509041 0.26027638
0.092967652 -0.13376848 0.060166165 -0.033574671 0.23576276 -0.97123051 0.25302905
0.10796039 -0.13263203 0.063905336 0.039780591 0.35847691 -0.93269068 0.22040345
0.11829931 -0.13305011 0.062412634 -0.03706323 0.48701999 -0.87260401 0.20268787
0.12794086 -0.13062994 0.064169332 -0.25864002 0.4641763 -0.84713972 0.20347513
0.13394012 -0.13021377 0.061822619 -0.20315968 0.26145688 -0.94359231 0.20685621
-0.16237153 -0.12144958 0.060599785 0.10297327 0.19459249 -0.97546417 0.19715713
-0.15505441 -0.12490875 0.062314365 0.2654815 0.2349779 -0.9350428 0.18041474
-0.14611609 -0.12380829 0.06632904 0.2240269 0.71835089 -0.65862274 0.20755695
-0.13661483 -0.12301426 0.066761345 0.14191075 0.63482493 -0.75951207 0.18996073
-0.12643467 -0.12372392 0.066707812 0.1220297 0.6754275 -0.72725958 0.15122584
-0.11517829 -0.12696676 0.066016249 -0.040207744 0.44696483 -0.89364749 0.15618816
-0.10633551 -0.12428685 0.064321972 0.029606367 0.50472623 -0.86277157 0.18056835
-0.093034156 -0.12430939 0.064550251 0.033332262 0.25223458 -0.96709198 0.21816397
-0.083823048 -0.12574412 0.068006918 0.22783612 -0.11045451 -0.96741432 0.23634295
-0.075227015 -0.12509961 0.064574145 0.28202647 -0.44369626 -0.85064375 0.26104507
-0.064362638 -0.12638496 0.066553421 -0.075208932 0.51636499 0.85305971 0.24386223
-0.05317631 -0.12463368 0.063065194 0.00096589141 0.51721019 0.85585785 0.18961161
-0.045215756 -0.12489747 0.068026111 -0.066603698 0.74524009 0.66346157 0.24202992
-0.034475125 -0.12568109 0.067446336 -0.1789266 0.87905049 0.44187716 0.24852619
-0.023881044 -0.12628067 0.068809703 -0.10672544 0.91768974 0.38269469 0.25281432
-0.015939174 -0.12647867 0.066964507 -0.14429937 0.22290979 -0.96410006 0.26126865
-0.0034451152 -0.1257638 0.068123601 -0.057874307 0.44084546 -0.8957153 0.24220204
0.01438038 -0.12592527 0.064999506 0.095516339 0.24035449 -0.96597427 0.19477946
0.026670836 -0.12590909 0.068189383 0.21798931 0.69203377 -0.68816417 0.19948956
0.033717703 -0.12688366 0.067046143 0.052563425 0.61320615 -0.78817207 0.24057847
0.04390626 -0.12482365 0.066225223 0.24690945 0.92002994 -0.3042706 0.26084617
0.053290457 -0.12435902 0.064059258 0.083501883 0.58960271 0.80336547 0.22527719
0.065632746 -0.12664726 0.069201954 -0.042402323 0.93857813 0.3424516 0.20145103
0.076454662 -0.12574105 0.065867811 0.031767234 0.86854893 0.4945842 0.21859492
0.084290244 -0.12497608 0.06578844 -0.049690627 0.92059761 0.38733822 0.25204843
0.095030509 -0.12490173 0.064952046 -0.15910159 0.89724964 0.41186133 0.21997719
0.10298757 -0.12519178 0.065271854 -0.059448585 0.93297833 0.35498926 0.21556681
0.11287033 -0.126518 0.066216744 0.10797699 0.98332864 -0.14630696 0.24342081
0.12471113 -0.12397458 0.066554435 -0.2882838 0.81230354 -0.50700629 0.23261122
0.13593781 -0.12530701 0.066938676 -0.30288908 0.84503156 -0.44065842 0.18226592
0.14506143 -0.12573136 0.066366233 -0.16730747 0.6750288 -0.71857101 0.17481934
0.15474261 -0.12523139 0.062822059 -0.16797924 0.38834542 -0.90607435 0.19768481
-0.17150865 -0.11252265 0.06344489 0.4844974 0.51213157 -0.70921332 0.22568828
-0.16579567 -0.11541716 0.065333553 0.41522723 0.77942109 -0.46913666 0.19367054
-0.15579394 -0.11702555 0.065260805 0.26163056 0.76393026 -0.5898813 0.19884028
-0.14513499 -0.11905343 0.068216637 0.23346905 0.84733951 -0.47697788 0.20517649
-0.1263195 -0.11254459 0.061520204 0.086715668 0.16717458 -0.98210645 0.20662306
-0.11157095 -0.11682836 0.060520913 -0.044219356 0.17966069 -0.98273426 0.23613581
-0.10965024 -0.11765163 0.060148664 0.015044725 0.32340172 -0.9461422 0.24393152
-0.097297825 -0.11671875 0.060876612 0.0073593175 0.67391211 -0.7387749 0.23411556
-0.07553266 -0.11331601 0.062186535 0.05743577 -0.40544894 -0.91231143 0.21768446
-0.062629052 -0.11312571 0.06255614 0.060968101 -0.44406745 -0.89391661 0.21322773
-0.050009113 -0.11665538 0.060914166 0.027904632 -0.22040367 -0.97500956 0.15656339
-0.046629492 -0.11455402 0.061847426 0.078952372 -0.23442416 -0.96892315 0.19549081
-0.036881864 -0.11602956 0.06140073 0.013441541 -0.39470646 -0.91870898 0.17543373
-0.024617862 -0.11673775 0.06084602 0.059410561 -0.36694744 -0.92834258 0.16695382
-0.012105322 -0.11438645 0.061921865 -0.046964113 -0.20014063 -0.97864085 0.2042443
-0.00021227129 -0.11450304 0.065476507 0.013825603 -0.37229896 -0.92800993 0.21786028
0.0013292967 -0.11390951 0.066023767 -0.076288879 -0.36573139 -0.92758852 0.2223234
0.13945468 -0.11987677 0.068605065 -0.26510742 0.90105826 -0.34323755 0.21012975
0.14328668 -0.11952625 0.063818671 -0.30056354 0.8665455 -0.39844772 0.23087166
0.15749902 -0.11643696 0.068100348 -0.44216183 0.79525006 -0.41481346 0.15002444
0.16749585 -0.11088022 0.067771174 -0.45478919 0.76098853 -0.46266967 0.16237825
-0.18099137 -0.10294488 0.066741765 0.61563224 0.60067564 -0.51008403 0.19296116
-0.17597851 -0.1030153 0.067922629 0.7393713 0.59731138 -0.31072354 0.16163847
-0.13629508 -0.10221487 0.062435407 0.12017964 -0.21039599 -0.97020113 0.24880737
-0.12459347 -0.10511334 0.062875532 0.048271544 0.01839916 -0.99866474 0.19907068
-0.11399225 -0.1067094 0.062875532 -0.10523304 0.048412621 -0.99326843 0.18128455
-0.10301629 -0.10166772 0.062875532 0.076503068 -0.04589295 -0.99601263 0.20590632
-0.098374955 -0.10431365 0.062875532 -0.11642351 0.020179667 -0.99299467 0.21084847
-0.083024509 -0.10391889 0.062875532 -0.24527943 -0.11465602 -0.96264845 0.18734126
-0.075586326 -0.10477701 0.062875532 0.010924707 -0.24501553 -0.96945763 0.19266832
-0.062799312 -0.10732627 0.062875532 0.27188954 -0.44462398 -0.85345507 0.21995249
-0.056400638 -0.1050241 0.062875539 0.25814623 -0.44088849 -0.85963815 0.20756651
-0.046542011 -0.10929854 0.062875532 0.061644293 -0.28624526 -0.95617127 0.17885673
-0.026639571 -0.10921999 0.062875532 0.018720802 -0.24387689 -0.96962541 0.17097983
-0.012996901 -0.10487925 0.062442735 0.12922652 -0.34397045 -0.93004566 0.16155297
-0.006866158 -0.10191111 0.06023103 0.087466821 -0.33519349 -0.93808043 0.15653758
0.16884845 -0.10838874 0.068913609 -0.46479228 0.80262184 -0.37385321 0.14903072
0.17781435 -0.10390178 0.066851415 -0.69527721 0.50650555 -0.50994283 0.21109128
0.18176627 -0.1031013 0.062871836 -0.59734231 0.30068019 -0.74348742 0.20766267
-0.18345067 -0.093550965 0.064209603 0.74262011 0.57595062 -0.34175456 0.18517911
-0.14043984 -0.093489997 0.060956679 0.19410624 -0.013994617 -0.98088074 0.12327198
-0.13350689 -0.093577899 0.062674992 0.35257256 -0.13845123 -0.92548567 0.13627864
-0.12641747 -0.093684182 0.062875539 0.12396289 0.013893552 -0.99218959 0.064475797
-0.11552777 -0.094034359 0.062875532 0.0083628632 0.055457294 -0.99842602 0.030430853
-0.10491081 -0.096035786 0.062875532 -0.010459674 0.077546231 -0.99693388 0.060960643
-0.095955014 -0.093395211 0.062875532 -0.11477032 0.10551753 -0.98777217 0.03470673
-0.08480797 -0.094519973 0.062875532 -0.30860415 0.0249226 -0.95086408 0.14584602
-0.071564421 -0.092205778 0.062875532 -0.066052042 0.1877913 -0.97998554 0.10567368
-0.063228413 -0.096021339 0.062875532 0.16385163 -0.10460939 -0.98092282 0.17545539
-0.052062068 -0.096989259 0.062875532 0.068478242 -0.25533146 -0.9644255 0.13779081
-0.044219311 -0.094755314 0.062875532 0.0024608835 -0.24315161 -0.96998513 0.14274129
-0.038036101 -0.093275599 0.062875532 -0.034326378 -0.055660043 -0.99785954 0.11358896
-0.024843644 -0.098008305 0.062875532 0.038486313 -0.23452674 -0.97134757 0.13332155
-0.014293853 -0.093155645 0.06254857 -0.012421628 -0.27289727 -0.96196306 0.16425151
-0.0093249585 -0.097766444 0.061314821 0.071904749 -0.27606854 -0.95844448 0.14633931
0.17815736 -0.094534785 0.065717429 -0.75140697 0.60489154 -0.26361662 0.23652093
0.18112731 -0.094324946 0.06901779 -0.76195562 0.49074793 -0.42259917 0.21904433
-0.19143502 -0.084454812 0.06514544 0.746512 0.31721386 -0.58488905 0.18619716
-0.18313447 -0.087301403 0.064919271 0.81049609 0.5217402 -0.26623875 0.16977812
-0.13566872 -0.086488821 0.062263153 0.16778268 -0.037108012 -0.98512536 0.006540407
-0.12926029 -0.087267809 0.062875532 0.11622918 -0.01550732 -0.99310136 0.0049591884
-0.11496491 -0.085462376 0.062875532 0.022808719 -0.063875861 -0.99769717 0.0042454656
-0.10427561 -0.085616343 0.062875532 0.017193882 -0.095782898 -0.99525374 0.0053552841
-0.096235253 -0.086539693 0.062875532 -0.10584704 -0.0030728676 -0.99437767 0.032599673
-0.085193172 -0.085230239 0.062875532 -0.13675487 0.068810157 -0.98821211 0.055824481
-0.07713148 -0.083081819 0.062875539 -0.095417932 0.16516571 -0.98163927 0.092222728
-0.065658383 -0.082525671 0.062875532 -0.085477434 0.14003268 -0.98645043 0.10775868
-0.053556927 -0.088814303 0.062875532 -0.12814754 0.03881992 -0.99099505 0.12057943
-0.042994931 -0.085279629 0.062875532 -0.011081475 0.019993603 -0.99973869 0.13427033
-0.038909197 -0.08466883 0.062875532 -0.024123281 0.086627036 -0.99594873 0.14704075
-0.021277197 -0.083153769 0.062875532 -0.067412585 0.053558424 -0.99628657 0.12556891
-0.017643133 -0.086431824 0.062875532 -0.010661682 -0.057934754 -0.99826342 0.16775325
-0.0075893356 -0.084733695 0.060549796 -0.13432275 -0.096912123 -0.98618734 0.17125565
0.18469448 -0.087361343 0.068486117 -0.76920438 0.50767154 -0.38806465 0.20879547
0.19178905 -0.084880143 0.062214065 -0.41951618 0.19181089 -0.8872512 0.21009845
-0.19394481 -0.075996913 0.066972949 0.83798826 0.19207965 -0.51076519 0.15436701
-0.18772571 -0.074607819 0.068591051 0.8777864 0.34152722 -0.33593181 0.17420979
-0.14317831 -0.075878307 0.060034066 0.19155814 -0.093979977 -0.97697151 0.0071079335
-0.1358491 -0.072487094 0.062156532 0.12614861 -0.14179146 -0.98182571 0.010131993
-0.12359404 -0.073024526 0.062875532 0.057894789 -0.15620686 -0.98602623 0.0091059841
-0.11453348 -0.079636768 0.062875532 0.016476877 -0.091494799 -0.99566925 0.0046506231
-0.10881893 -0.079967164 0.062875532 0.00088176748 -0.088179275 -0.99610424 0.0047853366
-0.096007109 -0.076081716 0.062875532 0.028806152 -0.10453974 -0.99410349 0.0062683327
-0.086328305 -0.077599928 0.062875532 -0.1132087 0.023457449 -0.99329424 0.040605053
-0.07520932 -0.076910958 0.062875532 -0.10839605 0.092953131 -0.98975247 0.057157628
-0.060384143 -0.072131574 0.062875532 -0.076505043 0.14658363 -0.98623544 0.10056333
-0.055162676 -0.075289741 0.062875532 0.011514866 0.12247838 -0.9924044 0.11947907
-0.046834946 -0.073208846 0.062875532 -0.046287071 0.24327505 -0.96885228 0.13929474
-0.033992283 -0.076749384 0.062875532 -0.016188335 0.18582824 -0.98244882 0.12517768
-0.02573704 -0.073543668 0.062875532 -0.036185861 0.046231613 -0.9982751 0.11387207
-0.013300071 -0.07573574 0.062875532 -0.080962427 0.073656149 -0.99399191 0.16648008
0.1879808 -0.077026919 0.067959413 -0.92027593 0.27609724 -0.27724105 0.17623422
0.19141993 -0.077320158 0.06901779 -0.85764295 0.35822985 -0.36894432 0.14621204
-0.19466029 -0.064123623 0.066707768 0.83197963 0.19591805 -0.51906264 0.15127572
-0.1895483 -0.064077847 0.065078951 0.86827111 0.23148204 -0.43877259 0.17069238
-0.14202508 -0.065746196 0.060503274 0.19045071 -0.13710679 -0.97207522 0.0092231836
-0.13153553 -0.065606073 0.062133849 0.085539661 -0.19407241 -0.9772507 0.010158666
-0.12672137 -0.064988397 0.061394271 0.077448621 -0.20114928 -0.97649401 0.011687426
-0.1002789 -0.069217138 0.062875532 0.022861678 -0.12592745 -0.99177599 0.0066791815
-0.096254081 -0.065112598 0.06154298 0.032536179 -0.16571271 -0.98563725 0.0076264143
-0.08568766 -0.067008242 0.062792391 0.03329809 -0.13512807 -0.99026847 0.0067955488
-0.077938855 -0.06588576 0.062468722 -0.0016367821 -0.12767334 -0.99181497 0.0051431763
-0.062259838 -0.066846646 0.062462095 -0.073603526 0.12763473 -0.98908639 0.075519398
-0.055634886 -0.064246103 0.060505494 -0.033262413 0.23570637 -0.97125494 0.11104375
-0.0437201 -0.064350381 0.060630355 -0.042524569 0.030165711 -0.99863988 0.09914887
-0.024237074 -0.0648655 0.061247129 0.0042746072 0.1427144 -0.98975468 0.092889972
-0.012468983 -0.066225171 0.061977755 -0.064674206 0.1109888 -0.99171495 0.10622818
0.1950614 -0.064790733 0.06451004 -0.64859587 0.39424631 -0.65107077 0.19548139
-0.19500647 -0.054887909 0.064914457 0.78017128 0.33683473 -0.52713859 0.14347284
0.18958789 -0.056293771 0.068941027 -0.95801228 0.22422194 -0.17870939 0.097666375
0.19561957 -0.053659987 0.063234888 -0.68352151 0.47948861 -0.55035353 0.15937611
-0.19577731 -0.045876473 0.065372951 0.84540111 0.26721546 -0.46248543 0.11631654
-0.18961786 -0.045333475 0.069061235 0.92871743 0.23969145 -0.28289911 0.073979683
0.18991776 -0.048770588 0.067151353 -0.91583729 0.30143923 -0.26528576 0.12131941
0.19336234 -0.044434365 0.065194681 -0.91351593 0.20479976 -0.35149056 0.11225639
-0.19479978 -0.035335422 0.065807551 0.89211309 0.19345169 -0.40830234 0.07686466
0.19575316 -0.037853166 0.061240017 -0.83890373 0.15866998 -0.52063847 0.1018043
-0.19590738 -0.021628723 0.062046591 0.77633595 0.012754183 -0.63019031 0.056755647
-0.19495699 -0.011572666 0.067301065 0.87558407 0.028514599 -0.48222342 0.038428977
0.19582622 -0.015769932 0.062959954 -0.81166297 0.043576382 -0.58249837 0.045775238
-0.19539082 -0.0065485053 0.065795943 0.88305318 0.032138247 -0.46817106 0.038827132
0.19654712 -0.0054836422 0.060638852 -0.74577469 0.091019407 -0.65995115 0.051133413
-0.19614017 0.0054489449 0.063504562 0.84637302 -0.026153022 -0.53194803 0.052882887
-0.19600332 0.013963839 0.064917922 0.86674458 0.10014682 -0.48859432 0.049183004
0.19530761 0.015366323 0.068210483 -0.88009256 -0.0035992628 -0.47478855 0.033415705
-0.19626927 0.026023326 0.064829536 0.81991404 0.072695941 -0.56785232 0.060013101
0.19660662 0.027074203 0.063393772 -0.78406489 -0.013110298 -0.62054044 0.052781686
-0.19688471 0.035342991 0.06289807 0.78729075 0.021079438 -0.61622155 0.046702061
0.19669269 0.033587627 0.063607842 -0.77493399 -0.0081327595 -0.63198978 0.050223358
-0.19626528 0.046886899 0.066786401 0.89720821 0.00091517018 -0.44160694 0.034351386
0.19593999 0.041771263 0.067789726 -0.84163523 0.015424827 -0.53982615 0.043730821
-0.19621 0.056276113 0.067910142 0.90151948 -0.030987617 -0.43162775 0.034119774
0.19605125 0.056351691 0.068638697 -0.87033892 0.062921539 -0.48841691 0.036891542
-0.19628733 0.064103134 0.068285897 0.88123566 -0.0030144665 -0.47266763 0.04596588
0.19735792 0.064982027 0.063501261 -0.76923406 -0.071929105 -0.63490564 0.054152757
-0.19762009 0.072251111 0.062984936 0.74937326 0.016081015 -0.6619525 0.054825798
0.19681357 0.074351698 0.066846259 -0.87466115 -0.010382356 -0.48462364 0.047133476
-0.19725144 0.083882771 0.065741532 0.8223992 0.015968075 -0.56868666 0.051270686
0.19754517 0.085430861 0.064550132 -0.8439244 0.01425119 -0.53627276 0.055230711
-0.19773096 0.093537748 0.064459011 0.8188113 0.032167569 -0.57316077 0.04853851
0.19839332 0.096969903 0.061767202 -0.8319363 0.025357941 -0.55429143 0.047658198
-0.19697164 0.10483983 0.068960696 0.89963347 0.05373187 -0.43332732 0.044551589
0.19832811 0.10680584 0.062977552 -0.83956248 0.038754895 -0.54187894 0.057818647
-0.20683488 0.11859924 0.060433432 0.4977673 -0.10192028 -0.8613013 0.098282665
0.20600578 0.11422045 0.061471842 -0.55852246 0.00042317258 -0.82948935 0.070132688
-0.21571039 0.12404791 0.060273223 0.55998325 -0.055663873 -0.82663178 0.11530142
-0.2052272 0.12471908 0.061597589 0.59641695 -0.16583291 -0.78535742 0.18579802
-0.19834237 0.12341528 0.06445612 0.83593482 -0.10486582 -0.53871715 0.17824745
0.19878186 0.12224029 0.062349163 -0.59566873 -0.080868997 -0.79914892 0.16446054
0.20599875 0.12518285 0.061586447 -0.53484994 -0.086400822 -0.840518 0.16768292
-0.22256635 0.13828066 0.06012759 0.54409623 0.11583705 -0.83098799 0.13893181
-0.21176675 0.13622956 0.063032001 0.63431746 0.10655259 -0.76569438 0.1974629
-0.20639901 0.13413014 0.063110292 0.68300301 -0.0088138636 -0.73036247 0.22481592
-0.19472437 0.13610633 0.062734015 0.7855249 -0.54101741 0.30041769 0.21557054
0.18802989 0.13930991 0.061121561 -0.8081038 -0.42298403 0.4099423 0.13566992
0.195164 0.13672993 0.064181224 -0.79981846 -0.41929013 0.42951864 0.23744337
0.20617791 0.13477299 0.063223317 -0.46716183 0.28566098 -0.8367542 0.20175187
0.21525832 0.13636382 0.062806629 -0.63158911 0.2058036 -0.74748915 0.14296858
0.22054952 0.13816546 0.060991332 -0.6555208 0.25246346 -0.71172649 0.1166003
-0.22091213 0.14076579 0.061737727 0.55938834 0.20416071 -0.80336988 0.13433139
-0.21568806 0.1443315 0.064094394 0.52418983 0.38474974 -0.75973189 0.16918437
-0.20542327 0.147348 0.068299875 0.54540861 0.23235844 -0.80531925 0.22579433
-0.19515747 0.14569463 0.065566808 0.7646299 -0.4652923 0.44591939 0.20295998
-0.18607938 0.14762351 0.061213404 0.80769044 -0.35330212 0.47203162 0.10114689
0.18889782 0.14760235 0.062982954 -0.7806049 -0.32821012 0.53191555 0.11357316
0.196007 0.14150894 0.063747004 -0.62341779 -0.49056566 0.6088478 0.20734972
0.20385957 0.14516099 0.066472992 -0.55940187 0.56361955 -0.60778493 0.182098
0.21193446 0.14110567 0.066747576 -0.50578451 0.30418348 -0.8072511 0.15008402
0.22204122 0.14133903 0.0624712 -0.59297073 0.34579384 -0.72719485 0.10484143
-0.20477888 0.15320732 0.067367107 0.17891821 0.49484462 -0.85036296 0.22117019
-0.19569357 0.15399702 0.066310585 0.74894863 -0.42151874 0.51127088 0.14745957
-0.18759961 0.15518792 0.062661774 0.75254524 -0.32837757 0.57082725 0.099882923
0.18711838 0.15678316 0.062194783 -0.79865408 -0.23138577 0.55552882 0.078496039
0.19903943 0.15467483 0.067126535 -0.57931149 -0.54790092 0.60349202 0.21533452
0.20450497 0.1535811 0.067600623 -0.33163121 0.45738006 -0.82512075 0.19634156
0.21615577 0.15623645 0.066329189 -0.63647687 0.19805487 -0.74543375 0.086048111
-0.2139117 0.16243854 0.067247152 0.53170037 0.13921708 -0.83541203 0.084123224
-0.20472617 0.16468251 0.067505196 0.041876405 0.12176095 -0.99167562 0.18791604
-0.19337301 0.16625433 0.065982364 0.74031949 -0.0746096 0.66810215 0.097815529
-0.18827695 0.16284671 0.063510418 0.71795273 -0.12372003 0.68500894 0.065214053
0.19389494 0.16276251 0.066003934 -0.78846008 -0.045134246 0.61342788 0.13352597
0.20674109 0.16555451 0.067554452 -0.53183097 0.014577548 -0.84672505 0.16560629
0.21882603 0.16278945 0.06553591 -0.65529746 0.086467378 -0.75040561 0.053075232
0.22435968 0.16614056 0.062086955 -0.71108639 0.085772291 -0.69785333 0.042420141
-0.22239046 0.17748155 0.063766845 0.71683252 -0.044870362 -0.69580007 0.1028413
-0.21919347 0.17423888 0.065595828 0.67344487 0.0052996739 -0.73921853 0.070982754
-0.20446801 0.17327039 0.067439288 0.14729939 0.073296212 -0.98637241 0.18333431
-0.19359377 0.1736201 0.066418618 0.62154531 0.019869804 0.78312618 0.10737922
-0.18859911 0.17712456 0.064336807 0.70682073 0.043435544 0.70605791 0.069662817
0.18563575 0.17595083 0.062007375 -0.82848686 0.085176706 0.55349302 0.076990239
0.19482741 0.17436303 0.066649608 -0.7360478 0.051417094 0.67497408 0.146493
0.20401604 0.17304721 0.06804999 -0.053028375 -0.14656721 -0.98777831 0.23002334
0.21713975 0.17326772 0.066429369 -0.6282618 -0.028253976 -0.77748889 0.068320863
0.22487175 0.17409092 0.061701179 -0.79441744 0.030270139 -0.60661727 0.070457853
-0.22314964 0.18603198 0.063175283 0.749237 -0.083779685 -0.65698165 0.099628337
-0.21525386 0.18720166 0.067457274 0.68270963 0.0039733518 -0.73067898 0.14685313
-0.20477439 0.18344022 0.068058103 0.28008249 -0.24968167 -0.9269374 0.25872657
-0.19939752 0.18937059 0.067708813 0.60594654 0.16115937 0.77900988 0.20917165
-0.18373516 0.18902299 0.060721133 0.68176126 0.029670674 0.73097271 0.094710305
0.18662937 0.18282048 0.062942982 -0.79797113 0.18633983 0.57316625 0.13121586
0.19573815 0.18641406 0.067155667 -0.88426566 0.15912832 0.43903574 0.17657401
0.20476885 0.18534492 0.068367943 -0.51067686 -0.39332572 -0.76452869 0.25739264
0.21495682 0.18095508 0.067463331 -0.6910941 -0.10895543 -0.7145052 0.13113911
0.2212494 0.18076545 0.064527892 -0.7000137 -0.1831377 -0.69024742 0.12703729
-0.22378179 0.19409344 0.062974408 0.69127381 -0.010175102 -0.72252119 0.10835453
-0.21999235 0.19865589 0.065714478 0.58242285 -0.078485221 -0.80908823 0.11192963
-0.20595188 0.19622496 0.068618283 0.34832963 -0.13739789 -0.9272477 0.24106164
-0.19086929 0.1907585 0.06624575 0.76052552 0.083452299 0.64392281 0.14708534
0.18569881 0.1964048 0.06274195 -0.8121677 0.012438009 0.58329147 0.13095467
0.19771335 0.19684374 0.067795932 -0.85432947 0.10159862 0.50970471 0.23040281
0.20414053 0.19522499 0.067688815 -0.62890297 -0.092411816 -0.77197224 0.26039267
0.2129135 0.1959949 0.068387114 -0.69710881 -0.015183809 -0.71680456 0.19255111
0.22452435 0.1937795 0.062644042 -0.72094238 -0.025500976 -0.69252568 0.15577461
-0.2228094 0.20835429 0.064002216 0.68566078 0.057109375 -0.72567743 0.10762145
-0.21346533 0.20379643 0.068461217 0.65776902 -0.050960649 -0.75149381 0.16228761
-0.20580985 0.20503356 0.068454944 0.62615865 -0.02742778 -0.77921313 0.25260574
-0.19978993 0.20293997 0.067908801 -0.33709854 -0.12867264 -0.93263495 0.27689162
-0.18777791 0.20664464 0.065149903 0.67088443 -0.051482033 0.73977268 0.15424609
0.18684042 0.20615605 0.064018711 -0.61927915 -0.11921711 0.77606738 0.13910769
0.19639584 0.20269439 0.06764102 -0.69210106 0.0022348112 0.72179711 0.21986951
0.20318033 0.20667408 0.067774139 -0.34604585 -0.026403863 -0.937846 0.23046353
0.21341795 0.20673624 0.068546839 -0.53273481 -0.062413614 -0.84397763 0.15602787
0.22478946 0.20327757 0.062511675 -0.62981135 -0.015137968 -0.7766006 0.12199382
-0.22543965 0.21285996 0.06189432 0.72375423 -0.014095633 -0.68991387 0.07527817
-0.21709388 0.21555774 0.067531906 0.63461113 0.027856501 -0.77232939 0.12048522
-0.20394713 0.21362807 0.068138257 0.32321474 0.049402084 -0.94503528 0.25433284
-0.19608645 0.21332139 0.067738205 0.59466106 -0.046479803 0.8026318 0.25087121
-0.18527573 0.21414733 0.063159309 0.46194366 -0.15923849 0.87249714 0.11165304
0.18807285 0.21566279 0.065714806 -0.45115197 -0.074088782 0.88936645 0.15435867
0.19537477 0.21474123 0.067729697 -0.85228562 -0.032416318 0.52207118 0.20935547
0.20406225 0.21453279 0.067122787 -0.26017025 -0.059715182 -0.96371442 0.19560841
0.21542835 0.21838892 0.068035707 -0.46363699 -0.022460505 -0.88574052 0.12762345
0.22533014 0.21401598 0.062068045 -0.67003691 0.050036658 -0.74063957 0.11273386
-0.22056788 0.22297102 0.065963924 0.56912982 0.0377983 -0.82137835 0.093370453
-0.21040364 0.2233142 0.06972754 0.44118822 0.063782588 -0.89514506 0.17833048
-0.20368288 0.22510828 0.068428926 0.4086208 0.051711574 -0.91123807 0.20892526
-0.19434239 0.22498457 0.067772612 0.63671422 -0.11474239 0.76251501 0.21449614
-0.18486114 0.22128445 0.063048005 0.41625202 -0.14217719 0.89806455 0.10074122
0.18777269 0.22160709 0.065809533 -0.46570033 -0.091721036 0.88017637 0.14341468
0.19203202 0.22308226 0.067361027 -0.49739352 -0.0070903981 0.86749607 0.15992582
0.20353588 0.22502871 0.068089433 -0.2824333 -0.040390927 -0.95843625 0.1842061
0.21873832 0.22664613 0.067101218 -0.50627953 0.048079025 -0.86102808 0.091589406
0.22464465 0.22000015 0.063125126 -0.65050924 0.0087247733 -0.75944823 0.080878049
-0.22524247 0.23588768 0.062719211 0.671211 -0.012442844 -0.74116188 0.065877698
-0.21408542 0.23701385 0.069086708 0.57767504 0.013890536 -0.81614864 0.094136059
-0.20404512 0.23526803 0.06935136 0.27512819 0.022872452 -0.96113545 0.19097912
-0.18601732 0.2339953 0.064583309 0.39365187 0.020948999 0.91902083 0.11087625
0.18487048 0.23618202 0.063765176 -0.3858982 -0.035909206 0.92184222 0.11460049
0.19415194 0.23364095 0.068084523 -0.57848346 0.0035247619 0.81568658 0.23770168
0.203113 0.23458259 0.067738108 -0.12433217 0.049688548 -0.99099576 0.15879582
0.21238691 0.2328779 0.069436692 -0.44407085 -0.0010261197 -0.89599103 0.11873278
0.22375099 0.23488221 0.06405282 -0.55213726 0.10438552 -0.8271929 0.096056774
-0.22418018 0.24612439 0.063653082 0.58422822 -0.0060908613 -0.81156653 0.0776501
-0.20295103 0.24739373 0.068034478 0.18144581 -0.023137329 -0.98312873 0.16650586
-0.19569737 0.2449346 0.068164825 -0.3505432 -0.083682515 -0.93280041 0.15889151
-0.181905 0.24632159 0.061438717 0.31639993 -0.061128967 0.94665432 0.089274935
0.18739973 0.2453827 0.066429436 -0.43917787 0.029419295 0.89791828 0.13030441
0.1952922 0.24239403 0.068391189 0.2070373 -0.060028605 -0.97648972 0.18546757
0.20136122 0.24675852 0.067178108 0.0075128307 -0.0028501686 -0.99996775 0.16073479
0.21907912 0.24168195 0.067308791 -0.56035876 0.063154191 -0.82583874 0.10105661
0.22284681 0.24858889 0.065229774 -0.5574947 -0.030590713 -0.82961673 0.098340906
-0.22015584 0.25224647 0.066923842 0.54887134 -0.029164586 -0.83539784 0.081209771
-0.21592453 0.25594544 0.068843581 0.55374038 -0.0036999129 -0.83268112 0.097740971
-0.20188539 0.25354311 0.068261564 0.13892411 -0.10801297 -0.98439491 0.16285357
-0.19598399 0.25501838 0.068557359 0.28048423 -0.20210952 -0.93833911 0.23432401
-0.18442981 0.25290185 0.063959129 0.48217472 0.022542017 0.87578499 0.11661461
0.18661609 0.25700593 0.066155389 -0.50275087 -0.0045021544 0.86441958 0.1736687
0.19060309 0.25355017 0.067827329 -0.44404161 -0.09191446 0.89127922 0.20129342
0.20390877 0.25746357 0.068841934 -0.1907452 0.029875753 -0.98118478 0.16512036
0.21547586 0.25578195 0.069015481 -0.41295603 0.037785243 -0.90996677 0.12104738
0.22183695 0.25492498 0.065986656 -0.55114359 -0.00090427964 -0.83440989 0.081464298
-0.22670889 0.26658458 0.061521228 0.7717579 -0.0090828547 -0.63585162 0.085778564
-0.21788394 0.26659638 0.068629712 0.45188966 0.036422733 -0.89133 0.0999097
-0.20331414 0.26264358 0.06918253 0.23936354 -0.094817147 -0.96628922 0.18007493
-0.19337498 0.26396528 0.068541609 0.4601739 -0.25882894 0.84926295 0.23746668
-0.1829274 0.26255655 0.06316784 0.41324237 0.025580071 0.91026169 0.11659539
-0.17899433 0.26944685 0.061637901 0.37450552 -0.055902079 0.925538 0.13654715
0.1805144 0.26117766 0.060723007 -0.36647457 -0.079675667 0.92701042 0.10120723
0.19708471 0.26749519 0.068804897 -0.18023862 -0.18045932 0.96692735 0.17570551
0.20089573 0.26966357 0.066575035 -0.016470207 0.065460838 -0.99771923 0.14554308
0.21996042 0.26681411 0.06739594 -0.50670981 0.061434545 -0.85992491 0.095016189
0.22222616 0.26113415 0.06571237 -0.56890714 -0.0082808733 -0.82236004 0.094453238
-0.22777483 0.27636528 0.06034404 0.79422319 0.07697437 -0.60273087 0.081226379
-0.20209801 0.27370432 0.068449207 0.1092153 -0.028503364 -0.99360937 0.16317004
-0.19659315 0.27481416 0.067412235 0.040142119 0.043155558 -0.99826163 0.22730757
-0.18248346 0.27447146 0.065576598 0.76654851 -0.47328979 0.43405077 0.20985059
-0.17749667 0.27695137 0.062409285 0.61280233 -0.33494326 0.71574181 0.19778882
0.18440224 0.2756381 0.067280784 -0.60037589 -0.3001734 0.74124539 0.19408104
0.1962896 0.27673271 0.068360895 -0.13252097 -0.15156406 0.97952354 0.13082752
0.2020686 0.27549934 0.067955613 -0.27431187 0.10702567 -0.95566648 0.13256893
0.21627092 0.27092543 0.069265664 -0.48558417 0.0083496841 -0.87414998 0.096396439
-0.22551817 0.28353658 0.063517585 0.75314397 0.03234325 -0.65706015 0.0980547
-0.21647745 0.28558177 0.069540352 0.47638926 0.086093523 -0.87500924 0.10848764
-0.19810672 0.28658301 0.06856782 -0.023505529 0.14467639 -0.98919976 0.2253269
-0.18799666 0.28105617 0.068527095 0.74422967 -0.44983512 0.4937312 0.25317568
-0.17556891 0.28584671 0.064661324 0.57324243 -0.61353457 0.54310989 0.18268874
-0.16885728 0.28913108 0.062921651 0.37729397 -0.60944408 0.6972999 0.18409044
