# .PCD v0.7 - Point Cloud Data file format
VERSION 0.7
FIELDS x y z normal_x normal_y normal_z curvature
SIZE 4 4 4 4 4 4 4
TYPE F F F F F F F
COUNT 1 1 1 1 1 1 1
WIDTH 575
HEIGHT 1
VIEWPOINT 0 0 0 1 0 0 0
POINTS 575
DATA ascii
-0.1646381 0.075300373 0.0026482786 0.99275857 0.11106176 -0.045780215 0.17824291
-0.14460143 0.07677272 0.0045480304 0.94413996 0.090876698 0.31676659 0.17548533
0.14429699 0.072413154 0.0027566811 -0.95914292 0.016817419 0.28242165 0.15954544
0.16426754 0.074577883 0.0050975103 -0.966084 0.092042938 -0.24126701 0.15087485
-0.16368288 0.08808621 0.0096797636 0.982728 0.17333829 -0.064803831 0.14493214
-0.14471614 0.085235737 0.0053317975 0.96153712 0.12623796 0.24394725 0.16885328
0.1447756 0.081174567 0.0054126969 -0.95784026 0.035071369 0.28515261 0.15607587
0.16402709 0.083797432 0.0071218037 -0.99545252 0.088449597 -0.035369158 0.1746484
-0.16440891 0.097544327 0.0052690329 0.99538314 0.09020146 -0.032804143 0.18333997
-0.14467621 0.092191413 0.0043633291 0.95227027 0.17184593 0.25229007 0.15982834
0.14561361 0.096463047 0.0072093587 -0.97499037 -0.10349948 0.19667652 0.15612119
0.1641856 0.097278416 0.0068131052 -0.98485512 -0.035672024 -0.16966999 0.15784577
-0.16435368 0.10472741 0.0059844069 0.99824119 0.012857215 -0.057871357 0.17822376
-0.14501442 0.10356297 0.0054540867 0.95834172 0.11447357 0.26168102 0.16014732
0.14449142 0.10794678 0.0039985552 -0.98830962 0.049275246 0.1442778 0.17230558
0.16476613 0.10398753 0.0030758826 -0.98473704 -0.10220075 -0.14088304 0.16598478
-0.16459592 0.11455822 0.0047485665 0.99952549 -0.030446323 0.0046809325 0.17363617
-0.14478752 0.11730037 0.0050457539 0.96590066 -0.14274387 0.21600957 0.14383687
0.14468448 0.11889032 0.0047727232 -0.97193956 -0.13380596 0.1934669 0.16027384
0.16527912 0.11856775 0.000171408 -0.95599192 -0.1341005 -0.26095313 0.17869265
-0.1651303 0.12080996 0.0013118593 0.99210119 -0.068882585 -0.10483468 0.17782615
-0.14614218 0.12775332 0.0092270914 0.96426231 -0.11259861 0.23983301 0.12896256
0.14466827 0.12623458 0.0048634927 -0.9900769 0.059167098 0.12746352 0.1655131
0.16523521 0.12236104 0.00065207342 -0.98222423 -0.018513555 -0.18679585 0.17358249
-0.16427162 0.13761058 0.0080693904 0.98677617 0.057030797 -0.15172434 0.14426522
-0.14542362 0.13400201 0.0072315461 0.98068023 -0.069376953 0.18290196 0.15907246
0.14404526 0.13772753 0.0032478417 -0.97855079 0.034624096 0.20307525 0.16434914
0.16431573 0.13374645 0.0075839688 -0.98834449 -0.096843943 -0.11745816 0.15896842
-0.16437355 0.14459437 0.0076803928 0.99567199 -0.021727415 -0.090362616 0.16367728
-0.14442645 0.14597557 0.0044456432 0.96613145 0.17007627 0.19407251 0.14655103
0.14490148 0.14411606 0.0058865668 -0.98355508 0.02230281 0.17922643 0.16996257
0.16514243 0.14679213 0.0024226834 -0.98057526 0.020739872 -0.19504352 0.17145221
-0.16449538 0.15577762 0.0073457197 0.98852158 0.087696671 -0.12302189 0.1645605
-0.14429103 0.15473472 0.0042913705 0.97134399 0.067082107 0.22801493 0.15209861
0.14511284 0.15910938 0.0067908969 -0.96796203 -0.044029329 0.24720639 0.1523861
0.16461653 0.15201603 0.006328315 -0.98838151 0.051756706 -0.14291038 0.16708748
-0.16476575 0.1636458 0.0058235489 0.98659056 0.054342978 -0.15390207 0.14863604
-0.14380051 0.16277842 0.0030003774 0.96587181 0.026429323 0.25766855 0.147489
0.1442614 0.16383629 0.0043758391 -0.94356018 -0.026540875 0.33013603 0.13409789
0.16516238 0.16974838 0.0033398587 -0.99627233 -0.043030947 -0.074765094 0.18114778
-0.1663865 0.17534459 0.0054676086 0.9832561 0.062120657 -0.17131394 0.15055704
-0.14442898 0.17374587 0.0050555603 0.92724311 0.029859208 0.37326756 0.11461625
0.14525796 0.17455763 0.0075089945 -0.93381423 -0.095984891 0.3446418 0.15718397
0.16684134 0.1734771 0.008375043 -0.98076683 -0.047102422 -0.18941431 0.15875863
-0.16577275 0.1844489 0.005751939 0.99983388 -0.0085894866 0.016075948 0.14441966
-0.14454533 0.18679969 0.0056439433 0.90765995 -0.030778624 0.4185763 0.14622039
0.1439503 0.18470013 0.0038542713 -0.96500367 0.029652666 0.26055434 0.14845203
0.16497453 0.18632114 0.00529692 -0.99867696 0.039385051 -0.033063237 0.15903096
-0.16480468 0.19491696 0.0069909394 0.99867541 -0.022001196 -0.046511922 0.16831778
-0.14386444 0.19553372 0.0034587462 0.82539552 -0.39608127 0.40229568 0.18867387
0.1445187 0.19936869 0.0058025653 -0.77436721 -0.4536505 0.44108585 0.21203029
0.16534969 0.19715457 0.0059282081 -0.99222749 -0.04284215 -0.11682921 0.14616928
-0.16537602 0.20132494 0.0033038524 0.99641359 -0.07352864 -0.041873816 0.1720539
-0.14422317 0.20347027 0.0048478274 0.47009969 -0.81553447 0.33750534 0.18647201
0.14404273 0.20476834 0.0045044697 -0.55517232 -0.81155264 0.18211538 0.22953923
0.16518973 0.20812294 0.0047246255 -0.98221195 0.15804747 -0.10139354 0.12651157
-0.16319075 0.21093708 0.0042325235 0.94581205 0.32297218 -0.033593722 0.19155319
-0.15421702 0.21020776 0.0026674888 0.88037473 0.47404569 0.014866319 0.21170118
-0.14570555 0.21059561 0.0032479777 0.14811204 -0.96569842 0.21328253 0.18958034
-0.13357627 0.21464522 0.0099447751 0.25948229 -0.94363606 0.20547456 0.057313569
-0.12281685 0.2143406 0.004897655 0.18603691 -0.95871246 0.21508284 0.029099671
-0.11891453 0.21383479 0.00079698657 0.10271458 -0.97821558 0.18039949 0.0044529489
-0.1059585 0.21531041 0.0047884858 0.058511686 -0.98221642 0.17840207 4.6933246e-06
-0.094148174 0.21608618 0.0050823996 0.05684457 -0.98281866 0.17560245 8.7190283e-06
-0.085253872 0.21690303 0.0066620563 0.056810491 -0.98362964 0.17101251 1.4990538e-05
-0.073300309 0.2175386 0.006269963 0.047853194 -0.9843902 0.16936933 5.6318397e-05
-0.067324266 0.21793191 0.0065953908 0.040122718 -0.98484212 0.16874844 3.8779657e-05
-0.054319263 0.21773911 0.0031971456 0.023103708 -0.98559952 0.16751084 3.5807567e-05
-0.039086606 0.21803661 0.0038731147 0.013158442 -0.9857347 0.16779116 2.6999391e-05
-0.024723019 0.21813697 0.0034443138 0.011888433 -0.98575765 0.1677516 0
-0.015961505 0.21832435 0.0039238618 0.0095327366 -0.98574048 0.1680022 0
-0.0033094862 0.21865626 0.0049822228 0.00045047235 -0.98552299 0.16954136 1.4805691e-05
0.0063907187 0.21900614 0.0072566266 -0.0059742397 -0.98555607 0.16924389 4.0271289e-06
0.027278179 0.21860214 0.0063564065 -0.011938278 -0.98574442 0.16782589 0
0.036736142 0.21782823 0.0024789763 -0.012633373 -0.98575306 0.16772379 0
0.044409506 0.21799734 0.004019252 -0.015385487 -0.98575038 0.16750959 4.0133502e-05
0.050857026 0.21796381 0.004280271 -0.019300397 -0.98570663 0.16736153 4.4159857e-05
0.065966405 0.21792541 0.0059908298 -0.039970178 -0.98393017 0.17402226 0.00016818619
0.076396853 0.21742775 0.0066886377 -0.048292495 -0.9827956 0.1782712 0.00019875985
0.086354516 0.21674472 0.0062013273 -0.054026768 -0.98273611 0.17694895 7.7324257e-05
0.094589159 0.21617478 0.0057629035 -0.057972766 -0.98227245 0.17826903 8.7177847e-05
0.10792707 0.21522434 0.0050269477 -0.057241879 -0.98213917 0.17923757 1.6183229e-05
0.12617314 0.2140415 0.0044103004 -0.21159077 -0.9478476 0.23835738 0.024202129
0.13459483 0.21369201 0.0051144962 -0.22922386 -0.94835138 0.21928525 0.056186557
0.14541428 0.21111129 0.002675792 -0.033817548 -0.97037083 0.23924184 0.18572102
0.15750645 0.21023262 0.0027725652 -0.95103991 0.27145702 -0.1477643 0.1809483
0.16421205 0.21191058 0.0055936198 -0.95878989 0.25646514 -0.12226033 0.18832904
-0.16566056 0.2252811 0.0052110157 0.94208461 0.31167161 -0.12384398 0.068923712
-0.16597559 0.23501474 0.0050542848 0.97515351 0.11883228 -0.18696125 0.014512073
0.16591012 0.2358088 0.006078247 -0.96921808 0.1357879 -0.20537275 0.01429701
-0.16716677 0.24475367 0.0030825865 0.99279642 0.010251376 -0.11937378 0.016291488
0.16654272 0.24323753 0.0051786443 -0.98361427 0.067025542 -0.16736361 0.0095817707
-0.1667655 0.2535367 0.0056092655 0.98984832 0.027333466 -0.13947463 0.029986279
0.16716009 0.25580895 0.0042181248 -0.99729377 0.014549234 -0.072066717 0.024822682
-0.16674221 0.26486537 0.0069493069 0.9935481 -0.020913716 -0.1114663 0.044287276
0.16676374 0.2653051 0.0068628001 -0.99180186 -0.0212039 -0.12601328 0.026346935
-0.16711883 0.2774891 0.0056302403 0.99936861 -0.0075227241 -0.034722976 0.035811204
0.16759628 0.27656052 0.0039130459 -0.99924552 -0.019862501 -0.033375196 0.038226474
-0.16706277 0.28721139 0.004895255 0.99787623 -0.027409008 -0.059091311 0.028752195
0.16718702 0.28637594 0.0040855985 -0.9986257 0.0043309396 -0.052229352 0.038182113
-0.16595879 0.29491839 0.0085683707 0.98991436 -0.025435576 -0.13936502 0.012248888
0.16646299 0.29623958 0.0058728955 -0.99105757 -0.008319227 -0.13317508 0.0096742027
-0.16636303 0.30469218 0.0037893753 0.99495739 -0.011887169 -0.099591702 0.019461291
0.16613221 0.30480921 0.0052358918 -0.99281991 -0.060594346 -0.10313582 0.01567496
-0.16542864 0.31543127 0.0070682145 0.98004526 -0.047667392 -0.19297434 0.00085097324
-0.16513294 0.32476419 0.0072989231 0.98390514 -0.040728878 -0.17398804 0.00042124881
0.16500497 0.32255441 0.0085114855 -0.98125005 -0.050042983 -0.18612911 0.001598521
-0.16483931 0.33694732 0.0043527205 0.98990923 -0.040658161 -0.135745 0.00071504252
0.16495585 0.33442152 0.0049775499 -0.98818141 -0.046279434 -0.14613585 0.00051772391
-0.16434912 0.34938303 0.0043282197 0.99018395 -0.040663902 -0.13372448 0.000930671
0.16425985 0.34536302 0.0070722345 -0.98787993 -0.044788703 -0.14861764 0.00074660557
-0.16384205 0.35336101 0.0080647962 0.98744756 -0.04383266 -0.15174317 0.00063645636
0.16398624 0.35494769 0.0058771302 -0.98714709 -0.037991695 -0.1552332 0.00085558492
-0.16384782 0.3642118 0.0034459243 0.99059808 -0.041254498 -0.1304362 0.00096591271
0.16372284 0.36461091 0.0045310152 -0.98836517 -0.039377682 -0.14691386 0.0007491546
-0.16312669 0.37930331 0.0043309843 0.98824018 -0.045500685 -0.14598298 0.0006565678
0.16303131 0.3776105 0.005998808 -0.98234302 -0.041092046 -0.18252023 0.0025703346
0.16317376 0.38473147 0.0015774234 -0.99077636 -0.041876778 -0.12887432 0.0010475395
-0.16245437 0.39471602 0.0046364944 0.98607504 -0.049483366 -0.15876806 0.0010879097
0.16277112 0.39293617 0.0021648146 -0.99018353 -0.046551783 -0.13179332 0.00091044389
-0.16222641 0.40290999 0.0037213317 0.98707014 -0.038245678 -0.15565918 0.0010129102
0.16141073 0.40664569 0.0098542534 -0.98003262 -0.049568929 -0.19255903 0.0025288616
-0.16136897 0.41416076 0.0073131076 0.97557306 -0.030723331 -0.21751595 0.0036623536
0.16215655 0.4105292 0.0014606364 -0.99088544 -0.03971212 -0.12872081 0.0011974041
-0.16107506 0.42646518 0.0050957352 0.98256522 -0.059565894 -0.17611758 0.0026446879
0.16118862 0.42776591 0.0036151586 -0.98699635 -0.043285526 -0.15480472 0.0015566121
-0.16075042 0.43730295 0.0037092259 0.97936887 -0.10555086 -0.17232433 0.0033805193
0.16067529 0.43357787 0.0057944045 -0.98252618 -0.064383671 -0.17463423 0.002071579
-0.1601948 0.44379368 0.0059908894 0.96695995 -0.12906587 -0.21984188 0.0047340533
-0.15981251 0.44645348 0.0082580969 0.95909667 -0.15398042 -0.23753648 0.0063483659
0.16039851 0.44672677 0.0031034881 -0.96423334 -0.2312133 -0.12959383 0.011809354
-0.15772907 0.45825779 0.00088265818 0.86184937 -0.48064637 -0.16184783 0.026727639
0.15874939 0.45255634 0.0092624538 -0.92125136 -0.30431333 -0.24225906 0.014909731
-0.15573896 0.46304151 0.0054077208 0.82703948 -0.53002495 -0.18729465 0.02600169
0.14962859 0.4685182 0.0060362341 -0.66539884 -0.73254013 -0.14362887 0.034994494
0.15385143 0.46556601 0.0042182854 -0.79076093 -0.59222722 -0.15480317 0.024261616
-0.14245035 0.47380787 0.0030812635 0.44040293 -0.89048737 -0.11435695 0.02041954
-0.13428813 0.47494781 0.0066746022 0.31490406 -0.94161159 -0.11917651 0.015669767
-0.12603605 0.47581959 0.0024527363 0.11591052 -0.98968542 -0.084187604 0.0017211462
-0.11318886 0.47698492 0.0080996752 0.061953779 -0.98567581 -0.15685979 0.005508692
-0.099840328 0.47780299 0.0018047956 0.043638948 -0.99547082 -0.084460519 0.00064743398
-0.084084854 0.47808653 0.0051091011 0.031334244 -0.99175388 -0.12426709 0.0015374008
-0.075909138 0.47819453 0.0069755716 -0.043539941 -0.99314773 -0.10845213 0.009058808
-0.065932311 0.47862154 0.0033390766 -0.092992291 -0.99420041 -0.054018218 0.01077455
-0.054618366 0.47166407 0.00088256109 -0.15498793 -0.98779023 0.015784008 0.010355534
-0.042810418 0.47166407 0.0085694715 -0.082974255 -0.99636507 -0.019286616 0.021057224
-0.034618933 0.47199941 0.0071909949 -0.021027345 -0.99877083 0.044883996 0.019637525
-0.027092388 0.47166404 0.0064354269 0.011235391 -0.99880421 0.047580495 0.013357277
-0.016354844 0.47192612 0.0044319229 0.004010669 -0.99809957 0.061491456 0.0075778775
-0.0042860387 0.47191924 0.0046145907 -0.020009642 -0.99740595 0.069144905 0.0064003193
0.0055421935 0.47218513 0.0059690224 0.034837645 -0.99529082 0.09045779 0.0067168833
0.017469557 0.47199187 0.0049076648 -0.00042007753 -0.99360782 0.11288689 0.0075276964
0.025580587 0.47221851 0.0045673051 -0.0013130109 -0.99628037 0.086160503 0.0058873859
0.036587495 0.47166407 0.0046481402 0.052093729 -0.99768126 0.043798812 0.0098699033
0.04445133 0.47166407 0.0060580843 0.10881004 -0.99398887 -0.012100836 0.014824527
0.055866688 0.47195131 0.0071071759 0.10462334 -0.99321771 -0.050719514 0.015150554
0.06273295 0.47794729 0.0047906307 0.12024476 -0.99086827 -0.061003082 0.01204656
0.073999688 0.4787223 0.00040356838 0.067307569 -0.99252421 -0.10181144 0.0099396752
0.085430473 0.4783949 0.00025410255 -0.027819846 -0.99574095 -0.08789774 0.0002305252
0.095565043 0.47774941 0.0047840374 -0.041145798 -0.99411267 -0.10023414 0.0012196435
0.10469504 0.4774754 0.0042310786 -0.050743874 -0.99370098 -0.099916972 0.0015022636
0.11537658 0.47682682 0.0056013362 -0.079108648 -0.99031425 -0.11410309 0.00276949
0.12357473 0.4759717 0.005643161 -0.1130405 -0.98817021 -0.1036415 0.0037819946
0.13518232 0.47491169 0.0046658935 -0.31541407 -0.94310069 -0.10523807 0.013778443
0.14432733 0.47238991 0.008380047 -0.48153159 -0.86097085 -0.1638795 0.031687487
-0.044914864 -0.38370371 0.010185007 0.029541416 0.179445 -0.98332435 6.9041176e-05
-0.023928247 -0.3835718 0.010706375 0.022588605 0.17421289 -0.98444885 3.1714018e-05
-0.014777058 -0.38681084 0.010375484 0.017885828 0.18131313 -0.98326272 8.7708489e-05
-0.0038769185 -0.38449842 0.011025861 0.0045474973 0.1806666 -0.98353386 7.4032323e-05
0.003122526 -0.38954374 0.010189746 -0.00078082993 0.18720359 -0.98232079 9.9607169e-05
0.011018462 -0.38054407 0.011525567 -0.012781825 0.17366908 -0.98472106 5.8609454e-05
0.035201337 -0.38310185 0.010518114 -0.024156541 0.17774932 -0.98377925 4.1354528e-05
0.048090242 -0.38083607 0.01059401 -0.030865535 0.1780764 -0.98353249 6.9288319e-05
-0.090492465 -0.37087789 0.010469731 0.04693599 0.17020917 -0.98428953 1.2975673e-05
-0.080321342 -0.37269998 0.010651326 0.045711659 0.17040139 -0.98431391 1.0351382e-05
-0.072242811 -0.37565255 0.010537928 0.043170758 0.1738867 -0.98381895 2.9243842e-05
-0.066346124 -0.37590063 0.010784233 0.040541228 0.17368366 -0.98396665 3.4562112e-05
-0.052219778 -0.37684548 0.011169152 0.032992952 0.17247193 -0.98446172 4.0787378e-05
-0.046274539 -0.37359011 0.011861838 0.028895052 0.1689249 -0.98520523 1.8026381e-05
-0.037042268 -0.37590337 0.01169255 0.025555687 0.17091838 -0.98495364 1.2208568e-05
-0.015053915 -0.37375045 0.012579681 0.019078793 0.16881564 -0.98546302 2.7412159e-05
-0.0051487316 -0.37400973 0.012771103 0.0066512832 0.16721599 -0.98589784 4.8697442e-05
0.0037301406 -0.37363064 0.012868972 -0.0056065526 0.16915883 -0.98557281 6.5428037e-05
0.033780139 -0.3733601 0.012200034 -0.023958443 0.16849501 -0.98541129 1.9903871e-06
0.048915535 -0.37713096 0.01120021 -0.029625684 0.17214458 -0.98462611 3.0086539e-05
0.064204857 -0.37599525 0.01087289 -0.041616078 0.17858157 -0.98304456 6.929371e-05
0.079418704 -0.37250602 0.01072905 -0.046245795 0.17147093 -0.9841032 6.4714177e-06
0.082795881 -0.37556121 0.010038939 -0.047295187 0.17809062 -0.98287684 7.5325763e-05
-0.12210753 -0.36421195 0.010123737 0.12183816 0.18650597 -0.97486979 0.001151327
-0.11494435 -0.36167717 0.010882972 0.085550748 0.18027161 -0.97988939 0.00092156156
-0.10649826 -0.36418125 0.010853674 0.065225512 0.17614149 -0.98220152 0.00054180116
-0.09417443 -0.36267763 0.011701538 0.046440117 0.16646993 -0.98495233 0
-0.084331088 -0.36497408 0.01178789 0.0471249 0.16780715 -0.98469281 0
-0.073624961 -0.36469302 0.012361309 0.043941505 0.16774112 -0.9848513 5.145298e-06
-0.064315811 -0.3654497 0.012687163 0.03836615 0.1672983 -0.98515952 1.738597e-05
-0.052944835 -0.36619225 0.01295169 0.03296474 0.16628391 -0.98552674 1.6759381e-05
-0.041786585 -0.36890796 0.012760619 0.025789646 0.167647 -0.98550969 4.6049918e-06
-0.034677852 -0.36557508 0.013494328 0.024167249 0.16674492 -0.98570389 9.7409645e-07
-0.027307704 -0.36324045 0.014065649 0.023578053 0.16498806 -0.98601371 5.5202254e-06
-0.012224786 -0.36633849 0.013901537 0.013781495 0.16580322 -0.98606253 4.1112267e-05
-0.0096715009 -0.3638483 0.014383718 0.01184475 0.16565369 -0.98611277 4.5993373e-05
0.0054628011 -0.36377671 0.014495815 -0.0097394353 0.16367365 -0.98646647 4.0063376e-05
0.016468441 -0.36977541 0.01321895 -0.016929351 0.16658011 -0.98588258 2.3843344e-05
0.024427382 -0.36545739 0.013759721 -0.022944631 0.16549949 -0.9859429 9.4651362e-08
0.031372279 -0.36541486 0.013600727 -0.023709027 0.16508037 -0.98599505 2.5972968e-06
0.047859896 -0.36571187 0.013154876 -0.029478645 0.16535614 -0.98579323 8.5491174e-06
0.053671002 -0.36785728 0.012652943 -0.032754935 0.16798404 -0.98524535 1.5532598e-05
0.063530609 -0.36504543 0.012795424 -0.039063506 0.16645819 -0.98527443 1.397365e-05
0.07613153 -0.36419526 0.012324302 -0.044737853 0.16623494 -0.98507077 5.4877419e-06
0.084194161 -0.36555237 0.011694817 -0.047610149 0.16902156 -0.98446184 6.414235e-06
0.093542099 -0.36475655 0.011375959 -0.046826228 0.1677552 -0.98471594 6.8796539e-06
0.10696223 -0.36681151 0.010389427 -0.07355044 0.18381222 -0.98020577 0.00067837507
0.12360056 -0.36268902 0.010310742 -0.12544841 0.19378456 -0.97299039 0.00072469853
-0.12342726 -0.35237846 0.012054848 0.10728202 0.17464943 -0.97876865 0.0010660295
-0.1042015 -0.35499486 0.012535632 0.059041273 0.16605468 -0.98434746 0.00030249328
-0.093960047 -0.35335627 0.013320517 0.046968784 0.16295864 -0.98551428 7.3287129e-06
-0.086133167 -0.35694522 0.01308497 0.04676066 0.16512068 -0.98516428 7.4087184e-06
-0.079166196 -0.35362834 0.013998916 0.04589298 0.1643737 -0.98532999 9.4781226e-06
-0.057157706 -0.3566885 0.014456308 0.03513895 0.16472672 -0.98571306 1.7305603e-05
-0.044643145 -0.35398555 0.015213315 0.025590332 0.16015072 -0.9867608 6.7656952e-06
-0.034466095 -0.3538852 0.015474495 0.02430851 0.1596587 -0.98687297 1.2525981e-05
-0.026205674 -0.35510135 0.01546725 0.023711916 0.16065326 -0.98672611 1.2035102e-05
-0.01718626 -0.35376862 0.015908873 0.019351905 0.15898897 -0.98709065 2.031196e-05
-0.0023432735 -0.35512561 0.016034331 0.0027166903 0.1610079 -0.98694938 5.8700389e-05
0.014218778 -0.35532731 0.015716737 -0.015112098 0.16158086 -0.98674375 3.3821976e-05
0.024447296 -0.35542953 0.015454005 -0.02246296 0.16008045 -0.98684835 8.2910192e-06
0.035723828 -0.35737604 0.014854516 -0.024929186 0.16155741 -0.98654836 1.0876347e-05
0.044788841 -0.35283607 0.015404031 -0.025557064 0.16020396 -0.98675299 9.9830168e-06
0.054554686 -0.35535792 0.014743586 -0.030732408 0.16117506 -0.98644722 1.6785016e-05
0.06518691 -0.35372528 0.01466759 -0.039052531 0.16249864 -0.98593569 1.8420342e-05
0.076612748 -0.35776269 0.013410698 -0.043967213 0.16524506 -0.98527199 6.5602057e-06
0.087908514 -0.35556573 0.013235966 -0.047349077 0.16561221 -0.98505366 3.4297468e-06
0.09810748 -0.35673615 0.012533946 -0.046746403 0.16589352 -0.98503506 2.1624353e-06
0.11643276 -0.3539716 0.012119394 -0.095717125 0.17753555 -0.97944856 0.00085770391
0.12538511 -0.35978463 0.010716722 -0.14033578 0.19275382 -0.97116005 0.0009362651
-0.13178219 -0.34532842 0.011994584 0.17557003 0.16666968 -0.97025579 0.0030016336
-0.12152599 -0.34265861 0.01374781 0.10213339 0.1656815 -0.98087639 0.00084696349
-0.11409599 -0.34668997 0.013483569 0.068223909 0.16459361 -0.98399925 0.00048732705
-0.10232503 -0.34592849 0.014148975 0.053790953 0.16097149 -0.98549205 8.2193183e-05
-0.095344782 -0.34507 0.014650822 0.047626689 0.15792939 -0.98630118 1.1352774e-05
-0.081256479 -0.34311894 0.015631972 0.045457203 0.15835239 -0.98633575 1.0864002e-05
-0.067441031 -0.34806854 0.015525887 0.040836252 0.16073537 -0.98615235 2.099142e-05
-0.056250166 -0.34320545 0.016673539 0.031084204 0.15652744 -0.98718435 2.1110525e-05
-0.047116209 -0.34490624 0.016625963 0.025137577 0.15700392 -0.98727798 1.3402574e-05
-0.035586581 -0.34621564 0.016710065 0.024914971 0.1559996 -0.98744291 1.3222985e-05
-0.022993319 -0.34688666 0.016906939 0.023112204 0.15634929 -0.98743135 1.0587774e-05
-0.013942184 -0.34798592 0.016955843 0.014465187 0.15677319 -0.98752868 3.1155923e-05
-0.0072411224 -0.34518507 0.017531615 0.012264701 0.15541264 -0.98777354 3.7565864e-05
0.0038982977 -0.34510228 0.017627554 -0.0048446031 0.15734088 -0.98753244 6.6957014e-05
0.01332406 -0.34383422 0.017593529 -0.017335886 0.15655191 -0.98751754 2.9760711e-05
0.028220706 -0.34794575 0.016613532 -0.023282045 0.15743823 -0.98725438 7.8901276e-06
0.03476524 -0.34286639 0.017232118 -0.024099506 0.15414824 -0.98775381 8.1359776e-06
0.047084477 -0.34270108 0.016965825 -0.026808511 0.1550734 -0.98753917 1.0606353e-05
0.053156771 -0.34307981 0.01676549 -0.029188957 0.15489279 -0.98750007 1.3602592e-05
0.086540133 -0.34860975 0.014503365 -0.046643894 0.16184551 -0.98571318 1.0717359e-05
0.099715471 -0.34470069 0.01447711 -0.047539864 0.15866803 -0.9861868 1.3255853e-05
0.10533839 -0.34883985 0.013541979 -0.053422872 0.1640591 -0.98500288 0.00014956063
0.11640429 -0.34605432 0.013450033 -0.089410089 0.17311682 -0.9808346 0.00070654083
0.1254838 -0.3481946 0.012668729 -0.11201504 0.18221748 -0.97685689 0.00084235281
0.14605838 -0.34113142 0.010222625 -0.41627192 0.1558045 -0.89579159 0.020391563
-0.14581968 -0.33069509 0.011764047 0.46736053 0.14503294 -0.87208921 0.0315753
-0.13337916 -0.33423829 0.014041886 0.18120374 0.17401701 -0.96792734 0.0031841872
-0.12284639 -0.33431831 0.014908005 0.10483233 0.16153575 -0.98128307 0.00082215341
-0.11516813 -0.33697927 0.01492212 0.057387255 0.15652524 -0.98600537 9.6735319e-05
-0.10500617 -0.33345568 0.015952427 0.054065254 0.15088476 -0.98707181 4.5047273e-05
-0.092026576 -0.33208501 0.016791288 0.049371697 0.15115666 -0.98727608 5.9209688e-06
-0.087983437 -0.33410448 0.016679659 0.048674043 0.15296239 -0.98703259 9.1721158e-06
-0.076233722 -0.33309406 0.017403914 0.045264434 0.15228903 -0.98729891 1.0038913e-05
-0.064557768 -0.33565667 0.017576065 0.03606889 0.15201795 -0.98771942 2.3805233e-05
-0.055507526 -0.33406836 0.018062364 0.029449351 0.15155661 -0.98800981 1.8131186e-05
-0.045222279 -0.33600724 0.018014424 0.024336364 0.15182327 -0.98810804 2.0099992e-06
-0.034865431 -0.33315164 0.018687714 0.023887474 0.15108299 -0.98823237 9.3298644e-07
-0.022921197 -0.33578831 0.018574938 0.020972 0.1523657 -0.9881016 1.0984167e-05
-0.017748848 -0.33298743 0.019123802 0.019313684 0.15202129 -0.98818851 1.8477263e-05
-0.0080634309 -0.33168352 0.019574642 0.012799783 0.15204225 -0.98829114 5.4206223e-05
0.0069010854 -0.33724207 0.018753402 -0.0081018517 0.15418498 -0.9880088 8.528828e-05
0.010941813 -0.3353872 0.01893219 -0.013823644 0.15354332 -0.98804522 4.6264162e-05
0.027359864 -0.3319788 0.019041091 -0.024214724 0.15145129 -0.988168 4.2324623e-06
0.035492923 -0.33686912 0.01811498 -0.024088286 0.1526863 -0.98798114 5.029508e-06
0.049669586 -0.33143544 0.018595453 -0.027041137 0.15128702 -0.98811996 8.6830632e-06
0.05473559 -0.33667174 0.017689889 -0.027243597 0.15155657 -0.98807311 9.4746038e-06
0.066339992 -0.33356887 0.017804809 -0.037125755 0.15271075 -0.98757333 1.5335918e-05
0.074513949 -0.3355962 0.017105952 -0.041721489 0.15429257 -0.98714393 1.248747e-05
0.087594435 -0.33767813 0.016153771 -0.047585603 0.15615955 -0.9865849 9.3231547e-06
0.10204005 -0.33588678 0.015725782 -0.049828041 0.15063876 -0.98733234 1.1447783e-05
0.11942665 -0.3347308 0.015037828 -0.094912738 0.15322776 -0.98362225 0.00069290702
0.12610435 -0.3367548 0.014377426 -0.13207553 0.16029243 -0.97819346 0.0019021332
0.13543715 -0.33167043 0.013515475 -0.21043915 0.16341986 -0.96385127 0.00458063
0.14471187 -0.33462733 0.011378181 -0.40380135 0.15280436 -0.90199518 0.024112621
-0.15099588 -0.32608372 0.011036597 0.52770442 0.10932173 -0.84236383 0.037410796
-0.14305189 -0.3209475 0.013753219 0.33410016 0.14677645 -0.93103909 0.024276383
-0.1337705 -0.32719713 0.015327857 0.15990387 0.16696905 -0.97290909 0.0019785454
-0.12650168 -0.32920241 0.015441518 0.12107859 0.15256943 -0.9808479 0.0013626528
-0.1146404 -0.32464209 0.016753361 0.064551845 0.14627928 -0.98713499 0.00025112083
-0.1036794 -0.32163516 0.017792018 0.051732868 0.14573897 -0.98796958 4.4794592e-06
-0.095438085 -0.32566181 0.017604873 0.050611876 0.14829268 -0.98764759 6.4490991e-06
-0.064075008 -0.32588288 0.019087292 0.035997365 0.15063435 -0.98793393 2.1829004e-05
-0.057365011 -0.32541943 0.019316478 0.031850174 0.14981273 -0.98820126 1.7506762e-05
-0.043302312 -0.32599163 0.019562904 0.024259245 0.15023941 -0.98835194 0
-0.027806971 -0.32720986 0.019748101 0.024314502 0.15111642 -0.98821694 1.1446476e-06
0.0053634979 -0.32988149 0.019921115 -0.00507444 0.15161946 -0.98842591 8.7485634e-05
0.012755611 -0.32824764 0.019978642 -0.019083807 0.15194783 -0.98820424 1.8145131e-05
0.027150281 -0.32843423 0.019578002 -0.024276381 0.1504896 -0.9883135 2.0356581e-06
0.04481807 -0.32915431 0.019052446 -0.025986543 0.15074311 -0.98823136 5.9069944e-06
0.06681063 -0.32573169 0.018983549 -0.037715621 0.15100195 -0.98781371 1.5434645e-05
0.07453905 -0.32659841 0.018476352 -0.0398532 0.15143239 -0.98766392 2.0664134e-05
0.085358523 -0.32539585 0.018134583 -0.050108109 0.14868356 -0.98761451 3.0753117e-06
0.096291564 -0.32326522 0.017928785 -0.051143337 0.14699076 -0.98781478 6.8980657e-06
0.10492798 -0.32288405 0.017543361 -0.052628923 0.14567412 -0.98793185 4.2005772e-06
0.11509613 -0.32294303 0.016972484 -0.05698524 0.14665826 -0.98754442 8.0568178e-05
0.12449498 -0.32310751 0.016428987 -0.10894497 0.14880289 -0.98284721 0.0010915685
0.13382111 -0.32469499 0.015670791 -0.20335612 0.14932972 -0.96765023 0.0078157177
0.14601982 -0.32558984 0.012592543 -0.44702297 0.15438975 -0.88109833 0.028029174
0.15089151 -0.32191768 0.011784337 -0.50916463 0.12363408 -0.85174292 0.031820208
-0.15054739 -0.31286994 0.013478028 0.55631262 0.13360356 -0.82016236 0.0361223
-0.14501294 -0.31650734 0.014136606 0.42656428 0.12078789 -0.89635551 0.035926528
-0.13700306 -0.31070882 0.017520159 0.24421369 0.12972352 -0.96100545 0.015097765
-0.12443981 -0.31408119 0.01773007 0.10871723 0.14126697 -0.98398387 0.0011849722
-0.11550001 -0.31538376 0.018037206 0.070568815 0.14395481 -0.98706484 0.00045853178
-0.10525373 -0.31275719 0.018981641 0.052820161 0.14297307 -0.98831606 4.4987041e-06
-0.096712947 -0.3166509 0.018884253 0.051887687 0.14566684 -0.98797208 6.5642116e-06
-0.084481359 -0.31892264 0.019163933 0.048366074 0.14794572 -0.9878121 1.0788355e-05
-0.077403247 -0.31873742 0.019535674 0.045565009 0.149242 -0.98775029 1.2114279e-05
0.086011641 -0.31808034 0.019218063 -0.050503109 0.14624873 -0.98795789 7.2839312e-06
0.096130595 -0.31321302 0.019418173 -0.052748226 0.14298138 -0.98831874 9.8728697e-06
0.11339953 -0.31713542 0.017901486 -0.057269357 0.14659552 -0.98753738 8.2861414e-05
0.12421409 -0.31611958 0.017449422 -0.10487276 0.15176839 -0.98283672 0.0012228868
0.13565475 -0.31548283 0.01690821 -0.22012423 0.13779315 -0.96569061 0.0090106083
0.15212807 -0.31525284 0.012146316 -0.5196861 0.12013908 -0.84586817 0.032772008
-0.15170051 -0.30648121 0.013547289 0.57506764 0.10103606 -0.81184298 0.032335296
-0.14621887 -0.3056328 0.015554854 0.58444142 0.10821509 -0.8041876 0.03532901
-0.13659099 -0.3029125 0.018664105 0.27507374 0.14794558 -0.94997185 0.017936431
-0.12517571 -0.30512196 0.018977745 0.10404481 0.14052427 -0.98459512 0.0011019666
-0.11514834 -0.30634838 0.019355988 0.054808356 0.13902593 -0.9887709 1.1783356e-05
-0.1073941 -0.30700952 0.019689802 0.053446274 0.14048496 -0.98863918 5.5950745e-06
0.10851026 -0.30798304 0.019488066 -0.053426731 0.14112942 -0.98854846 2.8912846e-06
0.11220223 -0.30467546 0.01975951 -0.054436516 0.13696286 -0.9890793 1.2393574e-05
0.12752971 -0.30637845 0.018666856 -0.12419055 0.14983287 -0.98088056 0.0021725465
0.13588071 -0.30350474 0.018618219 -0.21511911 0.14598386 -0.96561503 0.0098659843
0.14791 -0.30528072 0.015332115 -0.52292544 0.14904074 -0.83924723 0.033717483
0.15102622 -0.30544138 0.014366893 -0.54107928 0.14608321 -0.82818651 0.038541634
-0.15399814 -0.29628646 0.012904406 0.7363739 0.11099488 -0.66740811 0.026246946
-0.14580421 -0.29355726 0.017862821 0.50033975 0.10837968 -0.85901916 0.037646104
-0.13514112 -0.29814646 0.019429674 0.2478497 0.13244066 -0.95970309 0.018068632
0.13220513 -0.29708123 0.019745249 -0.18377146 0.14044593 -0.97288388 0.0091696577
0.14232589 -0.2933735 0.019185981 -0.29264224 0.17615598 -0.93985611 0.017731011
0.15453076 -0.2991772 0.011900544 -0.72083187 0.080428399 -0.68842763 0.039561305
-0.15028509 -0.28471652 0.017735353 0.66195387 0.082112588 -0.74503326 0.0312066
0.1451928 -0.28552347 0.019319333 -0.35459015 0.17837949 -0.91784889 0.023639873
0.15342289 -0.28274006 0.015455008 -0.76063752 0.113746 -0.63913411 0.031677064
-0.15731718 -0.2779136 0.010453233 0.8562215 0.040556811 -0.51501441 0.022142973
-0.14759073 -0.27651775 0.019706514 0.61344028 0.069026366 -0.78671873 0.035108697
0.14974131 -0.27643278 0.019136384 -0.57723099 0.057366937 -0.81456339 0.04254758
0.15170699 -0.2741515 0.018595338 -0.69497627 0.065860748 -0.71601009 0.050135318
-0.15485059 -0.26367429 0.015839275 0.75785738 0.092443049 -0.64583784 0.037948683
-0.15678744 -0.25230318 0.013960564 0.82450223 0.077342324 -0.56054807 0.030938121
0.15661533 -0.25313595 0.013713547 -0.83265412 0.015162495 -0.55358565 0.027034594
-0.15626881 -0.24593192 0.015398811 0.81580931 0.079325095 -0.57285488 0.033326391
-0.15681866 -0.23539011 0.015328958 0.82043213 0.0079669682 -0.57168835 0.029644189
0.15595084 -0.23127671 0.017749887 -0.8097837 0.074584745 -0.58196861 0.029592095
-0.15772586 -0.22358659 0.013161803 0.86088175 0.021373011 -0.50835592 0.035134006
0.15705581 -0.224774 0.015333096 -0.83605045 0.1043326 -0.53864121 0.034441713
-0.15736164 -0.21178015 0.015141041 0.8811633 -0.059500195 -0.46905321 0.054691844
0.15691394 -0.21475188 0.016653975 -0.86962867 -0.026242724 -0.49300843 0.060910415
-0.15793827 -0.20477457 0.014380842 0.90294415 -0.16344345 -0.39746442 0.063156135
0.15653864 -0.20393735 0.018632613 -0.89925146 -0.096072644 -0.42675155 0.084969252
-0.15645567 -0.19236861 0.013184589 0.96963978 -0.03761676 -0.24162734 0.13999525
-0.14686729 -0.19081828 0.011057356 0.86152601 -0.50000459 -0.088138118 0.16763246
0.14769334 -0.19079821 0.011126461 -0.97368109 -0.22445917 -0.039538369 0.19338742
0.15705241 -0.19266699 0.014390426 -0.92500287 -0.0078117764 -0.37987983 0.10859301
-0.15289962 -0.18705046 0.018350665 0.98754799 0.0050880448 -0.15723585 0.19268511
-0.14379391 -0.1848096 0.015806884 0.9574151 0.28871495 -4.1728716e-05 0.24391595
-0.10295942 -0.1806343 0.013325314 -0.020501573 0.97676349 0.21333766 0.077988192
-0.091945536 -0.18291254 0.019333746 0.074088275 0.97696853 0.20010857 0.096413709
-0.086314894 -0.1827319 0.014178216 0.11361972 0.98378414 0.13877781 0.075850941
-0.074477762 -0.18465826 0.017434832 0.16812131 0.95830339 0.23106256 0.076893792
-0.069419608 -0.18458034 0.013312992 0.073089547 0.99728698 0.0087566869 0.069219418
-0.053312361 -0.18461992 0.015221525 0.0004632154 0.99968815 0.024966173 0.061804041
-0.042345315 -0.18365182 0.010484274 -0.05218729 0.99805558 -0.034082163 0.071503691
-0.03166439 -0.18410411 0.014417965 -0.026905287 0.9893629 0.14295855 0.051831245
-0.023276065 -0.1840394 0.015047538 -0.056844603 0.98240304 0.17791291 0.093207024
-0.01288447 -0.18395366 0.015759226 -0.10326346 0.98152733 0.16106127 0.05588695
-0.006960623 -0.18365687 0.014737731 -0.1428515 0.98824465 0.054459929 0.063748077
0.0050606467 -0.18004611 0.011859467 -0.34253463 0.93937254 0.015787225 0.086326562
0.14358172 -0.18555705 0.016105145 -0.98406607 -0.10847232 -0.14088188 0.23231132
0.15035427 -0.1854949 0.019861517 -0.96119601 -0.02346441 -0.27486682 0.1786443
-0.14402167 -0.17541914 0.016387878 0.95057392 0.26499027 0.16183157 0.20370407
-0.132769 -0.17546606 0.017908406 0.44083917 0.88768047 0.13298197 0.19636495
-0.12468367 -0.17783046 0.011786455 0.2472776 0.95930821 0.13631377 0.14662717
-0.11215638 -0.17981976 0.014946292 0.08239805 0.9892081 0.12115244 0.089281045
-0.10833491 -0.17964016 0.011121842 0.084770173 0.99211729 0.092289157 0.081779122
0.016180031 -0.17387119 0.014113239 -0.4431926 0.89642477 -0.0017194935 0.071223564
0.14337289 -0.17611402 0.01801271 -0.93249637 -0.35959965 0.033742394 0.21566376
0.15836309 -0.17000684 0.015715441 -0.9823485 0.16347823 0.090918861 0.19081943
-0.15905502 -0.16337022 0.013396406 0.88478738 0.39883101 0.24100864 0.18381661
-0.14366286 -0.16490917 0.016138092 0.89957941 0.42687145 0.092399932 0.16630758
0.02535231 -0.16823599 0.013628964 -0.47828969 0.87816834 0.0077018989 0.063454889
0.034952618 -0.16262619 0.01458312 -0.32115561 0.94475335 -0.065574862 0.064978123
0.047444783 -0.16028035 0.010925128 -0.14965737 0.97921705 -0.13688113 0.067670375
0.060959455 -0.16078115 0.014568534 -0.27453429 0.96152383 0.010145223 0.17405941
0.07366471 -0.16083708 0.015763842 -0.57664853 0.81174898 0.092412576 0.26767462
0.086157128 -0.16252053 0.014929375 0.00074139534 0.98065716 0.19573203 0.26298866
0.096246541 -0.16081135 0.014788254 0.30549496 0.91367078 -0.26810157 0.20369677
0.10990389 -0.16106783 0.016654098 0.30263531 0.95290065 0.019803699 0.11509914
0.11654751 -0.16106455 0.01645715 0.099380575 0.99504095 0.0041314252 0.090765528
0.1253286 -0.16114448 0.015151496 0.0033961087 0.98885137 0.14886717 0.15428247
0.13263303 -0.16273165 0.015444112 0.072259113 0.97861075 0.19261266 0.21245216
0.14443526 -0.16615397 0.013505637 -0.84660167 0.12088624 0.51831675 0.24903458
0.15912665 -0.16857807 0.01248001 -0.97407281 0.10765289 0.19898003 0.19624726
-0.15909591 -0.15701793 0.013790396 0.88393301 0.39433017 0.2513288 0.19778779
-0.14498581 -0.15574816 0.016521743 0.89752233 0.33951795 0.28139162 0.13874505
0.077869125 -0.15668629 0.01675182 -0.61308783 0.48164868 -0.62620914 0.28905237
0.084591277 -0.15445495 0.017755022 -0.68280208 -0.25620776 -0.68420678 0.26496875
0.14493464 -0.15549493 0.014370685 -0.86717325 0.42349005 0.26204327 0.20860037
0.15900131 -0.15565759 0.01438364 -0.88781023 0.34901491 0.29996923 0.20850374
-0.15890911 -0.14075901 0.016127082 0.9782235 -0.13808767 0.15495349 0.19415429
-0.14707354 -0.14639415 0.018660756 0.99110651 0.13306539 -0.0012015023 0.15815307
0.072716884 -0.14417595 0.015676165 -0.086248547 0.27726626 -0.95691419 0.17331342
0.088720031 -0.14987011 0.019287674 0.23524772 0.28013307 -0.93069005 0.21894985
0.09287075 -0.14472897 0.012043816 -0.14426446 0.25218302 -0.95686543 0.13791133
0.14642167 -0.14558984 0.017733024 -0.91750729 0.33850017 0.20880137 0.18382373
0.15933731 -0.14375943 0.013795074 -0.98865104 -0.14228028 0.048222192 0.19712554
-0.1594464 -0.13504803 0.013864051 0.9598496 -0.22271277 0.17055161 0.17390606
-0.1447894 -0.13736367 0.016476069 0.9796766 -0.049678184 0.19433443 0.15275715
0.066671208 -0.13503009 0.018101074 0.258008 0.31347257 0.91387463 0.24953589
0.070351392 -0.13977939 0.014162026 0.012949483 0.16693163 -0.98588341 0.21697827
0.095414311 -0.13596988 0.012347631 0.11413435 0.20148069 0.97282004 0.23085761
0.11658716 -0.13032697 0.016031297 -0.044539094 0.92591643 0.3750934 0.060584951
0.14489459 -0.13533387 0.016181316 -0.98070973 0.043957599 0.19046311 0.1737771
0.15907839 -0.13337514 0.015867556 -0.9799481 -0.13839303 0.14334932 0.17115308
0.16015959 -0.13743658 0.010162495 -0.98464352 -0.17250289 -0.026831154 0.1647265
-0.16011207 -0.12905423 0.0109846 0.93063527 -0.29147822 0.22126564 0.16254841
-0.15915999 -0.12629813 0.015929993 0.95994145 -0.27686226 0.04312383 0.14909324
-0.14607926 -0.12728477 0.019618798 0.99944305 -0.017100735 -0.028655235 0.10800882
0.051589657 -0.12592667 0.013310035 0.55932915 0.77018976 0.30652678 0.074081413
0.065222934 -0.12526536 0.015143424 0.10352544 0.90147436 0.42026952 0.074676022
0.082211904 -0.12363746 0.012070482 -0.022490997 0.86351168 0.5038271 0.094882175
0.0945924 -0.12421751 0.014313606 -0.2278109 0.88862175 0.39806238 0.11674504
0.1028559 -0.12612528 0.016892547 -0.39923197 0.84403259 0.35808223 0.12169606
0.11401343 -0.12605277 0.011814059 -0.30447274 0.88186598 0.36001223 0.064252071
0.14476442 -0.1256579 0.017095868 -0.99703491 -0.015430921 0.075386792 0.16394271
0.16025598 -0.12468934 0.010576772 -0.98452067 -0.094451368 -0.1476416 0.13679528
-0.14466436 -0.11358813 0.017473679 0.98687238 -0.12442328 0.10296505 0.11283928
0.14446886 -0.11799271 0.013021591 -0.97192299 -0.054921865 0.22879948 0.11679829
0.15927443 -0.11978488 0.015784243 -0.98685628 -0.019408945 -0.1604306 0.10835467
-0.15961181 -0.10377794 0.015694525 0.99408829 0.024729792 -0.10572086 0.11311174
-0.14446767 -0.10332584 0.014534289 0.98107225 0.0023887684 0.19362749 0.1114331
0.14450748 -0.10325623 0.014947391 -0.96262801 0.052318037 0.26572585 0.11074545
0.1596902 -0.10206266 0.015273124 -0.97827858 0.072499439 -0.19420309 0.1176254
-0.15962306 -0.098194525 0.016248018 0.99930966 0.010950681 0.035502508 0.12724748
-0.14426857 -0.098692112 0.010946031 0.96996742 0.070931204 0.23266256 0.13977621
0.14443842 -0.09554144 0.015081423 -0.98571014 0.044954587 0.16234121 0.12719239
0.15935376 -0.093266025 0.018719526 -0.99482083 0.067441918 -0.076046221 0.12245295
0.16012746 -0.092775226 0.013610527 -0.98748088 0.09110789 -0.12876655 0.14061904
-0.1600012 -0.08771982 0.015142327 0.99888021 0.033008631 -0.033892166 0.13818404
-0.15971121 -0.084735334 0.017487977 0.9990195 0.039909381 -0.019166254 0.12217412
-0.1442849 -0.084046677 0.013213227 0.97243649 0.050837751 0.22755824 0.1206184
0.15951377 -0.086007349 0.018635813 -0.98885936 0.023413487 -0.147 0.11287926
0.16020143 -0.087223902 0.013870327 -0.98744708 -0.092515878 -0.12802005 0.13791549
-0.15971498 -0.077142067 0.01849491 0.99486655 0.083165646 -0.057655115 0.11637301
-0.14423151 -0.076583408 0.013588813 0.98790562 0.04233944 0.14916421 0.13061702
0.14430818 -0.072417557 0.018169772 -0.98503917 -0.099857464 0.1404506 0.12564158
0.15996686 -0.070093714 0.017768119 -0.99571627 -0.056265317 -0.073371045 0.11573389
-0.1601994 -0.062196616 0.017285965 0.99276394 0.0039888429 -0.12001594 0.11806358
-0.15984179 -0.062482137 0.019639488 0.99161762 0.0029284973 -0.12917382 0.10616956
-0.14415912 -0.063399859 0.015479351 0.97541308 0.039023232 0.21690232 0.12573418
0.14411853 -0.06529627 0.013165224 -0.9754194 0.009159591 0.22016606 0.14682975
0.16085869 -0.062730394 0.012802868 -0.98859149 0.071941584 -0.1323301 0.14195988
-0.16056824 -0.052198447 0.016177649 0.97954005 -0.050156467 -0.19489907 0.13786091
-0.14402817 -0.055239875 0.013201874 0.97754854 0.016017335 0.21010049 0.13433494
0.14400651 -0.054365139 0.012652189 -0.97609687 0.041947085 0.21324958 0.14651622
0.16042322 -0.056015551 0.016628791 -0.98856765 0.10928812 -0.10387532 0.12493108
-0.16089496 -0.044493474 0.015039365 0.98776072 -0.0042787893 -0.15591864 0.16129106
-0.14394167 -0.041413631 0.01476026 0.98069304 -0.10903481 0.1623348 0.14152107
0.16106743 -0.042745132 0.01412328 -0.95404881 -0.011082524 -0.29944637 0.14777802
-0.16130379 -0.031743586 0.014037686 0.99535704 0.059370976 -0.075759493 0.14581296
-0.14393638 -0.031604834 0.018110752 0.81740028 -0.20047858 0.5400604 0.15827501
0.14388227 -0.034181338 0.015010308 -0.8096227 -0.2149515 0.54617476 0.20937805
0.1615555 -0.037100073 0.011625499 -0.98278719 -0.049067594 -0.17810564 0.15593553
-0.16140103 -0.025524367 0.014232442 0.9910832 -0.0093121929 -0.13291888 0.16771202
-0.14379071 -0.023402106 0.015259644 0.62913412 -0.43845698 0.64182991 0.21310663
-0.11509652 -0.023343312 0.012706047 0.25059038 0.95207042 -0.17540337 0.067795865
-0.1046322 -0.021957077 0.016150257 0.19081363 0.9622249 -0.19419937 0.035107806
-0.091199949 -0.021275535 0.015035094 -0.039436243 0.97208601 -0.23128678 0.0033573979
-0.084907994 -0.020734597 0.010877655 -0.0010823855 0.98114532 -0.19326788 0.0023697473
-0.073977202 -0.021579692 0.012526465 0.029205617 0.97957397 -0.19895177 0.0016809198
-0.065149337 -0.021966303 0.014900148 -0.082701884 0.9695071 -0.23068696 0.019388871
-0.058356404 -0.021289177 0.019518686 -0.28908056 0.90722913 -0.3055613 0.05573656
-0.046381503 -0.022044271 0.012823015 0.53293717 -0.79944593 0.27724388 0.062985666
0.047952496 -0.021285165 0.018330079 -0.57133722 -0.76147902 0.30614299 0.068880692
0.053892087 -0.022358237 0.015988559 0.24720483 0.93317801 -0.2608996 0.043296888
0.063287348 -0.021947816 0.015455145 0.1248721 0.96149552 -0.24481277 0.029544104
0.075669214 -0.021151243 0.013663987 -0.024235159 0.97790474 -0.20764141 0.0020764787
0.088314034 -0.021204282 0.011990907 0.030149195 0.98226756 -0.18504429 0.0016132905
0.095023111 -0.021931482 0.013571787 0.052824557 0.97423977 -0.21924071 0.0017465483
0.10779136 -0.023024529 0.012274494 -0.20723788 0.95609653 -0.20720048 0.043376856
0.11314426 -0.022406198 0.01628229 -0.43739581 0.87591714 -0.20360263 0.067038208
0.1437697 -0.025138823 0.013788067 -0.44224989 -0.46317142 0.76804119 0.23512186
0.16128017 -0.027236745 0.014808205 -0.99206018 -0.071207173 -0.10366327 0.15980439
-0.16084631 -0.015494271 0.019306872 0.98956811 0.071456499 -0.12509587 0.16017692
-0.14371261 -0.018108238 0.014056733 0.39937565 -0.64545369 0.65106744 0.23991039
-0.12420522 -0.015267873 0.018362686 0.48354805 0.36256656 -0.79669738 0.21376675
-0.08468391 -0.019267343 0.018865334 -0.031008419 0.95263809 -0.30252135 0.013890689
-0.042921595 -0.017600784 0.01985541 0.69562542 -0.65128684 0.3032006 0.061330643
0.039772782 -0.014232419 0.01130834 -0.92420518 -0.32623851 0.19852766 0.084738709
0.046520088 -0.019933149 0.015776422 -0.62133056 -0.72728115 0.29156554 0.082771622
0.0780356 -0.019932602 0.017862873 -0.029384065 0.96173048 -0.27241689 0.010468344
0.12504932 -0.013601977 0.012086289 -0.75019747 0.40704125 -0.52107692 0.25640917
0.14363897 -0.014249923 0.012511267 -0.54968691 -0.61478168 0.56558627 0.23665315
0.16173322 -0.011852607 0.013868728 -0.98194367 0.0089679873 -0.18896075 0.14629008
-0.1615441 -0.0058773123 0.015946124 0.99350953 -0.01433051 -0.11284287 0.16032651
-0.14365892 -0.0060131662 0.016299799 0.43006581 -0.34843031 0.8328504 0.23033777
-0.12484831 -0.005866691 0.018698221 0.62868047 -0.077280134 -0.77381432 0.22943281
-0.040030181 -0.0043342067 0.018594831 0.96172786 -0.022722488 0.27306271 0.095672876
-0.039763682 -0.0066167014 0.014397187 0.9576537 -0.12667377 0.25855964 0.10493229
0.04006283 -0.0038886382 0.018135317 -0.97303861 -0.047525305 0.22569269 0.085581124
0.12503062 -0.0046809432 0.016615964 -0.75176865 0.077898093 -0.65480971 0.19520654
0.14357701 -0.007747273 0.012392754 -0.3980231 -0.50146586 0.76818597 0.25501117
0.16171637 -0.0046629375 0.014958734 -0.988639 0.10911451 -0.10337792 0.15753478
-0.1618921 0.004956441 0.015090795 0.99276614 -0.0046117203 -0.11997558 0.15907016
-0.14349602 0.0037337383 0.013319737 0.24411178 -0.40764105 0.87990808 0.24821784
-0.12496022 0.0064929738 0.016091691 0.16055803 -0.97495294 0.1539087 0.27182865
-0.040038873 0.0023782919 0.018307209 0.95448095 0.18853955 0.23112537 0.11027727
-0.039948404 0.0017105858 0.016875336 0.96530098 0.2074908 0.15856107 0.11580709
0.039730784 0.00691518 0.012056582 -0.87682945 0.4749563 0.074743845 0.10732791
0.040068213 0.007356897 0.017503444 -0.89151734 0.42658025 0.152401 0.11422108
0.1248048 0.0078818081 0.019493196 -0.36236948 -0.85325986 -0.37501469 0.23930876
0.14354613 0.0037990981 0.015349856 -0.3049739 -0.21459258 0.92786902 0.23598213
0.16220653 0.0045775725 0.012935892 -0.98059875 0.058421675 -0.18711732 0.17488581
-0.16201866 0.014246606 0.015507128 0.97364891 -0.083425477 -0.21224506 0.15208583
-0.14349072 0.015267494 0.017296119 0.36878803 0.07609459 0.92639351 0.21591604
-0.11607325 0.013007633 0.016637977 0.23994282 -0.97058147 -0.019974761 0.15292352
-0.10777992 0.012669474 0.014259241 0.25422823 -0.96714401 -0.00056500238 0.049839538
-0.084038191 0.012651685 0.01413414 0.0096444078 -0.99940169 0.033216923 0.009196029
-0.075275972 0.012566305 0.013533564 0.0036577377 -0.99843341 0.05583173 0.0056933793
-0.067703567 0.012194697 0.010919541 -0.023703974 -0.99229503 0.12160918 0.0021718889
-0.055360608 0.013011507 0.016665321 0.31085783 0.9497751 0.035980925 0.058611482
-0.046127055 0.012759925 0.015185022 0.49105561 0.87111312 0.0051380647 0.058887977
0.039789051 0.012302599 0.012657458 -0.72750956 0.6848157 0.041919846 0.085539259
0.046485133 0.013198719 0.017982148 -0.50794631 0.85571092 0.098738492 0.089663342
0.057834111 0.013115991 0.01740022 0.18858404 -0.98121905 -0.040561855 0.04671932
0.065110013 0.01313135 0.017508274 0.056007192 -0.99775469 -0.036725279 0.025149161
0.078466214 0.01287828 0.015728097 0.010388388 -0.99951369 0.029400846 0.011939033
0.082684934 0.012815351 0.015285441 0.003576776 -0.99929065 0.037488922 0.01120937
0.096270278 0.013096142 0.017260654 -0.015387146 -0.99928761 -0.03445844 0.020161942
0.10344042 0.012288792 0.011581451 -0.15495567 -0.98134768 0.1137781 0.030469008
0.11417516 0.012681398 0.014343208 -0.38998321 -0.91979462 -0.043484624 0.097643122
0.12487234 0.01136126 0.015562026 -0.12380241 0.98824698 -0.089671254 0.24802592
0.14338154 0.017370692 0.013690765 -0.16964269 -0.072677292 0.98282218 0.25480515
0.16165183 0.012370321 0.017705893 -0.98746127 -0.027109019 -0.15551628 0.13218462
-0.16268951 0.02963778 0.013111548 0.99557072 -0.026137393 -0.090309083 0.15361346
-0.14333464 0.025988646 0.014943448 0.89734834 0.42676863 0.11240298 0.21357459
0.14341265 0.020552721 0.016090987 -0.83481532 0.54545105 -0.074609481 0.24852391
0.16215818 0.02509469 0.016048389 -0.97708029 -0.10918316 -0.18273783 0.13330016
-0.16257975 0.035791241 0.01395271 0.98524082 0.029920422 -0.16853838 0.14223856
-0.15419379 0.035055388 0.013858218 0.99958152 -0.025709677 -0.013259999 0.14203396
-0.14568952 0.033394478 0.014466635 0.99047333 -0.093304388 0.10127581 0.12850322
0.14362937 0.034173023 0.015838822 -0.99798 0.063171394 0.0067336871 0.17889008
0.15478741 0.035842836 0.013890978 -0.99886841 -0.043532286 -0.019156814 0.15431826
0.1628173 0.038520023 0.012252217 -0.98025733 0.094892599 -0.17346726 0.13906978
-0.16239302 0.048159622 0.015365351 0.98690009 0.09114676 -0.13311808 0.14110878
-0.14335009 0.042664781 0.01337477 0.98929352 0.12476204 0.075715065 0.13505007
0.14379515 0.041653946 0.017193742 -0.99782109 0.062543042 -0.021009866 0.14363416
0.16254866 0.045651909 0.014241638 -0.99196321 0.05148213 -0.11557914 0.15623608
-0.16259576 0.055435523 0.014531413 0.99775231 0.051421355 -0.042966492 0.14937183
-0.14409344 0.056712706 0.014206675 0.9702664 -0.0042911489 0.2420015 0.12900698
0.14390709 0.054102756 0.011339514 -0.98903102 -0.0084102005 0.14746833 0.14653349
0.16263843 0.056734137 0.01434198 -0.98390228 0.10983686 -0.14096893 0.14154795
-0.16264121 0.066056833 0.014881484 0.99753314 0.040355656 0.057437558 0.16687591
-0.14454231 0.065393269 0.014132929 0.92419571 0.036777921 0.38014421 0.12222178
0.14457518 0.065290295 0.016281193 -0.96787244 0.13718924 0.21071792 0.13703476
0.16214162 0.064520985 0.017915439 -0.99414849 0.055199143 -0.092854083 0.12397092
-0.16231547 0.075405523 0.017477958 0.99671173 0.036431976 -0.072376452 0.13954124
-0.14528763 0.079954214 0.013580146 0.95232481 0.094084099 0.29021654 0.12868768
0.14503676 0.074783325 0.014552812 -0.98126113 0.076691188 0.1767631 0.15617208
