# .PCD v0.7 - Point Cloud Data file format
VERSION 0.7
FIELDS x y z normal_x normal_y normal_z curvature
SIZE 4 4 4 4 4 4 4
TYPE F F F F F F F
COUNT 1 1 1 1 1 1 1
WIDTH 569
HEIGHT 1
VIEWPOINT 0 0 0 1 0 0 0
POINTS 569
DATA ascii
0.29333657 -0.10232562 0.18189478 -0.18721299 0.19624415 -0.96251732 0.0054319208
0.30215031 -0.10143619 0.18032724 -0.20632382 0.20018117 -0.95778805 0.0047695627
-0.077386767 -0.097498566 0.18104661 0.16825274 0.086487882 -0.98194236 0.0050605563
-0.063949108 -0.09512049 0.18334487 0.14001168 0.08041095 -0.98687929 0.0053732749
-0.05382815 -0.093921438 0.18286727 0.12676625 0.084008038 -0.98836887 0.0053843604
-0.045660254 -0.094362423 0.18320516 0.1309865 0.1052515 -0.98578125 0.0039810156
-0.033166852 -0.093085982 0.18470283 0.097652376 0.093257181 -0.99084163 0.0028143206
-0.013328387 -0.09467379 0.1867536 0.05837886 0.10837447 -0.99239451 0.0036144797
-0.0071039647 -0.094720803 0.18790154 0.072718717 0.10554016 -0.99175262 0.0034597029
0.002381976 -0.094543964 0.18792945 0.050358947 0.11073903 -0.99257284 0.0040840982
0.017282085 -0.094135351 0.18874259 0.044154011 0.11049643 -0.99289519 0.004015517
0.029809615 -0.090921998 0.18694766 0.030266691 0.10513955 -0.9939968 0.0049428497
0.038232155 -0.097252235 0.1883174 0.035007294 0.11974669 -0.99218702 0.0044589071
0.042934634 -0.096536376 0.18681954 0.027191674 0.10428365 -0.99417579 0.0053912844
0.059483852 -0.092346102 0.18762834 0.013069087 0.1059705 -0.99428332 0.0061015766
0.061012778 -0.096112356 0.18724963 0.012551508 0.11185487 -0.99364531 0.0059838663
0.073386878 -0.095852494 0.18745738 0.0084053855 0.10895555 -0.9940111 0.0064552403
0.095424525 -0.099073842 0.18703021 -0.0025999802 0.12477414 -0.99218178 0.0057112528
0.10741442 -0.096751645 0.18709365 -0.024251439 0.12538928 -0.99181116 0.0057884078
0.11595434 -0.095529824 0.18712199 -0.01126436 0.14040835 -0.99002957 0.0063677472
0.12051795 -0.09834706 0.18679608 0.0029377872 0.13904761 -0.99028134 0.0056829695
0.13323888 -0.096167959 0.18705356 -0.0064414795 0.12937066 -0.99157536 0.0053485362
0.14499299 -0.094742864 0.18714827 0.0062471237 0.13505647 -0.99081826 0.0058586034
0.15254857 -0.097263239 0.1867934 -0.02244441 0.14617942 -0.98900342 0.0052113244
0.16208966 -0.09653239 0.18680421 -0.013464998 0.1522159 -0.9882555 0.0053153695
0.176283 -0.096187696 0.18644664 -0.019262439 0.14543878 -0.98917967 0.0049822214
0.18874054 -0.095766336 0.18965702 -0.012526953 0.13244213 -0.99111152 0.004951518
0.19627842 -0.094540298 0.18700872 -0.0063530342 0.13449912 -0.9908933 0.0055965926
0.20371759 -0.093917683 0.18817852 -0.017789871 0.1332185 -0.99092704 0.0052658543
0.2158917 -0.094669327 0.1872735 -0.044283308 0.13192597 -0.99026996 0.0040306426
0.22464597 -0.096568465 0.18664728 -0.042808983 0.14956087 -0.98782533 0.0043858662
0.23562083 -0.093702577 0.1861964 -0.07219997 0.1580181 -0.98479307 0.0042250589
0.24391456 -0.092710055 0.18686628 -0.067662373 0.16600768 -0.98380035 0.0039958758
0.25443962 -0.099356815 0.18287429 -0.069050156 0.18778275 -0.97978044 0.0039178776
0.26565674 -0.094920725 0.18544529 -0.087572403 0.18261568 -0.9792766 0.0039581996
0.27524883 -0.092684105 0.18604684 -0.093265109 0.17705177 -0.97977257 0.0044878786
0.28349 -0.091548085 0.18386215 -0.12118469 0.17220822 -0.97757787 0.0059268451
0.29166642 -0.098219752 0.18311712 -0.16436604 0.18592437 -0.96871865 0.0054633659
0.30348447 -0.091703638 0.18195029 -0.20317243 0.1904705 -0.96043843 0.0048170001
-0.082949281 -0.084399343 0.1809085 0.20137149 0.062906958 -0.97749281 0.0042928085
-0.075729534 -0.088219874 0.18215485 0.18263264 0.071934722 -0.98054612 0.0050737872
-0.064799815 -0.084867179 0.18324022 0.1551692 0.081937544 -0.98448402 0.0043261745
-0.056450676 -0.085743278 0.18179588 0.13641818 0.074154779 -0.98787194 0.0041046189
-0.046321828 -0.082271434 0.18681628 0.13415912 0.076187603 -0.98802674 0.0031402379
-0.036610272 -0.086146489 0.18733348 0.10051832 0.086022116 -0.99120945 0.0026866663
-0.024204617 -0.084153809 0.18736915 0.053337704 0.09664686 -0.99388856 0.0034195937
-0.016952179 -0.087804116 0.18864748 0.05835833 0.10001481 -0.99327302 0.0035803197
-0.0082333209 -0.085156403 0.1882519 0.063241452 0.10158975 -0.99281418 0.0040205871
0.0038657584 -0.083536662 0.18668719 0.033965949 0.084254473 -0.99586523 0.0057053487
0.014281834 -0.086663321 0.18851031 0.044299189 0.08567249 -0.99533802 0.0046252431
0.046366375 -0.085073754 0.18816093 0.026349213 0.098187611 -0.99481905 0.0060869912
0.057080794 -0.089042842 0.18793975 0.019856868 0.10891882 -0.99385232 0.006228765
0.06627351 -0.082940996 0.18882363 -0.00095899653 0.10917225 -0.99402237 0.0060182922
0.076960541 -0.08271233 0.18895654 0.0022169775 0.10580511 -0.99438441 0.0060744435
0.086074993 -0.080594473 0.18930574 0.0040793605 0.098008782 -0.99517721 0.0056798267
0.093691729 -0.088712141 0.18823749 -0.0036456885 0.11336114 -0.9935472 0.0062880479
0.10557842 -0.088479102 0.18808831 -0.0051003606 0.11499009 -0.99335349 0.0058437712
0.11913058 -0.080585137 0.18886323 -0.014701292 0.092411466 -0.99561238 0.005653026
0.13265917 -0.081745461 0.18862668 0.010510359 0.10011116 -0.99492073 0.0059960168
0.15460259 -0.089067698 0.18777353 -0.010029329 0.12665437 -0.99189621 0.0066610882
0.16318762 -0.083736449 0.18828972 -0.01958794 0.11115293 -0.99361026 0.0061948323
0.18730439 -0.08222194 0.1880925 -0.018219337 0.10883351 -0.99389303 0.0057857074
0.190658 -0.087771922 0.18719324 -0.01062816 0.11236262 -0.99361044 0.0056258994
0.20466363 -0.088262029 0.18683915 -0.0089971106 0.11983899 -0.99275255 0.0056196493
0.21392618 -0.086079545 0.18769418 -0.028924689 0.13894954 -0.98987693 0.0054669799
0.2259582 -0.080999732 0.18709357 -0.048013393 0.12321862 -0.99121732 0.0049346136
0.23471086 -0.086726718 0.18797299 -0.082733832 0.14100219 -0.98654628 0.0040915208
0.24415754 -0.086390197 0.1878193 -0.058301814 0.15545227 -0.98612142 0.0040848814
0.25481427 -0.084439188 0.18683942 -0.044689521 0.14957538 -0.98773986 0.0034222058
0.26592842 -0.08652243 0.18644953 -0.07722047 0.15717381 -0.98454732 0.0036395811
0.27547836 -0.087185897 0.18513352 -0.099192724 0.16418271 -0.98142993 0.0049138456
0.28477183 -0.08729291 0.18265371 -0.12705208 0.13986291 -0.98198587 0.0051446785
0.29135793 -0.086251363 0.18167344 -0.15679078 0.1463002 -0.97673589 0.0049338704
0.30698907 -0.083527155 0.18254998 -0.20105389 0.17355032 -0.96408391 0.0049928683
0.31504831 -0.085906021 0.18017347 -0.23605815 0.1954181 -0.95188671 0.0054931859
-0.087921724 -0.074467145 0.18057105 0.21518184 0.082746722 -0.97306204 0.0040694633
-0.07000979 -0.078411549 0.18038587 0.16762546 0.069025487 -0.98343134 0.0047639348
-0.063980557 -0.075517587 0.18155007 0.16219853 0.068303086 -0.98439133 0.0046202964
-0.057115078 -0.074178725 0.18359399 0.12906772 0.08353924 -0.98811078 0.0036693614
-0.034315042 -0.073197223 0.18695773 0.10915162 0.04703477 -0.99291164 0.0038835423
-0.015014816 -0.073779866 0.18830791 0.067063242 0.060310818 -0.99592423 0.0056658769
-0.0049903509 -0.072138935 0.18732333 0.054559745 0.058794528 -0.99677801 0.0060969512
0.001361315 -0.076581463 0.18724959 0.043206383 0.06272503 -0.99709517 0.0061588851
0.014118202 -0.072361447 0.18821245 0.022851339 0.051791612 -0.99839646 0.0065043448
0.023979861 -0.07353133 0.18854256 0.035812851 0.064704902 -0.99726164 0.00603311
0.038859285 -0.076696441 0.18880343 0.030725798 0.072042763 -0.99692816 0.0056762355
0.058745213 -0.07175082 0.18989174 -0.00042290302 0.096318938 -0.99535042 0.0057745264
0.074974202 -0.078626595 0.18939044 0.0051391055 0.11554985 -0.99328834 0.0062408997
0.099205673 -0.079103269 0.18927783 -0.0049022632 0.088776879 -0.99603951 0.0057933037
0.11062247 -0.076626211 0.18938652 -0.010146393 0.093124703 -0.99560279 0.005689586
0.1286386 -0.077247418 0.1891261 -0.0020441003 0.091469429 -0.9958058 0.0055798758
0.14808723 -0.075668223 0.18916407 0.0016978551 0.099811949 -0.99500495 0.0067476113
0.15287316 -0.072222948 0.18957782 -0.0026374836 0.087158523 -0.99619097 0.0065946276
0.16453569 -0.074587949 0.18936729 -0.011714962 0.094482489 -0.99545765 0.0064973808
0.17548239 -0.079209998 0.18894385 -0.02290152 0.10617603 -0.99408358 0.0061536105
0.18397607 -0.07148096 0.18971607 -0.028602937 0.09403909 -0.99515754 0.0048946403
0.19087145 -0.072767057 0.18929037 -0.0089576384 0.1011791 -0.99482787 0.0056063146
0.20418282 -0.074993849 0.18874116 -0.016395742 0.096691333 -0.99517936 0.0049574445
0.22537272 -0.07499963 0.18799365 -0.050353333 0.10726611 -0.99295449 0.0058498299
0.2335712 -0.076459229 0.18741912 -0.044913113 0.10910197 -0.99301541 0.0059764283
0.24374312 -0.072763816 0.18750054 -0.050316427 0.1092048 -0.99274492 0.006574336
0.25964302 -0.073315606 0.18650743 -0.07414376 0.12599748 -0.98925596 0.0051068659
0.2652958 -0.070531353 0.18661775 -0.081055403 0.10324305 -0.99134803 0.0053602732
0.27614295 -0.073279575 0.18688262 -0.11113733 0.11320294 -0.98733664 0.0044059632
0.28275925 -0.075991251 0.18630874 -0.13028768 0.12579687 -0.98346341 0.0042116181
0.29165405 -0.074627846 0.18712106 -0.14393476 0.13335977 -0.98056 0.0040931529
0.304694 -0.074594177 0.18447684 -0.17749318 0.15076017 -0.97250581 0.0047711954
0.31985572 -0.078760326 0.18029234 -0.2477932 0.18052505 -0.95184511 0.0052711447
-0.064263567 -0.064801946 0.18496069 0.15088513 0.089217976 -0.98451704 0.0045503275
-0.050535124 -0.069632463 0.18409064 0.10786766 0.070707634 -0.99164766 0.0033969416
-0.044634391 -0.063913956 0.18760984 0.10601677 0.049965277 -0.99310827 0.0036850099
-0.034744088 -0.065953143 0.18809678 0.099559851 0.038563993 -0.99428397 0.0038259199
-0.024612784 -0.065599367 0.1866743 0.081774481 0.046953689 -0.9955442 0.0054340418
-0.016702609 -0.069784768 0.186823 0.067359053 0.059520811 -0.99595183 0.0055635278
-0.0040131561 -0.064474776 0.18798548 0.042366844 0.040618286 -0.99827611 0.0069416235
0.016129797 -0.061218537 0.18917042 0.040922388 0.052276362 -0.99779379 0.0061499304
0.028194243 -0.068622865 0.18922541 0.046706788 0.056555852 -0.99730635 0.005776362
0.1373402 -0.069868878 0.18985067 0.0022454921 0.082324624 -0.99660301 0.0055589294
0.14055444 -0.068188399 0.18994267 0.0013195407 0.080584235 -0.9967469 0.0054526567
0.17600651 -0.068985634 0.18982482 -0.03014056 0.086827017 -0.9957673 0.0050542685
0.18514183 -0.067364097 0.1899918 -0.020124387 0.08992108 -0.9957456 0.0051511182
0.19615452 -0.067887694 0.18989271 -0.017039053 0.091500878 -0.99565917 0.0049556387
0.20766698 -0.067035802 0.18977189 -0.010217375 0.10606191 -0.99430704 0.0054621096
0.22309084 -0.068571098 0.18902792 -0.044761121 0.097265787 -0.99425137 0.00619687
0.25127971 -0.064733572 0.1882942 -0.054239102 0.10129818 -0.99337643 0.0057329433
0.26945868 -0.062226564 0.18759175 -0.073277086 0.11312289 -0.99087518 0.0062198709
0.27543861 -0.062645361 0.18710174 -0.10897444 0.11980321 -0.98679876 0.0053878394
0.28539354 -0.06517458 0.1880424 -0.11099155 0.12634483 -0.98575753 0.003636054
0.29638439 -0.061255846 0.18442214 -0.14091 0.12850143 -0.98164743 0.0043291473
0.30423757 -0.066282265 0.18342082 -0.15601549 0.14666207 -0.97680575 0.0034127831
0.31259805 -0.064706497 0.18350725 -0.21267402 0.10708011 -0.9712382 0.0039786813
-0.086379007 -0.053017505 0.18227176 0.2487013 0.055400789 -0.96699446 0.0042474885
-0.078288145 -0.058384281 0.18377745 0.18868114 0.059083983 -0.98025942 0.0042045931
-0.064728558 -0.056071963 0.18607 0.13454054 0.058970422 -0.98915184 0.0050420305
-0.055264026 -0.056834169 0.18577516 0.093264557 0.060299829 -0.99381369 0.0031861949
-0.043770596 -0.055985205 0.18536657 0.10110009 0.043682165 -0.99391681 0.0042940071
-0.03441713 -0.054329168 0.18834499 0.096331768 0.050239585 -0.9940806 0.0057352381
-0.023264905 -0.053300828 0.1872292 0.078135937 0.034088805 -0.99635977 0.0061662137
-0.015512569 -0.055276319 0.18763703 0.073304705 0.032960575 -0.99676478 0.0063517741
-0.0056576254 -0.053538222 0.18830512 0.052493673 0.030034812 -0.99816954 0.0077336119
0.0081206607 -0.054921303 0.18900701 0.040661078 0.054162949 -0.99770391 0.0075023808
0.014338536 -0.057666883 0.18921036 0.047905173 0.049756724 -0.99761182 0.0074788686
0.022493927 -0.054314058 0.18975802 0.050073456 0.060622178 -0.99690396 0.0061398246
0.22418621 -0.0557018 0.18997371 -0.04263065 0.073870331 -0.99635625 0.0063146478
0.23279245 -0.05770522 0.18952081 -0.039723635 0.066610359 -0.996988 0.0069481321
0.24468191 -0.059712935 0.1889205 -0.03896514 0.093041532 -0.99489951 0.0066140164
0.26366913 -0.05169782 0.18841767 -0.045187891 0.064493611 -0.99689442 0.0075702192
0.28457549 -0.058408834 0.1867771 -0.10520091 0.12296262 -0.98681968 0.0050614094
0.2946617 -0.056307934 0.1861136 -0.13949816 0.092411809 -0.98590076 0.0051901429
0.30412108 -0.057219662 0.18539205 -0.18312873 0.11540854 -0.9762913 0.0043528508
0.31541577 -0.052414194 0.18478371 -0.22503896 0.089162335 -0.97026157 0.003824214
0.3311834 -0.055617996 0.18094423 -0.30008909 0.094172977 -0.94925129 0.0055158613
-0.095491007 -0.045989063 0.18056341 0.27509964 0.08367677 -0.95776737 0.020184981
-0.070814632 -0.040396687 0.18560532 0.17014353 0.028304733 -0.98501271 0.0043035946
-0.066160053 -0.046353534 0.18615302 0.13880911 0.052841663 -0.98890835 0.0036194115
-0.054232605 -0.045844138 0.18625437 0.10822777 0.045047984 -0.99310499 0.0025561855
-0.040773764 -0.044651076 0.18775164 0.079629391 0.027097948 -0.99645615 0.0043252502
-0.039173882 -0.047217291 0.18606605 0.085079618 0.022817444 -0.99611288 0.0043371869
-0.027973942 -0.045061108 0.18712339 0.087927818 0.0087711439 -0.99608821 0.0048928265
-0.013001065 -0.047128588 0.18806949 0.0697814 0.014857897 -0.99745166 0.006368875
-0.0074073249 -0.049368925 0.18834129 0.06276761 0.023328943 -0.99775547 0.0074822558
0.0046958183 -0.048154652 0.1890825 0.065014832 0.042378318 -0.99698406 0.0078284657
0.01360504 -0.043719646 0.18969595 0.051593255 0.044885069 -0.99765909 0.0068006632
0.23734856 -0.048164211 0.1898486 -0.029869756 0.064253472 -0.99748653 0.0060093203
0.24490006 -0.045417264 0.18967193 -0.036773849 0.043783762 -0.99836397 0.0060031768
0.25582355 -0.045932598 0.18911636 -0.051798724 0.058900431 -0.9969191 0.0065067247
0.26426512 -0.043077629 0.18884201 -0.053695947 0.052656967 -0.997168 0.0072711403
0.27383518 -0.049182288 0.18807805 -0.078967504 0.072393276 -0.99424511 0.0070655895
0.28462142 -0.048205491 0.18725823 -0.092743002 0.059211224 -0.9939279 0.0061205509
0.29539442 -0.0453941 0.1883065 -0.13955472 0.061549861 -0.98829955 0.0048589804
0.30377138 -0.045243785 0.18734621 -0.17204997 0.071798205 -0.98246825 0.0046235467
0.31487817 -0.046355467 0.18416512 -0.22892483 0.10149487 -0.96813846 0.0041102618
0.32825017 -0.041452378 0.18278706 -0.29089537 0.077332266 -0.95362449 0.0042654346
-0.080397792 -0.032202415 0.18053648 0.18477829 0.0049929083 -0.98276752 0.008853076
-0.071513467 -0.033795208 0.18570209 0.17408253 0.0011713548 -0.98473042 0.0041990792
-0.063393541 -0.033692483 0.18580325 0.12044277 0.018265521 -0.99255222 0.0035723525
-0.054981045 -0.035280254 0.18469681 0.10326081 0.012176475 -0.99457979 0.0041637723
-0.044047862 -0.035828754 0.187167 0.076866552 0.026569206 -0.99668735 0.0036506068
-0.039106801 -0.03865312 0.18810035 0.072959669 0.020034367 -0.99713367 0.0041921576
-0.025407827 -0.034525435 0.1876931 0.081392318 0.0098186051 -0.99663377 0.0057970635
-0.013260306 -0.032232303 0.18856061 0.066518322 0.021342935 -0.99755698 0.0067593106
-0.00023322787 -0.035836175 0.18926995 0.072599821 0.02586676 -0.99702561 0.0062202495
0.0016040375 -0.035764057 0.18937697 0.050773233 0.032874938 -0.998169 0.00610391
0.28682142 -0.03243164 0.18765819 -0.12555917 0.02303735 -0.99181867 0.0055586663
0.29817691 -0.039447486 0.18915361 -0.15114868 0.042731859 -0.98758709 0.0044253296
0.304842 -0.035355736 0.18707365 -0.17596664 0.025955094 -0.98405391 0.0051461891
0.31361628 -0.0372198 0.18394291 -0.19754286 0.047082137 -0.97916293 0.0046190657
0.33530059 -0.033608459 0.18125281 -0.32199046 0.066545717 -0.94440126 0.0058499984
-0.13303602 -0.02233069 0.18442804 0.50445849 0.41977942 -0.75452429 0.14842017
-0.12696247 -0.026574001 0.18148121 0.52204877 0.32582173 -0.78822923 0.1350998
-0.11055759 -0.025251422 0.18944006 0.22575347 0.054575935 -0.97265452 0.063762441
-0.10508674 -0.02567322 0.18568453 0.20838183 0.046646252 -0.97693455 0.056426179
-0.092602849 -0.022833366 0.18245216 0.19195136 -0.037479624 -0.98068857 0.019598095
-0.082288921 -0.023959063 0.18343781 0.14530002 -0.021608731 -0.98915166 0.016040795
-0.074860029 -0.024764316 0.18404524 0.18676382 -0.015345054 -0.98228502 0.0050250031
-0.065110572 -0.025409002 0.1850567 0.15161613 -0.01432801 -0.98833561 0.0040237228
-0.053893067 -0.023543211 0.18716218 0.11637537 0.018454043 -0.99303377 0.0042819055
-0.045992821 -0.025588717 0.18742971 0.091818616 0.011876159 -0.99570489 0.0040741926
-0.032548234 -0.020935848 0.18727818 0.080178432 0.018462105 -0.99660957 0.0059329006
-0.026115112 -0.024160281 0.1877794 0.068987429 0.030293122 -0.99715751 0.0055196742
-0.016089704 -0.021618601 0.18848404 0.081240825 0.021221146 -0.99646848 0.0063044336
-0.0072004474 -0.026635742 0.18900649 0.068803787 0.023241216 -0.99735951 0.005564787
0.25756487 -0.025919676 0.18983728 -0.050739471 0.03347566 -0.99815077 0.0054309606
0.26805332 -0.02526129 0.18925631 -0.074124962 0.022560671 -0.99699372 0.005694937
0.27028149 -0.024376892 0.18910047 -0.07236357 0.025965614 -0.99704033 0.0058293962
0.2864784 -0.02796185 0.18775181 -0.12201581 0.028658975 -0.99211431 0.0059266663
0.29080111 -0.0207946 0.18733194 -0.13974747 0.013654514 -0.99009305 0.0049099769
0.30810812 -0.025205726 0.18686169 -0.18277839 0.012262347 -0.9830777 0.0044294018
0.3168067 -0.025111357 0.18563223 -0.20496011 0.013400579 -0.97867858 0.0042334087
0.32416326 -0.026721699 0.18282741 -0.2590948 0.02859831 -0.96542847 0.0040771514
0.33654737 -0.023359301 0.18128 -0.30247259 0.044785768 -0.95210534 0.0062124697
-0.093145743 -0.015602527 0.18137205 0.21055703 -0.037332982 -0.97686845 0.021120179
-0.085687749 -0.01448514 0.18298858 0.1701144 -0.056208942 -0.9838199 0.017202064
-0.074713394 -0.017353937 0.18174508 0.18311845 -0.014034436 -0.98299074 0.0061920453
-0.064786159 -0.015924526 0.18578483 0.1643756 -0.023188163 -0.98612523 0.0041847122
-0.054662034 -0.017705729 0.18759105 0.12723739 0.01004222 -0.99182147 0.0042197229
-0.046163999 -0.011190823 0.18967518 0.10171499 0.010953367 -0.99475324 0.0054810662
-0.032993618 -0.019547271 0.18725517 0.077499256 0.023275722 -0.99672073 0.005810691
-0.024285041 -0.01517949 0.18796515 0.071907133 0.011220315 -0.99734825 0.0062871445
-0.0071348767 -0.012498461 0.18911104 0.092383489 0.026385726 -0.99537385 0.0054524201
0.28877532 -0.016003639 0.18770275 -0.10718823 0.0022692047 -0.99423617 0.0059802355
0.29489413 -0.013484413 0.18679108 -0.13045977 0.017774649 -0.99129426 0.0058644773
0.30383188 -0.01579096 0.18778111 -0.16888089 0.0043695024 -0.98562682 0.0043082763
0.31269854 -0.014004462 0.18376943 -0.18533963 0.0044280263 -0.98266447 0.0041622082
0.32382283 -0.014291826 0.18227099 -0.22016007 0.013385142 -0.9753719 0.0045343908
0.33186862 -0.015450378 0.18289256 -0.25136596 0.015409463 -0.96776944 0.0048471657
-0.14329532 -0.0053639174 0.18961345 0.94734925 0.10217331 0.30346325 0.058953878
-0.13765125 -0.0044321916 0.18679412 -0.78628528 -0.089330822 -0.61137176 0.132258
-0.095095724 -0.0062618572 0.18096642 0.2082714 -0.060900595 -0.97617322 0.025851296
-0.082636841 -0.0010119632 0.18007576 0.19977072 0.0082936594 -0.97980762 0.0083576608
-0.076835789 -0.0046997289 0.18231937 0.20482899 -0.017671173 -0.97863817 0.0050712065
-0.064357258 -0.0068106698 0.18621013 0.18092211 -0.022227021 -0.98324627 0.0035236645
-0.054973111 -0.0072129546 0.18490589 0.15797928 -0.003322558 -0.98743683 0.0049073184
-0.046543885 -0.0047344207 0.18748489 0.096170448 0.0010817717 -0.99536431 0.0063832011
-0.031534661 -0.0077187461 0.18744448 0.082104757 0.011112804 -0.99656177 0.0067505329
-0.022571068 -0.0050148652 0.18814792 0.064096838 0.026359335 -0.99759555 0.0060078828
-0.015781626 -0.0061211037 0.18862033 0.075591557 0.026906105 -0.99677575 0.0068938835
0.26150355 -0.0038017125 0.18978947 -0.058804911 -0.0042671561 -0.99826038 0.0054719932
0.28578413 -0.0061225006 0.18799427 -0.11066883 0.01477545 -0.99374759 0.0061738519
0.29472446 -0.0039743669 0.18698521 -0.14791319 0.0038645209 -0.98899281 0.0063832905
0.30474481 -0.004588448 0.18698385 -0.1754712 0.00050519395 -0.98448443 0.0047324463
0.31491494 -0.0024116337 0.18580855 -0.19245723 4.7497098e-05 -0.98130542 0.0044098506
0.3232508 -0.0048428839 0.18178424 -0.22546914 -0.00011036768 -0.97425026 0.0047525214
0.33476463 -0.0044130827 0.18221915 -0.3240512 -0.012090734 -0.94596231 0.0073447325
0.34052005 -0.0027945943 0.18044038 -0.35292479 -0.01522653 -0.9355278 0.00694235
-0.1372612 0.0069022547 0.18753591 0.8785587 -0.11808214 0.46280801 0.081566356
-0.091806874 0.0040453384 0.18167523 0.20157842 0.028024722 -0.97907132 0.013904833
-0.084043071 0.0044982368 0.18155253 0.20599766 0.0034853432 -0.97854632 0.0087555917
-0.079348445 0.0007237572 0.1807642 0.19504814 0.001647505 -0.98079222 0.0089869862
-0.067348763 0.0052501531 0.18311395 0.19351184 0.0071299537 -0.98107201 0.0043984512
-0.058067806 0.0043833959 0.18799655 0.16508432 0.0015201945 -0.98627836 0.005056791
-0.04380073 0.002564176 0.18649466 0.095885687 0.013352402 -0.9953028 0.0059391665
-0.034138404 0.006400683 0.18725106 0.093438148 0.015807163 -0.99549955 0.0068664122
-0.025644401 0.0079719815 0.18789698 0.074510403 0.0025552108 -0.997217 0.0070302971
-0.0072354819 0.0023170565 0.18916827 0.063720241 0.0080236699 -0.99793553 0.0055491691
0.26749122 0.0040058275 0.18944748 -0.068313427 -0.0030587243 -0.99765921 0.0063483333
0.27038765 0.0016270089 0.18929756 -0.068498775 -0.0032188816 -0.99764597 0.0066932985
0.2848506 0.0055695884 0.18807642 -0.11002424 -0.012631735 -0.99384862 0.006449372
0.2969369 0.0041449759 0.18756619 -0.15285692 0.0017651125 -0.98824674 0.0061346195
0.3043626 0.005129816 0.18821236 -0.18085989 0.011539762 -0.98344111 0.0048928233
0.31463775 0.0054698423 0.18479602 -0.20323265 -0.0091168685 -0.97908801 0.0047446997
0.32462084 0.0032385341 0.18294561 -0.23717009 -0.016535921 -0.97132742 0.0045408695
0.33046913 0.0041530984 0.1835642 -0.28404123 -0.027701944 -0.95841181 0.0066189347
0.34111589 0.0069173165 0.18009044 -0.34100831 -0.021477396 -0.93981493 0.0071156831
-0.13639876 0.013497452 0.18681461 0.80237216 -0.31140268 0.50914359 0.1313159
-0.087188624 0.013461769 0.18266736 0.14229499 0.047349598 -0.98869109 0.017180672
-0.077306576 0.015065885 0.18170275 0.18543634 0.020273402 -0.98244715 0.0080383131
-0.066170514 0.013597927 0.18374126 0.17136255 0.022175618 -0.98495847 0.006834364
-0.055563509 0.013710424 0.18764398 0.16621901 0.0025570404 -0.98608553 0.0046378933
-0.04788053 0.013756528 0.18590505 0.13353518 -0.0087526552 -0.99100542 0.006317317
-0.035422862 0.017253019 0.18706889 0.074872337 -0.014464585 -0.99708825 0.0070132897
-0.024470422 0.015039497 0.18795198 0.075789437 -0.017081002 -0.99697751 0.0074504125
-0.011349555 0.019735485 0.18879844 0.070057869 -0.017293582 -0.99739301 0.0063286098
0.00091440068 0.012343777 0.18959889 0.065135218 -0.00057516218 -0.99787623 0.0052257539
0.2585749 0.015078218 0.18988505 -0.06565243 -0.012384603 -0.99776566 0.0062844222
0.26670492 0.015733004 0.18941763 -0.073500037 -0.01897186 -0.99711472 0.0076205963
0.27501059 0.010056147 0.1888878 -0.093641512 -0.017815063 -0.99544662 0.0064554755
0.28510794 0.013102116 0.18802723 -0.10075969 -0.018825291 -0.99473268 0.006415667
0.29586491 0.013845435 0.18755153 -0.12905261 -0.021779031 -0.99139857 0.0061995024
0.30381691 0.012768073 0.18723795 -0.17347094 -0.0070261471 -0.98481387 0.0048889313
0.31393087 0.015755979 0.1853328 -0.20878932 -0.015766695 -0.97783357 0.0053026262
0.32641426 0.016682042 0.1843186 -0.26861739 -0.039072912 -0.9624542 0.0059713982
0.33331943 0.012598262 0.18251073 -0.31418028 -0.037471902 -0.94862348 0.0064716511
-0.13280949 0.022523243 0.18273813 0.60492224 -0.3928937 -0.69260633 0.17756207
-0.12937352 0.025313336 0.18250366 0.5362469 -0.26090127 -0.80272651 0.16496217
-0.11367164 0.027242361 0.18374674 0.20941903 -0.052354027 -0.9764235 0.072957881
-0.10649187 0.025740836 0.18630989 0.21967331 -0.0040117637 -0.97556531 0.040775195
-0.091975696 0.023857834 0.18669751 0.20163837 0.02744318 -0.97907555 0.020628652
-0.083664209 0.026779216 0.18340987 0.16117416 0.0063780714 -0.98690534 0.011815179
-0.076807089 0.022826001 0.18424478 0.15268391 0.020451739 -0.9880634 0.013026188
-0.065947726 0.020849459 0.18554993 0.16928889 0.017675119 -0.98540795 0.0060854061
-0.041311733 0.023891769 0.1899607 0.10528512 -0.020188471 -0.99423712 0.0056918552
-0.036068343 0.024953278 0.18692218 0.082800098 -0.029714722 -0.99612302 0.0070476527
-0.013838377 0.029324416 0.18856725 0.056529544 -0.025654998 -0.99807131 0.0069692726
-0.0077968049 0.027812369 0.18896036 0.065676071 -0.025571985 -0.99751329 0.007375991
0.0053851614 0.025791684 0.18976012 0.036973927 -0.014705737 -0.99920803 0.0063197357
0.25668716 0.021200951 0.18992954 -0.075574718 -0.014346847 -0.99703693 0.0069460566
0.26935336 0.02333249 0.18917945 -0.068395518 -0.014620336 -0.99755114 0.0071686972
0.27151138 0.02815545 0.18897495 -0.080872715 -0.011372023 -0.99665958 0.0071495958
0.2842049 0.028636636 0.1880303 -0.10835032 -0.012401988 -0.99403542 0.0066245031
0.29974392 0.022087572 0.18586479 -0.14646068 -0.030952472 -0.9887321 0.0050403844
0.30450493 0.025534889 0.18777376 -0.18517902 -0.050047845 -0.98142952 0.0050163921
0.31486312 0.024783835 0.18398939 -0.21885343 -0.042681061 -0.97482377 0.0051323674
0.32219908 0.024235884 0.18402632 -0.23533259 -0.027067298 -0.97153789 0.0051093595
0.33266953 0.025442393 0.18238866 -0.29452881 -0.028794894 -0.95520866 0.0063116672
-0.091688864 0.036368471 0.18162097 0.23039941 -0.021623779 -0.97285587 0.021071605
-0.088779993 0.035953611 0.18226087 0.19384864 -0.026282968 -0.98067927 0.017971769
-0.075413615 0.035623681 0.18263172 0.16823392 -0.0047134794 -0.98573583 0.0082323374
-0.065523148 0.035471678 0.18482977 0.16374221 -0.030646378 -0.98602706 0.0059010386
-0.055477887 0.034920629 0.18596715 0.13112353 -0.010726281 -0.99130797 0.0036431921
-0.044266313 0.03542722 0.18949342 0.094829492 -0.033195831 -0.99493992 0.0055858293
-0.034728281 0.035775572 0.1868294 0.075967744 -0.011325042 -0.99704599 0.0058927988
-0.024716351 0.038063515 0.18764243 0.069147334 -0.044936527 -0.99659389 0.0064525479
-0.014551173 0.033649929 0.18844578 0.053837147 -0.023588687 -0.99827111 0.0067245322
-0.0037496681 0.035581365 0.18905967 0.054667074 -0.029754812 -0.99806112 0.0067543364
0.0020261884 0.031371243 0.1895404 0.039630685 -0.021482999 -0.99898344 0.00577344
0.24890807 0.038742643 0.18984766 -0.042101167 -0.050052792 -0.99785876 0.0059731626
0.2785711 0.03363331 0.188347 -0.10416359 -0.032037538 -0.99404401 0.0072678775
0.28454813 0.035901591 0.18773338 -0.12617414 -0.044289816 -0.99101895 0.0071593854
0.29435182 0.032317668 0.1865357 -0.14541005 -0.033854395 -0.98879206 0.0057385531
0.30593148 0.035089571 0.186442 -0.17718625 -0.071471892 -0.98157871 0.0050399774
0.3146618 0.033494748 0.18277496 -0.20499624 -0.053636331 -0.977292 0.0052379454
0.32515851 0.032319304 0.18293853 -0.23835947 -0.044283025 -0.97016692 0.0055878707
-0.086868033 0.044142902 0.1824472 0.19533585 -0.058505323 -0.97898978 0.012720013
-0.075852595 0.048295509 0.18451846 0.15686454 -0.038975343 -0.98685074 0.0066202278
-0.062478293 0.044576943 0.18502724 0.15171042 -0.041310322 -0.98756129 0.003263653
-0.053466633 0.046579413 0.18459588 0.12208796 -0.028302306 -0.99211568 0.0036133146
-0.046443086 0.047868621 0.18800902 0.081823178 -0.05028493 -0.99537754 0.0042498303
-0.036047325 0.044207416 0.18993725 0.084392972 -0.041751593 -0.99555743 0.0065328833
-0.026249753 0.042674437 0.18735605 0.073335059 -0.032643236 -0.99677294 0.0067332773
-0.017297624 0.047450405 0.18779512 0.064651623 -0.051420152 -0.99658227 0.0060636462
-0.0076209866 0.041632075 0.18860255 0.051143803 -0.043576393 -0.99774015 0.0077529256
0.008718689 0.045606505 0.18937114 0.049966201 -0.032123875 -0.99823415 0.0052718678
0.013851509 0.046035331 0.18962279 0.047222644 -0.026768731 -0.99852562 0.0050779283
0.23658229 0.047931418 0.18989576 -0.028431315 -0.097421326 -0.99483699 0.0051381835
0.24866873 0.040726155 0.18975469 -0.038366582 -0.048177309 -0.99810171 0.0056917705
0.26423094 0.043687433 0.18881072 -0.066295557 -0.056842301 -0.99617958 0.0073308391
0.27174065 0.046649087 0.18830831 -0.086107694 -0.067433059 -0.99400115 0.0076952153
0.28395918 0.042557918 0.18754998 -0.12560344 -0.063330024 -0.99005711 0.0073606265
0.29590607 0.046037711 0.1854357 -0.169046 -0.076204062 -0.98265791 0.0055077928
0.30619976 0.046290714 0.18599331 -0.18247411 -0.052539792 -0.9818058 0.004455789
0.32335278 0.041710373 0.18402493 -0.21984957 -0.059001852 -0.97374785 0.0052304203
0.33162239 0.046756979 0.18147369 -0.26384482 -0.042055976 -0.96364784 0.0042999666
-0.094231263 0.051066034 0.18067117 0.26157665 -0.071467169 -0.96253312 0.011557464
-0.086721733 0.056547076 0.18209331 0.22213659 -0.054747097 -0.9734773 0.0050382018
-0.076718934 0.055285867 0.18241711 0.16520126 -0.045982521 -0.98518741 0.0045202319
-0.068111189 0.057739247 0.18431222 0.16231263 -0.051673163 -0.98538548 0.0044203755
-0.057184082 0.051503252 0.18741162 0.13663252 -0.039413482 -0.98983747 0.0033451586
-0.044958204 0.053410586 0.18683842 0.090280674 -0.044335753 -0.99492902 0.0044576898
-0.034528211 0.055207249 0.18795826 0.07015834 -0.060420763 -0.99570429 0.0049652825
-0.02431865 0.054454483 0.18707794 0.06013583 -0.051052496 -0.99688381 0.006532758
-0.014779948 0.059227027 0.18755084 0.064278685 -0.046099149 -0.99686664 0.0066420352
-0.0051513007 0.053870656 0.18832864 0.062865809 -0.047755148 -0.9968788 0.0076377885
0.016614238 0.057817932 0.18932202 0.042710006 -0.062909096 -0.99710488 0.0057429899
0.024494257 0.057770759 0.18970233 0.042996667 -0.065038607 -0.99695599 0.0056140702
0.23593025 0.054781534 0.18955493 -0.042773504 -0.088825688 -0.99512833 0.0054943473
0.24510761 0.054984841 0.18915248 -0.030829912 -0.072356611 -0.99690217 0.0056138192
0.25532013 0.054447554 0.18869445 -0.025766892 -0.081687748 -0.99632478 0.0062130704
0.26417649 0.058686294 0.18803257 -0.066930301 -0.079645291 -0.99457377 0.0062197493
0.274185 0.057160527 0.1876528 -0.101411 -0.092397228 -0.99054456 0.0067477734
0.28879169 0.056150973 0.18619098 -0.14388853 -0.083705164 -0.98604745 0.0063075987
0.29714653 0.053704869 0.18659067 -0.1588724 -0.081911623 -0.9838953 0.0057771206
0.30665788 0.054000195 0.18282607 -0.18101008 -0.077798821 -0.98039925 0.0048280214
0.31759772 0.054261066 0.1805228 -0.19996203 -0.064538307 -0.9776758 0.004068803
0.3226766 0.056758031 0.18286903 -0.21138334 -0.064203791 -0.97529221 0.0049190107
0.33052087 0.0529425 0.18134238 -0.24490532 -0.064987004 -0.96736658 0.0054897559
-0.092979476 0.061889946 0.18054271 0.24538836 -0.057585958 -0.96771294 0.0048653823
-0.081547424 0.066122159 0.18286626 0.18047471 -0.086223751 -0.97979301 0.0051391935
-0.076356411 0.06891454 0.18024102 0.18443736 -0.073525265 -0.98009026 0.0048235352
-0.062425833 0.065078586 0.18493928 0.14057933 -0.057205386 -0.98841542 0.0040583601
-0.054528609 0.061616499 0.18395655 0.1273237 -0.061993405 -0.98992199 0.0029797792
-0.044816136 0.063583761 0.18849029 0.106527 -0.057451319 -0.99264866 0.0040961322
-0.036896847 0.065223336 0.18694149 0.076727457 -0.053133063 -0.99563539 0.004370695
-0.024516534 0.067293301 0.1865375 0.077133544 -0.054922953 -0.99550688 0.0049362089
-0.010313548 0.062969021 0.18769774 0.066499159 -0.038354393 -0.99704909 0.0061978339
-0.0039101709 0.066228203 0.18789963 0.040412128 -0.052238982 -0.99781656 0.0066062547
0.0060670017 0.062685274 0.18858875 0.055613935 -0.060549561 -0.99661469 0.0074098213
0.013449569 0.066264242 0.18870835 0.046857812 -0.069418095 -0.99648654 0.0060631484
0.021425996 0.069690436 0.18884914 0.04173946 -0.073084258 -0.99645191 0.0055226157
0.037783179 0.069131553 0.1895861 0.057562977 -0.075045153 -0.99551731 0.005873519
0.13819771 0.069078743 0.189915 0.0075741201 -0.073535345 -0.99726385 0.0054038931
0.18213201 0.067618728 0.18993998 -0.010861874 -0.088480242 -0.99601871 0.0053313789
0.21296029 0.066075057 0.18970519 -0.047774371 -0.11110461 -0.99265975 0.0055960426
0.22631326 0.060761146 0.18962237 -0.041735951 -0.093264207 -0.99476629 0.0060241618
0.23393151 0.063317537 0.189178 -0.031042933 -0.075922623 -0.99663037 0.0074823117
0.24463251 0.066647083 0.18832605 -0.019246092 -0.09317141 -0.99546409 0.0061755511
0.25618756 0.061431304 0.18827644 -0.038506523 -0.089384191 -0.99525255 0.0065160901
0.26993561 0.064777508 0.18718734 -0.090393044 -0.10147576 -0.99072278 0.0061075627
0.27776647 0.067312852 0.18624817 -0.11989563 -0.10673434 -0.98703235 0.0057165897
0.28707936 0.061254639 0.18610123 -0.13273843 -0.09228842 -0.9868452 0.0069334744
0.29036671 0.061748806 0.18733706 -0.14980952 -0.094667979 -0.98417234 0.0064417678
0.3070522 0.066736504 0.18155232 -0.17018828 -0.12690713 -0.97720546 0.0045560524
0.31466976 0.064780146 0.18303934 -0.17224368 -0.12379706 -0.97724432 0.0047541596
0.32386708 0.068801045 0.18127254 -0.22958615 -0.14050739 -0.96309286 0.006001384
0.33068222 0.062254835 0.18048891 -0.26436332 -0.10042535 -0.9591803 0.0056425617
-0.085333668 0.071053483 0.18186024 0.20904888 -0.091044739 -0.97365779 0.005057137
-0.079048038 0.07275667 0.18295075 0.18520717 -0.07517942 -0.9798196 0.0050719986
-0.063749053 0.072807968 0.18359822 0.15116929 -0.071272582 -0.98593509 0.0046010301
-0.055089429 0.073632471 0.18542852 0.12933484 -0.06943278 -0.98916715 0.0034903379
-0.046631534 0.077612393 0.18605262 0.099917851 -0.071138099 -0.99244934 0.0027547511
-0.034188118 0.074066073 0.18573105 0.073176727 -0.065325424 -0.99517727 0.0031223083
-0.016407385 0.075030573 0.18636647 0.077328287 -0.063975543 -0.99495101 0.0051465174
-0.0045389915 0.074080639 0.18717661 0.058610521 -0.078016505 -0.99522775 0.0055784094
0.0071903896 0.07543093 0.18758596 0.047944207 -0.077089697 -0.99587071 0.0066480916
0.018814009 0.078021683 0.18786615 0.042664263 -0.095110856 -0.99455196 0.0061316304
0.035160024 0.070840694 0.18928939 0.057754554 -0.078732401 -0.99522138 0.0057827453
0.042270269 0.076426059 0.18898317 0.034557216 -0.10420287 -0.99395549 0.0053385324
0.0582821 0.074918069 0.18953824 0.0033462353 -0.094774596 -0.99549311 0.0055514155
0.067288525 0.077942759 0.18939215 0.0057412777 -0.10670264 -0.99427444 0.0055956822
0.075239465 0.075508103 0.18975377 0.024573075 -0.11966406 -0.99251026 0.0058268919
0.091100618 0.079001784 0.1893966 -0.0012948925 -0.095910154 -0.99538916 0.0058451579
0.10690489 0.075134546 0.1896306 -0.036474284 -0.099969991 -0.99432164 0.0062606088
0.11328945 0.074767023 0.18956876 -0.030760359 -0.086644933 -0.99576426 0.0055729114
0.12686706 0.07608559 0.18928814 -0.014385042 -0.079594135 -0.99672353 0.0055653448
0.13806802 0.073937193 0.1894571 2.6512726e-05 -0.074505955 -0.99722064 0.0059112818
0.1417845 0.073318742 0.18943787 0.011409174 -0.068286262 -0.9976005 0.006135154
0.15087789 0.07421796 0.18935974 0.012306836 -0.084321551 -0.99636257 0.0070570759
0.1654762 0.073699966 0.18949319 2.3023911e-05 -0.078069441 -0.99694794 0.0052427724
0.19605042 0.077959396 0.18847877 -0.044153348 -0.12051552 -0.99172902 0.005785035
0.20489863 0.078085221 0.18828686 -0.059479009 -0.14183959 -0.98810112 0.005536641
0.21844698 0.074495018 0.18835251 -0.050282761 -0.14254767 -0.98850989 0.0054710908
0.22264011 0.072879799 0.18843673 -0.026687711 -0.11748803 -0.99271566 0.006119791
0.23651636 0.073358506 0.18776515 -0.012321433 -0.11796525 -0.99294132 0.0062346244
0.24445468 0.071812227 0.18760952 -0.013407754 -0.12082889 -0.9925828 0.0061583612
0.25625715 0.075695433 0.18900327 -0.053810351 -0.11839562 -0.99150741 0.0066835009
0.26128983 0.078025013 0.18924826 -0.064064831 -0.13097936 -0.98931301 0.0069483044
0.27842054 0.073437706 0.18528435 -0.12184574 -0.13603522 -0.98318261 0.0051180152
0.28090453 0.077969104 0.18797439 -0.12137482 -0.13484217 -0.98340517 0.0045229052
0.29527372 0.073740482 0.18373972 -0.15037656 -0.12513469 -0.98067743 0.005181456
0.30338418 0.074211553 0.18481183 -0.16921566 -0.12623084 -0.97746193 0.0049295202
0.31586817 0.077779502 0.18150495 -0.23291668 -0.17009002 -0.95750672 0.0064751823
0.3237353 0.073147573 0.18046412 -0.25186387 -0.1589766 -0.95461565 0.0068799979
-0.086025327 0.082580268 0.18071173 0.20272094 -0.085682362 -0.97548074 0.0046485499
-0.075263858 0.08508525 0.18250789 0.1740948 -0.10160694 -0.97947288 0.005423612
-0.063384458 0.083803289 0.18092181 0.17027602 -0.096557811 -0.98065424 0.0050597703
-0.052805841 0.083925158 0.18512702 0.12736544 -0.090226643 -0.9877435 0.0044482071
-0.035917155 0.082657382 0.18684787 0.093478702 -0.090189084 -0.99152797 0.0034679039
-0.027078461 0.084298432 0.18694499 0.054182507 -0.085128225 -0.99489576 0.0036576607
-0.014782277 0.086192228 0.18776853 0.085196562 -0.095139906 -0.99181151 0.0045548752
-0.0097466493 0.088423468 0.18902287 0.072751343 -0.10008476 -0.99231565 0.0041466695
0.0046412605 0.084116839 0.18839811 0.031586185 -0.10299408 -0.99418026 0.0057458994
0.017211076 0.085781567 0.18699083 0.047689784 -0.097615667 -0.9940809 0.0059003914
0.024799073 0.086345106 0.18725975 0.036774244 -0.10670535 -0.99361038 0.0061531975
0.065016448 0.082124539 0.18887599 0.00012237248 -0.1036194 -0.99461699 0.0059637041
0.072545074 0.084544033 0.18871425 0.008481632 -0.10640699 -0.99428648 0.0066660079
0.085473098 0.084684782 0.18880804 0.013267909 -0.10451923 -0.9944343 0.0052880268
0.11610418 0.084999844 0.18836042 -0.01584617 -0.11239654 -0.99353713 0.0061405646
0.12462263 0.084198087 0.1884349 -0.015509192 -0.0923623 -0.99560463 0.0064607896
0.13424976 0.081028134 0.18872091 0.014385238 -0.080057256 -0.99668646 0.0060206442
0.14611003 0.086945213 0.18810236 0.00035297099 -0.097226731 -0.99526221 0.0059348186
0.15095074 0.082107976 0.18860707 0.0074404497 -0.084163576 -0.9964242 0.0056746914
0.17078221 0.087983146 0.18787494 -0.0050216429 -0.12250407 -0.9924553 0.0062297084
0.18401763 0.0856333 0.18774894 -0.044577666 -0.14033115 -0.98910064 0.0060505033
0.20328067 0.085616522 0.18726349 -0.058544438 -0.15129769 -0.98675311 0.0057544508
0.22358324 0.082400046 0.1870029 -0.017721478 -0.13954169 -0.99005765 0.0052245539
0.2361073 0.084042296 0.18620127 -0.0099989306 -0.14280385 -0.9897005 0.005397927
0.2475663 0.082729205 0.18935251 -0.026845185 -0.13598458 -0.99034721 0.0057388633
0.25907794 0.085014433 0.18650687 -0.063931204 -0.14902632 -0.98676437 0.0059171654
0.26638424 0.085096829 0.18548 -0.11038888 -0.14457877 -0.98331648 0.004991156
0.27698481 0.086555138 0.18338929 -0.12152603 -0.17072104 -0.97779638 0.0040485291
0.28594398 0.085230894 0.18406649 -0.14246616 -0.16598415 -0.97578305 0.0045640846
0.29567268 0.084830523 0.18249646 -0.1546701 -0.17022304 -0.97319126 0.0047593676
0.309879 0.081570216 0.18229747 -0.20192015 -0.17161621 -0.96424901 0.005496318
0.31451619 0.083945349 0.18071491 -0.22335698 -0.19158508 -0.95572317 0.006009344
-0.074062601 0.097666793 0.18158635 0.17095387 -0.09884496 -0.98030835 0.0056600207
-0.064075425 0.095342301 0.18331298 0.15895852 -0.10702542 -0.98146713 0.0062653408
-0.057846509 0.094212845 0.18436491 0.14793904 -0.10436941 -0.98347396 0.0057401317
-0.042722635 0.096767835 0.1841208 0.085559204 -0.11981159 -0.98910308 0.004792559
-0.033843424 0.094612919 0.1845123 0.074319333 -0.11578498 -0.99049002 0.0032389539
-0.025097722 0.094408251 0.18756203 0.061252687 -0.11872105 -0.99103653 0.0033961746
-0.014742791 0.095685057 0.18547757 0.068368502 -0.12053639 -0.99035186 0.0028149262
0.0064483164 0.093043894 0.18849045 0.04091569 -0.10993493 -0.99309623 0.0043154699
0.015189464 0.095785715 0.18707778 0.03655253 -0.1238378 -0.991629 0.0035918604
0.022843882 0.096435584 0.18788244 0.056922153 -0.11292209 -0.99197203 0.0039817928
0.033846322 0.096199848 0.18770735 0.054911446 -0.11183733 -0.99220818 0.0042952076
0.054972917 0.094091371 0.18735927 0.003644102 -0.10139649 -0.99483943 0.005826564
0.066005692 0.095456623 0.18742196 -0.0052057877 -0.11546356 -0.99329811 0.0066083167
0.074677132 0.093840301 0.18770175 0.02562278 -0.097986192 -0.99485785 0.0060632685
0.087690666 0.09530776 0.18761677 -0.002242716 -0.11429017 -0.9934448 0.0062605883
0.094771922 0.094167382 0.18761215 -0.0062496099 -0.11500497 -0.99334526 0.0058814161
0.1058012 0.094979607 0.1873363 -0.031076476 -0.11361042 -0.99303925 0.0054655867
0.1184039 0.094483398 0.18725142 -0.013771372 -0.12410064 -0.99217409 0.0058658132
0.13557562 0.09683612 0.18699452 -0.0043338668 -0.12439725 -0.99222302 0.0051285555
0.14264958 0.094067633 0.18727502 0.011051036 -0.12146763 -0.99253392 0.0053178621
0.15425985 0.095228791 0.18707784 0.0062397802 -0.13044237 -0.99143618 0.0054448801
0.16847569 0.099303514 0.18808568 -0.020585692 -0.15930696 -0.98701453 0.0047597778
0.1732166 0.096085332 0.18942252 -0.019082705 -0.15429826 -0.98784 0.0054027578
0.18751785 0.091863081 0.18674392 -0.04071762 -0.14683762 -0.9883222 0.0057066055
0.19665654 0.095873438 0.18735003 -0.053872693 -0.1822321 -0.98177856 0.0040787919
0.20664287 0.096918941 0.18555728 -0.065177448 -0.15556057 -0.98567379 0.0041570007
0.21391602 0.094962001 0.18673168 -0.053200059 -0.15267016 -0.98684424 0.0041996324
0.22365431 0.093495309 0.18540014 -0.017471049 -0.14789629 -0.98884851 0.0041654869
0.23468727 0.095385052 0.18460369 -0.0050502908 -0.16639616 -0.98604608 0.0032967837
0.24602312 0.093436323 0.18694395 -0.017723467 -0.17060582 -0.9851799 0.004830997
0.25455797 0.093956821 0.18543732 -0.047221784 -0.17323771 -0.98374724 0.005123598
0.26770931 0.093062423 0.18650264 -0.12002707 -0.19267693 -0.97389376 0.0036005508
0.28514832 0.095407419 0.18180133 -0.15362929 -0.1943828 -0.96882063 0.0047314554
0.29571295 0.094909258 0.18298128 -0.16653307 -0.22011867 -0.96115273 0.0037074927
0.30500939 0.093753487 0.18129449 -0.18704043 -0.22126596 -0.9571088 0.0047788252
-0.068856381 0.10614622 0.18155669 0.16526008 -0.10476176 -0.98067027 0.0058558499
-0.050009347 0.10216442 0.18471135 0.10680696 -0.12364074 -0.98656237 0.0052895946
-0.047023844 0.1058218 0.18280031 0.095432505 -0.11831911 -0.98837906 0.0051299478
-0.037333556 0.10830768 0.18158588 0.089858264 -0.12318163 -0.98830754 0.0047367136
-0.028816534 0.10601127 0.18262179 0.07237085 -0.12550236 -0.98945016 0.003799771
-0.012501072 0.10145649 0.18594983 0.067363173 -0.1397917 -0.98788691 0.0026025409
-0.0045230766 0.10486707 0.18423389 0.049949203 -0.14673826 -0.98791343 0.002364672
0.004622465 0.10553518 0.18627653 0.029351497 -0.13560747 -0.99032772 0.0026288442
0.012250048 0.10896335 0.18547164 0.024650358 -0.13293582 -0.99081814 0.0022949353
0.0244144 0.10522652 0.18574677 0.053414714 -0.13273279 -0.98971146 0.0031664988
0.035776742 0.10362369 0.18573667 0.038471311 -0.13017496 -0.99074441 0.0039381264
0.044889644 0.10453135 0.18648964 0.044084441 -0.13920134 -0.98928237 0.0048607239
0.053039823 0.10456148 0.188394 0.025234809 -0.14801879 -0.98866254 0.0043436363
0.06516856 0.10737131 0.18586053 0.020158309 -0.13812783 -0.99020922 0.005032931
0.076344334 0.10593737 0.18885145 0.020052427 -0.14207211 -0.98965323 0.0058550588
0.093367375 0.10768793 0.18935105 -0.015050253 -0.15123093 -0.98838389 0.0048451941
0.10660177 0.10748943 0.18557492 -0.034597877 -0.15751253 -0.98691076 0.0046517081
0.11596186 0.10101941 0.18648823 -0.013630204 -0.13349465 -0.99095583 0.0054778848
0.12317121 0.10640331 0.18773788 -0.013487989 -0.1456245 -0.98924804 0.0045451461
0.13394541 0.10504095 0.18760675 0.012167686 -0.12483213 -0.99210328 0.0036174466
0.14293303 0.10439838 0.18816932 0.00085216953 -0.1451121 -0.98941481 0.0037634606
0.15583006 0.10635541 0.18815686 -0.012348517 -0.16956514 -0.98544163 0.0039886874
0.16371892 0.10502812 0.1873886 -0.016526535 -0.16256116 -0.98656005 0.0038796351
0.17539553 0.10594923 0.18507439 -0.040687796 -0.17558128 -0.98362374 0.0036038526
0.18617097 0.10198449 0.18883345 -0.05049118 -0.17574696 -0.98313969 0.0040466129
0.19546397 0.10570174 0.18505912 -0.065798745 -0.15362751 -0.98593563 0.0037383672
0.20629068 0.10087927 0.18501057 -0.05089647 -0.15151456 -0.98714375 0.003972997
0.2146475 0.10541447 0.18562129 -0.057733953 -0.1555472 -0.98613989 0.0043023685
0.22759977 0.1045469 0.18520454 -0.025088387 -0.16570871 -0.98585558 0.0043027545
0.23144059 0.10867596 0.18592538 -0.029361391 -0.16667065 -0.98557538 0.0046613831
0.24541755 0.10544042 0.1851496 -0.040831342 -0.18254054 -0.98235005 0.0046918988
0.25503218 0.10628603 0.18146227 -0.082262725 -0.1939632 -0.97755361 0.0047528064
0.26350653 0.10176206 0.18533227 -0.10077424 -0.2135672 -0.97171688 0.0037772306
0.27511466 0.10449077 0.18186924 -0.12949118 -0.21489929 -0.96801358 0.0036027657
-0.060721293 0.11581773 0.1815148 0.12280416 -0.12138472 -0.98497957 0.0063833883
-0.056103032 0.11851481 0.18185449 0.10610233 -0.14219606 -0.98413545 0.0065995725
-0.040402774 0.11846481 0.1800106 0.11577734 -0.12171012 -0.98579019 0.0056326021
-0.033554886 0.11643003 0.18085961 0.073549695 -0.11569767 -0.99055767 0.005651711
-0.023964599 0.11483439 0.18296163 0.04846891 -0.1248659 -0.99098909 0.0040968601
-0.014937651 0.11579617 0.18397136 0.061245717 -0.12775858 -0.98991245 0.0035807323
-0.0031544615 0.11602537 0.18461227 0.050114926 -0.13320382 -0.98982084 0.0027209837
0.0057275221 0.1166509 0.18310882 0.043454811 -0.12889867 -0.99070519 0.0022373525
0.016315676 0.11662297 0.18599859 0.021953911 -0.14155948 -0.98968625 0.0031139422
0.021375267 0.11731789 0.18576722 0.02770016 -0.14704964 -0.98874116 0.0028358812
0.035195865 0.11663552 0.18439746 0.05044068 -0.16849217 -0.9844116 0.0030047647
0.041930549 0.11533497 0.1877113 0.02498241 -0.16682461 -0.98567003 0.0035715634
0.054478362 0.11757436 0.18670329 0.028109085 -0.17382155 -0.98437589 0.0038826836
0.060878437 0.11231889 0.18851402 0.017697902 -0.16259526 -0.98653412 0.0044357968
0.075134456 0.11422769 0.18638363 0.0074390299 -0.16153337 -0.98683923 0.0047049974
0.086066388 0.11411164 0.18643777 -0.0068541658 -0.17435367 -0.98465919 0.0047556954
0.091936506 0.11143274 0.18877602 -0.0093749044 -0.16299492 -0.9865824 0.0045331093
0.10598534 0.11513586 0.18549092 -0.02100441 -0.17430726 -0.98446727 0.003836459
0.11741487 0.11469243 0.18636477 -0.0025644773 -0.17029737 -0.98538935 0.0039216462
0.12499148 0.11757461 0.18469267 0.025176711 -0.16377486 -0.98617643 0.0032334025
0.13244811 0.11479434 0.18500412 0.0098484233 -0.1603217 -0.98701566 0.0033872051
0.14325735 0.11651095 0.18641751 -0.027388012 -0.16605568 -0.98573601 0.0031550988
0.15632057 0.11416745 0.18563831 -0.022439182 -0.16478309 -0.98607457 0.0033090217
0.16706467 0.11694165 0.18350431 -0.026094453 -0.1883295 -0.98175925 0.0027987834
0.17395847 0.11200261 0.18536162 -0.040711608 -0.18528177 -0.9818418 0.0032770187
0.18524498 0.11599524 0.18473133 -0.054273672 -0.19101892 -0.98008472 0.0029043874
0.19695035 0.11497221 0.18449512 -0.038536761 -0.19064656 -0.98090202 0.0039200014
0.20508194 0.11471102 0.18483722 -0.035971701 -0.16939661 -0.9848913 0.0044243722
0.21167612 0.11553928 0.18202454 -0.044554371 -0.18469562 -0.98178542 0.0052544447
0.22165272 0.1174735 0.18120095 -0.026099399 -0.19625089 -0.98020631 0.0055037597
0.2325097 0.11532786 0.18272762 -0.03401174 -0.1835894 -0.98241448 0.0058571328
0.24588653 0.11546676 0.18301433 -0.050990034 -0.21530032 -0.97521573 0.0069298889
0.25743285 0.11493051 0.18302454 -0.10655415 -0.22361603 -0.96883541 0.0051275222
0.2729764 0.11413199 0.18180309 -0.14309189 -0.23210044 -0.96210915 0.0037607192
-0.051676881 0.12704422 0.18132293 0.098222077 -0.21741438 -0.97112477 0.010140179
-0.0449671 0.12520413 0.18217833 0.12054925 -0.18613347 -0.97510111 0.0092844721
