# .PCD v0.7 - Point Cloud Data file format
VERSION 0.7
FIELDS x y z normal_x normal_y normal_z curvature
SIZE 4 4 4 4 4 4 4
TYPE F F F F F F F
COUNT 1 1 1 1 1 1 1
WIDTH 597
HEIGHT 1
VIEWPOINT 0 0 0 1 0 0 0
POINTS 597
DATA ascii
-0.1298925 0.2894246 -0.14794879 -0.65814441 -0.083296821 0.74826974 0.13832334
0.15746267 0.28629139 -0.14746009 -0.014929123 -0.069995776 0.99743557 0.17998125
0.16192241 0.28664175 -0.14737704 0.067425527 -0.17136802 0.98289704 0.16424988
0.17720941 0.28262502 -0.14832908 -0.015312928 -0.10095706 0.99477297 0.18502015
0.18528637 0.28282434 -0.14821824 -0.24281773 -0.38867447 0.88880348 0.20467806
0.19285893 0.28555042 -0.1476357 -0.24381827 -0.28675288 0.92645854 0.21811929
0.20434958 0.28433001 -0.14341241 -0.81724483 -0.17115974 0.55028647 0.17216288
-0.20070617 0.29482779 -0.14308593 0.75029176 -0.17092109 0.63862997 0.14452919
-0.1934007 0.29801729 -0.14591214 0.39854145 -0.25220463 0.88179225 0.16596694
-0.18650007 0.29262197 -0.14719094 0.14048202 -0.23134749 0.96267498 0.16486824
-0.16535248 0.29455337 -0.14673318 0.078209959 -0.25600198 0.96350729 0.15685698
-0.1392395 0.29364401 -0.1469487 -0.17361321 -0.12130184 0.97731483 0.16539568
-0.12855586 0.29634532 -0.14328384 -0.7074129 -0.17814626 0.68398166 0.18297178
0.13236858 0.29625013 -0.14387769 0.5832898 -0.16077927 0.79619282 0.1568936
0.14081928 0.2969512 -0.14444213 0.33971897 -0.24840312 0.90713108 0.16810237
0.15918975 0.29168203 -0.1461824 -0.0073881918 -0.24502613 0.96948832 0.16614459
0.16487476 0.29382575 -0.14545466 0.16848837 -0.27761555 0.94580185 0.14504206
0.17027149 0.29517922 -0.14516664 0.11255904 -0.23947553 0.96435577 0.14655912
0.18585771 0.29865035 -0.14374743 -0.23920652 -0.30070373 0.92323208 0.15352525
0.20434958 0.29039291 -0.14329104 -0.74057251 -0.18065514 0.64723724 0.15987994
-0.18651557 0.30966073 -0.14136976 0.26037586 -0.31088099 0.91408831 0.1399729
-0.17275183 0.30436656 -0.14353435 0.0082585607 -0.098737568 0.99507922 0.15173171
-0.16695634 0.30098236 -0.14491802 0.078675516 -0.31709456 0.94512498 0.14224963
-0.15575713 0.30573121 -0.1429764 0.12545338 -0.54848069 0.82669854 0.14700431
-0.14408642 0.30841345 -0.14187974 -0.0090426542 -0.54051185 0.84128785 0.15066324
-0.13735734 0.30183414 -0.14456974 -0.15054904 -0.35104173 0.92417783 0.13778041
0.13318411 0.30341613 -0.1413493 0.54478878 -0.31364089 0.77771109 0.16179597
0.156299 0.30347398 -0.14177525 0.067072898 -0.23737384 0.9691 0.16741124
0.1672857 0.30646798 -0.14055112 0.096463472 -0.49997771 0.86064917 0.17527761
0.18383387 0.30580854 -0.14082074 -0.26330802 -0.46751821 0.84385759 0.14099227
-0.1735329 0.31013489 -0.14117593 -0.014039356 -0.41256759 0.91081882 0.14539507
-0.16147462 0.31082642 -0.14089316 -0.0035766701 -0.49074981 0.87129319 0.16799626
-0.14727685 0.31238019 -0.14015715 0.0060922415 -0.51652956 0.85624766 0.15182339
-0.13688748 0.31141263 -0.14061005 0.035380095 -0.47927347 0.87695223 0.15276702
-0.12812768 0.31040263 -0.14106645 -0.62569332 -0.35584569 0.69417703 0.16944191
-0.13884251 -0.32732794 -0.13059054 -0.54468924 0.58138084 0.60440874 0.15112607
-0.20140271 -0.31333864 -0.13371851 0.73565745 0.29604587 0.60923308 0.12129349
-0.19081926 -0.31046742 -0.13697538 0.21493806 0.4218592 0.88081574 0.15213014
-0.18555866 -0.31459114 -0.13483624 0.16972369 0.40069729 0.90035295 0.16910674
-0.17113249 -0.31679836 -0.13494805 0.049925599 0.44309771 0.895082 0.15609136
-0.16337439 -0.31631753 -0.13592938 0.081425071 0.67425311 0.7339977 0.17035079
-0.15652333 -0.31479785 -0.13745111 0.10333542 0.70171052 0.7049284 0.18072034
-0.14392155 -0.31583661 -0.13795641 -0.21495575 0.57139158 0.79202622 0.16433537
-0.13660797 -0.31414461 -0.13397689 -0.7975992 0.35469466 0.48788032 0.1497339
0.13347951 -0.31528997 -0.1313628 0.42317909 0.55491304 0.71623391 0.16254739
0.14249074 -0.31249097 -0.1344116 0.27300408 0.56757081 0.77674454 0.11923459
0.15487187 -0.31489003 -0.13424177 0.28230518 0.51781821 0.80756927 0.14826587
0.16513476 -0.31602103 -0.13430084 -0.10976566 0.64398348 0.75712395 0.14624138
0.17677091 -0.31401476 -0.13672337 -0.5365063 0.46093333 0.70689559 0.18764783
0.18384403 -0.31674129 -0.13148992 -0.73541951 0.47357622 0.48464808 0.13302615
-0.20405254 -0.30550879 -0.13407469 0.91728753 0.070577636 0.3919214 0.1775291
-0.18151021 -0.3081407 -0.13919973 0.12800109 0.43533298 0.89112341 0.15254511
-0.1671187 -0.30950242 -0.13967185 0.15170148 0.46792743 0.87064952 0.15793711
0.12504888 -0.30578637 -0.13145849 0.82543671 0.2732287 0.49396381 0.16828229
0.14585391 -0.30632982 -0.13855663 0.26752841 0.4944351 0.82702023 0.16138533
0.15797958 -0.30814183 -0.1385567 0.20844664 0.42849261 0.87917233 0.15565787
0.16736257 -0.30784649 -0.13957232 -0.13970338 0.56429458 0.8136673 0.14189161
-0.20278248 -0.29559517 -0.13676795 0.98703712 -0.15493931 0.041851696 0.1891651
-0.18721408 -0.29105273 -0.13003333 -0.41415098 0.89783674 0.14955969 0.23712228
-0.17202535 -0.29141626 -0.130483 0.041659519 0.75189215 0.65796864 0.27322441
-0.16311055 -0.29302594 -0.13037084 0.40883556 0.5807395 0.70398515 0.28507376
-0.15299517 -0.29315987 -0.13042645 0.14291018 0.3686659 0.91851079 0.25411516
-0.13192236 -0.29321885 -0.13433805 0.94324613 -0.17591068 -0.28167766 0.17128234
0.12686093 -0.29366153 -0.13600345 -0.91193283 -0.02214486 -0.40974161 0.18331008
-0.20092133 -0.28364739 -0.13511816 0.89371377 -0.31789517 -0.3165729 0.1701131
-0.19572192 -0.28804764 -0.13048734 0.95773721 -0.24343491 0.15322778 0.23167109
-0.18471071 -0.28272527 -0.13259803 -0.52556431 0.52107036 0.6725086 0.25761762
-0.1739278 -0.28644738 -0.13195464 -0.25416824 0.6938653 0.67375767 0.24792778
-0.16620475 -0.28428245 -0.13277996 -0.17008789 0.50482482 0.84629893 0.28608036
-0.15493725 -0.28458953 -0.13298549 0.27435288 0.23181717 0.93326914 0.24967067
-0.14287153 -0.28822094 -0.13253225 -0.1920207 0.27929708 0.94080877 0.26188844
-0.1352147 -0.28374672 -0.13362338 0.9447192 -0.29410374 0.14494351 0.22217034
-0.12904641 -0.28147864 -0.13395718 0.9456746 -0.26612985 -0.18674709 0.1918119
0.12813434 -0.28514099 -0.13246816 -0.95353103 0.042318013 -0.29830819 0.18007138
0.13301356 -0.28054225 -0.1321339 -0.93806678 0.20391878 -0.28008559 0.23708838
0.14576581 -0.28512138 -0.13135044 0.062452082 0.39988825 0.91443378 0.25818321
0.15573971 -0.28404075 -0.13191926 -0.1682905 0.40756413 0.89753538 0.26016366
0.16738552 -0.28609705 -0.13182336 -0.65626246 0.23905513 -0.71566212 0.27661318
0.17248797 -0.28665763 -0.13187072 0.22905323 -0.10052909 0.96820897 0.28068432
0.18763864 -0.28351018 -0.13379394 -0.98741847 0.13136134 0.088027954 0.20058882
-0.19412985 -0.27488118 -0.13382183 0.81334317 -0.05894845 0.57879013 0.19542581
-0.1751433 -0.27700809 -0.13392808 -0.26810598 0.15820207 0.95031118 0.25721586
-0.16382301 -0.27472624 -0.13420382 0.060754478 0.0065973969 0.99813098 0.27018785
-0.15463041 -0.2755436 -0.13310017 0.1626333 -0.066352122 0.98445308 0.26401478
-0.14558797 -0.27375278 -0.13436116 0.015855484 0.11991511 0.99265754 0.27397907
-0.13515739 -0.27511892 -0.13434727 0.8455897 -0.12402725 -0.5192256 0.23968513
-0.12904039 -0.27443117 -0.13470201 0.98076648 -0.18087044 -0.073369361 0.20487091
0.134841 -0.27465594 -0.13334502 -0.95870596 0.16077994 -0.23459032 0.21118641
0.14665651 -0.27381453 -0.13367619 -0.074115559 0.23597778 0.96892792 0.2537398
0.15834959 -0.27905613 -0.13315719 -0.18880543 -0.06616535 0.97978294 0.24458274
0.16668734 -0.2754392 -0.13393538 0.26641679 0.030355819 0.9633798 0.2806012
0.17339665 -0.27335045 -0.13421193 -0.5889985 0.25508887 -0.76681834 0.28900161
0.18463378 -0.27733636 -0.13391919 -0.92584825 0.25152436 -0.28202924 0.18237276
-0.19151121 -0.26424077 -0.13440539 0.60453236 -0.020930421 -0.7963056 0.20403574
-0.18564712 -0.26131839 -0.13422903 0.54821098 0.15424366 -0.82199377 0.22099951
-0.17392725 -0.26257277 -0.13407533 0.36320654 0.32984981 -0.8713668 0.24417186
-0.16217624 -0.262512 -0.13410902 0.32091528 0.46192044 -0.82682699 0.28597704
-0.15260983 -0.26773423 -0.13434261 0.027284106 -0.1905133 0.98130542 0.25984237
-0.14562246 -0.26500022 -0.13345629 0.30637273 -0.0045368546 0.95190078 0.24498932
-0.13917236 -0.26579797 -0.13397995 -0.51387405 0.11129878 0.85061514 0.26574865
-0.12734945 -0.2656306 -0.13264637 0.99487889 0.0073082484 0.10080997 0.19703783
0.13447066 -0.26792765 -0.13464788 -0.97443092 0.21456861 -0.066669747 0.17476557
0.14447917 -0.26377052 -0.13450998 -0.78733408 -0.063797615 -0.61321676 0.23415716
0.15539864 -0.26477942 -0.13437161 -0.24833098 0.034931026 0.96804523 0.25497901
0.16671035 -0.26793712 -0.13452332 -0.12495416 -0.13845451 0.98245448 0.28290427
0.17720108 -0.26633692 -0.13438496 -0.85488963 0.084605753 -0.51186484 0.29268306
0.18358196 -0.26859403 -0.13464527 -0.9693315 0.085992873 -0.23022103 0.21405187
0.19230455 -0.26516989 -0.13274066 -0.96440262 0.24535647 -0.098629117 0.15848477
-0.18876939 -0.25289601 -0.13342178 0.82162309 0.31988767 -0.47181293 0.21402635
-0.17673083 -0.25359583 -0.13289411 0.1784503 0.6495322 -0.73909634 0.27229866
-0.16419223 -0.25801548 -0.13344081 0.037888002 0.46477097 -0.88462001 0.28323331
-0.15247561 -0.25487316 -0.13254289 0.27064863 -0.21635821 0.93805033 0.23622486
-0.14762677 -0.25497404 -0.13242504 0.179263 -0.33606514 0.92462158 0.26415604
-0.13777329 -0.25582263 -0.13216525 0.21587488 -0.17196457 0.96115875 0.26361415
-0.1255677 -0.25607345 -0.13486019 0.94994545 -0.11064686 0.29216602 0.22592917
0.13488057 -0.25881067 -0.13631794 -0.99028581 0.077725127 -0.1152945 0.17206155
0.14697407 -0.25136527 -0.13344808 -0.63055962 -0.015999569 0.77597588 0.2541869
0.1553764 -0.25568736 -0.13360909 -0.23901996 -0.18647186 0.9529416 0.24982847
0.16523795 -0.25340766 -0.13306011 -0.39846805 -0.10489777 0.91116393 0.27703074
0.174806 -0.25449511 -0.1329689 0.059288505 -0.16798532 0.98400497 0.29570976
0.18456005 -0.25618276 -0.13308069 -0.94909823 0.2726377 -0.15773761 0.21064904
-0.19478785 -0.24727544 -0.13416335 0.96959591 -0.080199815 0.23119645 0.14356346
-0.18420514 -0.24685216 -0.13174579 0.36639631 0.2881496 -0.88471669 0.25672722
-0.179842 -0.2499813 -0.13221319 -0.35671049 -0.10700707 0.92806631 0.25092736
-0.16368988 -0.24789727 -0.13115889 0.21549195 -0.56153953 0.79889709 0.2831741
-0.15303211 -0.24763666 -0.13061668 0.33651683 -0.24726933 0.90863323 0.24631375
0.13497531 -0.24535541 -0.13393059 -0.99756658 0.066003777 -0.022460004 0.18970938
0.14782889 -0.24424048 -0.13145611 0.37459791 -0.20235603 0.90483618 0.26991704
0.15581615 -0.24665324 -0.1314982 -0.58053398 -0.32775199 0.74535823 0.27922657
0.16523539 -0.24761645 -0.13192959 -0.68165052 -0.38016024 0.62516457 0.28019509
0.17082162 -0.24355015 -0.13002586 -0.27918586 0.2966879 0.91325331 0.28559321
0.18384659 -0.246889 -0.130803 -0.93243337 0.12094138 0.34050122 0.22748351
0.19506514 -0.24660505 -0.13595474 -0.97683251 0.21399629 0.0019760297 0.14228536
-0.19377834 -0.23534742 -0.13992099 0.84350681 -0.14557227 0.51701534 0.11816579
-0.14524037 -0.23181787 -0.13962096 0.058946215 -0.42273939 0.90433222 0.15943949
-0.13081235 -0.23356222 -0.13937452 0.25798666 0.38808274 -0.88477939 0.14571282
-0.12290414 -0.23391695 -0.1345606 0.8478688 0.16993701 -0.502235 0.14396566
0.13513219 -0.2392787 -0.13160565 -0.9715234 0.15754923 -0.1769761 0.16610937
0.1431621 -0.23969397 -0.13045935 -0.84217823 0.25892359 -0.47296342 0.2392616
0.1960772 -0.2343253 -0.13529336 -0.88179362 -0.10044288 0.46081579 0.16706631
-0.19233346 -0.22633421 -0.13490646 0.82768798 -0.27674413 0.48820624 0.15126173
-0.1857089 -0.22355071 -0.13829339 0.69474083 -0.31466907 0.64677554 0.18392102
-0.17674729 -0.22242583 -0.13681918 -0.0087612923 -0.32924905 0.94420248 0.15000926
-0.15560721 -0.22511418 -0.13653739 0.10615267 0.48376104 -0.86873871 0.16891773
-0.14118801 -0.22552134 -0.13549176 0.0090787318 0.530891 -0.84739149 0.14631872
-0.1364077 -0.22003993 -0.13093807 0.12202445 0.57864076 -0.80640244 0.16067834
-0.12546045 -0.22768643 -0.13538083 0.63677239 0.36958 -0.67670631 0.14798914
0.1553068 -0.22356889 -0.13881019 0.031785659 -0.4260971 0.90411884 0.15664563
0.16963491 -0.22737658 -0.13980711 -0.00073260075 -0.49963397 0.86623627 0.15911087
0.17695841 -0.22145197 -0.13560781 -0.22009292 -0.57156825 0.79048645 0.1795572
0.18609352 -0.22273047 -0.13555589 -0.56426907 -0.45903018 0.68621546 0.18982504
-0.18491858 -0.21513389 -0.13212942 0.51116914 -0.48331743 0.71071124 0.19462806
-0.17786101 -0.21607041 -0.13279393 0.10722224 -0.5528537 0.82635111 0.18417877
-0.16744855 -0.2172811 -0.13250588 0.081126541 0.58496195 -0.80699325 0.16521059
-0.15505648 -0.21884111 -0.13226241 0.1038449 0.58428937 -0.804874 0.1573752
-0.14309853 -0.21894814 -0.13086149 -0.00047111127 0.58820933 -0.80870861 0.13978821
0.13830504 -0.21708737 -0.1335538 -0.74194956 0.37172979 -0.55796766 0.15205106
0.14550826 -0.21578817 -0.13480376 -0.2317545 0.53656006 -0.8114143 0.17174721
0.15201023 -0.21649754 -0.1348177 -0.17572008 0.58358592 -0.79281139 0.16006166
0.16413513 -0.21514836 -0.13251977 0.086401507 0.73394585 -0.67369008 0.14390282
0.1757969 -0.21422353 -0.13038351 0.2390514 0.75784487 -0.60706317 0.16221988
0.18564981 -0.21789245 -0.13221489 -0.45332667 -0.63392115 0.62660909 0.1676579
0.13979566 -0.208409 -0.13002153 -0.57870024 0.53919119 -0.6118651 0.18059774
-0.1821537 0.21929829 -0.13161385 -0.095695212 -0.70025039 -0.7074545 0.16370676
-0.17584144 0.21822071 -0.13070537 -0.14183106 -0.61370963 -0.7766881 0.14666742
-0.14646393 0.21868616 -0.13109779 -0.050583828 -0.63670677 -0.76944506 0.16032472
-0.13883194 0.21822895 -0.13071232 0.45029858 -0.58786941 -0.67204219 0.18340856
0.15584974 0.21411173 -0.13162126 -0.042330604 -0.52271831 -0.8514539 0.13738483
0.16555998 0.21662298 -0.13365567 -0.036585525 -0.52771431 -0.84863365 0.14579742
0.17655344 0.21489508 -0.13228168 0.015396576 -0.58575141 -0.81034452 0.14937192
0.18795034 0.21992242 -0.13565148 -0.27896583 0.50929856 0.81412095 0.15722662
0.19656202 0.21618234 -0.13290544 -0.58815914 0.49728861 0.63778746 0.17482896
-0.19631492 0.22467241 -0.13496992 0.71988851 0.32422766 0.61370748 0.15909542
-0.18803743 0.22325478 -0.13452458 -0.21463315 -0.68290567 -0.69826388 0.19879831
-0.17745633 0.22340524 -0.13446715 -0.042147882 -0.70321834 -0.70972347 0.18401057
-0.16689913 0.22692925 -0.1367473 -0.031819999 -0.57907385 -0.81465393 0.15549551
-0.1549097 0.22541828 -0.13583331 0.076218158 -0.50295228 -0.86094707 0.13905168
-0.14192411 0.2223108 -0.13395357 0.13169597 -0.52662021 -0.83983773 0.15778093
-0.13040774 0.22251116 -0.13392386 0.61596364 -0.41160682 -0.67169088 0.15618381
-0.12836823 0.22911344 -0.13806854 0.61736822 -0.40931743 -0.67180037 0.14670108
0.1319385 0.2240545 -0.13334101 -0.66711122 -0.34951562 -0.65787649 0.17722857
0.15561612 0.22052674 -0.13601701 0.043196842 0.38796321 0.92066205 0.1221255
0.17699973 0.22469115 -0.13853605 -0.071351424 0.32702982 0.94231659 0.15030181
0.18594551 0.22579277 -0.13920242 -0.19256072 0.39884272 0.89657396 0.18838781
0.19316405 0.22293547 -0.13747405 -0.45932558 0.39635223 0.79493707 0.18906328
0.20434958 0.22432545 -0.13182946 -0.83836001 0.22158079 0.49805063 0.14159411
-0.2003518 0.23402496 -0.13776493 0.7811178 0.29807672 0.54863948 0.15438591
-0.17339686 0.23116001 -0.13930655 0.1113971 -0.63932186 -0.76082736 0.18191373
-0.14234668 0.23140129 -0.13945249 -0.072617702 0.38962847 0.91810477 0.14532717
0.13129732 0.2363694 -0.1312134 -0.92289865 -0.19165474 -0.33395594 0.16414779
-0.20070618 0.24190918 -0.13358352 0.90623605 0.29006609 0.30756772 0.16281024
-0.12765388 0.24278557 -0.13247907 0.8842923 -0.16941956 -0.43511406 0.15699194
0.13466889 0.24839061 -0.13145508 -0.96190327 -0.1963734 -0.19020917 0.25438219
0.15827207 0.2471606 -0.13116357 -0.16775836 0.40928966 0.89684957 0.22949836
0.16218759 0.24683374 -0.13090505 -0.092666514 0.23718439 0.96703488 0.24163313
0.1769942 0.24880926 -0.13160911 -0.24423555 -0.34160763 -0.90755343 0.24418703
0.18372457 0.24732792 -0.13109365 0.37672788 0.18308628 0.90805042 0.26261058
0.19402504 0.24620001 -0.13076483 -0.99070591 0.0039111045 0.13596503 0.20693552
-0.20071869 0.25478083 -0.13339695 0.99123704 0.12914222 0.027775269 0.17321303
-0.19367668 0.25315309 -0.13146441 0.45692313 -0.33274752 -0.82492447 0.21842197
-0.18610147 0.25319096 -0.13125394 0.29738805 -0.45095903 -0.84154403 0.27579111
-0.17068243 0.25575563 -0.13208124 0.020710491 -0.29597065 0.95497251 0.25329867
-0.16459987 0.25707263 -0.13233484 0.29282007 -0.18215801 0.93865585 0.27116343
-0.15385342 0.25647113 -0.1307991 0.073119536 0.12459758 0.98950946 0.25893474
-0.1465718 0.25630367 -0.1322111 0.16525106 0.024920138 0.9859367 0.25959191
-0.13504943 0.25815815 -0.13265064 0.99541324 -0.07678102 0.057072178 0.26039958
-0.12765388 0.25529706 -0.13791338 0.89015281 -0.19966222 -0.40958875 0.20251533
0.13426946 0.25412405 -0.13314576 -0.94535965 -0.18545762 -0.26814285 0.22770278
0.14396295 0.25411457 -0.13277018 0.1614567 0.29517177 0.94170338 0.26658016
0.15398203 0.25745544 -0.13341849 -0.24495767 -0.053272929 0.96806908 0.23147024
0.16451988 0.25675249 -0.13323846 -0.33666158 -0.012411062 0.94154394 0.25410825
0.17494838 0.25454593 -0.13274738 0.15115783 0.13989931 0.97855991 0.25791144
0.18956563 0.25026506 -0.13178976 0.38403463 0.18175894 0.90525192 0.24124976
0.19579875 0.25778377 -0.13332735 -0.8311125 -0.25794998 -0.49265993 0.19182119
0.20284374 0.2573666 -0.13325277 -0.98001295 0.090669721 0.17706981 0.18310177
-0.20039141 0.26567087 -0.13267422 0.78043097 -0.085531615 -0.61936396 0.12959713
-0.19573744 0.26255155 -0.13314365 0.64671886 0.0012259673 -0.7627275 0.18284759
-0.17587385 0.26262885 -0.13330974 -0.26858965 0.0072913836 0.96322715 0.2264899
-0.16542254 0.26538807 -0.13359888 0.27028799 -0.22743855 0.93552989 0.27665514
-0.15334426 0.26595953 -0.13314985 0.16740957 -0.27389026 0.9470787 0.25099143
-0.13408495 0.26952311 -0.13377024 0.93849784 0.063224345 0.33944744 0.19905294
-0.12765388 0.2677862 -0.13483153 0.99605817 -0.081877433 -0.034119878 0.20159036
0.13122156 0.26372892 -0.13484031 -0.96552664 0.071077786 -0.25041193 0.19919147
0.14565441 0.26413792 -0.13382255 0.1131481 -0.14504156 0.98293459 0.23532042
0.15623054 0.2666595 -0.13345528 -0.22504359 0.022922747 0.97407901 0.22560143
0.16578403 0.26126888 -0.1335559 -0.32705548 0.29079962 0.89914978 0.24514523
0.17380936 0.26464024 -0.13388745 0.089166425 0.30723792 0.94744617 0.22344293
0.18457566 0.2649273 -0.13400039 0.47759479 0.10459696 0.87233174 0.22991276
0.19488721 0.26849556 -0.13403594 -0.66466558 -0.10363351 -0.73991883 0.22429977
-0.20070617 0.27581778 -0.13536835 0.69377923 -0.06214989 -0.7175011 0.12019654
-0.19669241 0.27553493 -0.13402307 0.73518395 -0.034182124 -0.67700523 0.15228058
-0.18945479 0.27493978 -0.13406931 -0.49618754 0.074062034 0.86505067 0.19961223
-0.1735158 0.27428541 -0.13400105 -0.28457966 0.22620074 0.9315834 0.25527284
-0.16450155 0.27788472 -0.13384055 0.72010112 0.38041353 0.580293 0.27391809
-0.15437135 0.2760064 -0.13348079 0.045121968 0.088943489 0.99501413 0.24681732
-0.14641084 0.27469087 -0.13388664 0.28540546 -0.0061474266 0.95838714 0.25193027
-0.13170375 0.27426636 -0.1337586 0.99515176 -0.088580526 0.042738315 0.2176595
-0.12804301 0.27728513 -0.1335042 0.96719509 -0.12265618 0.2224614 0.19176149
0.13395584 0.27489433 -0.13541995 -0.98807466 0.02586364 -0.15178736 0.21905009
0.14060859 0.27528495 -0.13363263 0.7866708 -0.15008141 0.59885269 0.23186971
0.15617508 0.27570534 -0.13328211 -0.15559195 -0.029910101 0.98736846 0.23171552
0.16556339 0.27429867 -0.13351105 -0.15138268 0.023993267 0.98818398 0.26725647
0.17315346 0.27323684 -0.13362393 -0.028948776 0.1004494 0.9945209 0.27666718
0.19530265 0.27685931 -0.13341293 0.52670187 -0.27136239 0.80557281 0.22949189
0.20314817 0.27243415 -0.13474971 -0.99963987 -0.012400671 -0.023795862 0.14698535
-0.2006624 0.28825676 -0.13296521 0.97074592 0.03976569 -0.23679325 0.14918213
-0.19706106 0.28510696 -0.13280539 0.72503442 0.1643811 -0.6688078 0.19615683
-0.18609065 0.28510776 -0.13286811 -0.16585575 -0.16446437 0.97233915 0.23008791
-0.17539899 0.28503782 -0.13290232 -0.40793946 -0.092084162 0.90835339 0.25011981
-0.16437565 0.2867161 -0.13252281 -0.22649778 -0.34875867 0.90943176 0.29498965
-0.1539436 0.28450933 -0.13241887 0.28514305 -0.013571056 0.95838886 0.238842
-0.13465242 0.28117394 -0.13350564 0.94448888 -0.012967761 0.32828715 0.20035063
-0.1276034 0.28275463 -0.13544935 0.99929017 0.031769473 -0.020245153 0.1790788
0.13225403 0.28039381 -0.1321474 -0.9780432 0.081195705 -0.19193424 0.21601045
0.14712985 0.28569376 -0.13167877 -0.0040454422 -0.30813682 0.95133346 0.25993216
0.15512666 0.28454137 -0.13180561 -0.11923683 -0.38384399 0.91566724 0.27431151
0.16312651 0.28548792 -0.13163003 -0.67369717 -0.063613348 0.73626465 0.29198858
0.17704169 0.2859793 -0.13136904 -0.037537262 -0.90031517 0.43361694 0.2834596
0.18443953 0.28194815 -0.13227391 0.40888116 -0.40175793 0.81939417 0.28780514
0.19271941 0.28407151 -0.1318877 0.50298846 -0.46685582 0.72735703 0.26319808
0.20221628 0.28384548 -0.13211684 -0.95707947 -0.11272309 0.26700652 0.18614165
-0.20070615 0.29803261 -0.13817817 0.65025502 -0.22678833 0.7250762 0.16515373
-0.19498897 0.2947191 -0.13053495 -0.44518676 -0.40252823 0.79986238 0.22506975
-0.18480369 0.29323444 -0.13101101 -0.3267788 -0.43322986 0.83995688 0.25488555
-0.16419202 0.29615018 -0.13015446 -0.2230445 -0.18606377 0.95688629 0.30885959
-0.15563612 0.29269272 -0.13118391 0.3847256 -0.34833053 0.85478193 0.25887832
-0.14158633 0.29441991 -0.13062048 0.25668782 -0.28943905 0.92213684 0.27821985
-0.12765388 0.29725358 -0.13914071 -0.79064101 -0.20108901 0.57831651 0.19988403
0.13129732 0.29349801 -0.13327102 -0.95997632 0.27783838 0.03537396 0.18685712
0.1495896 0.29107332 -0.13011004 0.32472005 -0.36982584 0.87050891 0.28772509
0.15048066 0.29018992 -0.13013995 -0.14261658 -0.15927234 0.97687912 0.2966269
0.16932294 0.29133734 -0.13000208 -0.45434189 -0.79857737 0.39477554 0.31131783
0.17878024 0.29024395 -0.13011786 -0.27739948 -0.93330836 0.2280021 0.29147846
-0.20070618 0.30498487 -0.13659522 0.66312909 -0.27024028 0.69801873 0.15159772
-0.12765388 0.30801296 -0.13022198 0.996966 0.055880267 -0.054185927 0.16516784
0.14867011 0.3083168 -0.13947262 0.080409154 -0.40872395 0.90910894 0.17104727
0.20434958 0.30705255 -0.13062477 -0.90808952 -0.18965112 0.37337098 0.13665828
-0.20070618 0.31082153 -0.13340977 0.83015728 -0.22310391 0.51094383 0.15910962
-0.18596485 0.3130601 -0.13974588 0.22864193 -0.41792846 0.87923753 0.16416971
-0.16026253 0.31602442 -0.13795277 -0.11663041 -0.50985789 0.85231578 0.15379779
-0.14320105 0.3172285 -0.13722447 0.063887484 -0.52006835 0.85173196 0.15771595
-0.12873241 0.31376538 -0.13906786 -0.23853064 -0.53067625 0.81331778 0.17695002
0.14653474 0.31843179 -0.13331795 -0.060960587 -0.53667724 0.84158272 0.16180094
0.15886578 0.31874973 -0.1330214 0.19817844 -0.47762963 0.85591781 0.14008217
0.16406028 0.31520689 -0.13522398 0.10571564 -0.44039777 0.8915571 0.12648413
0.17788683 0.31437361 -0.1358088 -0.023709992 -0.39961287 0.91637731 0.15369722
0.18410675 0.312545 -0.13691492 -0.28068087 -0.27833766 0.91855669 0.15367912
0.19207634 0.31063449 -0.13807061 -0.43382597 -0.38765091 0.81333995 0.17043075
0.20085433 0.31371933 -0.13515708 -0.75829381 -0.28340775 0.5870865 0.13626738
-0.19603115 0.32282948 -0.13362564 0.59433448 -0.51834106 0.6148895 0.1275534
-0.18213204 0.3241995 -0.13271873 0.18800141 -0.55002803 0.81371039 0.15612298
-0.16795251 0.32350194 -0.13342351 -0.066252686 -0.56542486 0.82213455 0.14817615
-0.14452893 0.32608491 -0.13124582 0.046026867 -0.65735996 0.75216973 0.14376046
-0.13786894 0.32475752 -0.13236496 -0.21695091 -0.61153573 0.7608918 0.16536926
0.13603881 0.32089299 -0.13124296 0.51703602 -0.53222901 0.67037761 0.12698819
0.19239306 0.32204938 -0.13026804 -0.47563183 -0.51271486 0.71477115 0.1571769
-0.19258609 -0.3300271 -0.12022388 0.4064151 0.66311532 0.6285736 0.18473759
-0.15590182 -0.33453351 -0.1213395 0.0065974202 0.75645226 0.6540156 0.14318871
-0.1468759 -0.33249915 -0.12516259 0.2346058 0.67600113 0.69855756 0.17318925
-0.13726717 -0.33662772 -0.12014042 -0.4584406 0.57462531 0.67796612 0.15754941
0.16131914 -0.33020246 -0.12125885 -0.069253422 0.79055637 0.60846084 0.13647199
-0.20667265 -0.32162511 -0.12206567 0.99106288 0.030476416 0.1298674 0.17018312
-0.19634718 -0.32570934 -0.12448078 0.41864693 0.63987273 0.64443582 0.1922413
-0.18407586 -0.32631189 -0.12557337 0.043131936 0.75899643 0.64966464 0.1741305
-0.17564453 -0.32418466 -0.12862539 -0.0073523573 0.75549984 0.6551075 0.18158041
0.12318986 -0.32266563 -0.12130995 0.61475635 0.38388017 0.6889925 0.14768596
0.13614857 -0.32591999 -0.12185395 0.39574987 0.65512723 0.6435762 0.13301352
0.14589839 -0.3214635 -0.12776276 0.29819077 0.60679334 0.73680675 0.14826095
0.1554558 -0.32980469 -0.1207119 0.073330186 0.73173136 0.67763692 0.15127751
0.16402547 -0.32701829 -0.12507124 -0.14273289 0.74706036 0.64925194 0.13542506
0.17200398 -0.32655758 -0.12676841 -0.32821181 0.69983721 0.63443267 0.13660094
-0.20550802 -0.3138324 -0.12274439 0.99511725 -0.051744819 0.084048562 0.17233235
-0.16630626 -0.31130591 -0.12045737 0.38846549 0.67635465 0.62581062 0.26704192
-0.15022509 -0.3138569 -0.12033425 0.3434521 0.65133512 0.6766116 0.26485735
-0.14246476 -0.31254989 -0.12226261 0.99803549 -0.056754086 0.026535325 0.23014611
-0.13463025 -0.3144834 -0.12142675 -0.85462826 0.32292664 0.40660676 0.18020971
0.17434029 -0.3101024 -0.12113961 -0.95534271 0.054768767 0.29038012 0.24317884
0.18267535 -0.31418586 -0.12135431 -0.87792599 0.31877407 0.35725206 0.16847432
-0.20446117 -0.30682775 -0.12445346 0.99463487 -0.07455606 0.071714327 0.13723339
-0.1936193 -0.30222499 -0.12397826 0.98387474 0.1356544 0.11656898 0.25000396
-0.18596826 -0.30322951 -0.12405624 0.085529581 0.62137014 0.77883488 0.29321575
-0.17392981 -0.30507889 -0.12403134 0.2449196 0.81105834 0.53122395 0.26763222
-0.16465692 -0.30650863 -0.12388152 0.11121535 0.62993115 0.76864678 0.27972567
-0.15285157 -0.30349615 -0.12474042 0.32931808 0.53404224 0.77868372 0.25425354
-0.14392173 -0.30276468 -0.12778319 -0.6052987 0.40713286 0.68400025 0.24470927
-0.13520387 -0.30442753 -0.12656133 0.95374542 -0.29180947 -0.072228186 0.20012264
0.12544861 -0.30340135 -0.12161408 -0.91597915 -0.13418037 -0.37812415 0.17592825
0.13845235 -0.30301279 -0.12231939 0.21799673 0.42749637 0.87733936 0.22589986
0.14545386 -0.30495325 -0.12147119 0.23611179 0.44569334 0.86348641 0.22846702
0.15508293 -0.30560812 -0.12217461 -0.059964843 0.42912278 0.90125346 0.25747323
0.16585356 -0.30479759 -0.12355189 0.048962872 0.51602536 0.85517281 0.28743944
0.17168276 -0.30713642 -0.12279683 -0.18379907 0.23128085 0.95536751 0.27301589
0.18491611 -0.30734545 -0.12532066 -0.9211278 0.18630518 0.34178078 0.11448622
-0.20244437 -0.29322362 -0.12666206 0.94725591 -0.32045752 0.0036292418 0.16639502
-0.19477989 -0.2937364 -0.12831438 -0.81042743 0.57086444 0.13161018 0.22605945
-0.18544012 -0.2943356 -0.12849192 -0.3220413 0.85937262 0.39720035 0.24321824
-0.17678995 -0.29599622 -0.12834319 0.024244923 0.87065208 0.49130151 0.26067826
-0.16894785 -0.29836428 -0.12818053 0.10780154 0.93850482 0.32800552 0.2730777
-0.14818993 -0.29941115 -0.12869067 -0.039110683 0.34332591 0.93840164 0.25210774
-0.13099062 -0.2956247 -0.12582181 0.98307335 -0.18312486 0.0056522796 0.17428157
0.12964162 -0.29375088 -0.12681852 -0.95922011 -0.067517072 -0.27447817 0.2308211
0.13505346 -0.29525766 -0.12612253 0.64243221 0.26722607 0.71824169 0.26144871
0.14512862 -0.29569232 -0.12655059 0.27698213 0.51805502 0.80925888 0.23993838
0.15653065 -0.29748383 -0.12704059 -0.15233593 0.53942895 0.82813662 0.28613713
0.16393876 -0.29491511 -0.12859917 0.22917572 0.43860871 0.86896551 0.2826983
0.17527965 -0.29473782 -0.12939623 -0.93307233 0.21142869 0.29098788 0.23149915
0.18442921 -0.29519394 -0.12533988 -0.98686403 0.11429553 0.11417454 0.15772069
-0.2012374 -0.28509292 -0.12792516 0.95230073 -0.29980916 -0.056901541 0.16280001
-0.19528921 -0.28495312 -0.1229983 0.91632801 -0.36059141 -0.17411712 0.17554328
-0.1527575 -0.28565937 -0.12688641 0.32486656 0.19351585 0.9257502 0.2608549
-0.12971388 -0.28708175 -0.12952122 0.98637825 -0.16438827 0.005861362 0.19599138
0.14684094 -0.28383642 -0.12562037 -0.2546384 0.47281799 0.84356529 0.25220263
0.16835007 -0.28081125 -0.12135015 -0.97103214 0.21825282 -0.097274281 0.27578601
0.1751173 -0.28403077 -0.12293226 -0.89177704 0.06929104 -0.44713813 0.23912391
0.1841443 -0.28499168 -0.12404207 -0.9202227 -0.039856631 -0.38936043 0.16752087
-0.18597701 -0.27369487 -0.1253269 -0.8164323 0.34420025 0.46364266 0.18600443
-0.15092157 -0.27337492 -0.12474527 0.49194893 0.16319847 0.85519153 0.25170654
-0.12834527 -0.27792412 -0.1273194 0.94916403 -0.21326742 0.23152654 0.20241933
0.12917793 -0.27730939 -0.12288912 -0.93342137 0.26581743 0.24096829 0.19710262
0.14925487 -0.27582932 -0.12705688 -0.49687275 0.40668589 0.76663166 0.23445329
0.17425846 -0.27465773 -0.12398856 -0.87218297 0.014021906 -0.48897883 0.25986993
0.18540859 -0.27403706 -0.12364271 -0.94475377 0.11182804 -0.30811501 0.14221661
-0.19759761 -0.26073864 -0.12990022 0.98020858 -0.1458777 -0.13383175 0.14832096
-0.17335398 -0.26721212 -0.12301423 0.96999556 0.030631853 -0.24118519 0.26536822
-0.16409034 -0.26184487 -0.12043642 0.41351023 -0.01606359 0.91035771 0.26210782
-0.14940509 -0.26322797 -0.12428805 0.36652139 -0.17444427 0.91390985 0.22360723
0.15086354 -0.26506552 -0.12582664 -0.66932577 -0.021916721 0.74264574 0.22822699
0.16759124 -0.26654106 -0.12215489 -0.98884153 -0.019900227 -0.14763622 0.25600371
0.17624961 -0.26439822 -0.12426676 -0.82717299 0.43545246 -0.35519847 0.23107323
0.18311998 -0.26585555 -0.12535115 -0.91125149 0.30218542 -0.27982977 0.17705365
-0.19286871 -0.25539425 -0.12405908 0.8672573 0.27145305 -0.41734636 0.14755867
-0.18471576 -0.2581926 -0.1255444 0.8790015 0.26017135 -0.39958379 0.18982764
-0.17376427 -0.25317535 -0.12165958 0.46432206 0.88300478 -0.068612002 0.27629709
-0.16740471 -0.25673363 -0.12054667 0.89568353 0.44251794 0.043919288 0.28928319
-0.12493367 -0.25509661 -0.1242919 0.89884484 -0.18936542 0.39524502 0.20486993
0.1326576 -0.25402638 -0.12323771 -0.95653009 0.045933869 0.28799343 0.16679652
0.15267968 -0.25291345 -0.12339274 -0.74438488 -0.12184634 0.65653986 0.21607144
0.17466943 -0.25291705 -0.12144616 -0.80125409 0.50524253 -0.3205027 0.27051336
0.18648604 -0.25532979 -0.12336995 -0.93173885 0.29728535 -0.20852832 0.14909261
-0.19012417 -0.24105722 -0.1231067 0.90108603 0.23643148 -0.36351624 0.20575553
-0.18676203 -0.24719098 -0.12336016 0.86250377 0.3669886 -0.34843454 0.20028313
-0.17827863 -0.24180271 -0.12978326 -0.41314381 -0.14654414 0.89879757 0.27705276
-0.1605313 -0.24023122 -0.12787709 0.33074096 -0.36194932 0.87155217 0.26557699
-0.15259367 -0.24459857 -0.12916332 0.3895283 -0.47632188 0.78827989 0.24382241
-0.14576183 -0.24477167 -0.12575093 0.41157666 -0.3214424 0.85280681 0.24960299
-0.13134781 -0.24614112 -0.12859273 0.91049469 -0.09679053 0.4020336 0.25572449
-0.1245814 -0.24611521 -0.12688544 0.99725986 -0.0703253 -0.022960696 0.22066931
0.13371959 -0.24692054 -0.12472633 -0.9810614 -0.031659376 0.19109227 0.16208278
0.15403421 -0.24385004 -0.12638213 -0.78178519 -0.37983316 0.49450862 0.27391836
0.18818055 -0.2473536 -0.12533307 -0.95275503 0.26905939 -0.1409428 0.18925133
0.19253738 -0.24187502 -0.12667598 -0.99062926 0.11197513 0.078199334 0.16340032
-0.19254409 -0.23608601 -0.1254494 0.95351005 -0.18717128 0.23618937 0.14047034
-0.18506131 -0.23880915 -0.12739359 0.95689791 0.16332123 -0.24015108 0.24077991
-0.17768951 -0.23410197 -0.12608777 -0.18517633 -0.25200522 0.94984376 0.24835689
-0.16674748 -0.23303437 -0.12463614 -0.016843954 0.0084783006 0.9998222 0.2528725
-0.15837552 -0.23413487 -0.12455872 0.3927657 -0.54069602 0.74389714 0.27156407
-0.14602609 -0.2345968 -0.12281895 0.23910376 -0.31880143 0.91716689 0.25995725
-0.13688952 -0.2345974 -0.1227883 -0.10737913 0.51526612 -0.85027671 0.25390655
-0.1234609 -0.23497939 -0.12453599 0.98688024 -0.11856497 -0.10958902 0.20369452
0.13510731 -0.23763512 -0.12647408 -0.99581605 0.074406162 0.053049605 0.17398462
0.14639178 -0.23581409 -0.12861489 -0.96098775 0.22268869 -0.16404963 0.25214469
0.15398745 -0.23560691 -0.12769283 -0.30137071 -0.52973372 0.79281646 0.29259589
0.16457315 -0.2321808 -0.12539414 -0.32718346 0.11533932 0.93789536 0.25227198
0.17631748 -0.23366007 -0.12514433 0.39495489 0.91800874 0.03564544 0.30423477
0.18452443 -0.23466301 -0.12491009 -0.96381503 0.18580364 0.19114804 0.25480023
0.1952337 -0.23598886 -0.12499823 -0.98948896 0.025399566 0.14236073 0.14728364
-0.19277325 -0.22854021 -0.12616831 0.92473328 -0.29638597 0.23879625 0.15373239
-0.18818094 -0.22548866 -0.12201938 0.97887862 -0.12573399 -0.1612065 0.20444819
-0.16559644 -0.22920647 -0.12212978 -0.20855793 -0.20144446 0.95703906 0.2448142
-0.1527296 -0.22979817 -0.12146806 0.47957593 -0.52811563 0.70078588 0.26613751
-0.12103468 -0.22018966 -0.12914719 0.61825037 0.41803735 -0.66559094 0.12492369
0.13774635 -0.22947232 -0.12504116 -0.99814105 -0.0045579528 -0.060775734 0.1968008
0.14620334 -0.22539601 -0.12279221 -0.97528243 -0.14142172 0.16977613 0.23477766
0.1575924 -0.22775984 -0.1233734 -0.28897232 -0.59388322 0.75086468 0.27555117
0.16433194 -0.22711836 -0.12235617 0.057562023 0.91874379 -0.390636 0.28089973
0.17897776 -0.2263618 -0.12047569 0.45927534 0.88717979 0.04447544 0.28173247
0.19853264 -0.22340347 -0.12226313 -0.96243346 -0.20703906 0.17566079 0.15911095
-0.19028217 -0.211954 -0.12476154 0.82916433 -0.47476423 0.29510239 0.17244948
-0.18872435 -0.21137567 -0.12754014 0.59418815 -0.58943319 0.54727399 0.19745062
-0.17959303 -0.21139871 -0.1291144 0.27724206 -0.65901434 0.69916874 0.17917758
-0.15984049 -0.21135354 -0.12661529 0.093111433 0.60759473 -0.78877044 0.17323941
-0.1448884 -0.21350527 -0.12630856 0.0051796134 0.67660356 -0.73632926 0.1568055
-0.13899814 -0.21130115 -0.12341998 -0.014043539 0.72996682 -0.68333828 0.15493013
-0.1259793 -0.21358921 -0.12381127 0.4256334 0.63702685 -0.64267647 0.18427135
-0.11936849 -0.21566713 -0.12251927 0.65150249 0.50190985 -0.56888574 0.12853387
0.17308848 -0.21203959 -0.12890004 0.14281976 0.84499836 -0.51534486 0.15648511
0.18282461 -0.21282998 -0.12834579 0.30537891 0.74220467 -0.59655339 0.18067341
0.19054484 -0.21548863 -0.12960055 -0.5392282 -0.593382 0.59760427 0.15100572
-0.18532395 -0.20584235 -0.12310074 -0.4511025 0.76043385 -0.46716905 0.18816213
-0.17705089 -0.20576298 -0.12359019 0.030078135 0.73114026 -0.68156379 0.16952114
-0.16310358 -0.20798822 -0.1237511 0.15842645 0.81746954 -0.55375499 0.18319352
-0.14544305 -0.20768994 -0.12039335 0.044709083 0.68161064 -0.73034793 0.15713
-0.13869311 -0.20892921 -0.1206568 0.020853981 0.77897698 -0.62670559 0.18138577
-0.12940907 -0.20982012 -0.12008917 0.31341422 0.74227393 -0.59228444 0.16636886
0.14299372 -0.20614178 -0.12474404 -0.49986866 0.64140391 -0.58200705 0.1902895
0.15393126 -0.20548171 -0.12574972 0.067013048 0.79521179 -0.6026172 0.16013099
0.16684625 -0.20342308 -0.1213899 0.10102885 0.77806479 -0.62000668 0.129302
-0.19427012 0.20949192 -0.1227137 0.55582052 0.63949209 0.53114343 0.12813108
-0.15283826 0.20831537 -0.12147857 0.0027021114 -0.70579845 -0.70840752 0.14179876
-0.12905337 0.20999488 -0.12341952 0.74599153 -0.51225215 -0.42555177 0.12487002
0.13207734 0.20755142 -0.12318292 -0.59818047 -0.6347993 -0.48909101 0.1566388
0.1426059 0.20655853 -0.12509948 -0.33208543 -0.65007347 -0.68346453 0.17200314
0.15599233 0.20489542 -0.12343068 -0.039256018 -0.6531828 -0.75618196 0.14636953
0.16504684 0.20754604 -0.12597153 0.077562049 -0.65837038 -0.74868721 0.16288272
0.17328139 0.20500629 -0.12353972 -0.02443531 -0.74523091 -0.66635865 0.14391674
0.18556885 0.20332122 -0.12171099 0.17168964 -0.74732375 -0.64189553 0.14406525
0.19526465 0.20706065 -0.12567666 -0.46549278 0.60142273 0.64931285 0.16435307
0.20408031 0.20635837 -0.12076744 -0.7712267 0.44886994 0.45135918 0.15867038
-0.19559546 0.21588726 -0.12737228 0.66128623 0.51299405 0.54730028 0.15700227
-0.18414567 0.21084915 -0.12440678 -0.17014489 -0.66375697 -0.72833884 0.14673917
-0.17831917 0.21709652 -0.1297576 -0.14562015 -0.63490307 -0.75874424 0.1473396
-0.15058795 0.21368295 -0.12687971 0.075408988 -0.70421898 -0.70596683 0.12852529
-0.14595902 0.21265733 -0.12601504 -0.11481715 -0.74077237 -0.66187102 0.16117151
-0.13342547 0.21462038 -0.12767003 0.59234095 -0.52363509 -0.61232215 0.16645807
-0.12769566 0.21649881 -0.12676556 0.80600584 -0.39089325 -0.44447392 0.12434687
0.13283712 0.21465167 -0.12727436 -0.75739402 -0.43076554 -0.4907091 0.15329637
0.14315644 0.21119058 -0.12915847 -0.22818659 -0.53427047 -0.81393242 0.17276503
0.15665202 0.21027221 -0.1283842 -0.022314889 -0.57066482 -0.82087982 0.15141873
0.16256434 0.21019794 -0.12832159 -0.018109644 -0.5151583 -0.85690373 0.16175359
0.20416608 0.21485665 -0.12558421 -0.90256506 0.26007771 0.34312671 0.15372904
-0.20070618 0.22659057 -0.12796646 0.88696653 0.27294341 0.37254855 0.13040727
-0.18096255 0.22997765 -0.12037763 0.90938932 -0.3980816 -0.12059084 0.29220754
-0.14493001 0.22981517 -0.12024064 0.68670905 0.39277071 0.61168772 0.25940797
0.13350953 0.22799152 -0.12370907 -0.87317497 -0.24008343 -0.42417613 0.172273
0.15470274 0.22749442 -0.12188756 -0.047625061 -0.46620989 -0.88339132 0.24790311
0.16664116 0.22564413 -0.12091867 -0.095346808 0.50474393 0.8579874 0.26598448
0.17015135 0.22724402 -0.12197724 -0.18947002 0.38424689 0.90357918 0.26485559
0.18515851 0.22729753 -0.12189154 -0.16599523 0.50628203 0.84624112 0.28850868
0.1953951 0.22787438 -0.1221914 -0.73354208 -0.48232013 -0.47883537 0.2617172
0.20303404 0.22635977 -0.12208176 -0.94605196 0.1189172 0.30140388 0.17087665
-0.20070618 0.2315903 -0.12426948 0.95028198 0.20305261 0.23608005 0.15281199
-0.1929857 0.23109825 -0.12078971 0.99141282 0.085365616 0.099061884 0.20651543
-0.18407279 0.23497349 -0.12322952 0.96562296 -0.25994292 -0.0014123747 0.24643573
-0.17262354 0.23705016 -0.12458102 0.090916768 -0.87354523 0.47817668 0.28229481
-0.16570981 0.23374254 -0.12264407 -0.45908341 -0.83303404 0.30870169 0.29387864
-0.15303949 0.2361854 -0.1229706 -0.47294214 -0.78823686 -0.39371085 0.28251106
-0.14450568 0.23662934 -0.12442207 0.66529649 0.33848068 0.6654408 0.28013167
-0.13487409 0.23674162 -0.12443265 0.98787606 0.10664131 0.11282068 0.21530953
0.13992712 0.23483741 -0.12624569 -0.58662385 -0.24769282 -0.7710517 0.22314733
0.14771008 0.23625802 -0.12687063 -0.028288286 0.40279353 0.91485357 0.24592082
0.15540648 0.23649146 -0.12428413 -0.17372851 0.16907069 0.97017193 0.22377203
0.16480058 0.23561016 -0.12667766 -0.048014998 0.25006559 0.96703762 0.25849622
0.17587259 0.23590708 -0.12700836 -0.063252404 0.19288307 0.97918093 0.23803714
0.18616615 0.23726439 -0.12742722 -0.31075358 -0.57030362 -0.76038539 0.25461385
0.19414669 0.23327088 -0.1255254 -0.62933695 -0.49307761 -0.60067415 0.26202437
0.20248136 0.23252165 -0.1251694 -0.90278012 0.11309536 0.41496694 0.14893091
-0.19536157 0.24639876 -0.12408193 0.96633315 -0.14733583 -0.21093214 0.21847759
-0.18726596 0.24439275 -0.12835781 0.94391811 -0.16562273 0.28563559 0.26670954
-0.17490023 0.24502254 -0.12854916 -0.016124818 -0.078221418 0.99680555 0.28207996
-0.16609444 0.2439148 -0.12810723 0.48161143 -0.77732962 0.4047333 0.30521551
-0.15332441 0.24731429 -0.12707092 0.10506993 0.46624717 0.87839288 0.29547834
-0.14741838 0.24396183 -0.12807123 -0.11855586 0.31506675 0.94163555 0.28391126
-0.13563263 0.24467382 -0.12820789 0.95290065 -0.044029295 0.30006963 0.21630971
-0.12757814 0.24418008 -0.12723662 0.99834877 -0.054502595 0.018143862 0.18790978
0.1341693 0.24230647 -0.12728356 -0.94455689 -0.12156821 -0.30501401 0.24974045
0.14598651 0.241906 -0.1294613 -0.36468062 -0.38454375 -0.84801775 0.24727863
0.15542787 0.24392292 -0.12589316 -0.21864444 0.51627547 0.82804245 0.22339684
0.16379261 0.24186754 -0.12934333 0.096039288 0.33611497 0.93691146 0.24325489
0.18162829 0.24238248 -0.12965614 -0.27393898 -0.39522046 -0.87678856 0.24751
0.19885248 0.24357402 -0.12207972 -0.9649964 -0.24461445 -0.094581798 0.18663107
0.20246582 0.24527991 -0.12531962 -0.9835614 -0.12352168 0.13171656 0.18993814
-0.20054699 0.25482959 -0.12648126 0.96247303 -0.10996361 -0.24809997 0.14922401
-0.19560689 0.25391629 -0.12350874 0.9282918 -0.21253866 -0.30512574 0.18386188
-0.18303788 0.25719801 -0.12208128 0.80117017 -0.38177565 -0.46084031 0.2203171
-0.17849118 0.25781345 -0.12107778 0.76026517 -0.53297579 -0.37139428 0.26689523
-0.15121451 0.2533817 -0.12630309 0.34012318 0.07335557 0.93751544 0.25689316
-0.1275024 0.25569242 -0.12797314 0.99480438 0.072437584 0.071533673 0.22219373
0.13114582 0.25361177 -0.12342495 -0.96449959 -0.12144056 0.23450536 0.20347902
0.15485796 0.25426933 -0.12461565 -0.29085714 0.13816819 0.94673741 0.23067136
0.17604983 0.2547766 -0.12011705 0.0036470888 0.30880043 0.9511199 0.29497221
0.18215773 0.25748724 -0.12230457 -0.58137429 -0.58076066 -0.56984293 0.28065506
0.19669574 0.25769731 -0.12585092 -0.80575067 -0.15578109 -0.57140023 0.16724586
0.20066561 0.2516863 -0.12561174 -0.85063559 -0.27211437 -0.44985873 0.19153547
-0.19210492 0.26464674 -0.12582526 0.7414847 -0.16212147 -0.65108913 0.15742707
-0.18574308 0.26306751 -0.12391512 0.78921902 -0.22839783 -0.57005942 0.18120956
-0.16973665 0.26737678 -0.12053967 0.51258808 -0.66719848 -0.54046243 0.30132025
-0.15121453 0.26105168 -0.12551129 0.31409204 0.066693641 0.947047 0.2474144
-0.1275024 0.2673085 -0.12860569 0.91501039 0.0931013 0.39254057 0.20959112
0.13114581 0.26256543 -0.12531075 -0.97625697 0.16020536 0.14579603 0.21081352
0.15485795 0.2608335 -0.12664567 -0.26357862 -0.014556 0.96452808 0.20710753
0.188557 0.269719 -0.12447959 -0.84136134 -0.035036072 -0.53933614 0.18821484
0.19517531 0.26820058 -0.12616435 -0.83544785 -0.027798392 -0.54886621 0.15244916
-0.19572967 0.27710447 -0.1260719 0.78129858 0.091749385 -0.6173771 0.13123187
-0.17640406 0.27596375 -0.12226892 0.66292322 -0.029512422 -0.74810553 0.28240159
-0.15121451 0.27327734 -0.12662384 0.19077376 0.10778072 0.97569913 0.23144859
-0.1275024 0.27083477 -0.12827151 0.97728741 -0.0075382818 0.21178403 0.18332982
0.13114582 0.2740398 -0.12603854 -0.93306589 0.037162218 0.35778075 0.2270432
0.15485795 0.27295488 -0.12450789 -0.31804243 -0.068985432 0.94556332 0.21884659
0.17614144 0.27435568 -0.12106512 0.78892702 -0.26192233 0.5558694 0.28212023
0.18073094 0.27961868 -0.1212725 0.79741579 -0.48250702 0.3623741 0.26025233
-0.19947121 0.28735074 -0.12640052 0.83126861 0.16147244 -0.53190148 0.17011142
-0.18088447 0.28539538 -0.12207291 0.68504125 0.035914358 -0.72761852 0.21856356
-0.17869815 0.28476918 -0.12175734 0.69373584 -0.012882209 -0.72011429 0.2691828
-0.15121453 0.28270051 -0.12218815 0.3285906 -0.072877109 0.94165659 0.19301267
-0.1275024 0.28222927 -0.12191094 0.88692784 0.029816324 0.46094456 0.17046951
0.13114582 0.28248012 -0.12284204 -0.87040424 0.11984304 0.47752926 0.20930679
0.15485793 0.28265584 -0.12516549 -0.28751251 -0.29324564 0.91178042 0.25633255
0.18846358 0.28782001 -0.12098597 0.75227475 -0.56201243 0.34383836 0.22179349
0.19846866 0.28705227 -0.12381788 -0.92916626 0.32273343 -0.18025899 0.17272581
0.2022748 0.28672212 -0.12633231 -0.9332549 0.30280656 -0.19324481 0.16548248
-0.19613561 0.29413164 -0.12366883 -0.80472583 -0.33115008 0.49270275 0.18216118
-0.18422239 0.29600728 -0.12687089 -0.5291416 -0.49816942 0.68690354 0.24027865
-0.17163861 0.29782462 -0.12936756 -0.3575348 -0.055455677 0.93225181 0.28477937
-0.1659264 0.2973989 -0.12964387 -0.18175845 0.099579357 0.97828817 0.29180878
-0.15389101 0.29792824 -0.127474 0.35058141 -0.27558511 0.89506739 0.27246976
-0.14895266 0.29949883 -0.12878521 0.20790151 -0.59267002 0.77815104 0.27094713
-0.1362465 0.29781958 -0.12947185 0.8476311 -0.083869234 0.52391553 0.20769094
-0.12806548 0.29520983 -0.1287367 0.98858649 0.045091711 0.14374775 0.18088737
0.13406014 0.29461873 -0.12849489 -0.99378926 0.10116734 -0.046347734 0.24491988
0.14456929 0.2954528 -0.1281538 0.73418099 -0.44176975 0.51557511 0.27971753
0.15561584 0.29679 -0.12692986 -0.033802394 -0.65455818 0.75525564 0.28682941
0.16275817 0.29873359 -0.12678874 -0.60581136 -0.76698428 0.21148926 0.29860264
0.17524104 0.29535526 -0.12835918 -0.038628966 -0.95282245 0.30106008 0.27463201
0.1813104 0.29417232 -0.1287601 -0.1695924 -0.5972932 0.78388739 0.28038141
0.19551076 0.29430073 -0.12860121 -0.9851647 0.17024031 -0.021649767 0.19639012
0.20336778 0.29689884 -0.12666573 -0.99828404 0.053504549 0.023798354 0.18880975
-0.20070617 0.30759314 -0.12782434 0.96684319 -0.13393585 0.21742906 0.16694096
-0.19399509 0.30432454 -0.12516066 0.078254633 -0.41394845 0.90693051 0.25100601
-0.18654263 0.3039254 -0.12682211 -0.2657581 -0.35480544 0.89637363 0.24575517
-0.17364435 0.30178204 -0.12778358 -0.34511209 -0.53704357 0.7697283 0.25153819
-0.16550948 0.30689034 -0.12521254 0.055084601 -0.62228477 0.78085041 0.2878367
-0.15121451 0.3036744 -0.12494701 0.14020912 -0.41938964 0.89691347 0.2732127
-0.14099723 0.30535406 -0.12595627 0.58121675 -0.43220377 0.68948317 0.26127642
-0.1355911 0.30574259 -0.12588695 0.94535697 -0.24076347 0.21984816 0.22315355
-0.12765388 0.30556849 -0.12621295 0.99837846 0.045474552 -0.034241132 0.15465371
0.13753578 0.30460602 -0.12353329 -0.981628 0.066172935 -0.17896278 0.23393373
0.1564472 0.30506667 -0.12334126 -0.57367051 -0.55906409 0.59862298 0.27056178
0.16410181 0.30664247 -0.12231898 -0.75515568 -0.4595122 0.46753439 0.2866281
0.18478577 0.30327845 -0.12404104 -0.038858403 -0.40552101 0.91325945 0.30526653
0.19519037 0.30403128 -0.12377669 -0.93277299 0.29600808 -0.2057029 0.2050228
0.204238 0.3061482 -0.12427136 -0.97115493 -0.15230972 0.18346646 0.16766974
-0.20070617 0.31805265 -0.12639119 0.98142737 -0.11258025 0.15532555 0.1444816
-0.19878004 0.31073874 -0.12285233 0.95602196 -0.19398825 0.21997881 0.1608223
-0.18635781 0.3130587 -0.12164374 -0.3895244 -0.50161821 0.77243114 0.22755086
-0.17683087 0.31308958 -0.12150689 -0.36532587 -0.50378281 0.78277707 0.24230777
-0.16558783 0.31098056 -0.12277094 0.012473239 -0.6634171 0.74814576 0.2869685
-0.15233922 0.31208673 -0.12213414 0.24321119 -0.67165101 0.69980943 0.24058345
-0.14263386 0.31177258 -0.1222269 0.52301687 -0.6333012 0.57042348 0.25093907
-0.12765388 0.31698528 -0.1268992 0.99485761 -0.090623483 -0.045230202 0.17221186
0.20434958 0.31420177 -0.1265929 -0.90593684 -0.2904931 0.30804604 0.15742254
-0.20070618 0.3231146 -0.12297707 0.86261183 -0.39011657 0.32204017 0.13171324
-0.19695082 0.32941803 -0.12746254 0.65971243 -0.56218016 0.49873137 0.14834416
-0.17140183 0.32838103 -0.12931004 -0.13346195 -0.65639758 0.74251604 0.16081911
-0.12777717 0.32861647 -0.1248034 -0.77330786 -0.42564172 0.46991929 0.16460148
0.13393043 0.32513115 -0.12386312 0.70390421 -0.45331985 0.54682714 0.18397233
0.14518836 0.32635093 -0.12663323 -0.019027162 -0.70337385 0.71056539 0.18894389
0.15141039 0.32966149 -0.12352931 -0.073568471 -0.65301591 0.75376248 0.17772461
0.16481026 0.3244521 -0.12824237 0.12230211 -0.66602653 0.73583341 0.15565047
0.18411914 0.32726195 -0.12578872 -0.15595722 -0.73969352 0.65462267 0.17171735
0.19277355 0.32953084 -0.12368031 -0.39227107 -0.70033187 0.59637117 0.16854025
-0.19412568 0.3316806 -0.12652825 0.51321608 -0.63920391 0.57273692 0.13825868
-0.18403123 0.33068085 -0.12737113 0.22765604 -0.66851068 0.70800149 0.14353631
-0.17518425 0.3363018 -0.1218593 0.065910235 -0.60585648 0.79283905 0.1584468
-0.15464783 0.33111 -0.12700927 9.9038243e-06 -0.65945977 0.75173992 0.14737122
-0.14016023 0.33226067 -0.12603915 -0.12120742 -0.71054703 0.6931318 0.14036468
-0.13232115 0.33459225 -0.12366811 -0.30204538 -0.70121688 0.64580446 0.1629189
-0.12908119 0.33192325 -0.12515964 -0.83710641 -0.43238404 0.33510739 0.16218403
