# .PCD v0.7 - Point Cloud Data file format
VERSION 0.7
FIELDS x y z normal_x normal_y normal_z curvature
SIZE 4 4 4 4 4 4 4
TYPE F F F F F F F
COUNT 1 1 1 1 1 1 1
WIDTH 587
HEIGHT 1
VIEWPOINT 0 0 0 1 0 0 0
POINTS 587
DATA ascii
-0.13093486 -0.46856767 -0.11331932 0.3905271 0.87889957 0.27390537 0.0044366289
0.1333307 -0.46619773 -0.11439993 -0.40194437 0.87549657 0.26822847 0.003170456
0.14697778 -0.46237573 -0.11378729 -0.396191 0.87653148 0.273359 0.0029354813
-0.17216918 -0.45169967 -0.11098319 0.56725419 0.78866327 0.23713472 0.0084762573
-0.16070694 -0.457055 -0.11546631 0.46360928 0.84252036 0.27427348 0.0046033026
-0.15301526 -0.45879167 -0.11240664 0.41364878 0.87413365 0.25452885 0.0034484419
-0.14643356 -0.45981708 -0.11909878 0.38329268 0.87162781 0.30553511 0.0054759565
0.14906248 -0.45939261 -0.11748543 -0.39506611 0.87208247 0.28878158 0.0037834814
0.15114389 -0.45800823 -0.11886742 -0.38092905 0.87079632 0.31081656 0.0066794725
-0.18325415 -0.44165975 -0.11130596 0.72718573 0.65250123 0.21317366 0.0077889264
-0.17911816 -0.44549686 -0.11188053 0.64893633 0.73201728 0.20744248 0.00773776
0.17736837 -0.44614622 -0.11524124 -0.62495035 0.74221581 0.2419768 0.0083417771
0.18307069 -0.44180769 -0.1113233 -0.73718441 0.64825046 0.19060566 0.0055838218
-0.19115457 -0.43012479 -0.11208171 0.85303468 0.48827395 0.18417466 0.0070204176
-0.18782645 -0.43468928 -0.11536664 0.83041465 0.51768917 0.20593558 0.010818944
0.18772437 -0.43537483 -0.11311246 -0.82668257 0.5327692 0.18097742 0.0087587321
0.19007683 -0.4324823 -0.11183126 -0.8486867 0.50732148 0.14951868 0.0060397484
-0.19393617 -0.42281622 -0.11563955 0.87803459 0.4553268 0.14742042 0.0073217717
-0.19485009 -0.41633034 -0.11687645 0.95520604 0.24751824 0.16222242 0.070117347
0.19417296 -0.41774061 -0.11684581 -0.93917537 0.31796995 0.12978753 0.058140498
-0.20417473 -0.40401107 -0.11600152 0.98621541 0.088610999 0.13974012 0.095448203
0.20380521 -0.40449741 -0.11528885 -0.97732359 0.20340587 0.058860842 0.11680974
-0.20671602 -0.39450169 -0.11337069 0.99684417 0.007576596 0.079021141 0.15358427
-0.18485653 -0.39336985 -0.11224765 -0.4346939 0.88430429 -0.1704322 0.18084675
-0.17478199 -0.39310348 -0.11111283 0.13977146 0.97893256 -0.14884569 0.089825802
-0.16183768 -0.39316866 -0.1127798 0.023626482 0.9854936 -0.16806015 0.1325001
-0.15546088 -0.39347339 -0.1139936 -0.083291829 0.98508793 -0.15054649 0.15319739
-0.14582901 -0.39369127 -0.115495 -0.43196136 0.8786968 -0.20322728 0.11666978
0.14355123 -0.39263812 -0.1156273 0.56454045 0.82528085 0.014336288 0.17844959
0.15281442 -0.39303407 -0.11142665 0.015676921 0.99723625 -0.072622642 0.15997837
0.16533366 -0.39384937 -0.11559384 -0.011114907 0.98884994 -0.1485 0.14224635
0.17396256 -0.39320037 -0.11246465 0.13695875 0.98839051 -0.065775059 0.1366125
0.18143183 -0.39339268 -0.11333174 0.33912146 0.89598739 -0.28671134 0.1541376
0.19783354 -0.3934294 -0.11184537 -0.98441976 -0.13374007 0.11415483 0.23160166
0.2037099 -0.39427885 -0.11406928 -0.95545512 0.29397127 -0.026198294 0.19131303
-0.20137393 -0.38191095 -0.11807895 0.92727262 0.37302345 -0.031920269 0.20485665
-0.19258811 -0.38155484 -0.11407042 0.95621848 0.11170626 0.27049583 0.25580195
-0.18579359 -0.38167241 -0.11551206 -0.2249842 0.9506824 -0.21350674 0.25580388
-0.17338459 -0.38171256 -0.11591033 -0.33946526 0.93727064 0.079290606 0.26265112
-0.16850498 -0.38053808 -0.11584954 0.062878594 0.97431672 -0.21622483 0.24560922
-0.14087532 -0.38177603 -0.11251487 0.96692246 -0.2518827 0.040200457 0.17064576
0.14079136 -0.38583291 -0.11357062 0.70248383 0.70773613 -0.075007133 0.22251198
0.16942313 -0.38108984 -0.11817285 -0.16457561 0.98606807 -0.024177065 0.28029442
0.17480928 -0.38126206 -0.11253423 0.87406141 0.47563314 -0.09894298 0.25061372
0.18252639 -0.38169074 -0.11556181 0.5124172 0.85721982 -0.051016673 0.2366104
0.19594458 -0.38149953 -0.11496632 -0.86641371 0.49687484 0.049424108 0.255867
0.2048215 -0.38122034 -0.11515415 -0.93775904 0.33692273 -0.084207997 0.16377902
-0.16273561 -0.37503427 -0.11480607 -0.096689343 0.092222884 0.99103284 0.28421286
-0.14098215 -0.37683371 -0.11244941 0.96829164 -0.23629662 0.081088051 0.18445815
0.14093918 -0.37927958 -0.11545121 -0.98726779 -0.15519221 0.034896195 0.23472954
0.16247055 -0.37438154 -0.11895147 -0.60244536 0.21566159 -0.76847231 0.28813359
0.21250771 -0.37623358 -0.1166044 -0.98254246 0.17672738 -0.058118533 0.099279389
-0.21424782 -0.36407676 -0.1166297 0.9466871 0.32141015 -0.021887194 0.11949486
-0.16128682 -0.36560664 -0.11373804 0.10157637 0.83980989 -0.53329325 0.24227892
0.14127228 -0.3637127 -0.11599623 -0.94202316 0.0022299604 0.33554047 0.21509053
0.16128127 -0.36749789 -0.11529729 0.27711186 0.28715011 0.91692632 0.25781807
0.2142473 -0.36572424 -0.11674706 -0.97648913 0.21554631 -0.0029578449 0.10697082
-0.2128244 -0.35655633 -0.11373305 0.98857063 0.14062454 -0.054340027 0.17220119
-0.20121557 -0.35756958 -0.11683926 0.83488774 0.54371268 -0.085667878 0.23010382
-0.19618283 -0.35695493 -0.1130352 0.66842937 0.66223013 -0.33860508 0.24599178
-0.18483558 -0.35771033 -0.11708983 0.25155979 0.94175035 -0.2232127 0.25808293
-0.17242025 -0.3575272 -0.1153636 0.39474073 0.81373447 -0.42663333 0.23121333
-0.16598733 -0.35758677 -0.11529865 -0.35856199 0.90209907 -0.24010526 0.21286771
-0.14142084 -0.35604984 -0.11537644 0.99633324 -0.084319986 0.014498294 0.18496481
0.14143683 -0.35461318 -0.11344609 -0.96054518 -0.27157179 -0.06001468 0.18510792
0.16675594 -0.35736182 -0.11491551 0.15388241 0.87411386 -0.46070072 0.21218301
0.17631443 -0.35673597 -0.11230671 -0.50333279 0.81739801 -0.28020808 0.20572385
0.19295795 -0.35742891 -0.11555284 0.029991824 0.89448172 -0.44609737 0.26167086
0.20525223 -0.3574729 -0.11669345 -0.99681532 0.047447573 -0.064092316 0.19081682
0.21312726 -0.35523373 -0.11402535 -0.99819946 -0.039226521 -0.045378316 0.11307077
-0.21268664 -0.34312966 -0.11559756 0.98737091 0.075763494 -0.13913503 0.06851317
-0.14164144 -0.34396577 -0.11484067 0.96065271 -0.27770504 0.0051304456 0.1190313
0.141589 -0.34724727 -0.11529718 -0.93253267 -0.3584159 -0.043827627 0.13439938
0.21306859 -0.34514737 -0.11133342 -0.99968624 0.012896149 -0.021471258 0.08844129
-0.21220243 -0.33691293 -0.11266541 0.98893976 0.08341822 -0.12263568 0.071564689
-0.14179909 -0.33373529 -0.11401759 0.99981683 0.016758218 -0.0092470283 0
0.14179589 -0.33640853 -0.11781126 -0.99981093 0.017570838 -0.0083236294 6.0653765e-06
0.21225852 -0.33812416 -0.11455297 -0.99632376 0.038865604 -0.076344706 0.066164181
-0.21074347 -0.32395601 -0.11104522 0.99034166 -0.097734287 0.098343745 0.0037309334
-0.20979977 -0.32421589 -0.11571196 0.98775554 -0.13709511 0.074457429 0.004558926
-0.14192231 -0.32541591 -0.11245225 0.99982738 0.015412424 -0.01037386 0
0.14208227 -0.32009155 -0.11931393 -0.99974698 0.02002343 -0.010250693 6.9515777e-06
0.20981734 -0.32429048 -0.11479259 -0.98812848 -0.12987855 0.082059182 0.0038849697
0.2110887 -0.32835704 -0.11508766 -0.99872684 -0.043431036 0.025658065 0.018935559
-0.20839572 -0.31807244 -0.1119462 0.98744786 -0.1036158 0.11920757 0.0037524102
0.14214467 -0.31468761 -0.11713108 -0.99971521 0.021034263 -0.011272933 2.6660307e-05
0.20641106 -0.31153288 -0.11298516 -0.98922294 -0.063221522 0.13206464 0.0048612705
-0.20596953 -0.30574524 -0.11618356 0.99497831 -0.0062103053 0.099898055 0.0049037333
-0.14226139 -0.30298257 -0.11359211 0.99907744 0.039110076 -0.017741004 0.00020176911
0.20588432 -0.30404797 -0.11496267 -0.99166352 0.010015915 0.12846462 0.0052304151
-0.14264469 -0.29374567 -0.1131681 0.99728775 0.069695346 -0.023657642 0.0002925036
0.14272527 -0.293944 -0.11782905 -0.99748147 0.066591948 -0.02441797 0.00040588784
0.20576389 -0.29360753 -0.11579011 -0.99095547 0.084432364 0.10430008 0.0052030524
-0.21086136 -0.2823807 -0.1141127 0.99737531 0.062993862 0.035696983 0.010886629
-0.20839624 -0.28786612 -0.11639414 0.98706436 0.15243107 0.049687218 0.0023835131
-0.14331673 -0.28513122 -0.11588335 0.99514228 0.093633547 -0.030406818 0.00034012855
0.14337824 -0.28423646 -0.11351678 -0.99473983 0.098972961 -0.026400629 0.0002845866
0.20843399 -0.28746256 -0.11617344 -0.98922575 0.13256221 0.062126826 0.0044825762
0.21047096 -0.28391275 -0.11299445 -0.99293864 0.099183418 0.065081522 0.0055573401
-0.21109456 -0.27689391 -0.11794516 0.9973079 0.071540438 0.016087759 0.0094954465
-0.20974058 -0.27260041 -0.11756294 0.99505752 -0.099219345 -0.0040042978 0.069636084
-0.14440978 -0.27607104 -0.11558884 0.99306458 0.11241498 -0.03443227 0.00019073082
0.14418739 -0.27734268 -0.11458712 -0.9927538 0.11545386 -0.033320989 0.00025764602
0.21135154 -0.27558622 -0.1180901 -0.99967414 0.025247904 -0.0037746492 0.027545933
-0.14602883 -0.26335493 -0.11283506 0.9507823 0.30249625 0.067149557 0.093798287
0.14610194 -0.26406342 -0.11635284 -0.97061694 0.2390586 0.027455218 0.062507294
0.21224666 -0.26445541 -0.11896686 -0.99697739 -0.077618942 -0.0033706601 0.091129772
-0.21045613 -0.25099346 -0.11810645 0.99430639 -0.071779899 -0.078755908 0.1549833
-0.19171728 -0.25073579 -0.11748877 -0.040745892 0.92258048 0.38364708 0.27735132
-0.18880224 -0.25176698 -0.11230706 0.00033494618 0.97949666 0.20146035 0.22611825
-0.17866282 -0.25105995 -0.11545867 -0.64732599 0.76067799 0.048352316 0.20208643
-0.16477077 -0.252069 -0.11178992 0.2141012 0.95512748 0.2046759 0.24587859
-0.14773747 -0.25257984 -0.11637424 0.95771754 0.28748655 -0.011340149 0.10953695
0.14762782 -0.25182748 -0.11242864 -0.90628749 0.42260459 -0.0069514257 0.13907406
0.16594473 -0.25134742 -0.11413192 -0.19354448 0.97228527 0.13115618 0.20745865
0.17360941 -0.25033611 -0.11794023 -0.10894701 0.98684734 0.11942688 0.22681679
0.18533625 -0.25074926 -0.11705699 0.25914317 0.9437288 0.20547691 0.25676516
0.19536079 -0.25114077 -0.11520366 0.28041029 0.9367708 0.20935771 0.28406489
0.20507124 -0.25092572 -0.11788623 -0.94372189 -0.31672937 0.095244087 0.22502993
0.21274078 -0.25193843 -0.11528086 -0.98974073 -0.12234686 -0.073787913 0.15535377
-0.21424784 -0.24293898 -0.11598092 0.98380595 -0.17896773 0.0098156575 0.15670224
-0.16128185 -0.24270828 -0.11677715 0.72708946 0.64996403 -0.22110531 0.23746236
-0.14873299 -0.24494736 -0.11436856 0.95882952 0.2770156 -0.062515847 0.13159612
0.1485763 -0.24697131 -0.11682541 -0.95725495 0.28867602 0.018141922 0.14407364
0.16128126 -0.24159558 -0.11603218 -0.76591748 0.49813944 -0.40648201 0.26996791
0.21374023 -0.24346568 -0.11518111 -0.9650045 -0.26184237 -0.014308644 0.14825922
-0.21368176 -0.23676479 -0.11411063 0.99015957 -0.13613154 -0.032438405 0.13099973
-0.1625984 -0.23375499 -0.11572386 0.77319568 0.61221695 -0.16540547 0.21813816
-0.15072331 -0.23165715 -0.11564289 0.92168033 0.35716268 -0.1514598 0.12960008
-0.14977628 -0.23842621 -0.11612019 0.94427258 0.32073805 -0.074002229 0.15101159
0.14926453 -0.23976454 -0.1103839 -0.96479034 0.26172054 0.02611387 0.14781165
0.15028994 -0.23454364 -0.11521353 -0.95072436 0.30841285 -0.031697478 0.14696577
0.16296797 -0.23289818 -0.11351139 -0.78116447 0.60766959 -0.14324673 0.23755261
0.2142473 -0.23908323 -0.11180964 -0.99629414 -0.065611251 -0.055616613 0.099701442
-0.21042126 -0.22945574 -0.11439052 0.98180825 -0.17417972 0.075591512 0.14472635
-0.20648669 -0.22785507 -0.11767733 0.93985844 -0.31879386 0.12262367 0.18940523
-0.1917915 -0.22707488 -0.11443039 -0.15324534 0.98790431 0.023683626 0.27085307
-0.18887901 -0.22707394 -0.11474912 -0.078011207 0.99598217 -0.043974746 0.26950097
-0.17720735 -0.22672617 -0.11740096 0.32358494 0.94501072 -0.047408432 0.24539025
-0.1640522 -0.22989593 -0.11393857 0.67035514 0.74189842 -0.01452141 0.20521395
-0.15164481 -0.22463723 -0.11554082 0.8055383 0.56199783 -0.18779393 0.11015127
0.15193482 -0.2220501 -0.11378662 -0.78420466 0.61883187 -0.045498744 0.14869037
0.16693485 -0.22843482 -0.11813896 -0.66020995 0.73525995 -0.15334825 0.2772058
0.17537163 -0.22699392 -0.11541063 0.065282114 0.85902274 -0.50775796 0.25032732
0.18471594 -0.22691023 -0.11529777 -0.33942848 0.77226675 -0.53702188 0.28714928
0.19660944 -0.22678018 -0.11678369 -0.50141734 -0.11631916 0.85735083 0.27468055
0.20427087 -0.22769614 -0.11411545 -0.8420763 -0.201534 0.50029147 0.25726721
-0.21167728 -0.21149908 -0.11375126 0.96643353 0.033202082 0.25476235 0.14372207
-0.2046883 -0.21460605 -0.11680884 0.97510314 0.0077546886 0.22161648 0.1897881
-0.19519189 -0.2148383 -0.11425471 0.45928478 0.84510303 0.2736026 0.23438728
-0.18495606 -0.21459755 -0.11690255 0.19984172 0.97159284 0.12677018 0.14160262
-0.17579472 -0.21473581 -0.11538237 0.11543246 0.99005198 0.080450721 0.11336487
-0.16687717 -0.21504796 -0.11194941 0.34374878 0.93735117 0.056653719 0.12289238
-0.15753587 -0.21462992 -0.11654869 0.54260486 0.83989906 0.01222961 0.11481276
0.15799424 -0.21487153 -0.11389159 -0.33553246 0.94078869 0.048317909 0.15149173
0.16654167 -0.21490936 -0.1134752 -0.085190952 0.98984063 0.11383332 0.14621605
0.17330867 -0.21463321 -0.11651287 0.01998142 0.99033123 0.13727641 0.11709128
0.18229251 -0.21484159 -0.11422082 -0.12614395 0.97396702 0.18835081 0.12030763
0.19453909 -0.21468568 -0.11593573 -0.49796927 0.836182 0.22983977 0.15044282
0.20584589 -0.21479762 -0.11470437 -0.902978 0.34861761 0.25119007 0.19248506
0.21253461 -0.21146272 -0.11060816 -0.97513062 0.093238182 0.2010646 0.082433179
-0.21165866 -0.20776795 -0.11284941 0.96144217 0.051527403 0.27013689 0.13105507
-0.20832565 -0.2016416 -0.11357749 0.97146153 0.088854834 0.21992584 0.085948668
0.2081266 -0.20131549 -0.11417374 -0.96474916 0.12147518 0.23345828 0.089341357
-0.20417196 -0.19468065 -0.11513466 0.97084904 0.14012168 0.19446869 0.081538476
0.20513225 -0.19660744 -0.11493079 -0.95745724 0.12828578 0.25849265 0.080199495
-0.20379382 -0.18670407 -0.11784077 0.97719353 -0.014009323 0.21188799 0.026613409
0.20426428 -0.18314405 -0.11579783 -0.9606027 -0.088692382 0.26339346 0.013841087
-0.20485032 -0.17409948 -0.1168661 0.97432637 0.00094190217 0.22513819 0.010025457
0.20522459 -0.17405549 -0.11543385 -0.97036451 -0.0059545478 0.24157248 0.008806698
-0.20599753 -0.1652049 -0.11512125 0.97607046 0.072534658 0.20500024 0.0072732335
0.20654948 -0.16708212 -0.11840926 -0.96928352 0.045875508 0.24162985 0.0069368901
-0.20738396 -0.15444705 -0.11600016 0.97709787 0.069889732 0.2009856 0.010052931
0.20640989 -0.15486073 -0.11593528 -0.97715199 0.011913415 0.21220762 0.0054302779
-0.20635909 -0.14631234 -0.11779947 0.97072768 0.029766196 0.23833117 0.011674026
0.20722087 -0.14499974 -0.11599007 -0.98004788 0.0057147546 0.19867918 0.0075351726
-0.21018536 -0.13947681 -0.1180376 0.97570306 0.007260378 0.21897671 0.010270347
-0.20686539 -0.13544458 -0.11691441 0.97494346 -0.0011501675 0.22244985 0.0094272662
0.20597118 -0.13518806 -0.11760667 -0.96998191 0.03613247 0.24047767 0.0084774513
-0.20825204 -0.12947623 -0.11460976 0.98204261 0.0042858464 0.18861063 0.010549777
0.20627388 -0.12541561 -0.112284 -0.98225713 0.026890524 0.18560149 0.0089385798
0.21031538 -0.12233049 -0.11743449 -0.96589392 0.065386295 0.25054651 0.010458771
-0.2061843 -0.11614005 -0.11612382 0.97302645 -0.0023727072 0.23068155 0.0097455205
0.20646772 -0.11410242 -0.11238915 -0.97523361 0.039574336 0.21760784 0.010787976
0.21000752 -0.1146664 -0.11626494 -0.97252733 0.02556482 0.23138082 0.012378721
-0.21030821 -0.10252374 -0.11742432 0.96798241 0.0012098829 0.25101489 0.0098813921
-0.20705405 -0.10590817 -0.1127914 0.98083663 -0.0019060397 0.19482251 0.0080653662
0.20692389 -0.10589536 -0.11692387 -0.97196126 0.040915903 0.23155369 0.010547696
0.21025649 -0.10545945 -0.11720727 -0.97230881 0.044066422 0.22950752 0.011624524
-0.2081404 -0.094291009 -0.11693845 0.96756107 0.037776686 0.24979699 0.0092921043
0.2076242 -0.092866369 -0.11261354 -0.98423171 0.0094927093 0.17662875 0.012804862
0.21058297 -0.094385505 -0.11665908 -0.97565371 0.021265322 0.21828359 0.013727916
-0.21074823 -0.089481123 -0.11682159 0.96718848 0.035157513 0.25161543 0.0095205465
-0.20672925 -0.085567042 -0.11380593 0.97246951 0.028292555 0.23130623 0.011531024
0.20715719 -0.084224582 -0.11478683 -0.97389585 0.007197306 0.22688127 0.012984411
0.2104965 -0.08223705 -0.11706588 -0.96138251 -0.0093252631 0.27505761 0.013756436
-0.21109079 -0.070396625 -0.11717281 0.96704835 0.018085456 0.25394967 0.010431403
-0.20853761 -0.071142733 -0.11369942 0.97582543 0.020127796 0.21762268 0.0089097302
0.20739524 -0.076445155 -0.11337411 -0.98127657 -0.021602048 0.19138883 0.01237635
0.21086144 -0.07832253 -0.116799 -0.96871227 -0.015886476 0.24767728 0.013443981
-0.21083924 -0.060696684 -0.11629732 0.97559249 0.023865324 0.21828859 0.012272947
-0.2070293 -0.064584687 -0.11505798 0.97377288 0.018212803 0.22679198 0.01097946
0.20735733 -0.065579213 -0.11202125 -0.98092914 -0.038959268 0.19042113 0.0097262468
0.21064931 -0.068675466 -0.11825047 -0.96716183 -0.022699727 0.25314566 0.012400748
0.20820925 -0.052882947 -0.11320765 -0.98115987 -0.015547137 0.19257101 0.010330239
-0.21045242 -0.042441912 -0.11571445 0.96143186 -0.0020935955 0.27503541 0.012559219
-0.20745662 -0.046134941 -0.11559445 0.97150952 0.0063928985 0.23691449 0.013111738
0.20716633 -0.046387322 -0.11437245 -0.97884566 -0.0095793428 0.20437551 0.008336273
-0.21106029 -0.036331654 -0.1162193 0.9656412 0.023411574 0.25882244 0.012155084
-0.20864835 -0.031184208 -0.11218935 0.97820389 0.0038928529 0.2076102 0.014586891
0.2063331 -0.035629943 -0.11850193 -0.9561972 0.001736298 0.29271829 0.0082403915
0.2106649 -0.031691626 -0.11485745 -0.97282094 0.0073670149 0.23144148 0.0081274649
-0.21107942 -0.022341713 -0.11587536 0.96731162 0.017365947 0.25299507 0.017095752
-0.20737518 -0.025301283 -0.11641263 0.95522183 0.037621837 0.29348901 0.016599689
0.20679241 -0.026319306 -0.1160535 -0.97103798 -0.0043367627 0.23888546 0.0084504755
0.21074371 -0.025643278 -0.11619915 -0.97055024 0.00059512182 0.24089795 0.0089501273
-0.21070805 -0.014928719 -0.11800814 0.95991367 -0.021263419 0.27948806 0.019652562
-0.20737451 -0.015238487 -0.11391483 0.97355139 -0.015259369 0.22795804 0.01578394
0.20733662 -0.017016448 -0.11421039 -0.96943027 -0.0086439494 0.24521458 0.0092446432
-0.21107629 -0.0070575187 -0.11525702 0.97481316 -0.033086065 0.22055505 0.015338414
-0.20994608 -0.0067727673 -0.11917164 0.96249408 -0.025969842 0.27005684 0.016635967
0.20716353 -0.0061985068 -0.11357035 -0.96894163 0.0069670896 0.24719119 0.011616681
0.21050765 -0.0029089935 -0.11827493 -0.96685898 0.0037586507 0.25528362 0.012037948
-0.21136853 0.0016525205 -0.11588857 0.97053587 -0.026086865 0.23954053 0.014229733
-0.20818257 0.00067013968 -0.11691673 0.96733576 -0.026181743 0.252143 0.013493152
0.20820925 0.0023225583 -0.1154827 -0.96807939 0.0076828767 0.25052589 0.010899126
-0.20776872 0.017407674 -0.11256412 0.97691613 -0.013713378 0.21318243 0.013756686
0.20757179 0.013574461 -0.11361569 -0.97084743 0.025405321 0.23834816 0.012535454
0.21100986 0.013753632 -0.11462346 -0.96040326 0.032913357 0.27666298 0.012378691
-0.21103346 0.026123142 -0.11550315 0.96373051 0.0079383487 0.26675943 0.014082551
-0.20798381 0.024746824 -0.11161572 0.97427481 -0.010738732 0.22510722 0.012151829
0.20777176 0.02608908 -0.11650594 -0.9482497 -0.0093927467 0.31738684 0.013794943
0.21084721 0.023437819 -0.11569681 -0.95958811 -0.019862022 0.28070644 0.011959335
-0.21045674 0.031913593 -0.11543649 0.96742368 0.048781384 0.24841844 0.014681904
-0.20712496 0.03680544 -0.1123547 0.97874773 0.012478188 0.20468801 0.013643788
0.20651767 0.03937719 -0.11597168 -0.94903195 -0.0099074226 0.31502417 0.01218815
0.21050225 0.036075603 -0.11378779 -0.96562219 -0.009797439 0.25976485 0.013907763
-0.21063149 0.043325234 -0.11708093 0.96944201 -0.01070091 0.24508725 0.013376175
-0.2071552 0.043593444 -0.11146973 0.97910082 -0.018991884 0.20248671 0.011086298
0.2075076 0.044837419 -0.11489189 -0.95977974 0.0093511259 0.28059843 0.01462421
0.21028563 0.043364123 -0.11353396 -0.96971506 -0.038692303 0.24115475 0.01357782
-0.21071461 0.0554219 -0.11659777 0.96824437 -0.0491051 0.24513564 0.015578946
-0.2076097 0.054846637 -0.11528188 0.96824664 -0.04910532 0.24512677 0.015581402
0.20623736 0.056169558 -0.11514159 -0.96781468 -0.017026192 0.25108737 0.012660204
0.21078682 0.053545285 -0.11612193 -0.9672246 -0.027323762 0.25244805 0.014001457
-0.20658939 0.065168798 -0.11780024 0.94953197 -0.030284572 0.31220484 0.010601901
0.20687549 0.065757461 -0.11635528 -0.96398062 -0.015741432 0.2655063 0.013905682
0.21017992 0.068665728 -0.1166742 -0.96143478 -0.030269025 0.27336222 0.013091923
-0.20845671 0.073722288 -0.11723664 0.95795465 -0.037769519 0.28442293 0.010847186
0.20793064 0.073829144 -0.11753532 -0.95621943 -0.042569805 0.28953797 0.011743925
0.2103688 0.07463675 -0.11517706 -0.97117782 -0.046441291 0.2337881 0.01356075
-0.2065725 0.085878804 -0.11736674 0.94366503 -0.0096601434 0.33076122 0.0068504242
0.20717147 0.08532159 -0.11203891 -0.97048849 -0.039731499 0.23785169 0.0096098706
-0.20643266 0.093753189 -0.11590886 0.95943731 -0.040994074 0.27892563 0.0067500523
0.20733976 0.094976597 -0.1140522 -0.96523911 -0.063429266 0.25355521 0.0091728829
-0.206706 0.10580403 -0.11558727 0.96255106 0.0048062429 0.2710579 0.0064308057
0.20756777 0.10480241 -0.11622942 -0.96274453 -0.021475211 0.2695584 0.0064340262
-0.20708559 0.11598861 -0.11360289 0.9722333 -0.013235768 0.23363927 0.0070562456
0.20579839 0.11761006 -0.11675836 -0.95401818 -0.020354899 0.29905677 0.007499808
-0.20617518 0.12569894 -0.11454546 0.97056264 -0.023184782 0.23973027 0.0071511483
0.20615789 0.12522715 -0.11730146 -0.96224695 -0.013712402 0.27183229 0.0069045178
-0.20571826 0.13497555 -0.11544488 0.95814264 -0.030537518 0.28465813 0.0057400577
0.20694678 0.13882755 -0.1162377 -0.96191025 -0.031160923 0.27158359 0.0065603037
-0.20616584 0.14594959 -0.1173481 0.9604612 -0.022408232 0.27751058 0.0063975775
0.20608647 0.14386658 -0.1165105 -0.96326166 -0.035585165 0.26619658 0.0063010952
-0.20564538 0.15724765 -0.11486815 0.97586125 -0.0243451 0.21703036 0.0072325231
0.20481829 0.15439056 -0.1151882 -0.97220516 -0.031069355 0.23205975 0.0071616601
-0.20670359 0.16650888 -0.11546175 0.97653025 -0.051497873 0.20913307 0.0057007591
0.2045992 0.16477837 -0.11362023 -0.97595382 -0.042587448 0.2137766 0.0069184466
-0.20403664 0.17590059 -0.1151344 0.97407329 -0.055001888 0.21944462 0.0059122927
0.20534444 0.17666078 -0.11598358 -0.9721325 -0.037487205 0.23141532 0.0058045713
-0.20556155 0.18393226 -0.11282474 0.98110211 -0.071556903 0.17977259 0.0040335469
0.20629413 0.18313389 -0.1145471 -0.97462797 -0.051260673 0.21788242 0.0060013356
-0.20192011 0.19644512 -0.11263543 0.98541754 -0.039212301 0.16557358 0.0044642324
0.20380513 0.1945235 -0.11537634 -0.97735602 -0.058052357 0.20348237 0.0049175811
-0.20263456 0.20608351 -0.11400554 0.98580807 0.0098953545 0.16758455 0.0055265795
0.20241046 0.20253645 -0.11305647 -0.98209238 -0.035330296 0.18505774 0.0063947621
-0.20066194 0.2133625 -0.11920894 0.98030782 0.089102127 0.17623122 0.011909394
-0.19916779 0.21593714 -0.11705592 0.97860295 -0.062542617 0.19602241 0.044643693
0.19937372 0.21603909 -0.11782125 -0.98998618 -0.018119819 0.13999712 0.043147516
0.20098512 0.21493249 -0.1130211 -0.9878422 0.065985784 0.14076063 0.015974546
-0.20350778 0.22632071 -0.11450145 0.98274171 -0.0837771 0.1649248 0.09451133
0.19985007 0.22025865 -0.1114313 -0.9904967 -0.083881639 0.10899588 0.054650877
0.2026059 0.22482967 -0.11324196 -0.98606211 -0.057659242 0.15606683 0.092176646
-0.20692205 0.23749477 -0.1185225 0.97690964 0.20717524 0.052211273 0.16757143
-0.18375716 0.23941422 -0.11779469 0.32160917 -0.92094201 0.22007594 0.10756706
-0.17356956 0.23973024 -0.11529399 0.078022912 -0.99332833 0.084919028 0.095617034
-0.16258177 0.23943129 -0.11804076 0.0055333469 -0.99422884 0.10713728 0.093473978
-0.14356287 0.23972683 -0.11665676 0.44723552 -0.85914391 0.24870066 0.1315152
0.14709508 0.2397511 -0.11501162 -0.27323288 -0.92869216 0.25074795 0.15539862
0.15745775 0.23976831 -0.1148696 -0.15150581 -0.96029431 0.23426674 0.095234625
0.16606177 0.23960574 -0.11626711 -0.028507335 -0.97754341 0.20879714 0.097214863
0.17089492 0.2398738 -0.11399934 0.039134152 -0.97823632 0.20376986 0.072483733
0.18381754 0.23970106 -0.11542436 -0.21561176 -0.93566698 0.27935436 0.12537831
0.19577791 0.23960137 -0.11624686 0.027783744 -0.99091297 0.13160388 0.24093081
0.20630237 0.23386502 -0.11870736 -0.98871034 0.10901675 0.10279661 0.15623063
-0.20482053 0.24856064 -0.11502487 0.85303932 0.51782435 0.064666718 0.16272645
-0.1937501 0.24522732 -0.1145753 0.23873232 -0.9222641 0.30403256 0.23148328
-0.18550807 0.24575976 -0.11610285 0.29816532 -0.91130912 0.28392458 0.19986844
-0.17586848 0.24388227 -0.11465001 0.12401515 -0.9790951 0.16122393 0.15793508
-0.16927974 0.24656449 -0.11361524 -0.035833322 -0.96570313 0.25716427 0.21156967
-0.15169087 0.2401205 -0.1119649 0.16477275 -0.96272284 0.21451013 0.13356672
-0.14171068 0.24277823 -0.11302193 0.53634113 -0.82279694 0.18799855 0.1492458
0.1427118 0.24353483 -0.11286268 -0.48292077 -0.85916924 0.16916172 0.15208511
0.15856676 0.24029309 -0.1105402 -0.16942981 -0.9528662 0.25167352 0.10301692
0.1661846 0.24444813 -0.11282091 0.027831454 -0.9767527 0.21255462 0.16378917
0.17427309 0.24801323 -0.11438228 -0.14180823 -0.96760988 0.20885758 0.24434137
0.18415526 0.24672882 -0.1150692 -0.14712603 -0.94371301 0.29624265 0.1919419
0.19323929 0.24755388 -0.11849498 0.44182432 -0.889584 -0.11589427 0.27756879
0.20476145 0.24895093 -0.1121515 -0.97120082 0.23825838 -0.001349446 0.16451278
-0.2119652 0.2520602 -0.11480457 0.92190856 0.38234052 0.062452953 0.12757124
-0.16290639 0.25351882 -0.11754692 -0.029819611 -0.97536463 0.21857391 0.25403261
-0.14062431 0.25553653 -0.11233601 0.96687156 -0.25516957 0.0069149653 0.19259527
0.1406249 0.25430611 -0.11093628 -0.85624343 -0.5084101 0.091467522 0.15878619
0.16371182 0.25190338 -0.11561984 0.046026219 -0.97799218 0.20350145 0.24168566
0.20862459 0.25052822 -0.11072624 -0.9647181 0.25884357 -0.048155926 0.16952117
0.21253483 0.25425163 -0.11712176 -0.96906787 0.24231522 -0.046805091 0.15305331
-0.21450807 0.2692382 -0.11367321 0.99779534 0.033768408 -0.057132773 0.11369356
-0.14062431 0.26390302 -0.11613274 0.99048978 -0.12488829 0.057731893 0.16777539
0.1406249 0.26247102 -0.11516019 -0.96405178 -0.23430893 0.12531313 0.19490291
0.16128127 0.26325586 -0.11708846 -0.40121159 -0.49623862 0.76991981 0.27277586
0.21389562 0.26777533 -0.11652964 -0.98696083 0.16043203 -0.013035295 0.10591557
-0.2131533 0.27479264 -0.11587951 0.99809897 0.030123701 -0.053768311 0.14733426
-0.1953336 0.27167565 -0.1178356 -0.6118502 -0.77545083 -0.15593371 0.28802857
-0.18419133 0.27232549 -0.11389901 -0.54888237 -0.83150333 0.085617617 0.24712974
-0.17502986 0.27320188 -0.11090253 -0.76870918 -0.6097666 0.19305693 0.18010312
-0.16497438 0.27218321 -0.11450639 -0.050825343 -0.97478622 0.21727523 0.18657391
-0.1406243 0.27055773 -0.11082374 0.96233255 -0.26572904 -0.057481974 0.16828254
0.1406249 0.27772456 -0.11073907 -0.98598754 -0.10368814 0.13068034 0.17235705
0.16784698 0.2716465 -0.11614205 -0.038053796 -0.96570688 0.25683108 0.21460022
0.17155166 0.27223134 -0.11415212 0.70067805 -0.66532522 0.25766772 0.19063371
0.18916677 0.27172008 -0.11675646 -0.14987926 -0.39329225 -0.9071148 0.25702053
0.19332854 0.27261868 -0.11245403 0.19643144 -0.21096259 0.95755392 0.28503495
0.20313287 0.2723864 -0.11435956 -0.98037994 0.16571307 -0.10674465 0.18017013
0.21279131 0.27180207 -0.11694155 -0.99814069 0.049395215 -0.035710398 0.13097838
-0.21276379 0.28397608 -0.11550055 0.99517816 0.025963195 -0.094585441 0.098281085
-0.14062428 0.28217953 -0.11200956 0.98780555 -0.14403503 0.059110716 0.08040078
0.1406249 0.28435615 -0.11620378 -0.98551828 -0.11266135 0.12673265 0.087987721
0.21269275 0.28706759 -0.11398056 -0.98980838 0.12948032 -0.059280287 0.10343672
-0.2116906 0.29736778 -0.1116147 0.99886656 -0.019935863 -0.043221682 0.041090474
-0.14062428 0.2942853 -0.11367411 1 -4.0330277e-05 6.8133145e-06 0
0.1406249 0.29266202 -0.11302193 -1 -1.7577813e-05 1.7436745e-05 0
0.21214864 0.29375005 -0.110842 -0.99414617 0.10251781 -0.034111686 0.060371384
-0.21070366 0.3019675 -0.11632312 0.996795 -0.073103793 0.032487683 0.009597756
-0.20923272 0.30896536 -0.11196119 0.98920757 -0.081885539 0.12150385 0.0037956464
-0.14062428 0.30253923 -0.1131872 1 1.7348637e-05 8.738426e-06 0
0.1406249 0.30982447 -0.11491533 -1 -4.7971607e-05 2.2907065e-05 0
0.20927213 0.30608445 -0.11522183 -0.98806107 -0.13696645 0.070537813 0.0037158688
0.21107018 0.30358851 -0.11163628 -0.99963629 -0.023625683 0.013001135 0.017257292
-0.20642906 0.31767142 -0.11215765 0.9912715 -0.059541933 0.11762465 0.0041651526
-0.14062425 0.31264842 -0.11513245 0.99999994 0.00011509532 0.00045865326 0
0.20686749 0.3171021 -0.1125574 -0.99331635 -0.06872803 0.092731513 0.0045939381
-0.14062425 0.32463324 -0.1141161 1 -5.3832318e-05 -4.4979761e-06 0
0.1406249 0.32470602 -0.11737002 -0.99880612 -0.010963546 0.047603659 0.0059599234
0.20583686 0.3216117 -0.11498759 -0.99649507 -0.036366299 0.075333662 0.0054364
-0.20649263 0.33843052 -0.1174098 0.98949838 0.11081859 0.092802316 0.0042810487
-0.14062425 0.33352366 -0.11528012 0.99927747 -0.0041014054 0.037784908 0.0041708248
0.1406249 0.33558771 -0.11621914 -0.99884164 -0.016385967 0.045241874 0.0055963807
0.2069377 0.33810857 -0.11533506 -0.99205405 0.085327879 0.092454351 0.0045309807
-0.20831728 0.34087509 -0.11414512 0.99110621 0.097619936 0.090436533 0.0041045989
-0.14062427 0.34873068 -0.11279711 0.99957705 -0.0047486573 0.028692039 0.004506771
0.1406249 0.34190112 -0.11450979 -0.99900866 0.0015341404 0.044490054 0.0051317159
0.20921695 0.34248927 -0.11296953 -0.99091762 0.10281026 0.08667291 0.0045582312
0.21077083 0.349444 -0.11609917 -0.99965584 0.014922669 0.02157644 0.017072361
-0.21138306 0.3557393 -0.11826268 0.99756634 -0.069719367 -0.00070237287 0.047807328
-0.14062427 0.3549194 -0.11590455 0.99451846 -0.011884202 0.10388372 0.01911803
0.1406249 0.35226664 -0.11789379 -0.98886609 -0.031202534 0.14550032 0.029577656
0.20724115 0.35186189 -0.11460736 -0.9897002 -0.14153987 -0.021447925 0.053091321
0.21006671 0.35921937 -0.11763833 -0.99896801 -0.036845811 -0.026558273 0.055088058
-0.21288376 0.3670229 -0.11968784 0.99855912 -0.034225229 -0.041332249 0.073530056
-0.14062428 0.36305818 -0.11628504 0.95434898 0.14924119 0.25873742 0.090692632
0.14062488 0.36171272 -0.11803382 -0.95786977 0.14588158 0.24739464 0.095720984
0.21301237 0.36827037 -0.11924373 -0.99618351 -0.077887058 -0.039397508 0.13510545
-0.21227014 0.37681165 -0.1161892 0.99717599 0.0036916151 -0.07500919 0.11528377
-0.20336068 0.37780383 -0.1131428 0.97682905 -0.19880767 -0.079250075 0.21159355
-0.19285652 0.37800178 -0.1134956 0.16158541 -0.94540834 0.28300738 0.27527246
-0.18431325 0.37829688 -0.1147548 0.32541195 -0.93577182 -0.13578691 0.21048714
-0.17440681 0.37798604 -0.11356177 0.48103139 -0.81034768 -0.33458251 0.22385135
-0.16338965 0.3787871 -0.11651795 -0.15502022 -0.98723716 -0.036489859 0.20565882
0.1406249 0.37196621 -0.11295929 -0.96580535 0.17389403 0.19230409 0.14127275
0.16392788 0.37870121 -0.11635717 0.27306241 -0.92923141 -0.2489294 0.20025863
0.17629774 0.37865186 -0.11607508 -0.50973618 -0.81395006 -0.27866518 0.20278053
0.18640424 0.37786531 -0.11361503 -0.24372764 -0.90006334 -0.36122388 0.20358604
0.19574416 0.37815002 -0.11423466 -0.63113445 -0.74939549 -0.20018928 0.29115114
0.20285642 0.37807614 -0.1145579 -0.97310525 -0.22372645 -0.054888081 0.21873945
0.21284521 0.37720394 -0.11219561 -0.99763548 -0.01182171 -0.067702629 0.13469183
-0.21424784 0.38694003 -0.11650465 0.96452641 -0.26309186 -0.021713061 0.089179233
-0.16128185 0.38150597 -0.11126825 -0.21408677 -0.87453425 0.43515137 0.25565276
-0.14062431 0.38333961 -0.11543128 0.91642427 0.035888035 0.39859584 0.17425448
0.1406249 0.38476646 -0.11285935 -0.91528845 -0.07438042 0.39587209 0.18080813
0.16128127 0.38831472 -0.11178554 -0.0001849361 0.15250683 0.98830241 0.23060347
0.21424732 0.38611785 -0.11525227 -0.98098791 -0.19379102 -0.010386614 0.15367283
-0.21310247 0.39452547 -0.11382794 0.94430012 -0.32543179 -0.048902858 0.096561804
-0.16227645 0.39467072 -0.11519278 0.18691756 -0.77556825 -0.60295576 0.27224189
-0.14062431 0.39497021 -0.11723559 0.77556682 0.12943941 0.61785227 0.22279428
0.1406249 0.39791802 -0.11380724 0.79287672 -0.48455375 -0.36953241 0.19954807
0.16294038 0.39673808 -0.1159888 0.20758481 -0.70763892 -0.67539299 0.26375154
0.21351112 0.39442882 -0.11868325 -0.93932348 -0.34289747 -0.009626721 0.093693838
-0.20565492 0.40163469 -0.11435822 0.84466875 -0.53385663 0.039140012 0.13179669
-0.19581445 0.40240154 -0.11414021 0.8017416 -0.59765649 -0.0041519268 0.21338214
-0.18950894 0.4025988 -0.11538719 0.34629181 -0.921211 0.17734763 0.29005951
-0.17446296 0.40216303 -0.11369455 -0.4714092 -0.80385506 -0.36275381 0.25187194
-0.14062434 0.4035635 -0.11368216 -0.35230926 -0.85022849 -0.39113906 0.1870801
0.14062491 0.40316546 -0.11664172 0.56136745 -0.63661587 -0.5287596 0.21212558
0.16741592 0.40061185 -0.11264909 -0.099602833 -0.80972677 -0.57829213 0.24271476
0.17596656 0.40223888 -0.11409512 0.47702655 -0.72107911 -0.50248432 0.21765074
0.18397641 0.40255699 -0.11495254 0.68401265 -0.63240689 -0.36357698 0.26593283
0.19521697 0.40267515 -0.11625966 -0.80627555 -0.54277337 0.23519553 0.21362929
0.20124647 0.40243596 -0.11411914 -0.81928033 -0.57058197 0.056708664 0.14422037
-0.19900917 0.41127935 -0.11318561 0.67580563 -0.72765529 0.11749305 0.19576973
-0.18201515 0.4118821 -0.11797212 -0.21038359 -0.95211285 -0.2218554 0.2013607
-0.17489605 0.41152689 -0.11518938 -0.29103693 -0.8298009 -0.47615966 0.18168317
-0.16412698 0.41144976 -0.11456998 -0.1395565 -0.83427608 -0.53339237 0.16867773
-0.15607613 0.41119605 -0.11354589 -0.23845936 -0.8973183 -0.3714256 0.17508699
-0.14858988 0.41135505 -0.11436102 -0.42310789 -0.74515307 -0.51548672 0.17946142
0.14364073 0.41160473 -0.11651553 0.42554802 -0.56400275 -0.70767915 0.1783272
0.15408473 0.4116413 -0.11618532 0.14175965 -0.76793188 -0.62464774 0.1829876
0.16429305 0.41156048 -0.11529756 0.14430876 -0.73275691 -0.66501302 0.14345907
0.17422229 0.41161698 -0.11619598 0.29218873 -0.79253924 -0.53526384 0.20302185
0.18594742 0.41162276 -0.116258 0.24655147 -0.92694533 -0.28281555 0.22833705
0.19608611 0.4116295 -0.11578074 -0.72056216 -0.66971928 0.17962825 0.159068
0.20142739 0.41613033 -0.11255455 -0.78184438 -0.59317118 0.19200875 0.13711248
-0.19526465 0.42409873 -0.11442593 0.83919555 -0.43203899 0.33029252 0.11951046
-0.18819222 0.42946899 -0.11551823 0.80591255 -0.36233824 0.46820503 0.1231813
0.18837047 0.42902398 -0.11526948 -0.7885595 -0.31450012 0.52845395 0.13591519
0.19838521 0.42078197 -0.11243367 -0.87683362 -0.39997661 0.2667985 0.14397901
-0.18619707 0.43150902 -0.1158698 0.81619376 -0.30062893 0.49340647 0.14023653
0.18288858 0.43743253 -0.11097302 -0.84210801 -0.41089883 0.34930831 0.090867378
-0.18218112 0.44237143 -0.11089402 0.79721439 -0.52589858 0.29644561 0.0285936
-0.17857401 0.44720843 -0.1123703 0.74984741 -0.54728574 0.37176222 0.027096471
0.1779193 0.44408259 -0.11569767 -0.66875041 -0.51572585 0.53553694 0.030786449
0.1800871 0.44242066 -0.11357568 -0.71387947 -0.55250782 0.43024552 0.042576846
-0.17180729 0.45256746 -0.11794441 0.58632576 -0.52646708 0.61567402 0.026769444
0.16782875 0.45748025 -0.11561904 -0.57617176 -0.58073032 0.57513344 0.023076236
-0.16604114 0.46262205 -0.11232616 0.51329011 -0.63786954 0.57415652 0.020468971
-0.15295246 0.4659768 -0.11791124 0.3160252 -0.60282034 0.7326225 0.0243301
-0.14733131 0.46942821 -0.1168538 0.24872108 -0.61836565 0.74549437 0.024808969
-0.13701467 0.46814638 -0.11981587 0.14110558 -0.58182067 0.80098307 0.016909912
0.14731663 0.46886876 -0.1170505 -0.25285634 -0.67234856 0.69570893 0.017239731
0.15739122 0.46590942 -0.11441296 -0.41529697 -0.67155129 0.61363453 0.019832723
0.16280583 0.4641932 -0.11247722 -0.53587443 -0.66561222 0.51942188 0.016163176
-0.14502387 0.47346687 -0.11326174 0.26118839 -0.67472768 0.6903066 0.019606506
-0.1333594 0.47592464 -0.11296618 0.15429659 -0.71097976 0.6860761 0.017955031
-0.12227661 0.47686145 -0.1138997 0.11488874 -0.6887843 0.71580493 0.019254139
-0.11603703 0.47745267 -0.11423759 0.09852244 -0.65882891 0.74581355 0.014284718
-0.10466562 0.47788876 -0.11516906 0.07924071 -0.64141923 0.76308739 0.016452525
-0.097409941 0.4767991 -0.11747012 0.052788008 -0.61672372 0.78540772 0.015353116
-0.073116653 0.47807091 -0.11817044 0.054549091 -0.61493367 0.78668988 0.015879143
-0.054749768 0.47649321 -0.11974984 0.018869093 -0.57752395 0.81615555 0.017456274
-0.040477086 0.47660065 -0.11986226 0.012280906 -0.54578662 0.83783412 0.014761711
-0.033712931 0.47741193 -0.1196167 -0.0024543407 -0.53657299 0.84385037 0.012653786
0.010486502 0.47844955 -0.11943849 -0.0024849842 -0.53323966 0.8459605 0.01410048
0.029780341 0.47984633 -0.11870477 0.0079158908 -0.55340159 0.83287698 0.016626462
0.046721146 0.47951627 -0.1186599 -0.019939277 -0.62086529 0.78366363 0.022823643
0.05537916 0.47855994 -0.11894116 -0.041932054 -0.61228085 0.7895276 0.017201949
0.066519357 0.47745621 -0.11904553 -0.051024918 -0.63989234 0.76676875 0.020261535
0.07951159 0.47547695 -0.11923651 -0.059610996 -0.55786395 0.82778883 0.012272279
0.086802714 0.47402751 -0.11949345 -0.027530076 -0.50628215 0.86192828 0.011093178
0.094661631 0.47728372 -0.11599454 -0.086933009 -0.61544597 0.7833702 0.020160364
0.1051341 0.4742136 -0.11869444 -0.10057558 -0.61040241 0.78568023 0.017345179
0.11401576 0.47536716 -0.11651925 -0.12271005 -0.66463047 0.73702681 0.016496172
0.12584622 0.47681105 -0.11312548 -0.11125796 -0.72423196 0.68052173 0.017206496
0.13679026 0.47335699 -0.11504617 -0.18293476 -0.67991537 0.7101056 0.014972324
0.15126139 0.47206837 -0.11165593 -0.36565277 -0.74564904 0.55705082 0.019340249
-0.11714058 0.48045734 -0.11010027 0.099998459 -0.79048759 0.60425973 0.019243898
-0.094223008 0.48191279 -0.11169623 0.064833939 -0.75370139 0.65401137 0.018950686
-0.08688657 0.48152065 -0.11322333 0.064593047 -0.69449598 0.71659124 0.02174403
-0.074652404 0.48345268 -0.11225357 0.079762839 -0.72405279 0.68511719 0.018299125
-0.061896667 0.48304832 -0.11420517 0.065802276 -0.6735124 0.73624116 0.015234762
-0.05947528 0.48432058 -0.11272448 0.04874431 -0.76668084 0.64017546 0.014583381
-0.049295902 0.48442405 -0.1131203 0.026520833 -0.74009782 0.67197609 0.014317401
-0.036428984 0.48576909 -0.11202886 0.0023280608 -0.77160478 0.63609791 0.018840525
-0.024244592 0.4831273 -0.11584909 0.019464685 -0.65668029 0.75391775 0.016083071
-0.014132464 0.48462701 -0.11424771 0.019573865 -0.64431024 0.76451373 0.017379595
-0.005596403 0.48401955 -0.11511208 0.023085508 -0.65394002 0.75619411 0.017135086
0.0017604934 0.48441696 -0.11464047 0.010956287 -0.68033594 0.73281842 0.012790771
0.013443413 0.48302394 -0.11616657 0.00036723961 -0.67847145 0.73462665 0.014271043
0.031601332 0.48446324 -0.11392298 -0.047237977 -0.69202709 0.72032434 0.011929712
0.044824876 0.48285806 -0.11533473 -0.050138686 -0.6390757 0.76750791 0.021401271
0.052019197 0.48184413 -0.11627357 -0.038607728 -0.66146821 0.74897885 0.020293733
0.063352793 0.48369488 -0.11311282 -0.039549045 -0.73469681 0.6772418 0.020861298
0.077775121 0.48175335 -0.11391984 -0.029921396 -0.68890703 0.72423184 0.017907724
0.095718093 0.48065618 -0.11286345 -0.084694721 -0.7150268 0.69394773 0.020615574
0.10237329 0.48118323 -0.11110353 -0.10738932 -0.75208986 0.65025264 0.020370029
0.11102691 0.4803609 -0.11099593 -0.10610121 -0.76101899 0.63999414 0.024815885
-0.034855727 -0.49048594 -0.10143796 0.073284805 0.93411213 0.34937632 0.0094901519
-0.029889315 -0.49108502 -0.10129055 0.05577049 0.9339906 0.35291797 0.0096801845
-0.01498518 -0.49125838 -0.10115248 0.062640175 0.93728834 0.34287995 0.012933776
-0.0044840169 -0.49099493 -0.10067438 0.001661495 0.94318014 0.33227777 0.013246858
0.0066021532 -0.49138513 -0.10112449 -0.024737397 0.94599044 0.32324955 0.012545052
0.016187871 -0.49019575 -0.10045509 -0.062173642 0.94032717 0.33454332 0.012519692
0.025855279 -0.49145171 -0.1013912 -0.055676345 0.932585 0.35663068 0.011663235
0.031411491 -0.49002111 -0.10121506 -0.064979032 0.93574965 0.34662703 0.011384373
0.043601789 -0.49051702 -0.10164788 -0.069210649 0.9349218 0.34803903 0.0113915
-0.10189917 -0.48299447 -0.10615993 0.071272068 0.92872477 0.36385521 0.017498501
-0.096011266 -0.48087147 -0.10088254 0.092562027 0.93655658 0.33807394 0.016396994
-0.084853202 -0.48121199 -0.10665548 0.097690426 0.9253307 0.36636004 0.021201048
-0.076680034 -0.48304534 -0.10374641 0.13625465 0.91263676 0.38539433 0.01845732
-0.063095912 -0.4840191 -0.10374364 0.15172711 0.92089361 0.35907346 0.015930496
-0.05680728 -0.48720667 -0.10353009 0.13339938 0.92612034 0.35285369 0.013981634
-0.044171724 -0.48743001 -0.10733639 0.081329107 0.93531287 0.3443478 0.014065536
-0.034279559 -0.48718658 -0.10413109 0.06911248 0.92945564 0.3624028 0.010389212
-0.023674775 -0.48659658 -0.1069021 0.051973496 0.93423128 0.35286072 0.012602556
-0.016755233 -0.48596513 -0.10879736 0.063104391 0.94255018 0.32805043 0.012771249
-0.006050956 -0.48739469 -0.10764629 0.013548172 0.94549114 0.32536587 0.015178063
0.0052520866 -0.48688528 -0.10726205 -0.019505752 0.93865025 0.34431842 0.014807613
0.01589055 -0.48699111 -0.1053028 -0.074140735 0.93939847 0.33471462 0.01334561
0.023687184 -0.48667297 -0.10662814 -0.062345043 0.9394964 0.3368375 0.013868136
0.033153281 -0.48620963 -0.10677291 -0.055291772 0.93629164 0.3468439 0.012507907
0.044771638 -0.48578432 -0.10631313 -0.091341019 0.93069822 0.35420007 0.012692942
0.054389704 -0.48563379 -0.1062959 -0.12668502 0.92814535 0.34999579 0.014554185
0.063077651 -0.48507452 -0.10486682 -0.14540082 0.91951728 0.36516646 0.015594804
0.073085159 -0.48387292 -0.10487153 -0.12886961 0.92008865 0.36990476 0.016845651
0.086288027 -0.48184222 -0.10277543 -0.05851065 0.92952031 0.36409953 0.018775769
0.095069528 -0.48141381 -0.10152815 -0.032778129 0.94086891 0.3371813 0.01801208
0.10085522 -0.48276502 -0.10886524 -0.072794043 0.94327796 0.32392555 0.016323481
-0.13017207 -0.47116709 -0.108385 0.3963407 0.88294125 0.251652 0.0025944642
-0.12370548 -0.47659397 -0.10234287 0.29887104 0.9272837 0.22543511 0.010803321
-0.11904841 -0.47885951 -0.10070425 0.26692128 0.9343344 0.23616178 0.011845888
-0.096019663 -0.47807324 -0.10521249 0.071703777 0.93064088 0.35884005 0.018752217
-0.087476991 -0.47739336 -0.10834726 0.052436724 0.92871255 0.36707425 0.019563459
-0.076339863 -0.47828481 -0.10869525 0.1204016 0.92719668 0.35469678 0.020000249
-0.064005174 -0.47968635 -0.10821815 0.17388587 0.9228034 0.34379885 0.017338911
0.067419499 -0.47888479 -0.10674648 -0.15468211 0.92168027 0.35577938 0.014137558
0.072939888 -0.47851336 -0.10780439 -0.11379961 0.93448818 0.33731505 0.01691721
0.087095216 -0.47787291 -0.10891212 -0.054433756 0.94383293 0.32590854 0.01941698
0.094441324 -0.47655767 -0.10635071 -0.0074188351 0.94479662 0.32757345 0.01646781
0.11535766 -0.47887483 -0.10593399 -0.1995683 0.94836497 0.24652855 0.017295206
0.12561944 -0.47467631 -0.10693569 -0.3900651 0.88410103 0.25732186 0.0024306932
-0.14172973 -0.4657405 -0.10413881 0.39746061 0.88689578 0.23545884 0.0022376063
-0.13448951 -0.46797609 -0.10323268 0.4092823 0.87974274 0.24195158 0.002283605
0.13405327 -0.46844175 -0.10583963 -0.39816424 0.88183331 0.25265649 0.0025843102
0.14751434 -0.46362793 -0.10635156 -0.39852291 0.8830812 0.24768318 0.0036167398
0.15654448 -0.46158552 -0.10262454 -0.43110034 0.874111 0.22379111 0.0040619397
-0.16906482 -0.45518741 -0.10801309 0.50823349 0.82822108 0.2361116 0.0066235573
-0.15450224 -0.45928717 -0.10926376 0.41611832 0.878667 0.2340726 0.002797957
0.1640543 -0.45791301 -0.10582389 -0.49011001 0.84661442 0.20745167 0.0047222455
-0.18397766 -0.44199118 -0.10837402 0.75936264 0.62454665 0.18250997 0.011091996
0.17980266 -0.44596788 -0.10756126 -0.68665791 0.70762354 0.16664277 0.0053253244
0.18472546 -0.44164056 -0.10241497 -0.80229974 0.5834356 0.12616651 0.010218175
-0.19053042 -0.43309835 -0.10819143 0.84211868 0.51287115 0.16673124 0.0098790815
-0.1898004 -0.43570948 -0.10464488 0.82502455 0.54151726 0.16153523 0.012652759
0.18709983 -0.43814889 -0.10384051 -0.82947749 0.54710394 0.11244756 0.008205316
-0.19464241 -0.42621073 -0.10520471 0.90633243 0.41339493 0.087556623 0.006375615
0.19380416 -0.42640516 -0.10253097 -0.89312291 0.44426134 0.070450917 0.0047270642
-0.19573359 -0.4153893 -0.10312761 0.97469807 0.21035743 0.075586289 0.059684638
0.19547346 -0.41527992 -0.10015771 -0.97696751 0.16501094 0.135299 0.082991898
-0.20379785 -0.40440741 -0.1039523 0.99463177 0.080135711 0.065466881 0.080910578
0.20543934 -0.40264729 -0.10800436 -0.97338206 0.22803241 0.022990679 0.11914278
-0.20595197 -0.3942664 -0.10388463 0.99648088 -0.077307627 0.032394242 0.14798966
-0.19466583 -0.39179391 -0.10380632 -0.66164744 0.72840881 -0.17788565 0.20724209
-0.18492709 -0.39180377 -0.1043539 -0.35941905 0.90301639 -0.2353279 0.17991424
-0.17505662 -0.39197725 -0.10575925 0.092835009 0.97680658 -0.19295239 0.10954212
-0.15570818 -0.39209798 -0.10525375 -0.12926713 0.97201002 -0.19618003 0.17273159
-0.14726529 -0.3921575 -0.10483006 -0.32255518 0.92484832 -0.2015288 0.14166398
0.14399485 -0.39216581 -0.10565474 0.43551388 0.867302 -0.2410703 0.13670841
0.15565856 -0.3919009 -0.10388889 0.13275315 0.97369587 -0.18518367 0.17975907
0.16688606 -0.39195836 -0.10539486 0.0019152381 0.9948017 -0.10181285 0.14993291
0.17840466 -0.39220604 -0.10688581 0.26418656 0.94221026 -0.20602277 0.14574221
0.18644993 -0.39201778 -0.10540806 0.42985806 0.84655529 -0.31395254 0.20243742
0.19593073 -0.39311087 -0.10949595 0.83898437 0.50382251 -0.20559213 0.22441965
0.20914517 -0.3957575 -0.10373792 -0.97515267 0.22117451 -0.012614405 0.11996596
-0.19191469 -0.38013086 -0.10817733 -0.81226772 0.57821655 -0.076725669 0.27940997
-0.18315351 -0.38049355 -0.10953093 -0.52977079 0.82564443 -0.19404703 0.23343235
-0.14082153 -0.38371414 -0.10874759 -0.8796314 0.45734516 -0.13070583 0.1687302
0.14077877 -0.38521853 -0.10609488 0.82151562 0.56882155 0.039421767 0.22110409
-0.20799619 -0.37761655 -0.10474563 0.94964004 0.31217125 0.027073327 0.15051399
-0.19595824 -0.37913147 -0.10444756 0.92842519 0.36331621 0.077640451 0.27170718
-0.18468273 -0.37842649 -0.10181664 -0.56006002 0.61031103 -0.56022602 0.26017949
-0.1632217 -0.37346077 -0.10265952 0.30591327 0.34507111 -0.88732344 0.25124454
-0.14100304 -0.37445986 -0.10687664 0.94844228 -0.29620755 0.11277509 0.17972513
0.14091924 -0.37663442 -0.10018483 -0.95171875 -0.30238685 0.052853595 0.18085131
0.16468428 -0.37431332 -0.10224437 -0.14376654 0.98369867 0.10801902 0.24466744
0.18747044 -0.37868938 -0.10279772 0.083565786 0.9035399 -0.42027667 0.24992588
0.19399495 -0.37837896 -0.10163905 -0.93033296 0.23670438 0.28009209 0.3149505
0.20994698 -0.37808824 -0.10935488 -0.94552594 0.30380356 -0.11697901 0.14662375
0.21152857 -0.37564689 -0.10607944 -0.9501906 0.28469914 -0.12682359 0.11829209
-0.21424785 -0.36029449 -0.10126464 0.96273768 0.15739502 -0.21991578 0.12884606
-0.16131215 -0.36603874 -0.10557927 0.29374346 0.43066916 0.85336918 0.28594381
-0.14108339 -0.36887282 -0.10191897 0.99287415 -0.056758437 0.10478316 0.18878552
0.14110687 -0.36712605 -0.10049549 -0.98828006 -0.12704661 -0.084626287 0.15806457
0.16135497 -0.36766258 -0.1063692 -0.24341519 -0.10224286 0.96451825 0.29748663
0.21406743 -0.36830753 -0.10415179 -0.97944427 0.17058434 -0.10765663 0.11837964
-0.21333456 -0.35337564 -0.10343633 0.98002702 -0.039761677 -0.19484842 0.17608958
-0.20586486 -0.35376531 -0.10492744 0.94813657 0.1167763 -0.29563531 0.25350302
-0.19488388 -0.35252729 -0.10191208 0.62577826 0.42012644 -0.65718746 0.2794717
-0.18469644 -0.35369337 -0.10382943 0.1635264 0.66290516 -0.73062706 0.23108241
