# .PCD v0.7 - Point Cloud Data file format
VERSION 0.7
FIELDS x y z normal_x normal_y normal_z curvature
SIZE 4 4 4 4 4 4 4
TYPE F F F F F F F
COUNT 1 1 1 1 1 1 1
WIDTH 569
HEIGHT 1
VIEWPOINT 0 0 0 1 0 0 0
POINTS 569
DATA ascii
0.20315424 0.055273242 0.10899554 -0.1766427 -0.065688558 -0.98208064 0.00014244723
0.21271598 0.05485528 0.10725975 -0.23473899 -0.064217247 -0.96993494 0.0011577389
0.22205849 0.055050716 0.10500114 -0.30395469 -0.060148329 -0.95078582 0.0018824178
0.23243202 0.056345925 0.10119955 -0.39520776 -0.085860156 -0.91457033 0.0020314851
-0.074909262 0.061344344 0.10027053 0.42544669 -0.087258108 -0.90076697 0.0017941255
-0.065901279 0.064183846 0.10355574 0.35526338 -0.096737996 -0.92974716 0.0022756231
-0.056926012 0.068010986 0.10641271 0.29305273 -0.102342 -0.95060307 0.0015775897
-0.044420749 0.061680611 0.10991418 0.2063168 -0.074836038 -0.97561932 0.0010858995
0.19757 0.069682986 0.10893731 -0.16901384 -0.094768964 -0.98104697 0.00030711133
0.20651615 0.065871574 0.10774089 -0.19872485 -0.082799301 -0.97655147 0.00056570815
0.21628879 0.06593401 0.10566511 -0.24787611 -0.078072615 -0.96564084 0.0012650683
0.22380167 0.065580219 0.10395107 -0.33132508 -0.083218202 -0.93983948 0.0026413875
0.23154958 0.063191064 0.10098135 -0.39426842 -0.09987212 -0.91355246 0.002153347
-0.053328134 0.074276485 0.10670713 0.27270883 -0.11278518 -0.95546287 0.0020171793
-0.046606887 0.07278946 0.10847584 0.21666084 -0.10759762 -0.97029936 0.00096502877
-0.037004914 0.075698718 0.10971633 0.14628069 -0.10706249 -0.98343259 0.00033364355
0.19423099 0.078008898 0.10856283 -0.15269668 -0.11735111 -0.98128104 0.00030129083
0.20631512 0.072437569 0.10727964 -0.19543982 -0.094501585 -0.97615194 0.00049666001
0.21349123 0.07428363 0.10561816 -0.23437256 -0.10353347 -0.96661794 0.0013967825
0.22649716 0.073753506 0.10223208 -0.35242292 -0.11244855 -0.92906052 0.0024629235
-0.067655087 0.085773282 0.1008482 0.40227222 -0.14982365 -0.90317762 0.0023772076
-0.051953588 0.082060516 0.106197 0.26468554 -0.12817346 -0.95577884 0.0019219716
-0.043861035 0.084693439 0.10762575 0.19816737 -0.14050926 -0.97004473 0.0010236716
-0.034471374 0.08384078 0.10910764 0.14263327 -0.12977278 -0.98123127 0.00043010674
0.18672475 0.085573137 0.10872895 -0.13221498 -0.14611432 -0.98039269 0.00057332049
0.19634843 0.08658006 0.10716334 -0.15558101 -0.15147892 -0.97613966 0.00055327255
0.20013182 0.08526779 0.1068098 -0.17072542 -0.14128093 -0.97513711 0.00060654239
0.21838579 0.083147079 0.10351641 -0.29113993 -0.13403076 -0.94724506 0.0025442385
0.22004187 0.082272321 0.10318717 -0.29160321 -0.13319504 -0.94722044 0.0024044192
-0.062271859 0.093309224 0.10122114 0.39057612 -0.14201753 -0.90955013 0.0031756207
-0.057253353 0.096742995 0.10233565 0.31438038 -0.17437845 -0.93314368 0.0045940187
-0.046280202 0.095486373 0.10551623 0.22602905 -0.18090686 -0.95717478 0.0041921218
-0.035622958 0.094810151 0.10738567 0.14748588 -0.205633 -0.96745181 0.0057969084
-0.022641808 0.095692642 0.10881513 0.10587501 -0.20695615 -0.97260463 0.0046917503
-0.012917191 0.09815754 0.10948414 0.10956133 -0.21030958 -0.97147632 0.0050350809
-0.0098947864 0.098637909 0.10970011 0.089241132 -0.20584403 -0.97450721 0.0035595875
0.14962475 0.099388257 0.10980773 -0.056920871 -0.29561836 -0.95360887 0.010242577
0.16609253 0.095871173 0.10931382 -0.077356584 -0.23382142 -0.96919739 0.0040523363
0.17571405 0.095405959 0.10841228 -0.10555118 -0.23094702 -0.96722406 0.002696303
0.18632512 0.095348924 0.10721206 -0.12227357 -0.22213581 -0.96731842 0.0030528174
0.19422489 0.094648801 0.10624793 -0.14946619 -0.21134824 -0.96591502 0.0024907792
0.20705687 0.095229089 0.10415042 -0.19510184 -0.22368996 -0.95493352 0.0042506116
0.21481708 0.095522784 0.10251048 -0.24637562 -0.2236466 -0.94301713 0.0041570035
0.22088945 0.095706873 0.10116505 -0.29877761 -0.20563859 -0.93190384 0.0043074591
-0.060084604 0.10125479 0.10039405 0.34422433 -0.23001501 -0.91027617 0.0094107604
-0.053937916 0.10670011 0.10126913 0.24935679 -0.30772573 -0.91821891 0.017838333
-0.044592213 0.10259977 0.10452357 0.17567344 -0.24521975 -0.95341814 0.0090118628
-0.032984395 0.10397224 0.10595906 0.13970472 -0.25399581 -0.95706248 0.0072502773
-0.026251148 0.10519724 0.10642867 0.086432897 -0.37098014 -0.92460972 0.018055769
-0.01729209 0.10386468 0.10759232 0.080307789 -0.35343066 -0.93200713 0.014874148
-0.0073220315 0.10733652 0.10878688 0.050448108 -0.39443907 -0.91753626 0.015901042
0.0046846583 0.10332786 0.10945537 0.065818243 -0.36127302 -0.93013418 0.017666394
0.012980767 0.10520185 0.1094397 0.049405158 -0.40056744 -0.91493428 0.022493176
0.020476343 0.10494352 0.10990411 -0.083839305 -0.55121726 -0.83013886 0.071317121
0.038063068 0.10119453 0.10408618 -0.058543622 -0.73413593 -0.67647409 0.13081123
0.045457575 0.10130705 0.1047623 0.00050050323 -0.79028004 -0.61274564 0.13290191
0.056199446 0.10111872 0.10560139 0.0075557348 -0.75396889 -0.65686661 0.1191043
0.064986914 0.10123828 0.10682382 0.064794503 -0.67899621 -0.73127681 0.10685068
0.11877032 0.10879661 0.1096575 -0.0061889635 -0.49170509 -0.87073976 0.01649072
0.12485567 0.1076216 0.10971888 -0.027516592 -0.50796002 -0.86094105 0.019453064
0.14247476 0.10325401 0.10951762 -0.04580114 -0.42765328 -0.90278172 0.017086003
0.1561534 0.10439143 0.10834642 -0.037519369 -0.43233129 -0.9009338 0.015333594
0.16656896 0.10465113 0.10783347 -0.060620282 -0.37447506 -0.92525327 0.0117466
0.175037 0.10472631 0.10708555 -0.071609035 -0.36426911 -0.92853647 0.013248706
0.18616578 0.10323127 0.10564816 -0.10707035 -0.31127757 -0.94426811 0.009165965
0.1979029 0.10680664 0.10372268 -0.13553599 -0.37446636 -0.91728127 0.010911758
0.20523074 0.10460322 0.10268241 -0.18178983 -0.3319478 -0.92561495 0.0096176481
0.21531849 0.10209168 0.10116028 -0.24397531 -0.28283355 -0.9276213 0.0060911495
0.22040524 0.10210143 0.10004086 -0.29722905 -0.26869187 -0.91622025 0.0060151718
-0.053447194 0.11533866 0.10183223 0.19247617 -0.46202871 -0.86572653 0.026903739
-0.044883739 0.11375105 0.10305295 0.13253191 -0.48115003 -0.86656213 0.024153193
-0.035045911 0.11560629 0.10442226 0.10383162 -0.56958282 -0.81534928 0.021456532
-0.024860457 0.11373746 0.10564229 0.030193385 -0.56019276 -0.82781178 0.022593847
-0.014768079 0.11608402 0.10401986 0.050801627 -0.6048252 -0.79473615 0.018161213
-0.0061611608 0.11451549 0.10582677 0.037522394 -0.59801984 -0.80060244 0.01640242
0.0054530529 0.11455472 0.10586242 0.031825621 -0.6225428 -0.78193837 0.014923865
0.011381679 0.11537067 0.10480873 0.036861449 -0.65745443 -0.75259221 0.014469914
0.026794227 0.11567185 0.10449431 -0.074781045 -0.61721975 -0.78322899 0.062765889
0.035159603 0.11630849 0.10391829 -0.15439561 -0.62807602 -0.76268107 0.09115164
0.044681855 0.11566316 0.10503294 -0.019112485 -0.62311488 -0.78189683 0.12031817
0.055668361 0.11162724 0.10866467 0.044306636 -0.69064224 -0.72183806 0.11319838
0.063583232 0.11508048 0.10506295 0.10365788 -0.63822144 -0.76284236 0.097425751
0.074231125 0.11377678 0.10594428 0.15145008 -0.65392756 -0.7412433 0.084547393
0.083775304 0.11449893 0.10581259 0.030914672 -0.64435601 -0.76410049 0.026167737
0.096303329 0.11576512 0.10332634 0.010049955 -0.66460252 -0.74712956 0.0110384
0.10567079 0.11399971 0.10554686 -0.0011671504 -0.62938601 -0.77709192 0.013916412
0.11543179 0.11652853 0.10261208 -0.0034986988 -0.67941803 -0.73374307 0.012080995
0.12625444 0.11357011 0.10597102 -0.024362773 -0.57147318 -0.82025892 0.015154365
0.13433421 0.11333651 0.10614426 -0.02477956 -0.59742081 -0.80154496 0.014536627
0.14446728 0.11451963 0.10447259 -0.048921999 -0.63131887 -0.77397871 0.014574407
0.15667604 0.11617811 0.10306279 -0.0041834097 -0.61328149 -0.78985345 0.014951078
0.16309449 0.1145383 0.1039082 -0.01771225 -0.61770874 -0.7862075 0.015880998
0.17188162 0.1126016 0.10502613 -0.035411574 -0.54549992 -0.83736247 0.019376969
0.1863312 0.11436097 0.10227618 -0.091083221 -0.5155465 -0.85200685 0.01833052
0.1942707 0.11347744 0.10179734 -0.12716579 -0.46174252 -0.87785113 0.013941201
0.20341308 0.11318237 0.10074815 -0.13720468 -0.46176949 -0.876324 0.013889066
0.061278868 -0.11027262 0.11018921 0.1179339 0.69270301 -0.71151543 0.1312198
0.075760193 -0.1100959 0.11005059 0.19654857 0.59210616 -0.78152347 0.11432317
0.0073859463 -0.10551637 0.11057626 0.031615335 0.42972368 -0.90240681 0.017182572
0.014224946 -0.10382751 0.11014757 -0.015992614 0.42110434 -0.9068712 0.027892189
0.025601782 -0.1051899 0.11080444 -0.060217742 0.62821043 -0.77570969 0.082948908
0.032749183 -0.10660347 0.111248 -0.11450053 0.65996718 -0.74251801 0.085546166
0.045305014 -0.10456172 0.11165676 -0.0067248004 0.78274667 -0.62230408 0.12708166
0.053865638 -0.10495098 0.1115758 0.049727667 0.77170491 -0.63403368 0.1315449
0.067228973 -0.10502549 0.11118481 0.098106019 0.68349946 -0.72332823 0.1040697
0.076329634 -0.10420432 0.11158995 0.16077672 0.60524011 -0.77963793 0.11144439
0.08655522 -0.10601532 0.11109791 0.062878929 0.46710548 -0.88196301 0.041201245
0.099542223 -0.10552023 0.11122646 -0.0083285542 0.4610309 -0.88734496 0.015709026
0.10703158 -0.10477643 0.11083623 0.011324981 0.42559281 -0.90484387 0.015079883
0.11409681 -0.10547917 0.11050236 -0.026676545 0.44860062 -0.89333415 0.019174982
0.12449686 -0.10400455 0.11044683 -0.021655651 0.45978093 -0.88776827 0.016145337
-0.012670651 -0.094090424 0.11024969 0.10375996 0.22903812 -0.96787155 0.0054315403
-0.0060980627 -0.093540452 0.11093836 0.090879433 0.21122828 -0.97320271 0.0056274594
0.0083209127 -0.098464094 0.1108069 0.061463118 0.26770464 -0.96153867 0.0092609376
0.016579589 -0.09486904 0.1117663 0.1122165 0.38337269 -0.91675121 0.052823924
0.021527654 -0.09386652 0.11213464 0.048945397 0.47991928 -0.87594634 0.080003843
0.03687248 -0.09358687 0.11475148 0.025246987 0.66822594 -0.74352992 0.10263913
0.044840276 -0.094722085 0.11378388 0.07040105 0.76083952 -0.64510983 0.11074576
0.056442749 -0.095757321 0.11319921 0.0039323578 0.71050721 -0.70367891 0.10567769
0.066727869 -0.095652744 0.11420716 -0.034846853 0.67584318 -0.73622113 0.098504797
0.075728118 -0.094621398 0.11312106 6.6279958e-06 0.58542717 -0.81072503 0.084864214
0.081093073 -0.096814021 0.11268039 -0.0035798934 0.51406658 -0.85774285 0.068200804
0.09324301 -0.093145452 0.11328902 -0.085261673 0.28475052 -0.95480233 0.027230136
0.10767695 -0.091683105 0.11317761 -0.02069851 0.22460358 -0.97423041 0.0064641465
0.11693893 -0.095096201 0.11217552 -0.019420771 0.30531943 -0.95205188 0.011533231
0.12500151 -0.092482686 0.11236762 -0.046068974 0.21754505 -0.97496241 0.0064142039
0.13350703 -0.095208399 0.11153231 -0.052549113 0.28691638 -0.95651329 0.0094993673
0.14436449 -0.095073566 0.11102675 -0.05376824 0.25948644 -0.96424878 0.0083304429
0.15260732 -0.093407035 0.11077211 -0.06913165 0.19063371 -0.97922397 0.0022968175
0.16832557 -0.090313733 0.11010887 -0.096865721 0.17815533 -0.97922301 0.0014337387
-0.024331562 -0.081933834 0.11056776 0.11964129 0.11524028 -0.98610628 0.00020926725
-0.015975287 -0.08556059 0.11110374 0.096794218 0.12265173 -0.98771828 0.00031026584
-0.0060332166 -0.082118548 0.11257103 0.07297343 0.11888615 -0.99022269 0.00023115717
0.005050844 -0.085529566 0.11267034 0.11514074 0.13791971 -0.98372799 0.015283052
0.013014605 -0.084761642 0.11316986 0.24525379 0.17188375 -0.95409983 0.035375629
0.0251741 -0.083762631 0.11388884 0.25445288 0.30974939 -0.91613817 0.097179987
0.036176611 -0.085009895 0.11706762 0.13817082 0.49087098 -0.86020607 0.11585927
0.043673679 -0.085914575 0.11648218 0.075627081 0.61120158 -0.78785354 0.10777782
0.054835249 -0.084772259 0.11807717 -0.0041416753 0.58547097 -0.81068277 0.10019361
0.064586774 -0.084797509 0.11764298 -0.12663156 0.51335138 -0.84878433 0.10382957
0.074927926 -0.085802957 0.11465459 -0.16531304 0.45988759 -0.87245345 0.092685096
0.083119482 -0.087029651 0.11438432 -0.097406529 0.36769691 -0.92483032 0.066979699
0.092617311 -0.085240178 0.11459062 -0.16467081 0.19268113 -0.9673456 0.032770444
0.10372443 -0.08498729 0.11441009 -0.027694071 0.13726446 -0.99014717 0.00015992626
0.11266247 -0.085482918 0.11397336 -0.035977691 0.15281473 -0.98759979 0.0011764552
0.13326998 -0.088455111 0.1126705 -0.04571753 0.17006743 -0.98437136 0.0016192335
0.14716847 -0.083263621 0.11277705 -0.062296338 0.12990224 -0.98956788 0.00019460601
0.15583201 -0.082840689 0.11215166 -0.07181786 0.12780818 -0.98919523 0.00021887149
-0.031458955 -0.072789684 0.11071435 0.13623734 0.10009296 -0.98560685 0.00027296689
-0.026930949 -0.073869705 0.11113911 0.12777717 0.10173997 -0.98657084 0.00025449527
-0.014637411 -0.075314201 0.11244988 0.098197162 0.10194685 -0.9899314 0.0001681319
-0.0045319544 -0.074620895 0.11341973 0.075336084 0.10297021 -0.99182743 0.00019823795
0.0056402031 -0.07376983 0.11402205 0.098046325 0.10054907 -0.99008924 0.0086681703
0.017906506 -0.07371068 0.11464771 0.26524237 0.081153229 -0.96076047 0.050163906
0.026900506 -0.074679978 0.11500302 0.29586747 0.13007884 -0.94633073 0.074805006
0.033837508 -0.076356292 0.11517839 0.27435857 0.25487372 -0.92723608 0.097247861
0.045001853 -0.073626705 0.11812162 0.11252511 0.14002319 -0.98373348 0.097497195
0.056104939 -0.076618202 0.11847141 -0.058732856 0.29766726 -0.95286125 0.09523128
0.06396798 -0.072888076 0.11679999 -0.17016897 0.18017608 -0.96880293 0.084080443
0.076730333 -0.07537438 0.11596371 -0.24516159 0.25084507 -0.93646818 0.067153931
0.086176693 -0.076485567 0.11577222 -0.25235623 0.17234661 -0.95216227 0.043060735
0.093438625 -0.074126907 0.1159637 -0.20157607 0.10170655 -0.97417808 0.042359177
0.1032488 -0.075147115 0.11569071 -0.032190945 0.10700517 -0.99373722 0.00016964973
0.11363356 -0.076331928 0.11514375 -0.039652679 0.11865306 -0.99214375 0.00023946831
0.12687489 -0.07381963 0.1148687 -0.044931725 0.10459182 -0.9934997 0.00015711042
0.13343656 -0.074302703 0.11453971 -0.048959799 0.10620137 -0.99313855 0.0001850027
0.14547645 -0.073439114 0.11404485 -0.060540956 0.1082391 -0.99227971 0.00018958296
0.15547569 -0.074712045 0.11313691 -0.071587205 0.10444963 -0.99195033 0.00017687565
0.16630435 -0.076028228 0.11214858 -0.091634735 0.11213115 -0.98945928 0.00019101202
0.17370136 -0.073045522 0.11177476 -0.10202952 0.10580847 -0.98913825 0.00020389575
0.18174212 -0.076390482 0.11048161 -0.12455948 0.11399955 -0.98564142 0.00024455582
-0.036154352 -0.063570321 0.1108814 0.16002454 0.080289014 -0.98384237 0.00055290636
-0.023447584 -0.064881198 0.11231583 0.11603345 0.081233703 -0.98991787 0.00012102877
-0.015363467 -0.065802194 0.11322053 0.098911099 0.089161798 -0.99109375 0.00016104672
-0.0048298407 -0.064338028 0.11427884 0.077590324 0.083747916 -0.99346167 0.00015843973
0.0039920062 -0.066007011 0.11461989 0.098390155 0.07174132 -0.9925586 0.0075708125
0.014513005 -0.063955121 0.11531367 0.29089135 0.011146462 -0.95669115 0.045746215
0.021930005 -0.064865291 0.1156304 0.28029558 0.014855837 -0.95979875 0.051538836
0.035123136 -0.06314797 0.117146 0.2116466 -0.021703955 -0.9771052 0.078203581
0.044928782 -0.064198457 0.11820299 0.10584227 -0.029325575 -0.99395043 0.068381779
0.055751968 -0.06497819 0.11780524 0.011032641 -0.016127208 -0.99980915 0.066071808
0.066589251 -0.064213894 0.11780149 -0.16614661 0.0081598992 -0.9860673 0.069000207
0.075247064 -0.063866146 0.11701617 -0.22589329 0.036933668 -0.97345173 0.068409055
0.088096939 -0.06619706 0.11674771 -0.25765446 0.092730679 -0.96177703 0.045117311
0.09495762 -0.066887513 0.11664201 -0.21545088 0.088132687 -0.97252953 0.032634191
0.10369416 -0.064180225 0.11669578 -0.028412767 0.089503236 -0.99558115 0.00011444831
0.11226732 -0.065448478 0.11622399 -0.033675872 0.089447372 -0.99542207 9.9924961e-05
0.12229288 -0.064614035 0.11586472 -0.043991279 0.092612557 -0.99473 9.6754571e-05
0.13213056 -0.065149456 0.11542359 -0.049361385 0.087510243 -0.99493986 0.00012994339
0.14236775 -0.061812516 0.11522463 -0.05772825 0.0795606 -0.99515706 0.00012413376
0.15191883 -0.064114898 0.11440711 -0.068620823 0.083812386 -0.99411607 0.0001385793
0.16545486 -0.066853359 0.11311958 -0.089313887 0.089797452 -0.99194735 0.00014772356
0.175762 -0.063638106 0.11232233 -0.11063775 0.084476911 -0.99026406 0.00018175204
0.18438345 -0.065100759 0.11122689 -0.13623115 0.088721611 -0.9866963 0.00020013923
0.19266596 -0.061027579 0.11035679 -0.14994322 0.075790033 -0.98578537 0.00012115669
-0.042600546 -0.057469774 0.11054292 0.17437795 0.063485108 -0.98263019 0.00076938461
-0.033152878 -0.056280006 0.11179986 0.13633475 0.0689293 -0.98826194 0.0002397994
-0.024450991 -0.057436906 0.11275818 0.11775941 0.071905017 -0.99043542 0.00018128278
-0.017588669 -0.054141045 0.11382765 0.10620943 0.064582452 -0.9922443 0.00011248779
-0.0049956809 -0.054801285 0.114975 0.077188075 0.066851176 -0.99477273 0.00015764829
0.0062107644 -0.053347901 0.11565989 0.13412599 0.051754799 -0.98961192 0.017182525
0.016150404 -0.055963583 0.11598185 0.21973592 0.04741713 -0.97440636 0.040110618
0.027097084 -0.0543148 0.11666589 0.24511549 0.022415981 -0.96923476 0.058023885
0.03187681 -0.055839058 0.11680138 0.24789731 0.03469513 -0.96816486 0.058059141
0.045979612 -0.054529704 0.11832841 0.077245176 0.013657739 -0.99691856 0.067056283
0.055057373 -0.053991009 0.1184219 0.01745896 -0.025196977 -0.99953014 0.065001078
0.06509015 -0.055072639 0.11868405 -0.078257263 0.031339601 -0.99644053 0.066719189
0.074447885 -0.052405439 0.11786506 -0.18197592 0.02099408 -0.98307884 0.055955004
0.085925445 -0.054919481 0.11760943 -0.22479975 0.039314702 -0.97361153 0.038092338
0.094271801 -0.053225413 0.11769297 -0.16911146 0.066532709 -0.98334873 0.02699535
0.1064819 -0.057176519 0.11711319 -0.034052279 0.078597233 -0.99632478 8.8995876e-05
0.11629653 -0.053895444 0.11690644 -0.042456359 0.067938745 -0.99678576 5.2768377e-05
0.12509057 -0.055404674 0.11638556 -0.046116389 0.070009053 -0.99647981 2.7643388e-05
0.13404849 -0.054422233 0.11606382 -0.050976116 0.068822615 -0.99632567 4.8471993e-05
0.1477965 -0.052876409 0.1155054 -0.064683191 0.069082163 -0.99551177 7.7369601e-05
0.15196382 -0.055069689 0.1150374 -0.068557106 0.072526217 -0.99500746 9.4562733e-05
0.16345757 -0.055300474 0.11411893 -0.084717944 0.07002575 -0.99394131 0.00010284094
0.17473589 -0.054682229 0.11310812 -0.10802241 0.066228241 -0.99194002 0.00014038158
0.18445499 -0.054907415 0.11195213 -0.13309178 0.065139644 -0.9889608 0.00014114147
0.19554846 -0.053531494 0.11042902 -0.15340306 0.06615229 -0.98594689 0.00014458725
-0.04609818 -0.043736383 0.11063027 0.19655862 0.045296591 -0.97944528 0.00095022825
-0.034654584 -0.044227123 0.11231387 0.14502093 0.052412994 -0.98803937 0.00021939531
-0.026330965 -0.042311162 0.11340246 0.12599175 0.045048684 -0.99100798 0.00012899254
-0.016554765 -0.044880252 0.11449546 0.10355511 0.054453157 -0.993132 0.00012948537
-0.005284071 -0.047616392 0.11545403 0.079304822 0.05973345 -0.99505913 0.0001178961
0.0032452722 -0.046998627 0.11592366 0.092459537 0.051700242 -0.99437332 0.0046203486
0.016917424 -0.046559568 0.11666141 0.25127688 0.039638728 -0.9671033 0.036806222
0.024395969 -0.045841686 0.11708763 0.24232332 0.057502273 -0.96849006 0.051526211
0.036143865 -0.043660998 0.11792284 0.16146512 0.022223985 -0.98662817 0.066896558
0.042356003 -0.044043232 0.11841887 0.1182853 0.033205681 -0.99242431 0.063704446
0.054172207 -0.044565473 0.11864859 0.049971886 0.015975656 -0.99862283 0.06043423
0.064685129 -0.045651458 0.11870433 -0.05619305 0.052320991 -0.99704808 0.063467868
0.073438674 -0.045084339 0.11840406 -0.15586746 0.035939332 -0.98712397 0.056724112
0.08634524 -0.043689307 0.11841134 -0.22410943 0.024482982 -0.97425652 0.040768016
0.094461083 -0.046420116 0.11821252 -0.17122336 0.067833059 -0.9828943 0.026658699
0.10294714 -0.043288033 0.1182858 -0.027905343 0.061191089 -0.99773592 7.4633972e-05
0.11404255 -0.047748692 0.11749414 -0.0395744 0.065590732 -0.99706149 5.2687727e-05
0.12466855 -0.045216251 0.11714993 -0.0475347 0.057958245 -0.99718672 4.1676849e-05
0.13187307 -0.046615906 0.11674056 -0.04961659 0.060590055 -0.99692881 5.1519419e-05
0.14503327 -0.046825636 0.11606912 -0.060610536 0.060373466 -0.99633396 6.9818409e-05
0.15288562 -0.048869696 0.1153959 -0.069943421 0.060058784 -0.99574137 7.0922259e-05
0.16597539 -0.041478068 0.11477809 -0.091111451 0.050354388 -0.9945668 9.7735108e-05
0.17365846 -0.046467222 0.11384528 -0.10610418 0.058292635 -0.99264485 0.0001224467
0.18439788 -0.047335595 0.11251635 -0.1341081 0.062234785 -0.98901051 0.00012486734
0.19488175 -0.042905666 0.1111992 -0.15155973 0.053450663 -0.98700184 0.00014387224
0.20140342 -0.041569989 0.11012723 -0.17198902 0.052921928 -0.98367625 0.00025613353
-0.047112212 -0.035950359 0.1108337 0.20752373 0.041408218 -0.97735316 0.00075006648
-0.033721 -0.032266188 0.11289939 0.14656372 0.035609782 -0.98856008 0.00017069258
-0.02437849 -0.037072316 0.11385432 0.11825787 0.043052234 -0.99204922 9.8635712e-05
-0.014606932 -0.035351515 0.11515526 0.10083123 0.040368889 -0.99408424 0.00012017015
-0.0038423212 -0.034682423 0.11607528 0.071728863 0.043854937 -0.9964596 0.0001181442
0.005312141 -0.03306026 0.11662839 0.11646558 0.05705335 -0.99155468 0.011018273
0.01833063 -0.037495121 0.11713268 0.23527247 0.027658837 -0.9715358 0.041652933
0.02486443 -0.033378247 0.1176718 0.25513995 -0.004318709 -0.96689445 0.050552022
0.036366545 -0.035391212 0.11863849 0.17440601 0.035990864 -0.98401582 0.065509841
0.045128863 -0.034748562 0.11872762 0.075182214 0.024164159 -0.99687696 0.062086746
0.054993685 -0.035459973 0.11892812 -0.010822495 0.011412606 -0.99987626 0.057935461
0.067336716 -0.033752974 0.11893322 -0.069539562 0.0068421308 -0.99755573 0.058058232
0.075983703 -0.033452939 0.11897922 -0.16197528 0.021591112 -0.98655856 0.053351924
0.083870664 -0.034332991 0.11890314 -0.19129983 0.018593587 -0.98135555 0.044331741
0.097363949 -0.03429468 0.11886501 -0.15138426 0.052535173 -0.98707795 0.019375155
0.10713208 -0.037347585 0.11841077 -0.034739129 0.053307407 -0.99797374 7.600394e-05
0.11638772 -0.03484093 0.11801698 -0.047040261 0.047376756 -0.99776882 7.8127152e-05
0.12398344 -0.033764072 0.11766889 -0.050935909 0.042256139 -0.99780756 7.0653281e-05
0.13650368 -0.035677344 0.11696738 -0.056241408 0.043418288 -0.9974727 4.8911163e-05
0.1404008 -0.036434229 0.11675552 -0.057958696 0.043985043 -0.99734956 4.4291395e-05
0.15320544 -0.035104893 0.11603413 -0.06974031 0.04115022 -0.99671602 7.6429911e-05
0.16450316 -0.033987217 0.11522355 -0.084933661 0.039151076 -0.99561715 9.445117e-05
0.17435053 -0.03268531 0.11439812 -0.11301625 0.043199398 -0.99265355 0.00015655166
0.18140538 -0.034636665 0.11345723 -0.12517045 0.044312607 -0.99114513 0.00016210209
0.19594191 -0.036839169 0.11129586 -0.15791059 0.044305772 -0.98645896 0.00020592946
0.20267963 -0.036571164 0.1101129 -0.18320608 0.045726735 -0.98201042 0.00030729594
-0.047199775 -0.026350267 0.11115372 0.18970583 0.032615542 -0.9812991 0.0006325054
-0.035549708 -0.026053946 0.11292706 0.14606068 0.027104907 -0.98890424 0.00017075326
-0.026921062 -0.026212057 0.11398546 0.13269648 0.032083955 -0.99063736 0.00018647155
-0.014809822 -0.025429295 0.11556812 0.10108008 0.031684138 -0.99437362 0.00011780095
-0.0047353064 -0.02482661 0.11642337 0.077957064 0.030000286 -0.9965052 0.00013354728
0.0057436056 -0.024179529 0.11703316 0.17281413 0.051070333 -0.98362952 0.017004067
0.016219351 -0.025493857 0.11755432 0.22789747 0.067815617 -0.97132063 0.037141893
0.024447795 -0.025986476 0.11800347 0.20944245 0.034257606 -0.97722065 0.048076987
0.036540795 -0.02531966 0.11868493 0.1160077 0.012737364 -0.99316663 0.064788379
0.041189332 -0.024781786 0.11896329 0.097756974 0.011278663 -0.99514639 0.064572588
0.054129492 -0.024937211 0.11916217 0.028886208 0.016518302 -0.99944621 0.056380317
0.066311337 -0.025037607 0.11927968 -0.050853357 -0.0013938578 -0.99870515 0.058864247
0.0859726 -0.026080469 0.11932106 -0.20987576 0.072784558 -0.97501522 0.034955673
0.096005633 -0.027634731 0.11922047 -0.13734943 0.063763246 -0.98846823 0.021206314
0.10863705 -0.022452537 0.11913561 -0.04102179 0.035337672 -0.99853313 0.00010385837
0.11733993 -0.024239779 0.11853082 -0.04906838 0.03635747 -0.99813354 6.6059656e-05
0.12320986 -0.024368132 0.11817501 -0.053640358 0.03461688 -0.99796015 4.2770396e-05
0.13881381 -0.021775853 0.11738963 -0.060046487 0.026303979 -0.99784893 4.5518609e-05
0.15504634 -0.022966219 0.11632708 -0.073538028 0.026130235 -0.99695003 6.581052e-05
0.16550724 -0.023523945 0.11554898 -0.084803157 0.026897302 -0.99603462 0.00010698644
0.17161959 -0.025134023 0.11503685 -0.10203655 0.032456838 -0.99425101 0.00016479466
0.18519627 -0.024178423 0.11344391 -0.13280395 0.032127824 -0.99062151 0.00015442177
0.19226833 -0.023498053 0.11255798 -0.1465317 0.032971147 -0.98865634 0.00015197964
0.20330775 -0.0237612 0.11056189 -0.17987677 0.034084931 -0.98309845 0.00023972511
-0.044485584 -0.017251296 0.11181453 0.18631849 0.024630122 -0.98218066 0.00047797646
-0.034653548 -0.013913483 0.1132501 0.15482204 0.017171821 -0.98779309 0.00035274649
-0.024412382 -0.012431046 0.11457844 0.12250768 0.014098653 -0.99236745 0.00013651371
-0.013362234 -0.015408568 0.11595585 0.098399848 0.020227512 -0.99494129 0.00014961432
-0.005699439 -0.012855495 0.11663501 0.085082069 0.012990735 -0.99628925 0.0001584713
0.015934376 -0.015436967 0.11779544 0.20389584 0.025891438 -0.97865009 0.038301118
0.024399415 -0.013645447 0.11830364 0.24509685 0.027388722 -0.96911174 0.05457164
0.035662066 -0.013890184 0.11895632 0.104795 0.024561394 -0.99419051 0.060992572
0.044767071 -0.015911141 0.1190448 0.037745472 0.03034677 -0.9988265 0.060917009
0.05744186 -0.015545947 0.11932908 0.015759757 -0.0035702523 -0.99986941 0.0531229
0.06533967 -0.014196294 0.11925688 -0.025164317 -0.022684414 -0.99942589 0.054506332
0.07766635 -0.016413571 0.11971915 -0.15648097 0.021790544 -0.98744059 0.04705938
0.086453736 -0.016935516 0.11967586 -0.17195851 0.013863269 -0.98500669 0.033745378
0.094683811 -0.013271208 0.11968096 -0.15035665 -0.011287821 -0.98856741 0.018801389
0.10434915 -0.017808016 0.11941648 -0.033041526 0.025505167 -0.99912852 0.00011225423
0.11396754 -0.015277584 0.11892966 -0.046883199 0.019539593 -0.99870926 8.5039224e-05
0.12410524 -0.015815331 0.11832952 -0.054472186 0.023070488 -0.9982487 7.1911891e-05
0.1363903 -0.013247753 0.11765414 -0.059896074 0.014615254 -0.9980976 5.8469461e-05
0.14635208 -0.011584564 0.11710105 -0.065238513 0.013167417 -0.99778283 3.4389399e-05
0.15563479 -0.014420232 0.11640801 -0.071465641 0.017110299 -0.99729633 6.9515314e-05
0.16870587 -0.015573879 0.1154319 -0.095168501 0.017686915 -0.99530405 0.00010945131
0.17504592 -0.016055034 0.11484776 -0.10521394 0.021018773 -0.99422747 0.00019251503
0.18187517 -0.01325297 0.11409581 -0.12067335 0.017951347 -0.99252993 0.00020340619
0.19628307 -0.016940748 0.11204137 -0.15790214 0.026230693 -0.98710632 0.00018796852
-0.052916251 -0.0087376637 0.11017491 0.23796505 0.014688974 -0.97116268 0.0014227028
-0.045489822 -0.0045332224 0.11186238 0.19048412 0.0083030276 -0.98165512 0.00077942276
-0.033535287 -0.0063180588 0.11350484 0.14960131 0.0064477026 -0.98872542 0.0002689306
-0.025180286 -0.0074712085 0.114573 0.12473779 0.010825941 -0.99213064 0.00014814119
-0.015826521 -0.0057119974 0.11581977 0.10389815 0.0072164419 -0.99456173 0.00014718145
-0.0057089669 -0.0041717631 0.11678536 0.082393609 0.0015317878 -0.99659872 0.00015245144
0.0039426312 -0.0038013035 0.11736427 0.15997618 0.002817438 -0.98711687 0.012664742
0.015504156 -0.0034930662 0.11806544 0.21826063 -0.021305269 -0.97565788 0.040458202
0.023244867 -0.0046309191 0.11850064 0.23097079 0.041118849 -0.97209138 0.046153631
0.03481039 -0.005396422 0.11925855 0.12482519 -0.001238296 -0.99217796 0.057523511
0.044825368 -0.0062096235 0.11917956 0.045684453 -0.019814953 -0.99875939 0.0566542
0.057029314 -0.0035179816 0.1188696 0.015593071 -0.037229408 -0.99918503 0.053548675
0.065073982 -0.0042141881 0.11914393 -0.031000799 -0.0087807113 -0.99948084 0.053705912
0.081633352 -0.0048743887 0.1199245 -0.15932786 0.015741723 -0.98710018 0.036925249
0.096381456 -0.0044700434 0.11979704 -0.15454051 0.0095232474 -0.98794061 0.014707816
0.10957468 -0.0055278558 0.11934389 -0.041618682 0.0050700428 -0.99912065 7.9553953e-05
0.11853568 -0.0050827092 0.11882084 -0.053128861 0.0080459146 -0.99855524 7.0175127e-05
0.12352262 -0.0049497187 0.11852791 -0.055324521 0.0067442651 -0.99844563 4.6083143e-05
0.13420071 -0.0087041948 0.11783955 -0.059525393 0.011597236 -0.99815941 5.3957177e-05
0.14622881 -0.0064645405 0.11717419 -0.064337939 0.007602754 -0.99789923 2.8804126e-05
0.15646888 -0.0086394548 0.11642867 -0.073666528 0.0081431214 -0.99724966 3.2938085e-05
0.16257297 -0.0050574359 0.11602356 -0.080738902 0.0054365718 -0.99672043 6.4945285e-05
0.17402567 -0.0059122001 0.11511698 -0.099249445 0.0076599834 -0.99503309 0.00010619922
0.18869309 -0.0066960533 0.1134009 -0.13899752 0.010696085 -0.99023503 0.00019247827
0.19487412 -0.0042620883 0.11255524 -0.15289733 0.0063165487 -0.98822194 0.00019491979
0.20511806 -0.004084059 0.11081976 -0.19063452 0.0060681496 -0.98164231 0.0004615479
-0.051018618 0.0087485295 0.11064155 0.22460693 -0.0081315124 -0.9744156 0.001004771
-0.049679108 0.0087653846 0.1109708 0.21396361 -0.0064446102 -0.97682035 0.0011061286
-0.034893159 0.0045501902 0.11335883 0.15110268 -0.0031171138 -0.98851317 0.00020039506
-0.025665594 0.0065417308 0.11452732 0.12636386 -0.0095788278 -0.99193776 0.0001274487
-0.016876228 0.0087959757 0.11563387 0.10612396 -0.012059438 -0.9942798 0.00012068298
-0.0041719889 0.0052848789 0.11685113 0.079515368 -0.0086366823 -0.99679619 0.0001347689
0.0054091639 0.003345133 0.11745647 0.17547043 -0.0010033102 -0.9844842 0.016328972
0.01633757 0.0072394502 0.11800212 0.21360363 -0.0081212409 -0.97688663 0.033675436
0.025631407 0.0031372975 0.118692 0.19353139 -0.012082404 -0.98101968 0.051452372
0.03609281 0.0049023805 0.11914728 0.10867184 -0.012305452 -0.99400157 0.063028052
0.043071162 0.0037307627 0.11941702 0.058404181 0.040811978 -0.99745846 0.059710555
0.053829253 0.0088311043 0.11943163 0.0076983892 -0.0033257515 -0.99996483 0.052584738
0.064339861 0.0047652749 0.11886959 -0.0053892941 -0.0013708088 -0.9999845 0.054249313
0.075531349 0.0057456372 0.11996672 -0.13421449 -0.015118021 -0.99083698 0.046371803
0.084513478 0.0081545785 0.11984944 -0.16557586 -0.020834537 -0.98597699 0.037912395
0.095819466 0.0049589779 0.11979483 -0.14774805 -0.019524902 -0.98883224 0.015521853
0.10461498 0.0084060887 0.11959111 -0.03605235 -0.015732801 -0.99922603 9.4344665e-05
0.11660907 0.007866377 0.11889012 -0.051613465 -0.011360977 -0.99860251 6.4894142e-05
0.12714824 0.0064123236 0.1182899 -0.057291877 -0.011880031 -0.99828684 5.6225032e-05
0.13492614 0.0058236732 0.11784055 -0.060377672 -0.004932018 -0.9981634 2.8246674e-05
0.14552858 0.0055425521 0.11722713 -0.064528219 -0.0067112204 -0.99789333 2.8513405e-05
0.15542884 0.0047984035 0.11656164 -0.070156679 -0.0050106072 -0.99752343 4.1665182e-05
0.16355027 0.0039286986 0.11596668 -0.081653014 -0.0031272529 -0.99665594 6.4490763e-05
0.17492509 0.0060046022 0.11500719 -0.10357328 -0.0094442666 -0.99457699 0.00012490155
0.18638991 0.0030992087 0.11372951 -0.12954809 -0.0058778753 -0.99155569 0.00018180566
0.19471146 0.0059769601 0.11254651 -0.15322092 -0.0071034529 -0.98816645 0.00015859846
0.20441368 0.0078470046 0.11085667 -0.18598473 -0.015877834 -0.98242438 0.00038932246
-0.053113449 0.013482179 0.11004716 0.23114936 -0.013402625 -0.972826 0.0012566887
-0.045046359 0.014871478 0.11181843 0.18476868 -0.019661462 -0.98258531 0.00061559293
-0.024992738 0.015387023 0.11446091 0.1276398 -0.016356872 -0.99168575 0.00012703617
-0.015323758 0.012056019 0.1157745 0.096948311 -0.015032544 -0.9951759 0.00012502364
-0.0019655062 0.014090782 0.11682162 0.073219217 -0.021069486 -0.99709332 9.9965844e-05
0.0051667904 0.014856234 0.11720569 0.1683062 -0.032124452 -0.98521119 0.017165625
0.013709178 0.015008269 0.11767891 0.2425794 0.008622203 -0.97009325 0.035938744
0.024953516 0.013380606 0.11835194 0.18496826 -0.006950974 -0.98271996 0.052352864
0.036053505 0.016191565 0.11891007 0.091317333 -0.018276613 -0.99565405 0.068257019
0.046763744 0.014806073 0.1192641 0.0022379484 -0.027801307 -0.99961096 0.057638451
0.053345084 0.015641861 0.11948229 0.0086110355 -0.034940392 -0.99935222 0.053057682
0.065563589 0.015183257 0.11950219 -0.030082706 -0.0084627112 -0.99951166 0.056538966
0.073194869 0.019946171 0.11962575 -0.092794061 -0.0030007982 -0.99568075 0.051412839
0.089584216 0.01209588 0.11974467 -0.14962673 -0.0420301 -0.98784888 0.027480446
0.093294434 0.013743935 0.11968647 -0.13752939 -0.047189184 -0.98937291 0.01820522
0.10286548 0.015996166 0.11953422 -0.03171831 -0.02678854 -0.99913782 0.00011185303
0.11607925 0.014718096 0.11881208 -0.049667194 -0.022068478 -0.99852198 6.9134592e-05
0.12958889 0.014637448 0.11802846 -0.058634847 -0.016698204 -0.99813986 5.2331743e-05
0.13404775 0.012514264 0.11779883 -0.059299946 -0.015853068 -0.99811429 5.5767949e-05
0.14565217 0.014939219 0.11709781 -0.063078895 -0.016142048 -0.99787802 3.9040508e-05
0.1599935 0.013764444 0.11609412 -0.078506321 -0.014076846 -0.99681425 7.1156828e-05
0.16606976 0.01607017 0.11561896 -0.090567902 -0.018252725 -0.99572301 0.00010613709
0.17383403 0.014972419 0.11499155 -0.098029532 -0.014488875 -0.99507803 0.00010259449
0.18514147 0.014343712 0.11368459 -0.12623321 -0.022310084 -0.9917497 0.00020678203
0.19544041 0.012530824 0.11228643 -0.15513891 -0.017171599 -0.98774344 0.00021963344
0.20392311 0.015462451 0.11073008 -0.18144903 -0.025739698 -0.98306346 0.00020469328
-0.050417513 0.026467239 0.11044748 0.22274077 -0.031902954 -0.97435552 0.0011911836
-0.042596854 0.025257599 0.11207052 0.17705837 -0.024635209 -0.98389202 0.00062171131
-0.035400923 0.025182301 0.11296278 0.15776889 -0.026356699 -0.9871242 0.00034824279
-0.025259545 0.025186801 0.11423972 0.1181747 -0.027160373 -0.9926213 0.00014658528
-0.015013237 0.024529222 0.11554773 0.097752303 -0.031825427 -0.99470174 0.00014983365
-0.0037341993 0.023552021 0.11651402 0.075791121 -0.029241549 -0.99669492 0.00011304834
0.0043367562 0.025205115 0.11693013 0.17307375 -0.035056151 -0.98428482 0.019080233
0.019765321 0.028500758 0.11762387 0.23809829 -0.018628901 -0.97106248 0.042172872
0.025194434 0.026695421 0.11800971 0.18025203 -0.048404336 -0.98242873 0.056107581
0.034604099 0.024276918 0.11867987 0.12295116 -0.0088917045 -0.99237287 0.070614003
0.04491169 0.022430792 0.11893359 0.017619552 0.021982897 -0.99960309 0.057942413
0.053904593 0.024695804 0.11886959 0.0067243497 -0.014563535 -0.99987137 0.056034453
0.065844439 0.026351783 0.11911924 -0.083285399 -0.03502861 -0.99590993 0.059060052
0.075611576 0.025608012 0.11938449 -0.14242361 -0.032127578 -0.98928428 0.052017465
0.083820507 0.027027512 0.1192866 -0.18492007 -0.032690093 -0.98220968 0.037689194
0.093671873 0.027459983 0.11923623 -0.16407554 -0.029813198 -0.98599708 0.026208762
0.10562726 0.026996275 0.1190456 -0.036810596 -0.039204776 -0.99855292 9.5831856e-05
0.11756155 0.024729937 0.11848325 -0.04798495 -0.033067588 -0.99830055 4.9376307e-05
0.12561774 0.027047182 0.11791518 -0.056415316 -0.036030117 -0.99775708 4.3084488e-05
0.13616127 0.025383547 0.11739395 -0.058428209 -0.032506853 -0.99776226 3.1098138e-05
0.1443837 0.026087012 0.11691402 -0.061833266 -0.033250425 -0.99753243 3.5327565e-05
0.15788306 0.025676768 0.11603935 -0.076343849 -0.031060068 -0.99659765 6.6735629e-05
0.16412565 0.021211326 0.11569601 -0.085730486 -0.026513742 -0.99596554 6.2706051e-05
0.17697984 0.025016097 0.11442934 -0.11539125 -0.033911861 -0.99274111 0.00017022
0.18661864 0.024776826 0.11325458 -0.1303826 -0.03319538 -0.99090785 0.00020706572
0.19502659 0.024855535 0.11200412 -0.15367337 -0.036354758 -0.98745269 0.00013195154
0.20267776 0.025120486 0.11063759 -0.17849457 -0.037790388 -0.98321497 0.00024156806
-0.045220718 0.036912188 0.11118712 0.20273237 -0.041031301 -0.97837412 0.00099835952
-0.033591021 0.036286578 0.11275201 0.14350145 -0.042810764 -0.9887237 0.00024700968
-0.025302991 0.034116715 0.113869 0.11939012 -0.039595358 -0.9920575 0.00011989799
-0.014974274 0.035162468 0.11511757 0.096140034 -0.040658835 -0.99453706 0.00012163474
-0.006367323 0.034777649 0.11593749 0.083273366 -0.040038977 -0.99572206 0.00012200265
0.003447504 0.034234256 0.11648042 0.13646217 -0.048335396 -0.98946542 0.011015446
0.012450118 0.036096722 0.11688201 0.23715407 -0.057975996 -0.96974057 0.033886209
0.027248841 0.031696394 0.11788353 0.17558846 -0.0060622068 -0.98444504 0.05883063
0.037040323 0.034900602 0.11877084 0.10576167 -0.0092683453 -0.99434829 0.067887194
0.045235604 0.034796853 0.11870517 0.017120013 -0.018121809 -0.99968922 0.059676636
0.053652726 0.034485754 0.11900277 0.025940726 0.022861587 -0.99940199 0.056508042
0.063491002 0.036113232 0.11892598 -0.033108536 -0.0083312122 -0.99941707 0.063385062
0.072588935 0.035142705 0.11890398 -0.11999505 -0.01412434 -0.99267399 0.055645123
0.085238479 0.03567243 0.11883128 -0.19424722 -0.051194403 -0.97961581 0.035759013
0.093495294 0.034503855 0.11886477 -0.15151414 -0.037108775 -0.98775828 0.023191977
0.10639565 0.036493938 0.11849992 -0.033636671 -0.052994225 -0.99802816 7.4412208e-05
0.11607143 0.033060644 0.11813297 -0.045825716 -0.042712566 -0.99803585 6.6019689e-05
0.12567255 0.035175063 0.11751065 -0.051871542 -0.044194475 -0.99767536 5.0641858e-05
0.13453731 0.036098804 0.11704662 -0.054870553 -0.044810385 -0.99748749 3.1191019e-05
0.15460396 0.035082236 0.1159296 -0.072073601 -0.042053115 -0.99651241 6.3368934e-05
0.16385801 0.034127239 0.11527037 -0.081716299 -0.037949495 -0.99593288 7.9195459e-05
0.17512774 0.035847239 0.11415815 -0.11231032 -0.045735646 -0.99262005 0.00014649585
0.18813458 0.030393414 0.11284417 -0.13891043 -0.038753346 -0.98954642 0.0001544626
0.19655061 0.035392504 0.11125365 -0.16480227 -0.04688232 -0.98521179 0.00012866172
-0.046563406 0.048556607 0.11040583 0.21634594 -0.058245424 -0.97457784 0.0011246261
-0.037466973 0.043716379 0.11199105 0.16353548 -0.044566695 -0.98553032 0.00072788011
-0.026394151 0.047959238 0.1131753 0.12251028 -0.059420984 -0.99068683 0.00014323487
-0.015914304 0.047523186 0.11446913 0.10289655 -0.057753623 -0.99301398 0.00010193094
-0.0035975918 0.044229094 0.11568856 0.073842086 -0.052456152 -0.99588943 0.00013348481
0.005321004 0.04552358 0.11609226 0.16194572 -0.048562773 -0.98560399 0.021011507
0.014647124 0.046340533 0.11655656 0.26274082 -0.042489622 -0.96393043 0.0419822
0.028830646 0.041382216 0.11752643 0.1977957 -0.033690643 -0.97966409 0.065201171
0.034343604 0.046161991 0.11757594 0.15237008 -0.036429096 -0.98765188 0.068732917
0.046038441 0.044053029 0.11859111 0.048007924 0.012396616 -0.99877006 0.061546553
0.053332098 0.044126686 0.11865384 -0.011769003 0.0057538906 -0.99991423 0.061857302
0.065625519 0.044102591 0.11852537 -0.090471156 -0.0058336803 -0.99588197 0.061532106
0.072971687 0.045236107 0.11839574 -0.1141903 -0.0042133424 -0.99344987 0.058378864
0.087846801 0.041318841 0.11853372 -0.18427715 -0.042224538 -0.98196691 0.031945333
0.095675036 0.0429506 0.11840288 -0.16266061 -0.046532433 -0.98558426 0.02378484
0.10199305 0.047765147 0.11805975 -0.054567896 -0.072458826 -0.99587756 0.0037736667
0.11401298 0.0432082 0.11775505 -0.038626272 -0.05707347 -0.99762249 6.3568878e-05
0.12481193 0.04563503 0.1171062 -0.048340295 -0.06097699 -0.99696791 4.9796487e-05
0.13713394 0.046797507 0.11646412 -0.054808471 -0.057012338 -0.9968679 3.9530572e-05
0.14901508 0.043452092 0.11602731 -0.065296926 -0.05220956 -0.99649906 5.5020591e-05
0.156091 0.044378456 0.11539862 -0.074221306 -0.053736169 -0.99579293 6.3991945e-05
0.16259043 0.04728388 0.11475131 -0.084794886 -0.059812993 -0.99460155 0.00010241025
0.17440513 0.045284715 0.11378982 -0.10862081 -0.053329226 -0.99265182 0.00011757886
0.18166366 0.044239268 0.11300102 -0.12190226 -0.051344 -0.9912132 0.00017410491
0.19411789 0.04555599 0.11121243 -0.15787624 -0.056632739 -0.98583359 0.00019586852
0.20220035 0.040117033 0.11004856 -0.17463002 -0.05062918 -0.98333162 0.0001876608
-0.042598039 0.052590478 0.11086905 0.18354404 -0.062248323 -0.98103863 0.000883637
-0.038314261 0.055328429 0.11124992 0.17185359 -0.070169777 -0.98262024 0.0010219502
-0.025747048 0.055811718 0.11272447 0.12159458 -0.067940004 -0.99025202 0.00016394461
-0.014421296 0.055171415 0.11413027 0.097443245 -0.067987733 -0.99291617 0.0001655738
-0.0061249929 0.056383535 0.11480092 0.079904385 -0.070945948 -0.99427456 0.00017593126
0.00079185399 0.055908248 0.11519314 0.070099421 -0.070449494 -0.99504924 0.00013433
0.016056191 0.055402927 0.11601772 0.27192014 -0.050340161 -0.96100217 0.047183052
0.024481513 0.052726701 0.11664655 0.2482408 -0.009894086 -0.96864784 0.062504515
0.035116449 0.054866537 0.11731613 0.14190203 -0.040853105 -0.98903733 0.073122628
0.047353946 0.054186899 0.11828092 -0.0033601972 0.0056350585 -0.99997848 0.068153962
0.05487952 0.056868281 0.11857095 -0.0085886754 -0.0057123681 -0.99994683 0.066671647
0.064779848 0.055651233 0.1181314 -0.059577025 -0.032316022 -0.99770051 0.070219025
0.076831818 0.054258186 0.11771019 -0.18201651 -0.023235364 -0.9830209 0.057666585
0.085001454 0.050382655 0.11796159 -0.21342069 -0.050959207 -0.9756304 0.04147182
0.092286572 0.056725621 0.11743619 -0.18550651 -0.045991551 -0.98156613 0.030054811
0.1055477 0.052477803 0.11752519 -0.029627733 -0.069875851 -0.99711561 7.2815819e-05
0.11373694 0.054665543 0.11696707 -0.037795838 -0.072318323 -0.99666518 6.9712245e-05
0.12504299 0.054384626 0.11646687 -0.044392377 -0.068088397 -0.99669117 4.1960138e-05
0.13449074 0.051860142 0.11621837 -0.052223783 -0.06073701 -0.99678665 4.8012462e-05
0.1429967 0.055807125 0.11559445 -0.057907879 -0.070201486 -0.99585062 9.3085211e-05
0.15267368 0.053462807 0.1150937 -0.068062454 -0.06132146 -0.99579471 7.7367891e-05
0.16205111 0.056294467 0.11416017 -0.087473452 -0.074126743 -0.99340504 0.00010053005
0.17092863 0.052781325 0.11369761 -0.098911986 -0.067723185 -0.99278897 8.4269341e-05
0.1855914 0.05561737 0.11177228 -0.13210475 -0.070632905 -0.98871601 0.00016409412
0.19107413 0.055283681 0.11106417 -0.14270714 -0.07041987 -0.98725659 0.00019802495
-0.041111987 0.06275589 0.11034457 0.17239082 -0.074348018 -0.9822188 0.00085464271
-0.033401091 0.067302823 0.1109284 0.13801181 -0.087220132 -0.9865827 0.00028734928
-0.026363382 0.064542167 0.11198982 0.1229404 -0.082911797 -0.98894453 0.00021544483
-0.010028718 0.06478516 0.11393723 0.088093206 -0.084355399 -0.9925341 0.00018174706
-0.0040498818 0.062148061 0.11448654 0.07446219 -0.074257903 -0.99445516 0.00014365239
0.0056157089 0.065843649 0.11471575 0.18943022 -0.10945091 -0.97577488 0.028083937
0.013731438 0.064058051 0.11526576 0.27027571 -0.051233802 -0.96141881 0.04308252
0.024985975 0.062734075 0.11594422 0.27485979 -0.034723118 -0.96085709 0.065127932
0.034654342 0.067652062 0.11671706 0.23551512 -0.052643988 -0.97044379 0.078145772
0.044450585 0.064380601 0.1179539 0.042096373 0.026084922 -0.99877292 0.074505404
0.054150842 0.065528572 0.11833019 0.0062004644 0.031378623 -0.99948835 0.068625957
0.067743026 0.065531269 0.1174857 -0.15941794 -0.006261535 -0.98719132 0.074938856
0.079224251 0.064049549 0.11697265 -0.24275486 -0.030437743 -0.96960998 0.055862837
0.08457882 0.065016218 0.11685566 -0.26889449 -0.039839145 -0.96234536 0.045888621
0.096759483 0.062414143 0.11697635 -0.13966323 -0.079264708 -0.98702139 0.022965286
0.10332949 0.065248296 0.11663017 -0.026843052 -0.090761527 -0.99551082 0.00013204213
0.11571785 0.064508699 0.11614315 -0.037930638 -0.089281514 -0.99528396 0.00010103258
0.12481713 0.064981923 0.11573615 -0.042115841 -0.087994501 -0.99523026 0.00012928284
0.13982433 0.065134943 0.11510754 -0.055518672 -0.081623904 -0.9951157 0.00010447912
0.14651576 0.065398209 0.11473821 -0.062942535 -0.08932481 -0.99401182 0.00015056455
0.15998706 0.068591803 0.11343385 -0.083799601 -0.094848529 -0.99195832 0.00015101019
0.16651607 0.06410528 0.11323369 -0.092190482 -0.084836878 -0.9921208 0.00011151456
0.17241894 0.065829836 0.11255392 -0.10337882 -0.085659295 -0.99094671 0.00014198772
0.18506818 0.063766897 0.11124413 -0.130729 -0.079780839 -0.98820293 0.00018992466
0.19086856 0.063893139 0.1104485 -0.14379086 -0.080266081 -0.98634756 0.000154768
-0.032463592 0.075488843 0.11030308 0.13419868 -0.10830952 -0.98501766 0.0002841588
-0.025258664 0.074437864 0.11127774 0.12125186 -0.10348255 -0.9872129 0.00022665685
-0.014460508 0.073401809 0.11267342 0.094700202 -0.10001089 -0.99046946 0.00018761618
-0.0043859407 0.073435627 0.11354841 0.078903183 -0.10059497 -0.99179375 0.0002175173
0.0047446168 0.076849654 0.11365566 0.1213392 -0.13679507 -0.98313981 0.01199861
0.015419691 0.075084761 0.11437798 0.26238731 -0.12819511 -0.95640934 0.046958752
0.024598325 0.075579107 0.1147902 0.35040471 -0.12670007 -0.92798901 0.0708455
0.037051242 0.074845374 0.11757302 0.24510255 -0.11047971 -0.96318167 0.095857374
0.044165883 0.073847257 0.1163925 0.065037198 -0.055604182 -0.99633241 0.097916886
0.054568361 0.073981635 0.11718651 -0.033984009 -0.058740988 -0.99769467 0.091710702
0.066422999 0.074732833 0.11742572 -0.12926249 -0.11025018 -0.98546243 0.094895884
0.070359983 0.075788051 0.11597001 -0.18959367 -0.14706531 -0.97078633 0.083334446
0.083196484 0.073670745 0.11609253 -0.2817823 -0.1085624 -0.95331681 0.071192808
0.095126964 0.074242592 0.1159382 -0.18774797 -0.087337062 -0.97832662 0.037790183
0.10709828 0.07600607 0.11544492 -0.030675517 -0.11502974 -0.99288827 0.00022441435
0.11372969 0.074836656 0.11530057 -0.031038679 -0.11076477 -0.99336183 0.00015703242
0.12672924 0.075373948 0.11470175 -0.04436589 -0.11606614 -0.99225014 0.00031670133
0.13310313 0.073520809 0.11464214 -0.047947854 -0.10998169 -0.99277639 0.00029229428
0.14168529 0.071264394 0.11453649 -0.057708308 -0.1061359 -0.9926756 0.00022899423
0.15076539 0.071046002 0.11393525 -0.067798637 -0.10386181 -0.99227822 0.00022614269
0.16500868 0.074385531 0.1124303 -0.088460438 -0.1097087 -0.99001962 0.00019967247
0.17540073 0.0782478 0.11099611 -0.10870153 -0.11985502 -0.98682255 0.00021205274
0.1841685 0.075121313 0.11034769 -0.12579505 -0.10996939 -0.98594236 0.00028208431
-0.014530482 0.083342008 0.11157177 0.0984293 -0.12455442 -0.98731846 0.00030337481
-0.0054721804 0.083846748 0.11234325 0.076199561 -0.12295897 -0.98948205 0.00031946797
0.0044715391 0.084151596 0.11288291 0.060492247 -0.12649767 -0.99012065 0.00032758602
0.015558588 0.08601322 0.11307466 0.21681824 -0.25557646 -0.94216269 0.056258596
0.025792785 0.083108753 0.11402376 0.30632633 -0.25166926 -0.91805589 0.072495714
0.036821947 0.084533803 0.11727842 0.22413972 -0.38677463 -0.8945204 0.10796517
0.044505324 0.085696869 0.11645508 0.10096946 -0.51347113 -0.85214597 0.10886298
0.055827428 0.083800107 0.11742639 -0.059808232 -0.4225499 -0.90436423 0.11983258
0.067273483 0.084656328 0.11731877 -0.21968333 -0.35259879 -0.90962267 0.10689878
0.077874213 0.085081816 0.11474512 -0.20588532 -0.391415 -0.89688659 0.089291625
0.087685868 0.085170865 0.11464495 -0.22552198 -0.20420234 -0.95259708 0.054797243
0.095832996 0.085972905 0.11444438 -0.12686172 -0.15520224 -0.97970325 0.027098441
0.10401043 0.08402063 0.11455499 -0.026645459 -0.13750976 -0.99014193 0.00021955768
0.11416822 0.083436728 0.11424304 -0.035894774 -0.13911596 -0.98962533 0.00025545116
0.12481967 0.085425287 0.11348674 -0.044593018 -0.15481898 -0.98693591 0.00060718774
0.13844834 0.081948489 0.11344681 -0.052431419 -0.13766269 -0.98909044 0.0002015581
0.14485796 0.084672727 0.11269587 -0.060214154 -0.13684361 -0.98876095 0.00023586476
0.15224855 0.085715778 0.11202583 -0.068587482 -0.13997297 -0.98777694 0.00015430371
0.16505623 0.085169472 0.11112455 -0.088635445 -0.14008434 -0.98616433 0.00029472695
0.17714202 0.081249639 0.11044829 -0.10868428 -0.11986423 -0.98682332 0.00021903981
