# .PCD v0.7 - Point Cloud Data file format
VERSION 0.7
FIELDS x y z normal_x normal_y normal_z curvature
SIZE 4 4 4 4 4 4 4
TYPE F F F F F F F
COUNT 1 1 1 1 1 1 1
WIDTH 568
HEIGHT 1
VIEWPOINT 0 0 0 1 0 0 0
POINTS 568
DATA ascii
0.10233875 -0.10404661 -0.080121562 0.0074123517 0.0099610882 0.99992293 0.1156242
0.11641409 -0.10606784 -0.080121569 0.00200069 -0.082372352 0.99659961 0.1175041
0.12530109 -0.10816188 -0.080121562 -0.16317658 0.0050205495 0.98658413 0.14777967
0.13305645 -0.10187828 -0.080121562 -0.41727969 -0.16675557 0.89334774 0.18467009
0.14542343 -0.106392 -0.080121562 -0.64599645 -0.08178971 0.758946 0.27317485
0.20060521 -0.10493381 -0.087382972 -0.56591082 0.34328559 0.74959975 0.23676719
0.21258378 -0.10505467 -0.085546412 -0.87753761 0.47874457 -0.02704511 0.19353244
0.35756922 -0.10536276 -0.087564886 -0.80252409 -0.37999237 0.45995748 0.20677437
-0.42754817 -0.096020475 -0.080785632 -0.054866113 0.10182537 0.99328816 0.094558656
-0.41469517 -0.092327453 -0.082154065 0.079433978 0.085354447 0.9931792 0.187519
-0.40327048 -0.096205235 -0.085440405 0.58813924 -0.6397813 0.4947446 0.24818839
-0.39809343 -0.096080899 -0.083101712 0.48844168 -0.75297195 0.44097394 0.23144798
-0.38410151 -0.094709732 -0.084294111 -0.16258375 0.96376604 0.21147463 0.21445227
-0.37286952 -0.095481396 -0.084969573 0.036653362 0.98087478 0.19115762 0.11306126
-0.36627796 -0.095601298 -0.085619971 0.0071177497 0.98692989 0.16099326 0.11483189
-0.35478747 -0.094282389 -0.085197397 0.01733212 0.99181283 0.12651785 0.10560942
-0.34566784 -0.094482221 -0.084872246 0.035086159 0.99020994 0.13510422 0.088053919
-0.33522162 -0.095121697 -0.085476041 -0.045107827 0.98425019 0.17092973 0.085433908
-0.32571864 -0.094881892 -0.087574206 0.027802138 0.98802584 0.15176302 0.12755787
-0.31693727 -0.09458214 -0.084999524 0.044735186 0.98316497 0.17715937 0.11721433
-0.30830863 -0.094282389 -0.085932493 0.031211464 0.9697023 0.24228743 0.14153868
-0.29331833 -0.094881892 -0.085934371 0.034657732 0.98901153 0.14371838 0.11795804
-0.28547427 -0.094368041 -0.08395914 0.17177042 0.96443671 0.20089012 0.11071049
-0.2746326 -0.094881892 -0.086723879 0.28618002 0.94207942 0.17489214 0.18603674
-0.26554403 -0.095281564 -0.084090017 0.40842211 0.86697227 0.28557041 0.20165157
-0.25792959 -0.094994217 -0.083119594 0.4211342 0.82290739 0.38140443 0.19356419
-0.24673668 -0.0949772 -0.083231397 0.5517441 0.43005869 0.71458232 0.18386148
-0.21290421 -0.095140792 -0.080121562 0.90129 -0.0467453 0.43068689 0.26425663
-0.20425537 -0.098860465 -0.080121562 0.35350296 0.08031489 0.93197918 0.19847696
-0.18514127 -0.094823152 -0.080121562 0.00089441694 -0.024509441 0.99969923 0.10980029
-0.17323489 -0.095063545 -0.080121569 0.010218832 0.079596914 0.99677479 0.12735765
-0.16401087 -0.091333695 -0.080121562 -0.055595323 -0.0095777232 0.99840748 0.11289667
-0.15629913 -0.094677947 -0.080121569 0.051423386 0.02629484 0.99833071 0.11127328
-0.14283215 -0.094948038 -0.080121562 0.0082570752 -0.057055958 0.99833685 0.12172992
-0.1353891 -0.092866011 -0.080121569 0.0043207919 -0.063518032 0.99797136 0.11950046
-0.12693112 -0.092083424 -0.080121562 0.042662352 -0.071132116 0.9965542 0.11400882
-0.11704213 -0.094430484 -0.080121554 -0.085704081 -0.084353149 0.99274331 0.1047471
-0.10587373 -0.093891144 -0.080121562 -0.28814325 -0.0089909136 0.9575451 0.15843257
-0.094118357 -0.095085651 -0.080121562 0.62861609 0.037149828 -0.77682799 0.22855078
-0.084885739 -0.093418524 -0.080121569 0.54363877 -0.073958464 0.8360545 0.24433818
-0.07314796 -0.095276549 -0.080121562 0.25355709 0.029750159 0.9668628 0.15986408
-0.068400122 -0.098480195 -0.080121562 0.2260358 0.084749073 0.97042537 0.13555628
-0.05531498 -0.096007332 -0.080121562 0.039610457 0.035757158 0.99857515 0.11856771
-0.045420274 -0.097476862 -0.080121562 -0.045104958 0.12233071 0.9914639 0.10769983
-0.033451844 -0.09483818 -0.080121562 -0.090256304 -0.001132817 0.99591792 0.12220474
-0.024694974 -0.094993718 -0.080121562 -0.026598403 -0.035341822 0.99902129 0.11573434
-0.016841408 -0.094431028 -0.080121562 0.058800645 -0.027868005 0.99788064 0.10529992
-0.0026387279 -0.092669532 -0.080121562 -2.1685284e-05 0.00047918453 0.99999988 0.11067256
0.0055164718 -0.09891554 -0.080121562 -0.15430954 0.0242125 0.98772585 0.14660271
0.013765704 -0.097200669 -0.080121562 -0.208838 -0.018829269 0.97776896 0.18097575
0.024034735 -0.090369806 -0.080121562 -0.087937899 -0.30773541 0.9473995 0.24405064
0.045492753 -0.091336824 -0.080121562 0.21544917 -0.15902913 0.96347874 0.12982191
0.055271804 -0.09681467 -0.080121562 -0.067668281 0.0035577076 0.99770159 0.12189726
0.064846136 -0.096602544 -0.080121562 -0.039208494 0.0073506772 0.99920404 0.12048443
0.075872876 -0.093269683 -0.080121562 -0.067336582 -0.018672874 0.99755555 0.11480375
0.085662834 -0.097161651 -0.080121562 -0.033168565 0.14186458 0.98933023 0.11613972
0.09272559 -0.094920993 -0.080121562 0.043481745 0.05497561 0.99754047 0.11478957
0.10470649 -0.09660989 -0.080121562 0.061261147 0.1246347 0.99030972 0.10989024
0.11351544 -0.093450055 -0.080121562 0.028387614 0.088113464 0.99570584 0.11889175
0.12322194 -0.094895855 -0.080121562 -0.011927674 -0.014064422 0.99982995 0.11191785
0.13470316 -0.094899535 -0.080121562 -0.6365335 -0.012458569 0.77114844 0.17759654
0.14341113 -0.097996071 -0.080121562 -0.6712752 0.014855962 0.74105936 0.25191614
0.20272714 -0.095110141 -0.084477983 -0.64250082 0.50263941 0.57839978 0.23761623
0.21482241 -0.097891577 -0.081674956 -0.58802634 0.7723797 0.24011377 0.20593552
0.22656934 -0.095085777 -0.080574989 -0.28459731 0.93406022 0.21572156 0.13511439
0.23353024 -0.09620811 -0.08502014 -0.3234266 0.93297231 0.15798098 0.14232273
0.24375848 -0.097891569 -0.084473759 -0.068822555 0.96982491 0.23388684 0.10391311
0.25329089 -0.095085777 -0.084192373 -0.10252424 0.97862625 0.17826772 0.10336199
0.26351342 -0.095787227 -0.086130559 0.066824272 0.99209899 0.1061798 0.13181849
0.27525482 -0.096839406 -0.08557009 0.026605193 0.996261 0.082196079 0.10621879
0.2838378 -0.095366366 -0.086451069 -0.0076790857 0.9976691 0.067805007 0.10198794
0.29511309 -0.095787235 -0.084966421 0.0017052782 0.98931283 0.14579856 0.1140639
0.30376649 -0.093682885 -0.08563906 -0.031282466 0.98614407 0.16291533 0.14021391
0.3152158 -0.096361153 -0.085019402 0.021975275 0.99418855 0.1053861 0.12848662
0.32334676 -0.097190119 -0.084093429 -0.11182959 0.99323881 0.031157095 0.13204964
0.33546421 -0.097190119 -0.083002575 0.26159096 0.9648211 0.026275173 0.16082238
0.34222868 -0.097891569 -0.084555112 -0.37253854 -0.91387749 0.16137837 0.15371235
0.35560998 -0.097222842 -0.084541045 -0.69570446 -0.57238913 0.43401161 0.22501127
-0.43220037 -0.088002339 -0.080157951 -0.12296122 0.083891943 0.9888593 0.070487879
-0.42492479 -0.084126301 -0.081139565 0.0591872 0.19006626 0.97998554 0.071221612
-0.41577628 -0.087140359 -0.08237388 0.12867315 0.18271995 0.97470844 0.1614105
-0.40731198 -0.081472911 -0.083515853 0.29789969 0.13648637 0.94478947 0.12275709
-0.39563808 -0.083921969 -0.085090883 0.46205753 0.070269883 0.88406157 0.18326426
-0.21314879 -0.087020218 -0.080121562 0.71428412 -0.025458291 0.69939262 0.24206933
-0.20485194 -0.085608207 -0.080121562 0.42070794 -0.047275953 0.90596354 0.2130914
-0.19619936 -0.086734392 -0.080121562 0.24977954 0.081858508 0.96483642 0.13575827
-0.18368183 -0.085514724 -0.080121569 -0.0375522 -0.0057978933 0.99927789 0.10457326
-0.17693138 -0.089060917 -0.080121562 0.096759953 0.023296446 0.99503511 0.10596515
-0.16178976 -0.082874164 -0.080121562 -0.0041548684 0.018208846 0.99982554 0.11656193
-0.15462387 -0.083712041 -0.080121569 -0.026723111 -0.026337026 0.99929583 0.11505204
-0.14067991 -0.086485945 -0.080121562 -0.077680886 -0.059113447 0.99522418 0.11755863
-0.13632563 -0.083275437 -0.080121562 0.051564366 -0.070093654 0.99620682 0.11283189
-0.12584689 -0.083121248 -0.080121562 0.021124247 -0.040580422 0.99895298 0.11901757
-0.11416739 -0.085612342 -0.080121562 -0.1373841 0.045559328 0.98946953 0.1202076
-0.10364747 -0.086077906 -0.080121569 -0.34305307 0.016957249 0.93916291 0.16026047
-0.094878949 -0.080979042 -0.080121562 -0.41387436 0.13974489 0.89954388 0.22064239
-0.085221149 -0.085297212 -0.080121562 0.43551636 0.047748774 0.89891356 0.24279867
-0.076353043 -0.083324991 -0.080121562 0.55675626 0.10686385 0.82377338 0.20280777
-0.06548319 -0.085136399 -0.080121562 0.25328293 -0.023390569 0.96710932 0.12935649
-0.040243082 -0.081185631 -0.080121562 -0.072342992 -0.053684019 0.99593389 0.10884528
-0.034149099 -0.082735866 -0.080121562 -0.14811994 -0.041299041 0.98810679 0.12471072
-0.02796066 -0.086859219 -0.080121562 -0.062285732 0.015762724 0.99793386 0.1225697
-0.013425815 -0.084900133 -0.080121562 -0.017995637 0.0055844658 0.9998225 0.11515347
-0.0088681579 -0.083347276 -0.080121562 0.10683686 0.086459488 0.99051028 0.10572869
0.0050335857 -0.086479656 -0.080121569 -0.22867097 -0.022669945 0.97323972 0.14297421
0.012620134 -0.081307977 -0.080121562 -0.37252238 -0.11514089 0.92085266 0.18289903
0.024483601 -0.084989265 -0.080121569 -0.00019727401 -0.29362029 0.95592207 0.23310119
0.03453787 -0.084269576 -0.080121562 0.40205568 -0.23190105 0.88576126 0.20870109
0.049199697 -0.082050145 -0.080121562 0.14795557 -0.099248849 0.9840014 0.11656182
0.053933643 -0.086449496 -0.080121562 0.077275902 -0.049666628 0.99577188 0.1096428
0.066550374 -0.085445911 -0.080121562 -0.010806064 -0.037434861 0.99924064 0.11485053
0.07330694 -0.084970795 -0.080121569 0.10393625 -0.13652976 0.98516846 0.10677792
0.081864342 -0.085122779 -0.080121562 -0.0060280124 -0.032322936 0.99945933 0.11255859
0.097633161 -0.083247244 -0.080121562 -0.030421477 0.02684113 0.99917668 0.1064838
0.10365766 -0.084854312 -0.080121562 0.093730114 0.0047476278 0.99558634 0.10501356
0.11693264 -0.082184277 -0.080121562 -0.047650751 0.0047565377 0.99885273 0.11131981
0.1234628 -0.087372527 -0.080121562 -0.093351066 0.023856038 0.99534738 0.11154242
0.1378316 -0.086402573 -0.080121562 -0.57606357 0.053871594 0.81562769 0.18664746
0.14481266 -0.084711604 -0.080121562 0.30507717 0.099365801 0.94712955 0.25344104
0.32809091 -0.088170119 -0.085584812 -0.33909205 0.33781379 0.87800825 0.22146571
0.33660582 -0.082970418 -0.081742972 -0.2819747 0.18634079 0.94115216 0.1787131
0.3439211 -0.084460765 -0.081350453 -0.33861813 0.14511739 0.92966592 0.22529471
0.35423765 -0.086930893 -0.080796897 -0.11112639 0.1708874 0.97900373 0.23236887
0.36473018 -0.086665072 -0.080233902 -0.049227837 0.085302569 0.99513817 0.15155922
-0.43178391 -0.07636705 -0.080214143 0.070326313 0.097764954 0.99272162 0.025614306
-0.42908594 -0.070862465 -0.080578148 0.095553294 0.064005069 0.99336445 0.012324974
-0.41453773 -0.074612536 -0.082540989 0.11810207 0.1611695 0.97983479 0.033454712
-0.40358305 -0.075758755 -0.084018953 0.2726427 0.20316111 0.94042093 0.061180066
-0.39279011 -0.070283197 -0.085475117 0.31883422 0.061531663 0.94581103 0.032661419
-0.38678494 -0.07635159 -0.086835094 0.33164048 0.12325313 0.9353199 0.10416409
-0.21450004 -0.071343608 -0.080121562 0.91021395 0.092852779 0.403595 0.24712424
-0.20726168 -0.07470721 -0.080121562 0.48701963 -0.081977807 0.86953527 0.19815938
-0.19249786 -0.070706882 -0.080121562 0.14661111 -0.042460389 0.98828256 0.12583615
-0.18751372 -0.074688442 -0.080121562 0.029281326 -0.022978351 0.9993071 0.10614192
-0.17579956 -0.074378356 -0.080121562 0.021288425 0.020994505 0.99955285 0.11551492
-0.16517644 -0.073212638 -0.080121562 0.11217778 -0.049956664 0.99243158 0.1119638
-0.1545956 -0.072945096 -0.080121569 -0.036040872 -0.052695978 0.99796003 0.10895152
-0.14514516 -0.073788047 -0.080121562 -0.014367001 -0.049976852 0.99864703 0.12763254
-0.13235131 -0.075734332 -0.080121562 -0.021783045 -0.054284655 0.99828786 0.12529758
-0.12606563 -0.074683562 -0.080121562 0.057952512 -0.041466884 0.99745774 0.109044
-0.11405534 -0.07518588 -0.080121562 -0.086681217 -0.037943345 0.99551326 0.11450358
-0.096390575 -0.075743318 -0.080121562 -0.32460794 0.065216497 0.94359767 0.22330815
-0.084627882 -0.075677671 -0.080121562 0.3284992 0.13618252 0.93463504 0.2433082
-0.077227324 -0.073953062 -0.080121562 0.39621174 0.0085589802 0.91811937 0.19871183
-0.068154566 -0.076000698 -0.080121562 0.28150761 -0.015800124 0.95942891 0.13383876
-0.054470271 -0.072275326 -0.080121562 -0.0057707354 -0.050230842 0.99872094 0.11927188
-0.042135295 -0.074495502 -0.080121562 -0.049776748 0.01512765 0.99864578 0.11204612
-0.034869127 -0.074372001 -0.080121562 -0.12076589 0.045088064 0.99165648 0.11252803
-0.025576299 -0.077349745 -0.080121562 -0.020126011 0.081780694 0.99644715 0.11131172
-0.01431844 -0.074923135 -0.080121562 0.042859595 -0.0041226307 0.99907261 0.11884441
-0.0032984901 -0.073815823 -0.080121562 -0.052136954 0.003409825 0.9986341 0.1092328
0.0031532445 -0.074663505 -0.080121562 -0.2052386 -0.00042032744 0.97871184 0.12999883
0.024658136 -0.07519234 -0.080121562 -0.093155786 -0.012411902 0.99557418 0.23403174
0.03499015 -0.077297814 -0.080121562 0.46984372 0.0048940089 0.88273603 0.18165083
0.046459332 -0.074014023 -0.080121562 0.18711862 -0.027581908 0.98195004 0.13097326
0.054330274 -0.075513668 -0.080121569 -0.00072395615 -0.043161046 0.9990679 0.11549398
0.064906485 -0.073381193 -0.080121569 0.025108177 -0.047864597 0.9985382 0.12552631
0.07543005 -0.075798027 -0.080121562 0.021419005 0.040965572 0.99893087 0.10603196
0.085024223 -0.074292272 -0.080121562 0.0071849474 -0.047251437 0.99885714 0.11726714
0.10891975 -0.073416442 -0.080121569 0.0159564 -0.080798015 0.99660283 0.11251003
0.11951632 -0.077256948 -0.080121562 -0.12800822 -0.032762174 0.9912318 0.11236415
0.12618376 -0.075509019 -0.080121562 -0.23362276 0.025855431 0.97198349 0.13515405
0.13565582 -0.072256498 -0.080121562 -0.4566136 0.17855525 0.87156302 0.19450988
0.14466119 -0.075056158 -0.080121569 -0.12723994 0.13467622 0.98268622 0.27732185
0.32723963 -0.077098839 -0.087349243 -0.3447704 0.086909518 0.93465507 0.10958263
0.33363733 -0.070732668 -0.081902243 -0.40045771 0.090570278 0.91182816 0.050709397
0.34155431 -0.077459089 -0.081477448 -0.16374542 0.1051064 0.98088741 0.10982097
0.35561255 -0.077754952 -0.080723129 -0.17982656 0.0086905183 0.98365992 0.09155944
0.36445802 -0.075726792 -0.080248505 -0.052800532 0.087603867 0.99475503 0.033472955
-0.43201554 -0.067468695 -0.080182888 0.13147053 3.364919e-05 0.99132007 1.3557718e-05
-0.42553696 -0.064218663 -0.081056975 0.13348842 -5.9740174e-05 0.99105042 0
-0.41490427 -0.06264931 -0.082491525 0.13359921 0.0014768537 0.99103439 5.6530939e-06
-0.40771142 -0.062776715 -0.083461978 0.19828582 -0.00038314526 0.98014414 0.005943127
-0.39553595 -0.064822644 -0.085104652 0.30181205 -0.011694839 0.95329577 0.011180982
-0.38595128 -0.067953505 -0.086397789 0.30119359 0.042778298 0.95260292 0.023949761
-0.21439855 -0.064564571 -0.080121562 0.99970949 -0.012477093 0.020623267 0.25347716
-0.20243172 -0.063571393 -0.080121562 0.46410471 0.029000882 0.88530546 0.18906799
-0.19657195 -0.063686341 -0.080121562 0.31374002 -0.075503007 0.94650227 0.13128828
-0.1835074 -0.060773347 -0.080121562 0.07785473 -0.05784839 0.99528503 0.11386295
-0.17936544 -0.064157113 -0.080121562 -0.01776438 -0.0034144525 0.99983639 0.1130386
-0.16564305 -0.062363669 -0.080121562 0.042201865 -0.050749581 0.9978193 0.10733088
-0.15311521 -0.068518616 -0.080121562 -0.032723647 -0.035130315 0.99884689 0.11517403
-0.14963442 -0.060617808 -0.080121562 -0.004027545 -0.055904903 0.99842793 0.10924422
-0.13175261 -0.067515716 -0.080121562 -0.085496791 0.090120293 0.99225438 0.118121
-0.1263134 -0.0633687 -0.080121569 0.038892001 0.025046522 0.9989295 0.11199328
-0.11576533 -0.065989174 -0.080121562 -0.085667826 0.089308031 0.99231303 0.1180964
-0.10266089 -0.068131983 -0.080121562 -0.28751102 0.058105998 0.95601314 0.16207404
-0.094896629 -0.06521605 -0.080121562 -0.48460448 -0.087410092 0.87035513 0.21288592
-0.084790327 -0.062578097 -0.080121562 0.29894063 0.00032608624 0.95427161 0.24768046
-0.076015294 -0.066775538 -0.080121562 0.42081431 -0.011820762 0.90706986 0.20182204
-0.065482974 -0.06436871 -0.080121562 0.30548054 -0.029396776 0.95174444 0.1328595
-0.046730455 -0.065381743 -0.080121562 -0.023810862 -0.066297829 0.99751574 0.12092952
-0.034832168 -0.069205739 -0.080121562 -0.069754526 0.0095390817 0.9975186 0.12151212
-0.023519304 -0.063059092 -0.080121562 -0.064228445 -0.062895745 0.99595118 0.10730837
-0.0142651 -0.067390814 -0.080121562 0.041605014 0.078487188 0.9960466 0.11282516
-0.0030842004 -0.064555682 -0.080121562 -0.083575614 -0.0066491859 0.99647927 0.12398074
0.0030292955 -0.064411163 -0.080121562 -0.18943207 -0.0063175284 0.98187351 0.1415222
0.017923998 -0.064112008 -0.080121562 -0.38207915 -0.10815037 0.91777939 0.20639943
0.025335284 -0.067327999 -0.080121562 -0.027170347 -0.019168422 0.99944699 0.24384044
0.034963515 -0.065217957 -0.080121562 0.31355646 0.052346587 0.94812566 0.21741849
0.047851264 -0.064280972 -0.080121562 0.23987395 0.035939705 0.97013861 0.13343355
0.055983327 -0.06614171 -0.080121562 -0.0042401948 0.093320481 0.99562705 0.1175245
0.064105228 -0.06445881 -0.080121562 0.011605161 -0.0346247 0.99933302 0.11357883
0.073216312 -0.066092156 -0.080121569 0.030885492 0.017786726 0.99936461 0.1128115
0.084896721 -0.063635573 -0.080121562 -0.0033940873 -0.034952719 0.99938315 0.1065847
0.096408673 -0.060497008 -0.080121562 -0.053212736 -0.068932183 0.99620116 0.10781495
0.10437115 -0.064672425 -0.080121562 -0.025937423 -0.075859182 0.99678117 0.1225386
0.11319562 -0.063253932 -0.080121562 0.0053905784 -0.030934842 0.99950689 0.12111599
0.12486288 -0.066061653 -0.080121562 -0.16368699 0.025173828 0.98619103 0.13093083
0.13473907 -0.065156393 -0.080121562 -0.39657944 -0.055085327 0.91634619 0.19786485
0.14367577 -0.067000404 -0.080121562 -0.73599184 0.4932082 0.46374741 0.26180625
0.32723963 -0.062016636 -0.089573301 -0.38323268 0.013823124 0.92354834 0.015044185
0.33636028 -0.066270806 -0.081756145 -0.32089049 0.011989253 0.94704038 0.017891336
0.34579542 -0.065681987 -0.081249885 -0.19649255 0.020921601 0.98028207 0.017168598
0.35455307 -0.066740721 -0.080779977 -0.10159916 0.052043941 0.99346316 0.0087594148
0.3639333 -0.066159718 -0.080276668 -0.05724638 0.01730207 0.99821013 0.0010010183
-0.43034527 -0.052654281 -0.080408245 0.13225359 -1.6980215e-05 0.99121588 4.1569233e-06
-0.42457554 -0.05470879 -0.081186697 0.13280024 9.5126285e-05 0.99114281 3.2090054e-06
-0.41497642 -0.055523545 -0.082481794 0.13367985 -3.995558e-06 0.99102455 0
-0.40354332 -0.055351533 -0.084024325 0.22431904 -0.00035933856 0.97451574 0.0087164072
-0.39675105 -0.052644335 -0.084940717 0.26997027 -0.012082791 0.96279281 0.010193341
-0.38454971 -0.052922726 -0.088973545 0.277448 -0.0075533479 0.96071094 0.012147648
-0.21056724 -0.052244008 -0.080121562 0.7096982 -0.059527624 0.70198643 0.2231347
-0.20635246 -0.052431114 -0.080121562 0.55661649 0.058624171 0.82869864 0.20756142
-0.19473472 -0.0557377 -0.080121562 0.15060076 -0.004829606 0.98858285 0.13912997
-0.18421012 -0.057409637 -0.080121562 0.079197817 0.0085656494 0.99682218 0.12446413
-0.17164767 -0.051235251 -0.080121562 -0.01095934 0.013951053 0.99984264 0.10975273
-0.16489287 -0.055037189 -0.080121562 -0.040493082 0.0156185 0.99905771 0.11560588
-0.15321156 -0.050796758 -0.080121562 -0.049849428 -0.038429126 0.99801713 0.10650397
-0.14539266 -0.056302279 -0.080121562 0.015204508 -0.01992137 0.99968582 0.11263222
-0.13561621 -0.057156898 -0.080121562 0.083531737 0.065483093 0.99435127 0.12196489
-0.12806188 -0.054875337 -0.080121562 0.039852913 0.041048057 0.99836206 0.11521289
-0.11635424 -0.05481302 -0.080121562 0.019978045 -0.0084785149 0.99976438 0.11148646
-0.10206085 -0.05083444 -0.080121562 -0.33240673 -0.032122578 0.94258898 0.1742954
-0.097327881 -0.059434026 -0.080121562 -0.38394594 0.049551629 0.92202502 0.23464714
-0.083937794 -0.053518578 -0.080121562 0.34749091 -0.089264147 0.93342483 0.24266271
-0.076207861 -0.053122796 -0.080121562 0.31535584 0.073150001 0.94614995 0.1714146
-0.061772376 -0.054062434 -0.080121562 0.039096527 -0.098601125 0.99435866 0.11122309
-0.056406617 -0.057509359 -0.080121562 0.0046966439 -0.012769575 0.99990743 0.1074741
-0.04747406 -0.053828422 -0.080121562 0.02599485 -0.062713854 0.997693 0.12123353
-0.034508616 -0.056897417 -0.080121569 -0.034758866 -0.01965107 0.99920255 0.11334097
-0.025778506 -0.056313932 -0.080121562 -0.02136907 0.039731037 0.99898189 0.10853942
-0.015216367 -0.054625612 -0.080121562 -0.034635492 0.028451189 0.99899495 0.11424762
-0.0067247995 -0.052842643 -0.080121562 0.0094671212 -0.058798663 0.99822497 0.11606873
0.0036332898 -0.053418845 -0.080121569 -0.12533154 -0.066966586 0.98985231 0.13971686
0.013705625 -0.052683592 -0.080121562 -0.29716563 0.04402845 0.95381033 0.1759944
0.026555797 -0.052957963 -0.080121562 0.043211237 -0.00094736874 0.99906552 0.20805755
0.035818178 -0.055432893 -0.080121562 0.29818407 0.24942726 0.92134267 0.16971339
0.045105021 -0.054492425 -0.080121569 0.30725425 0.041855834 0.95070654 0.14780669
0.059784681 -0.054081626 -0.080121562 -0.042052262 0.030232115 0.99865782 0.11781338
0.065624774 -0.056826845 -0.080121562 -0.072306365 0.029190537 0.99695522 0.11056997
0.071539149 -0.055919647 -0.080121562 -0.017594997 0.093869254 0.9954291 0.11593131
0.088413969 -0.059240736 -0.080121562 -0.0039166533 0.014059455 0.99989343 0.10521128
0.09448722 -0.057231467 -0.080121562 0.058697987 -0.047732696 0.99713397 0.12060183
0.10422126 -0.053322546 -0.080121562 0.0065300628 -0.063501686 0.99796039 0.11575901
0.11347064 -0.053733755 -0.080121562 -0.0091929203 0.016904587 0.99981481 0.11691087
0.12533118 -0.054153409 -0.080121562 -0.12588751 0.029978191 0.99159145 0.12606664
0.13352953 -0.055386558 -0.080121562 -0.3736057 -0.0062531056 0.92756641 0.18577908
0.1447973 -0.055832237 -0.080121562 -0.98960525 -0.13431026 -0.051402178 0.26416406
0.32723963 -0.055590637 -0.087203398 -0.36540982 0.013570874 0.93074781 0.015436874
0.33205447 -0.051792502 -0.081987187 -0.39082891 -0.029476682 0.91999125 0.017401109
0.34591469 -0.055977315 -0.081243478 -0.20230664 0.0098940413 0.97927225 0.014651418
0.35198554 -0.052882381 -0.080917746 -0.14269023 -0.014324088 0.98966372 0.0094646169
0.36322746 -0.05388521 -0.080314532 -0.053578041 8.2156902e-07 0.99856371 8.1494596e-07
-0.42388672 -0.043834552 -0.081279635 0.13334443 -3.3737069e-05 0.99106973 0
-0.41632581 -0.046252776 -0.082299732 0.13367966 -1.6521665e-06 0.99102455 3.7659734e-06
-0.40784159 -0.047219705 -0.083444409 0.19834168 0.0030329146 0.98012823 0.0066212555
-0.39467585 -0.047927741 -0.085220695 0.28708634 0.00052610203 0.95790458 0.01081165
-0.38622534 -0.045669656 -0.086936258 0.28847408 -0.016008848 0.95735383 0.010783148
-0.21444675 -0.046522491 -0.080121562 0.95452029 0.15185855 0.25657347 0.23718265
-0.20586014 -0.045893427 -0.080121562 0.53496683 -0.028884843 0.84437913 0.19073157
-0.19365728 -0.044585347 -0.080121562 0.072154388 -0.018873541 0.99721491 0.12876214
-0.18666172 -0.045318197 -0.080121562 0.046825878 0.033501882 0.99834114 0.12151392
-0.17582966 -0.043318242 -0.080121562 0.018381365 -0.036448598 0.99916649 0.13454345
-0.16482833 -0.045020975 -0.080121562 -0.018302308 0.030118175 0.9993788 0.1118214
-0.15561995 -0.045118716 -0.080121569 -0.085523725 -0.013633641 0.99624288 0.11406818
-0.14262895 -0.049154621 -0.080121562 0.1417439 0.08091341 0.98659092 0.10556316
-0.13201745 -0.046774812 -0.080121562 -0.0093801692 0.029424774 0.99952298 0.11679734
-0.12403915 -0.048886444 -0.080121562 -0.0088920332 0.0039997287 0.99995244 0.11114623
-0.1115105 -0.049052853 -0.080121562 -0.16942824 -0.10155658 0.98029602 0.125723
-0.10267761 -0.045679159 -0.080121562 -0.26607448 0.025213901 0.96362263 0.18360825
-0.096368134 -0.045468625 -0.080121562 -0.42968276 0.06521485 0.90062189 0.22121927
-0.084578924 -0.047057319 -0.080121562 0.29734534 0.038080469 0.95401031 0.21227059
-0.075068302 -0.041924052 -0.080121562 0.15345083 -0.24345277 0.95769703 0.15529881
-0.065056667 -0.041411214 -0.080121562 0.092771985 -0.25100976 0.96352869 0.14872384
-0.050768014 -0.049523562 -0.080121562 0.024412148 -0.051372107 0.99838114 0.11172119
-0.043766715 -0.042453162 -0.080121562 -0.1359178 -0.28468299 0.9489373 0.12999804
-0.033520371 -0.043998897 -0.080121562 -0.037564661 -0.29360631 0.95518798 0.12642586
-0.027106004 -0.044407945 -0.080121569 0.079319172 -0.224334 0.97127885 0.13283145
-0.014656562 -0.04533799 -0.080121562 -0.010159525 -0.15193956 0.98833758 0.12367848
-0.0043486319 -0.045685071 -0.080121562 0.028072806 -0.062067464 0.99767709 0.11110655
0.0046558781 -0.042131912 -0.080121562 -0.29252467 -0.22379085 0.92970264 0.15646185
0.01515172 -0.041863829 -0.080121562 -0.28745878 -0.18093887 0.94054699 0.19405898
0.034865413 -0.047460865 -0.080121562 0.48620936 0.18834831 0.8533026 0.17441955
0.049027599 -0.048230212 -0.080121562 0.20379375 0.047431339 0.97786421 0.13087425
0.066202492 -0.040032532 -0.080121562 -0.10377998 0.070927449 0.99206805 0.1148407
0.077781782 -0.042187616 -0.080121562 -0.098413318 0.036545929 0.99447435 0.11653014
0.08513952 -0.045141213 -0.080121562 -0.040879868 0.081421994 0.99584103 0.10707779
0.093101889 -0.045288619 -0.080121569 0.038374394 0.0018201255 0.9992618 0.11653755
0.10789736 -0.046794184 -0.080121562 0.0012985561 0.070153721 0.99753541 0.12022271
0.1151026 -0.045960706 -0.080121562 0.04569253 0.001064259 0.99895489 0.10884202
0.12364782 -0.042211957 -0.080121562 -0.16825503 0.078699231 0.98259687 0.12266066
0.13570738 -0.046208952 -0.080121562 -0.39161438 0.048978265 0.91882491 0.21242999
0.14344522 -0.049985159 -0.080121562 -0.85066152 0.007012547 0.52566707 0.2721898
0.32800364 -0.042023253 -0.085598387 -0.36928782 -0.0019786672 0.92931294 0.017627627
0.34535295 -0.045932095 -0.081273623 -0.23919643 -0.018702859 0.9707911 0.020102374
0.35224944 -0.042929865 -0.080903582 -0.10116563 -0.0012778305 0.99486881 0.0024993047
0.36403599 -0.046879858 -0.080271155 -0.053549748 -5.6333129e-06 0.9985652 5.9035306e-06
-0.43036091 -0.033277266 -0.080406137 0.12962055 0.00049949007 0.99156356 1.3424327e-05
-0.42568064 -0.031854931 -0.081037596 0.13163897 -0.00010823603 0.99129772 0
-0.41634217 -0.035969593 -0.082297519 0.13375136 1.5440332e-06 0.9910149 0
-0.4053719 -0.035527356 -0.083777606 0.21271329 -0.0071185688 0.97708875 0.0063817464
-0.39401516 -0.034244798 -0.085309833 0.30307293 -0.0062153577 0.95294714 0.010470401
-0.38641679 -0.036412165 -0.086951122 0.30338451 0.0085761072 0.95282966 0.01078883
-0.21510383 -0.030351907 -0.080121562 0.91209245 -0.10428126 0.39650068 0.25235924
-0.20116314 -0.037402805 -0.080121562 0.39815205 0.082495086 0.91360253 0.17187259
-0.19532099 -0.034909409 -0.080121562 0.20231552 0.063220963 0.97727764 0.13532618
-0.18380512 -0.03167288 -0.080121562 0.01990479 -0.04648383 0.99872071 0.11389032
-0.17775682 -0.037451759 -0.080121562 0.0094614252 0.080100358 0.99674189 0.12021326
-0.16514497 -0.034099225 -0.080121569 -0.092023678 -0.023219803 0.99548608 0.11750262
-0.15726601 -0.03394961 -0.080121562 0.033305913 -0.017496087 0.99929202 0.10804964
-0.14283727 -0.035229184 -0.080121562 0.039406657 0.071466677 0.99666423 0.11045738
-0.13798718 -0.035192139 -0.080121562 0.12095628 0.087537743 0.98879051 0.10064616
-0.12713517 -0.03528497 -0.080121562 0.023388699 0.083963081 0.9961943 0.10853799
-0.10411398 -0.037446283 -0.080121562 -0.22456047 -0.066082425 0.97221696 0.1712942
-0.094264887 -0.036399171 -0.080121569 -0.36775577 -0.041822284 0.92898154 0.22007804
-0.076678418 -0.035495844 -0.080121562 0.20050131 -0.14876772 0.96833223 0.1757122
-0.067027912 -0.033993721 -0.080121562 0.16279025 -0.24076971 0.95683289 0.17118339
-0.052573729 -0.033398319 -0.080121562 -0.096798874 -0.32019082 0.94239473 0.17327376
-0.044934195 -0.032908004 -0.080121562 0.022779418 -0.34440443 0.93854505 0.18425132
-0.035830166 -0.037613995 -0.080121562 0.0035557421 -0.18925384 0.98192173 0.15081555
-0.014265907 -0.035592817 -0.080121562 0.11655441 -0.40474689 0.90697026 0.16154325
-0.0066931029 -0.034461737 -0.080121562 0.013695302 -0.46081823 0.88738883 0.15541193
0.0045444169 -0.03485468 -0.080121562 -0.15921798 -0.40461034 0.90052217 0.18042067
0.013047418 -0.031413138 -0.080121562 -0.19677263 -0.31773278 0.9275378 0.23979084
0.021792296 -0.03880674 -0.080121562 -0.13848877 -0.14365648 0.97988963 0.20140181
0.033012394 -0.032742381 -0.080121562 0.46163121 -0.030881811 0.88653421 0.20015825
0.043712392 -0.036665808 -0.080121569 0.39123031 0.11982276 0.91245896 0.13801551
0.064975485 -0.034477808 -0.080121562 -0.060235903 0.014952911 0.99807221 0.11911916
0.074429303 -0.037491012 -0.080121562 -0.12282136 0.12284975 0.98479587 0.11518321
0.086965494 -0.036350679 -0.080121562 -0.005788553 0.066274673 0.99778455 0.11563548
0.093718484 -0.037189357 -0.080121562 -0.010477748 0.10941706 0.99394065 0.10379256
0.10678174 -0.033634253 -0.080121562 0.035995223 -0.0896492 0.9953227 0.10950619
0.11955704 -0.03809068 -0.080121562 -0.021966549 0.033795353 0.99918735 0.11792386
0.12492551 -0.033276115 -0.080121562 -0.22498259 0.062659211 0.97234595 0.13827203
0.13487059 -0.033332329 -0.080121562 -0.36606833 0.036321778 0.92987889 0.20418243
0.1441443 -0.033061679 -0.080121562 -0.71373868 0.23300545 -0.66051912 0.28833768
0.32723963 -0.034245741 -0.085702755 -0.38888288 -0.04561267 0.92015731 0.017776214
0.33504146 -0.034314319 -0.08182691 -0.35645136 -0.036645643 0.933595 0.020177044
0.34367383 -0.036102109 -0.081363723 -0.2404608 -0.023075737 0.97038454 0.021879306
0.35678989 -0.036266141 -0.080659956 -0.069145076 -0.0032500064 0.99760139 0.00091804011
0.36285156 -0.037669491 -0.080334708 -0.053619709 9.5811731e-07 0.99856144 0
-0.43271756 -0.020683974 -0.080088168 0.1280864 0.00012771798 0.991763 1.3194316e-05
-0.42869246 -0.021004768 -0.080631241 0.12927444 0.00010031905 0.99160886 1.1977304e-05
-0.41130561 -0.021002833 -0.082977049 0.15942813 0.00040405037 0.98720944 0.0017853737
-0.40021157 -0.029586494 -0.084473833 0.24885233 -0.0013778605 0.96854049 0.0086515062
-0.39518684 -0.025512267 -0.085151754 0.29190323 -0.0096808029 0.95639884 0.009961741
-0.38481832 -0.029942717 -0.086550653 0.29938522 0.00090329646 0.9541319 0.010101371
-0.21421158 -0.026541715 -0.080121562 0.92504543 0.13744229 0.35411936 0.22706078
-0.20881686 -0.023817856 -0.080121562 0.7097314 0.081518672 0.69973999 0.22209811
-0.19653022 -0.021453677 -0.080121562 0.28286105 -0.075600035 0.95617688 0.12977253
-0.18607293 -0.027671853 -0.080121569 0.021031862 0.066138156 0.99758881 0.11019154
-0.17802759 -0.024403207 -0.080121562 0.013324943 -0.058398724 0.99820447 0.11579296
-0.16588756 -0.027910152 -0.080121562 -0.14610571 0.036558557 0.98859322 0.11169703
-0.15286517 -0.021047749 -0.080121562 -0.048085384 0.10889679 0.99288934 0.10460159
-0.14438692 -0.022898532 -0.080121562 0.07038568 0.038285278 0.99678487 0.11880314
-0.1253569 -0.023576561 -0.080121562 -0.0031193311 -0.052116849 0.99863613 0.11751461
-0.11141984 -0.026155651 -0.080121562 -0.30638754 0.070581339 0.94928652 0.16592535
-0.10461231 -0.029469119 -0.080121562 -0.43904209 -0.10066072 0.89280981 0.19342394
-0.096130729 -0.02094518 -0.080121562 -0.2548894 0.12539095 0.95880574 0.23439538
-0.080323897 -0.024551425 -0.080121562 0.30024117 0.031555865 0.95334119 0.22095546
-0.077710122 -0.025108315 -0.080121562 0.24584047 -0.0030276501 0.96930552 0.22875921
-0.068194255 -0.026137464 -0.080121562 0.078162983 -0.22745831 0.97064584 0.20295511
-0.053744733 -0.026924366 -0.080121562 -0.058095913 -0.23777053 0.96958238 0.2155377
-0.047801562 -0.021757804 -0.080121562 0.040559325 -0.34046668 0.93938136 0.26690647
-0.03558642 -0.028357387 -0.080121562 0.015519926 -0.24035347 0.97056133 0.24568483
-0.02445291 -0.025494438 -0.080121562 -0.039066464 -0.42301282 0.90528113 0.22660483
-0.015364952 -0.025552038 -0.080121562 -0.10758781 -0.33784685 0.93503177 0.22405297
-0.0038259709 -0.025195047 -0.080121562 -0.024316378 -0.3937622 0.91889066 0.21810025
0.0060006366 -0.027573312 -0.080121562 -0.077690221 -0.28407544 0.9556492 0.2260246
0.015107444 -0.025783658 -0.080121562 0.23479578 -0.025717881 0.97170448 0.27118862
0.023510588 -0.023812329 -0.080121562 0.26401329 0.030692082 0.96403056 0.24002337
0.033275779 -0.024036938 -0.080121562 0.36529195 -0.010320325 0.93083578 0.18821959
0.045232456 -0.025148246 -0.080121562 0.28014535 0.10359534 0.95435143 0.15139164
0.061733756 -0.024919728 -0.080121562 0.021631593 -0.046225671 0.99869686 0.11401821
0.072105147 -0.025053456 -0.080121562 -0.056113373 -0.061321389 0.99653947 0.11679839
0.085365146 -0.023965446 -0.080121569 0.03045138 -0.037732728 0.99882382 0.11977466
0.09355665 -0.025260998 -0.080121569 -0.029757876 0.040491536 0.99873662 0.12165499
0.10420638 -0.024078468 -0.080121562 0.046651721 0.0041335621 0.99890256 0.11442269
0.11929177 -0.027665511 -0.080121562 0.0089652436 0.043985501 0.99899197 0.11789656
0.12700774 -0.024327952 -0.080121562 -0.25289077 0.065291725 0.96528924 0.13833189
0.13667457 -0.02675245 -0.080121562 -0.65046793 0.32605064 0.68599021 0.21112914
0.14607374 -0.024120187 -0.080121562 -0.90181893 0.35678583 0.24377564 0.28928897
0.32850376 -0.024263976 -0.083847441 -0.37670305 0.007671291 0.92630225 0.020747533
0.33396497 -0.024901019 -0.081884675 -0.35577759 -0.010409703 0.93451267 0.023483125
0.34283301 -0.02718243 -0.081408836 -0.22897986 -0.016756406 0.97328693 0.022319958
0.35547787 -0.023019848 -0.080730349 -0.063765965 0.00042739208 0.9979648 0.00021422678
0.36328253 -0.023705963 -0.080311581 -0.053587049 7.4261015e-07 0.99856323 0
-0.43242913 -0.014726281 -0.080127083 0.12847263 -0.00097426743 0.99171257 2.14969e-05
-0.42366898 -0.014482876 -0.081309006 0.13367195 -1.5873621e-06 0.99102569 0
-0.41658306 -0.015038999 -0.082265019 0.13374662 3.8159587e-06 0.99101561 0
-0.40523976 -0.013124667 -0.083795443 0.2019753 0.00074139814 0.97939038 0.006612835
-0.3912743 -0.013103281 -0.085679621 0.30474979 0.0099422941 0.95238054 0.011589223
-0.38454971 -0.016617287 -0.088764131 0.28273153 0.026563084 0.95883119 0.010452338
-0.2134243 -0.015165299 -0.080121562 0.92276257 -0.043526288 0.38290301 0.26036033
-0.20641521 -0.013687611 -0.080121562 0.41133389 -0.077654935 0.90817076 0.2034232
-0.18747133 -0.01998733 -0.080121562 0.070787475 0.005235584 0.99747771 0.10646079
-0.17553043 -0.012757018 -0.080121562 -0.022885682 -0.0083205029 0.99970353 0.11128359
-0.16382709 -0.017147841 -0.080121562 -0.027791351 0.086559951 0.99585897 0.1181913
-0.15661764 -0.013598554 -0.080121562 0.033876888 -0.044351555 0.9984414 0.13019115
-0.14781207 -0.017923115 -0.080121562 -0.0083376924 -0.0050912201 0.99995232 0.12460055
-0.1356813 -0.014537858 -0.080121562 0.037449941 -0.086104997 0.99558192 0.11493779
-0.12447174 -0.015550935 -0.080121562 0.044584606 0.017464846 0.99885291 0.12013139
-0.11100984 -0.012143325 -0.080121562 -0.170298 0.091811128 0.98110616 0.14964174
-0.10524259 -0.013833058 -0.080121569 -0.23140299 0.34718737 0.90879792 0.18387489
-0.09399192 -0.016410816 -0.080121562 -0.34523907 0.37019745 0.8624174 0.23043863
-0.081510283 -0.015153429 -0.080121562 0.16944955 0.49176359 0.85408157 0.23025303
-0.077477224 -0.016443953 -0.080121562 0.016098779 0.34880844 0.93705577 0.2346143
-0.068174601 -0.011468088 -0.080121562 -0.098059908 0.28005049 0.95496392 0.18982229
-0.057441682 -0.015668621 -0.080121562 -0.044723559 0.36296108 0.93073046 0.24855855
-0.044534057 -0.015512911 -0.080121562 -0.040426031 0.20921937 0.97703278 0.23069197
-0.034924064 -0.012547594 -0.080121562 -0.044065818 0.28083602 0.95874363 0.23496249
-0.026654596 -0.014486477 -0.080121562 -0.062595084 0.1908104 0.97962916 0.22929636
-0.014410442 -0.016928608 -0.080121562 -0.1403034 0.096719399 0.9853732 0.24893013
-0.0061371466 -0.011728787 -0.080121562 -0.013256801 0.20972763 0.97767001 0.20892198
0.0020044278 -0.019194275 -0.080121554 0.13621776 0.0019012883 0.99067712 0.2303931
0.016211668 -0.014552847 -0.080121562 0.12208582 0.37368545 0.91948587 0.23144579
0.027170302 -0.014900583 -0.080121562 0.24764699 0.27074167 0.93025267 0.23061533
0.035457324 -0.012589226 -0.080121562 0.36176008 0.17818417 0.91508472 0.17564879
0.044653416 -0.016644176 -0.080121562 0.25198793 0.03874068 0.96695465 0.14959465
0.05073753 -0.013769946 -0.080121562 0.11278806 -0.012800686 0.99353665 0.13095289
0.075922266 -0.012375674 -0.080121562 -0.051437914 -0.021530749 0.99844408 0.11420041
0.084678024 -0.016015442 -0.080121562 0.025261207 0.054652665 0.99818581 0.12200019
0.098077975 -0.015346453 -0.080121562 -0.039746732 -0.096729472 0.99451679 0.12113877
0.10250768 -0.010051497 -0.080121562 0.057649288 -0.0047511458 0.99832559 0.11758688
0.11765052 -0.016736286 -0.080121569 -0.069461718 -0.08332707 0.99409837 0.10642605
0.12477925 -0.011854634 -0.080121562 -0.047152866 -0.027229782 0.9985165 0.11217034
0.14497791 -0.019496493 -0.080121562 -0.59152406 0.34647346 -0.72804904 0.29186365
0.32847995 -0.011131356 -0.083098948 -0.37336707 -0.026436061 0.92730695 0.020389108
0.33539805 -0.013434101 -0.081807785 -0.35442844 0.0024388477 0.93507993 0.023503395
0.34511352 -0.011484939 -0.081286475 -0.21530518 0.016800674 0.97640234 0.021767717
0.35684133 -0.016381873 -0.080657192 -0.061617896 -0.00089541328 0.99809939 0.00019672875
0.36792397 -0.015394568 -0.080062531 -0.053541217 -1.9332805e-07 0.99856561 2.3685984e-06
-0.43235058 -0.0062645413 -0.080137685 0.12506835 0.00037475297 0.99214804 6.8891954e-05
-0.42519212 -0.0048644408 -0.081103504 0.13274881 0.00011664753 0.99114966 0
-0.41515628 -0.0075103641 -0.08245752 0.13544476 0.00019396072 0.99078482 1.2719323e-05
-0.40529022 -0.0039645042 -0.083788633 0.21065909 0.0056460639 0.97754329 0.0077196355
-0.3977465 -0.0064116046 -0.084806412 0.26326779 0.024231283 0.96441841 0.010309938
-0.38608608 -0.0082941083 -0.086780459 0.3006703 0.011499147 0.95365882 0.011333254
-0.21374303 -0.0097697275 -0.080121562 0.47555131 0.25630409 0.84152192 0.29617471
-0.20068371 -0.0080670118 -0.080121562 0.22580124 0.051180005 0.97282803 0.15115403
-0.19273946 -0.0043085357 -0.080121562 0.12779076 0.015105871 0.99168611 0.12590255
-0.18494478 -0.0044425777 -0.080121562 -0.033945259 -0.045926247 0.99836797 0.11663804
-0.17934391 -0.0034220479 -0.080121562 0.035970841 -0.0012766101 0.99935204 0.11333045
-0.16159979 -0.0088449195 -0.080121562 0.00016797628 -0.016592789 0.99986237 0.11926112
-0.15462038 -0.0037218165 -0.080121562 -0.047222774 -0.087161399 0.99507433 0.12110067
-0.14902586 -0.0070202146 -0.080121562 -0.038064044 -0.026694246 0.99891877 0.1190773
-0.13249715 -0.0042106844 -0.080121562 0.09656176 -0.034202151 0.99473917 0.11527967
-0.12514451 -0.0068136505 -0.080121569 0.057274431 0.030245403 0.99790019 0.12066682
-0.11581728 -0.0067864079 -0.080121562 -0.10990807 0.016391147 0.9938066 0.13183241
-0.095595054 -0.0035590872 -0.080121569 -0.10586998 0.045160748 0.99335396 0.15822186
-0.081102252 -0.0085932929 -0.080121562 -0.00059365248 0.30187294 0.95334798 0.17573223
-0.079240516 -0.0036647781 -0.080121562 -0.00266439 -0.006250706 0.99997687 0.19106174
-0.063839607 -0.0029649951 -0.080121562 -0.065704763 0.040027596 0.99703592 0.17609872
-0.053675428 -0.0043580257 -0.080121562 -0.11839112 0.11812696 0.9859156 0.17021017
-0.043733627 -0.0038286082 -0.080121569 0.029387908 0.14674379 0.98873794 0.20306864
-0.034529123 -0.0053546294 -0.080121562 -0.052979361 0.043678306 0.99763989 0.18404354
-0.027649481 -0.0067269858 -0.080121562 -0.10359 0.24700388 0.96346152 0.1875599
-0.01724809 -0.0042018131 -0.080121562 0.05695283 0.23455948 0.97043192 0.18754491
-0.0062050056 -0.0063515324 -0.080121562 -0.044364095 0.30466402 0.95142615 0.16721335
0.0057479101 -0.0058286609 -0.080121562 0.052242972 0.22656485 0.97259396 0.15669732
0.013900824 -0.0030911344 -0.080121562 0.14158973 -0.020672934 0.98970956 0.15841012
0.022079293 -0.0031721864 -0.080121562 0.15444838 -0.049725551 0.98674875 0.13912885
0.033021811 -0.0050446368 -0.080121562 0.25294197 0.057633452 0.96576327 0.13739957
0.045599848 -0.0053103664 -0.080121562 0.13611448 0.031347312 0.99019706 0.13209338
0.054474019 -0.0051049469 -0.080121562 0.0037576288 -0.045329299 0.99896497 0.11909756
0.065474331 -0.0078683654 -0.080121562 -0.0071211085 -0.0091451341 0.99993283 0.12473097
0.071272478 -0.0048000216 -0.080121562 0.039996807 -0.051851768 0.99785352 0.12222607
0.085772663 -0.0060459403 -0.080121562 -0.1837166 -0.06305737 0.98095465 0.1245563
0.095849939 -0.0057099182 -0.080121562 -0.045731958 -0.00068730669 0.99895358 0.11942208
0.10482721 -0.0040945928 -0.080121562 0.01930299 -0.078227237 0.99674875 0.10560749
0.11381242 -0.0023437671 -0.080121562 0.049931046 -0.017374998 0.9986015 0.11912204
0.1334016 -0.008759249 -0.080121562 -0.36299005 0.07048656 0.92912316 0.19440506
0.14547853 -0.0062794434 -0.080110826 -0.99335349 -0.030804269 0.11090532 0.21626805
0.3275843 -0.0033642568 -0.084478281 -0.41383821 0.0040866728 0.91034126 0.020792028
0.33502743 -0.0057795444 -0.081827655 -0.37922189 0.0048119589 0.92529315 0.025482617
0.34688339 -0.0060621919 -0.081191503 -0.18559696 0.0041963723 0.98261702 0.019394437
0.35179275 -0.0061030318 -0.080928087 -0.11756992 0.017773375 0.9929055 0.0080499006
-0.42349163 0.0060212696 -0.081332937 0.13365626 -4.3111768e-06 0.99102771 3.6545503e-06
-0.41796944 0.0010191016 -0.08207798 0.13371933 -2.4136821e-06 0.99101925 0
-0.39482355 0.0056632333 -0.085200764 0.29404649 0.024599126 0.95547456 0.012022237
-0.38664669 0.0016885991 -0.086303972 0.30878863 0.015021664 0.95101207 0.011525534
-0.21534166 0.0010417625 -0.080121562 0.94806552 0.095389664 0.30343485 0.26465839
-0.20215723 0.0057583293 -0.080121562 0.36863482 0.0092313625 0.92952847 0.18986399
-0.19593528 0.0065171109 -0.080121562 0.20527472 0.049382947 0.97745776 0.13068967
-0.1863488 0.0030382487 -0.080121562 -0.024377001 0.047358721 0.99858052 0.12568249
-0.17144234 0.0039613433 -0.080121562 -0.030326629 -0.042741701 0.99862576 0.11633546
-0.16350733 0.0015749019 -0.080121562 0.053596217 0.01602211 0.99843413 0.12083675
-0.15471755 0.0043122456 -0.080121562 -0.027196944 0.026244426 0.99928552 0.12083176
-0.14754057 0.0080545396 -0.080121562 0.040421017 0.011079206 0.99912119 0.11786112
-0.13216783 0.0047514807 -0.080121562 -0.039461587 0.0053250804 0.99920696 0.12068997
-0.12445319 0.0051391111 -0.080121569 0.037815221 -0.041645516 0.9984166 0.11643655
-0.1069071 0.004014248 -0.080121562 -0.092376254 -0.10762043 0.98989105 0.13986708
-0.092996761 0.0062049516 -0.080121562 0.018770674 -0.25942904 0.96557975 0.18131894
-0.084929273 0.0017283668 -0.080121562 -0.03572553 0.014422845 0.99925756 0.19024296
-0.078446984 0.0054559619 -0.080121562 -0.049408667 -0.20482431 0.97755092 0.18275677
-0.060690328 0.0080240155 -0.080121562 -0.15621322 -0.23072048 0.96039855 0.20390023
-0.055513117 0.0038444039 -0.080121562 0.010196605 0.02072987 0.99973315 0.18252802
-0.043801222 0.0062857335 -0.080121562 -0.1332676 -0.19244097 0.97221714 0.19221652
-0.03404225 0.0054080705 -0.080121562 -0.27209035 -0.19832559 0.9416123 0.22576213
-0.02908474 0.0035442023 -0.080121562 9.6958538e-05 -0.092191383 0.99574131 0.19414455
-0.014356614 0.005239808 -0.080121562 -0.079605065 -0.076415651 0.99389321 0.18497661
-0.0032561321 0.0029854628 -0.080121562 0.0001544461 -0.011613251 0.99993259 0.17838195
0.00207598 0.0090464149 -0.080121562 -0.00061280816 -0.39951062 0.91672838 0.20801924
0.017613593 0.0091218231 -0.080121562 -0.091627486 -0.26422733 0.96009809 0.19028766
0.024410797 0.0043227552 -0.080121569 0.12204428 -0.05269435 0.99112481 0.17168958
0.033485018 0.0036496557 -0.080121562 0.14194159 -0.0059180558 0.98985738 0.12715161
0.043820951 0.0039585503 -0.080121562 0.15802832 -0.094932206 0.98286051 0.11446586
0.056440141 0.0031265616 -0.080121562 0.04153043 0.034874175 0.99852848 0.12242755
0.063400418 0.0053882636 -0.080121562 0.04542866 -0.027406408 0.99859154 0.12389929
0.077680662 0.0024517551 -0.080121562 -0.10252301 0.0067915674 0.99470747 0.10962782
0.08110863 0.0051997118 -0.080121562 -0.028384542 -0.017478406 0.99944431 0.11177662
0.0940971 0.002424937 -0.080121562 -0.025893927 0.059340615 0.99790192 0.12254883
0.10428748 0.0061526485 -0.080121562 0.021129703 -0.015291577 0.99965978 0.11778849
0.11599448 0.0030712225 -0.080121562 0.03452206 -0.030396642 0.99894166 0.1183053
0.12994823 0.0091259703 -0.080121562 -0.23877114 0.028351258 0.97066194 0.16964796
0.13422132 0.0038317032 -0.080121569 -0.5586639 -0.0065531414 0.82936823 0.1937114
0.14401793 0.0048151943 -0.080121569 -0.94686365 -0.19233893 0.25778857 0.25101456
0.32723963 0.003031193 -0.086889356 -0.40245044 0.0082190121 0.91540492 0.02031344
0.33540189 0.0034487238 -0.081807569 -0.36659986 0.034203526 0.92974979 0.02180236
0.34420031 0.0059932265 -0.081335478 -0.2331291 0.012806966 0.97236145 0.021323673
0.35661706 0.0047178692 -0.080669224 -0.053556819 -1.1650143e-06 0.99856478 0
0.36594567 0.0037253399 -0.080168687 -0.053540692 -1.7945213e-06 0.99856567 5.3799276e-06
-0.43089035 0.010464497 -0.080334701 0.12836456 -0.00032809257 0.99172699 2.7341048e-05
-0.42618036 0.0168355 -0.080970168 0.13371818 -2.8249536e-07 0.99101937 0
-0.41206443 0.014050316 -0.082874671 0.13371126 -1.9548743e-08 0.99102032 0
-0.40449277 0.015797634 -0.083896227 0.22833832 0.00090767775 0.97358143 0.0085032675
-0.39292002 0.01288867 -0.085457586 0.31411359 0.015995121 0.94925064 0.011278784
-0.38723022 0.015050278 -0.086225241 0.30816871 -0.0036917785 0.95132452 0.011273937
-0.21523651 0.014187012 -0.080121562 0.96657634 0.11178621 0.23072492 0.20774616
-0.20834592 0.014706926 -0.080121562 0.53898686 0.041287541 0.84130168 0.21402559
-0.19473514 0.015946912 -0.080121562 0.15241237 -0.071639404 0.98571718 0.13944307
-0.18389601 0.015157995 -0.080121569 0.015527082 0.007911195 0.99984813 0.11709043
-0.17592518 0.014811593 -0.080121562 -0.02200566 0.034947701 0.99914688 0.11053844
-0.1666925 0.018521139 -0.080121562 0.041003164 -0.029747266 0.99871612 0.10999636
-0.15138182 0.014642069 -0.080121562 -0.067625195 0.010234511 0.99765837 0.11198698
-0.14884308 0.018293958 -0.080121562 0.022415562 0.0041472814 0.99974012 0.10844395
-0.13580267 0.015109198 -0.080121562 0.00060559227 0.0062069925 0.99998051 0.12289545
-0.12547754 0.012866603 -0.080121562 -0.0088369651 0.0049630413 0.99994862 0.1146332
-0.11717132 0.015195975 -0.080121562 -0.19734025 -0.13312367 0.97125429 0.12599427
-0.10292187 0.019124977 -0.080121562 -0.27609521 -0.2206451 0.93546093 0.16421892
-0.096293248 0.016011762 -0.080121562 -0.27229327 -0.49010122 0.82804418 0.20331547
-0.088848606 0.018953696 -0.080121562 -0.086302958 -0.42121175 0.90284687 0.24115986
-0.073403679 0.014272247 -0.080121562 -0.018395994 -0.41801715 0.90825284 0.2275569
-0.064974785 0.014429328 -0.080121569 -0.013157544 -0.42370787 0.90570325 0.22732781
-0.051959686 0.011542181 -0.080121562 -0.086872414 -0.36540923 0.92678446 0.2049803
-0.045296576 0.015309301 -0.080121569 -0.007680797 -0.7187171 0.69526011 0.25821209
-0.035622165 0.014429615 -0.080121562 -0.055365317 -0.21601187 0.97481978 0.24686736
-0.024783969 0.017357741 -0.080121562 -0.079089336 -0.13013916 0.98833632 0.25058615
-0.014230932 0.012356768 -0.080121562 0.060863744 -0.37202287 0.92622596 0.22907439
-0.0058528883 0.016827565 -0.080121562 -0.046368334 -0.17722993 0.98307663 0.24750316
0.0071924292 0.014580576 -0.080121562 -0.07906086 -0.38860556 0.918006 0.23146503
0.013630836 0.014567339 -0.080121562 0.0094922949 -0.32851195 0.94445211 0.20808233
0.024225352 0.01539164 -0.080121562 0.18397316 -0.30005413 0.93601358 0.19860965
0.035518274 0.0165231 -0.080121562 0.18448523 -0.13920252 0.97292751 0.15030338
0.041429084 0.017007988 -0.080121562 0.20275848 -0.11639456 0.9722867 0.106079
0.057588074 0.01525341 -0.080121562 -0.032284517 -0.027901525 0.99908912 0.12104758
0.0642111 0.015017554 -0.080121562 0.048501167 -0.016204316 0.99869168 0.11672492
