# .PCD v0.7 - Point Cloud Data file format
VERSION 0.7
FIELDS x y z normal_x normal_y normal_z curvature
SIZE 4 4 4 4 4 4 4
TYPE F F F F F F F
COUNT 1 1 1 1 1 1 1
WIDTH 569
HEIGHT 1
VIEWPOINT 0 0 0 1 0 0 0
POINTS 569
DATA ascii
0.25259325 0.12818891 -0.014505771 -0.15939976 -0.31889883 0.93428868 0.13350178
0.26838595 0.12818891 -0.013618886 -0.035315555 -0.64541423 -0.76301593 0.14452553
0.27277654 0.12818891 -0.01680544 0.059542995 -0.45249912 -0.8897748 0.11609027
0.28115898 0.12818891 -0.015466595 -0.0093351007 -0.17611365 -0.98432559 0.1357795
0.29850021 0.12818891 -0.017356817 0.26610637 -0.79527378 0.54472643 0.15547381
0.47734198 0.12536678 -0.013970166 -0.97218555 -0.066726103 -0.22450595 0.044959005
-0.45453912 0.13165887 -0.017757362 0.56150633 -0.3213661 -0.76251847 0.083870567
-0.44902164 0.1337951 -0.011880687 0.54828483 -0.32214367 -0.77175593 0.09785407
-0.43006915 0.13708735 -0.016815189 0.29752147 -0.11551753 -0.94770074 0.15570158
-0.41485864 0.13242009 -0.018311162 0.14813532 0.16666439 -0.97482246 0.17831507
-0.40973809 0.1379934 -0.017687969 0.17473364 0.28008097 -0.94394004 0.18062566
-0.34299654 0.13916302 -0.012719497 0.2676774 0.48952848 -0.82988596 0.17876232
-0.33539972 0.13712746 -0.014223086 -0.22495909 -0.51694703 0.82592934 0.13886805
-0.31134531 0.1306821 -0.014488423 -0.1882493 -0.843427 0.50318307 0.1649815
-0.30572048 0.13329959 -0.011767982 0.23833236 -0.46497336 0.8526414 0.19037747
-0.2980223 0.13572462 -0.013691384 0.32463619 -0.40201259 0.85615259 0.13524759
0.24670395 0.13395697 -0.01568391 -0.24352573 -0.029465633 0.96944684 0.15970092
0.25438851 0.13354668 -0.013452342 -0.11891548 -0.056897923 0.99127281 0.14900856
0.28539276 0.13508001 -0.011470182 0.019447055 -0.0043124068 0.99980158 0.16764538
0.29483828 0.13553031 -0.014097473 -0.36320686 0.28549436 -0.88688999 0.14864512
0.47643059 0.13434154 -0.012009207 -0.92991924 -0.16158882 -0.3303622 0.043283828
0.48766389 0.13797566 -0.017053703 -0.90872878 -0.16049705 -0.38529554 0.036806338
-0.44589478 0.14459896 -0.014426493 0.54883599 -0.34458688 -0.76160294 0.097512722
-0.42436773 0.14544471 -0.016184051 0.52930838 -0.15473959 -0.83419913 0.16196246
-0.41539901 0.14727756 -0.016348951 0.73445445 -0.13316999 -0.66546404 0.18113796
-0.40851453 0.14527909 -0.015790025 0.47951755 0.10920957 -0.87071019 0.1694202
-0.36062607 0.14418261 -0.018172598 0.50788325 -0.32057241 -0.79955488 0.17551376
-0.35697898 0.1429096 -0.017018478 0.51698792 0.12062881 -0.84745038 0.17637089
-0.3468864 0.1463705 -0.012134776 0.2471105 0.14827675 -0.95757526 0.17095408
-0.30447167 0.14899132 -0.010961391 0.27845344 -0.11578719 0.95344484 0.14799924
-0.29454774 0.14621174 -0.013872734 0.41819549 -0.22977152 0.87881607 0.11917289
0.24624629 0.14904521 -0.015787397 -0.0068839523 -0.20548001 0.97863716 0.15203954
0.26320049 0.14734432 -0.011227993 -0.11788962 -0.051167633 0.99170756 0.17256118
0.29653856 0.14558126 -0.014577828 -0.22564007 0.20448725 -0.95250797 0.15020753
0.30151248 0.14921197 -0.015983006 -0.40127736 0.1584232 -0.90215218 0.15743645
0.47732335 0.14765361 -0.011551068 -0.79816973 -0.46598479 -0.38181567 0.052114125
0.48155293 0.14486697 -0.012578705 -0.88907057 -0.29606614 -0.34913951 0.055733524
-0.44299582 0.15245695 -0.01927837 0.57105124 -0.45021135 -0.68644756 0.083354272
-0.42358333 0.15432394 -0.01673758 0.57421297 -0.36577925 -0.73245144 0.14302751
-0.419577 0.15249427 -0.01578657 0.64817679 -0.28761134 -0.70508623 0.16288248
-0.40719366 0.15014964 -0.010717155 0.89399374 -0.14347675 -0.42448753 0.18791085
-0.35510781 0.15323116 -0.016363267 0.50006551 0.092189126 -0.86106658 0.14761712
-0.3421039 0.15442958 -0.011492509 0.28925437 -0.067745462 -0.95485204 0.13150969
-0.33742779 0.1591146 -0.010654924 0.22639719 0.32546049 -0.9180522 0.21240216
-0.29530901 0.15868837 -0.012752717 0.33925098 -0.32133627 0.88411075 0.20256712
-0.28785023 0.15755358 -0.015976127 0.54785287 0.039008319 0.83566475 0.17549744
0.23970437 0.15084605 -0.019447209 -0.31877348 -0.25396678 0.9131726 0.16930626
0.24526401 0.1522762 -0.016384408 0.10955251 -0.33117613 0.93718761 0.16606556
0.25463587 0.1552546 -0.01338964 0.29602855 -0.42250648 0.85665363 0.21297704
0.26304004 0.15772419 -0.011259265 0.23123601 -0.72059894 0.65365666 0.15632211
0.28623024 0.15547886 -0.011665599 0.011039414 -0.60716093 0.7945022 0.18233083
0.30743408 0.1598853 -0.019457303 0.25965035 -0.65612262 0.7085793 0.18586215
0.467426 0.15885691 -0.011027222 -0.54706514 -0.76023525 -0.35037425 0.028850958
0.47415808 0.15357769 -0.012104997 -0.71307349 -0.608302 -0.34856126 0.041484416
0.48252529 0.15227121 -0.01740611 -0.79380906 -0.48144418 -0.37158933 0.035412516
-0.43477482 0.16004644 -0.018172281 0.55673254 -0.57377517 -0.60069215 0.077217914
-0.42522335 0.16632111 -0.01390821 0.50418818 -0.59065318 -0.63001835 0.095335707
-0.35687616 0.16618368 -0.019194251 0.33192778 0.61846149 -0.71227056 0.20520443
-0.34191355 0.16493456 -0.012135108 0.31322736 0.58096266 -0.75124627 0.23573191
-0.33702552 0.16487519 -0.010934373 -0.10195136 -0.64640027 0.7561565 0.22333255
-0.29634273 0.16439839 -0.012053106 -0.10886738 -0.6985001 0.7072804 0.16629387
-0.28771815 0.16321814 -0.015178975 0.35709652 -0.63457268 0.68541926 0.14094628
-0.18573281 0.16381054 -0.014407494 -0.20801693 -0.97666347 0.053454865 0.052094162
-0.1727922 0.16381054 -0.012217572 -0.064646095 -0.99789274 0.0055639474 0.0516451
-0.16452971 0.16381054 -0.01398801 0.017039819 -0.99971664 0.016617354 0.05161947
-0.1548048 0.16381054 -0.015858902 -0.0016098471 -0.9997859 0.020634329 0.045800939
-0.14684057 0.16381054 -0.014774235 0.0065376689 -0.99985254 0.015880194 0.046562277
-0.13333905 0.16381054 -0.017493764 0.0048839948 -0.99951291 0.030823283 0.042926677
-0.12597653 0.16381054 -0.014293185 -0.016375102 -0.99952579 0.026078034 0.0472988
-0.11248813 0.16381054 -0.012759593 -0.0089561017 -0.99932939 0.035504702 0.050922129
-0.10388117 0.16381054 -0.012885086 -0.007429129 -0.99922103 0.038758177 0.05348324
-0.095150486 0.16381054 -0.012352411 0.044685587 -0.99899125 0.0044482783 0.046678122
-0.087117724 0.16381054 -0.013268761 -0.016022768 -0.99893236 0.043329004 0.048769441
-0.07528577 0.16381052 -0.019485807 0.060535181 -0.99685919 0.051060379 0.040934995
-0.063480958 0.16381054 -0.015345718 -0.017645875 -0.99967861 0.018203191 0.047256786
-0.056488674 0.16381052 -0.013680557 -0.01108555 -0.999825 0.015067858 0.047245134
-0.043733742 0.16381054 -0.013144986 -0.012448395 -0.99961764 0.024691466 0.047758278
-0.038923178 0.16381054 -0.015016206 0.012452142 -0.99820292 0.058616899 0.044462137
-0.024267891 0.16381054 -0.016130641 -0.021466717 -0.99912888 0.035785623 0.046591714
-0.015106472 0.16381054 -0.015785702 0.0050502643 -0.99803793 0.062408973 0.042045567
-0.0051900819 0.16381054 -0.016665109 0.02696903 -0.99819535 0.053653765 0.044897478
0.0061346227 0.16381055 -0.015448217 -0.019971892 -0.99971777 0.0128622 0.047780078
0.014760172 0.16381055 -0.014177715 0.024142792 -0.99956059 -0.01720034 0.043412555
0.028157741 0.16381055 -0.016043473 -0.0021811556 -0.9998076 0.019489942 0.046000194
0.035328224 0.16381054 -0.014609488 0.0099326503 -0.99954242 0.028569814 0.045249395
0.046788327 0.16381054 -0.011076776 0.0095762694 -0.99846298 0.054589387 0.048072249
0.053384498 0.16381054 -0.015165498 -0.015608116 -0.99797511 0.061660632 0.043554958
0.064102091 0.16381054 -0.014667289 -0.032091465 -0.99913204 0.026555916 0.046489064
0.077085041 0.16381054 -0.016490366 -0.055250656 -0.99700183 0.054173384 0.043242604
0.082218006 0.16381054 -0.016300917 0.016759703 -0.99827629 0.056245491 0.04174963
0.095034629 0.16381055 -0.014808373 -0.017416306 -0.99736792 0.070384651 0.045619421
0.10402605 0.16381055 -0.016318684 0.016390659 -0.99939436 0.030694438 0.039555103
0.11446548 0.16381052 -0.014807091 -0.0045137596 -0.99955815 0.02937641 0.042659041
0.12777454 0.16381055 -0.012744927 -0.0087028975 -0.99881244 0.04793806 0.044291534
0.13320629 0.16381052 -0.013769677 -0.026070574 -0.99875265 0.042583887 0.045659106
0.14498949 0.16381054 -0.012822772 -0.01649748 -0.99983388 0.0077539184 0.047127593
0.15155789 0.16381054 -0.015344379 0.022832448 -0.99890071 0.040938865 0.043242589
0.16315299 0.16381052 -0.015073921 -0.0048658242 -0.99870521 0.050638136 0.047235496
0.17690428 0.16381054 -0.015879948 -0.0013755629 -0.99968523 0.025049374 0.04160399
0.18736923 0.16381055 -0.016610619 0.045412526 -0.99896324 0.0031814119 0.041112248
0.19717479 0.16381054 -0.015667295 0.090836957 -0.9946143 0.04990945 0.03819479
0.24516769 0.16643439 -0.016430955 -0.18258157 -0.90256864 0.38991508 0.1231418
0.25531176 0.16625552 -0.014205021 -0.11064723 -0.89516318 0.43178692 0.12990347
0.26458257 0.16375677 -0.013469686 0.060513452 -0.85393292 0.51685274 0.12385438
0.27610406 0.16698582 -0.012513395 -0.019735808 -0.88878644 0.4578965 0.11075747
0.28773123 0.16458946 -0.014211704 -0.026083387 -0.71426719 0.69938684 0.17143795
0.29924798 0.16151989 -0.015343266 0.1146259 -0.77300113 0.6239633 0.13872936
0.30567476 0.16370234 -0.018409558 0.18406233 -0.79966253 0.57154274 0.12525024
0.42231923 0.16846704 -0.010508299 -0.15041091 -0.97910875 -0.13683081 0.0037654154
0.43543985 0.16932561 -0.015245621 -0.1731137 -0.97211897 -0.15816535 0.0055802395
0.44052273 0.16964164 -0.014632721 -0.17293538 -0.96816194 -0.18098545 0.006082478
0.45156971 0.1676119 -0.015512076 -0.26640221 -0.92676508 -0.26483256 0.016778871
0.46370077 0.16449259 -0.013133465 -0.40443912 -0.8317728 -0.38024065 0.020838458
0.47169048 0.16231254 -0.017638512 -0.56085253 -0.74297231 -0.36528975 0.029867385
-0.42330635 0.17005026 -0.019741513 0.44311845 -0.72038037 -0.53357106 0.07556022
-0.41751775 0.1706425 -0.015882451 0.43658295 -0.68560076 -0.58253491 0.092165723
-0.40798444 0.17370349 -0.01348676 0.49455187 -0.71131337 -0.4994514 0.083614275
-0.39505926 0.17789486 -0.015642565 0.25617513 -0.92785716 -0.27102661 0.016480725
-0.3847481 0.17912638 -0.010467437 0.15133643 -0.9581641 -0.24293768 0.049414419
-0.35517597 0.17468989 -0.019507151 -0.30290756 -0.92656577 0.22298621 0.17738168
-0.3328886 0.17337011 -0.013659725 -0.21931413 -0.93080413 0.29241261 0.14990415
-0.32636961 0.17508347 -0.01738186 -0.23686086 -0.88858849 0.39281973 0.15521657
-0.31278804 0.17144434 -0.017138006 -0.16602793 -0.86521673 0.47311175 0.16547376
-0.3097963 0.1706427 -0.016367778 -0.24037251 -0.81025523 0.53451604 0.16241331
-0.21630149 0.17915897 -0.014960934 -0.156844 -0.98743641 0.019219164 0.0014863322
-0.20342459 0.17603368 -0.013943077 -0.27617049 -0.95961529 0.053556282 0.019099858
-0.19964197 0.17492113 -0.018836992 -0.29698795 -0.95155126 0.079676382 0.021705352
-0.18547779 0.17303121 -0.016628738 -0.1800054 -0.97825938 0.10298812 0.047734983
-0.17698993 0.17338344 -0.013860133 -0.14334035 -0.98641938 0.080189116 0.053208031
-0.16623023 0.17318417 -0.014854422 0.029432243 -0.99617183 0.08231324 0.055308033
-0.14445637 0.17310485 -0.014543457 0.0057087461 -0.99815053 0.060522903 0.049020585
-0.13745368 0.17311382 -0.01419622 0.0086667705 -0.99682426 0.079160035 0.050234795
-0.12464543 0.17289528 -0.015245875 -0.0047769961 -0.99909806 0.042192325 0.048893545
-0.11480957 0.1732689 -0.012169222 -0.028711373 -0.99332893 0.11168381 0.052174594
-0.10666863 0.17248294 -0.017476358 -0.0091212559 -0.99728727 0.073040202 0.049890351
-0.094782375 0.17257667 -0.016323788 0.0095453523 -0.99558175 0.0934126 0.047939092
-0.082911178 0.17262118 -0.015525178 -0.0056271772 -0.99491876 0.10052346 0.045662116
-0.074800968 0.17284477 -0.013594101 -0.0039278921 -0.99745351 0.07121107 0.047760323
-0.06905517 0.17260291 -0.015096355 0.0025093646 -0.99930245 0.037258338 0.048948441
-0.058062006 0.17285296 -0.012971608 -0.027126368 -0.99829656 0.051654775 0.047991771
-0.046434503 0.17247427 -0.015863813 -0.047158614 -0.99530756 0.084492162 0.046695899
-0.034641914 0.17269027 -0.014192587 0.022713348 -0.99504334 0.0968135 0.0501706
-0.026415279 0.17263211 -0.014642654 0.016718114 -0.99559891 0.092213146 0.050293278
-0.016228156 0.17248268 -0.01579869 0.0075832773 -0.99554318 0.094000906 0.048029765
-0.0088180108 0.17227027 -0.017442282 -0.0055241743 -0.99774408 0.066905029 0.041528076
0.0061027384 0.17287013 -0.012801202 0.013616449 -0.99890214 0.04482232 0.048343915
0.01578236 0.17239241 -0.016497226 0.020750379 -0.99691731 0.075665593 0.042296905
0.026962407 0.17302817 -0.011578536 0.011721796 -0.99806905 0.060997788 0.045682594
0.035464246 0.17264861 -0.014534354 0.005279216 -0.99744022 0.071310304 0.044933971
0.045431349 0.1726148 -0.014629584 -0.0025056631 -0.99832016 0.057884067 0.046641041
0.053083893 0.17275396 -0.013389869 -0.021546219 -0.99760461 0.065733477 0.049507327
0.067189224 0.17246272 -0.015239686 -0.0084606158 -0.99542558 0.095164262 0.042942084
0.073612012 0.17267142 -0.013502233 -0.024977958 -0.99856251 0.047422681 0.047715075
0.084084339 0.17208381 -0.017713482 0.011120142 -0.99844998 0.054534566 0.042260669
0.095749252 0.17247213 -0.014656812 0.013101802 -0.99563402 0.092418738 0.044997901
0.10625327 0.17240047 -0.015202794 -0.0099006305 -0.9964515 0.083584756 0.04539321
0.11690267 0.17237477 -0.01540522 -0.0053610802 -0.99650532 0.083357811 0.043030892
0.12410533 0.17232089 -0.015784156 -0.00081606105 -0.99374896 0.11163465 0.041057374
0.13633746 0.17245841 -0.014762091 -0.0025441165 -0.99586904 0.090765826 0.046058662
0.14465426 0.17217958 -0.016835228 0.028598918 -0.99891263 0.036819782 0.042691551
0.15330005 0.1728228 -0.012042869 -0.029119289 -0.99829161 0.050655253 0.047458608
0.16303009 0.17267726 -0.013116463 -0.0022093321 -0.99543405 0.095426373 0.048358653
0.17399883 0.1727681 -0.012443367 -0.02409156 -0.99749005 0.066581845 0.047055911
0.18402775 0.17242688 -0.014981974 0.047518693 -0.99674499 0.065126188 0.04312624
0.19504234 0.17234197 -0.015620089 0.10831929 -0.9933607 0.038747955 0.035217565
0.20680483 0.17223005 -0.017898537 0.043089647 -0.99503863 0.08967416 0.042295489
0.213048 0.17248379 -0.016864849 -0.0010089271 -0.9937278 0.11182089 0.047207505
0.22429565 0.17318925 -0.013426759 -0.084731035 -0.96338737 0.25437263 0.075966783
0.23528093 0.1732983 -0.011614932 -0.16366346 -0.94240838 0.29168612 0.079050124
0.24144426 0.17286238 -0.012996409 -0.16877066 -0.92195994 0.34857762 0.073372737
0.31121618 0.173017 -0.016676519 0.13534299 -0.93773049 0.31991237 0.085130215
0.32481211 0.17308448 -0.014323716 0.22551624 -0.93940705 0.25817969 0.063295953
0.33517563 0.17307191 -0.014980942 0.094927981 -0.98900676 0.1133775 0.038973033
0.34474444 0.17311573 -0.013514619 0.013552042 -0.99887085 -0.045533281 0.0062734634
0.35165352 0.17305699 -0.016673541 0.0022724227 -0.998613 -0.052600395 0.0022674594
0.36604595 0.17305978 -0.015556586 0.0078521864 -0.9969511 -0.0776335 0.0021480501
0.37358469 0.17309608 -0.016237222 3.0376134e-05 -0.99816948 -0.060478795 0.0022242737
0.3852942 0.17316337 -0.013067297 0.0013478387 -0.99622422 -0.086806633 0.0030267271
0.39581108 0.17310309 -0.015638294 -0.027773703 -0.99706054 -0.071406417 0.0019555162
0.40507665 0.1731157 -0.014842002 -0.055509642 -0.9944576 -0.089289971 0.0026674678
0.41927823 0.17116556 -0.012656348 -0.13840412 -0.98262048 -0.12369835 0.0041686269
0.425136 0.17121072 -0.015042638 -0.13864155 -0.98348069 -0.11637924 0.0045300829
0.43294358 0.17050143 -0.019282244 -0.17030546 -0.97624141 -0.13397308 0.0054174615
-0.38249865 0.18130809 -0.017709238 -0.020594848 -0.99550879 -0.09240181 0.055315215
-0.37671494 0.18213871 -0.015154306 0.0011312751 -0.99700862 -0.077281781 0.060751174
-0.36527637 0.18607256 -0.015686493 -0.027124494 -0.99949318 -0.016663875 0.055665806
-0.34963131 0.18131647 -0.017908856 -0.3276625 -0.92792183 0.17775938 0.15158157
-0.27369508 0.18696062 -0.016758123 0.29647458 -0.88856745 0.35007253 0.10079001
-0.26489794 0.18561199 -0.013702753 0.042776953 -0.9990651 -0.0062430403 0.058155101
-0.25463751 0.18418229 -0.016444482 -0.11801153 -0.98993814 -0.078074813 0.0011062203
-0.24761686 0.18258902 -0.013481634 -0.12298399 -0.98961896 -0.074359283 0.00071257044
-0.23623231 0.1816909 -0.01654961 -0.1381125 -0.98972911 -0.03689494 0.0010090644
-0.22360294 0.18064892 -0.014504387 -0.16067228 -0.98700774 -0.00037517701 0.0014272028
-0.37797272 -0.18003654 -0.0096028261 0.12800211 0.96242577 -0.23948297 0.041613616
-0.3659476 -0.18145713 -0.0067974534 -0.083431996 0.99019587 0.11203191 0.1043644
-0.35784882 -0.1827784 -0.0054026167 -0.082325593 0.95830154 0.2736432 0.090588756
-0.34509331 -0.18697593 -0.0041403719 -0.035792731 0.97225052 0.23118784 0.089828067
-0.33850113 -0.18618625 -0.0018768306 0.051699772 0.98746526 0.14912914 0.081884943
-0.31023073 -0.18776539 -0.0016028626 0.14143667 0.98601192 0.088182695 0.093727238
-0.30408213 -0.18703324 -0.0017126431 0.15972786 0.98558342 0.055787757 0.078578189
-0.29806703 -0.1858235 -0.0014777987 0.1033707 0.99463826 0.0030457182 0.071455382
-0.28267813 -0.18385857 -0.00059415633 0.075240754 0.99655247 -0.034956813 0.060616825
-0.27536017 -0.18561947 -0.0059533441 0.024065115 0.99948984 -0.020996129 0.06469366
-0.26523262 -0.1846783 -0.005271541 0.034826856 0.99723017 -0.065718584 0.033191755
-0.25581419 -0.18404418 -0.0096138986 -0.0040184595 0.99986351 -0.016026814 0.027548319
-0.24302369 -0.18149167 -0.0045774621 -0.093758203 0.99163014 -0.088764019 0.00090064638
-0.23541528 -0.18089512 -0.0058096689 -0.092763238 0.99349552 -0.066042624 0.00094071723
-0.22381416 -0.18022035 -0.0077795149 -0.12418293 0.99199784 -0.022778317 0.0016419204
-0.41027206 -0.17210443 -0.0093004908 0.45737115 0.76975149 -0.44530246 0.068567246
-0.40505996 -0.17217037 -0.0028739255 0.45405585 0.76103419 -0.46331438 0.048185166
-0.39205223 -0.17652482 -0.0061037764 0.31410116 0.88844281 -0.33467892 0.019082753
-0.38221395 -0.17835367 -0.0086366897 0.14977126 0.95646745 -0.25047687 0.036168016
-0.37806946 -0.17787239 -0.0023939933 0.1952921 0.91169995 -0.36147499 0.0044269064
-0.36763203 -0.17849843 -0.00047848024 -0.0039041694 0.99975711 0.021689994 0.1097315
-0.35918477 -0.17916037 -2.2130553e-05 -0.035939071 0.99876088 0.034425404 0.10284937
-0.33326 -0.17078096 -0.0095286602 0.038017407 0.8526715 0.52106237 0.1553752
-0.32783258 -0.17336935 -0.0084969522 0.12061492 0.86650908 0.48436964 0.1748981
-0.3161566 -0.17612252 -0.0086398162 0.21685548 0.92065036 0.32461765 0.1775191
-0.30817139 -0.17169359 -0.0091371723 0.29710874 0.85370553 0.42768362 0.19604722
-0.22605282 -0.17983523 -0.0019666206 -0.10677349 0.99383736 -0.029777009 0.0015289382
-0.21247332 -0.17880081 -0.00434977 -0.2447893 0.96941841 0.017494736 0.019070646
-0.20362146 -0.17687528 -0.0038091633 -0.23354666 0.96912092 0.079124846 0.033431422
-0.1936354 -0.17443584 -0.0073501067 -0.25925976 0.95712394 0.12922102 0.045948427
-0.18448699 -0.17463559 -0.0050148768 -0.14251949 0.98485345 0.098751895 0.066788122
-0.17627764 -0.17497697 -0.0024044276 -0.047527891 0.99047202 0.1292524 0.069232918
-0.16517189 -0.17445043 -0.0057315025 -0.018377593 0.9928261 0.11814632 0.062138341
-0.15666789 -0.17419966 -0.0071861777 -0.034289431 0.99421197 0.1018172 0.055026609
-0.14673051 -0.17448981 -0.0047040293 0.0039241635 0.99643338 0.084291942 0.065265782
-0.13573331 -0.17480846 -0.001974751 -0.030565588 0.99593931 0.084680088 0.066633657
-0.12590359 -0.17441805 -0.0043771407 0.012679537 0.99637961 0.084065236 0.057736684
-0.11386666 -0.17440003 -0.0040200539 0.019116385 0.99690408 0.076267898 0.059451438
-0.1050962 -0.17420124 -0.0050912807 0.0045853807 0.99700749 0.077168882 0.061916608
-0.097107559 -0.17402294 -0.0060471329 -0.064271815 0.99426359 0.085493185 0.062396493
-0.085655913 -0.17381474 -0.0070773093 -0.058816858 0.99508154 0.079707317 0.053090155
-0.078199185 -0.17445508 -0.0021842902 -0.017387817 0.99319369 0.11516899 0.061137348
-0.064968765 -0.17423855 -0.0032025718 0.024857286 0.9962244 0.083179824 0.062325731
-0.050632834 -0.17338049 -0.0088525768 -0.026443165 0.99685442 0.074712873 0.052743755
-0.04241617 -0.17420003 -0.0025783069 -0.02836583 0.99305826 0.11415239 0.064079531
-0.034171026 -0.17420416 -0.0024798522 -0.0094288057 0.99373078 0.11140126 0.058271147
-0.029021166 -0.17399716 -0.0040814052 -0.02555109 0.99467021 0.099891216 0.059455074
-0.014439046 -0.17391038 -0.0047528595 -0.0060963873 0.99847668 0.05483716 0.055759288
-0.0043361043 -0.17383957 -0.0053006802 0.040082175 0.99764752 0.055613749 0.054449487
0.0034246042 -0.17394285 -0.0045016636 0.019621197 0.99555141 0.092154734 0.053594403
0.013935417 -0.17381518 -0.0054894425 -0.04208884 0.99815726 0.043711215 0.056434885
0.027626341 -0.17377985 -0.0057629268 -0.010338656 0.99827617 0.057773303 0.05635519
0.030607523 -0.1744045 -0.00092972 -0.030235678 0.99048549 0.13425443 0.059692364
0.044294756 -0.1738911 -0.0050099632 0.0038001717 0.99974912 0.022071663 0.061604101
0.052377194 -0.17324944 -0.0096554393 -0.034649439 0.99803734 0.052161135 0.051010173
0.066082671 -0.1738359 -0.0048890151 0.045706779 0.99708331 0.06112013 0.060903192
0.074315175 -0.17415898 -0.0022462702 0.00025892697 0.99547863 0.094985537 0.06215458
0.083363302 -0.17378719 -0.0049359701 0.023255225 0.99631512 0.082555585 0.059235334
0.09261816 -0.17322962 -0.0090507716 -0.016290139 0.99822176 0.057341911 0.045802645
0.10589229 -0.17350876 -0.0069843018 0.0052138511 0.99947125 0.032095019 0.051601075
0.11590667 -0.17364115 -0.0060031232 0.0024266364 0.99944258 0.033294905 0.05415003
0.12684369 -0.1736898 -0.0056409482 0.021089081 0.998905 0.04176129 0.05557384
0.13387212 -0.17405644 -0.0029290537 -0.014285166 0.99787688 0.06354361 0.060947604
0.15539201 -0.17383051 -0.0045938939 0.0022033295 0.99905348 0.043441366 0.053377192
0.1666121 -0.17361914 -0.0061535928 -2.2010661e-05 0.99902815 0.044075731 0.059813485
0.17562003 -0.17366442 -0.0057809963 0.026898492 0.99663168 0.077471361 0.054859221
0.18318146 -0.17416388 -0.0019274674 0.061132219 0.99347579 0.096273869 0.063133799
0.19877528 -0.17397273 -0.0032646107 0.064206012 0.9975509 0.027746122 0.063217551
0.20579922 -0.17382549 -0.004429888 0.12787658 0.99174339 0.0096258204 0.059178252
0.21208203 -0.1737908 -0.0053991736 0.11313044 0.99342513 0.017550163 0.043280639
0.22823834 -0.17442155 -0.0038283521 -0.0037074131 0.98373473 0.17958914 0.052797195
0.23751384 -0.17431815 -0.0024152733 -0.026713658 0.95250255 0.30335665 0.053535718
0.24242012 -0.17361847 -0.0067185215 -0.12709969 0.93907315 0.31935447 0.084177703
0.25379997 -0.17360811 -0.0053044148 -0.013601589 0.91604108 0.40085384 0.10792945
0.26159155 -0.1737739 -0.0039652782 -0.014189697 0.932028 0.3621085 0.083068654
0.28031617 -0.17351258 -0.0063980338 -0.10560551 0.9737727 0.20152944 0.086003356
0.29727119 -0.17319708 -0.0029455118 0.062702529 0.96740144 0.24536264 0.098314531
0.30458426 -0.17256382 -0.0026433771 0.043459896 0.94744748 0.31694555 0.093614861
0.31450644 -0.17213808 -0.0051243431 0.030305237 0.97636151 0.21400861 0.080347367
0.32436791 -0.1717104 -0.0037296866 0.059652261 0.98142576 0.18233192 0.065197319
0.33315402 -0.1722607 -0.0057808864 0.045889962 0.9988156 -0.016171038 0.012785331
0.34408224 -0.17237476 -0.0058317529 -0.002877149 0.99826509 -0.058810391 0.0035063028
0.35420612 -0.1722129 -0.0049633668 -0.017512286 0.99472284 -0.10109252 0.0018399054
0.3633582 -0.1720624 -0.003780667 -0.0060664364 0.99233627 -0.12341799 0.0018639917
0.37490612 -0.17229632 -0.0040985374 0.016292553 0.98858547 -0.14977786 0.0020596159
0.3852413 -0.17246915 -0.0046451045 0.0052874666 0.98842549 -0.15161476 0.0021142692
0.39656526 -0.17317793 -0.0076913629 -0.030237703 0.9927935 -0.11596043 0.0036324477
0.40434647 -0.1730022 -0.0056762169 -0.050581716 0.99033874 -0.12911487 0.0025392401
0.41384339 -0.17146438 -0.0056452043 -0.098191202 0.98527491 -0.13997088 0.0033312871
-0.4257119 -0.16466667 -0.0094724549 0.53082192 0.55121243 -0.64373362 0.12594342
-0.41446745 -0.16762111 -0.0025031311 0.55353159 0.63109881 -0.54343069 0.099722601
-0.33217087 -0.16377613 -0.0097215623 -0.16393879 0.60363418 0.7802242 0.21574883
-0.32068208 -0.16213796 -0.0085168825 0.34407538 -0.31256872 -0.88538855 0.24269363
-0.3136878 -0.16403809 -0.0086150039 0.041971009 0.42554006 0.90396577 0.22384393
-0.19150665 -0.16381055 -0.0052588447 -0.24661519 0.96246946 0.11328502 0.054375544
-0.18528019 -0.16381055 -0.004658374 -0.20102297 0.9768607 0.07302703 0.071978576
-0.17626344 -0.16381055 -0.0035260695 -0.033171911 0.9985745 0.041815285 0.077148199
-0.16395009 -0.16381055 -0.0082276128 -0.035483126 0.9971571 0.066473156 0.055610143
-0.15388252 -0.16381057 -0.0044561708 -0.00073413411 0.99902755 0.044083662 0.062999181
-0.14205223 -0.16381055 -0.00059442082 -0.025673464 0.99866402 0.044843942 0.071023338
-0.13531587 -0.16381055 -0.0012209725 -0.0004235105 0.99756461 0.069747202 0.068593308
-0.12757729 -0.16381054 -0.0060438365 0.033174455 0.99846065 0.044449907 0.057354536
-0.11633694 -0.16381055 -0.0057527656 0.030790512 0.99788934 0.057172805 0.059393439
-0.10569128 -0.16381055 -0.0036156215 -0.0017109629 0.9999494 0.00991002 0.056955744
-0.092887938 -0.16381057 -0.0039558345 -0.019936929 0.99941528 0.027776595 0.062597081
-0.085993327 -0.16381055 -0.0054227919 -0.030183587 0.99854481 0.044689301 0.057369191
-0.076188728 -0.16381055 -0.0029340636 0.045939036 0.9980346 0.042621482 0.058151238
-0.062181193 -0.16381055 -0.0086180773 -0.0056976075 0.99925649 0.038130164 0.052917894
-0.053066809 -0.16381055 -0.0035542781 -0.010046314 0.99718928 0.074247114 0.064199254
-0.042930424 -0.16381055 -0.0071635884 -0.045923091 0.99488431 0.089979976 0.056589358
-0.035493895 -0.16381055 -0.0060228733 0.0085447207 0.99926013 0.03750027 0.05781186
-0.027606077 -0.16381055 -0.006000096 -0.033875596 0.99827754 0.047898673 0.054512855
-0.014917066 -0.16381055 -0.0044227443 -0.0056701563 0.99813157 0.060837068 0.056652661
-0.0063708252 -0.16381055 -0.0048100557 0.024595499 0.99938059 0.025172461 0.053625893
0.0043386552 -0.16381055 -0.0021326446 0.042111024 0.99750239 0.056706842 0.060504202
0.015663572 -0.16381055 -0.0075042304 -0.039860476 0.9987874 0.028893515 0.051886387
0.024771787 -0.16381055 -0.004944785 0.016658565 0.99839652 0.054100599 0.05361715
0.038656913 -0.16381055 -0.0087975319 0.0099894265 0.99967301 0.02353828 0.049785141
0.045387104 -0.16381055 -0.0059137843 -0.016854592 0.99985403 -0.0027795045 0.053283371
0.05647352 -0.16381055 -0.0074773938 -0.023284189 0.99866223 0.046168923 0.053254455
0.064468704 -0.16381057 -0.0061225714 0.041629378 0.9979679 0.048240457 0.054938808
0.074096285 -0.16381055 -0.007160163 0.0062968689 0.99906862 0.042686805 0.047712751
0.085339352 -0.16381057 -0.004559814 -0.014442788 0.99865824 0.049730375 0.054551046
0.097212411 -0.16381055 -0.0034197839 -0.0254746 0.99957204 0.014379703 0.053828958
0.10359272 -0.16381055 -0.0034672664 0.031976636 0.99942917 -0.010899603 0.051557094
0.11392439 -0.16381055 -0.0066539259 -0.016279962 0.99977803 0.013377655 0.048399735
0.12304308 -0.16381055 -0.0033983819 0.022106798 0.99918479 0.033779245 0.058634222
0.13369411 -0.16381055 -0.0082379282 -0.0020864187 0.99775171 0.066986196 0.049599551
0.14802633 -0.16381055 -0.0045565828 0.034617025 0.99818027 0.049374379 0.052735098
0.15761878 -0.16381055 -0.004824691 -0.012866054 0.99928665 0.035505772 0.0551898
0.16403347 -0.16381055 -0.0048537166 -0.00070483383 0.99936169 0.035717312 0.058661453
0.17341177 -0.16381055 -0.0039726682 -0.010479908 0.99903715 0.042601801 0.06194583
0.18674916 -0.16381055 -0.0072475281 0.059047561 0.99753416 0.037933752 0.059385546
0.19380209 -0.16381055 -0.0011413512 0.038160902 0.99923837 0.0081460318 0.062020905
0.20577721 -0.16381055 -0.0026688892 0.11759146 0.99151707 -0.055372879 0.056902409
0.42573085 -0.16832437 -0.0084932549 -0.16166872 0.97752577 -0.13530234 0.0042557591
0.43630376 -0.16498323 -0.0079017421 -0.20795435 0.9631682 -0.17047571 0.0069588432
0.4485532 -0.16089103 -0.0066275997 -0.35993129 0.90476525 -0.22770439 0.0249152
0.45286998 -0.160596 -0.0069665215 -0.39053667 0.88879645 -0.23983732 0.026942493
-0.4138909 -0.15801822 -0.0094706239 0.64931709 0.33297503 -0.68375063 0.15166499
-0.40841401 -0.15589288 -0.0073086731 0.77041537 0.41359425 -0.48518032 0.13346216
-0.32392782 -0.15758137 -0.0085213631 0.1994895 -0.19156404 -0.96099281 0.17497009
-0.31686857 -0.1544497 -0.0085398117 0.066667043 -0.071031161 -0.99524373 0.16221796
-0.30540517 -0.15324728 -0.0088367853 0.158739 0.12590393 0.97926003 0.13010252
0.45906577 -0.15529181 -0.0025141933 -0.50595611 0.82743925 -0.243624 0.034761522
0.46698958 -0.15251806 -0.0078575183 -0.63074887 0.68161845 -0.37088019 0.031405382
-0.44108373 -0.14286885 -0.0064668632 0.60177529 0.37268239 -0.70638114 0.14468952
-0.43205023 -0.14547431 -0.0042378274 0.55044317 0.3561382 -0.75510132 0.19505559
-0.42444667 -0.1480552 -0.0059591122 0.66578525 0.12363349 -0.73582923 0.18004514
-0.41921192 -0.14959359 -0.0045666085 0.73913878 0.16963369 -0.65184218 0.18294612
-0.40783668 -0.14840901 -0.0039609354 0.82777607 0.092937827 -0.55330771 0.15915987
-0.32313251 -0.14130205 -0.0089829657 0.23899858 -0.46813393 -0.85072333 0.18761618
-0.31910515 -0.14871189 -0.00849046 -0.07062497 0.21168368 0.97478318 0.158721
-0.30343151 -0.14194478 -0.0088347774 0.20626746 0.61577165 0.76044661 0.11777005
0.46934456 -0.14767681 -0.0067987582 -0.77439529 0.52340883 -0.35546464 0.058148589
0.47554374 -0.14300124 -0.0073639886 -0.90059024 0.31468871 -0.29984716 0.059573863
-0.44402319 -0.13509426 -0.005908024 0.60352075 0.39604902 -0.69203174 0.13831913
-0.43006915 -0.13429946 -0.0066026552 0.57780367 0.45113778 -0.68015999 0.21869701
-0.3186191 -0.13957602 -0.0084648039 -0.08944051 0.33465007 0.93808836 0.20759891
0.4773941 -0.13396336 -0.0052825403 -0.95799297 0.19462782 -0.21064086 0.050634056
-0.4515709 -0.12023251 -0.0055016349 0.56997639 0.43184453 -0.69902587 0.163405
-0.44240087 -0.12380068 -0.0029199261 0.69225019 0.41710672 -0.58890718 0.17099194
-0.43006915 -0.12427166 -0.0014195334 0.56686175 0.4829607 -0.66739553 0.23565309
-0.42419386 -0.12492683 -0.0037704881 0.06572371 -0.16517048 0.98407274 0.27607286
-0.41504008 -0.12473621 -0.0070923925 0.23570904 -0.28081971 0.93036634 0.26115808
-0.40709367 -0.12463236 -0.0034576296 0.72522533 -0.68131739 0.099271879 0.22435552
-0.3934631 -0.123258 -0.0038496705 0.18277109 -0.036461007 -0.98247921 0.18916328
0.47828233 -0.12269655 -0.0065355441 -0.986139 0.13968323 -0.08954595 0.029727424
-0.45532429 -0.11233989 -0.0036876695 0.60955405 0.57269007 -0.54815137 0.13986273
-0.44487929 -0.11128611 -0.0022325232 0.5619632 0.64836508 -0.51363426 0.16988666
-0.38797098 -0.11036872 -0.0038511367 0.28636155 0.46228129 0.83922172 0.20567045
0.47904491 -0.11689304 -0.0061804666 -0.99605632 0.084445849 -0.027215742 0.015382332
-0.46020022 -0.10512838 -0.0052946755 0.60239905 0.60790634 -0.51726699 0.12836652
-0.45405117 -0.10274613 -0.0024146687 0.56660765 0.68101227 -0.46387294 0.14406709
-0.44612128 -0.10328326 -0.0049971491 0.48758179 0.78168494 -0.38888654 0.18735261
-0.43507928 -0.1035138 -0.0037868263 0.54423022 0.83889139 0.0086387256 0.1811316
-0.42566103 -0.10408038 -0.005357747 0.42053691 0.88506877 0.19950417 0.18086067
-0.416141 -0.1038439 -0.0041028843 0.11994275 0.99214834 0.035431873 0.17323518
-0.40964836 -0.10436733 -0.0028674256 -0.05071773 0.93865502 -0.34110758 0.17063706
-0.3957057 -0.10413663 -0.0030991798 0.0078596966 0.32027331 0.94729257 0.21110991
-0.38797098 -0.10766645 -0.0054184743 0.28627232 0.4621686 0.83931422 0.20568123
0.48132497 -0.10480442 -0.0036830832 -0.99694431 0.047776118 0.061801627 0.0024255991
-0.46411783 -0.096417233 -0.005523324 0.65889668 0.5456866 -0.5177657 0.070160761
-0.45484027 -0.098643564 -0.0069560162 0.48785785 0.83703572 -0.24772173 0.20956111
0.48200092 -0.099688463 -0.0044642389 -0.99660474 0.03129632 0.076154105 0.0022489957
-0.47529927 -0.08540938 -0.0064369016 0.81994796 0.32874554 -0.46862748 0.051910434
0.4799948 -0.081204608 -0.0089396862 -0.98744911 -0.14697312 -0.057819899 0.014577529
0.48056108 -0.085350133 -0.0034914017 -0.99164629 -0.12645654 0.025424846 0.0041139578
-0.48165363 -0.071960889 -0.0091729481 0.89610702 0.1084689 -0.43037975 0.060348365
-0.47815505 -0.074243985 -0.0040139323 0.87020373 0.14912198 -0.46958297 0.048797607
-0.47285452 -0.063698284 -0.0067106844 0.87157029 -0.017834423 -0.48994616 0.051887795
-0.46780062 -0.064710975 -0.0068660323 0.88398874 -0.048107464 -0.46502641 0.061340056
0.47493073 -0.063361868 -0.0037826556 -0.99345058 -0.11211949 0.022024788 0.0043592998
-0.47299784 -0.052607529 -0.0044303522 0.87976813 0.029325908 -0.47449774 0.05843043
-0.46864632 -0.057851218 -0.0028964018 0.87668461 -0.034073353 -0.47985747 0.057768684
0.4752748 -0.055637009 -0.0044669295 -0.99648505 -0.083696187 0.0035344665 0.0051123449
-0.47639763 -0.04504472 -0.0078786397 0.89320469 0.018816995 -0.44925633 0.054784585
-0.46742475 -0.046045072 -0.0023710951 0.85894299 0.079682268 -0.50583351 0.057228327
0.47469845 -0.044718776 -0.0051779002 -0.99997038 -0.0071017393 0.0029743826 0.0053863786
-0.48209006 -0.033854108 -0.0099258469 0.90407401 0.035364766 -0.42591035 0.053661458
-0.47415695 -0.034314845 -0.0050217831 0.9418515 0.064725131 -0.32973704 0.052862797
-0.46932805 -0.032019239 -0.0067415037 0.9065395 0.075670764 -0.41528311 0.052296173
0.47460237 -0.036743671 -0.005289143 -0.99990088 -0.0012805543 -0.014023335 0.0046696845
-0.48154074 -0.029019341 -0.0072857272 0.91602021 0.051805504 -0.39777288 0.057732303
-0.47683582 -0.025632927 -0.005543144 0.93947411 0.055706672 -0.33806077 0.057144534
0.47500581 -0.024121542 -0.0051122634 -0.99994618 -0.0039558904 0.0095953513 0.0056438041
-0.48118156 -0.012702554 -0.0079361731 0.93846536 0.036060974 -0.34348562 0.047912028
-0.47744289 -0.016039126 -0.0069682328 0.92409247 0.021305356 -0.38157451 0.051511656
-0.46885672 -0.01556477 -0.0021709006 0.9049803 0.020409942 -0.42496374 0.054132786
0.47393006 -0.014967827 -0.0030586058 -0.99992704 -0.007063631 -0.0098000327 0.0034637607
-0.48092094 -0.0059354496 -0.0090533299 0.92284751 0.033266768 -0.38372633 0.053141698
-0.4782207 -0.0046512056 -0.0050268993 0.92108631 -0.0078369426 -0.38927957 0.040406961
0.47585109 -0.0052407095 -0.005244039 -0.99989116 0.013237423 0.0065269968 0.0055627995
-0.48086542 0.0035451564 -0.0049722949 0.90666783 -0.01750154 -0.42148197 0.045778874
-0.47383526 0.0065633245 -0.0072269826 0.92011899 -0.03440151 -0.39012527 0.045015357
-0.46937931 0.0080962954 -0.0083443504 0.93758863 -0.034228191 -0.34605771 0.042557735
0.47546688 0.006339022 -0.0046211295 -0.99926943 -0.0019629085 0.038166307 0.0076048444
-0.4817951 0.016530719 -0.0073599471 0.92396158 -0.034426983 -0.38093284 0.054223295
-0.47300288 0.014278137 -0.0056413966 0.93694311 -0.074829437 -0.34137696 0.051134821
0.4752748 0.015482163 -0.0031970534 -0.99839777 -0.019734245 0.053033728 0.007506202
-0.47449124 0.023273017 -0.0047297142 0.93292201 -0.020648371 -0.35948604 0.046626795
-0.46979141 0.022932095 -7.270457e-05 0.86351877 -0.020639181 -0.50389427 0.048759498
0.47393006 0.026996255 -0.0082556605 -0.9951427 -0.0091671944 -0.098015159 0.0097725559
-0.47699612 0.035301182 -0.0055315983 0.93251854 0.019750059 -0.36058146 0.041364539
-0.46859482 0.034162041 -0.002825591 0.88040292 -0.0061927978 -0.47418594 0.045215357
0.47446793 0.034687556 -0.0031509474 -0.9998973 0.0089862244 0.011165041 0.0034347253
-0.47634584 0.045061558 -0.0051701698 0.93142068 -0.024832949 -0.36309639 0.055188026
-0.46806264 0.04218404 -0.0016717061 0.89293784 -0.061876867 -0.44590729 0.044917375
0.47561097 0.044304878 -0.0039841142 -0.99989492 0.014217437 -0.002825446 0.004666138
-0.47615325 0.05494212 -0.004991509 0.91162449 0.041567095 -0.40891695 0.061374858
-0.468582 0.055469677 -0.0049334518 0.89431912 0.030157182 -0.44641212 0.063515402
0.47546694 0.053854462 -0.0044456017 -0.99708104 0.073474541 -0.020757472 0.0029654172
-0.47382572 0.064379148 -0.0057479129 0.9156667 -0.070048712 -0.39578733 0.058096483
-0.46693891 0.064335562 -0.0077523026 0.90692556 -0.096013524 -0.4102042 0.062773764
0.47393009 0.063299805 -0.0063856682 -0.99492431 0.10017297 -0.0095355902 0.0033702431
-0.48108953 0.072166465 -0.0090507027 0.89946353 -0.13309202 -0.41623536 0.053576287
0.47906172 0.071188197 -0.0085816849 -0.98784524 0.1113934 -0.10841311 0.023090454
-0.47339818 0.085888706 -0.004498709 0.80639941 -0.3563965 -0.47191253 0.043155376
-0.46970677 0.090487786 -0.00091093272 0.74189603 -0.44978735 -0.49727425 0.0406067
-0.45754561 0.098681733 -0.0051676049 0.60289115 -0.64036053 -0.47587875 0.090249941
0.48114344 0.096543089 -0.005145777 -0.99956697 0.00014703792 0.029423762 0.0057094791
-0.45483509 0.10289794 -0.0035445588 0.57088125 -0.6758374 -0.46619558 0.10388228
-0.44494575 0.10363311 -0.0022329525 0.43752059 -0.72386563 -0.53347385 0.12981659
-0.43110803 0.10349059 -0.0090968991 0.2434895 -0.77383339 0.58471763 0.19530341
-0.42511815 0.10444601 -0.0029305627 0.15718508 -0.97044307 -0.18312027 0.19444962
-0.41605073 0.10574712 -0.0074879569 -0.0059104469 -0.56502461 0.82505292 0.17952575
-0.40094569 0.10386072 -0.004455585 -0.021978961 -0.43238947 -0.90141904 0.17084271
-0.39334795 0.10361288 -0.0055736927 0.11809818 -0.75428373 0.64583975 0.24982785
-0.38873211 0.10588595 -0.0081459926 0.15113464 -0.70323932 0.69470334 0.18123882
0.4812229 0.10665236 -0.0046797334 -0.99633038 -0.062978916 0.057960529 0.0017368011
-0.4532209 0.11575981 -0.0040747477 0.59805644 -0.46356753 -0.65378404 0.14702399
-0.44487929 0.11212613 -0.004641193 0.47360158 -0.61727571 -0.62822944 0.17349385
-0.38797098 0.11623053 -0.0051912419 0.49440238 0.32959482 0.80432177 0.20820466
0.47927505 0.11533699 -0.0066890293 -0.99659163 -0.047593925 -0.067379266 0.026157051
-0.45281845 0.12164082 -0.0087092947 0.54983681 -0.3617087 -0.75289202 0.13200095
-0.43217206 0.12494814 -0.0030902068 0.45063093 -0.27061033 -0.85070664 0.23256403
-0.42648366 0.12572692 -0.0045356476 0.56162542 -0.36847383 -0.74081308 0.23726971
-0.4157871 0.1252234 -0.006545038 0.061461352 -0.054034207 0.99664581 0.26009852
-0.40699255 0.12493084 -0.0040664594 0.80187422 0.56978095 0.17985371 0.23731256
-0.39609313 0.1245826 -0.0074305744 0.034007542 0.020436432 -0.99921256 0.16465336
-0.38797098 0.12165052 -0.0096441312 0.50613683 0.55751622 0.65802819 0.1758063
-0.44611204 0.13437717 -0.0084197558 0.63819689 -0.30066445 -0.70873517 0.1153756
-0.43006915 0.13088641 -0.0098302662 0.25998253 -0.1697588 -0.95057404 0.20237643
-0.32571346 0.13536686 -0.008687973 -0.12497932 -0.60179198 0.78881341 0.13276915
-0.31472683 0.13930264 -0.0088713244 0.09655498 -0.42168441 0.90158713 0.13874193
0.47635889 0.13803849 -0.0065712361 -0.9041332 -0.27313787 -0.32854038 0.054897122
-0.4339532 0.14661044 -0.0020742363 0.61894858 -0.33481744 -0.71049273 0.17310776
-0.42510065 0.14676435 -0.0035631498 0.54802006 -0.20712224 -0.81041616 0.19037606
-0.41477415 0.14770156 -0.0047188336 0.75463164 -0.11166228 -0.6465776 0.18454297
-0.40658641 0.14876328 -0.006179072 0.71513492 0.011703635 -0.69888848 0.18715182
-0.33160815 0.14470448 -0.0085781701 0.18920651 0.18954203 -0.9634701 0.1538302
-0.32376131 0.14207405 -0.0086899986 -0.10291674 -0.42368457 0.89994425 0.13132806
-0.31279385 0.14886585 -0.0088450136 0.13317549 -0.12680575 0.98294681 0.13242862
0.46765018 0.14788739 -0.0064731804 -0.69842374 -0.60220814 -0.38671657 0.049908031
0.47455534 0.14460643 -0.0085702995 -0.84214687 -0.3537755 -0.40697852 0.056211084
-0.43418503 0.15367641 -0.0067312252 0.63620853 -0.41608793 -0.64969957 0.1399938
-0.40652451 0.15167581 -0.0027236901 0.78021431 -0.14444739 -0.6086055 0.18327396
-0.33280286 0.15823799 -0.0094649829 -0.094481878 -0.30733883 0.9468981 0.19541809
-0.31373391 0.15558119 -0.0087737991 0.12856209 0.18717285 0.97387791 0.13568771
0.45804387 0.15957084 -0.007410665 -0.4391982 -0.84580505 -0.30285108 0.026750417
0.46505895 0.15330495 -0.0080645857 -0.58856815 -0.72934139 -0.34878168 0.033345368
0.47320938 0.15030821 -0.0097416863 -0.74128574 -0.55431896 -0.37845215 0.038585912
-0.42062733 0.1640429 -0.0044326098 0.52905601 -0.62218541 -0.57704866 0.097016059
-0.41476434 0.16488822 -0.0069782916 0.54320121 -0.64479458 -0.5377475 0.11408962
-0.40793169 0.16556834 -0.0020754877 0.57969815 -0.67508429 -0.45630175 0.085909441
-0.32206431 0.16238582 -0.0086410204 0.32175392 -0.65049922 0.68798625 0.21599156
-0.31689993 0.16467762 -0.0087005226 -0.16303436 -0.75551242 0.63452405 0.19203749
-0.30835032 0.16720095 -0.0088981222 -0.067305066 -0.7436505 0.66517222 0.1734505
-0.1834906 0.16381054 -0.0044208299 -0.21808913 -0.97524768 0.036456384 0.064439684
-0.17447752 0.16381054 -0.0058729979 -0.11125603 -0.99244469 0.051727079 0.07018438
-0.16421461 0.16381054 -0.0047509703 0.018398821 -0.99928427 0.033051796 0.063655816
-0.15718988 0.16381054 -0.0052446681 0.056128237 -0.99730772 0.047190756 0.060671758
-0.14413761 0.16381054 -0.0075572208 0.013549689 -0.99813879 0.05945849 0.058658153
-0.13430884 0.16381055 -0.0055934517 0.023496335 -0.9991703 0.033265665 0.060569901
-0.12308455 0.16381054 -0.0056004361 -0.027820792 -0.99776065 0.060825039 0.059047788
-0.11298853 0.16381054 -0.0093201641 -0.016641732 -0.9969064 0.07681632 0.055016641
-0.10380786 0.16381054 -0.0049284957 -0.014552689 -0.99706715 0.075136296 0.066169679
-0.093779266 0.16381054 -0.0054539614 0.013191698 -0.9995532 0.026822295 0.056014802
-0.084944293 0.16381055 -0.0045641158 0.018191831 -0.99862272 0.049210932 0.061928835
-0.070562825 0.16381054 -0.0039214995 0.005708111 -0.998887 0.046819404 0.061992019
-0.061318047 0.16381054 -0.0057588555 0.00060554978 -0.9991793 0.040500909 0.057473093
-0.05101455 0.16381052 -0.0013425413 -0.0055028396 -0.99891537 0.046236202 0.062924571
-0.046093225 0.16381054 -0.00089362595 0.0046462771 -0.9969722 0.077619202 0.06314221
-0.033687919 0.16381054 -0.0037038175 0.0039875014 -0.99998128 0.0046428419 0.060561515
-0.024630202 0.16381055 -0.0047022658 -0.0084516238 -0.99990213 0.011146233 0.053830341
-0.015447743 0.16381054 -0.0051339464 0.0075998814 -0.9993276 0.035871085 0.058477033
-0.0032750983 0.16381055 -0.002377063 -0.021487178 -0.99923682 0.032618694 0.062495887
0.0047389138 0.16381054 -0.0091907065 0.030132996 -0.99723673 0.067903437 0.050761901
0.015636057 0.16381054 -0.0059142876 -0.03264178 -0.99898636 0.030995807 0.053800073
0.026614755 0.16381054 -0.003849827 -0.005745844 -0.99950498 0.030932654 0.059709184
0.036525402 0.16381054 -0.0054091453 0.039139915 -0.99888396 0.026433369 0.058365386
0.04620555 0.16381054 -0.0057394374 0.022583423 -0.99973696 0.0040085549 0.0526435
0.055418454 0.16381052 -0.0060102702 0.0017283089 -0.99947023 0.032499772 0.050812829
0.06612619 0.16381054 -0.0049033682 -0.026015738 -0.99931544 0.026298827 0.058053706
0.077444017 0.16381054 -0.0044739922 -0.034198698 -0.99779308 0.056915525 0.055617072
0.085190557 0.16381055 -0.0032755591 0.042070504 -0.99887133 0.022045216 0.0570122
0.09621571 0.16381054 -0.0042137355 0.0071302271 -0.99961531 0.026804356 0.057932433
0.10113818 0.16381054 -0.00076802727 0.021994548 -0.99803191 0.058723908 0.05923412
0.11407133 0.16381054 -0.0027583132 0.036066864 -0.99917769 0.018525397 0.065649554
0.12338441 0.16381054 -0.0054570618 0.012995658 -0.9983058 0.056715533 0.057237953
0.13239375 0.16381054 -0.00021988805 0.0045970096 -0.99965763 0.025756268 0.062915392
0.14625487 0.16381054 -0.0049748444 -0.017995136 -0.99926484 0.033851419 0.05603854
0.1531287 0.16381054 -0.0012469129 -0.0011498829 -0.99995625 0.0092845159 0.057289772
0.16509607 0.16381054 -0.0026726373 0.0029206579 -0.9995501 0.029850669 0.063611485
0.17408296 0.16381054 -0.0041262694 -0.0084092701 -0.99983841 0.015886771 0.054483622
0.18250126 0.16381054 -0.0049283616 0.012346487 -0.99990225 0.0065598991 0.055431057
0.19641563 0.16381054 -0.0058106841 0.10103651 -0.99486226 -0.006376585 0.05402125
0.20148246 0.16381054 -0.0098896706 0.14010151 -0.99013412 0.0024577202 0.040816575
0.42769042 0.16709942 -0.0071160793 -0.1644938 -0.97523534 -0.14784369 0.0037654522
0.43558753 0.16460666 -0.0067673158 -0.20473345 -0.96236342 -0.17872003 0.0051143798
0.44439563 0.16181381 -0.0062760646 -0.26057446 -0.93768477 -0.22988731 0.01608786
0.45382354 0.16332634 -0.0096560214 -0.38198137 -0.87612295 -0.29410672 0.024848081
-0.40357706 0.17403184 -0.0082302792 0.44315091 -0.77314389 -0.45372421 0.057190742
-0.38452366 0.17705727 -0.0048989533 0.22401321 -0.90838778 -0.35305762 0.016898474
-0.37038559 0.17909454 -0.0024683923 0.09337125 -0.97260034 -0.21290919 0.066021793
-0.3675541 0.17855574 -0.00059045828 0.13776088 -0.95541847 -0.26114649 0.06977459
-0.35922503 0.17964722 -0.0011355644 -0.021817835 -0.99122041 -0.13040733 0.07808727
-0.22331092 0.17968364 -0.003191533 -0.11328097 -0.99333996 -0.021052599 0.0014279153
-0.21522526 0.17894961 -0.0025550667 -0.16752926 -0.98585987 -0.0037747638 0.0093692606
-0.20717637 0.17771439 -0.0048077866 -0.24193968 -0.96952677 0.038508885 0.022728328
-0.19326816 0.17520468 -0.00081460417 -0.22373465 -0.97116113 0.08239381 0.058248911
-0.18589973 0.17458442 -0.0056079943 -0.21198671 -0.97464222 0.071653649 0.055666763
-0.17372422 0.17497048 -0.0023478018 -0.014073237 -0.98862338 0.14975244 0.078049757
-0.16400826 0.17432988 -0.0065488839 -0.0076485029 -0.99691236 0.078148939 0.058878612
-0.15432464 0.1748576 -0.0023733734 0.0098001212 -0.99211723 0.1249295 0.067030601
-0.14437449 0.17431855 -0.005836755 -0.034703679 -0.9968127 0.071832955 0.061260223
-0.13588408 0.1738538 -0.0088264495 -0.011537771 -0.9979527 0.062907502 0.061479867
-0.12435583 0.17390737 -0.0079765627 0.0012928769 -0.99771732 0.067516521 0.057305854
-0.11364651 0.17481363 -0.0010451501 -0.0063918941 -0.99543566 0.09522111 0.069993541
-0.10328928 0.17408611 -0.0058434405 0.023578325 -0.99394786 0.10729238 0.056994323
-0.099552438 0.17430688 -0.004109459 -0.00016228882 -0.99834019 0.057592507 0.064165197
-0.086733222 0.17409348 -0.005121903 -0.0081727244 -0.99590868 0.089994691 0.059188277
-0.073938377 0.1739794 -0.0054229349 -0.032474849 -0.99774277 0.05877734 0.057873614
-0.066932626 0.17418396 -0.003673129 0.0018956797 -0.99641967 0.084524229 0.06410785
-0.05599308 0.17390105 -0.0052598352 -0.0026442332 -0.99716717 0.0751708 0.059628658
-0.046380401 0.17364006 -0.0068578068 0.0045578983 -0.99751395 0.070322521 0.057311073
-0.035953961 0.17387381 -0.0050355634 -0.0068388339 -0.99688858 0.07852564 0.059471291
-0.024383239 0.173816 -0.0054828981 0.021444371 -0.99379224 0.10916531 0.054889888
-0.012490447 0.17383695 -0.0053209551 0.019718299 -0.9976331 0.065874368 0.060956519
-0.0038212321 0.17367443 -0.0065783113 -0.0071755112 -0.99671626 0.08065556 0.054533176
0.0051322863 0.17362356 -0.0069719055 -0.013211144 -0.99578595 0.090752229 0.055982985
0.015398611 0.17393459 -0.0045655514 -0.010856576 -0.99846005 0.054402612 0.057654876
0.024739327 0.17391083 -0.0047494392 0.012517305 -0.99631047 0.084905073 0.06221275
0.03849059 0.17381281 -0.0057433625 0.023085361 -0.99788082 0.06083525 0.058581963
0.047653664 0.17327911 -0.0095479935 0.0206498 -0.99605173 0.086339988 0.049335241
0.055880606 0.17371032 -0.0060891462 -0.014207976 -0.99904805 0.041244451 0.054786038
0.06311819 0.17344742 -0.0078955311 -0.036701661 -0.99751091 0.060207799 0.057287421
0.074132644 0.17389539 -0.004241196 -0.017782981 -0.99220544 0.12333791 0.053349275
0.084504068 0.17381172 -0.0047500632 0.012832346 -0.99276918 0.11935159 0.052872222
0.094749145 0.17369336 -0.0056224712 0.012841378 -0.99707007 0.075407498 0.057594605
0.1066398 0.17407736 -0.0027809301 -0.012332751 -0.99494374 0.099673279 0.060194649
0.11326122 0.1737224 -0.0054031396 0.022315135 -0.99560076 0.091000848 0.05478964
0.12444211 0.17375621 -0.0051504998 0.0049163187 -0.99835932 0.057048719 0.05460396
0.13784735 0.17343342 -0.0075332052 0.02545408 -0.9978925 0.05968805 0.05004105
0.1464992 0.17369647 -0.0055866903 0.0197786 -0.99716091 0.072656505 0.05551596
0.15757424 0.17342725 -0.0075740498 0.018696472 -0.99899739 0.040678293 0.054945089
