# .PCD v0.7 - Point Cloud Data file format
VERSION 0.7
FIELDS x y z normal_x normal_y normal_z curvature
SIZE 4 4 4 4 4 4 4
TYPE F F F F F F F
COUNT 1 1 1 1 1 1 1
WIDTH 575
HEIGHT 1
VIEWPOINT 0 0 0 1 0 0 0
POINTS 575
DATA ascii
0.37742558 0.18659894 0.0050759953 -0.0028944141 -0.98891509 -0.14845379 0.0013051666
0.38533816 0.18658771 0.0057332204 -0.0028229936 -0.98985118 -0.14208007 0.0012920653
0.39345026 0.18657145 0.0058065322 -0.00274103 -0.99046254 -0.13775481 0.0012836416
0.40060979 0.18672884 0.0043493356 -0.0010859981 -0.99060702 -0.13673475 0.001055602
0.41837001 0.18591896 0.0087504657 0.0082484484 -0.9883188 -0.15217756 0.0013062318
0.42536426 0.18649334 0.0061589633 0.004100407 -0.98904598 -0.14755079 0.0013181031
0.43621695 0.18691447 0.0042589433 0.0077073118 -0.99316055 -0.11650213 0.0015027589
0.44322187 0.18710566 0.0033963185 0.00021648739 -0.994093 -0.10853134 0.0015244256
0.45466825 0.1865022 0.0061190166 -0.011645388 -0.9909665 -0.13360322 0.0014407922
0.46936446 0.18736713 0.00198737 -0.18913759 -0.97774863 -0.090744786 0.033274271
0.47564796 0.18691495 0.0039742291 -0.44286582 -0.8914668 -0.095691703 0.065656744
0.48338306 0.18449974 0.0061546988 -0.77301818 -0.63010055 -0.073594376 0.083519951
-0.41297114 -0.18422818 0.011937913 0.25320089 0.51294667 -0.8202287 0.065518036
-0.4057934 -0.18283324 0.013437022 0.26118585 0.53205198 -0.80542076 0.058498327
-0.39507401 -0.18462513 0.014275472 0.16745688 0.73939186 -0.65211803 0.076875761
-0.3853648 -0.18472308 0.014145832 0.17085883 0.80213594 -0.5721758 0.061428912
-0.37768421 -0.18441664 0.015528453 0.14488181 0.86761266 -0.47566533 0.060891066
-0.36456326 -0.18356298 0.019379975 0.1716927 0.80617422 -0.56621963 0.06872867
-0.35606483 -0.18452196 0.015053222 0.045619287 0.91749793 -0.39511582 0.043033369
-0.34412134 -0.18435873 0.015789712 0.065934353 0.9325859 -0.354875 0.041189335
-0.33680403 -0.18462214 0.014601259 0.01778866 0.95847303 -0.2846278 0.025129164
-0.32422507 -0.18488552 0.013412924 0.016512157 0.97973174 -0.199632 0.0034330313
-0.31488252 -0.18451507 0.015084338 0.00729828 0.97410035 -0.22599839 0.0036274248
-0.30428049 -0.18423574 0.016344691 0.0016635724 0.98107404 -0.19362591 0.00037395468
-0.29130793 -0.1848523 0.01356283 0.0008340631 0.9814257 -0.19184092 0.00042264539
-0.28461161 -0.18517905 0.012088634 -0.0032360894 0.98574102 -0.16823855 0.0012049136
-0.27946705 -0.18440941 0.015561099 0.00042435271 0.98048598 -0.19658881 0.00035641226
-0.25581592 -0.18437275 0.015726395 -0.0058572968 0.9822399 -0.18753798 0.00064929196
-0.24330509 -0.18457226 0.014826377 0.0004507688 0.98252237 -0.18614408 0.00065509719
-0.21619841 -0.18424594 0.016298614 0.0011922622 0.98054534 -0.19628906 0.00024146354
-0.20368579 -0.18465042 0.014473753 -0.0060717813 0.98483276 -0.17339993 0.00095477252
-0.19893074 -0.18345943 0.01984716 0.0012935259 0.97964311 -0.20074281 0.00022615695
-0.18192196 -0.1852614 0.011717119 0.0063190022 0.9843086 -0.17634234 0.00088239711
-0.17306092 -0.1850355 0.01273637 0.0065171951 0.98363513 -0.18005423 0.00071877037
-0.16943468 -0.18494104 0.013162513 0.00015831026 0.98128492 -0.19256149 0.00041972505
-0.15900698 -0.18414363 0.016760211 -0.001292354 0.98147488 -0.19158645 0.00044871346
-0.1453923 -0.1839664 0.017559901 -0.00072656537 0.98133481 -0.1923057 0.00043126245
-0.13653228 -0.18448122 0.015237127 0.0032034919 0.98420537 -0.1770017 0.00078313675
-0.11621945 -0.18429269 0.016087672 0.0041816374 0.97989219 -0.19948338 0.00018188496
-0.10508272 -0.18454872 0.014932573 0.0045133675 0.98261452 -0.18560274 0.00070283824
-0.097691864 -0.18407021 0.017091511 -0.0044623036 0.98245794 -0.18643071 0.00059595582
-0.087506816 -0.18504655 0.012686444 -0.0064083501 0.9852891 -0.17077579 0.00093578623
-0.074982345 -0.18430144 0.016048267 0.0034258917 0.98146725 -0.19159943 0.00042857544
-0.065220587 -0.1842891 0.016103914 0.0016977293 0.98009783 -0.19850774 0.00036939755
-0.056927133 -0.18496475 0.013055586 0.0061968551 0.98696345 -0.16082543 0.0012580055
-0.045807034 -0.18463957 0.014522653 0.0028554383 0.98455429 -0.17505604 0.00090443535
-0.035151582 -0.18479946 0.01380126 0.0053748745 0.98617798 -0.16560218 0.0011138755
-0.024000758 -0.18444818 0.015386144 0.00046874615 0.98394382 -0.17847794 0.00089603337
-0.013234109 -0.18437436 0.015719131 -0.0075187949 0.98132265 -0.19222225 0.00055457623
-0.003855942 -0.18489909 0.013351809 -0.001806639 0.98396444 -0.17835581 0.00091167935
0.015339915 -0.18415689 0.016700339 -0.00060450583 0.98037475 -0.19714202 0.00029092419
0.022467161 -0.18473262 0.014102851 -0.00028071913 0.98051888 -0.19642462 0.00030312416
0.038199563 -0.18512291 0.012341985 -0.0037631369 0.98519856 -0.17137581 0.0010435277
0.044327974 -0.18434612 0.015846562 -0.0016681921 0.98437411 -0.17608196 0.00079595816
0.055418488 -0.18427771 0.016155243 -0.00033150165 0.98220515 -0.18781057 0.00048443463
0.066492349 -0.18462248 0.014599774 0.0024959105 0.98425734 -0.17672378 0.00078086776
0.075888112 -0.18484896 0.013577931 -0.0011062862 0.98632044 -0.1648355 0.0012518623
0.086775467 -0.18430057 0.016052129 -0.0038308417 0.98323423 -0.18230675 0.00082558178
0.093339279 -0.18464288 0.014507668 -0.0012480434 0.98448384 -0.17547104 0.00073801656
0.10242406 -0.18450513 0.015129209 -0.007990255 0.98388726 -0.1786111 0.00074487133
0.11612868 -0.18401298 0.017349705 -0.0048076538 0.98155248 -0.19113219 0.00031490685
0.12225731 -0.18351042 0.019617116 -0.0011732876 0.97984469 -0.19975716 0.00025204744
0.13512681 -0.18439889 0.015608631 0.0027739108 0.98259729 -0.18572764 0.000606574
0.14990699 -0.18367983 0.018852733 -0.00087733142 0.97920436 -0.20287427 0.00018783925
0.15435433 -0.18472916 0.014118433 0.0029182015 0.98160338 -0.19090903 0.00036931035
0.17624588 -0.18480945 0.013756257 0.003349999 0.98338622 -0.18149489 0.00065345748
0.18396311 -0.18520594 0.011967367 -0.0065709981 0.98663735 -0.16279906 0.0013080749
0.19499843 -0.18464452 0.014500302 0.0044448441 0.98194146 -0.18913268 0.00038730682
0.20378016 -0.18413253 0.016810216 0.003556486 0.98077482 -0.19511043 0.00036832693
0.21476811 -0.18490365 0.013331128 0.0088156015 0.98373073 -0.17943293 0.00076197064
0.22490142 -0.18449236 0.015186802 -0.0057468959 0.98212814 -0.18812582 0.00047508592
0.23414913 -0.18492791 0.013221754 -0.001615911 0.98452431 -0.17524034 0.001017736
0.24184619 -0.18423855 0.016331855 -0.00015632645 0.98202258 -0.18876345 0.00062019465
0.25619483 -0.18486267 0.013516013 -0.0053382674 0.98445755 -0.17554179 0.00086278294
0.26514101 -0.18417901 0.016600559 0.0037865818 0.98147136 -0.19157115 0.00050356908
0.27901548 -0.18475351 0.014008572 -0.004172436 0.98196751 -0.1890036 0.00036835665
0.2829316 -0.18502966 0.012762765 -0.012553073 0.98588729 -0.16693915 0.00086929265
0.29435962 -0.18472035 0.014158146 -0.0014719571 0.98358357 -0.18044735 0.00073379668
0.30585536 -0.18476993 0.013934614 -0.00017044273 0.98443997 -0.1757213 0.0008038985
0.31555942 -0.1844634 0.015317502 -0.00067874632 0.98412818 -0.17745776 0.00076234189
0.32949951 -0.1844911 0.015192475 0.00042408734 0.98340905 -0.18140122 0.00073286373
0.33901677 -0.18456484 0.014859793 0.002619911 0.98278785 -0.1847192 0.00066669215
0.34333104 -0.18446991 0.015288087 0.0024843579 0.98250932 -0.18619697 0.00043364163
0.35515621 -0.18448526 0.015218844 0.0020726931 0.98313862 -0.18284997 0.00084992073
0.36562562 -0.18409537 0.016977927 0.0016951575 0.97944051 -0.20172618 0.00021062093
0.37256327 -0.18425247 0.016269121 0.001664591 0.97908026 -0.20346756 0.00017233504
0.38710874 -0.18444225 0.015412915 -0.00032247102 0.98328722 -0.18206105 0.00088765484
0.39797568 -0.1849135 0.013286765 -0.0014584756 0.98590851 -0.16727914 0.0011184965
0.40640643 -0.18460713 0.014669028 -0.0019657649 0.98348802 -0.18096218 0.00086486631
0.42426166 -0.1841743 0.016621862 0.0030855075 0.98008615 -0.19854884 0.00019746489
0.43453169 -0.18378299 0.018387303 0.0013404984 0.9798429 -0.19976528 0.00022061574
0.4466511 -0.18409412 0.016983598 0.004153634 0.98047769 -0.19658647 0.00030206959
0.45249432 -0.1843159 0.015982967 0.0046224655 0.98292625 -0.18394156 0.00067416066
0.46402335 -0.18476303 0.013965595 -0.20831884 0.95794439 -0.19734694 0.037544768
0.47471046 -0.18445256 0.015366348 -0.44077709 0.87943321 -0.17975745 0.067174733
0.48342821 -0.18287587 0.011078679 -0.76588231 0.62378985 -0.15591797 0.069229469
-0.41562039 -0.1712964 0.011256404 0.31558281 0.23356281 -0.91970426 0.033639885
-0.40719756 -0.17769356 0.013815056 0.27286813 0.45863816 -0.84569138 0.061104745
-0.39365575 -0.17563577 0.017928686 0.31635812 0.42803666 -0.84658259 0.063601829
0.48358774 -0.17365274 0.014239643 -0.91447645 0.39179373 -0.10114571 0.060880519
-0.4172824 -0.16293438 0.010751534 0.31613213 0.12549803 -0.94037801 0.018346099
-0.40428713 -0.16565533 0.014699153 0.29757893 0.14261346 -0.94398528 0.025030134
-0.39586335 -0.16678534 0.017258069 0.2897653 0.17310044 -0.9413141 0.036398292
-0.38787061 -0.1658401 0.019686051 0.26250246 0.15523084 -0.95236325 0.028730867
0.48351923 -0.16249612 0.014878689 -0.96919477 0.19631863 -0.14872944 0.035595778
-0.40505493 -0.15656263 0.014465906 0.28687656 0.014536423 -0.95785725 0.00058930821
-0.39343739 -0.1537845 0.017995013 0.29068947 2.0360625e-05 -0.95681745 0
0.48316824 -0.15931392 0.018154245 -0.98583627 0.094249465 -0.13872232 0.011444743
-0.41499171 -0.14157502 0.011447389 0.29064849 3.4898185e-06 -0.95682985 2.6445346e-06
-0.4047358 -0.1431734 0.014562853 0.2906566 1.4664986e-05 -0.9568274 0
-0.39366385 -0.14610118 0.017926214 0.29070213 -4.5572142e-06 -0.95681363 0
-0.38686889 -0.14238065 0.019990355 0.29070842 -1.3607677e-05 -0.95681167 0
0.48403224 -0.14781025 0.010091382 -0.99430716 -3.0576219e-05 -0.10655163 0
-0.41451678 -0.13512516 0.011591661 0.29063332 -1.5727974e-05 -0.95683455 4.4838084e-06
-0.40379381 -0.13580911 0.014849012 0.29066995 1.6870288e-05 -0.95682341 0
-0.39707372 -0.13370597 0.016890394 0.29067248 1.6541648e-05 -0.95682269 0
-0.38750383 -0.13556486 0.019797482 0.29066133 3.1091026e-06 -0.95682603 9.3408283e-07
0.48362219 -0.13492182 0.013917661 -0.99430835 3.7908227e-05 -0.10654055 0
-0.41642368 -0.12435044 0.011012394 0.29066485 8.2690894e-06 -0.95682496 0
-0.40227485 -0.12589678 0.015310425 0.29062593 8.4827034e-06 -0.95683682 6.4455185e-06
-0.39604753 -0.12617519 0.017202118 0.29060215 9.5373807e-06 -0.95684397 9.6874546e-06
-0.38914675 -0.12075062 0.019298397 0.29066291 -2.8148537e-07 -0.95682549 1.0560328e-06
0.48323789 -0.12487652 0.017504258 -0.99430746 -2.5637397e-05 -0.10654914 7.0639417e-06
-0.41784263 -0.11623067 0.010581342 0.2908594 -2.5138846e-05 -0.95676583 4.8906254e-06
-0.40225562 -0.11270758 0.01531626 0.29061902 -1.5835005e-05 -0.95683885 7.2124953e-06
-0.39287633 -0.11658965 0.018165454 0.29061094 -9.7368711e-06 -0.95684129 9.1885213e-06
-0.38904315 -0.11852213 0.019329879 0.29065779 8.0113605e-06 -0.95682704 1.0490559e-06
0.48386398 -0.11545588 0.011661683 -0.99430823 -1.4593475e-05 -0.1065414 5.2067935e-06
-0.41666836 -0.10346289 0.010938064 0.29251108 -0.00025903012 -0.95626205 5.7868357e-07
-0.40725151 -0.10247111 0.013798649 0.29070222 1.8180701e-05 -0.95681357 0
-0.39462543 -0.10542436 0.017634125 0.29067808 3.85563e-06 -0.95682096 0
-0.41499761 -0.091711335 0.011445586 0.29067406 1.1630074e-05 -0.95682216 0
-0.40600052 -0.09397909 0.014178663 0.29062244 4.2457405e-06 -0.95683777 6.3230755e-06
-0.39681274 -0.098532513 0.016969673 0.29070392 1.1947003e-05 -0.95681304 0
0.48380595 -0.097559027 0.012203116 -0.99430734 2.8759576e-05 -0.10655025 0
-0.41121987 -0.087413281 0.012593169 0.29065317 2.558028e-06 -0.95682847 1.8105945e-07
-0.4036749 -0.083194703 0.014885133 0.29061562 2.9164723e-06 -0.95683986 5.6901949e-06
-0.39203656 -0.085565694 0.01842056 0.29071766 1.2828182e-06 -0.95680892 0
0.48367751 -0.08640644 0.013401242 -0.99430782 1.7339544e-05 -0.10654543 0
-0.41540137 -0.076840684 0.011322933 0.29061714 -1.2848494e-05 -0.95683944 6.6595976e-06
-0.40741691 -0.075215369 0.013748415 0.2905753 1.5203142e-06 -0.95685214 1.2472477e-05
-0.38811362 -0.074002497 0.019612238 0.29062906 -1.3087215e-06 -0.95683581 5.5692481e-06
0.48345658 -0.07493446 0.015463638 -0.99430424 -3.0747062e-05 -0.10657876 0.00016517947
-0.41157335 -0.068143159 0.012485782 0.2906498 -7.4529094e-06 -0.95682949 1.5571487e-06
-0.40288889 -0.065174319 0.0151239 0.29067066 -4.9420487e-06 -0.95682317 0
-0.39130864 -0.068577304 0.018641671 0.29062197 -4.4010753e-06 -0.95683789 6.8690397e-06
0.48368597 -0.063306466 0.013322954 -0.9943071 3.3216205e-05 -0.10655218 0
-0.41346964 -0.056510121 0.01190976 0.29070231 -5.621112e-06 -0.95681351 0
-0.4057849 -0.053549193 0.014244178 0.29068652 -8.4641433e-06 -0.95681834 0
-0.39683267 -0.054522339 0.016963614 0.29062736 -1.6402194e-06 -0.95683634 5.4675884e-06
-0.38852191 -0.056116726 0.01948821 0.29067308 -7.028867e-06 -0.9568224 0
0.48321843 -0.053436644 0.017685834 -0.99367213 0.030045619 -0.1082269 0.00079520064
-0.41405508 -0.04708349 0.01173191 0.2906819 -1.7816532e-08 -0.95681971 0
-0.40024948 -0.043864422 0.015925687 0.29061753 -5.8238038e-06 -0.95683926 6.9390776e-06
-0.39791948 -0.047218945 0.016633481 0.2906872 -5.3550046e-08 -0.9568181 0
-0.38882226 -0.045214269 0.019396968 0.29062766 -3.228299e-06 -0.95683622 5.4099573e-06
0.48329744 -0.046173982 0.016948719 -0.99294931 0.031903729 -0.11416534 0.00071379647
-0.41334805 -0.034603648 0.011946684 0.29064018 -3.0267864e-07 -0.95683241 4.0204159e-06
-0.39592001 -0.032011319 0.017240861 0.29067943 2.369357e-07 -0.95682055 0
0.48605949 -0.031963028 0.014688129 -0.99368459 0.043143332 -0.10358381 0.0022652519
-0.41199732 -0.022820957 0.012356995 0.29071543 8.5723116e-07 -0.95680958 0
-0.40309417 -0.025413252 0.015061539 0.29066691 1.707037e-06 -0.95682424 0
-0.39449805 -0.022881016 0.017672818 0.29055887 -1.4001987e-05 -0.95685709 1.30685e-05
-0.38809595 -0.024405643 0.01961761 0.29061022 3.6840095e-06 -0.95684153 7.8544981e-06
0.48500475 -0.023450399 0.015741553 -0.99312717 0.024647471 -0.11441548 0.0028139672
-0.41795769 -0.012036758 0.010546394 0.29064316 3.3316974e-07 -0.95683146 2.9753764e-06
-0.4047713 -0.016520025 0.014552079 0.29064083 -5.1354056e-07 -0.95683229 2.8115339e-06
-0.3950021 -0.014160511 0.017519709 0.2905975 5.9366066e-06 -0.95684534 1.1738807e-05
0.48514882 -0.017756784 0.014506216 -0.99393547 0.0116353 -0.10934796 0.0033050624
-0.41075322 -0.0014416352 0.012734926 0.29065648 9.6233144e-08 -0.9568274 1.1990903e-06
-0.40435106 -0.0043032835 0.014679736 0.29068506 2.5642687e-06 -0.95681882 0
-0.39358965 -0.0040356014 0.017948762 0.29060081 2.3720986e-06 -0.95684439 9.756277e-06
-0.38880157 -0.004273925 0.019403268 0.29062515 -3.1286108e-06 -0.956837 4.2309057e-06
0.48555055 -0.0055451086 0.015286763 -0.9912805 -0.013401962 -0.13108535 0.0030336294
-0.41311416 0.005376955 0.012017739 0.29073185 -7.7260047e-06 -0.95680457 0
-0.40647388 0.0037091833 0.014034875 0.29067281 7.8281619e-07 -0.95682257 0
-0.39517546 0.0041271709 0.017467031 0.29061207 -4.4312947e-06 -0.95684093 7.889882e-06
-0.38854155 0.0077819019 0.019482242 0.29063812 -1.2224749e-06 -0.95683312 4.5886195e-06
0.48338571 0.00076416135 0.016124791 -0.99088889 -0.012874678 -0.13406493 0.0024515903
-0.41435373 0.014838152 0.011641176 0.2906214 8.0861828e-06 -0.95683813 5.6598847e-06
-0.40580061 0.016681278 0.014239401 0.29078412 5.1457473e-06 -0.95678866 0
-0.39480984 0.018191576 0.017578097 0.29069889 -6.0707697e-07 -0.95681459 0
-0.38691649 0.013395526 0.019975897 0.29068449 -1.6141713e-06 -0.956819 0
0.48555654 0.01633409 0.015120175 -0.9904837 -0.013844222 -0.13693202 0.0015091883
-0.4144789 0.020107843 0.011603167 0.29061151 1.1385537e-06 -0.95684111 7.7386276e-06
-0.40463534 0.025705475 0.014593375 0.29059088 3.3096109e-07 -0.95684743 1.1252143e-05
-0.39418945 0.023011021 0.017766565 0.29064983 2.5555214e-06 -0.95682943 9.2745222e-07
-0.38883895 0.029925507 0.019391913 0.290649 1.6884835e-07 -0.95682979 1.0429512e-06
0.48543233 0.025644097 0.015955277 -0.99189723 -0.015535904 -0.1260891 0.0012668337
-0.41359222 0.03573155 0.01187251 0.29065815 -1.5474296e-06 -0.95682698 0
-0.40566984 0.033507157 0.014279117 0.2905573 1.4436548e-05 -0.95685762 1.5039215e-05
-0.39373976 0.03549733 0.017903171 0.29054937 9.6475351e-06 -0.95686001 1.5430933e-05
0.48481634 0.036506351 0.015747434 -0.99228495 -0.034233335 -0.11915805 0.00073951267
-0.41502994 0.048249997 0.011435772 0.29067251 1.1361208e-06 -0.95682257 0
-0.40609041 0.04382854 0.014151352 0.29068789 -5.3931303e-06 -0.95681792 0
-0.39539981 0.044807401 0.017398886 0.29074049 -4.2865622e-06 -0.95680195 0
-0.38958365 0.045564719 0.019165682 0.29066679 1.9171234e-06 -0.95682436 0
0.48367232 0.046756741 0.013450387 -0.99389118 -0.02987436 -0.10624371 0.00056164915
-0.41554222 0.055228096 0.011280154 0.29061189 -2.2902245e-06 -0.95684105 8.8515253e-06
-0.40495521 0.059093036 0.014496199 0.29069072 7.1022455e-06 -0.95681703 0
-0.39366096 0.05639603 0.017927105 0.29062122 4.6989999e-06 -0.95683819 4.3496934e-06
-0.3871578 0.055579618 0.019902589 0.29073203 -1.2709236e-06 -0.95680445 0
0.48371655 0.0581697 0.013037076 -0.99425441 -0.017674716 -0.10557361 7.3924341e-05
-0.41371739 0.064010561 0.011834491 0.2906757 -7.9102556e-06 -0.95682156 0
-0.40496001 0.064720035 0.014494745 0.2906062 2.1821579e-06 -0.95684272 9.0704043e-06
-0.39405388 0.063642129 0.017807744 0.29054484 5.028704e-06 -0.95686144 1.6258207e-05
-0.38815552 0.068268247 0.019599497 0.29062545 -9.5916394e-06 -0.95683688 5.1406932e-06
0.48379439 0.060251322 0.012310775 -0.99431086 -0.016358482 -0.10525355 0.00014870698
-0.41387409 0.076711804 0.011786878 0.29067233 9.8229957e-06 -0.95682263 0
-0.40655872 0.073186822 0.014009104 0.29058591 2.0703023e-05 -0.95684892 1.2439168e-05
-0.39624467 0.0748014 0.017142229 0.29071361 -1.7844499e-05 -0.95681012 0
-0.38727835 0.078829721 0.019865958 0.29055479 -2.3540395e-06 -0.9568584 1.4855624e-05
0.48366871 0.072939895 0.013483656 -0.99430591 -1.8045255e-05 -0.1065637 0
-0.41864187 0.086405262 0.010338566 0.29111779 -0.00016834178 -0.95668721 0
-0.40664092 0.086378716 0.013984124 0.29073584 9.9482442e-08 -0.95680332 0
-0.39417839 0.08558666 0.01776992 0.29068488 -6.266011e-06 -0.95681888 0
-0.38830128 0.08452981 0.019555222 0.2906341 -2.773809e-06 -0.95683432 2.6935613e-06
0.48351842 0.083919182 0.014886536 -0.99430728 -1.8315674e-05 -0.10655076 0
-0.41338143 0.097557344 0.011936539 0.29068968 -3.0589144e-06 -0.95681739 0
-0.40194833 0.094152741 0.015409617 0.29067773 -7.9696338e-06 -0.95682102 0
-0.39272892 0.092332214 0.018210238 0.29067788 -1.2718199e-06 -0.95682102 0
-0.3893638 0.099593341 0.019232467 0.29067418 7.9146599e-07 -0.95682204 0
0.48363394 0.093928084 0.013808487 -0.99430722 -2.0563913e-05 -0.10655115 0
-0.41426653 0.10520963 0.011667673 0.2906602 1.1993274e-05 -0.95682639 0
-0.40438199 0.10673336 0.014670335 0.29063267 1.1356368e-05 -0.95683467 3.9832794e-06
-0.39656866 0.10438372 0.017043827 0.29075447 -1.2496242e-05 -0.95679766 0
0.48323393 0.10536791 0.017540902 -0.99430799 -3.3621345e-05 -0.10654428 0
-0.41073593 0.11102155 0.012740181 0.29058486 2.6405034e-05 -0.95684922 1.1917572e-05
-0.40663484 0.11554886 0.013985982 0.29062751 2.2343734e-06 -0.95683622 4.720262e-06
-0.39379111 0.11497991 0.017887557 0.2906602 4.0052055e-06 -0.95682627 0
0.4837054 0.11635978 0.013141382 -0.99430686 8.8387642e-06 -0.10655445 0
-0.41528377 0.1261462 0.011358663 0.29060009 -6.9844009e-07 -0.95684463 9.5679252e-06
-0.39542031 0.12386611 0.01739266 0.29066908 1.5781867e-05 -0.95682365 0
-0.38818577 0.12426668 0.019590316 0.29067352 -3.6709914e-06 -0.95682222 0
0.48373991 0.12277895 0.012819261 -0.99430645 -1.3616164e-05 -0.10655844 0
-0.41373849 0.13524468 0.011828081 0.29067945 -8.1524468e-06 -0.95682049 0
-0.40087238 0.13687184 0.015736457 0.29063016 2.2886077e-06 -0.95683551 4.3984833e-06
-0.39553609 0.13194209 0.01735748 0.29058072 1.1156422e-06 -0.95685053 1.1163593e-05
0.4836809 0.13947171 0.013370046 -0.9943077 2.4984683e-05 -0.10654713 0
-0.4114117 0.1432666 0.01253489 0.2906408 8.7628459e-06 -0.95683223 2.134022e-06
-0.40531549 0.14716253 0.014386757 0.29065728 -1.2503769e-07 -0.95682722 2.6711729e-07
-0.39619336 0.14624758 0.017157828 0.29062939 -1.6471164e-06 -0.95683569 2.7026881e-06
0.48366049 0.14569344 0.013560374 -0.9943071 1.8782999e-05 -0.10655259 2.5969463e-05
-0.4162437 0.15233055 0.011067059 0.29062021 1.1878244e-05 -0.95683843 5.8449814e-06
-0.40326995 0.15546146 0.015008148 0.29071271 -4.8237794e-06 -0.95681041 0
-0.3956511 0.15473717 0.01732255 0.29054871 -0.0091590034 -0.95681638 0.00031834352
-0.38878894 0.15480748 0.019407099 0.29119492 -0.022904741 -0.95638949 0.0022115172
0.48401862 0.15555012 0.010218528 -0.99423432 -0.0072719879 -0.1069824 0.00016041529
-0.41578624 0.16408618 0.011206022 0.31363472 -0.17067084 -0.93407965 0.026567178
-0.40432754 0.166438 0.014686878 0.29213864 -0.17572147 -0.94009417 0.029504795
-0.39320126 0.16392991 0.018066732 0.29077697 -0.139998 -0.94649321 0.022099182
-0.38909993 0.16857016 0.019312622 0.25702292 -0.22410417 -0.94006193 0.031858247
0.48350611 0.16294351 0.015001434 -0.98152125 -0.16635393 -0.094564348 0.033063367
-0.41501147 0.17518374 0.011441388 0.22829029 -0.32562634 -0.9175244 0.052924577
-0.40472141 0.17267056 0.014567223 0.3129226 -0.28463045 -0.90612638 0.044505518
-0.39683479 0.17473343 0.016962983 0.27282742 -0.38604692 -0.8812111 0.071160801
-0.38692543 0.17980511 0.019973172 0.24144353 -0.5517925 -0.79826695 0.081367441
0.48350495 0.17825399 0.015011924 -0.89250427 -0.43707526 -0.11136082 0.063304342
-0.40724304 0.18362875 0.013801229 0.28330576 -0.49974671 -0.8185299 0.056670915
-0.3944869 0.18440235 0.015593025 0.21798337 -0.66643363 -0.71298629 0.08302103
-0.38587779 0.18397747 0.014274961 0.17547351 -0.71740341 -0.67419684 0.093043089
-0.37608829 0.18492329 0.013242684 0.1876523 -0.81335187 -0.5506773 0.052904811
-0.36859649 0.18440369 0.015586921 0.081617191 -0.86530036 -0.49456429 0.049547389
-0.35042197 0.18385388 0.018067587 0.11506225 -0.8534407 -0.5083304 0.06686642
-0.33463866 0.18416168 0.016678879 0.030782364 -0.93065208 -0.36460823 0.038597498
-0.32412255 0.1846385 0.014527552 0.00051698572 -0.97640157 -0.21596229 0.0028520548
-0.31427118 0.18377219 0.018436216 0.02624834 -0.95803982 -0.28543073 0.013115276
-0.30328089 0.18467656 0.014355826 0.0032754489 -0.9838227 -0.17911477 0.00071274117
-0.29867294 0.18460959 0.014657993 0.0034952376 -0.98379391 -0.17926903 0.00064937823
-0.28592941 0.18451473 0.015086015 0.0043509635 -0.98268169 -0.18525055 0.00062696543
-0.27436784 0.18460006 0.014701009 -0.00010316519 -0.9810347 -0.19383237 0.00034843481
-0.26595742 0.18518981 0.012040131 -0.010670956 -0.98294282 -0.1836015 0.00057577557
-0.25767639 0.1844995 0.015154677 -0.0063392222 -0.98297399 -0.18363544 0.00058595545
-0.2446425 0.18413162 0.016814472 -0.00040052223 -0.98220384 -0.18781745 0.00052149943
-0.23507889 0.18386544 0.018015396 0.00041251929 -0.98078835 -0.19507417 0.00034293486
-0.22121389 0.18461411 0.014637576 0.0036973897 -0.98199522 -0.18886936 0.0005940682
-0.21690565 0.18426628 0.01620682 0.0025320309 -0.97932178 -0.20229286 0.00018152873
-0.20472297 0.18443942 0.015425624 -0.00049686938 -0.9809199 -0.19441175 0.0003534978
-0.19645588 0.1847098 0.014205792 -0.00065590785 -0.98152882 -0.19131316 0.000422404
-0.18929867 0.18459757 0.014712196 -0.00076534221 -0.98027182 -0.19765283 0.00036715277
-0.17374174 0.18463594 0.014539085 -0.002235601 -0.98249334 -0.18628418 0.00074765825
-0.16607864 0.18469411 0.014276611 -0.00031033272 -0.98087949 -0.19461593 0.00034398897
-0.15584238 0.18444557 0.015397921 0.0034219744 -0.98291171 -0.1840456 0.00068064011
-0.14336954 0.18399675 0.017422879 0.0021757155 -0.9799304 -0.19932781 0.00022099524
-0.1364841 0.18507874 0.012541243 0.0010316464 -0.98457134 -0.17498024 0.00096260011
-0.12611726 0.1838668 0.018009242 -0.0019365132 -0.97969866 -0.20046607 0.00020897416
-0.11411322 0.1837613 0.018485231 0.00082590297 -0.9797768 -0.20009203 0.00021240386
-0.10502765 0.18494415 0.013148542 -0.00016098957 -0.98580492 -0.1678948 0.001104568
-0.093120039 0.18467671 0.014355173 0.00015632702 -0.9839133 -0.17864645 0.00076198822
-0.087015107 0.18472058 0.014157202 -0.0042087426 -0.9852432 -0.17110837 0.00096861541
-0.079102516 0.1846894 0.014297871 -0.0038379843 -0.98370415 -0.17975381 0.0007819857
-0.064339176 0.18488419 0.013418957 -0.00030598752 -0.98532075 -0.17071316 0.00097406603
-0.052815437 0.18420073 0.016502641 0.0022840637 -0.98093641 -0.19431587 0.00040471973
-0.046307035 0.18452315 0.015047983 0.0046152128 -0.9827255 -0.18501186 0.00084450032
-0.034527384 0.18463233 0.014555297 0.0052297055 -0.98506564 -0.17209961 0.0008993221
-0.01454407 0.1846818 0.014332089 -0.0066989413 -0.98365146 -0.1799583 0.00056865503
-0.0055091614 0.18402708 0.01728614 -0.0053719832 -0.98124117 -0.19270951 0.00042701507
0.0046818852 0.18414399 0.016758695 -0.0043911934 -0.98055643 -0.1961886 0.00042970685
0.017899375 0.18466723 0.014397908 0.001566793 -0.98193246 -0.18922542 0.00044292648
0.022551939 0.1844444 0.015403246 -0.0014590907 -0.98176938 -0.19007055 0.00039497516
0.034305658 0.18437032 0.01573748 0.0044404194 -0.98065299 -0.19570388 0.00040440407
0.046652604 0.18467206 0.014376136 0.0048743971 -0.98379117 -0.17925173 0.0010581386
0.054885793 0.1847851 0.013866054 0.0013078994 -0.98555803 -0.16933325 0.0010712094
0.067479141 0.18357085 0.019344525 -0.0034286862 -0.97927713 -0.20249581 0.00047263628
0.07702177 0.18472871 0.01412047 -0.0048249145 -0.98398012 -0.17821293 0.00086187728
0.083263606 0.18463939 0.014523549 -0.0085901525 -0.98396266 -0.17816755 0.00085051899
0.091242023 0.18442762 0.015478972 -0.0016002613 -0.98139161 -0.19201043 0.00055771042
0.10569222 0.1843328 0.01590674 -0.0002562849 -0.97974437 -0.2002521 0.00019797568
0.11887615 0.18482417 0.013689812 0.0011855131 -0.98440439 -0.17591661 0.0006679098
0.12483392 0.1846607 0.014427448 0.00030458008 -0.9809888 -0.19406387 0.00030274622
0.13262348 0.18394472 0.017657677 -0.0010111684 -0.98043031 -0.19686383 0.0002522076
0.1450431 0.18444207 0.015413733 -0.0020663161 -0.98059243 -0.19604644 0.0002584203
0.15557648 0.18511121 0.012394875 -0.0012903035 -0.98502856 -0.17238626 0.00092649035
0.1653256 0.18519226 0.012029092 0.00075725967 -0.9854427 -0.17000607 0.0011606204
0.17746681 0.1845292 0.01502066 0.00067702163 -0.97913426 -0.20321316 0.0002372396
0.18389001 0.18433072 0.015916195 0.00081021863 -0.97931057 -0.20236151 0.00029839919
0.19359052 0.18491328 0.013287838 -0.001459118 -0.98480707 -0.17364575 0.0010942345
0.20324922 0.18417655 0.016611762 -0.0017292554 -0.98022324 -0.19788711 0.00027743535
0.21416099 0.18451712 0.015075132 -0.0027884559 -0.98273247 -0.18501095 0.00064837013
0.2266393 0.18447593 0.015261073 0.00086105504 -0.98093367 -0.19434106 0.00033808665
0.23612621 0.18380734 0.018277528 0.00073928066 -0.97954082 -0.20124426 0.00027876298
0.24442427 0.18433993 0.015874621 -0.0010774201 -0.98290974 -0.18408491 0.00078758009
0.26396191 0.18491423 0.013283473 -0.0017881579 -0.98510277 -0.17195718 0.00097256235
0.27602851 0.18490162 0.013340378 -0.0031717285 -0.98264861 -0.18544991 0.00068039703
0.28481704 0.18457037 0.01483488 0.00030000947 -0.98402488 -0.17803058 0.00091741013
0.29662615 0.18405792 0.017146908 -0.0020292955 -0.97993517 -0.19930623 0.0003421618
0.30053359 0.18379924 0.018314099 -0.0016651442 -0.98026884 -0.19766216 0.00031384482
0.3162466 0.1851085 0.012407036 -0.0016517281 -0.98406434 -0.17780536 0.0008420801
0.32490337 0.18426281 0.016222607 -0.00085815665 -0.98038292 -0.19710037 0.00027402869
0.33341241 0.1848985 0.013354537 -0.00099871948 -0.98421103 -0.17699604 0.00092860975
0.34533876 0.1841428 0.016763965 0.00044748886 -0.97935772 -0.20213409 0.00013045203
0.35713565 0.18408442 0.017027423 -0.0017021545 -0.98040235 -0.19699843 0.00022612225
0.36616898 0.18465233 0.014465096 -0.0004176907 -0.98274404 -0.18497032 0.00076511304
0.37463799 0.18415615 0.016703803 -0.0018776251 -0.9798243 -0.19985211 0.00020676992
0.40475512 0.18476239 0.013968605 0.00052536395 -0.9837364 -0.17961726 0.0007805124
0.41240895 0.18450093 0.015148196 0.00064095994 -0.98286974 -0.18430068 0.00072717975
0.4257291 0.18481682 0.01372299 0.007093179 -0.98540485 -0.17007989 0.0011181327
0.43351212 0.18477692 0.01390303 -0.0040211976 -0.98433203 -0.1762794 0.00093925948
0.44610262 0.18507333 0.012565647 -0.0030633183 -0.98438436 -0.17600581 0.00089031825
0.453731 0.18426864 0.016196292 -3.0630705e-05 -0.98093772 -0.19432224 0.00033226804
0.46547055 0.18438485 0.015671954 -0.23514642 -0.96194351 -0.13917963 0.05872548
0.47139764 0.18534295 0.011349219 -0.30957454 -0.94368672 -0.11670041 0.053844772
0.48242402 0.18356715 0.01708715 -0.66508114 -0.73744118 -0.11767602 0.090556361
-0.38125592 -0.1831682 0.021161122 0.23858331 0.75050807 -0.61629194 0.052380197
-0.37418753 -0.18059537 0.02384261 0.19549005 0.57872647 -0.79174447 0.078829713
-0.36601096 -0.18221533 0.023968717 0.24723531 0.5647881 -0.78733039 0.064751796
-0.35487717 -0.18209329 0.024740051 0.16791332 0.60147107 -0.78104907 0.07218875
-0.34387678 -0.18173915 0.027608607 0.13954951 0.80173588 -0.58115882 0.067001872
-0.33759508 -0.18253978 0.023996422 0.069762453 0.89619416 -0.43814287 0.042304225
-0.32916903 -0.18213481 0.025823558 0.060201164 0.83463341 -0.54750603 0.046842862
-0.3141211 -0.18289252 0.022404881 0.037394639 0.93781209 -0.34512335 0.023045177
-0.30532333 -0.18266518 0.023430519 0.034450542 0.94687796 -0.3197425 0.015898485
-0.28687572 -0.18230546 0.025053617 0.018258434 0.96234024 -0.27123401 0.0072424468
-0.27711588 -0.18222077 0.025435653 0.0095872572 0.97162408 -0.23633613 0.0020368821
-0.26519552 -0.1824674 0.024322907 -0.00035124057 0.97696674 -0.21339147 3.2428568e-05
-0.25517267 -0.18192014 0.026792113 0.00056446204 0.97708505 -0.21284831 3.2216813e-05
-0.24403994 -0.18228617 0.025140572 -0.00029292484 0.97648847 -0.21556939 2.4310923e-06
-0.23650388 -0.18316031 0.021196708 -0.0021554329 0.97856259 -0.20593837 0.00015236573
-0.2238185 -0.18225002 0.025303716 0.00051604578 0.97737491 -0.21151392 2.5585281e-05
-0.21299084 -0.18198121 0.026516533 -0.00020681669 0.97663504 -0.21490438 6.1996038e-06
-0.20512806 -0.18247008 0.024310887 0.0022102734 0.97858942 -0.20581017 0.00013413331
-0.19700411 -0.18282811 0.022695504 0.0024691378 0.97782391 -0.20941404 8.1835053e-05
-0.18253919 -0.18150623 0.028659577 -0.017289689 0.99129468 -0.13052171 0.02373682
-0.17865302 -0.18166244 0.027954787 -0.015345502 0.98959589 -0.14305374 0.020163674
-0.16682248 -0.1818756 0.026993049 0.00011215167 0.97636068 -0.21614777 0
-0.15002732 -0.18185528 0.027084706 -0.00044481101 0.97653931 -0.21533911 2.9778341e-05
-0.14454755 -0.18250355 0.024159901 -0.00068807229 0.97785509 -0.20928195 0.00010521433
-0.13471839 -0.18211828 0.025898065 0.00018566879 0.97653502 -0.21535841 6.02913e-06
-0.12523159 -0.18191953 0.026794843 0.00030338875 0.97646481 -0.21567637 2.1420146e-05
-0.11564253 -0.18191153 0.026830912 -0.00012236695 0.97635698 -0.21616438 0
-0.10566475 -0.18293984 0.022191431 0.0011174479 0.97732115 -0.2117596 5.3453263e-05
-0.091807 -0.18310353 0.021452911 9.7304641e-05 0.97641826 -0.2158874 0
-0.073961712 -0.18264122 0.023538655 0.0013951228 0.97870064 -0.20528765 0.00020556083
-0.069100007 -0.18282396 0.022714239 0.00250385 0.97859645 -0.20577376 0.00021635008
-0.05343112 -0.18207236 0.02610521 0.0067044334 0.97602731 -0.21754463 0.00010534067
-0.046916693 -0.18323855 0.023596691 0.0063254279 0.97823089 -0.2074232 0.00027940614
-0.034919906 -0.18301629 0.025440948 0.0051517454 0.97652674 -0.21533446 0.00027010706
-0.024744827 -0.18335588 0.02491002 -0.0026384713 0.97807586 -0.20823239 0.00040622221
-0.015153413 -0.18342595 0.026148556 -0.0043491009 0.97612792 -0.21715267 0.00030923556
-0.004576005 -0.18212695 0.025858942 -0.0063591576 0.97588027 -0.21821396 0.0001812339
0.0046686442 -0.18246827 0.024319042 -0.010296825 0.97788471 -0.20889153 0.00031616358
0.012364324 -0.181696 0.027803371 -0.0053333733 0.97634846 -0.21613722 0.00010556247
0.022803733 -0.18234941 0.024855312 0.00034843682 0.97718263 -0.21240041 2.4857818e-05
0.034811351 -0.18235086 0.024848863 -0.00023585193 0.97733176 -0.2117133 7.0029331e-05
0.046832424 -0.18222904 0.025398379 0.0023303328 0.97659934 -0.21505412 5.1969091e-05
0.054193828 -0.18321088 0.020968592 0.0033969011 0.98072702 -0.19535358 0.00047509102
0.067371391 -0.18289033 0.025959525 -9.405709e-05 0.97638893 -0.21602041 5.9458969e-05
0.073152073 -0.18189244 0.026917079 -0.00055022136 0.97639406 -0.21599604 4.4379118e-05
0.082683355 -0.18219097 0.025570108 -0.0015494326 0.9764629 -0.21567979 6.1346749e-05
0.0922333 -0.18290937 0.022328898 -0.0036497943 0.97756833 -0.21058685 0.00012358873
0.10798588 -0.18243112 0.024486687 -4.8069578e-05 0.97636914 -0.21610953 3.8249591e-06
0.11802298 -0.18165289 0.027997809 1.7390637e-05 0.97635931 -0.21615398 5.0613098e-06
0.1248189 -0.18207021 0.026114976 8.4926462e-05 0.97739971 -0.21139951 3.8643084e-05
0.13054079 -0.18202816 0.026304735 0.00010105981 0.97645438 -0.21572396 1.7770337e-06
0.14702342 -0.18270226 0.02326332 3.8638336e-05 0.97776645 -0.20969659 6.7542693e-05
0.15500715 -0.18190244 0.02687197 1.0070492e-07 0.97630686 -0.21639061 4.1993371e-06
0.16573809 -0.18229003 0.025123181 0.00021543614 0.97722518 -0.21220468 4.0284129e-05
0.17492987 -0.18186937 0.027021155 -7.3734569e-05 0.97635055 -0.21619327 0
0.18336256 -0.182414 0.024563894 0.00089324202 0.97787333 -0.20919599 0.00010777437
0.19408563 -0.18189745 0.026894445 9.6467906e-05 0.9763633 -0.21613577 0
0.20208968 -0.18295896 0.02210512 -0.0014779213 0.97818148 -0.20774701 9.7350152e-05
0.22342736 -0.18266165 0.023446519 -0.00072967546 0.97777069 -0.20967588 7.1520932e-05
0.23399347 -0.18246752 0.024322398 -5.8069894e-05 0.97725093 -0.21208622 4.1443156e-05
0.24887143 -0.18319172 0.02105495 0.0011118071 0.97729534 -0.21187881 5.7953428e-05
0.25365213 -0.18238537 0.024693074 0.00016095012 0.97635978 -0.21615162 0
0.26480904 -0.18198889 0.026481858 5.3102885e-05 0.97630388 -0.2164043 2.0826241e-05
0.27534494 -0.18205182 0.02619792 3.1506195e-05 0.97630721 -0.21638927 0
0.28459826 -0.18230371 0.025061503 -0.00010104581 0.97630745 -0.21638791 0
0.29622 -0.18208912 0.026029613 -1.6396483e-05 0.97630745 -0.21638799 0
0.30245635 -0.18274808 0.023056544 0.00047598104 0.97924978 -0.20265645 0.00015991509
0.31569996 -0.18217444 0.02564468 8.1344633e-06 0.97708625 -0.21284378 4.4440709e-05
0.32354668 -0.1824766 0.024281492 0.00069812767 0.97815675 -0.20786743 9.164308e-05
0.33322778 -0.18242289 0.02452372 0.00079808093 0.97694808 -0.21347556 6.9691951e-06
0.34496295 -0.18210188 0.025972117 -0.00060922705 0.9781791 -0.20776267 7.6294222e-05
0.36355752 -0.18214621 0.025772111 -0.00088087766 0.97703475 -0.21307835 0
0.37733081 -0.18216698 0.025678389 0.00054181059 0.97684371 -0.21395335 3.7165926e-05
0.38515449 -0.1826912 0.023313226 -8.6170839e-05 0.97739732 -0.21141067 4.6993016e-05
0.39856255 -0.18202431 0.026321961 0.00042582225 0.97707927 -0.21287547 2.1096535e-05
0.4045403 -0.18195531 0.026633397 -7.9613274e-05 0.9764207 -0.2158764 2.1787837e-05
0.41591266 -0.18287043 0.022504589 -0.0009511768 0.97900188 -0.20384921 0.00014619215
0.42394069 -0.18207271 0.026103687 -0.00060776004 0.97767711 -0.21011227 5.1468232e-05
0.43321913 -0.18222675 0.025408808 0.00053807365 0.97753525 -0.21077131 7.1674054e-05
0.44436571 -0.18271884 0.023188561 0.00064659171 0.9789561 -0.20407018 0.0002245775
0.45530453 -0.18282199 0.022723211 -0.024508907 0.97758746 -0.20909832 0.0025751137
0.46410975 -0.18218087 0.025615726 -0.22339751 0.95103407 -0.21360655 0.040855605
0.47344181 -0.181759 0.027519079 -0.36859778 0.9050104 -0.21234825 0.069929771
0.48084483 -0.18148346 0.028762242 -0.62431759 0.74257076 -0.2425207 0.087309793
-0.38184413 -0.17787543 0.02151674 0.25213614 0.53065616 -0.80921656 0.070574567
-0.37360129 -0.17536215 0.024020702 0.20441593 0.41228649 -0.88782543 0.062629566
-0.36571893 -0.17565493 0.026415152 0.24270575 0.41067812 -0.8788842 0.061644975
-0.35800314 -0.17707701 0.028758997 0.18174289 0.49625623 -0.84894007 0.072030999
0.48237765 -0.17575118 0.025531881 -0.76466805 0.6023109 -0.22913857 0.075411312
-0.38335806 -0.16494414 0.021056846 0.2834661 0.1242826 -0.95089477 0.02477698
-0.37856266 -0.16709585 0.02251357 0.29602689 0.18750244 -0.93659538 0.027881671
-0.36787289 -0.16528934 0.025760837 0.27917898 0.10605837 -0.954364 0.013781742
-0.35629982 -0.16501102 0.029276432 0.24558911 0.14679056 -0.95819545 0.027031314
0.482348 -0.16808383 0.025808513 -0.9390617 0.30011663 -0.16761011 0.049758498
-0.37298948 -0.15437892 0.024206551 0.28917757 0.0090153962 -0.95723301 0.00033658437
-0.36646479 -0.15540007 0.026188582 0.285514 0.03936648 -0.95756567 0.0033759773
-0.35687831 -0.15258461 0.029100701 0.28856245 0.016257025 -0.95732301 0.0013905858
0.48231277 -0.15264726 0.026137417 -0.99424636 0.0042543598 -0.10703357 0.00013774677
-0.3826991 -0.14632526 0.021257024 0.29062963 8.2308571e-07 -0.95683563 3.8554904e-06
-0.37254828 -0.14349043 0.024340572 0.29067901 -4.5730108e-06 -0.95682061 0
-0.36616504 -0.14588365 0.026279626 0.29064319 -9.7842467e-06 -0.95683151 1.4652151e-06
-0.35737777 -0.14578003 0.028948976 0.29067531 1.9206625e-05 -0.95682174 0
0.4824121 -0.14548862 0.025210669 -0.99430579 2.1301057e-05 -0.10656462 0
-0.38251871 -0.1355879 0.021311823 0.29067138 8.9224795e-06 -0.95682299 0
-0.37593895 -0.13614407 0.023310572 0.29067862 2.1059901e-05 -0.95682073 0
-0.36407012 -0.13580577 0.026916008 0.29070264 2.853465e-06 -0.95681345 0
0.48214784 -0.13659002 0.027676359 -0.99430668 -2.3455526e-05 -0.1065561 0
-0.38446927 -0.12307364 0.020719286 0.29062814 2.2604665e-06 -0.9568361 6.2882154e-06
-0.3775149 -0.12271577 0.022831842 0.29070851 1.7584814e-05 -0.95681167 0
-0.3563526 -0.12305536 0.029260391 0.29062486 4.8472275e-06 -0.956837 6.2379122e-06
0.48204052 -0.12690338 0.028677993 -0.99430537 3.1772772e-05 -0.10656834 0
-0.38503346 -0.11462236 0.020547919 0.29074952 7.7780842e-06 -0.95679921 0
-0.37448037 -0.11483671 0.023753654 0.29068148 1.0828431e-06 -0.95681989 0
-0.36397925 -0.11279217 0.026943622 0.29064599 1.7328981e-05 -0.95683068 2.2974691e-06
-0.35489458 -0.11772554 0.029703299 0.29073882 1.9218007e-05 -0.95680249 0
0.48228726 -0.11660684 0.026375683 -0.99430817 3.8772974e-05 -0.10654213 0
-0.38568321 -0.1073162 0.020350523 0.29067904 -1.4221241e-05 -0.95682061 0
-0.37461826 -0.1029408 0.023711778 0.29068568 1.0122828e-05 -0.95681858 0
-0.36563724 -0.10423037 0.026439963 0.29062364 -7.9609771e-07 -0.95683748 7.330957e-06
0.48256493 -0.10574742 0.023784388 -0.99430817 4.5452457e-06 -0.10654171 0
-0.38414925 -0.092805102 0.020816498 0.29068947 -5.4497496e-06 -0.95681745 0
-0.37376481 -0.09601979 0.023971021 0.29066911 -1.0076465e-08 -0.95682365 0
-0.36430311 -0.093481407 0.026845237 0.29066125 2.7932999e-06 -0.95682597 0
-0.35695511 -0.097026579 0.02907737 0.29074365 1.8740853e-05 -0.956801 0
0.48247802 -0.094324395 0.024595322 -0.99391031 0.00073031482 -0.11018961 0
-0.38509753 -0.086507134 0.020528447 0.29067478 4.8231573e-07 -0.95682186 0
-0.37457663 -0.084024593 0.023724424 0.29069316 3.7193945e-06 -0.95681632 0
-0.36507869 -0.081483565 0.026609641 0.29063061 4.0553455e-06 -0.95683527 5.136862e-06
-0.35963443 -0.086769499 0.028263459 0.29066238 -2.4962574e-06 -0.95682573 0
0.48226044 -0.08475025 0.026626017 -0.99200088 0.00015098916 -0.12623051 0.00036745874
-0.3841891 -0.076064989 0.020804401 0.29062939 -5.5987134e-06 -0.95683569 4.3870664e-06
-0.37417197 -0.073596403 0.023847338 0.29065594 4.7912149e-06 -0.95682764 0
-0.36461967 -0.073958173 0.026749067 0.2906332 -5.5315472e-06 -0.95683455 4.7091203e-06
-0.356143 -0.073494062 0.029324058 0.29064628 2.2330576e-06 -0.95683056 2.957705e-06
0.4827044 -0.073377103 0.022482634 -0.99430829 -5.0840977e-06 -0.1065409 0
-0.38164735 -0.064655542 0.02157652 0.29064381 -1.3363281e-05 -0.95683128 3.1417687e-06
-0.37252805 -0.066136181 0.024346719 0.29070091 -3.1171967e-06 -0.95681399 0
-0.36330238 -0.065530688 0.027149238 0.29067096 -6.4522746e-06 -0.95682311 0
-0.35513449 -0.063497066 0.029630423 0.29065862 -3.0522151e-06 -0.95682681 6.8914511e-07
0.48284274 -0.066349044 0.021191908 -0.99430722 1.865438e-05 -0.1065511 0
-0.38510332 -0.057347551 0.020526694 0.29063225 -5.9267136e-06 -0.95683479 4.5227603e-06
-0.37803423 -0.05535429 0.022674087 0.29066479 -3.7963716e-06 -0.9568249 0
-0.3672041 -0.052570354 0.025963992 0.29064748 7.9803834e-07 -0.9568302 1.5455009e-06
-0.35603696 -0.055690989 0.029356267 0.29063633 -3.4506659e-06 -0.9568336 3.5908872e-06
0.48254687 -0.054399662 0.023952903 -0.99209744 0.032110445 -0.121291 0.0008334929
-0.38585985 -0.047974955 0.020296868 0.29065487 -4.2607749e-06 -0.956828 0
-0.37636936 -0.045737375 0.023179831 0.29065391 -4.8373322e-06 -0.95682824 1.6173404e-06
-0.3631328 -0.040989809 0.027200747 0.29061911 4.5280344e-06 -0.95683885 4.5895158e-06
-0.3555842 -0.046157703 0.029493822 0.29063496 -1.8805749e-06 -0.95683408 2.6371781e-06
0.48215738 -0.044767249 0.02758798 -0.98989511 0.038057074 -0.13659929 0.0017098979
-0.38513029 -0.033352107 0.020518497 0.29059762 1.7285107e-06 -0.95684534 9.7756956e-06
-0.37046355 -0.033616561 0.024973854 0.29062307 5.2911496e-06 -0.95683759 5.0362255e-06
-0.36629337 -0.034914769 0.026240641 0.29066208 2.5396071e-06 -0.95682585 0
-0.35844827 -0.035289764 0.02862378 0.29065058 -2.0363698e-06 -0.95682931 1.5295275e-06
0.48383757 -0.033465922 0.024956916 -0.9898966 0.036762021 -0.13694222 0.001705158
-0.38171703 -0.026028916 0.021555357 0.29067245 -3.0107398e-07 -0.95682263 0
-0.37506402 -0.027688965 0.02357636 0.29062274 -1.1075585e-06 -0.95683777 6.0479547e-06
-0.36383346 -0.020086918 0.026987914 0.29069752 3.4637631e-06 -0.956815 0
-0.35705811 -0.025713505 0.029046081 0.29063773 2.689319e-06 -0.95683318 4.2123988e-06
0.48512858 -0.02643925 0.023721896 -0.99029458 0.026943032 -0.13634782 0.0020919736
-0.3822231 -0.013990045 0.021401621 0.29063308 -2.803615e-06 -0.95683461 4.8938659e-06
-0.37521952 -0.016460162 0.023529131 0.29058322 -1.8004645e-05 -0.95684975 1.231805e-05
-0.36553508 -0.011680447 0.026471006 0.29060814 1.0279588e-06 -0.95684218 6.5552881e-06
-0.35638604 -0.017345399 0.029250244 0.29060516 -1.7381949e-06 -0.95684302 7.7051081e-06
0.48753467 -0.016058804 0.02116538 -0.98975968 -0.00059288688 -0.14274247 0.0029101281
-0.38379973 -0.0052651125 0.020922679 0.29062691 2.3169925e-06 -0.95683646 4.3974587e-06
-0.37625864 -0.0055851685 0.023213465 0.29068404 -1.6647642e-06 -0.95681912 0
-0.36307275 -0.0046933396 0.027218999 0.29059288 3.2439661e-06 -0.95684683 8.1819671e-06
-0.35649869 -0.0040686363 0.029216016 0.29067135 -2.6884345e-07 -0.95682293 0
0.48542136 -0.0067610727 0.02503038 -0.98966444 -0.016873021 -0.14240634 0.0019612836
-0.3809711 0.0011129407 0.021781947 0.29062328 1.2197041e-06 -0.95683759 5.0532617e-06
-0.37698007 0.0027483106 0.022994321 0.29066575 -5.7238921e-08 -0.95682466 0
-0.36681184 0.0030970275 0.026083158 0.29063049 -1.0922754e-06 -0.95683539 3.3966085e-06
-0.35723484 0.0090754349 0.028992396 0.29068649 -1.3387323e-06 -0.95681834 0
0.48341474 0.0050831763 0.023639271 -0.98995632 -0.012308205 -0.14083686 0.0022465109
-0.38336581 0.010783274 0.021054488 0.29062855 -3.5118508e-06 -0.95683599 5.1876673e-06
-0.37340099 0.013522856 0.024081554 0.29065403 -7.2094554e-07 -0.95682818 6.4386899e-07
-0.36596438 0.01618045 0.026340593 0.29063269 1.0363394e-06 -0.95683467 5.653716e-06
-0.35659182 0.01523029 0.029187731 0.29065028 1.1936926e-06 -0.95682931 8.044305e-07
0.4830102 0.016789531 0.025386576 -0.98846787 -0.0036938665 -0.1513858 0.0012875518
-0.38374949 0.026003813 0.020937949 0.29062581 -2.9897096e-06 -0.95683676 4.9750984e-06
-0.37380907 0.027554138 0.023957588 0.29066464 -4.5562749e-07 -0.95682496 0
-0.36860752 0.021747023 0.025537662 0.29062948 4.9873199e-07 -0.95683569 5.6645245e-06
-0.35816801 0.0244222 0.028708931 0.290654 1.0114217e-06 -0.95682818 6.3005194e-07
0.48365498 0.024789037 0.023337165 -0.9898333 -0.013552352 -0.14158517 0.00061977486
-0.38436574 0.03428372 0.020750741 0.29063332 -1.4341376e-06 -0.9568345 3.5230169e-06
-0.36702439 0.03670254 0.026018592 0.29063392 -1.5737027e-06 -0.95683432 4.4964804e-06
0.48398367 0.035968907 0.022976981 -0.99193525 -0.025735741 -0.12410543 0.00053017319
-0.3830533 0.044898447 0.02114943 0.29062134 6.0323778e-06 -0.95683813 5.2757105e-06
-0.37582675 0.04557677 0.023344656 0.29061595 9.4664969e-08 -0.9568398 7.9235615e-06
-0.36728433 0.048437476 0.025939619 0.29062846 1.0579192e-05 -0.95683599 6.2807312e-06
-0.35552788 0.044684853 0.029510915 0.290728 -9.8197243e-06 -0.95680577 0
0.48239565 0.048489869 0.025363581 -0.99254787 -0.020850021 -0.12005821 0.00037496348
-0.38415065 0.053941205 0.02081608 0.29063469 -1.3285888e-06 -0.95683408 2.3789341e-06
-0.37441841 0.054540623 0.023772484 0.29064208 -1.9672457e-06 -0.95683187 4.7885956e-06
-0.36099207 0.052018307 0.027851043 0.29061896 -3.7390841e-06 -0.95683885 7.5677781e-06
-0.3571505 0.054974586 0.029018015 0.29061601 2.6076298e-06 -0.95683974 8.4125959e-06
0.48247689 0.052110538 0.024605835 -0.99250102 -0.025044009 -0.11964288 0.0001787783
-0.38412154 0.063926339 0.020824928 0.29069099 2.7767189e-06 -0.95681697 0
-0.36524576 0.065981336 0.026558883 0.29067701 -1.0014283e-05 -0.9568212 0
-0.35635629 0.065317355 0.029259264 0.2906014 -6.3825296e-06 -0.95684415 9.9397766e-06
0.4825258 0.066032313 0.02414977 -0.99430728 1.8342625e-05 -0.1065508 0
-0.38634667 0.073068447 0.020148985 0.29061341 -6.0801322e-06 -0.95684057 5.6406602e-06
-0.37538746 0.074801661 0.023478104 0.29066521 -3.5203977e-06 -0.95682484 0
-0.36464334 0.073849328 0.026741885 0.29059774 -9.6265967e-07 -0.95684534 1.2888484e-05
-0.35684383 0.077540383 0.02911118 0.29070541 -8.8495326e-06 -0.95681256 0
0.48248586 0.074737959 0.024522537 -0.99430716 9.037463e-07 -0.10655154 0
-0.3844465 0.089608043 0.020726219 0.29063392 4.8664856e-06 -0.95683432 3.4166358e-06
-0.37191138 0.084612049 0.024534047 0.29066554 -9.8700557e-06 -0.95682472 0
-0.36609572 0.084453568 0.026300693 0.2906552 -2.2136514e-06 -0.95682788 3.5804706e-07
0.48240551 0.085819915 0.025272032 -0.99360824 0.00060848426 -0.11288162 0
-0.38001797 0.090517461 0.022071484 0.2907306 -1.9685473e-05 -0.95680499 0
-0.374194 0.093723893 0.023840655 0.29064947 -1.061723e-05 -0.95682961 1.3805916e-06
-0.36142343 0.094890296 0.027720019 0.29064363 -3.6589718e-06 -0.95683134 3.2238174e-06
-0.35617721 0.093119964 0.029313672 0.29067251 3.8750945e-06 -0.95682257 0
0.48224536 0.093105279 0.026766537 -0.9935953 0.0017969836 -0.11298302 0.00013560889
-0.38379201 0.10609047 0.02092503 0.29065761 -1.2052433e-05 -0.9568271 3.9285604e-07
-0.37687495 0.10713516 0.023026247 0.29069537 -9.5811947e-07 -0.95681566 0
-0.36715719 0.10556225 0.025978243 0.29062483 4.581037e-06 -0.95683712 9.099288e-06
-0.35754284 0.10473239 0.028898835 0.29065472 -1.9574763e-05 -0.956828 0
0.48226514 0.10463423 0.026581576 -0.99308491 -0.001256749 -0.11739162 0.00018891593
-0.38565195 0.11443895 0.020360025 0.29058734 6.3174311e-06 -0.9568485 1.1715909e-05
-0.3672637 0.11083709 0.025945896 0.29063749 4.9185232e-06 -0.95683324 5.0576996e-06
-0.35635415 0.11123361 0.029259918 0.29065239 -1.0489815e-05 -0.95682871 1.2745468e-06
0.48234516 0.11403611 0.025835235 -0.99358535 -0.00083917315 -0.11308151 0.00026759072
-0.38157642 0.1230672 0.021598063 0.29061732 1.0820403e-05 -0.95683938 8.8068173e-06
-0.3758575 0.12471292 0.023335313 0.29063997 -6.5200065e-06 -0.95683247 4.5131328e-06
-0.36545962 0.12416586 0.026493916 0.29069445 -6.8730487e-06 -0.95681596 0
-0.35765529 0.12370332 0.028864672 0.29066128 9.7295961e-06 -0.95682597 0
0.48222679 0.12417068 0.026939839 -0.9931981 0.00037860981 -0.11643654 0.000233894
-0.38451549 0.13404423 0.020705251 0.2906481 -1.0203808e-05 -0.95683002 1.309801e-06
-0.37806666 0.13840286 0.022664238 0.29064724 -2.8819491e-07 -0.95683026 2.6946932e-06
