# .PCD v0.7 - Point Cloud Data file format
VERSION 0.7
FIELDS x y z normal_x normal_y normal_z curvature
SIZE 4 4 4 4 4 4 4
TYPE F F F F F F F
COUNT 1 1 1 1 1 1 1
WIDTH 568
HEIGHT 1
VIEWPOINT 0 0 0 1 0 0 0
POINTS 568
DATA ascii
0.043225423 -0.17849939 -0.018806903 -0.018282659 0.99981487 -0.0060051484 0.00034389607
0.065964006 -0.17793593 -0.016760863 -0.014982968 0.99987179 -0.00564504 0.00028595302
0.0851634 -0.17743719 -0.015267538 -0.024409842 0.99961305 -0.013340096 0.00022685569
0.11345844 -0.17676426 -0.014384633 -0.025834505 0.99954128 -0.015805474 0.00017215653
0.12526509 -0.17653531 -0.01511607 -0.021043809 0.99972749 -0.010111397 0.00019272651
0.13835104 -0.17619729 -0.01413926 -0.022897137 0.99967968 -0.010779728 0.00020291022
0.15352683 -0.17583744 -0.01368766 -0.020051595 0.98127002 0.19159102 0.020420203
0.16830748 -0.17488495 -0.010426342 -0.040903907 0.99863601 0.032449305 0.0096577136
0.17892149 -0.17467196 -0.01977049 -0.013949245 0.98654258 0.16290861 0.038263388
0.18056035 -0.17437948 -0.01571369 -0.027969206 0.99519032 0.093882926 0.021482205
0.19779788 -0.17334533 -0.016307658 -0.052586406 0.99338132 0.1021184 0.018399863
0.20662601 -0.17269112 -0.013973234 -0.079236999 0.99660087 0.022547076 0.0067307348
0.22873095 -0.17181733 -0.015433756 -0.11655541 0.96649855 0.22868194 0.11071981
0.23290093 -0.17164038 -0.015657628 -0.15668854 0.92269903 0.3522431 0.14439376
0.26187381 -0.17049056 -0.01365315 -0.13985839 0.9826647 0.12169469 0.057113864
0.27624363 -0.17108282 -0.014448072 0.013832733 0.98683012 0.16116719 0.098300815
0.28498459 -0.17170452 -0.011918373 0.060659263 0.99134576 0.11642183 0.060555153
0.297389 -0.17122087 -0.011452685 0.1134622 0.99347186 0.011828986 0.049190156
0.30567575 -0.1708709 -0.013067586 -0.033760965 0.99762005 0.060119867 0.055378411
0.31097919 -0.17067324 -0.012214677 -0.014094253 0.99775249 0.065508276 0.066729814
0.32061583 -0.17026946 -0.013863352 0.034862075 0.99827522 0.047235332 0.089945875
0.46807855 -0.17263433 -0.016258035 -0.81366318 0.44604051 -0.37282708 0.014620427
0.47052819 -0.17211539 -0.019699341 -0.81142926 0.43555999 -0.38970512 0.011339025
-0.40273944 -0.16447973 -0.017353849 0.91677302 -0.24904928 -0.31225273 0.26525411
-0.39654022 -0.1672399 -0.012269918 0.78738201 0.18677653 -0.58748972 0.27140734
-0.3815259 -0.16186996 -0.01324826 0.98507309 0.16309088 0.055066429 0.22196852
-0.37280309 -0.16338015 -0.014266471 0.99283308 0.020824801 0.11768065 0.13093911
-0.36868417 -0.16936088 -0.015643081 0.91919804 0.16369639 0.35815993 0.17316541
0.27567512 -0.16497114 -0.01532498 -0.12792681 0.94198698 0.31031463 0.24948746
0.28014448 -0.1697796 -0.01476193 0.092748687 0.99363023 0.064004324 0.11655331
0.29749587 -0.16910836 -0.012726364 0.18101527 0.97922635 0.091374338 0.079431675
0.30797228 -0.16869359 -0.018853975 0.079156727 0.9843201 0.1576324 0.15685813
0.33361191 -0.16975772 -0.013734397 -0.14664716 0.98600298 0.079326212 0.11957049
0.34959304 -0.16906579 -0.017575352 -0.10368588 0.98395211 0.14521553 0.19177958
0.35534632 -0.16871527 -0.015220903 -0.06848418 0.99746472 0.019340234 0.11476269
0.37461114 -0.16754596 -0.012945679 -0.054684673 0.99842554 0.012487875 0.00060043053
0.38758346 -0.16676371 -0.01689852 -0.062261999 0.99805701 0.0024063967 3.8617294e-05
0.40903807 -0.1654056 -0.015071415 -0.15186158 0.98838896 0.0050399443 0.0021138785
0.41285303 -0.16479741 -0.019054659 -0.18073316 0.983491 0.0089990236 0.0036292362
0.42457414 -0.16286618 -0.018270427 -0.44398418 0.89522761 -0.03802013 0.017698605
-0.41616127 -0.15198255 -0.018844243 0.78847927 0.43581602 -0.4340103 0.24096169
-0.40423009 -0.15667608 -0.01234067 0.93322569 -0.20326744 -0.29626366 0.25573984
-0.38975951 -0.15985452 -0.011745483 0.95909601 0.259253 0.11367816 0.29099682
-0.37345272 -0.15928909 -0.011508189 0.97276479 0.18523584 0.13934246 0.14049909
-0.0015820195 -0.15772955 -0.010648468 -0.909109 0.37248904 0.18647432 0.12813573
0.0046683247 -0.15679756 -0.019308716 -0.69242251 0.62731558 -0.35640731 0.21634035
0.023568893 -0.15356535 -0.010624371 0.86531121 0.36646715 0.34196252 0.25574359
0.23581415 -0.15082483 -0.015401542 -0.93571502 0.037723657 0.350734 0.12358987
0.27536398 -0.15851751 -0.015443238 -0.66168487 0.67811137 0.31990346 0.22385587
0.43211329 -0.15855786 -0.017874928 -0.61156118 0.79060596 -0.030578418 0.028036464
0.47295862 -0.15530512 -0.015303382 -0.86101192 0.19897 -0.46804851 0.022684416
-0.42480722 -0.14329368 -0.014164818 0.75312912 0.5519169 -0.35802835 0.15635096
-0.41381508 -0.14332864 -0.014691441 0.61480755 0.77407742 -0.15104905 0.21369837
-0.40508151 -0.14073199 -0.015838558 0.21190208 0.97097397 -0.11093748 0.19930601
-0.39684269 -0.14181806 -0.012074922 0.17490749 0.98451173 0.012001039 0.1899768
-0.38281399 -0.14017934 -0.01909012 0.096549116 0.98534018 0.14065218 0.18118091
-0.15464862 -0.14552747 -0.014168712 0.829956 0.016935464 -0.55757177 0.00022025616
0.04425969 -0.14371365 -0.016313035 -0.77633828 0.56953019 0.27006349 0.039712887
0.23934728 -0.14361203 -0.014434638 -0.90325087 0.13315472 0.40793091 0.010364688
0.27411363 -0.14082421 -0.018984165 -0.95565379 0.28568256 -0.071493909 0.10859593
0.28930193 -0.14004417 -0.017576717 -0.76746565 0.35057122 -0.53674597 0.1905072
0.47687259 -0.14399238 -0.017105071 -0.9087019 0.12252373 -0.39905989 0.028176414
-0.44587404 -0.13136494 -0.018854279 0.44139856 0.60112792 -0.66619265 0.10513213
-0.43850881 -0.13995112 -0.019819804 0.42516571 0.52890074 -0.73450536 0.10064572
-0.4256399 -0.13654949 -0.019324258 0.55872685 0.67277318 -0.48497489 0.11037963
-0.38537711 -0.13999036 -0.018154141 0.10476718 0.98390591 0.1447515 0.16073602
-0.37562746 -0.13982758 -0.016933735 0.28565282 0.90372115 0.31888935 0.13957511
-0.15609482 -0.13391998 -0.015879462 0.82571018 0.012588589 -0.56395406 7.6323013e-05
0.0025577582 -0.13423781 -0.014506569 -0.9436025 -0.045123968 0.32799095 0.052086148
0.28970069 -0.13702795 -0.017490426 -0.69991052 0.49768507 -0.5122841 0.19713764
0.29087016 -0.13264188 -0.014185856 -0.84888339 -0.15846877 -0.50426644 0.23033166
0.44471285 -0.13476664 -0.015343841 -0.85601258 0.51693308 -0.0047648218 0.1377061
0.46959072 -0.13543591 -0.011750008 -0.53448278 -0.054357708 -0.84342963 0.17480128
0.47457042 -0.13580827 -0.014171463 -0.84993458 0.020828353 -0.52647638 0.14660564
-0.45405582 -0.12129157 -0.019917194 0.58825576 0.33739954 -0.73492634 0.058148563
-0.15415192 -0.1213244 -0.012757516 0.8518405 0.26769802 -0.4502283 0.11611174
0.048478249 -0.12296417 -0.015811572 -0.92773324 0.11355235 0.35555166 0.0079585286
0.050714329 -0.12366138 -0.010085152 -0.90741503 0.13765843 0.39704928 0.0073791048
0.28883582 -0.1251722 -0.019934194 -0.95424223 -0.077883847 -0.28871399 0.22466685
0.29081577 -0.12225607 -0.014339544 -0.98888481 0.12890266 -0.074100532 0.13133188
0.47605738 -0.12315404 -0.012501951 -0.83987433 -0.54260945 -0.013643567 0.21590555
-0.45202905 -0.11500043 -0.019305283 0.57949191 0.31356925 -0.75223899 0.05033138
-0.44626921 -0.11416458 -0.01650646 0.58096731 0.35000813 -0.73482734 0.073607355
-0.43726212 -0.11677287 -0.010603079 0.52660525 0.396732 -0.75185817 0.081649467
-0.1585743 -0.11604152 -0.019054683 0.89680171 0.18160088 -0.40344495 0.10820685
0.048062921 -0.11243018 -0.0168752 -0.93764937 0.0089361928 0.34746787 0.00031036494
0.29147798 -0.11704563 -0.012468379 -0.95853853 0.11298609 0.26160648 0.036840282
0.44959286 -0.11854497 -0.013836553 -0.79260325 0.5219633 0.31517363 0.25053269
0.47729516 -0.11544643 -0.012687785 -0.99897879 0.016676404 -0.041990098 0.17017461
-0.44495863 -0.10740542 -0.014393266 0.59608942 0.29587638 -0.74641442 0.041432314
-0.15742628 -0.10597591 -0.017147459 0.92884409 0.008148862 -0.37038118 0.12640804
0.0039453544 -0.10773552 -0.012726476 -0.93390554 0.015426139 0.357187 0.001479237
0.04987314 -0.10534982 -0.012239376 -0.933945 -0.0010024684 0.35741547 2.0897316e-05
0.23823984 -0.10577054 -0.018261366 -0.92327619 -0.016503025 0.38378218 0.0040903375
0.28988701 -0.10043914 -0.016963881 -0.94269896 -1.0730999e-05 0.33364448 2.6566573e-05
0.29042697 -0.10103438 -0.015438149 -0.94270331 -1.0129868e-05 0.33363232 1.1614376e-05
0.45276341 -0.10489762 -0.015992125 -0.99485296 -0.081392959 0.060354967 0.197862
-0.45284712 -0.091902651 -0.016951328 0.68957001 0.098111361 -0.71754265 0.0088657476
-0.44378003 -0.09496513 -0.010342868 0.59644198 0.14815722 -0.78886396 0.0027381321
-0.15337375 -0.094661474 -0.010992028 0.87668979 -0.072623 -0.47554269 0.11948931
0.048735704 -0.09536884 -0.01515225 -0.93429554 0.00032213578 0.35649914 1.9875361e-05
0.23854032 -0.096828811 -0.017694939 -0.89769226 -0.014977799 0.44036815 0.00037682214
0.29144388 -0.095870629 -0.012564745 -0.9427073 -2.772123e-06 0.33362103 0
0.45516264 -0.093807437 -0.015700806 -0.87965328 0.43381798 -0.1949667 0.1818924
0.48020309 -0.092024311 -0.01552394 -0.9897781 0.10223364 0.0994367 0.19024555
-0.45343375 -0.088850237 -0.016784392 0.68157667 0.12366971 -0.72122055 0.0090034446
-0.15819944 -0.082230523 -0.017467618 0.90521485 0.018162074 -0.42456585 0.098500535
0.0036178695 -0.088534474 -0.013571726 -0.93814009 -0.009417248 0.34612784 0.0015142953
0.04720125 -0.086913645 -0.019081866 -0.93668997 0.0039044202 0.35013813 1.976965e-05
0.23900157 -0.081010275 -0.016825415 -0.9338131 0.014780468 0.35745573 0.00060400902
0.2891584 -0.085663259 -0.019022707 -0.94270813 1.5809823e-05 0.33361849 2.7460144e-06
0.48118114 -0.08452183 -0.012337696 -0.99006999 0.12006207 0.073119432 0.24741571
-0.45615339 -0.079750285 -0.016923796 0.74811929 0.1668139 -0.64225441 0.01755264
-0.15699114 -0.073804259 -0.015449288 0.88344395 0.013478231 -0.46834293 0.13708439
0.0029749686 -0.075442806 -0.015647426 -0.9470042 0.0039288905 0.32119718 0.0016828619
0.048782758 -0.07520812 -0.015031749 -0.93466026 0.0025902619 0.3555328 3.7034715e-05
0.23751231 -0.073501013 -0.019632865 -0.95590734 0.0084219323 0.29354748 0.0030464539
0.2888982 -0.076240502 -0.019757997 -0.94270277 -1.2053215e-05 0.3336339 2.4996894e-05
0.29148182 -0.072372116 -0.012457481 -0.94270039 1.2254527e-05 0.33364052 2.2887099e-05
0.45825967 -0.071342349 -0.017000604 -0.96767032 0.23028632 0.10287029 0.223891
0.48174441 -0.077195123 -0.017057296 -0.99429458 0.025504328 -0.10357562 0.20809063
-0.46127772 -0.066333011 -0.018300138 0.7861585 0.17964976 -0.5913381 0.022873957
-0.45710608 -0.063104793 -0.014106302 0.72253931 0.20611721 -0.65988827 0.01788206
-0.1589893 -0.060436085 -0.018185623 0.8616848 -0.2740331 -0.42708921 0.14203422
0.0036246907 -0.064572915 -0.013791298 -0.94397855 -0.010816952 0.32982925 0.0018672802
0.23822674 -0.066408262 -0.018286064 -0.91834819 0.029717293 0.39465603 0.001884161
0.24011117 -0.062759168 -0.014733696 -0.90931773 0.0058712233 0.41606122 0.0017542865
0.291381 -0.060965721 -0.012742343 -0.94270128 1.0519971e-05 0.33363792 2.5023095e-05
0.48276865 -0.065169446 -0.013601449 -0.91060466 -0.30779129 -0.27579662 0.18676843
-0.46553624 -0.052311078 -0.019155914 0.81537175 0.15794066 -0.55697721 0.039890423
-0.45874685 -0.053475343 -0.013680135 0.64726794 0.017137729 -0.76206988 0.069553122
-0.15755957 -0.055171892 -0.016130837 0.81025141 -0.34587479 -0.47314197 0.12150398
0.0045644264 -0.052811295 -0.011065187 -0.90684646 -0.091899507 0.41131988 0.0044657583
0.047115657 -0.055763669 -0.019301068 -0.92933822 -0.098783478 0.35577008 0.0030717687
0.2384699 -0.057050392 -0.017827682 -0.93772227 0.0021701173 0.34737918 0.0034392939
0.24116495 -0.054380435 -0.012747232 -0.90848416 -0.0058452138 0.41787842 0.0014775411
0.2895377 -0.05464616 -0.01795093 -0.94270426 -2.3192968e-05 0.33362964 3.0289143e-06
0.46032959 -0.057382956 -0.016954707 -0.97794431 0.077671781 -0.19388677 0.24761231
0.48322928 -0.055260982 -0.014038474 -0.77165389 -0.27131698 -0.57527161 0.20215093
-0.4641206 -0.044730265 -0.016728066 0.52899504 0.037826486 -0.84778148 0.1018322
-0.42585003 -0.040226586 -0.014071563 0.16575316 0.84279138 0.51208258 0.18061699
-0.41619071 -0.041825928 -0.011303278 0.24175411 0.92295378 0.29951826 0.1974071
-0.40966341 -0.041885961 -0.012042685 0.34228382 0.91345191 0.22010751 0.10928674
-0.38783154 -0.049944617 -0.012728053 0.12636288 0.97829789 0.16421215 0.012413084
-0.37480432 -0.04951822 -0.014796464 -0.10433606 0.94825202 0.29988694 0.016742449
-0.36534771 -0.047020994 -0.016792666 0.22342214 -0.92635083 -0.30324376 0.020745596
-0.35409671 -0.04223074 -0.016423907 0.54524094 -0.79093838 -0.27772078 0.029985858
-0.34966582 -0.040076576 -0.011274163 0.66318381 -0.71980429 -0.20510712 0.028530344
-0.15668431 -0.046055004 -0.014860116 0.82144272 -0.062183879 -0.56689066 0.023675395
0.0031679375 -0.044746675 -0.015024399 -0.96325892 0.065169223 0.26054782 0.10466389
0.46144727 -0.043743145 -0.014693494 -0.99977314 0.0037262384 -0.020968366 0.25107518
0.48396859 -0.046794336 -0.016670443 -0.89248985 0.036517169 -0.44958681 0.2065407
-0.46556631 -0.03360074 -0.016301109 0.55871159 0.26959372 -0.78432167 0.11496347
-0.45874229 -0.038436063 -0.011107603 0.44115758 0.15334499 -0.88423145 0.13789281
-0.44015795 -0.036657996 -0.01553024 0.00062444073 0.31617102 0.94870198 0.1737932
-0.43299946 -0.033490915 -0.014831851 0.15380152 0.96658379 0.20508741 0.22806521
-0.41541886 -0.032679372 -0.014687695 0.4527953 0.83822429 0.30390194 0.25320247
-0.34937918 -0.037328403 -0.017648438 0.69207084 -0.61581784 -0.37657169 0.02179371
-0.1595712 -0.038197082 -0.018969014 0.81847531 0.0023335957 -0.57453698 7.1902446e-06
0.043219887 -0.031131443 -0.013146602 -0.67812955 -0.68896711 0.25586057 0.045879625
0.23912804 -0.034826878 -0.016587036 -0.95525616 0.0058887671 0.29572105 0.0015362197
0.46185341 -0.035957672 -0.01313856 -0.95468932 0.28613549 -0.081822447 0.24534729
0.48463064 -0.033865869 -0.012168122 -0.95136422 0.22477855 -0.21066725 0.21629207
-0.46185863 -0.024282141 -0.014249566 0.49207264 0.40185174 -0.77225626 0.12080941
-0.45444971 -0.021144073 -0.017282192 0.41258711 0.49661765 -0.7636379 0.11842639
-0.44932765 -0.022373691 -0.017476216 0.38261905 0.6250577 -0.68037164 0.10570496
-0.43377343 -0.029449753 -0.012566973 0.17322432 0.96382636 -0.2025636 0.19575109
-0.41435599 -0.026086673 -0.018545372 0.78515643 0.28801924 0.54824668 0.23662986
-0.3392826 -0.021882152 -0.015513524 0.86876869 -0.38402241 -0.31267837 0.015277554
-0.1564012 -0.021245971 -0.014368005 0.83882582 0.002247991 -0.54439527 0.0027236629
-0.0016271188 -0.027514312 -0.010898674 -0.75480288 0.57911974 0.30804691 0.17460439
0.026173037 -0.024455525 -0.012941476 0.19390476 0.9802618 -0.038569674 0.066178836
0.030070137 -0.025163475 -0.014383021 0.49251708 0.84941208 -0.1895417 0.016274208
0.24171521 -0.028042084 -0.01170993 -0.91961688 0.0068437457 0.39275682 0.0025739733
0.29091063 -0.024392264 -0.014071519 -0.94270742 -6.6046505e-06 0.33362085 0
0.48487395 -0.022175213 -0.011224663 -0.99155343 0.080441974 -0.10173915 0.18678443
-0.47207248 -0.011544529 -0.019362174 0.85981661 0.25573948 -0.4419421 0.064919218
-0.46428823 -0.017509459 -0.012039576 0.65483558 0.49789903 -0.56858325 0.10931942
-0.45239714 -0.01623849 -0.011854894 0.48713702 0.57212085 -0.65982974 0.098371126
-0.33765778 -0.017096743 -0.015509411 0.89930642 -0.27748656 -0.33800754 0.01468381
-0.15813385 -0.011503654 -0.016755598 0.82432687 0.00059011264 -0.56611377 0.00041357201
0.23867783 -0.016694743 -0.017435707 -0.93834192 0.021169206 0.34505984 0.0050959354
0.46259373 -0.018905696 -0.018739456 -0.94038743 0.11843256 0.3188183 0.19678591
0.48507833 -0.016520079 -0.018760636 -0.98011845 -0.032934956 -0.19566092 0.18952368
-0.46330249 -0.0057641128 -0.01122505 0.73572367 0.18577576 -0.6513049 0.10611917
-0.41513702 -0.0058414377 -0.015625641 0.98562872 -0.019870518 0.16775322 0.016448138
-0.33575219 -0.0077120578 -0.014668796 0.96792066 -0.031168455 -0.24931552 0.020005509
-0.16014761 -0.0012345412 -0.019538233 0.81849647 0.00048907223 -0.57451141 1.6152486e-05
0.24219556 -0.0096627884 -0.010804422 -0.89196712 -0.0046576844 0.45207635 0.0004116082
0.46309221 -0.0059765149 -0.010850528 -0.96552694 -0.010497879 0.26009151 0.21756153
0.48517781 -0.0057856236 -0.014760723 -0.99498558 -0.07551533 -0.065583646 0.17974511
-0.46508235 0.0012452381 -0.012528676 0.77089173 0.039300784 -0.63575262 0.11044377
-0.41523224 0.0039166082 -0.016070209 0.98042798 -0.068710767 0.18449929 0.016697573
-0.33721766 0.0054839007 -0.018138342 0.92865115 0.087963328 -0.36037409 0.01300176
-0.15577239 0.0038250901 -0.013350335 0.82519281 -0.0099530099 -0.56476349 0.00059209357
0.46314651 0.0032334486 -0.014738059 -0.94640046 -0.14188378 0.29016417 0.23403484
0.48394832 0.0073053902 -0.013011482 -0.96586519 -0.20716882 -0.15551682 0.200764
-0.46880481 0.017261261 -0.016970798 0.79682547 -0.21541481 -0.5645048 0.05745228
-0.45926198 0.017563121 -0.012443602 0.51865411 -0.45253384 -0.72540402 0.091222003
-0.41439575 0.013012558 -0.016042285 0.91493517 0.17921144 0.36163074 0.074590228
-0.33912766 0.019273128 -0.01636423 0.88580924 0.37205532 -0.27733877 0.01531871
-0.1563044 0.016268091 -0.014195356 0.82071835 0.00022899114 -0.57133287 6.5871456e-05
0.23803835 0.015873779 -0.018641206 -0.92641586 0.028057393 0.37545481 0.0013433339
0.29068094 0.016436301 -0.014720464 -0.9426986 2.1659837e-06 0.33364567 3.9577026e-05
0.46294707 0.011230138 -0.013826409 -0.8875401 -0.35240075 0.29679316 0.23146273
0.48433143 0.015320549 -0.014071831 -0.98855162 0.12551022 -0.083743058 0.19939023
-0.47098517 0.02631335 -0.019857243 0.81205791 -0.26600048 -0.51942831 0.058067378
-0.46084434 0.021971501 -0.0104688 0.5271036 -0.36650616 -0.76670402 0.091664635
-0.45567617 0.025897527 -0.014940901 0.42633066 -0.3393369 -0.83850622 0.099878915
-0.43799579 0.027811665 -0.014436427 0.12396193 0.34920013 0.9288125 0.14290498
-0.41666847 0.026372543 -0.018161306 0.78543049 -0.069660425 0.61501735 0.22893871
-0.34049419 0.025501616 -0.01274789 0.86276364 0.46250036 -0.20428485 0.013891079
-0.0028976726 0.024868676 -0.013698366 -0.71462697 -0.57199198 0.4026581 0.12814622
0.016736189 0.022880215 -0.018466808 -0.18924561 -0.97126466 0.14432956 0.088231288
0.02524168 0.024273362 -0.011969141 -0.048638467 -0.99741834 0.05283029 0.083716191
0.035469279 0.026292838 -0.016646203 -0.55155104 0.81112868 0.19458073 0.038863059
0.041503713 0.029337374 -0.0122595 -0.55741823 0.80003905 0.2218613 0.047194943
0.28978682 0.028230086 -0.017247096 -0.94270629 -7.0844658e-07 0.33362374 0
0.46216345 0.023152595 -0.015755769 -0.95932591 -0.25203127 0.1271774 0.21015422
0.48437196 0.025695568 -0.014254364 -0.97183228 0.03502154 -0.23305689 0.22289127
-0.46436125 0.03202635 -0.014878733 0.53902191 -0.39579231 -0.7435078 0.10011324
-0.45936829 0.039644569 -0.011767492 0.58723807 -0.17630014 -0.78998083 0.10013053
-0.44327223 0.035482619 -0.016278671 0.051190689 -0.14947519 -0.98743951 0.12604572
-0.43450469 0.034394193 -0.013416867 0.052802801 0.26677191 -0.9623121 0.16078773
-0.42440286 0.035296444 -0.013535678 0.13522394 -0.90295696 0.40790111 0.211136
-0.41708621 0.036713745 -0.011094959 0.24695316 -0.95443439 0.16753855 0.18691663
-0.3488124 0.037302561 -0.01382676 0.72683889 0.66059124 -0.18794782 0.022008255
-0.0022796255 0.032347538 -0.01741441 -0.8972559 -0.19486523 0.39618096 0.098545708
0.0012385728 0.039911147 -0.014819331 -0.92792749 -0.088325709 0.36214519 0.084489413
0.28956851 0.030603081 -0.017863825 -0.94270587 -7.4162917e-06 0.33362493 0
0.46156159 0.036461323 -0.016082661 -0.98818231 -0.12387032 -0.090287589 0.22739325
-0.4661358 0.045754969 -0.018512672 0.78217375 -0.16127016 -0.60182738 0.059953738
-0.45769024 0.046752181 -0.01151184 0.59742159 -0.042747263 -0.80078715 0.095879957
-0.40371692 0.045473825 -0.019370973 0.31681451 -0.92855138 0.1934448 0.035776842
-0.3956314 0.049330924 -0.015277978 0.25702393 -0.96230513 0.088924915 0.022231996
-0.38555396 0.04873386 -0.016377311 0.059637707 -0.97692335 0.20509546 0.019918988
-0.36436862 0.047528341 -0.013671458 0.28125486 0.93787605 -0.20318517 0.020909136
-0.35736975 0.04430718 -0.014235906 0.52084029 0.82916576 -0.20300144 0.029589912
-0.15916151 0.042940605 -0.018393913 0.81986177 -0.002786248 -0.57255477 1.9120238e-05
0.0018263019 0.044712249 -0.017276058 -0.95628053 0.042311531 0.28937414 0.035453316
0.046639644 0.043350801 -0.019666428 -0.87151915 0.37185401 0.31965443 0.0340105
0.28988287 0.045520443 -0.016975686 -0.94270563 9.1534957e-06 0.3336257 6.4119085e-06
0.29006469 0.048160378 -0.016461914 -0.94270593 6.3802859e-06 0.3336249 5.3864501e-06
0.4611716 0.045083374 -0.013325887 -0.89671755 0.42187425 -0.13386481 0.25068218
0.48409078 0.044553816 -0.016913753 -0.93491232 -0.33722973 0.11052196 0.20598453
-0.46189681 0.054595299 -0.016436867 0.75407809 -0.096963577 -0.64958775 0.056207385
-0.45915347 0.051084213 -0.013507621 0.6455217 -0.083155356 -0.75920153 0.085076191
-0.15850367 0.054304175 -0.017478343 0.8202526 -0.0031992926 -0.57199246 2.2574857e-05
0.0029336074 0.055644341 -0.015780969 -0.95216823 0.0493581 0.3015615 0.0054082708
0.23745713 0.052024085 -0.01973686 -0.93848062 -0.026379343 0.34432283 0.0025283
0.29018718 0.056707326 -0.016115651 -0.94269836 1.5661208e-05 0.33364633 4.199865e-05
0.46072313 0.053359851 -0.010098256 -0.99957031 -0.028118936 0.0082721431 0.21806884
-0.45420587 0.062137488 -0.011349324 0.68647635 -0.10550819 -0.71945679 0.023355026
0.049813058 0.069111377 -0.012393234 -0.93349648 0.0041441573 0.35856277 4.3993077e-05
0.45957243 0.06415987 -0.012560423 -0.98155057 -0.18285863 0.055867035 0.1723578
0.4827328 0.06605085 -0.013972329 -0.99420893 0.018395394 -0.1058787 0.14769875
-0.45670965 0.076759398 -0.016553745 0.72771055 -0.15473622 -0.66820216 0.017156674
-0.15616319 0.075259604 -0.014269311 0.83276904 -0.0014534317 -0.55361867 0.00060502772
0.0016920422 0.079747297 -0.019789549 -0.95786923 0.0035296709 0.28718296 0.0011211099
0.24055457 0.076791726 -0.013897846 -0.90738225 0.0023948073 0.42029953 0.0012694657
0.4580659 0.075367182 -0.013801012 -0.97265553 -0.21936455 -0.076290205 0.2189661
0.48192534 0.076295204 -0.013939562 -0.99709868 -0.061149038 0.045333352 0.20981792
-0.45719489 0.084444746 -0.018632274 0.72775972 -0.10690735 -0.67744863 0.013750084
-0.15593427 0.08364936 -0.014139362 0.8279382 -0.011240395 -0.56070668 0.00037122821
0.0032776529 0.086530268 -0.014798299 -0.93802941 0.031228229 0.34514588 0.0012378751
0.047935024 0.084888645 -0.017202716 -0.93486941 -0.0032248693 0.3549771 2.3911824e-05
0.45668435 0.085552797 -0.014771108 -0.004875693 -0.62879348 0.77755713 0.28296232
0.48127455 0.083421044 -0.019099046 -0.95614445 -0.091422506 0.27826214 0.29019824
-0.45212162 0.095470704 -0.017119106 0.67791528 -0.075954683 -0.73120564 0.0099055041
-0.15529223 0.098268785 -0.013565443 0.83310229 -0.012069 -0.55298728 0.00079999247
0.0018120736 0.090334162 -0.019402009 -0.94968081 0.012474357 0.31297091 0.00078759011
0.048052549 0.099754393 -0.016901752 -0.93393129 -0.0018793723 0.35744756 1.179285e-05
0.45556051 0.092311621 -0.015028447 -0.70412058 0.18027315 0.68681568 0.28888842
0.47961628 0.098182142 -0.013131771 -0.020912649 -0.95497149 0.29595974 0.24387442
0.48015666 0.09237276 -0.015774079 -0.40678909 -0.68914473 0.59966844 0.23289762
-0.44442284 0.10931151 -0.01432234 0.58327276 -0.22966829 -0.77913117 0.047602996
0.45291513 0.1042446 -0.014771022 -0.86753583 -0.35507846 0.34828258 0.16420096
0.47922665 0.10084037 -0.01448816 -0.57841384 -0.3836146 0.71991485 0.27437219
-0.45098442 0.11563343 -0.018698558 0.57792819 -0.37822062 -0.72315156 0.072277047
-0.44381914 0.11630183 -0.014262154 0.5532611 -0.44226274 -0.70590776 0.087274767
-0.15916085 0.1141194 -0.019538308 0.82167518 -0.017441161 -0.5696891 0
0.049671046 0.11651868 -0.012756918 -0.9345504 -0.045876224 0.35286117 0.0017106974
0.28972596 0.11983965 -0.017418973 -0.94365466 0.0060661468 0.33087632 0.078432664
-0.45194098 0.12507297 -0.018917371 0.54219085 -0.41723457 -0.72934514 0.071581259
-0.44426334 0.12841204 -0.013880228 0.56483191 -0.49396813 -0.66102982 0.083368793
-0.15565477 0.12476238 -0.014819506 0.84079522 -0.025214497 -0.54076582 0.0015960213
0.0035921929 0.12917587 -0.013654628 -0.93989885 0.0040257336 0.3414292 0.040589951
0.050710712 0.12847036 -0.010094428 -0.92990667 -0.2006603 0.30823547 0.018736685
0.24081375 0.12269477 -0.013409302 -0.91349232 -0.029233262 0.40580434 0.002655745
0.44802162 0.12412109 -0.014653314 -0.90909356 -0.41054013 0.070751242 0.1885615
0.47518453 0.1276554 -0.016733268 -0.78532165 0.30196112 -0.5404529 0.21480669
-0.44179559 0.13285635 -0.016387224 0.53935564 -0.56469268 -0.62467408 0.096612163
-0.43762642 0.1344431 -0.015735503 0.54331374 -0.57305527 -0.61352915 0.096651018
-0.42711151 0.13741033 -0.019469336 0.55690503 -0.71121711 -0.42898363 0.11347201
-0.40830797 0.1399129 -0.017770361 0.38957366 -0.89948845 -0.19787085 0.19940662
-0.37383696 0.13985698 -0.017493369 0.29229409 -0.91551906 0.27638564 0.12726241
-0.15410787 0.13431326 -0.01290785 0.84049499 -0.037054308 -0.54055077 0.001272248
0.0037946356 0.13184837 -0.01300101 0.92059481 -0.10222299 -0.37690258 0.056615807
0.050104573 0.13553633 -0.0102633 -0.80607432 -0.47831497 0.34850967 0.043100733
0.2413173 0.13141741 -0.012460049 -0.92488486 -0.11934288 0.36103362 0.0046479157
0.29062605 0.13798076 -0.014458519 -0.8647573 -0.39223981 -0.31359658 0.18164279
0.44388205 0.13743961 -0.01037769 -0.9301548 -0.36664963 -0.019493945 0.046561576
0.4667806 0.1349373 -0.012921799 -0.44529834 0.42405376 -0.7885986 0.22052878
0.47398514 0.13461435 -0.012721497 -0.85489279 0.50778633 -0.1063543 0.19615243
-0.42345759 0.14505264 -0.011981853 0.68937659 -0.69481069 -0.20493415 0.16093642
-0.41581643 0.14517294 -0.01603234 0.6767875 -0.68257153 -0.27578008 0.19540668
-0.40048638 0.1415807 -0.017425293 0.032146897 -0.98261583 -0.18284614 0.19455616
-0.3856006 0.14010786 -0.01434525 0.22303344 -0.9738484 0.043305777 0.1370745
-0.15378751 0.14179927 -0.012705183 0.849334 -0.013793809 -0.52767545 0.0036111637
0.00020550031 0.14142312 -0.012931098 0.95263541 -0.1283389 -0.27570781 0.07682807
0.44117069 0.14494857 -0.014198376 -0.81226778 -0.58319759 -0.010080268 0.04225716
0.47621903 0.14197423 -0.015582729 -0.9084993 -0.074243456 -0.41123819 0.039193921
-0.41551113 0.1565899 -0.01586456 0.95138568 -0.019738 -0.30736896 0.20664945
-0.40435964 0.15568975 -0.013131196 0.80874449 0.3840003 -0.4455066 0.2605671
-0.36614126 0.15933187 -0.011537029 0.91025257 -0.26568243 0.31757376 0.14305958
-0.15743987 0.15162969 -0.018622473 0.82739657 -0.034643747 -0.56054866 0.01013009
-0.0020139252 0.15564495 -0.014845592 -0.97380346 -0.21987744 -0.057972629 0.1617991
0.0079833223 0.15624365 -0.012514466 -0.8132906 0.049716435 0.57972986 0.14329325
0.011915719 0.15553929 -0.013372838 0.81096244 -0.1174123 -0.57319659 0.15868525
0.27645135 0.15114294 -0.012363929 -0.92692238 -0.3319647 0.17496966 0.16400038
0.43619776 0.15483901 -0.015533452 -0.7221694 -0.69126248 -0.025051165 0.025738146
0.47165 0.15885946 -0.014552036 -0.84419549 -0.25467029 -0.4716748 0.017501799
-0.40291652 0.16604467 -0.013294565 0.87495786 -0.3875351 -0.29028478 0.27427641
-0.3956736 0.16893668 -0.013000916 0.52895427 -0.70872295 -0.46681824 0.28162885
-0.38519865 0.16636086 -0.015037397 0.94741434 0.21423107 -0.23772067 0.23808567
-0.37385061 0.16377337 -0.014053533 0.99691725 -0.045718823 -0.063762337 0.16667283
-0.36765569 0.16076183 -0.012501137 0.93251401 -0.11653591 0.34181428 0.16361223
-0.15297735 0.16763461 -0.013125852 0.8325935 -0.28466651 -0.4751347 0.18920495
0.28583869 0.16956107 -0.012779295 0.13399392 -0.99096066 0.0065226587 0.10211557
0.29341093 0.16926818 -0.011873987 0.19715269 -0.97107601 0.13469291 0.097935416
0.30377662 0.16886051 -0.015813246 0.1721054 -0.98392129 0.047734156 0.12428925
0.32431567 0.16970257 -0.012082282 -0.08370766 -0.99643201 -0.010789525 0.10975597
0.33613211 0.16928282 -0.01592429 -0.17318141 -0.97966641 0.10130162 0.16225044
0.3427884 0.16900054 -0.014353437 -0.18747886 -0.97698957 0.10170114 0.17092302
0.35023451 0.16870859 -0.014539546 -0.1723292 -0.97309399 0.15294036 0.14440423
0.36588824 0.16807202 -0.016094621 0.019417765 -0.99767298 0.065357126 0.11106615
0.37325084 0.16762802 -0.013519695 0.03602913 -0.99542522 0.088490091 0.016461506
0.38515836 0.16690999 -0.015085742 -0.031336848 -0.99894774 0.033487871 0.0017823054
0.4089404 0.16541865 -0.015000938 -0.15248339 -0.98823434 0.011904708 0.0042808731
0.4196167 0.16371921 -0.012479914 -0.37555927 -0.92675638 0.0088213701 0.018376878
0.42453104 0.16293579 -0.01014032 -0.46767664 -0.88294196 0.041134659 0.023788942
0.47187001 0.16639332 -0.018395234 -0.82835281 -0.35358116 -0.43452489 0.006979648
-0.42338964 0.17618559 -0.010061534 0.65890759 -0.53957886 -0.52411395 0.19636077
-0.41566405 0.17365053 -0.019091077 0.89726079 -0.2995021 -0.32437861 0.22679323
-0.4078829 0.17412408 -0.010016604 0.45240816 -0.77817172 -0.43563229 0.17794654
-0.38190678 0.1781711 -0.012998315 0.46753392 -0.80892986 -0.35643291 0.25207013
-0.37818217 0.17742649 -0.013500348 0.8057518 -0.30335191 -0.50866663 0.25331071
-0.36698914 0.17979172 -0.011905657 0.94034779 -0.1533179 -0.30370981 0.21273163
-0.21792412 0.1790189 -0.015655197 0.0060761143 -0.99974638 -0.021684563 0.00029828507
-0.20276271 0.17925595 -0.019753907 -0.0010058078 -0.99994677 -0.010270409 0.00040611022
-0.18275724 0.1791819 -0.015918393 0.036422372 -0.99912864 -0.020381894 0.038035948
-0.16147719 0.1790878 -0.011530278 0.065512426 -0.995893 0.062491808 0.21028157
-0.15282688 0.17448381 -0.013620094 0.35264838 -0.93575215 -0.0026442807 0.2002262
-0.14699581 0.17940302 -0.01862344 0.22343588 -0.97392893 -0.039227266 0.17383899
-0.13164294 0.1792818 -0.014173629 0.043018661 -0.99259627 -0.11358657 0.11627938
-0.12708449 0.1791845 -0.011241485 0.067633606 -0.99760252 -0.014659027 0.077857725
-0.11960414 0.17943811 -0.017291825 0.0032947033 -0.99974108 -0.022512509 7.7236444e-05
-0.09096273 0.17955254 -0.017942499 -0.002451383 -0.9999494 -0.0097564599 0.00028929647
-0.086595774 0.17941394 -0.013940124 -0.0028878949 -0.99985677 -0.016677042 0.00022933372
-0.072307266 0.17934459 -0.016192112 -0.0092660962 -0.99985462 -0.014319359 0.00028893622
-0.058553696 0.17917615 -0.016008543 -0.011975732 -0.99980563 -0.015662169 0.00025275536
-0.038743544 0.17888045 -0.013287117 -0.0088765789 -0.99959439 -0.027063357 0.00011775539
-0.027002685 0.17890942 -0.015807312 -0.0084155975 -0.99975061 -0.020682439 0.00025737609
-0.016071646 0.17881182 -0.015574973 -0.13880028 -0.99025494 -0.011390254 0.086372875
-0.0049676443 0.17873694 -0.0158411 -0.16596788 -0.98612356 -0.0038718779 0.14359391
0.0072154608 0.17856152 -0.014202571 -0.14373408 -0.98945493 -0.017874204 0.22937615
0.014468073 0.17849723 -0.014057913 0.28211996 -0.90492785 -0.31861252 0.21663392
0.043639239 0.17847331 -0.018333822 -0.017166955 -0.99978125 -0.011947631 0.00027707085
0.067934811 0.17785601 -0.015996521 -0.074655741 -0.99712342 -0.013090806 0.067932419
0.078566223 0.17775302 -0.018844711 -0.019305438 -0.99968261 -0.016186202 0.00027536467
0.084671989 0.17745814 -0.01547826 -0.019430952 -0.99952763 -0.023812916 0.00021999022
0.093399718 0.17718989 -0.013918094 -0.02557276 -0.99935883 -0.025057359 0.00020450223
0.11285725 0.1768999 -0.016976776 -0.022948168 -0.99971604 -0.0064159189 0.00026035632
0.12350629 0.17651707 -0.013895192 -0.021055365 -0.99968433 -0.013707746 0.00030523751
0.13587254 0.17633976 -0.015987886 -0.07265494 -0.99251884 0.098119959 0.026468465
0.14264168 0.17626685 -0.017645195 -0.040126592 -0.98214179 0.18381317 0.041864738
0.15966794 0.17560501 -0.014400989 -0.036395416 -0.9992848 0.010260788 0.0058650118
0.16562484 0.17519052 -0.01339657 -0.044201251 -0.99893409 0.01329901 0.0056675719
0.17186686 0.17499919 -0.01749222 -0.059705544 -0.99689877 0.051265344 0.010960341
0.1838524 0.17418779 -0.015949273 -0.071122766 -0.99661809 0.041155878 0.0083133364
0.19261813 0.1734262 -0.011258182 -0.057703242 -0.9982298 -0.014409865 0.00022688424
0.21604314 0.1722165 -0.013348455 -0.21004099 -0.97740966 0.023521231 0.040745776
0.23530236 0.17156368 -0.013251393 0.017879235 -0.98662734 0.16200906 0.14054187
0.24603 0.17111516 -0.015029645 0.050855964 -0.9984501 0.022606101 0.052697141
0.25380576 0.17080088 -0.015999427 -0.065690883 -0.99773937 0.014172602 0.048490733
0.273763 0.1700252 -0.016503252 -0.037791617 -0.99928564 0.00029242883 0.11658955
0.29332212 0.17101181 -0.012887329 0.1300503 -0.99093449 0.033701573 0.094825447
0.30249411 0.17062408 -0.016910341 0.161061 -0.98598701 0.043461721 0.12376016
0.31478465 0.17013583 -0.016696503 -0.012918906 -0.99918461 0.038253471 0.10237385
0.46497759 0.17419048 -0.012473826 -0.75336164 -0.48186937 -0.44749093 0.0098523153
-0.41561991 0.18280053 -0.012611376 0.4713456 -0.72877431 -0.49671045 0.16160721
-0.40375435 0.1854903 -0.017033579 0.2663703 -0.92504883 -0.27079812 0.18276592
-0.39344141 0.18671137 -0.013297142 0.43161657 -0.83176911 -0.34909496 0.16882184
-0.38563108 0.1844371 -0.012764971 0.46895954 -0.8041662 -0.36523095 0.20402655
-0.37385464 0.18147111 -0.010320116 0.71387708 -0.3066614 -0.62955403 0.22646593
-0.15270147 0.18647225 -0.013799573 0.093260467 -0.991772 -0.087697268 0.26114649
0.45893407 0.18521927 -0.013866666 -0.65682721 -0.64753598 -0.38636151 0.02049127
0.46266949 0.18258892 -0.015801743 -0.70729429 -0.59835166 -0.37644389 0.021134006
-0.39226297 0.19929233 -0.016884604 0.39817616 -0.68577242 -0.6092388 0.1140689
0.43602416 0.19806319 -0.015705215 -0.32752064 -0.92050511 -0.21307422 0.0029034349
0.4461934 0.19337942 -0.011824613 -0.51831269 -0.80607939 -0.28563625 0.020624587
0.45224744 0.19227616 -0.016165739 -0.55585277 -0.7634514 -0.32889155 0.012506386
-0.37161386 0.20481583 -0.014082531 0.43935382 -0.64832485 -0.62180638 0.082308441
-0.35548085 0.20800842 -0.011955086 0.26883355 -0.90193832 -0.33798799 0.095885381
-0.34850201 0.20970528 -0.012489087 0.056670591 -0.97215468 -0.22738476 0.085872091
-0.21095952 0.20900485 -0.01145079 0.0269225 -0.9981274 -0.054926433 0.013109548
0.063031942 0.20689243 -0.014015437 -0.077756666 -0.99690789 -0.0113342 0.17550574
0.30156994 0.20712258 -0.016996104 -0.047713324 -0.99581963 0.077888548 0.12167691
0.33356136 0.20940992 -0.010832175 -0.02158289 -0.99731159 -0.070026465 0.048746552
0.36653355 0.20914634 -0.018166728 -0.048633512 -0.99563992 -0.079599448 0.060061477
0.37680548 0.20774551 -0.017031733 -0.087774523 -0.97757262 -0.19143519 0.0098864203
0.39406842 0.20380187 -0.010254775 -0.11446957 -0.96487373 -0.23646417 0.00075334363
0.40543452 0.203624 -0.014499324 -0.12104659 -0.96638221 -0.2268327 0.00074141787
0.42126337 0.20164795 -0.016208243 -0.16925758 -0.96288639 -0.21024199 0.0019945307
-0.3513816 0.21157029 -0.016656058 0.035363175 -0.98099262 -0.19079581 0.089507364
-0.34655786 0.21173233 -0.015667183 0.029406322 -0.98814547 -0.15067743 0.098123893
-0.32794178 0.21374348 -0.015167229 0.015936403 -0.99611086 -0.086655423 0.084974945
-0.30915493 0.21587244 -0.019131761 -0.097331814 -0.99512351 0.015992502 0.096936665
-0.29306641 0.21357541 -0.012495738 0.068202794 -0.99762636 -0.0094861332 0.059674419
-0.2741704 0.21460807 -0.017072683 0.1434122 -0.98884219 0.040298283 0.039883919
-0.24443156 0.21424162 -0.014423277 0.0052554444 -0.99559355 -0.093626797 0.00084783224
-0.22294444 0.21451744 -0.013427525 -0.024672756 -0.99797308 -0.058659323 0.010918741
-0.21353887 0.21369043 -0.016455196 0.011951811 -0.99852651 -0.052933283 0.013878272
-0.20173639 0.21503213 -0.01903728 0.058410849 -0.99674523 -0.055562891 0.011680113
-0.19601534 0.21478659 -0.012169049 0.066681243 -0.99592102 -0.06078605 0.01221486
-0.18733956 0.2149331 -0.015964378 0.052429151 -0.99725986 -0.052192599 0.0061565186
-0.17728278 0.21480308 -0.012137791 -0.0068862345 -0.99876618 -0.04918037 0.00032927591
-0.15883882 0.21482202 -0.012408668 -0.050092589 -0.99873877 -0.0034286822 0.08810652
-0.14381678 0.21484964 -0.013750228 0.15611435 -0.98771954 0.0061987168 0.090426497
-0.1221688 0.2148114 -0.013867185 -0.00010741682 -0.99944311 -0.033369467 0.00011063543
-0.11699456 0.21489753 -0.016792217 -0.0054233405 -0.99959946 -0.027775619 0.00017072112
-0.098558009 0.21469018 -0.011911995 -0.0025099367 -0.99913156 -0.041590884 0.0002033402
-0.076633409 0.21471685 -0.015025787 -0.00042869648 -0.99957776 -0.029054815 0.00017325307
-0.062728293 0.21464574 -0.014463848 -0.00426627 -0.99973327 -0.022698082 0.00016124413
-0.055593338 0.21475413 -0.019554883 -0.0043614577 -0.99997419 -0.0057217022 0.00010895892
-0.046664387 0.21456483 -0.013848776 -0.0048757666 -0.99984366 -0.016994802 3.3464079e-05
-0.031242207 0.21451002 -0.01407284 -0.0073648458 -0.99979895 -0.01865139 2.9047691e-05
-0.027857114 0.21457499 -0.01697091 -0.0059111589 -0.99988961 -0.013628274 7.9244361e-05
0.027387712 0.2142569 -0.013524488 0.00044320719 -0.9995839 -0.028838249 0.00038171213
0.031074481 0.21419516 -0.011878894 -0.00024531409 -0.99955833 -0.029716246 0.00036509387
0.043848753 0.21416982 -0.012643402 -0.078219317 -0.9968465 -0.013374539 0.0079341931
0.057756394 0.21411914 -0.01268434 -0.030625921 -0.99952585 0.0031924709 0.011372623
0.062197927 0.21182537 -0.015111839 -0.0064402516 -0.99997759 -0.0018055732 0.011663453
0.074872851 0.21399622 -0.012779245 0.051943511 -0.99863762 -0.004989401 0.009132674
0.084405251 0.21394126 -0.014341608 0.064801164 -0.99762088 -0.023523202 0.006728014
0.092258513 0.21390836 -0.016379185 -0.0075297509 -0.99993438 -0.0086318525 0.0001128753
0.11262168 0.21373966 -0.016601695 -0.0093909698 -0.99994737 -0.0041201543 8.1503385e-05
0.12221626 0.21369341 -0.018724024 -0.013333884 -0.99990577 -0.0032542492 2.9175826e-05
0.13567743 0.21343488 -0.013979013 -0.018609112 -0.99974954 -0.01243259 4.1647931e-05
0.14167021 0.21331248 -0.01470185 -0.021653377 -0.99973041 -0.0083765229 3.9666331e-05
0.15237261 0.21312077 -0.018655069 -0.021084759 -0.99977529 -0.0022280933 5.2678184e-05
0.16308826 0.21283746 -0.015245788 -0.022077579 -0.99969524 -0.011047283 9.0442081e-05
0.17187737 0.21260285 -0.011665182 -0.023626039 -0.99966508 -0.010558352 4.8114085e-05
0.20355771 0.2117333 -0.013971813 -0.033024538 -0.99941874 -0.0084537407 7.5785501e-05
0.22315089 0.21095347 -0.010721094 -0.022524372 -0.99926591 -0.0309864 0.0002554309
0.23359048 0.21073529 -0.019865023 0.015262179 -0.99809217 -0.059825148 0.00059741619
0.24013591 0.21033311 -0.011811186 -0.0088657252 -0.9980467 -0.061839588 0.00066770369
0.25324583 0.21023117 -0.012368868 -0.0042585526 -0.99628913 -0.085964046 0.00071391882
0.26645482 0.21067515 -0.014007084 0.0053038374 -0.99648124 -0.08364813 0.003730224
0.29822713 0.21237236 -0.018090129 0.027225269 -0.99844772 -0.048587732 0.071141884
0.31656745 0.2119076 -0.016140286 -0.037705932 -0.99693352 -0.06856928 0.088008255
0.32807866 0.21175236 -0.016975708 -0.00068551087 -0.99900961 -0.044490773 0.087054804
0.33517027 0.21247062 -0.01995673 -0.050580189 -0.99861181 -0.01470222 0.099879384
0.3486492 0.21084648 -0.018273449 -0.10291362 -0.99360722 -0.046405122 0.072331011
-0.3224979 -0.21031177 -0.007486661 0.1235608 0.97130466 -0.20322423 0.03676939
-0.30108702 -0.21097606 -0.005695405 0.11422766 0.97989249 -0.16359337 0.031525508
-0.29521561 -0.21252519 -0.0090406146 0.085920334 0.99558401 -0.037818421 0.040776253
-0.28747672 -0.21118899 -0.0028123371 0.089293666 0.93305796 -0.34846753 0.0022788376
-0.27686071 -0.21181229 -0.0019976834 0.046248637 0.96005177 -0.27597418 0.0035484612
-0.26820999 -0.21205184 -0.0011189966 0.043693829 0.96777177 -0.24800943 0.0040570162
-0.25197503 -0.21362728 -0.0080589121 0.012975142 0.99322844 -0.11545026 0.0005744893
-0.23667757 -0.21354657 -0.0023309588 -0.015362039 0.98632675 -0.16408406 0.0042992109
-0.21362226 -0.21251743 -0.0046798554 -0.0053135701 0.99828446 -0.058309104 0.0064654122
-0.17472601 -0.21459144 -0.0068189329 0.012909706 0.99745119 -0.070174888 0.00077247771
-0.16644967 -0.21452397 -0.0050430838 -0.02060066 0.99943674 -0.026491595 0.053937033
-0.15662454 -0.21447155 -0.0037960541 -0.095985562 0.99495041 0.029332001 0.14345743
-0.14341156 -0.21452324 -0.0048026391 0.18102936 0.94768596 -0.26290607 0.19237216
-0.13031921 -0.21465199 -0.0087356782 0.051259723 0.99585688 -0.075110495 0.038760908
-0.1231406 -0.21465777 -0.0092283301 -0.0040851212 0.99882704 -0.048247255 0.00048883102
-0.10554002 -0.21446878 -0.0047274227 0.0015241985 0.99665403 -0.08172144 0.00087322568
-0.097011127 -0.2144113 -0.0037071265 0.0034525916 0.99540561 -0.095686056 0.0011415799
-0.067549124 -0.21440388 -0.0062879832 -0.0040610828 0.99881744 -0.048448619 0.00014414841
-0.050588757 -0.21425501 -0.0036082133 -0.00064176123 0.99900591 -0.044572316 0.0002477009
-0.044128552 -0.21420406 -0.0027734078 -0.0026248158 0.99883163 -0.048254147 0.00014991508
-0.033752091 -0.21422553 -0.0046703857 -0.0023800915 0.9988507 -0.047870666 0.00035281142
-0.025133332 -0.21420069 -0.0049006771 -0.0040373281 0.99890238 -0.046666723 0.00031346723
-0.016724054 -0.21409547 -0.0025837014 -0.031099765 0.99570692 -0.087181672 0.0050414335
-0.0074352557 -0.21406178 -0.0027859774 -0.017889699 0.99666363 -0.079633445 0.0051561315
0.0032882302 -0.21423542 -0.0099573638 -0.020081725 0.99330169 -0.11379149 0.0090009375
0.012281466 -0.21405903 -0.0051807072 -0.0072142789 0.99391359 -0.10992571 0.0094127189
0.029567376 -0.21395655 -0.0036587194 0.017774431 0.99658948 -0.080581665 0.0063386341
0.059597872 -0.21396247 -0.0075469781 -0.0091537042 0.9997834 -0.018691076 0.012331792
0.063208163 -0.21126604 -0.0013509027 0.015609094 0.99918556 -0.037210219 0.0097947316
0.082866587 -0.21376783 -0.0039062428 0.049738236 0.99839932 -0.026923953 0.0056550791
0.098103374 -0.21355593 -0.00094577495 -0.0061600409 0.999318 -0.036409475 0.00016623709
0.10559293 -0.21354675 -0.0019576568 -0.0093483943 0.99942392 -0.03262423 7.4112046e-05
0.11164938 -0.21364017 -0.0093913879 -0.010407469 0.99979419 -0.017414303 9.0631438e-05
0.13647494 -0.21327633 -0.0040530399 -0.017421031 0.99952894 -0.025265874 4.5000281e-05
0.14489684 -0.21311045 -0.005399981 -0.018331347 0.9995048 -0.025575992 3.7437123e-05
0.15180349 -0.21296062 -0.0053371349 -0.020258019 0.99935549 -0.029634142 4.8998285e-05
0.16089574 -0.21275672 -0.0045882794 -0.020532478 0.99940634 -0.027664933 5.2105472e-05
0.178122 -0.21237457 -0.004245949 -0.027625958 0.99928856 -0.025674343 3.9250499e-05
0.18223774 -0.21233355 -0.0076214741 -0.026250333 0.99950272 -0.01746802 9.0625632e-05
0.21448098 -0.21123226 -0.0061146305 -0.03195779 0.99934781 -0.016815044 9.0745067e-05
0.22350553 -0.21087322 -0.0041382615 -0.029971462 0.99932677 -0.021160776 9.9081466e-05
0.23583542 -0.2103785 -0.0010213341 -0.031610008 0.99863738 -0.041522861 0.00022792773
0.24452157 -0.2101047 -0.0058496669 -0.023784792 0.99816155 -0.055748466 0.00061162061
0.28650931 -0.21008997 -0.0096170716 -0.03927628 0.99721658 -0.063375823 0.016633058
-0.36557394 -0.20131111 -0.0056714481 0.47437397 0.6834631 -0.55484021 0.08735849
-0.33531633 -0.2076509 -0.0052008522 0.095651209 0.93706506 -0.3357974 0.029206302
-0.32356483 -0.20807314 -0.0033876742 0.12410682 0.94817555 -0.29250771 0.031831115
-0.30283976 -0.20972663 -0.0023616117 0.11203083 0.94141293 -0.31810495 0.019996593
0.062322609 -0.20655528 -0.0079163276 0.00095431833 0.99977428 -0.02122624 0.013665907
0.25492653 -0.20967184 -0.0061478619 -0.0069977231 0.99614328 -0.087461062 0.00087847235
0.26755321 -0.20904496 -0.0010746598 -0.013185222 0.99407279 -0.10791383 0.0014867339
0.27215052 -0.20936035 -0.0056031123 -0.0051210308 0.99214089 -0.12502135 0.0010403171
0.28891599 -0.20819427 -0.00084110803 -0.049986169 0.9924795 -0.11174031 0.0040284209
0.29121023 -0.20904817 -0.0049923356 -0.039369464 0.98893356 -0.14304015 0.0061795427
0.30420512 -0.20763561 -0.005647541 -0.028620645 0.99772978 -0.060960263 0.023189962
0.31151041 -0.20915559 -0.0068221027 -0.070193253 0.99682319 -0.03763495 0.035022598
0.32649344 -0.20670006 -0.0013133268 -0.0099197309 0.98426366 -0.17642714 0.0044997162
0.33589077 -0.20757471 -0.005663876 -0.05404431 0.9869476 -0.15170255 0.0065906299
0.34847161 -0.20699948 -0.0065000132 -0.063111328 0.98219854 -0.17692655 0.0047601471
0.35805485 -0.20673531 -0.0080196317 -0.081371762 0.98527628 -0.15036362 0.0079859877
0.36618149 -0.20504963 -0.0047654775 -0.10609445 0.97588581 -0.19076373 0.0017023186
0.37744057 -0.20294686 -0.001146437 -0.098774754 0.97746396 -0.18656853 0.0017433162
0.38516194 -0.20313254 -0.0045823138 -0.11256334 0.97327411 -0.20016746 0.0015882121
0.40591386 -0.20009322 -0.0023239902 -0.13465118 0.97408563 -0.1817311 0.0018240176
-0.38253957 -0.19644365 -0.0073162769 0.38343132 0.68002784 -0.62493402 0.093552001
-0.37484831 -0.1974798 -0.0048441435 0.42059809 0.62005699 -0.6622889 0.13705675
-0.14552945 -0.19064179 -0.0035142135 0.79205757 0.1050946 -0.60133183 0.19692568
0.41765898 -0.19873112 -0.0034057396 -0.18846777 0.95878428 -0.21263236 0.0042852336
0.4213796 -0.19870505 -0.0055033402 -0.19823974 0.95265162 -0.2305553 0.0036068656
0.43466252 -0.19518164 -0.0035100812 -0.30709285 0.9338029 -0.18359217 0.010771005
0.44660264 -0.19082154 -0.0020060232 -0.46081087 0.85737163 -0.22927548 0.02161001
-0.42127681 -0.18271697 -0.0067192931 0.34761342 0.7782985 -0.52289236 0.15189196
-0.41396365 -0.1819988 -0.004239731 0.47312173 0.62637669 -0.61952239 0.14728947
-0.40469962 -0.1831287 -0.0060193185 0.37488744 0.61359632 -0.69495249 0.12336773
-0.3940846 -0.18247151 -0.0071839201 0.22485323 0.62298012 -0.74922413 0.15449627
-0.38713926 -0.18356384 -0.0046071094 0.40897 0.49035043 -0.76961029 0.17840804
-0.37331611 -0.1848212 -0.0034301726 0.72837782 0.40996772 -0.54899216 0.18926944
-0.36736643 -0.18409459 -0.0058666589 0.64047682 0.47990474 -0.59956729 0.15379287
0.45650178 -0.1844109 -0.0082363132 -0.65229142 0.72556454 -0.21925335 0.022189897
-0.42130095 -0.17819001 -0.00028614679 0.14801046 0.73081625 -0.66633368 0.23091325
-0.41457495 -0.17409852 -0.0042995936 0.61479461 0.41137061 -0.67290556 0.18475433
-0.39700022 -0.17566462 -0.0048498171 0.30647996 0.50504249 -0.80684698 0.15402496
-0.215634 -0.17852187 -0.0034920073 0.0049980991 0.99982285 -0.018149465 0.00024725581
-0.20725647 -0.17861779 -0.0049158493 0.00082837947 0.99978346 -0.020791652 0.00017634666
-0.19549355 -0.17868385 -0.0052689207 0.003434282 0.99961197 -0.027640689 9.8699813e-05
-0.18385576 -0.17864926 -0.0032201 -0.00082719512 0.99955672 -0.029759377 0.00011617187
-0.17484607 -0.17870525 -0.0036199363 0.032574814 0.9979468 -0.055146217 0.032443866
-0.16594598 -0.1787869 -0.0046461979 -0.0030252114 0.99818647 -0.060121998 0.05930125
-0.14565811 -0.17715722 -0.0032948549 -0.03890631 0.99337947 -0.10809033 0.13888611
-0.1320952 -0.17906967 -0.0086368015 -0.030169623 0.99087477 -0.13136554 0.12333696
-0.12074833 -0.17899846 -0.0058315271 -0.0050508315 0.99917144 0.040386867 0.093738526
-0.10549791 -0.17906499 -0.0063252035 0.0025663672 0.99954891 -0.029924238 4.5777993e-05
-0.082195945 -0.17899363 -0.0040867273 -0.0061059291 0.99958819 -0.028038217 9.7950913e-05
-0.078078009 -0.17912038 -0.0086253844 -0.0061059832 0.99940705 -0.033885982 1.9423846e-05
-0.063671574 -0.17892173 -0.0078572221 -0.010271763 0.99945736 -0.0312985 8.2692161e-05
-0.054394964 -0.17882015 -0.0080452068 -0.010043399 0.99940664 -0.03294583 7.4047159e-05
-0.043047 -0.17847824 -0.0026324347 -0.0092632668 0.99922651 -0.038219005 2.0956673e-05
-0.036639575 -0.17858197 -0.0070759826 -0.010914394 0.99932551 -0.035062637 5.944728e-05
-0.025759902 -0.17837307 -0.0049098516 -0.0097252745 0.99938947 -0.033556901 6.4969063e-05
-0.017291695 -0.17845589 -0.0080092549 -0.065480411 0.99723667 -0.035091415 0.031869352
-0.0032119546 -0.17811231 -0.0032002586 -0.16892801 0.98057884 -0.099641345 0.15315756
0.024299381 -0.17807549 -0.0069374386 0.18787998 0.93812954 -0.29088485 0.15353686
0.033250581 -0.17795482 -0.0059038177 0.61996019 0.70813566 -0.3379249 0.18053822
0.044279963 -0.17780869 -0.0049200985 0.019942835 0.99726194 -0.071209796 0.13148251
