# .PCD v0.7 - Point Cloud Data file format
VERSION 0.7
FIELDS x y z normal_x normal_y normal_z curvature
SIZE 4 4 4 4 4 4 4
TYPE F F F F F F F
COUNT 1 1 1 1 1 1 1
WIDTH 573
HEIGHT 1
VIEWPOINT 0 0 0 1 0 0 0
POINTS 573
DATA ascii
0.073811144 -0.16640598 0.075984657 0.006400899 0.96195108 -0.27314666 0.015732408
0.084287979 -0.16598207 0.077023089 -0.0078778556 0.94805962 -0.31799498 0.011179748
0.096166708 -0.16697319 0.074612878 0.020538863 0.96003628 -0.27912083 0.019019319
0.10526692 -0.1668894 0.074647114 0.025181992 0.95611173 -0.29191819 0.02210857
0.11959507 -0.16515364 0.078248255 -0.019789124 0.9145208 -0.40405461 0.00022061834
0.1203028 -0.16582805 0.076706104 -0.014865816 0.91944081 -0.39294729 0.0007793128
0.13580115 -0.16724116 0.072951064 0.13795809 0.91756755 -0.37287709 0.054399453
0.14891545 -0.16578685 0.075507991 0.029063823 0.86636829 -0.4985593 0.1013586
0.15266305 -0.16649461 0.073760092 0.075473569 0.91850406 -0.38814172 0.14339894
0.16489793 -0.16748635 0.073401697 -0.40635833 0.81705183 -0.40902224 0.19743481
0.17473929 -0.16479008 0.076322161 -0.44924352 0.68258423 -0.57641923 0.15277401
0.18643172 -0.16704072 0.072210267 -0.37363201 0.77198201 -0.51423991 0.11815036
0.19479783 -0.16177389 0.075808629 -0.37403458 0.68133003 -0.62919587 0.10836058
0.20520353 -0.16367954 0.072681941 -0.31743401 0.64453614 -0.69556361 0.10739043
-0.40105569 -0.15038696 0.071125522 0.076408856 0.32223707 -0.94357032 0.013416274
-0.38126191 -0.15035507 0.073385529 0.15520929 0.38812026 -0.90844518 0.054696389
-0.37036678 -0.15841338 0.070156202 0.11977401 0.41660485 -0.90116292 0.059020385
-0.36725163 -0.15175316 0.078665167 0.25183111 0.42005938 -0.87185514 0.09711656
-0.35536942 -0.15477979 0.076545604 0.15493034 0.60245442 -0.7829721 0.11732698
-0.34190392 -0.15932553 0.076730065 0.20254119 0.74298686 -0.63792437 0.099471964
-0.33514762 -0.15391901 0.074806325 0.22251567 0.78997254 -0.57134068 0.15266603
-0.32595831 -0.15700874 0.070653655 0.023245595 0.75626385 -0.65385365 0.19754766
-0.31843552 -0.15467681 0.07968168 0.042410314 0.93192458 -0.36016375 0.14091286
-0.30860761 -0.15880057 0.072769105 0.01862134 0.96737713 -0.25265545 0.19679877
-0.28572914 -0.15413189 0.074146733 0.04730564 0.25818667 -0.9649362 0.26215968
-0.27212492 -0.15464367 0.07284262 0.28491479 0.90589452 -0.31333458 0.18844308
0.20371206 -0.15886877 0.075761527 -0.38013625 0.60495436 -0.69966185 0.11540171
0.21087144 -0.15451545 0.073048577 -0.34207654 0.43723154 -0.83175248 0.15474993
-0.43382937 -0.14044453 0.070028603 0.11759651 0.29571965 -0.94800895 0.007279146
-0.41542774 -0.14649233 0.070820183 0.083221637 0.35036266 -0.93290949 0.0082377093
-0.39600167 -0.14510159 0.071094505 0.041164506 0.28446338 -0.95780271 0.015746435
-0.38317269 -0.14602426 0.073520973 0.17623658 0.32993865 -0.9274056 0.052327827
-0.37367296 -0.14698941 0.074583061 0.12541854 0.3852829 -0.91423595 0.09112411
-0.36451709 -0.14800479 0.076174326 0.23849346 0.43383715 -0.86885345 0.098130397
-0.35998768 -0.149663 0.074406788 0.21043132 0.40785727 -0.88846564 0.12035806
-0.29131702 -0.14407682 0.070837505 0.12252816 -0.24550919 -0.96161956 0.17358887
-0.2866405 -0.14401826 0.074085884 0.15783633 -0.3311345 -0.93028897 0.25158337
-0.27092677 -0.14877109 0.072255827 0.56789237 0.74112642 -0.35809204 0.26328433
0.20816752 -0.14043082 0.079364508 -0.74329829 0.31294063 -0.59124929 0.17133412
0.21788594 -0.14222582 0.074141122 -0.41208944 0.30732256 -0.85775012 0.16323046
-0.43382853 -0.13847288 0.070250273 0.12752925 0.26919511 -0.9546048 0.0056710294
-0.41448125 -0.1341214 0.072450906 0.094245538 0.17463842 -0.98011184 0.0048738625
-0.40450838 -0.13460559 0.073194914 0.074131653 0.17969106 -0.98092592 0.01231259
-0.39426523 -0.1334621 0.074134097 0.071814626 0.16095597 -0.98434538 0.029399084
-0.38590813 -0.13334662 0.076486461 0.19822223 0.22281143 -0.95449626 0.066418856
-0.28693366 -0.13514452 0.073981993 0.24547523 -0.26658329 -0.93202752 0.12827772
-0.27520776 -0.13233057 0.073704503 0.042547684 0.047224794 -0.99797773 0.077793024
0.20996964 -0.13917302 0.078797199 -0.62007874 0.36014628 -0.69699138 0.15839021
0.21861492 -0.13344827 0.075793259 -0.6289658 0.20976309 -0.74859971 0.19992733
0.22570604 -0.13490424 0.071892798 -0.30815318 0.18701394 -0.93277407 0.16491851
-0.45094138 -0.12074548 0.07038264 0.19122319 0.14023411 -0.97147727 0.014647669
-0.44413537 -0.12558566 0.070645608 0.1132171 0.14016339 -0.98363417 0.0022209939
-0.43633091 -0.12740636 0.071248852 0.094553821 0.14357895 -0.98511147 0.002803586
-0.41506654 -0.12072167 0.073877007 0.062839754 0.1128858 -0.99161887 0.0036977641
-0.40238544 -0.12672137 0.074259423 0.11164619 0.16146652 -0.98054254 0.017713051
-0.39242974 -0.12566778 0.074150324 0.10191156 0.16354987 -0.98125708 0.040121868
-0.38885516 -0.12112026 0.07840348 0.1444339 0.11974278 -0.98224264 0.076726452
-0.29136214 -0.12297793 0.070788249 0.24815539 0.18146251 -0.95157242 0.045630332
-0.2853457 -0.12566926 0.07454481 0.20906372 0.19293721 -0.95868009 0.08154954
-0.26851887 -0.12161229 0.071076527 -0.26583034 0.22195746 -0.93811989 0.12228762
0.21659902 -0.12433217 0.078185529 -0.68225521 0.22151081 -0.6967501 0.18170995
0.22387969 -0.12782174 0.073979281 -0.48407772 0.15835387 -0.86057693 0.18591365
-0.45221424 -0.11742931 0.070472017 0.19614346 0.11222734 -0.97413182 0.010854729
-0.44488627 -0.11141343 0.071713485 0.11033655 0.073828794 -0.99114841 0.00010249067
-0.435761 -0.11959311 0.0721386 0.093642682 0.11502148 -0.98893934 0.0017884482
-0.42593515 -0.1145685 0.073338829 0.075710848 0.074013427 -0.99437916 0.0003683627
-0.41165343 -0.11392906 0.074603111 0.0821435 0.064679511 -0.99451947 0.0047834706
-0.40054238 -0.11531506 0.07350041 0.0040367092 0.012207181 -0.99991739 0.027772766
-0.39698753 -0.11407123 0.075092889 0.12386334 0.10864849 -0.98633331 0.057809144
-0.38609079 -0.11673055 0.073662736 0.15271838 0.10568084 -0.98260295 0.089334019
-0.29096037 -0.11216902 0.071226753 0.22860605 0.21448262 -0.94959801 0.12007439
-0.2858443 -0.1135024 0.074309848 0.24369818 0.34668687 -0.90577 0.16090299
-0.26752737 -0.11470318 0.070590965 -0.24569245 0.34531704 -0.90575457 0.15612833
-0.060019083 -0.11258239 0.073413 0.2175114 0.82184589 -0.52655309 0.18513802
-0.05428819 -0.11724847 0.071282655 0.1607541 0.82350826 -0.54405171 0.16056111
-0.045635499 -0.11730785 0.070197225 -0.21268833 0.80390888 -0.55542248 0.12672253
0.21639931 -0.11592401 0.079494327 -0.76603574 -0.016925788 -0.64257509 0.18708129
0.22659658 -0.11538765 0.074350774 -0.51617283 -0.010845379 -0.85641581 0.19175601
-0.45078719 -0.10193549 0.071643837 0.13908872 0.06151671 -0.98836732 0.00076434109
-0.44583014 -0.10453687 0.072039306 0.11195443 0.060510766 -0.99186933 6.8033347e-05
-0.43264395 -0.10374872 0.073411442 0.083641402 0.059088599 -0.99474251 0.00022981627
-0.42485482 -0.10185203 0.07422816 0.075317845 0.063121811 -0.99515975 0.00047156919
-0.4118526 -0.10516165 0.075148001 0.048001353 0.049854849 -0.99760234 0.0096767247
-0.40370214 -0.10562901 0.074834213 0.039571591 0.051239256 -0.99790215 0.027572613
-0.39089414 -0.10510892 0.074349225 0.088977568 0.024860501 -0.99572331 0.083133958
-0.38302755 -0.10364643 0.071173996 0.0010404265 -0.018309653 -0.99983186 0.10502538
-0.37596482 -0.10693334 0.070674516 0.089936167 -0.019689415 -0.99575287 0.15850855
-0.36461592 -0.10559274 0.070125654 0.2388611 0.16939144 0.95616525 0.15426058
-0.28554437 -0.10364112 0.074721612 0.23790988 0.23139647 -0.94332099 0.1855032
-0.2728461 -0.10310564 0.074478738 0.13532193 0.27650866 -0.95143622 0.28899783
-0.26800606 -0.10464925 0.075563014 -0.3383221 0.93941337 -0.055142835 0.26746076
-0.052438281 -0.10535529 0.074804351 -0.07140781 0.75427455 -0.65266442 0.2192191
-0.046642046 -0.10489544 0.074727371 -0.75405955 0.47091106 -0.45786124 0.23871306
0.12995334 -0.10376953 0.071692526 0.42428297 0.50249135 -0.75331682 0.11047147
0.22205657 -0.10742506 0.07745558 -0.60382462 -0.10869267 -0.78967196 0.20548439
0.23348385 -0.10388261 0.071802996 -0.44775659 -0.0047121439 -0.8941431 0.16162091
-0.46221873 -0.0917276 0.070729673 0.30918074 0.04912753 -0.9497335 0.024224564
-0.45394683 -0.099402577 0.071400635 0.21564548 0.052928172 -0.9750362 0.010442665
-0.44011506 -0.092299499 0.073396586 0.10597706 0.04866866 -0.99317676 6.1148268e-05
-0.43515021 -0.096183077 0.073639862 0.098743208 0.052866515 -0.99370766 4.5850604e-05
-0.42471853 -0.095969155 0.074608222 0.074664988 0.046766009 -0.99611151 0.00061198592
-0.40453219 -0.097722866 0.074817747 0.040808707 0.018121151 -0.99900264 0.024705686
-0.39004031 -0.092728719 0.071963243 0.09263026 0.10675195 -0.98996145 0.10016185
-0.3845152 -0.093200073 0.071652964 -0.072367415 0.040565807 -0.99655277 0.10770948
-0.37770608 -0.097063109 0.071144819 -0.019590039 -0.031940892 -0.99929774 0.14583462
-0.36417961 -0.092236944 0.070614345 0.27126434 0.1792507 0.94566637 0.17314042
-0.28320423 -0.094920173 0.074541911 0.11183132 -0.074299298 -0.9909457 0.23785083
-0.27624658 -0.094410896 0.073826648 -0.17738943 -0.10805593 -0.9781906 0.21442483
-0.26532954 -0.098827794 0.076576091 0.77950108 -0.56372803 -0.27310926 0.26660699
-0.062567487 -0.095190942 0.07783132 0.80777496 0.51665497 0.28384352 0.21781079
-0.054898992 -0.095903799 0.074580953 0.87601465 0.48099807 0.035201531 0.23861739
-0.045647372 -0.093033403 0.072984867 0.7603308 0.18196584 0.62352669 0.26486626
0.13404515 -0.095849819 0.073420539 0.25577667 0.48242941 -0.83775896 0.19391993
0.22497304 -0.095952176 0.076886423 -0.53231692 0.19746864 -0.82319188 0.20711796
0.23336363 -0.094425604 0.072630957 -0.49703035 0.10695785 -0.86111605 0.1440125
-0.45288658 -0.085588947 0.072235152 0.14940229 0.040834498 -0.98793292 0.00083043624
-0.44348794 -0.087301575 0.073234051 0.10800919 0.044149108 -0.99316907 5.805898e-05
-0.43908858 -0.081896856 0.073894128 0.10395072 0.039527889 -0.99379659 4.9076374e-05
-0.41725546 -0.082571514 0.075883187 0.063937433 0.071034573 -0.9954226 0.0078052627
-0.40490574 -0.086935192 0.077062987 0.030358998 0.12358016 -0.99187011 0.039026737
-0.39656004 -0.084889993 0.076442763 0.12668757 0.023542151 -0.99166322 0.086806029
-0.38088948 -0.080553293 0.071945801 -0.13289535 -0.065701358 -0.98895001 0.099617198
-0.37546882 -0.087665804 0.071386568 -0.14267017 -0.016962312 -0.98962498 0.18824488
-0.36010811 -0.083764903 0.070723623 0.33345148 0.054351777 0.94119918 0.13869348
-0.35631239 -0.087054454 0.070396826 0.20652167 0.032753114 0.97789371 0.10388501
-0.29078013 -0.084755227 0.071423501 0.26588598 -0.062623508 -0.96196818 0.15048723
-0.28496701 -0.084543079 0.075698741 0.11418612 -0.11137486 -0.98719662 0.24937816
-0.27425173 -0.084220715 0.073750958 0.16347608 0.34490672 0.92429161 0.24362287
-0.26531267 -0.084861957 0.075664118 0.78868425 0.10836048 0.60517377 0.27574432
-0.061023418 -0.089092985 0.077103019 0.8263278 0.29906273 0.47722524 0.22177787
-0.0535658 -0.086557463 0.074007697 0.74533081 0.40755799 0.52761579 0.23895159
-0.04700353 -0.087621093 0.073514961 0.89236456 0.070505776 0.44577393 0.28889313
0.12941627 -0.083029717 0.075470679 -0.75592345 -0.15388703 0.6363163 0.20248222
0.13373272 -0.087379076 0.075402997 0.44068745 0.2712281 -0.85570437 0.19255076
0.22898594 -0.086256728 0.07551042 -0.45708191 -0.013188103 -0.88932681 0.1774632
0.23498076 -0.085261509 0.072425358 -0.33167505 0.075906269 -0.94033498 0.16684845
-0.46439576 -0.075544715 0.071007475 0.44599748 0.11672162 -0.88739073 0.048746049
-0.4546349 -0.078986749 0.072245993 0.14992791 0.039362863 -0.98791307 0.0007050166
-0.44515872 -0.075058348 0.073496468 0.10958358 0.034944605 -0.99336314 3.9194834e-05
-0.43845034 -0.077191599 0.074121401 0.10516639 0.037416965 -0.99375045 3.457276e-05
-0.42705292 -0.078979701 0.075127706 0.087806955 0.043250304 -0.99519819 0.0016027839
-0.41494077 -0.07326404 0.076425627 0.073163733 0.03974827 -0.99652755 0.011672482
-0.40588808 -0.072790548 0.074617691 0.050879993 0.09777502 -0.99390703 0.043894414
-0.39136335 -0.074628986 0.072726756 0.01160823 0.1148836 -0.99331105 0.099402942
-0.38027284 -0.075237229 0.072116882 -0.12609398 0.060799956 -0.99015331 0.1285048
-0.37607291 -0.073900841 0.071947865 -0.17346928 0.034540132 -0.98423344 0.15629055
-0.35920337 -0.07907775 0.070873044 0.25523841 -0.025447035 0.9665432 0.11893327
-0.3443017 -0.073516175 0.070401683 -0.049365629 0.0427831 -0.99786395 6.4411411e-06
-0.29044589 -0.074934289 0.071788378 0.100918 0.037969396 -0.99416995 0.1503288
-0.28413221 -0.076808132 0.074244142 -0.041743536 0.028084934 -0.99873352 0.18820754
-0.27591389 -0.073681474 0.073907912 0.34565929 -0.1886874 0.91919351 0.20728628
-0.2660493 -0.073193498 0.075987712 0.56151253 -0.20540941 0.80156767 0.24595864
-0.063388065 -0.075161859 0.071592361 0.99405015 0.065921448 0.086710192 0.19364077
-0.046541084 -0.07513468 0.07453727 -0.55223978 0.089135371 -0.8289066 0.25393128
0.13424338 -0.075615004 0.07504952 -0.029465215 0.039595161 -0.99878126 0.18638223
0.22486825 -0.074465424 0.078246228 -0.44796544 -0.2305003 -0.86382669 0.26236016
0.23485008 -0.072712407 0.073064968 -0.32037476 0.12701318 -0.93873721 0.14925869
-0.46482289 -0.066228539 0.071267143 0.44815898 0.084892869 -0.88991392 0.042448755
-0.45736858 -0.063834988 0.07241194 0.18930933 0.026985442 -0.98154664 0.0045355181
-0.43279493 -0.066046543 0.075063467 0.081056349 0.034489043 -0.99611264 0.00051959744
-0.42468336 -0.068283781 0.075736836 0.10018473 0.033856668 -0.99439263 0.0013858348
-0.41611981 -0.068088278 0.076513492 0.1036441 0.050361503 -0.99333858 0.01262194
-0.40524462 -0.066229045 0.076626949 0.032538142 0.064868666 -0.99736315 0.045581024
-0.37490699 -0.065304175 0.072283007 -0.20341904 0.091239758 -0.97483128 0.15521477
-0.36694336 -0.065307505 0.071892701 0.37414256 -0.038927898 0.92655385 0.17039798
-0.35648832 -0.064410456 0.071422227 -0.15980126 0.028804861 -0.98672885 0.088625461
-0.34277996 -0.062684238 0.070830934 -0.048231963 0.03608435 -0.9981842 2.1102354e-05
-0.33693796 -0.064486906 0.070460886 -0.04864363 0.038056351 -0.99809098 2.5073676e-05
-0.28913543 -0.062349577 0.076563679 0.42165869 -0.15136406 -0.89403176 0.17455894
-0.27428642 -0.065656312 0.073102884 -0.2407604 0.13333194 -0.96138287 0.19170253
-0.26795217 -0.065720521 0.074072555 0.47817183 -0.3030937 0.82430929 0.21243726
-0.064708099 -0.062817462 0.070490852 0.94103956 -0.33819965 0.0080978619 0.1916876
-0.053950988 -0.065330766 0.074899986 -0.47449681 -0.27651647 -0.83569819 0.25663707
-0.045144599 -0.065016471 0.072141826 -0.84001118 -0.01558993 -0.54234517 0.25157973
0.1290517 -0.068700202 0.079292707 -0.64345485 0.07356295 0.76194119 0.18051246
0.13563497 -0.063498072 0.076337792 -0.22792128 -0.42512342 -0.87596923 0.2149982
0.22430038 -0.066721767 0.078901447 -0.49350491 0.14168912 -0.85812414 0.19631034
-0.47203606 -0.054378144 0.070459917 0.51012093 0.037572842 -0.8592816 0.056492969
-0.46567017 -0.054875106 0.071444899 0.37792876 0.043448646 -0.92481464 0.032537114
-0.45341629 -0.056939621 0.073134281 0.13999669 0.028546384 -0.98974037 0.00089966092
-0.44440806 -0.051011574 0.074270353 0.1112342 0.022512967 -0.99353915 4.9919316e-05
-0.43205401 -0.051380962 0.075507827 0.10006885 0.02245814 -0.99472702 0.00031022204
-0.42491204 -0.055292569 0.076100945 0.075844809 0.038523164 -0.9963752 0.0033001848
-0.4146561 -0.051190205 0.077097774 0.10749775 0.0074150148 -0.99417764 0.025657289
-0.40395844 -0.052829836 0.079526909 0.16155583 0.042961288 -0.985928 0.05400667
-0.39648438 -0.056354344 0.073745877 0.027820094 0.099497423 -0.99464881 0.068537049
-0.38717782 -0.052776128 0.073359862 -0.063878253 0.039069295 -0.99719268 0.10650145
-0.37897038 -0.057652153 0.072837986 -0.15328106 -0.0078587355 -0.98815137 0.15775834
-0.36462784 -0.05381874 0.072235316 0.23530042 0.046207003 0.97082376 0.12522487
-0.35497355 -0.053761065 0.071763046 -0.049055211 0.027951343 -0.99840486 3.2915417e-05
-0.32407618 -0.055990614 0.070207648 -0.047245342 0.030447826 -0.99841917 2.3123714e-05
-0.28472912 -0.05567744 0.074180596 0.19310667 -0.13780141 -0.97145283 0.14445373
-0.2796672 -0.05173175 0.074796751 0.15670519 -0.1679666 -0.97325772 0.16366754
-0.2662234 -0.055198517 0.075008661 0.70715308 0.19298191 0.680215 0.18645209
-0.064485997 -0.054357629 0.070591263 0.80268764 -0.50203633 -0.32195041 0.18414481
-0.052658163 -0.054485187 0.074097142 0.58770329 -0.66426575 -0.46190444 0.22686228
-0.043120578 -0.057844959 0.070861086 -0.71252006 0.027901448 -0.70109677 0.23077451
0.12787926 -0.052764408 0.075568445 -0.36577174 0.62344903 0.69102997 0.14988104
0.13354321 -0.056361139 0.076938644 -0.31192219 0.49860314 0.80876422 0.15316364
0.22561859 -0.05445436 0.078641787 -0.5594539 0.43262243 -0.70700002 0.21081796
0.23282267 -0.05759513 0.074744016 -0.49747661 0.09233328 -0.86254948 0.16861033
-0.47315621 -0.043161437 0.070489302 0.50199646 0.062648751 -0.86259758 0.0548096
-0.46102148 -0.044145688 0.07231994 0.28697109 0.026359426 -0.95757651 0.023026763
-0.45499563 -0.043785077 0.0731484 0.18106116 0.024013229 -0.98317862 0.0070098606
-0.44492212 -0.042390868 0.074372567 0.11400233 0.018675864 -0.99330491 6.7398658e-05
-0.43195954 -0.041080728 0.075712688 0.090257883 0.0082386443 -0.99588436 0.0013055177
-0.42611849 -0.043754864 0.076205283 0.087560192 -0.0099860039 -0.99610913 0.0035393424
-0.41789499 -0.042832982 0.076971233 0.084155314 -0.0038609928 -0.99644518 0.017943766
-0.40372705 -0.044522054 0.077091381 0.10855066 -0.016976617 -0.99394596 0.051439844
-0.39032838 -0.04721782 0.073615514 -0.036268566 0.073655084 -0.99662405 0.091319956
-0.38851482 -0.04273241 0.073608264 -0.0071368413 0.0045011067 -0.99996442 0.10679094
-0.37558833 -0.042367507 0.072981156 0.24255399 -0.1000776 0.96496218 0.11718593
-0.36466107 -0.047057804 0.072360031 0.34131962 -0.023117945 0.93966293 0.1685618
-0.33898306 -0.046341803 0.071114145 -0.04772881 0.025208354 -0.99854219 2.4338149e-05
-0.3285732 -0.04619246 0.0706065 -0.048213433 0.027114198 -0.99846894 1.3807103e-05
-0.31893533 -0.044938337 0.070156813 -0.049545061 0.023982121 -0.9984839 0.0012455207
-0.29117531 -0.044066742 0.070992179 0.1946868 -0.12196869 -0.97325259 0.071922906
-0.2850551 -0.047791924 0.074647829 0.1256672 -0.16733865 -0.97785765 0.11457666
-0.27345046 -0.047261342 0.073491804 -0.11907733 -0.32219452 -0.93915451 0.18582305
-0.26834363 -0.045077741 0.070990726 0.59898597 0.32927534 0.72992712 0.16578153
-0.051270302 -0.043635722 0.073903628 0.206478 -0.75116539 -0.62699068 0.16153179
-0.045900542 -0.044880439 0.07306055 -0.026422977 -0.77127689 -0.63595104 0.17134154
0.22605884 -0.043314133 0.078650042 -0.66488087 0.022521541 -0.74660981 0.200578
0.2379325 -0.043831881 0.0723214 -0.37798169 -0.060588051 -0.92382836 0.15594254
0.2404507 -0.046049878 0.07093592 -0.30973309 -0.055644993 -0.94919389 0.13168648
-0.47297823 -0.032284722 0.070714891 0.52968353 0.0065772915 -0.84816986 0.063836232
-0.46623349 -0.034254689 0.071766682 0.36291876 0.10227248 -0.92619133 0.029635672
-0.45236266 -0.030893248 0.073711999 0.12032636 0.013007046 -0.99264926 7.4108306e-05
-0.43653974 -0.036960844 0.075334452 0.091949418 0.0074470262 -0.99573588 0.00064324681
-0.42514062 -0.034600411 0.076465905 0.089889035 -0.01332553 -0.99586254 0.0060240156
-0.41753957 -0.037172657 0.077106744 0.070946589 0.0041757976 -0.99747133 0.02421307
-0.40508756 -0.033605877 0.07626339 0.092856899 -0.030402757 -0.99521518 0.045495115
-0.38325271 -0.036427353 0.073465057 -0.08220306 -0.023756348 -0.99633241 0.1248531
-0.37142771 -0.035271674 0.072906353 0.34646997 -0.055739187 0.93640363 0.15492809
-0.36909491 -0.035043061 0.072796144 0.29108137 -0.14149953 0.94617623 0.15091939
-0.35529554 -0.036202751 0.072098486 -0.12165848 0.10099307 -0.98742074 0.017972056
-0.34118867 -0.036573209 0.071400121 -0.047451966 0.021942815 -0.99863249 9.8703322e-06
-0.33527678 -0.036311403 0.071118429 -0.045795448 0.022444079 -0.99869871 9.312721e-06
-0.3143824 -0.034901161 0.070173346 -0.046294231 0.023297191 -0.99865609 0.0021318537
-0.2807543 -0.036562964 0.074921347 0.026059343 -0.2824637 -0.95892394 0.092113152
-0.27654546 -0.036362577 0.074438974 -0.031909831 -0.35953936 -0.93258417 0.12278851
-0.2677511 -0.038606409 0.070700534 0.54273498 0.38124904 0.74839026 0.12100206
-0.053158175 -0.038280994 0.072570279 0.27144638 -0.74917305 -0.60419911 0.15578148
-0.044227015 -0.039827637 0.071694814 -0.30689561 -0.69287968 -0.65248209 0.12182721
0.22868516 -0.039194718 0.077343561 -0.60851938 0.060407672 -0.79123634 0.18717825
0.23177677 -0.037875175 0.075717583 -0.54742795 0.075134881 -0.83347315 0.15767618
-0.47160015 -0.026573673 0.071015775 0.48180345 0.017742237 -0.87609965 0.057779487
-0.46741346 -0.024905175 0.071710497 0.36152878 0.032770429 -0.93178493 0.03722256
-0.45541167 -0.023989378 0.073387362 0.16086273 0.01153625 -0.98690933 0.0014480607
-0.44778448 -0.023139738 0.074316718 0.11783597 0.011110054 -0.99297088 6.6659893e-05
-0.43318892 -0.027857352 0.0758228 0.080302358 0.0065480173 -0.99674904 0.00074257521
-0.42397562 -0.028507786 0.076684751 0.065417193 -0.0085618021 -0.99782127 0.0073279189
-0.41277555 -0.020567739 0.075201206 0.14006908 -0.043760397 -0.98917425 0.025124604
-0.40079802 -0.028255852 0.074474014 0.089411683 0.0089062843 -0.99595493 0.057307739
-0.39527148 -0.024100449 0.075185783 0.072768942 0.03605359 -0.99669701 0.09091007
-0.38489199 -0.023457786 0.076549418 -0.017351637 0.055869717 -0.99828732 0.11254498
-0.37810943 -0.023293743 0.075311489 -0.012854228 -0.0011843303 -0.99991667 0.16281964
-0.36666164 -0.024705872 0.072881572 0.35451078 -0.068783596 0.9325186 0.16565484
-0.35812271 -0.02420111 0.072251491 -0.17595914 0.062453367 -0.98241436 0.039652601
-0.34746736 -0.024338178 0.071962729 -0.12987724 0.062198542 -0.98957729 0.014347345
-0.3352958 -0.029321279 0.071277902 -0.045558512 0.022787757 -0.99870175 6.7678147e-06
-0.32117441 -0.028672887 0.07063891 -0.068581246 0.028651584 -0.99723399 0.00089559535
-0.31427458 -0.027670486 0.070343286 -0.045854412 0.023231683 -0.99867797 0.0021186015
-0.30838206 -0.027221739 0.070080958 -0.013160533 -0.0037948627 -0.99990624 0.0080819903
-0.2904864 -0.024766721 0.071744151 0.066631325 -0.029747562 -0.99733406 0.011910867
-0.28442726 -0.027121818 0.074583381 0.058755852 -0.10854512 -0.99235356 0.036249481
-0.27372894 -0.025669141 0.07315933 -0.23945637 -0.061464734 -0.96895957 0.055937044
-0.26930958 -0.028570682 0.071463794 0.37157568 0.10323343 0.92264533 0.079127237
0.22763188 -0.022355208 0.078115955 -0.64715868 0.011740097 -0.76226497 0.16246788
0.23576203 -0.024805404 0.073753379 -0.44820493 0.12986021 -0.88444823 0.15523864
0.24175733 -0.029822979 0.070521839 -0.4003641 -0.027269041 -0.9159503 0.12022418
-0.47581327 -0.016646102 0.070383251 0.63488847 -0.011647435 -0.77251601 0.072535835
-0.45825845 -0.01473126 0.073061913 0.21884614 -0.008418859 -0.97572303 0.01324167
-0.43397164 -0.014143307 0.075832985 0.077080712 -0.0023583623 -0.99702209 0.00072746177
-0.42099062 -0.019001231 0.077010952 0.097838454 -0.0042731743 -0.99519318 0.017182106
-0.4186644 -0.013895406 0.077245668 0.10300487 0.0073921699 -0.99465334 0.018035656
-0.403427 -0.017448211 0.074799664 0.086300701 -0.0051880316 -0.99625564 0.056272242
-0.3963879 -0.017045226 0.074461892 0.10642103 -0.047101587 -0.99320489 0.058784459
-0.38190949 -0.014855918 0.073797405 -0.071386479 0.01645709 -0.9973129 0.12985066
-0.37995383 -0.010400383 0.074511006 -0.098349586 -0.0028889235 -0.99514776 0.11574692
-0.36404511 -0.015039751 0.072956249 0.36879155 -0.040189054 0.92864287 0.14077592
-0.35719478 -0.013063148 0.072686478 -0.17165166 0.02449269 -0.98485321 0.052055746
-0.34586635 -0.010544177 0.07222224 -0.18300247 0.042557884 -0.98219091 0.017567007
-0.33216712 -0.013434622 0.071517207 -0.04983053 0.019750031 -0.9985624 7.5080054e-05
-0.32653412 -0.013871509 0.071245484 -0.047014147 0.017973268 -0.99873251 2.063747e-05
-0.31582817 -0.017508157 0.070661172 -0.068397559 0.020505125 -0.99744737 0.0033699551
-0.30231544 -0.013100056 0.070141368 -0.0034135964 0.028854251 -0.99957782 0.0092779407
-0.27245694 -0.015556049 0.073005214 -0.25385433 -0.041523162 -0.96635079 0.050738614
0.23530401 -0.013846091 0.074046932 -0.52130675 0.032766294 -0.85274011 0.15620618
-0.45578131 -0.0047006044 0.07344722 0.16488983 -0.00025157401 -0.98631191 0.0017885501
-0.44313648 -0.0061664972 0.07494247 0.095735148 0.0011094178 -0.99540621 0.0002615689
-0.43906268 -0.00033606694 0.075392552 0.091773383 -0.00045300554 -0.99577981 0.00038899263
-0.42126095 -0.0070815878 0.077053078 0.092616543 0.012762971 -0.99562001 0.016980795
-0.41344607 -0.0022340179 0.076103963 0.10476174 0.014262881 -0.99439508 0.026418069
-0.40326172 -0.0046418784 0.075031646 0.041190758 0.011246811 -0.99908799 0.049538713
-0.39605781 -0.0048521059 0.074686848 0.085694499 0.0003196935 -0.99632138 0.063597374
-0.38376507 -0.0051178033 0.074110515 -0.01236657 -0.025386037 -0.99960124 0.11059643
-0.37719229 -0.0045624427 0.073397577 -0.088445045 -0.036923204 -0.99539644 0.11325832
-0.36514556 -0.0014386371 0.075457945 0.34626427 -0.045921281 0.93701243 0.14728896
-0.35963735 -0.0045438167 0.07374078 0.26621947 -0.037819438 0.96317023 0.089371391
-0.3457574 -0.0059255487 0.072328925 -0.17401925 0.022516908 -0.98448479 0.017946245
-0.33533049 -0.0035551074 0.071902886 -0.066537902 0.0071070557 -0.99775857 0.00063749071
-0.32437554 -0.0023578044 0.071423978 -0.047072578 0.0071878443 -0.9988656 6.4423213e-05
-0.30461836 -0.0055605108 0.07043054 0.0026117282 0.0020786568 -0.9999944 0.0092397062
-0.29752821 -0.0045580305 0.070126086 0.057384603 -0.0018270829 -0.99835044 0.010614991
-0.2846514 -0.0063358969 0.07437931 -0.026736315 0.00022014322 -0.99964243 0.022978805
-0.26917973 -0.0018837824 0.071400195 0.39580324 0.028339086 0.917898 0.06174868
0.22458261 -0.0018243395 0.079868287 -0.73484558 -0.026269201 -0.67772543 0.14580995
0.23025712 -0.0074217538 0.076791532 -0.64541799 -0.03531203 -0.76301289 0.15409577
0.24166778 -0.006049328 0.070677862 -0.38761649 -0.0082355822 -0.92178398 0.11801472
-0.47202674 0.0066791535 0.071058482 0.54332995 0.0054914933 -0.83950126 0.072165623
-0.46235666 0.0048316619 0.072542228 0.28179899 0.003764679 -0.9594661 0.029214785
-0.45353711 0.0040548434 0.07373701 0.15118921 -5.5796274e-05 -0.98850495 0.0018719374
-0.44633234 0.0094389943 0.074561998 0.11731637 -0.0053650653 -0.99308014 6.7639747e-05
-0.43647474 0.0082329437 0.075610459 0.078865878 -0.0038540463 -0.99687779 0.00069350592
-0.42684209 0.0074173557 0.076539293 0.10329934 0.0052294615 -0.99463654 0.005239713
-0.41326624 0.0066052265 0.076265708 0.1417038 0.026494477 -0.98955446 0.025753278
-0.40683886 0.0068699196 0.076633774 0.054331135 0.028712671 -0.99811006 0.034087654
-0.38143688 0.0041966052 0.074049406 -0.05043282 0.045381561 -0.99769586 0.0924301
-0.37922564 0.0041432795 0.0759212 -0.027952142 0.066626407 -0.9973864 0.097842753
-0.36071873 0.0037461936 0.075528093 0.28722528 -0.029166924 0.95741886 0.14429037
-0.3588272 0.0050460258 0.072935574 0.20311408 0.013612825 0.97906041 0.047338415
-0.34303382 0.0010169131 0.072327361 -0.16926265 0.041438341 -0.98469949 0.014258278
-0.3378405 0.0040633557 0.072030708 -0.077413902 0.0039742007 -0.9969911 0.00088677846
-0.32801318 0.0076540643 0.071509227 -0.047355305 -0.0081544667 -0.99884486 5.1352323e-05
-0.31510296 0.0063806796 0.07093408 -0.040890068 0.0039778999 -0.9991557 0.0056388746
-0.30374259 0.0080451537 0.070373639 0.0036823477 0.0077288961 -0.99996334 0.0094685378
-0.29697233 0.0042453213 0.070132703 0.037547264 0.0049258042 -0.99928266 0.0081230327
-0.28695726 0.0080107301 0.073973611 0.018745959 0.015758917 -0.99970001 0.014104216
-0.27442271 0.00050877593 0.073967956 0.29182786 0.063898996 0.95433396 0.057652257
-0.26743394 0.0045600533 0.070545197 0.38363275 -0.042139299 0.92252386 0.067836829
0.2271478 0.0032819968 0.078483649 -0.64263225 -0.00016169889 -0.76617473 0.17941299
0.23407169 0.0018293122 0.074777514 -0.56183845 -0.096562542 -0.82159191 0.14036395
-0.47377658 0.012517269 0.070737705 0.50694209 -0.064756431 -0.85954428 0.065856628
-0.46386266 0.015546043 0.072272129 0.33162233 0.0079652192 -0.94337857 0.039240107
-0.45543373 0.012873955 0.073441416 0.15982665 -0.001639115 -0.98714375 0.0022905457
-0.44617236 0.016118277 0.074538507 0.11777013 -0.00721678 -0.99301463 6.9453628e-05
-0.43308353 0.016651116 0.075893342 0.06713067 -0.0010870863 -0.99774367 0.00061697967
-0.42574301 0.0168008 0.076587781 0.099840187 0.0056703538 -0.99498731 0.0064747515
-0.41263148 0.013989836 0.077428691 0.119059 -0.0048657237 -0.99287528 0.028623112
-0.40710571 0.014263853 0.076618686 0.10322548 -0.0036948393 -0.99465108 0.042027134
-0.39467826 0.015007499 0.07446494 0.051126681 0.025933338 -0.99835539 0.065454409
-0.38352314 0.017886637 0.073894963 -0.01104368 -0.025517067 -0.99961346 0.097963631
-0.37941518 0.015076138 0.074941322 -0.077781036 -0.051992968 -0.99561381 0.11587199
-0.36453071 0.013492011 0.07463754 0.31155491 0.00067902479 0.95022786 0.092742652
-0.34546489 0.014533711 0.07219208 -0.16738173 -0.017855965 -0.98573047 0.012405359
-0.33351171 0.019916601 0.071539171 -0.046555132 -0.018469442 -0.9987449 8.8116003e-06
-0.32511783 0.012514881 0.071285821 -0.046838511 -0.01247145 -0.9988246 4.0496874e-05
-0.31225306 0.019398408 0.070517249 -0.014498985 -0.024141338 -0.99960339 0.0049901833
-0.3069787 0.014281593 0.070382498 -0.020798361 0.010888965 -0.99972439 0.008696367
-0.29072917 0.010365416 0.071479119 0.01567824 0.011737802 -0.99980819 0.013147305
-0.28836498 0.018460812 0.073474675 0.031453572 0.029614154 -0.99906641 0.011878423
-0.27443337 0.014794209 0.073511429 -0.18411899 0.024955524 -0.98258716 0.043390684
-0.26689309 0.012460478 0.070280313 0.46379638 0.03016934 0.88542795 0.052612368
0.22920246 0.015420569 0.077310979 -0.65614492 -0.054815874 -0.75264144 0.16707812
-0.47530138 0.025322974 0.070416361 0.6672132 -0.029900704 -0.74426639 0.069575414
-0.4624162 0.02346037 0.072431549 0.29439977 -0.00171919 -0.95568079 0.026169417
-0.44855514 0.022716142 0.07422483 0.11964941 -0.0086431094 -0.9927786 7.0998969e-05
-0.4342781 0.02366096 0.075736195 0.077939302 -0.0020158901 -0.99695605 0.00053908431
-0.42280808 0.023956511 0.076816827 0.097951122 0.0066276672 -0.99516916 0.0094504198
-0.41354555 0.028457459 0.076845713 0.14562556 -0.01544668 -0.98921919 0.022533661
-0.4068583 0.025023952 0.076080285 0.037009072 -0.021239066 -0.99908918 0.031361088
-0.39861271 0.02135114 0.074530952 0.089590944 -0.017727135 -0.99582094 0.054207079
-0.38221192 0.024837952 0.074797869 -0.034264527 -0.096012838 -0.99479014 0.12286822
-0.37754267 0.024669204 0.07691367 -0.025088763 0.081550092 -0.99635333 0.16353607
-0.36607003 0.025479635 0.075217851 0.43431827 -0.089262918 0.89632577 0.1669791
-0.34430829 0.024797181 0.071945168 -0.13877967 -0.047690526 -0.98917431 0.0094812298
-0.32447642 0.022380412 0.071044289 -0.047654312 -0.021200582 -0.99863887 5.0796966e-06
-0.3132624 0.027167484 0.070378765 -0.010006455 -0.014033784 -0.99985141 0.0046141199
-0.30614626 0.025304059 0.07007502 0.019209126 -0.010973376 -0.99975526 0.0077094766
-0.29205793 0.025650911 0.070028707 0.091486193 -0.007962307 -0.99577451 0.010144868
-0.28989953 0.026425995 0.07238476 0.058221634 0.052683879 -0.99691248 0.027652327
-0.27243802 0.023257162 0.072995946 0.26636213 0.032141652 0.96333694 0.045078367
0.22750737 0.026266841 0.078163259 -0.5597465 -0.052826531 -0.82697845 0.17736527
0.23482724 0.023361312 0.074260801 -0.4647603 -0.026974754 -0.88502556 0.15781361
-0.45549163 0.035625115 0.073225312 0.17162579 -0.011300939 -0.98509735 0.0023412651
-0.41465637 0.036696579 0.077363566 0.11456262 -0.0078869835 -0.99338466 0.02608606
-0.40553257 0.036547508 0.079540864 0.15868033 0.021237465 -0.98710155 0.056648307
-0.38455069 0.037105113 0.07359001 -0.081013091 -0.075307645 -0.99386394 0.11989609
-0.37058046 0.039744601 0.072884187 0.38148761 0.097185865 0.91925079 0.21802817
-0.36559254 0.033683948 0.072770387 0.33816376 0.06524428 0.93882287 0.16845602
-0.3563655 0.034036208 0.072324544 -0.15827371 -0.098877855 -0.98243201 0.066562898
-0.3454634 0.037096102 0.071717039 -0.081958666 -0.062464938 -0.99467629 0.005814529
-0.33833304 0.031641945 0.071499467 -0.059993222 -0.027309943 -0.99782515 0.00038255996
-0.32517391 0.035187066 0.070768639 -0.048408516 -0.023913115 -0.9985413 2.0236796e-06
-0.29035318 0.032717362 0.071889579 0.16260517 0.042774107 -0.98576361 0.024954733
-0.28682598 0.036766235 0.073897444 0.041278727 0.12603618 -0.99116647 0.076935805
-0.27460036 0.03877221 0.073573738 -0.14178389 0.31326661 -0.93902153 0.12970185
-0.063741751 0.038217384 0.070676208 0.76115859 0.51412177 -0.39536873 0.1010776
-0.058709476 0.036558673 0.071374319 0.60201842 0.62619704 -0.49543026 0.15998325
-0.044822931 0.038697783 0.071486138 -0.19474822 0.75375551 -0.627635 0.12337825
0.23331654 0.03503941 0.074918367 -0.52237803 0.054228079 -0.85098797 0.13959806
-0.46972176 0.0493709 0.070919208 0.47685233 -0.092606932 -0.87409145 0.053669501
-0.45612702 0.046049625 0.072942145 0.20883764 -0.036153823 -0.97728187 0.0058492171
-0.44754195 0.045127366 0.074007168 0.1195625 -0.019512527 -0.99263483 5.4448195e-05
-0.43730462 0.045311023 0.075097613 0.09603864 -0.015917445 -0.9952504 8.017003e-05
-0.42627528 0.045740053 0.076153025 0.092302158 -0.019465718 -0.99554074 0.0025086231
-0.41588467 0.042450979 0.077148072 0.10791421 -0.034565855 -0.99355918 0.017950345
-0.40342343 0.045592397 0.075706989 0.11990377 0.031536497 -0.99228448 0.058665249
-0.39216065 0.042712707 0.073839933 0.075324595 0.040395405 -0.99634045 0.098099612
-0.38574311 0.045159407 0.073496446 -0.10543247 -0.0051143593 -0.99441332 0.11294574
-0.3745777 0.042562034 0.073011965 0.22913152 0.075596526 0.97045553 0.17898972
-0.36038017 0.042375628 0.072320513 0.26090902 0.10683266 0.95943379 0.12957454
-0.35609168 0.046415031 0.072012573 -0.060579211 -0.074593656 -0.99537224 0.0054037897
-0.3410888 0.045894459 0.071289733 -0.048687022 -0.028023018 -0.99842095 4.9785026e-06
-0.33397424 0.0421075 0.071032599 -0.048543461 -0.026316373 -0.99847436 4.7266431e-06
-0.32218686 0.048508443 0.070299923 -0.066248715 -0.032286052 -0.99728066 0.00042310607
-0.29106873 0.04659836 0.071108446 0.2098698 0.069255397 -0.97527349 0.065838806
-0.28501409 0.043477852 0.074336484 0.086570762 0.18432963 -0.97904444 0.09092249
-0.27512228 0.044420961 0.07402654 -0.013120048 0.2685684 -0.9631713 0.15855041
-0.26734793 0.046172448 0.070503063 0.44073036 -0.58030397 0.68483865 0.18597363
-0.052791309 0.04282156 0.073791593 0.11670118 0.8469708 -0.51867253 0.17766519
-0.047915358 0.043600082 0.073869146 0.14526384 -0.82568038 0.54511493 0.18144284
0.23356491 0.045380231 0.074561767 -0.39275175 -0.029639849 -0.9191668 0.15924786
0.24116479 0.0451333 0.070517808 -0.38053524 0.077916153 -0.92147815 0.10774349
-0.47360486 0.057041038 0.070153616 0.58318233 -0.065011472 -0.80973566 0.056889549
-0.46658871 0.053507518 0.071338564 0.36574212 -0.10210302 -0.92509872 0.031222561
-0.45436373 0.057461657 0.072976723 0.20193957 -0.023662491 -0.97911209 0.0074518686
-0.44129318 0.055031583 0.074530616 0.10776576 -0.024622157 -0.99387139 6.9847534e-05
-0.42654741 0.050648421 0.076035962 0.096300304 -0.030732783 -0.9948777 0.0020194638
-0.4159759 0.053850099 0.076929003 0.098425023 -0.023312988 -0.99487132 0.01478206
-0.40541607 0.051583022 0.076040745 0.2078061 -0.011343712 -0.97810423 0.044327855
-0.39519867 0.053676672 0.073748492 0.028054733 0.027300332 -0.99923348 0.093694359
-0.37365824 0.056296285 0.072634615 0.33882412 0.017322225 0.94069028 0.18131977
-0.36659852 0.0582821 0.072215348 0.3411814 -0.0089182202 0.93995517 0.16430452
-0.33507437 0.05562054 0.07074859 -0.048012506 -0.030378072 -0.99838465 5.0188437e-06
-0.32570115 0.052157182 0.070383921 -0.048071124 -0.028663406 -0.99843252 7.557745e-06
-0.28393725 0.054806303 0.074165732 0.12151913 0.24394734 -0.96214485 0.15145993
-0.27351218 0.058408931 0.073207818 0.3194041 -0.14685199 0.93617064 0.25197902
-0.26587391 0.053403888 0.078098536 0.52529597 -0.62746835 0.57475871 0.22845179
-0.062661596 0.056237251 0.078341566 0.90310591 0.30366468 -0.30362391 0.20823435
-0.055917878 0.056772158 0.074760832 0.89870775 0.27620411 -0.3406401 0.23615749
0.22576694 0.055486463 0.078528032 -0.61437494 0.073066138 -0.78562379 0.1650354
0.23228332 0.054775886 0.075074323 -0.49159959 0.039321162 -0.86993313 0.1582402
0.24075224 0.055160649 0.070563018 -0.27157444 0.069856793 -0.95987886 0.12798294
-0.46380392 0.067222066 0.071354322 0.36422807 -0.025856774 -0.93095076 0.0233224
-0.44316971 0.065441787 0.074047364 0.10840695 -0.029686071 -0.99366331 4.3357373e-05
-0.42407003 0.068739258 0.075768501 0.066327043 -0.018660976 -0.99762338 0.0025975218
-0.41966751 0.06734138 0.076228306 0.097654194 -0.013952992 -0.99512261 0.010438821
-0.40559453 0.068183735 0.077082895 0.15094399 -0.057050642 -0.98689467 0.044503145
-0.39773256 0.064959973 0.073480517 0.11114788 -0.091512054 -0.98958158 0.079558887
-0.38813174 0.066647455 0.072944269 0.0036427383 -0.025280412 -0.99967378 0.1170184
-0.37189689 0.065372922 0.072198458 0.29573971 0.064709477 0.95307434 0.14931929
-0.36508024 0.066120893 0.071835272 0.3873437 -0.06359338 0.91973954 0.17620215
-0.35260788 0.064611003 0.071282998 -0.049309209 -0.035341054 -0.9981581 5.1715328e-06
-0.34453467 0.063711673 0.070922479 -0.049249038 -0.035181191 -0.99816674 6.2836716e-06
-0.33273888 0.061134651 0.070444971 -0.048149828 -0.034091536 -0.99825817 1.1738392e-05
-0.32774615 0.065476261 0.070031025 -0.048931845 -0.037016202 -0.99811596 7.8943367e-06
-0.29174545 0.068551309 0.07036981 0.19228545 -0.057347894 -0.97966194 0.15730371
-0.28452802 0.063379563 0.075506411 0.29249862 0.018143706 -0.95609379 0.20351695
-0.27615157 0.063551262 0.074109547 0.065439984 -0.16109614 -0.98476684 0.23523547
-0.2658205 0.066869594 0.075467207 0.88705969 -0.0051698755 0.4616259 0.25662193
-0.061401036 0.06475836 0.077281132 0.99065316 -0.09203019 0.10068194 0.22761604
-0.054690097 0.064591564 0.073920548 0.92064506 0.010832029 -0.39025036 0.25226149
-0.047839392 0.063455507 0.074828468 0.88976669 0.31703916 -0.32833129 0.27616554
0.22903627 0.066580147 0.07636489 -0.53910863 -0.16275336 -0.82636142 0.17259413
0.23526953 0.064787053 0.073146105 -0.44547227 -0.19900557 -0.87289822 0.15555997
0.24094819 0.060370009 0.070342585 -0.33905795 -0.046119116 -0.93963432 0.12595198
-0.46382961 0.07580933 0.071041204 0.36657149 -0.064448617 -0.92815506 0.026782596
-0.45025992 0.072408691 0.073001653 0.13529509 -0.037697025 -0.99008799 0.0006564366
-0.44469705 0.076147273 0.073486574 0.1087943 -0.039362155 -0.9932847 6.0221486e-05
-0.43505627 0.075266004 0.074502379 0.092398115 -0.036354396 -0.9950583 0.00030594826
-0.42431051 0.074427411 0.075536385 0.066590928 -0.025106609 -0.99746442 0.0023293628
-0.41647154 0.071119443 0.076366782 0.090889379 -0.025441354 -0.99553603 0.013926125
-0.40755582 0.075739622 0.075410649 0.13456696 -0.078852698 -0.98776203 0.041842557
-0.39983645 0.078384638 0.079456806 0.22931103 -0.092899948 -0.96890974 0.060528595
-0.38499978 0.074694857 0.072476991 -0.035651803 -0.10186391 -0.99415928 0.13389288
-0.37007898 0.073496915 0.07179258 0.30133751 0.13423419 0.94402164 0.17267211
-0.36507761 0.074329875 0.071515024 0.36210081 0.010753361 0.93207699 0.17437704
-0.3447181 0.073800936 0.070538029 -0.049745116 -0.038565021 -0.99801713 5.9083313e-06
-0.33774328 0.073193714 0.070219934 -0.050332263 -0.039530747 -0.9979499 7.3376946e-06
-0.28424221 0.075371645 0.074374512 0.21702513 -0.089091994 -0.97209191 0.20197123
-0.2740038 0.073528551 0.074046001 -0.26140013 -0.29369003 -0.91946512 0.22581658
-0.26693195 0.072745666 0.075838596 0.72993428 0.26814181 0.62872559 0.28599569
-0.063256525 0.073361136 0.075595759 0.99920189 -0.038793273 -0.0095241824 0.2095854
-0.053667657 0.073560834 0.075515054 0.85034609 -0.22353964 -0.47638386 0.25425133
-0.044366024 0.075633824 0.075443007 0.53180718 -0.16516612 -0.830603 0.20515382
0.23362049 0.076098308 0.073506474 -0.4500564 -0.1277104 -0.88382089 0.1394857
-0.4647837 0.085067317 0.070597261 0.48425132 -0.020596497 -0.87468642 0.039554499
-0.45634723 0.082807615 0.071865588 0.17485112 -0.046276521 -0.98350674 0.0026871306
-0.4490582 0.086431801 0.072656438 0.15019938 -0.051317841 -0.98732299 0.0018550676
-0.43340668 0.082382165 0.074398436 0.091524102 -0.041430607 -0.99494064 0.00027955641
-0.42590147 0.086837485 0.074944198 0.078178845 -0.048015349 -0.99578243 0.0025077963
-0.41253352 0.082414545 0.076284863 0.060487017 -0.052027978 -0.99681216 0.02549842
-0.40279317 0.08487957 0.077187695 0.16626897 -0.10283024 -0.98070407 0.061494123
-0.3984547 0.089445524 0.072561078 0.1610619 -0.055168625 -0.98540121 0.07357581
-0.38717514 0.08570455 0.072154254 -0.045979027 -0.035297409 -0.99831861 0.11353341
-0.37481552 0.084468797 0.071596816 -0.19438669 -0.087069623 -0.97705311 0.15448363
-0.36763799 0.086043447 0.071183711 0.31507954 -0.16030496 0.93542892 0.17992258
-0.35085166 0.08563979 0.070376083 -0.050332494 -0.041814014 -0.9978568 1.5925311e-06
-0.28614521 0.086070001 0.076118663 0.39314756 -0.025598805 -0.919119 0.21163444
-0.27386767 0.083773844 0.073308088 0.035455726 0.072022699 -0.99677265 0.21171685
-0.26605979 0.085496493 0.075676858 0.77076095 0.049188659 0.63522279 0.28993064
-0.062920615 0.084968932 0.075525761 0.97112733 -0.17134616 0.16598846 0.18185143
-0.05190045 0.089480869 0.074230209 0.82374305 -0.017695801 -0.56668705 0.24148594
-0.045310501 0.081854999 0.073060587 0.68371052 0.082738295 -0.72504771 0.25473285
0.22169533 0.085902542 0.079318911 -0.68044871 -0.029588008 -0.73219812 0.13530116
0.23107839 0.081370182 0.074628882 -0.46992108 -0.12288019 -0.87411362 0.13666715
-0.46041784 0.094791412 0.070781842 0.27534309 -0.067904904 -0.95894474 0.019147674
-0.45931619 0.094135709 0.070975043 0.27855566 -0.084955432 -0.95665532 0.019894511
-0.44847232 0.092635065 0.072470888 0.14785771 -0.050007332 -0.98774362 0.0017693351
-0.43604088 0.099279441 0.073360503 0.098110951 -0.055944536 -0.9936018 4.2843665e-05
-0.4237656 0.097024731 0.074614786 0.065959692 -0.046602126 -0.99673343 0.0017820566
-0.41031045 0.098079279 0.075717993 0.089361027 -0.094778769 -0.99147952 0.021926288
-0.40367049 0.095643207 0.074879117 0.18207911 -0.049977079 -0.98201299 0.037976637
-0.39905608 0.09555003 0.077682003 0.26040834 -0.081272781 -0.96207184 0.066032194
-0.38714299 0.090155922 0.071979091 -0.02986956 -0.061000261 -0.99769068 0.10520057
-0.36674443 0.096475184 0.07073313 0.36493286 -0.14791197 0.91920948 0.16758198
-0.35926333 0.092003465 0.070540927 0.32112494 -0.052201059 0.94559711 0.14946462
-0.28700066 0.092621416 0.075384006 0.31765714 -0.036244068 -0.94751269 0.17079481
-0.27320221 0.097206816 0.073644809 0.21344015 0.059819952 -0.97512299 0.28098905
-0.26500455 0.094537951 0.075824484 0.89052802 0.35692024 -0.2820777 0.26783794
-0.054532032 0.094072908 0.074420974 0.88848317 -0.4471336 0.10329234 0.2788398
-0.048529718 0.096757829 0.0750257 0.64093345 -0.53827339 -0.54723501 0.28014958
0.21963392 0.094192654 0.079800345 -0.70406246 -0.049260061 -0.70842749 0.142406
0.22854665 0.096914127 0.07491871 -0.58859593 0.00070464966 -0.80842716 0.14159417
-0.45508042 0.10563336 0.070823081 0.28014791 -0.064857088 -0.95776331 0.023470782
-0.43385613 0.1054538 0.073180586 0.098017544 -0.060946591 -0.99331671 4.4158078e-05
-0.42811614 0.10516035 0.073710732 0.085088246 -0.058248643 -0.99466932 0.00025851093
-0.40713546 0.10435048 0.075574607 0.077798367 -0.046048246 -0.9959051 0.01835759
-0.39478764 0.10603263 0.074752674 0.17318064 -0.065076746 -0.98273778 0.079483509
-0.38609007 0.10194152 0.071467906 -0.035120238 -0.03189788 -0.99887389 0.10994716
-0.3711178 0.10759744 0.070457481 0.26707235 0.023114666 0.96339929 0.14331897
-0.36384961 0.10433381 0.070224978 0.39071584 0.045739084 0.91937429 0.16578311
-0.29180932 0.10591262 0.070300087 0.24000037 -0.08334998 -0.967188 0.11239895
-0.28426588 0.10482028 0.075263694 0.41302404 -0.14076276 -0.8997761 0.15428986
-0.27285463 0.10634992 0.07434094 0.021644214 -0.45563263 -0.88990468 0.23991734
-0.26756769 0.10280826 0.07697998 0.66202313 0.73794591 0.13100033 0.24343237
-0.062417857 0.10320391 0.078834429 0.51864606 -0.83623564 -0.17809048 0.23046798
-0.053071581 0.10021558 0.07391946 0.98797429 -0.1064088 -0.11217767 0.25280437
-0.044789214 0.10302667 0.072905384 -0.0018118167 -0.71514601 -0.69897276 0.2628032
0.22631007 0.10746185 0.075219907 -0.6139732 0.079323687 -0.78533095 0.15198049
0.2324997 0.10423292 0.072255746 -0.4969596 -0.031413302 -0.8672049 0.13608858
-0.45025212 0.11820606 0.070672765 0.17252348 -0.10325342 -0.97957867 0.0066776751
-0.44787577 0.11461771 0.071207613 0.14055496 -0.078265913 -0.98697454 0.0010328812
-0.43773156 0.11812192 0.072024956 0.10128333 -0.11092722 -0.98865402 0.0023335468
-0.41781253 0.11874835 0.073774725 0.056394503 -0.093963005 -0.99397719 0.0016034936
-0.39467552 0.11467976 0.074577041 0.16967551 -0.087198049 -0.98163474 0.055020973
-0.37050757 0.11245555 0.070199251 0.24187052 -0.0068996986 0.97028399 0.15145203
-0.291875 0.11510681 0.07022839 0.22578444 -0.10338835 -0.96867549 0.052996263
-0.28391615 0.11693776 0.075051509 0.1132973 -0.2006931 -0.97308069 0.14232589
-0.27497673 0.11279702 0.073691785 0.19097184 -0.34650901 -0.91840142 0.16537371
-0.26744547 0.11591323 0.070550844 -0.38609233 -0.42770386 -0.81731397 0.15821071
-0.059992388 0.11466584 0.07229913 0.42202514 -0.79070055 -0.44349459 0.17172159
-0.042540062 0.11246822 0.072329849 -0.13438779 -0.76319033 -0.63204461 0.15613101
0.22478956 0.11431366 0.075349279 -0.52201968 0.0073089045 -0.85290211 0.1727577
0.23372087 0.11116537 0.071063705 -0.50928068 -0.034925867 -0.85989147 0.11309522
-0.43579289 0.12489963 0.071552269 0.10673055 -0.15572663 -0.98201722 0.0033980687
-0.42484099 0.12669957 0.072372347 0.098721795 -0.12909754 -0.98670548 0.0024303205
-0.41342616 0.12219565 0.073861822 0.075847887 -0.1057658 -0.99149418 0.0034948729
-0.40537226 0.12518989 0.074187152 0.14739947 -0.13030724 -0.9804557 0.016583614
-0.39371791 0.12416623 0.073870145 0.071113229 -0.092716768 -0.99314976 0.041722685
-0.38572165 0.12614767 0.078620777 0.13790023 -0.14504905 -0.97976744 0.093489431
-0.29150563 0.12249967 0.070631608 0.21678923 -0.094619744 -0.97162211 0.057643984
-0.28810513 0.12198369 0.073566765 0.21446916 -0.097120807 -0.97189015 0.054484647
-0.27445316 0.12126686 0.073474072 -0.18243697 -0.17093436 -0.96824485 0.13223392
0.21543126 0.12598319 0.078518838 -0.49586919 -0.31176862 -0.81050241 0.16658252
0.22635588 0.12903728 0.072523691 -0.48156798 -0.19262265 -0.85497874 0.1554164
0.23308036 0.12179951 0.070102945 -0.4942807 -0.11329363 -0.86188811 0.13707209
-0.43350637 0.13852492 0.070260338 0.12256681 -0.20864627 -0.97028041 0.0039062002
-0.42394859 0.13573731 0.071452856 0.097747415 -0.18723556 -0.97743964 0.0035787181
-0.40567756 0.13418347 0.073132142 0.13057591 -0.1812128 -0.97473681 0.0070488309
-0.39316463 0.13739131 0.073205948 0.12987483 -0.24602211 -0.96052366 0.034043007
-0.38398775 0.13559538 0.076852724 0.049319956 -0.16913523 -0.98435801 0.067082874
-0.28045183 0.13311285 0.07488668 -0.079374112 0.057896081 -0.99516219 0.10253236
-0.27918196 0.1375601 0.07474114 0.2402284 -0.30002037 0.92318904 0.14248542
0.21960308 0.13427928 0.075128496 -0.40467089 -0.25563136 -0.87800574 0.16271071
0.22742045 0.13514739 0.070971981 -0.3936238 -0.195081 -0.89833385 0.14584602
-0.41318992 0.14549248 0.071273252 0.13382359 -0.29350871 -0.9465431 0.011549213
-0.40277219 0.14478801 0.072061099 0.10124192 -0.27434382 -0.95628738 0.011846268
-0.39457023 0.14415987 0.072096117 0.1247891 -0.2492528 -0.96036494 0.033913031
-0.38821128 0.1414713 0.072966985 0.1066984 -0.25105742 -0.96207362 0.043677058
-0.37390736 0.14551653 0.076891474 0.060219623 -0.31254324 -0.9479928 0.090385884
