# .PCD v0.7 - Point Cloud Data file format
VERSION 0.7
FIELDS x y z normal_x normal_y normal_z curvature
SIZE 4 4 4 4 4 4 4
TYPE F F F F F F F
COUNT 1 1 1 1 1 1 1
WIDTH 584
HEIGHT 1
VIEWPOINT 0 0 0 1 0 0 0
POINTS 584
DATA ascii
0.35316926 -0.15571602 0.062457666 -0.11757179 0.51634914 -0.84826905 0.015088049
0.37542677 -0.15359136 0.060937069 -0.083980002 0.4908461 -0.86718941 0.017771289
0.40523231 -0.15176058 0.064944766 -0.053634867 0.55061126 -0.83303684 0.043243289
0.41390765 -0.15322311 0.063782394 -0.2236218 0.68160987 -0.69670749 0.054953638
0.4289628 -0.15141608 0.06405133 -0.3242895 0.68280172 -0.65468937 0.075540304
-0.17376471 -0.14468652 0.061187129 0.39768791 0.35118529 -0.8476516 0.076316394
-0.16362827 -0.14545858 0.066917069 0.38835678 0.43622583 -0.81171799 0.12143987
-0.1553548 -0.14684054 0.064565644 0.24959429 0.61277604 -0.74980551 0.13922702
-0.14536183 -0.14735138 0.063038312 0.31077722 0.64545864 -0.69771099 0.20345843
-0.13577242 -0.14914306 0.063890852 0.63551259 0.76116878 -0.12940559 0.22198106
0.047769479 -0.14953098 0.060842305 -0.18401679 0.9724986 0.1427737 0.19034001
0.1855811 -0.14813226 0.064633191 -0.19235109 0.97314644 0.12643956 0.22982618
0.19222255 -0.14685737 0.063894562 -0.083258964 0.82602185 0.55745471 0.16086102
0.20474546 -0.14482294 0.065654926 -0.30945626 0.65352893 0.69075096 0.18519835
0.21640857 -0.14249744 0.064873852 -0.48398113 0.54107559 0.68774956 0.16997285
0.22445862 -0.14184545 0.067715883 -0.46847826 0.69613564 0.54398829 0.19610026
0.32607019 -0.14994527 0.068346605 -0.10005257 0.44848874 -0.88817078 0.029772803
0.34670824 -0.1491859 0.065743297 -0.15011863 0.37923625 -0.91304123 0.012621006
0.35581496 -0.14480522 0.066041842 -0.13096042 0.34283021 -0.930224 0.010051382
0.36749816 -0.14859386 0.063328184 -0.10347578 0.3896912 -0.91511393 0.0081100091
0.37545857 -0.14600389 0.063334145 -0.10262082 0.35952908 -0.92747384 0.0072747716
0.38533318 -0.14371601 0.062916778 -0.071586847 0.29750374 -0.95203304 0.0052106581
0.39599547 -0.14374404 0.061958212 -0.02553492 0.42346507 -0.90555251 0.023031063
0.40372172 -0.14477418 0.060810864 -0.1162223 0.50044066 -0.85793447 0.048912294
0.41601372 -0.14193319 0.06577491 -0.16936131 0.5153302 -0.84009022 0.076547801
0.42163953 -0.14505674 0.06402386 -0.31336343 0.59329134 -0.7414909 0.1004562
0.43478063 -0.14437567 0.068104349 -0.37141165 0.64662081 -0.66628444 0.11301316
-0.17476019 -0.13865469 0.063624069 0.42810228 0.32695603 -0.84251297 0.073761247
0.21787417 -0.1386907 0.06012699 -0.37485513 0.56775641 0.73289591 0.11153457
0.23726743 -0.13685893 0.065058358 -0.40041482 0.49605078 0.77045542 0.13419354
0.24353667 -0.13494737 0.063966967 -0.2545096 0.48109603 0.83891088 0.10773497
0.25303721 -0.13408405 0.065244026 -0.24138695 0.36826754 0.89783704 0.10881291
0.27970362 -0.13222218 0.068079889 0.0540669 -0.3123579 -0.94842464 0.15577905
0.28919494 -0.1300256 0.06638512 -0.14253128 0.33544719 0.93121427 0.16330214
0.34625709 -0.13857609 0.069712996 -0.19000345 0.22506709 -0.95563769 0.020979252
0.35846585 -0.13104221 0.069060192 -0.089017697 0.15300594 -0.98420787 0.010309584
0.36890125 -0.13010015 0.068112142 -0.13381511 0.1946923 -0.97169363 0.0017937883
0.37489095 -0.13625246 0.066124924 -0.12396494 0.25067788 -0.96010065 0.0021233973
0.38445964 -0.13484208 0.065413147 -0.07717704 0.22657062 -0.9709323 0.0046204282
0.39984852 -0.13736333 0.063284025 0.0028929105 0.28939405 -0.95720571 0.019359227
0.40704963 -0.13667083 0.062581062 -0.03618411 0.2962831 -0.95441455 0.051799182
0.41317964 -0.13420336 0.064897686 -0.073214687 0.29410526 -0.95296466 0.068779536
0.4275851 -0.1368961 0.064671248 -0.35769236 0.54833251 -0.75590187 0.10880551
0.43491942 -0.13512845 0.063834429 -0.48272875 0.54537797 -0.6852268 0.1241747
0.44466096 -0.130551 0.060041159 -0.78610533 0.48321402 -0.38541219 0.13034546
-0.1904815 -0.12244546 0.060593434 0.35653809 0.32354984 -0.876468 0.050514787
-0.18654796 -0.12679759 0.061069079 0.30075958 0.32594141 -0.89627337 0.063221566
-0.17480634 -0.12393031 0.069975689 0.49847391 0.30583143 -0.81116635 0.10210825
0.24640068 -0.1215187 0.062937908 -0.35172781 0.20887762 0.9125008 0.10280195
0.25445342 -0.12473252 0.065259352 -0.25442961 0.27841231 0.92614907 0.11553828
0.26283801 -0.12379526 0.065907881 -0.14861237 0.37811613 0.91375196 0.1223345
0.27507722 -0.12631673 0.065940037 -0.15631424 0.37547079 0.91355765 0.09785632
0.28569353 -0.12718378 0.066123135 -0.076933749 0.38889438 0.91806442 0.12254565
0.29350644 -0.12484505 0.066734739 -0.15059942 0.41375977 0.8978433 0.16700113
0.30561441 -0.12601086 0.067204192 0.031737559 -0.19233419 -0.98081619 0.15321627
0.31706998 -0.12227827 0.06754224 -0.10187545 -0.08282423 -0.99134332 0.11328872
0.3377111 -0.12133259 0.068985492 -0.21436644 0.0072331638 -0.97672653 0.041685272
0.36795124 -0.12548454 0.06914296 -0.096529908 0.14162257 -0.98520303 0.0035242499
0.37463939 -0.12580612 0.068426959 -0.11615638 0.1738236 -0.97790235 0.0014317608
0.38773006 -0.1275603 0.066615917 -0.080414638 0.17856249 -0.98063701 0.0029196518
0.39487797 -0.12395678 0.06659323 0.0010336144 0.14522101 -0.98939878 0.015519789
0.42364925 -0.1234996 0.063417189 -0.22219434 0.35407794 -0.90843737 0.12639731
0.4362464 -0.12890714 0.061183747 -0.68091834 0.55171233 -0.48162609 0.16246746
0.44457349 -0.12282574 0.061577067 -0.78902274 0.44503361 -0.42354244 0.13639413
-0.19473386 -0.11273237 0.062276114 0.3582283 0.24944383 -0.89969456 0.07159707
-0.18247263 -0.11550684 0.068608165 0.39496264 0.3618941 -0.84441531 0.098009482
-0.14495766 -0.11278529 0.063302949 0.7630505 -0.3366999 0.55171293 0.17652297
-0.13368239 -0.11310146 0.063513666 0.89941072 -0.23203957 0.37042949 0.10628884
0.057950482 -0.11547981 0.06076587 0.44747442 0.65458184 -0.60933512 0.1379735
0.23893058 -0.11948055 0.060770836 -0.53194249 0.1213983 0.8380332 0.11085263
0.24567609 -0.11352015 0.062192295 -0.43517065 -0.13735552 0.88980901 0.13523236
0.25023276 -0.11617699 0.063651748 -0.27975559 0.043663453 0.95907789 0.11855692
0.26752967 -0.11021467 0.067552313 -0.026768167 0.083938718 -0.99611133 0.086582541
0.28683844 -0.11619593 0.067445651 -0.30918142 0.22538604 0.92390907 0.15713087
0.29106236 -0.11333945 0.067894876 -0.18910582 0.15868169 0.96905059 0.16497047
0.31904048 -0.11589741 0.068302289 -0.17901564 -0.029847693 -0.98339337 0.1243889
0.32887825 -0.11402737 0.068669483 -0.19347686 -0.046143036 -0.98001909 0.074856415
0.33331582 -0.11868101 0.068539202 -0.15052018 -0.036467388 -0.98793417 0.05272549
0.34141135 -0.11519035 0.068923369 -0.1476167 -0.03876463 -0.98828471 0.04069883
0.38336846 -0.1104935 0.069412962 -0.093158908 0.12109474 -0.98825985 0.00017474216
0.39440811 -0.11204991 0.068127915 -0.053763233 0.11158779 -0.99229914 0.0071194801
0.40104049 -0.11104275 0.06758891 0.027234398 0.086704873 -0.99586171 0.01996026
0.41329342 -0.11871592 0.065471753 -0.045683108 0.22957528 -0.97221816 0.080375545
0.42324498 -0.11587505 0.064861014 -0.11154564 0.29897416 -0.9477194 0.11040729
0.43534422 -0.11296204 0.063978352 -0.54383171 0.42411321 -0.72413749 0.17624231
0.44653356 -0.11549716 0.062675051 -0.79343724 0.44636351 -0.41378364 0.14623235
0.4560079 -0.1103271 0.060346767 -0.92361349 0.33992812 -0.17716365 0.10004529
-0.19637789 -0.10453482 0.063974708 0.4175595 0.16413474 -0.89370233 0.080873579
-0.18776031 -0.10655915 0.069211826 0.41088149 0.20000201 -0.88948053 0.12047598
-0.16243565 -0.10182818 0.06080965 -0.18021984 0.035147917 -0.98299819 0.17328545
-0.1474977 -0.10636663 0.063710786 0.65885293 -0.30362248 0.68827778 0.18333356
-0.13412282 -0.10512868 0.064974293 -0.55818003 0.22526708 -0.79855478 0.10718103
-0.12999398 -0.1024799 0.065434322 -0.31414366 0.20953326 -0.92596412 0.13772947
-0.099327385 -0.10124833 0.066338688 0.28766614 0.66756934 -0.68673086 0.15624389
0.057880551 -0.10586648 0.064383455 0.69597203 0.39121738 -0.60213935 0.19078393
0.066865429 -0.10941641 0.067867734 -0.19773044 0.77954859 -0.59431195 0.22880524
0.074550472 -0.10871421 0.067163005 -0.62233603 0.46063471 -0.63286138 0.14257929
0.08074528 -0.10797837 0.066912234 -0.75425547 0.38882932 -0.52906555 0.13945004
0.23657519 -0.10522916 0.064750731 -0.61120278 -0.4410561 0.65719146 0.1361227
0.24880096 -0.10497488 0.068984024 0.22036707 0.61593229 -0.75635028 0.112004
0.25397557 -0.10596941 0.065931797 0.13484311 0.48276085 -0.86530882 0.12208168
0.2646879 -0.10631233 0.067041628 -0.038313299 0.27107704 -0.96179485 0.075126424
0.27433974 -0.10399234 0.068396561 -0.096488439 0.1871472 -0.97758162 0.038725134
0.28351045 -0.10838958 0.068257838 -0.31231797 0.076779544 0.94686973 0.15187539
0.2958886 -0.10799466 0.068463467 -0.28573954 -0.046836358 0.95716214 0.17370383
0.3058475 -0.10443277 0.068706438 -0.050959598 -0.023501066 -0.99842417 0.19162962
0.31467301 -0.1031783 0.068871051 -0.14969206 -0.031328421 -0.98823625 0.13445345
0.32438201 -0.10599104 0.068807475 -0.17259163 0.012329266 -0.98491627 0.092983626
0.33515418 -0.10165579 0.069177613 -0.14931093 0.043994591 -0.98781109 0.070512645
0.34691939 -0.10260179 0.069505423 -0.11334901 0.074970305 -0.99072266 0.029896827
0.38473466 -0.10847604 0.069519103 -0.091789171 0.12100194 -0.98839939 0.00016347619
0.40685767 -0.10518916 0.067711584 0.034101695 0.079977922 -0.99621308 0.034371134
0.41308671 -0.10583484 0.067010462 0.1062754 0.056966633 -0.99270356 0.048738401
0.42472199 -0.10377222 0.066103064 -0.038660016 0.24156617 -0.96961397 0.11892835
0.43696243 -0.10550903 0.06474705 -0.46622923 0.33000153 -0.8208102 0.17961659
0.44650182 -0.10752019 0.063841939 -0.82117134 0.32773179 -0.46719313 0.16266137
0.45333964 -0.10703567 0.063273281 -0.90929407 0.25427097 -0.32943982 0.1408596
-0.20138216 -0.095452212 0.062650017 0.3824589 0.13127083 -0.91459996 0.059300702
-0.19489084 -0.095087804 0.066960461 0.38885593 0.14413159 -0.90995449 0.096872486
-0.18964703 -0.098077968 0.069759488 0.40568662 0.14667894 -0.90216607 0.11591553
-0.15300083 -0.095727518 0.063745104 0.32582575 0.20176384 0.92364973 0.15074393
-0.14373232 -0.094024181 0.064657845 0.47546932 -0.02337214 0.87942177 0.14192291
-0.13322207 -0.093519449 0.064822733 0.64055216 -0.063644029 0.76527274 0.1122945
-0.12877753 -0.095325671 0.064145915 -0.04926097 -0.046548232 -0.99770069 0.19310884
-0.1013511 -0.093997627 0.064392783 -0.28895462 0.60120344 -0.74502325 0.17451587
0.058319658 -0.094910026 0.062693879 0.8376053 0.22280997 -0.49877152 0.26034001
0.082573943 -0.093572922 0.064145848 -0.90875751 0.21276328 -0.35901472 0.13189502
0.2361012 -0.09440653 0.063215539 -0.91064197 -0.27600223 0.30749634 0.078721672
0.27422529 -0.093195066 0.068953559 -0.25562036 0.18866257 -0.94819021 0.061723743
0.28989598 -0.093242422 0.069139645 -0.24409196 0.046587631 0.9686324 0.15801173
0.29532781 -0.091857158 0.069276787 -0.33763811 0.13959347 0.93086749 0.19197987
0.3045522 -0.093810812 0.069286525 0.1406806 -0.21726245 -0.96592236 0.20317157
0.31765378 -0.093116917 0.069478385 -0.088532276 -0.063156016 -0.9940691 0.13099299
0.33165148 -0.092872046 0.069653653 -0.19210389 0.078291133 -0.97824663 0.082170174
0.34653386 -0.098545291 0.06948179 -0.060545292 0.036260344 -0.99750662 0.033280611
0.40406552 -0.094576344 0.069263563 0.020293262 0.086208388 -0.99607044 0.025029022
0.42617306 -0.095752567 0.066913046 0.066492341 0.29464516 -0.95329058 0.10194244
0.43522456 -0.096806601 0.065904334 -0.25633758 0.4341644 -0.86359262 0.14782211
0.44599062 -0.097777888 0.064817205 -0.67740154 0.36398932 -0.63924867 0.15579778
0.45455495 -0.095670022 0.064417854 -0.84535414 0.26739493 -0.46246773 0.14390036
-0.20497167 -0.088118427 0.061848205 0.3623338 0.12052199 -0.9242233 0.052616842
-0.19952551 -0.088617161 0.065282583 0.40209115 0.10066226 -0.91004932 0.079566777
-0.17335983 -0.083519667 0.060577668 0.12025188 -0.091016255 -0.98856229 0.20294346
-0.1649189 -0.082700521 0.062606856 -0.24472539 0.0030471706 -0.96958768 0.16260332
-0.1360786 -0.086055465 0.065136671 0.44928455 -0.012748987 0.89329773 0.10820348
-0.12846459 -0.083780266 0.064311288 -0.32934281 0.022730671 -0.94393682 0.18977612
-0.098535769 -0.084981941 0.068632774 0.99805284 -0.015501388 0.060416717 0.026934559
0.058548301 -0.082977489 0.060123499 -0.84510171 -0.020166911 0.53422511 0.25632948
0.083558239 -0.085703976 0.060346074 -0.95656377 0.13554984 -0.25809297 0.14836569
0.23544803 -0.085502423 0.067296594 -0.95717984 -0.17312926 0.23201917 0.065769561
0.2757479 -0.087608173 0.069261432 -0.20703921 0.15310594 -0.96627814 0.040287942
0.28660089 -0.086344421 0.069457516 0.074550577 0.17170157 -0.98232418 0.14523102
0.29839143 -0.089203373 0.069451198 -0.37771517 0.20160632 0.90370685 0.18138598
0.31228447 -0.089835331 0.069585599 -0.00074514828 -0.12588759 -0.99204427 0.14410871
0.40819973 -0.085075155 0.069902226 0.047958251 0.033802513 -0.99827725 0.029431783
0.41535318 -0.086437978 0.069096901 0.14750469 0.046574291 -0.98796415 0.045160811
0.42657495 -0.085030496 0.068158299 -0.17683883 -0.041087102 0.98338181 0.083886504
0.43425879 -0.084991202 0.067393556 0.079715855 0.14805135 -0.98576176 0.11917677
0.4451105 -0.081746854 0.067105219 -0.38481259 0.080751099 -0.91945553 0.16627367
0.4568333 -0.084733889 0.065530643 -0.81577992 0.21740651 -0.53594548 0.15167859
-0.21041897 -0.07434161 0.061224621 0.30767566 0.082616054 -0.94789779 0.054575305
-0.2047537 -0.074068271 0.064928405 0.38331875 0.07436116 -0.92061782 0.089226618
-0.17567012 -0.073545277 0.060917303 0.16622317 0.024048381 -0.9857949 0.1818212
-0.15493713 -0.074302353 0.06559258 0.33110228 0.13777848 0.93348187 0.16862468
-0.14525309 -0.070870548 0.061342284 -0.3936429 0.01430587 -0.91915214 0.10463574
-0.13395175 -0.075380325 0.065084852 0.70802885 0.015437923 0.70601469 0.11309942
-0.12795199 -0.07326787 0.064864382 0.036291901 0.22237545 -0.97428542 0.21455063
-0.10234132 -0.077007458 0.067924917 0.30478793 0.20822546 -0.92937964 0.27685302
0.057796612 -0.078657359 0.063510492 -0.73396361 0.083781667 0.67400157 0.24092507
0.082067214 -0.07024572 0.066102013 -0.87187511 -0.29796314 -0.38865396 0.17384218
0.23570633 -0.070994645 0.069198571 -0.98381597 -0.00962382 0.17892337 0.024685459
0.27832836 -0.079719916 0.069701329 -0.22940373 0.098253377 -0.96835953 0.025181085
0.42232049 -0.078312799 0.069073662 -0.17766397 0.025626706 0.98375744 0.057505164
0.43551785 -0.075345829 0.068667449 -0.056478936 -0.030961035 -0.99792355 0.11466704
0.44749889 -0.072304942 0.068304494 -0.33862934 -0.065861039 -0.93861204 0.17385726
0.45508766 -0.077707954 0.066887774 -0.73781163 0.11481535 -0.66517025 0.16785344
0.46270919 -0.074533731 0.063605696 -0.93192214 0.035641234 -0.36090258 0.11962872
-0.21282019 -0.06532982 0.061565042 0.36398283 0.096986257 -0.92634237 0.053162031
-0.2066571 -0.063563071 0.065901794 0.38612148 0.16038518 -0.90839785 0.092278257
-0.17623754 -0.067777447 0.061281823 0.11756742 -0.18138412 -0.97635943 0.22113976
-0.16455427 -0.065088555 0.063671306 0.51022828 0.20324537 0.83567846 0.18887997
-0.15658501 -0.065827616 0.065295093 -0.31955877 -0.053213798 -0.94607109 0.16793735
-0.14357901 -0.064884461 0.066086456 -0.30097118 0.060077243 -0.95173895 0.11306053
-0.13256344 -0.065445028 0.065023392 0.63894993 -0.049390636 0.76766109 0.13809347
-0.12629101 -0.063276656 0.066889517 0.31923091 0.12611091 -0.93924844 0.11768455
-0.10180728 -0.066370122 0.065740943 0.81972206 0.52082127 0.2383295 0.30020136
-0.096873038 -0.067469992 0.06920702 0.97673863 0.045140766 0.20962794 0.13999642
0.057503253 -0.065298289 0.063621014 -0.76011515 0.34706885 0.54933423 0.19971313
0.0820475 -0.066545613 0.066178121 -0.84183049 -0.38016018 -0.38314447 0.17531785
0.23671469 -0.063841127 0.06541343 -0.97295719 0.13143849 0.18994245 0.033837728
0.42351782 -0.063538566 0.069999814 0.11310481 0.025704639 -0.99325055 0.058504801
0.43474421 -0.065018244 0.068846375 0.10638119 -0.0012707439 -0.99432462 0.080233097
0.44548416 -0.062721893 0.068011396 -0.32592461 0.014341301 -0.94528699 0.17980365
0.45466343 -0.063425638 0.067255192 -0.71498418 0.10298169 -0.69151449 0.15712214
0.46440989 -0.066801816 0.060316745 -0.93975258 0.15536405 -0.30451131 0.076791443
-0.21170884 -0.056923993 0.064039573 0.40592965 0.020168737 -0.91368175 0.076895565
-0.20611094 -0.056347135 0.067763492 0.44714534 0.053842444 -0.89283937 0.10921913
-0.1806024 -0.056511436 0.060335107 0.10823322 -0.16869372 -0.97970814 0.20363705
-0.17950478 -0.058570161 0.060608137 -0.023219557 -0.03841177 -0.9989922 0.17268883
-0.1618422 -0.051258996 0.063980326 -0.22075893 -0.086143233 -0.97151679 0.15752994
-0.15490179 -0.053671088 0.065494642 -0.13272896 -0.046418954 -0.99006486 0.11689819
-0.13545175 -0.053731918 0.06925758 -0.39389002 0.035523336 -0.91847092 0.13318437
-0.12999374 -0.054111622 0.062644616 0.7851342 0.068401992 0.61553669 0.12029643
-0.10044422 -0.059489731 0.066038176 0.45886362 -0.73672682 -0.49666667 0.22190683
-0.098864555 -0.055674415 0.064402796 0.20863937 0.69077915 0.69231045 0.15735859
0.059508421 -0.056137875 0.066822179 -0.46743616 0.58385545 0.66378933 0.20315255
0.060851332 -0.05604339 0.065602005 -0.34406343 0.69977915 0.62604272 0.20775624
0.077403992 -0.057732671 0.068194285 -0.5204376 -0.52029365 -0.67708135 0.13757321
0.081418477 -0.058210157 0.067236669 -0.72543025 -0.4224354 -0.54341447 0.13873166
0.43498778 -0.054381598 0.069570012 0.066455066 -0.018220959 -0.99762297 0.081527285
0.44539064 -0.05509188 0.068550505 -0.32368845 0.010967693 -0.94610018 0.16865256
0.45503506 -0.056175452 0.067693651 -0.79450595 0.16311187 -0.58494002 0.17169836
0.464109 -0.055481352 0.064731918 -0.92814636 0.079294026 -0.36367127 0.13290839
-0.21403523 -0.043592114 0.063985847 0.38928419 0.042737335 -0.92012572 0.074697778
-0.20725547 -0.044933733 0.06832049 0.51603025 -0.015703021 -0.85642636 0.1069298
-0.16286102 -0.044343226 0.063260213 -0.23720248 0.14496543 -0.96058315 0.20081301
-0.15277982 -0.043852534 0.064990953 -0.028049391 -0.045409784 -0.99857455 0.050899949
-0.14236505 -0.043585289 0.06665206 -0.29313722 -0.039455988 -0.95525593 0.11746731
-0.13138355 -0.048773378 0.068404213 0.71232599 0.041762628 0.70060515 0.12747343
-0.12778269 -0.044569988 0.06485226 0.78727186 0.073617101 0.61219561 0.12664865
0.23815079 -0.040948894 0.066239238 -0.86176485 0.18251197 0.47333997 0.094955109
0.4388631 -0.04303994 0.069992207 0.010735488 0.033510886 -0.99938065 0.1101958
0.44462037 -0.044905949 0.069335453 -0.12126521 0.057101097 -0.99097639 0.15069553
0.45603362 -0.044402707 0.068392754 -0.77150512 0.14948803 -0.61841196 0.18150708
0.46706265 -0.042741973 0.06000654 -0.93485844 0.12237946 -0.33326104 0.10868066
-0.21459818 -0.034349762 0.064380489 0.41276807 0.0080984216 -0.91080016 0.098699227
-0.1739985 -0.039900444 0.060952097 -0.15562843 -0.17467763 -0.97224873 0.21408711
-0.16779745 -0.038040072 0.06169349 -0.26036417 -0.24628484 -0.93357062 0.23899265
-0.15373328 -0.03605897 0.063700795 -0.01013473 -0.059211347 -0.99819398 0.044046998
-0.14766547 -0.03465274 0.064486548 -0.1133136 -0.071045652 -0.99101591 0.071034953
-0.13482717 -0.03410694 0.066174038 -0.37795755 -0.064912289 -0.92354453 0.10058461
-0.12818876 -0.035503559 0.063791603 0.82081997 0.088753954 0.56424934 0.09271393
0.23672637 -0.03605327 0.061859831 -0.78579009 0.11828927 0.60707629 0.092268974
0.24344879 -0.03146803 0.065355368 -0.44489509 0.2661069 0.85513473 0.099906512
0.25403568 -0.034955423 0.067551233 -0.30698901 0.29354137 0.90531272 0.081594773
0.26281455 -0.0364994 0.069388516 0.045957115 -0.35355374 -0.93428457 0.064834364
0.44529524 -0.034168854 0.069649398 -0.17529444 0.040084314 -0.98369974 0.14052072
0.45442262 -0.036338456 0.068815626 -0.67986172 0.038887113 -0.73230851 0.19327
0.4662216 -0.035447385 0.066639423 -0.93786812 0.057821173 -0.34214059 0.17430966
-0.22134696 -0.025154889 0.060782671 0.3424921 0.017981641 -0.9393487 0.074151136
-0.21116151 -0.024215139 0.067466386 0.46113676 0.1265097 -0.87826437 0.12131156
-0.16118813 -0.026798006 0.061282996 0.049806654 -0.11282119 -0.99236619 0.020374898
-0.15778349 -0.023399888 0.061676938 0.015784888 -0.1182386 -0.99285978 0.017478986
-0.13531536 -0.022798592 0.064183086 0.42089039 0.16408166 0.89214826 0.089407243
-0.12967718 -0.022812843 0.061638482 0.74105275 0.11828196 0.66094643 0.093210928
0.23775944 -0.02591094 0.063033178 -0.55331182 0.18320884 0.81257641 0.073087849
0.24765632 -0.023277253 0.066493616 -0.38819373 0.15938266 0.90769088 0.051572077
0.25564587 -0.026804846 0.068116575 -0.25558659 0.19815969 0.94626009 0.049648538
0.26261383 -0.023127995 0.069696411 0.17681521 -0.12218192 -0.97663093 0.028296784
0.44600606 -0.022101551 0.06991408 -0.13985065 -0.079497345 -0.98697621 0.15568203
0.45367727 -0.023735929 0.069228232 -0.59590077 0.051574461 -0.80140024 0.20673361
0.466777 -0.025693754 0.066739656 -0.95663792 -0.044969596 -0.28778747 0.18578589
-0.22358537 -0.016909022 0.060033746 0.32433701 -0.01092019 -0.94587857 0.06917315
-0.21622147 -0.016032709 0.064878523 0.45791849 -0.019381765 -0.88878292 0.10381715
-0.20922101 -0.014295002 0.069563314 0.5451166 0.11470568 -0.83047605 0.13355574
-0.16153696 -0.019672109 0.06089516 0.04415445 -0.12118808 -0.99164695 0.010938388
-0.15294297 -0.011944384 0.060908943 -0.039818585 -0.13413468 -0.99016279 0.025241747
-0.14453749 -0.013722089 0.061956123 -0.17588492 -0.15292943 -0.97245926 0.05661054
-0.13263291 -0.013850066 0.061448038 0.49098772 0.17033972 0.85435081 0.070839755
0.23704797 -0.016172433 0.062925547 -0.51792067 0.048680339 0.85404241 0.0204306
0.24345434 -0.014576755 0.065833233 -0.42312655 0.067028619 0.90358794 0.020084336
0.25572762 -0.014100456 0.068455443 -0.28372246 0.053884141 0.95739126 0.010249153
0.26151264 -0.019856991 0.06953834 0.14460303 -0.084152058 -0.98590493 0.016381608
0.44853163 -0.01113661 0.069983661 -0.0034415522 -0.086517662 -0.99624443 0.19304585
0.45446026 -0.013587419 0.069412678 -0.60859013 0.14538299 -0.78005242 0.24779548
0.4675726 -0.016814822 0.066430636 -0.93985504 0.15201612 -0.30588165 0.16036309
-0.22215533 -0.0036872588 0.06208428 0.34963918 0.034138821 -0.93626231 0.083600491
-0.20963719 -0.0080451388 0.069822878 0.58374083 -0.010987155 -0.81186569 0.12083445
-0.14187145 -0.0042863302 0.060365301 -0.20312576 -0.17381495 -0.96360171 0.033804059
-0.1388524 -0.0091518909 0.061513346 -0.28666261 -0.15190221 -0.94591242 0.054878738
0.23628205 -0.0038356353 0.062514246 -0.55314583 0.024179962 0.83273345 0.01335159
0.24425137 -0.004481134 0.066279732 -0.40796816 0.055617116 0.91130054 0.011559698
0.25808972 -0.0007673268 0.06924101 0.23698369 -0.0084602749 -0.97147679 0.0033631783
0.26135641 -0.0060465257 0.069806173 0.18957886 0.0039598634 -0.98185748 0.0014267821
0.4496111 -0.0098238867 0.06992133 -0.049429812 -0.018826609 -0.99860013 0.19211985
0.45024028 -0.0049454612 0.069997229 -0.073093452 0.022726966 -0.99706614 0.19787118
0.46623632 -0.0044564083 0.064543836 -0.93940145 0.16609713 -0.29989436 0.1374771
-0.22496021 0.0013529833 0.060470447 0.28751761 -0.062536329 -0.95573157 0.064234026
-0.21704856 0.0098731164 0.064901069 0.41003612 -0.093095787 -0.90730572 0.10870858
0.25439113 0.0015431558 0.068444267 -0.29605383 -0.0022972261 0.95516849 0.0046150004
0.45449749 0.00035384521 0.069746524 -0.75230908 -0.062277116 -0.65586019 0.1976563
0.46766505 0.0044529396 0.064997204 -0.94144505 -0.16937204 -0.29153773 0.15219977
-0.22110136 0.017778303 0.061611257 0.27969018 -0.039450623 -0.95927942 0.080906712
-0.21430425 0.011680165 0.066531494 0.46697873 -0.14936407 -0.87156254 0.12006579
0.24498767 0.01605719 0.06607727 -0.43963432 -0.026019925 0.89779991 0.0094714742
0.44672331 0.018601766 0.069965139 0.033709016 -0.0066170986 -0.99940979 0.16030349
0.45734966 0.014589645 0.069201663 -0.72799832 0.0085805152 -0.68552518 0.21401183
0.46586162 0.016176322 0.066876322 -0.925524 -0.18575469 -0.33000067 0.15942328
-0.21672232 0.022972457 0.064034544 0.37537509 -0.12155318 -0.91886795 0.10478805
0.23677406 0.027815867 0.06229002 -0.69030863 -0.10236098 0.7162376 0.080250554
0.24187234 0.026852375 0.065124124 -0.52047122 -0.19593482 0.83109528 0.068496734
0.2550607 0.026426997 0.067916565 -0.34391859 -0.11866197 0.93147165 0.033093229
0.44730887 0.02592581 0.069709033 -0.064627029 -0.011852119 -0.99783909 0.18539925
0.45112494 0.026914084 0.069322705 -0.15037429 -0.13506173 -0.97935992 0.19965613
0.46491989 0.027451107 0.066368215 -0.91904074 -0.070914105 -0.38773099 0.13666528
-0.21392456 0.035104353 0.064824715 0.48994514 -0.046454065 -0.87051469 0.12114836
-0.20860511 0.032710291 0.068507873 0.66548705 0.036835507 -0.74549985 0.13366705
0.23583305 0.033565462 0.061184466 -0.77534401 -0.13349277 0.61726916 0.09248133
0.24624354 0.034894571 0.065836743 -0.42505059 -0.29659948 0.8551963 0.083152391
0.25962368 0.034877717 0.068716176 0.15661609 0.42849687 -0.88986623 0.067799337
0.44469625 0.036192752 0.069663793 -0.10359916 -0.098701797 -0.98970962 0.15285403
0.45299453 0.034314115 0.068984941 -0.38187468 0.014883135 -0.92409432 0.21877532
0.46016949 0.032224759 0.068575613 -0.8034454 -0.084199131 -0.58939463 0.20687996
-0.21523444 0.04604793 0.063026562 0.470245 -0.027642999 -0.88210297 0.1086485
0.23739736 0.047555923 0.063048251 -0.85732591 -0.17942449 0.48249257 0.08429148
0.44858816 0.045239173 0.068941988 -0.15464272 -0.053900786 -0.98649901 0.17340565
0.46632928 0.04903239 0.064074188 -0.92929894 -0.15753481 -0.33404541 0.12105963
-0.21079564 0.052607983 0.065371647 0.49755436 -0.032795314 -0.86681265 0.13679421
-0.20613347 0.051935092 0.068484679 0.58137703 -0.026751198 -0.81319439 0.15258899
0.057684384 0.057569958 0.06500417 -0.78212845 -0.35531878 0.51188242 0.15160395
0.066086471 0.056305416 0.064274929 -0.30786914 0.77006567 -0.55876243 0.18158661
0.073781982 0.05727331 0.066729598 -0.65911365 0.55792284 -0.50427312 0.128409
0.23724085 0.056470037 0.067018315 -0.94718313 -0.12763198 0.29420093 0.056097679
0.43815112 0.055531599 0.06920591 0.060344413 -0.024269648 -0.99788254 0.097985916
0.44371665 0.054090451 0.068783581 -0.030396821 -0.018379482 -0.99936891 0.12338941
0.45515656 0.054561123 0.067825377 -0.69759667 -0.037776623 -0.71549416 0.1668317
0.46453464 0.056384973 0.064166181 -0.92854106 -0.084452517 -0.36149588 0.12767287
-0.21283296 0.065573096 0.061545648 0.40227023 -0.12444963 -0.90702313 0.1205235
-0.20413585 0.06499429 0.067266636 0.57244807 -0.13514295 -0.80872715 0.13348092
-0.19943917 0.068524696 0.069565021 0.59690654 -0.16949704 -0.78420234 0.12699363
0.056582157 0.066681735 0.065113813 -0.83575004 -0.29774153 0.46138042 0.19546181
0.23721796 0.067765556 0.064797536 -0.98684764 -0.0093458518 0.16138309 0.016221533
0.42966259 0.062548935 0.069514185 0.090922497 -0.033990856 -0.99527764 0.083292425
0.43847394 0.067736924 0.068326399 -0.11603925 -0.023998145 -0.99295467 0.13555172
0.44554934 0.064564876 0.067882724 -0.022408525 -0.031228112 -0.99926102 0.14377902
0.45486104 0.064220183 0.067222029 -0.66727555 -0.054703899 -0.74279928 0.18931958
0.46452636 0.066306673 0.06123808 -0.94142598 0.024582295 -0.33632243 0.12351007
-0.22672033 0.071787938 0.0611839 0.23776238 -0.094235294 -0.96674132 0.075679652
-0.21153659 0.074906915 0.060427472 0.31217462 -0.13143435 -0.94088894 0.10124426
-0.20227817 0.077787578 0.065831035 0.52248418 -0.29309395 -0.80069107 0.13483933
0.057884529 0.070673056 0.063373223 -0.8182891 -0.039269023 0.57346392 0.22531055
0.082992472 0.07725998 0.062530167 -0.9665941 0.18891847 -0.17322148 0.13062827
0.23671876 0.070621774 0.066114895 -0.98822647 -0.026778685 0.15063649 0.014750602
0.28429744 0.079883985 0.069758646 -0.20858872 -0.052962855 -0.97656828 0.025916068
0.41648036 0.074763864 0.069874004 0.12064132 -0.021953946 -0.9924534 0.038505785
0.42505375 0.076358646 0.068965912 0.1151149 0.026616883 -0.9929955 0.069529928
0.44667196 0.074549109 0.067885444 -0.4292078 0.014057951 -0.90309638 0.19154574
0.45188454 0.078949973 0.066436961 -0.62826288 -0.12204254 -0.76836926 0.17676365
0.46262011 0.072538905 0.064232565 -0.92662185 -0.13030787 -0.35269228 0.15183319
-0.2042834 0.087096408 0.062575713 0.27656528 -0.11125945 -0.95453286 0.13485417
-0.19668068 0.086182646 0.067705579 0.63054347 -0.20125844 -0.74960661 0.12621415
0.058287155 0.087111227 0.062744632 -0.86005563 0.036784552 0.50887251 0.20370124
0.082439043 0.082935341 0.064666584 -0.98941803 0.0091303205 -0.14480542 0.11520285
0.23585981 0.086420335 0.066157579 -0.93879205 0.21106817 0.2722494 0.055320643
0.27141938 0.084447689 0.069614626 -0.46425369 -0.16265531 -0.87063867 0.053756662
0.28652173 0.083152361 0.069614902 -0.12395491 -0.041236237 -0.9914307 0.066992335
0.29733783 0.083696313 0.069711886 0.20156825 0.05475191 -0.97794294 0.18867859
0.3050428 0.087820396 0.069592714 -0.27882731 0.067971773 0.95793277 0.15884703
0.31649658 0.08703056 0.069772966 0.09041018 -0.21793689 -0.97176611 0.1563258
0.32831806 0.088650793 0.069835208 -0.082977988 -0.11062209 -0.99039257 0.087445371
0.40956697 0.08684893 0.06963563 0.10521369 -0.050162818 -0.99318367 0.036823519
0.41014186 0.087312497 0.069531754 0.12795296 -0.038589463 -0.99102914 0.039051816
0.42368561 0.083876595 0.068550326 0.11939235 -0.066221289 -0.99063629 0.093775198
0.43449283 0.082357198 0.067639045 0.098033942 -0.0055481009 -0.99516755 0.11053194
0.44686949 0.082207471 0.066496387 -0.57783192 -0.074434124 -0.81275451 0.17210391
0.45537767 0.087348342 0.065375462 -0.80218393 -0.22669974 -0.55236596 0.14760816
-0.20120801 0.097178206 0.062447309 0.46814036 -0.066893063 -0.8811186 0.12485745
-0.19387223 0.093997769 0.067899108 0.56895179 -0.1908208 -0.79992574 0.14546883
0.083202086 0.099199332 0.061720956 -0.90033811 -0.28275138 -0.3308216 0.14801025
0.23643735 0.094483525 0.062305003 -0.90965807 0.17559861 0.37641367 0.079640403
0.28721824 0.095314272 0.068995178 0.018666377 -0.10685549 -0.99409938 0.12311389
0.29608917 0.096021593 0.069066338 0.24752319 -0.15177597 -0.95692027 0.18297842
0.30446863 0.094815023 0.069230162 0.025407884 -0.15856415 -0.98702174 0.23813598
0.31472838 0.093849301 0.069404751 0.081397124 -0.1396402 -0.98685116 0.16422118
0.32310995 0.094644912 0.069455869 -0.062901273 -0.1209789 -0.99066013 0.11645066
0.33660495 0.092798039 0.069716483 -0.07977958 -0.095010303 -0.99227422 0.063934974
0.34746039 0.091855027 0.069887005 -0.057935942 -0.073992096 -0.99557453 0.027646182
0.39580086 0.09679722 0.069663003 -0.087033056 -0.10533082 -0.99062133 6.0808306e-05
0.40094063 0.093364641 0.069624729 -0.033972148 -0.094962135 -0.99490106 0.010956906
0.414359 0.094029196 0.06828922 0.10596783 -0.14811192 -0.98327708 0.062632963
0.43367106 0.090816893 0.06679301 -0.027518043 -0.10168085 -0.99443638 0.12623721
0.44510514 0.096315779 0.06511905 -0.71099347 -0.25124884 -0.65678179 0.20384051
0.45893341 0.091890737 0.063099116 -0.90844494 -0.23635286 -0.34476829 0.13126133
-0.20149973 0.10002991 0.061654042 0.35593596 -0.10904662 -0.92812628 0.12400413
-0.19571306 0.10435367 0.064510353 0.40997902 -0.12668005 -0.90325487 0.14937338
-0.18475197 0.10956398 0.069821648 0.60825115 -0.20591743 -0.76656932 0.18883801
0.056370404 0.10684726 0.065737173 0.40682051 -0.66204482 -0.62943918 0.17621557
0.063782871 0.1098507 0.06349843 0.011901153 -0.7282989 -0.68515629 0.17114776
0.075827181 0.10862875 0.062746048 -0.54124922 -0.49975535 -0.67623508 0.16808936
0.083383203 0.10391198 0.061021715 -0.88410759 -0.2775237 -0.37594461 0.13778938
0.23864917 0.10578108 0.063055858 -0.68366313 0.30427369 0.66334176 0.13083187
0.24367975 0.1058595 0.064325996 -0.63649487 0.42745429 0.64199471 0.10699705
0.25486714 0.10588674 0.065476656 0.21409205 -0.35020286 -0.91187859 0.10489509
0.26425102 0.10624287 0.067458451 -0.018824311 -0.26295713 -0.96462381 0.10477003
0.27344838 0.10383418 0.068393379 -0.12949121 -0.19189224 -0.97283584 0.05547763
0.28466591 0.10694468 0.068355218 0.0345545 0.046906039 -0.99830145 0.10720026
0.29714471 0.10446529 0.068609633 -0.28208044 -0.069683529 0.95685679 0.15919951
0.30488741 0.10552511 0.068686001 0.16595519 0.044206858 -0.98514193 0.17527802
0.3138656 0.10580929 0.068734899 -0.050461248 0.0072094086 -0.99870008 0.13697201
0.32296821 0.10468525 0.068869695 -0.066364974 -0.025813548 -0.99746144 0.10006709
0.3350541 0.1044263 0.069029629 -0.059099026 -0.050724853 -0.99696249 0.060046632
0.34344476 0.10266149 0.069205828 -0.10542321 -0.088151634 -0.99051267 0.038316701
0.38433272 0.10572562 0.069615126 -0.090042405 -0.10825408 -0.99003708 3.2110609e-05
0.39742041 0.10803223 0.068203643 -0.012057075 -0.10989975 -0.9938696 0.010883093
0.40415344 0.10182329 0.068354703 0.041377891 -0.079183489 -0.99600101 0.024625564
0.41172975 0.10500968 0.067231491 0.062304586 -0.14176117 -0.98793823 0.057335265
0.42778349 0.10525123 0.065584689 -0.028640829 -0.26860121 -0.96282554 0.14734206
0.43473896 0.10669923 0.064789839 -0.3799881 -0.40954411 -0.82938683 0.18801036
0.44528127 0.10441194 0.064259127 -0.78841686 -0.33903807 -0.51327586 0.15864836
0.45579562 0.10603989 0.062347371 -0.87782359 -0.33868632 -0.33869937 0.14242105
-0.19679762 0.11003686 0.062256418 0.41220725 -0.14244074 -0.89988655 0.13195226
-0.18727256 0.11722722 0.06513565 0.45258346 -0.33855617 -0.82495332 0.12628962
0.056271657 0.11005826 0.065891355 0.52654529 -0.54791021 -0.65003425 0.16467315
0.065700643 0.11069939 0.060077079 0.02784941 -0.73497677 -0.67752022 0.18066241
0.24739163 0.11487929 0.06276609 -0.40174729 0.2207063 0.88875633 0.10475425
0.25187945 0.11824312 0.064254135 -0.35411856 0.10198379 0.92962319 0.13978544
0.27652976 0.11602974 0.067188405 0.039354954 0.081599139 -0.99588794 0.098839529
0.28125292 0.11834989 0.067042448 -0.17509095 -0.32922164 0.92787731 0.11043926
0.2989949 0.1139626 0.068034574 -0.23837745 -0.27631471 0.93103516 0.17586647
0.30630207 0.11311445 0.068330467 0.13746856 0.14750491 -0.97946143 0.16111112
0.3131977 0.1162549 0.0681464 -0.082381479 0.15076363 -0.98513132 0.14259738
0.32269815 0.11458192 0.068462662 -0.05041936 0.11690356 -0.9918626 0.08786422
0.33848929 0.11296158 0.068760701 -0.11176772 0.02464268 -0.99342883 0.047417231
0.34185758 0.11400428 0.069360346 -0.094965853 0.02829623 -0.99507827 0.040858466
0.37815815 0.11910404 0.068788007 -0.10277427 -0.14568603 -0.98397815 0.00044450868
0.38611364 0.11391345 0.068542033 -0.094612285 -0.12857707 -0.987176 0.00016312927
0.39501759 0.114623 0.067635633 -0.034731027 -0.10446145 -0.99392229 0.0052431063
0.41151944 0.11710306 0.065795466 -0.022242956 -0.14784199 -0.98876089 0.073319085
0.42770201 0.11874651 0.064115018 -0.46922484 -0.3282665 -0.81979823 0.16600089
0.43636513 0.11479395 0.063567825 -0.53485 -0.60114926 -0.59376353 0.17522885
0.4446674 0.11188161 0.063212581 -0.81112057 -0.38450083 -0.44072953 0.14435352
-0.19140026 0.12122504 0.060969792 0.34059587 -0.34612003 -0.87418276 0.097003214
-0.18493721 0.12727484 0.062363777 0.44360429 -0.33042309 -0.83308816 0.10466595
-0.17637117 0.12679984 0.067879885 0.57445824 -0.3581714 -0.73601013 0.1494188
0.23794413 0.12519999 0.060991012 -0.37200028 -0.32970884 0.8677026 0.09681084
0.24808016 0.12715138 0.063791238 -0.29985905 -0.29338673 0.9077493 0.1024064
0.25920239 0.1269394 0.065440618 -0.14564714 -0.32730836 0.93362522 0.093618803
0.26423851 0.12616162 0.065667264 0.049583435 0.34930083 -0.93569779 0.10513497
0.27589688 0.12599479 0.06599988 -0.10679007 -0.37407145 0.92123091 0.09879107
0.2886804 0.12485501 0.06647709 -0.31101093 -0.3536652 0.8821525 0.14668055
0.2955395 0.1239593 0.06706214 -0.09172783 -0.35879403 0.92889875 0.16461466
0.30627143 0.12403063 0.068139158 -0.095686264 0.11351091 -0.9889183 0.14198691
0.3254095 0.12286421 0.068210363 -0.076345012 -0.035678051 -0.99644285 0.076654091
0.33197948 0.12247953 0.068698965 -0.12880719 -0.033612143 -0.99109989 0.060080912
0.36569667 0.12401026 0.06950222 -0.072033979 -0.14615746 -0.98663527 0.003822637
0.3827112 0.12818341 0.067057677 -0.099530108 -0.17987709 -0.97864085 0.00079477736
0.39559656 0.12009677 0.066986851 0.049052488 -0.11111543 -0.99259621 0.012355815
0.41518223 0.12279451 0.064688683 -0.19082603 -0.17127839 -0.96656561 0.12980786
0.42949808 0.12199567 0.063154913 -0.58710158 -0.45092374 -0.67229426 0.15848562
0.43536815 0.12438352 0.062164742 -0.71624458 -0.52800983 -0.45628855 0.16059467
0.44358081 0.12655357 0.061025523 -0.76775682 -0.53727174 -0.34912536 0.14150093
-0.18117137 0.13640074 0.060571909 0.3685056 -0.31176463 -0.87578905 0.10046574
-0.17443122 0.13512866 0.06553676 0.49926457 -0.40755194 -0.76461512 0.1103816
0.22444126 0.13914193 0.061450779 -0.30838591 -0.59191656 0.74466962 0.094183058
0.23259857 0.13670704 0.061841216 -0.33959544 -0.55797333 0.75719267 0.087616302
0.24619667 0.13470639 0.064870663 -0.21307239 -0.41783044 0.88318616 0.12498763
0.25733364 0.13442206 0.066678859 0.0042306278 0.40438378 -0.91457963 0.15792428
0.26366681 0.13360275 0.065581918 -0.080427341 -0.31177655 0.94674534 0.1273035
0.28629416 0.13095252 0.06754449 -0.18889458 -0.20581949 0.960186 0.18671541
0.29220051 0.13038528 0.069248967 0.14481901 0.064094298 -0.98738009 0.19022283
0.35795042 0.13678831 0.067872681 -0.094857603 -0.22048788 -0.97076625 0.0087953173
0.3656401 0.13352534 0.067775257 -0.10893016 -0.20076978 -0.97356337 0.0014787825
0.37567511 0.13450287 0.066490635 -0.11732915 -0.24229027 -0.96308321 0.001995944
0.38152546 0.13552259 0.065653816 -0.097381793 -0.25726381 -0.96142191 0.0030267718
0.39338356 0.13695051 0.064079516 0.01091936 -0.24787711 -0.96872991 0.014646458
0.40495187 0.13398597 0.063466981 -0.016533088 -0.27862906 -0.96025646 0.048020337
0.41520593 0.13580671 0.065599218 -0.16365379 -0.39237738 -0.90512842 0.11915087
0.42405042 0.13522498 0.066146553 -0.48681405 -0.44588086 -0.75113398 0.1324455
0.43802834 0.13321622 0.063081346 -0.70684069 -0.45980176 -0.53754872 0.1304033
0.44090986 0.13325123 0.060106825 -0.75894666 -0.47988078 -0.44013008 0.12673441
-0.17375159 0.14252375 0.062476147 0.38790998 -0.35111949 -0.85219771 0.10941763
-0.16584001 0.14575757 0.06485568 0.40775073 -0.50671959 -0.75958848 0.11533418
-0.15546811 0.14710321 0.064236149 0.40130392 -0.64653587 -0.64880395 0.14068235
-0.14949304 0.1469866 0.063176982 0.27663037 -0.75523382 -0.59421998 0.18045366
-0.13519089 0.14664075 0.067808732 0.48044357 -0.74709934 -0.45936549 0.17345403
0.047480598 0.14907357 0.063399985 -0.41416883 -0.91019768 0.0020612378 0.20355712
0.051253274 0.14710683 0.068497904 -0.31376809 -0.92666924 -0.2069629 0.16770902
0.18846363 0.14683819 0.062161684 -0.22494708 -0.87593168 0.42678148 0.20628829
0.19386689 0.14626642 0.063682146 -0.24857187 -0.75323069 0.60897911 0.19578671
0.20778508 0.14308715 0.062295824 -0.30623773 -0.63799858 0.70652407 0.15375277
0.2153957 0.1416207 0.061451983 -0.3012484 -0.63927639 0.70751327 0.099722922
0.22545901 0.14102572 0.065491728 -0.37984148 -0.64762431 0.66053253 0.13389228
0.32302135 0.14843673 0.069901302 -0.15472777 -0.39457712 -0.90574181 0.039037637
0.33430228 0.14710712 0.068756208 -0.16537799 -0.38828099 -0.90658039 0.022942044
0.34742475 0.14677936 0.066657655 -0.15037884 -0.35070559 -0.92433321 0.014074797
0.3544184 0.14984508 0.064766064 -0.16636975 -0.4173432 -0.89339 0.0097568035
0.36402088 0.14623728 0.064791813 -0.12408654 -0.35955155 -0.92483789 0.0050334828
0.37207854 0.14573476 0.064047404 -0.099145405 -0.36906165 -0.92410159 0.0094926469
0.38546264 0.14492449 0.062813804 -0.035642963 -0.39920381 -0.91616911 0.019127365
0.39558941 0.14413899 0.061939511 0.026560934 -0.40578482 -0.91358262 0.02972272
0.40483317 0.14329845 0.063037224 -0.028465755 -0.43469909 -0.9001258 0.052142344
0.41450527 0.14595689 0.064681329 -0.18968168 -0.56385833 -0.80379385 0.076395527
0.42606393 0.14342789 0.066510022 -0.46189687 -0.57192683 -0.67790186 0.11962178
0.43277478 0.14513043 0.065898649 -0.58994991 -0.54233479 -0.59819061 0.13138129
-0.16338849 0.15342988 0.06341356 0.28538749 -0.58427101 -0.7597245 0.088494927
-0.1542132 0.15418452 0.06660492 0.34772247 -0.67330718 -0.65249258 0.086628303
-0.14606613 0.15588284 0.065758951 0.44824579 -0.67786419 -0.58273137 0.12791239
-0.13350417 0.1573506 0.06457106 0.5415144 -0.6494562 -0.53382474 0.16480909
-0.1232831 0.15274225 0.065053552 0.33172452 -0.87378228 -0.35561687 0.22605577
-0.11555459 0.15572113 0.065393619 -0.043492869 -0.81013668 -0.58462542 0.1962897
-0.092768669 0.15540095 0.066885225 -0.033609007 -0.93218875 -0.36040896 0.069741346
-0.088229671 0.15606797 0.065506905 -0.008835759 -0.95769072 -0.28766382 0.085707255
-0.077553362 0.15489775 0.068531841 0.024065979 -0.96162421 -0.27331257 0.055115327
-0.056064706 0.15569635 0.067154631 -0.081270732 -0.94991624 -0.30175185 0.07067427
-0.04651757 0.15620936 0.066192463 -0.019440114 -0.95628107 -0.29180229 0.081593417
-0.025118105 0.15647897 0.066201448 -0.0091435146 -0.94792151 -0.31837282 0.079273082
-0.011147493 0.15823083 0.062802352 0.057031397 -0.95666444 -0.2855531 0.095094718
-0.0052847075 0.1566193 0.066536717 0.053130575 -0.92676055 -0.3718763 0.067190245
0.0051775239 0.15702131 0.065942287 0.035422038 -0.92925113 -0.36774656 0.072772682
0.014231417 0.15667346 0.066869274 0.025683573 -0.94085824 -0.33782551 0.055428777
0.024927959 0.15754922 0.065191388 -0.047343526 -0.9506616 -0.30659631 0.072522528
0.036754638 0.1545921 0.066954754 -0.0062307073 -0.93918812 -0.34334642 0.069045
0.052820534 0.15570456 0.064882398 -0.059730139 -0.897439 -0.43707603 0.15419215
0.066729359 0.15749963 0.065508544 -0.15122154 -0.8531248 -0.49930969 0.15454325
0.083714351 0.15617272 0.067748524 -0.023123611 -0.94321024 -0.33139065 0.077255622
0.10158784 0.15733594 0.064672589 0.046961606 -0.95152986 -0.30395004 0.10227525
0.11547742 0.15767591 0.063504972 -0.0057473108 -0.96976912 -0.24395648 0.14346956
0.12616841 0.15670334 0.065488786 -0.021050313 -0.98972636 -0.1414164 0.091654189
0.13811395 0.15751652 0.063490599 0.11910182 -0.95234305 -0.2808159 0.13765109
0.14652181 0.15753213 0.063374177 0.13885665 -0.91569692 -0.3771179 0.12715298
0.1558942 0.15672737 0.064927168 0.10693754 -0.92252427 -0.37082797 0.12465171
0.16565304 0.15680444 0.064773493 -0.0062142331 -0.80969775 -0.58681422 0.093247935
0.17560576 0.15540375 0.064750686 -0.071122564 -0.84063405 -0.53691357 0.1667593
0.18269664 0.15463863 0.069989532 0.0088626826 -0.93977416 -0.34168115 0.16789569
0.19063067 0.15315589 0.067972705 0.11166286 -0.86389989 -0.49112973 0.18192805
0.20444189 0.15915549 0.067907363 0.066514231 -0.64340007 -0.76263505 0.13357972
0.21429764 0.1582886 0.069704644 0.074840136 -0.66540569 -0.74272078 0.14361547
0.23682502 0.15945289 0.068573765 0.10790785 -0.62866896 -0.77015013 0.11343842
0.25994113 0.15864676 0.068460822 0.036332868 -0.59182358 -0.8052482 0.088265978
0.26368678 0.15817682 0.068663299 0.042042527 -0.58415037 -0.81055588 0.082481131
0.27325323 0.15840469 0.067906126 -0.029642086 -0.59947443 -0.79984474 0.076405436
0.28653961 0.1574948 0.067679271 -0.075105838 -0.58540189 -0.80725694 0.050111018
0.29291004 0.15633136 0.067711607 -0.077192724 -0.52982306 -0.84458792 0.051489498
0.30353212 0.15286852 0.069249928 -0.11046156 -0.46838328 -0.87659299 0.070322737
0.31588235 0.15573958 0.066019379 -0.093441531 -0.59526914 -0.79807478 0.013187815
0.32408613 0.15150458 0.067570463 -0.13671687 -0.43751177 -0.88875872 0.025432719
0.33560035 0.1551865 0.064364769 -0.12266965 -0.55604696 -0.82204866 0.0091938162
0.34187019 0.15600179 0.063466527 -0.11040255 -0.56069005 -0.82063264 0.0096757375
0.3537595 0.15459803 0.062856972 -0.16461965 -0.45727327 -0.87395746 0.0091547864
0.36548173 0.15080917 0.063257962 -0.107688 -0.41076437 -0.90535957 0.011120208
0.38799283 0.1512787 0.060750131 -0.048601244 -0.52617013 -0.84898937 0.02576213
0.41466838 0.1520236 0.064257912 -0.17378955 -0.63457781 -0.75306582 0.065910757
0.42178014 0.1525176 0.063403688 -0.30936122 -0.7285772 -0.61112267 0.072672866
-0.13069065 0.1622526 0.062938757 0.48097825 -0.64013493 -0.59907198 0.21255478
-0.12561446 0.16587433 0.06234663 0.82474053 -0.28849795 -0.4863866 0.23484793
-0.11838076 0.1665578 0.06704253 0.92457509 0.032075576 0.37964737 0.26013705
0.036941968 0.16027784 0.065007702 0.048938818 -0.90007228 -0.4329837 0.080377713
0.049707033 0.16254151 0.061986737 0.025882613 -0.91524845 -0.40205756 0.09581846
0.055965394 0.16077276 0.064089119 -0.030096794 -0.87300617 -0.48677969 0.11055695
0.060930572 0.16062714 0.0643095 -0.070323065 -0.89225805 -0.44601607 0.074726433
0.18370162 0.16241637 0.060662672 0.14865987 -0.63754535 -0.75593406 0.15458035
0.19868398 0.16000868 0.06611079 0.22624521 -0.593436 -0.77242923 0.14623967
0.20111066 0.16088395 0.06536442 0.1139491 -0.65827477 -0.74410343 0.11914533
0.21054876 0.16334541 0.063919641 0.037111916 -0.61837518 -0.78500623 0.10600339
0.22728518 0.1651597 0.063509509 0.060286529 -0.66855544 -0.74121463 0.10189642
0.24788709 0.16630763 0.062981784 -0.023904728 -0.7476334 -0.66368127 0.015415057
0.25297648 0.16454783 0.064025223 -0.017379051 -0.72524118 -0.68827558 0.024208864
0.26518974 0.16187882 0.065470763 -0.001597862 -0.60447758 -0.79662049 0.066402756
0.27516964 0.16246009 0.064732797 -0.080405369 -0.72440851 -0.68466592 0.002814817
0.2848247 0.16429068 0.063132949 -0.066688932 -0.73195457 -0.67808187 0.0038630771
0.29078925 0.16594091 0.061610878 -0.076431781 -0.73466891 -0.67410672 0.0051713139
0.30602199 0.16008738 0.064138368 -0.081888549 -0.68262726 -0.7261641 0.0057527567
0.3173213 0.16333053 0.061764214 -0.057496518 -0.67858279 -0.73227012 0.0064923763
0.32609013 0.16116872 0.062317178 -0.072332107 -0.62821943 -0.77466667 0.0063559976
0.33906078 0.16056645 0.061409365 -0.10287245 -0.60088813 -0.79268569 0.012808841
0.3438161 0.16125521 0.060564615 -0.1159981 -0.59572226 -0.79476994 0.013675977
-0.13427623 0.1739189 0.065612249 0.75750595 -0.37440547 -0.53479463 0.19038957
-0.12278886 0.17233498 0.064735472 0.98277861 -0.18011077 -0.041308619 0.21454608
-0.11779081 0.17302777 0.064241491 0.99622267 -0.086765438 -0.0034831052 0.200403
-0.13185689 0.18355232 0.065800324 0.89606762 -0.4030633 -0.18601824 0.13273878
-0.12163376 0.1842221 0.061327461 0.88721162 -0.37576437 0.26768768 0.14977938
-0.11332471 0.18551546 0.068742275 0.79560947 -0.38071075 0.47123739 0.12867546
-0.12400218 0.19378503 0.065452628 0.92321676 -0.37047485 -0.10207517 0.14480354
-0.11337415 0.19536664 0.061812382 0.9253813 -0.36175439 0.11315154 0.14838189
-0.10911441 0.19881406 0.068785593 0.89836377 -0.43259129 -0.076205477 0.17829536
-0.11693965 0.20054397 0.063963339 0.85708368 -0.5120675 0.056518745 0.17017283
-0.10700035 0.20162275 0.067274563 0.89186656 -0.44430518 -0.084656678 0.18150854
-0.11250305 -0.20062968 0.078130364 0.81131983 0.54053605 -0.22266744 0.13325424
-0.10738578 -0.20180139 0.077453017 0.80365992 0.57680345 -0.14638464 0.12266751
-0.12497264 -0.19416003 0.074955322 0.86948645 0.43475944 -0.23447292 0.13951883
-0.1147799 -0.19452621 0.076621376 0.89337051 0.41310087 -0.1767392 0.14186798
-0.10890082 -0.19903204 0.074583977 0.79326606 0.55158907 -0.25783411 0.12730153
-0.13349205 -0.18249875 0.071896859 0.89169103 0.38508874 -0.23789446 0.10844341
-0.1267561 -0.18400986 0.078607678 0.90756524 0.39362669 -0.14623058 0.12759946
-0.11562262 -0.18547896 0.07687939 0.90757251 0.39360741 -0.14623757 0.12759715
-0.13443154 -0.17704158 0.072733819 0.87457305 0.40264764 -0.2701793 0.11936333
-0.1241346 -0.17357273 0.074136063 0.93648869 0.20666428 -0.28333521 0.16245477
-0.11852538 -0.17187919 0.079751857 0.878254 0.045255259 -0.47604826 0.12384613
-0.12247243 -0.16664578 0.07165011 0.9853012 0.08210288 -0.14980227 0.21823607
-0.11994109 -0.16577473 0.077461444 0.81821454 0.13898104 -0.55786127 0.18342265
-0.14466126 -0.15260865 0.072348595 0.45923737 0.66640908 -0.587367 0.13048874
-0.12579237 -0.15195882 0.076385304 0.52641046 0.56822938 -0.63246137 0.14930749
-0.101504 -0.15349212 0.070971735 -0.14489216 0.90863109 -0.3916578 0.10330097
-0.094028272 -0.15222022 0.07412634 -0.012364574 0.94927824 -0.31419429 0.031943321
