# .PCD v0.7 - Point Cloud Data file format
VERSION 0.7
FIELDS x y z normal_x normal_y normal_z curvature
SIZE 4 4 4 4 4 4 4
TYPE F F F F F F F
COUNT 1 1 1 1 1 1 1
WIDTH 606
HEIGHT 1
VIEWPOINT 0 0 0 1 0 0 0
POINTS 606
DATA ascii
0.37222189 -0.19410804 -0.12022674 -0.4925074 0.75940669 0.4251329 0.15218805
-0.32355568 -0.18716526 -0.12052653 0.69000417 0.39673039 0.6053918 0.17528917
-0.30454591 -0.18810168 -0.12426604 0.61702794 0.35319754 0.70322686 0.20013641
-0.28787115 -0.18317151 -0.12566221 0.44527119 0.34664175 0.82557446 0.24283321
-0.27921048 -0.18817656 -0.12827581 0.022512177 0.91870266 0.39430779 0.23328896
-0.26529014 -0.18956532 -0.12904418 0.04456057 0.98099357 0.18885413 0.208488
-0.23712297 -0.18830954 -0.12713365 -0.054175131 0.95734739 0.28381491 0.21839592
-0.22894704 -0.18652028 -0.12492712 -0.22908998 0.92973405 0.28829205 0.19602379
-0.19949259 -0.18989685 -0.12586753 -0.57640147 0.57869828 0.57694852 0.16693026
0.24699259 -0.1895542 -0.12299193 0.67189085 0.57323092 0.46900848 0.14199632
0.26197895 -0.18258119 -0.12338089 -0.60877681 -0.29169786 -0.73776901 0.19595103
0.2754001 -0.18837503 -0.12024638 0.042426839 0.97427261 0.22134295 0.19076177
0.28539947 -0.18448615 -0.12797862 0.24870364 0.85576302 0.45366964 0.20687491
0.32366419 -0.18894616 -0.12725627 -0.01743521 0.95711118 0.28919581 0.21772709
0.33553743 -0.18733092 -0.12474549 -0.15094684 0.8798939 0.45055717 0.21509761
0.34319681 -0.18693168 -0.12150064 -0.25992945 0.91627336 0.30476218 0.21225587
0.35019499 -0.18892063 -0.12750563 -0.40899944 0.68945563 0.59780461 0.18472642
0.36941183 -0.18884292 -0.12579238 -0.65817118 0.45432168 0.6003353 0.14433257
0.37057114 -0.18736023 -0.12459778 -0.67317343 0.48138008 0.56134731 0.14951786
-0.32222638 -0.17367955 -0.12372667 0.80325419 0.11613113 0.58420581 0.16656402
-0.31878304 -0.17479317 -0.12742165 0.69212651 0.15770316 0.70433706 0.17217638
-0.30048537 -0.17511903 -0.12738176 0.60690939 0.18948227 0.77185321 0.17229901
-0.2935006 -0.17431864 -0.12136646 0.49998602 -0.38742951 0.77454007 0.28583589
-0.28927302 -0.17365882 -0.12461041 0.28367415 0.1912455 0.93965638 0.24927469
-0.23774247 -0.17619824 -0.1288957 -0.30731651 0.44796053 0.83957601 0.2874909
-0.22560799 -0.1730485 -0.12236497 0.77552378 -0.29720807 -0.55698317 0.27540237
-0.19534658 -0.17702535 -0.12275086 0.69947517 -0.1212629 -0.70429385 0.19620094
0.24750024 -0.17487983 -0.12620986 -0.79920948 -0.063592404 -0.59767902 0.12528621
0.26432872 -0.17397517 -0.12507974 -0.6411497 -0.080416076 -0.76319087 0.15504621
0.27484822 -0.17248437 -0.12188095 -0.5668751 -0.18779381 -0.80211353 0.23658444
0.28678745 -0.17434886 -0.12855354 -0.4727293 0.086023815 -0.87699884 0.27642608
0.33575806 -0.17439497 -0.12644063 -0.24215727 0.033190586 0.9696691 0.25431803
0.34044623 -0.17131166 -0.12361124 -0.41541395 0.11567162 0.90224797 0.26317802
0.35631377 -0.17613603 -0.1227777 -0.72794938 0.16881278 0.66452378 0.18474756
0.37340975 -0.17270775 -0.12201902 -0.78574097 -0.045149013 0.61690557 0.14703915
-0.32276696 -0.16574207 -0.12269638 0.78244507 0.039771404 0.62144828 0.14179936
-0.30553621 -0.16378488 -0.12330934 0.6764549 0.042385012 0.73526341 0.191718
-0.29408944 -0.16306028 -0.12091464 0.38838798 0.70282948 0.5959745 0.25517192
-0.28016335 -0.16207834 -0.12885489 0.42757934 0.43240294 0.79385364 0.27944693
-0.2317006 -0.16621344 -0.12639306 -0.51297766 0.11268816 0.85097313 0.25108486
-0.2134632 -0.1671783 -0.1242433 0.68484539 0.0060361335 -0.72866338 0.17202826
-0.19796871 -0.16591422 -0.12789853 0.6599763 -0.061784253 -0.74874157 0.16331244
0.24571498 -0.16455975 -0.12403858 -0.79696161 0.068796255 -0.60009933 0.11858626
0.26653677 -0.16014889 -0.12687823 -0.70407802 0.16021582 -0.69181281 0.15547173
0.28114349 -0.16453965 -0.12621574 -0.3647477 0.11576176 -0.92388213 0.23798168
0.32873249 -0.16250968 -0.12939417 -0.16808647 0.94337004 0.28600684 0.30716288
0.33995274 -0.1640781 -0.1239899 -0.23369439 0.60562509 0.76066107 0.28005698
0.35410133 -0.16140676 -0.12450817 -0.69167006 0.11386739 0.71318078 0.19365506
-0.32208741 -0.1552145 -0.12353934 0.82119983 -0.062877059 0.56716603 0.14152946
-0.31841472 -0.15799123 -0.12911358 0.75930238 -0.0042016809 0.65072429 0.14623688
-0.30505061 -0.15646929 -0.1234678 0.66940689 0.078776784 0.73870736 0.19510838
-0.29453728 -0.15434983 -0.12625843 0.5876559 0.017418565 0.80892336 0.18195891
-0.2846536 -0.15512447 -0.12699497 0.4886961 0.37229359 0.78903329 0.23362581
-0.27935037 -0.15617593 -0.12919164 0.44090244 0.37627155 0.81487709 0.25463083
-0.23152271 -0.15312111 -0.12631938 -0.55167079 0.42451221 0.71794754 0.23923162
-0.22656386 -0.15330414 -0.12309843 0.74402422 -0.34043631 -0.57491833 0.23749274
-0.21500269 -0.15295261 -0.1256021 0.7072224 0.068507187 -0.70366418 0.17525432
-0.19621783 -0.15425937 -0.12423225 0.68136615 0.0036196392 -0.73193383 0.16736189
0.24379189 -0.15840495 -0.12224109 -0.75426549 0.07215514 -0.65259266 0.15160972
0.25920174 -0.15770832 -0.12013794 -0.76397097 0.18438578 -0.61834484 0.15154979
0.26348221 -0.15400633 -0.12453438 -0.67272842 0.14461504 -0.72561908 0.15088187
0.27673239 -0.15250278 -0.12332673 -0.60548967 0.14327122 -0.78285098 0.27183232
0.28480721 -0.15469532 -0.12773331 -0.5216943 -0.15180552 -0.83951777 0.2578012
0.3281301 -0.15997042 -0.12964368 -0.20713243 0.64026594 0.73969972 0.27811608
0.33467901 -0.15682046 -0.12693103 -0.51628602 0.32495037 0.79237372 0.2948449
0.34565124 -0.15418902 -0.12530473 -0.60700685 -0.26309073 0.74988401 0.21636295
0.35513714 -0.15439075 -0.12345663 -0.65154755 -0.1257586 0.74811131 0.17513433
0.36859679 -0.15345523 -0.12805557 -0.82465297 -0.16323198 0.54157442 0.14049187
0.37316903 -0.15703437 -0.12285829 -0.78870267 0.00085841428 0.61477411 0.14911741
-0.32359079 -0.14948913 -0.12113845 0.79494381 -0.19503742 0.57447779 0.14295575
-0.31690538 -0.14613357 -0.12959225 0.70406783 -0.3183552 0.63477439 0.13489681
-0.30509013 -0.14874592 -0.12384842 0.60461742 -0.10400815 0.78969622 0.1784385
-0.28574476 -0.1494666 -0.126543 0.49799845 0.41010657 0.76407468 0.2535311
-0.27988923 -0.1457839 -0.12896843 0.56712872 0.17473383 0.8048808 0.27201623
-0.23589896 -0.14823967 -0.12813208 0.54467332 0.13244338 -0.82812423 0.25104126
-0.22448868 -0.14160481 -0.12150609 0.42487329 0.70008129 -0.57390672 0.17886424
-0.21836162 -0.14359011 -0.12817952 0.56809407 0.37554187 -0.73228228 0.158233
-0.20951883 -0.14059885 -0.1203831 0.62901229 0.40624091 -0.66280603 0.18455036
-0.19562791 -0.14706202 -0.12316071 0.51507133 0.076382972 -0.85373712 0.18241361
0.24653469 -0.14674301 -0.12402004 -0.71680444 0.059199549 -0.69475663 0.16706276
0.26730081 -0.14514023 -0.1274645 -0.55626857 0.40851435 -0.72365826 0.16345473
0.27892259 -0.14760524 -0.12500735 -0.41515642 0.53414023 -0.73643696 0.22593735
0.28777936 -0.14723799 -0.12896441 -0.25539955 0.66093397 -0.70564675 0.23141523
0.32786441 -0.14794907 -0.12975374 -0.52450788 -0.3355307 0.78250277 0.26364076
0.33004525 -0.14047557 -0.1288504 -0.12857646 -0.69212884 0.7102294 0.19358665
0.34756583 -0.14194787 -0.12952305 -0.47248161 -0.51383597 0.71605426 0.16731773
0.36648327 -0.14237747 -0.12843192 -0.70469975 -0.23938735 0.66790116 0.15960132
-0.32087493 -0.13925047 -0.12235427 0.69657898 -0.42434677 0.57853907 0.12741236
-0.31531757 -0.13517302 -0.1245566 0.52154982 -0.65187371 0.55049658 0.13314416
-0.30812138 -0.13332987 -0.12397255 0.38844517 -0.73422146 0.55680269 0.1148552
-0.29287514 -0.13846847 -0.12184642 0.27457362 -0.79579073 0.5397467 0.15311223
-0.28171754 -0.13441131 -0.12903228 -0.10486856 0.85599446 -0.50623721 0.14503714
-0.23097016 -0.13853088 -0.12609051 0.19673519 0.82253844 -0.53359705 0.15162639
-0.21401878 -0.13356313 -0.12682685 0.42756256 0.63131827 -0.64701432 0.15037273
-0.20464519 -0.13529095 -0.12489315 0.56234336 0.4218806 -0.71118683 0.15728119
-0.19621196 -0.13768028 -0.12086505 0.48197007 0.25815237 -0.83729458 0.19572945
0.25193638 -0.13590306 -0.12510611 -0.55232942 0.25306079 -0.79428732 0.1565444
0.26349202 -0.13374072 -0.12611037 -0.45650142 0.49845415 -0.73698705 0.15979572
0.27596152 -0.13565874 -0.12414736 -0.24592505 0.75260276 -0.61082727 0.17377561
0.28934523 -0.1383599 -0.12961301 -0.16525123 0.81078368 -0.5615353 0.13878138
0.33165199 -0.13631937 -0.12818485 -0.17484017 -0.67496401 0.71683651 0.16749446
0.34872103 -0.13215528 -0.12502646 -0.30972028 -0.64748472 0.69630235 0.15507291
0.35509586 -0.13393748 -0.12397325 -0.54319465 -0.55927742 0.62621742 0.1817982
0.36507925 -0.13425948 -0.12371305 -0.48973864 -0.29345822 0.82099843 0.18494576
-0.31595537 0.13482456 -0.1248396 0.5338921 0.59338605 0.60237217 0.12486781
-0.3036688 0.1324257 -0.12408832 0.51321882 0.65867913 0.55022556 0.12784277
-0.29484326 0.13390663 -0.12389198 0.33806801 0.75565475 0.5609777 0.16069007
-0.28752083 0.13768309 -0.12580732 0.3020508 0.75978905 0.57574815 0.17909056
-0.27773738 0.13620506 -0.12985978 0.17163894 0.83017105 0.53043008 0.20245484
-0.22452198 0.13088144 -0.12841755 0.33358115 -0.76322913 -0.55335784 0.12354178
-0.21600866 0.1313221 -0.12791306 0.48150662 -0.66440725 -0.57158941 0.16375987
-0.20142259 0.1340114 -0.12443728 0.3178277 -0.40504137 -0.85727882 0.16569006
-0.19855614 0.135837 -0.12265357 0.49023932 -0.23969372 -0.8379811 0.19141455
0.24769028 0.1379308 -0.12349826 -0.52324843 -0.056931905 -0.85027629 0.17457955
0.25483713 0.13510409 -0.12336711 -0.56755996 -0.20243883 -0.79805654 0.19974811
0.26301438 0.13183481 -0.12702252 -0.33207262 -0.49898812 -0.80046147 0.15354809
0.27550894 0.13361175 -0.12238793 -0.20501119 -0.6854319 -0.69867986 0.18430443
0.28538871 0.13532037 -0.12797417 -0.1891958 -0.75777376 -0.62448698 0.17120573
0.32804775 0.13736892 -0.12967779 -0.16162956 0.77931058 0.60543454 0.15781124
0.3371169 0.13541085 -0.12731308 -0.19332908 0.77186054 0.60568571 0.13720524
0.34207353 0.13308388 -0.12236257 -0.24274205 0.84038895 0.48458517 0.14867656
0.35416865 0.13299923 -0.12413824 -0.28544 0.64802176 0.7061103 0.15167755
0.36589247 0.13483806 -0.12505999 -0.41942355 0.41787475 0.8058936 0.16557118
-0.32127842 0.14492927 -0.12376439 0.66513216 0.44259948 0.60141909 0.13359633
-0.31843698 0.14352977 -0.12736119 0.60044932 0.43504602 0.67096609 0.14134949
-0.30723464 0.14454187 -0.12175654 0.55698067 0.41449124 0.71970099 0.16552249
-0.294552 0.14504847 -0.1243513 0.57260156 0.0828657 0.8156352 0.2330332
-0.28403521 0.14475244 -0.12719725 0.42401057 -0.36694896 0.82798761 0.25161931
-0.22506294 0.14646348 -0.12194674 0.58361387 -0.12235393 -0.80276048 0.27207345
-0.21881033 0.14645751 -0.12852383 0.50846028 -0.44261068 -0.73862296 0.17992492
-0.20927106 0.14456633 -0.1200602 0.58970261 -0.58145308 -0.56050253 0.17232031
-0.19754729 0.14640209 -0.1256699 0.45975327 -0.27044442 -0.84586447 0.17384256
0.24638876 0.14544979 -0.12339135 -0.77164245 -0.0022207142 -0.63605261 0.17570467
0.25063774 0.14345896 -0.12921526 -0.66321528 -0.20979424 -0.71842319 0.13327491
0.26413956 0.14577481 -0.12499507 -0.55474806 -0.34772411 -0.75587213 0.19229513
0.27617162 0.14112344 -0.12289642 -0.32187951 -0.57674754 -0.75083685 0.21561283
0.28385425 0.14839523 -0.12733857 -0.81624466 -0.32559708 -0.47721192 0.28824049
0.34830943 0.14731736 -0.12895246 -0.5191586 0.29183361 0.80331033 0.15626052
0.35421169 0.14583284 -0.12418409 -0.61799711 0.38447767 0.68575251 0.14357388
0.36796987 0.14575239 -0.12805924 -0.65826768 0.25892052 0.70685494 0.14262258
0.37405005 0.14918102 -0.12122816 -0.7753399 0.12484047 0.61908221 0.13600123
-0.32225037 0.1538706 -0.12328011 0.73884517 0.18314248 0.64851105 0.14262114
-0.31960595 0.15389293 -0.12496098 0.68724275 0.20204324 0.69776487 0.15506028
-0.30497661 0.15745729 -0.12342454 0.54377425 0.12238187 0.8302604 0.18715225
-0.29073134 0.15618193 -0.12349139 0.69250256 -0.4050166 0.59699392 0.26297158
-0.28135082 0.15338872 -0.12836303 0.32491776 -0.49013659 0.80882299 0.22709292
-0.27886012 0.15718937 -0.12939471 0.16723666 -0.50690866 0.84562141 0.26588377
-0.23804697 0.15685952 -0.12902182 -0.16499735 -0.71421099 0.68020475 0.27439108
-0.22352421 0.15731958 -0.12076604 0.74493921 0.64365917 0.17540933 0.25367489
-0.21419036 0.15593852 -0.12497437 0.66013682 -0.052063294 -0.74933887 0.18395574
-0.19757374 0.15607655 -0.12701645 0.56495506 -0.2266476 -0.79338312 0.17293379
0.24647012 0.1537163 -0.12483227 -0.75770324 -0.10526761 -0.64405316 0.16913275
0.25091705 0.15253875 -0.12911651 -0.70320314 -0.1626538 -0.69213372 0.15186709
0.26200411 0.15446694 -0.1234002 -0.70427781 0.034590177 -0.70908123 0.16874149
0.27564931 0.15293096 -0.12249566 -0.85639203 0.41748232 -0.30381107 0.27876943
0.36835751 0.15762591 -0.12893237 -0.77158237 0.10529844 0.62735391 0.14283222
0.3738929 0.15629944 -0.12209992 -0.83054429 0.08708518 0.55010211 0.14361933
-0.32273242 0.16783765 -0.12239937 0.79921889 -0.056331042 0.59839439 0.1568964
-0.31829318 0.16533752 -0.12941277 0.69711161 -0.1220241 0.70650232 0.15234767
-0.30293489 0.16949689 -0.12550218 0.54026127 -0.022277374 0.84120238 0.2001197
-0.29703575 0.16289976 -0.12434129 0.44954935 0.25770962 0.85527259 0.26025936
-0.28697383 0.16361038 -0.12572752 0.49510553 -0.52166134 -0.69479483 0.30086067
-0.27941221 0.16382818 -0.12916604 -0.19101061 -0.83203924 -0.52079338 0.28478238
-0.23505831 0.16487826 -0.12778388 0.72289586 0.614106 -0.31669432 0.29115292
-0.2231876 0.16493464 -0.12050773 0.79715145 0.59799069 0.083407022 0.2762405
-0.2110225 0.16207397 -0.12234271 0.63682061 0.057741724 -0.76884675 0.18040425
-0.19773825 0.16347979 -0.12682186 0.66056907 -0.047928456 -0.74923396 0.16138738
0.24407977 0.16450419 -0.12292448 -0.81687427 -0.02028879 -0.57645887 0.18032937
0.2648966 0.16521971 -0.12561968 -0.69840682 0.088647418 -0.71018994 0.19746108
0.27849728 0.16188502 -0.12468098 0.45496821 -0.88286805 0.11639524 0.27831668
0.28433794 0.16656768 -0.12753892 -0.85724479 0.27922103 -0.43262792 0.30911946
0.33759487 0.16742641 -0.12537818 -0.90253258 -0.31186628 0.29694155 0.27883184
0.3549543 0.16554812 -0.12345977 -0.61643946 -0.1674974 0.76938099 0.16681011
0.36954516 0.16215673 -0.12779389 -0.74582422 0.017272448 0.66591889 0.14577633
0.37548709 0.16606489 -0.12025988 -0.84868795 0.020896159 0.52848089 0.15288338
-0.32101452 0.17425203 -0.12508631 0.77985573 -0.16095054 0.60491318 0.13973595
-0.31903049 0.17534651 -0.12788935 0.6999414 -0.12234174 0.70364374 0.14696021
-0.30391216 0.17246968 -0.12473318 0.52797759 -0.06724304 0.84659207 0.18395665
-0.28752455 0.17168278 -0.12580578 0.055102602 0.29630136 0.95350367 0.31052503
-0.23386931 0.17131639 -0.12729138 0.96355397 0.24791804 0.10050043 0.29922318
-0.22631887 0.1752477 -0.12291044 0.52027756 -0.47998157 -0.70634902 0.28612795
-0.21222496 0.17536956 -0.12324329 -0.60705465 -0.26297095 0.74988735 0.20140086
-0.19593883 0.17870764 -0.12411997 -0.62030244 -0.19322897 0.76018906 0.17314427
0.24615963 0.17667083 -0.12400147 -0.78410786 0.11917484 -0.60907489 0.16048278
0.26416457 0.17502187 -0.12476629 -0.68652481 0.023986379 -0.72671074 0.1785274
0.28335759 0.17403613 -0.12713285 0.21882474 -0.45615849 0.86257476 0.31770366
0.33081239 0.17574041 -0.12853265 0.33183429 -0.73053217 0.59683222 0.28044471
0.34512591 0.17544025 -0.12002038 -0.80335128 -0.59550512 0.00058973487 0.29038665
0.35130587 0.17980105 -0.12665319 -0.53747779 -0.45672864 0.70888406 0.16838181
0.36944062 0.17121756 -0.12810665 -0.74147326 -0.10076562 0.66337287 0.14045312
0.37202182 0.17660159 -0.1233204 -0.81217653 -0.27225906 0.51598853 0.15143409
-0.31772172 0.18633795 -0.12753907 0.68712783 -0.37145898 0.62439853 0.15622807
-0.30535245 0.18514317 -0.12364716 0.38093877 -0.68640816 0.61945903 0.19559097
-0.29548389 0.18317291 -0.12553209 0.38958433 -0.61491561 0.68564045 0.22530781
-0.28466564 0.1849139 -0.12467021 0.14682023 -0.98206896 -0.11825562 0.27178982
-0.27952617 0.18131787 -0.12911883 0.3291086 -0.94427782 0.0051935492 0.26994443
-0.2461894 0.18853909 -0.12300933 -0.11718486 -0.97909999 -0.16622567 0.18606444
-0.23410979 0.18787548 -0.12581402 -0.037919719 -0.9890033 0.14294933 0.18959333
-0.22933541 0.1872717 -0.12237509 -0.012361879 -0.99711639 0.07487347 0.1626153
-0.21330333 0.18767537 -0.12429816 -0.36361951 -0.81024778 0.45965138 0.19706866
-0.2028497 0.18847945 -0.12979305 -0.64565778 -0.47945783 0.59434533 0.18287358
-0.19710496 0.18597919 -0.12433811 -0.59021497 -0.40606269 0.69768143 0.16178568
0.24585265 0.18650264 -0.12201285 0.61740422 -0.57286078 0.53911287 0.1685493
0.25105095 0.18488686 -0.12877947 -0.66268051 0.3581132 -0.65773046 0.15979029
0.26916215 0.18119466 -0.12889276 -0.66217768 0.21269394 -0.71852773 0.19949234
0.28327289 0.18744193 -0.12376795 0.045999337 -0.96775395 0.24766183 0.19386242
0.29033482 0.18828455 -0.1270476 0.11155999 -0.96416306 0.24071559 0.17822328
0.30783322 0.18767875 -0.12931418 0.0052830321 -0.99389464 0.11020676 0.16289252
0.31410241 0.18751787 -0.12947501 0.077625662 -0.99370223 0.08081039 0.17284884
0.32153851 0.18847847 -0.12362941 -0.025795227 -0.9984991 -0.048313156 0.16429883
0.33335456 0.18509126 -0.12509283 -0.024345908 -0.97898382 0.20247953 0.17156544
0.34663936 0.18139806 -0.12454651 -0.43059632 -0.79648316 0.42450136 0.2008007
0.35486639 0.18540435 -0.12363526 -0.46101585 -0.72970349 0.50497252 0.1865215
0.36818641 0.18393104 -0.12731579 -0.6628086 -0.35527617 0.65913844 0.15171511
-0.3200503 0.19400728 -0.12012176 0.5991891 -0.63617909 0.48605409 0.14471667
-0.31529298 0.19634479 -0.12188286 0.6041103 -0.65122408 0.45930147 0.16567419
-0.30415279 0.19833869 -0.12621935 0.27611572 -0.90124929 0.33393076 0.15894093
-0.25273758 0.19277781 -0.12959845 0.015230298 -0.99587089 0.089494258 0.13189434
-0.24525401 0.19256467 -0.12430409 -0.098940536 -0.99495566 0.016553104 0.16692068
-0.23445269 0.19193153 -0.12680098 -0.036374439 -0.99899477 0.026196094 0.16893147
-0.22307017 0.19798544 -0.12670363 -0.019906117 -0.99095505 0.13270906 0.13141923
-0.21374349 0.19758381 -0.12476819 -0.12861672 -0.98571199 0.10876382 0.13870317
-0.20369332 0.19473612 -0.12737159 -0.34653729 -0.90688795 0.23972082 0.15141384
-0.1983681 0.19484556 -0.12146845 -0.27043861 -0.96057266 0.064522184 0.1454566
0.24919106 0.19289771 -0.12449056 0.55895877 -0.66697234 0.49265912 0.13887614
0.25549096 0.19653136 -0.12605016 0.23608898 -0.93735594 0.25617555 0.13408512
0.26699513 0.19503546 -0.12706405 0.23132908 -0.94262099 0.24073303 0.15611322
0.27562138 0.19751407 -0.12694645 0.098528087 -0.97399998 0.20400047 0.12513535
0.29469159 0.19028012 -0.12028119 0.044946034 -0.98593688 0.16096023 0.160772
0.31371 0.19008002 -0.12904418 0.11798961 -0.99238122 0.035465945 0.14485605
0.33428395 0.19497719 -0.1244037 -0.073125772 -0.99568981 0.057047848 0.13094115
0.34773767 0.19825596 -0.12830177 -0.011262084 -0.99612063 0.08727438 0.1131249
0.3541491 0.19818053 -0.12562339 -0.11443049 -0.980802 0.15790252 0.13762209
0.36699778 0.19308305 -0.12657763 -0.56623119 -0.64017487 0.51919019 0.16334985
-0.32359219 -0.19595157 -0.11423018 0.47616893 0.79586679 0.3739776 0.1680059
-0.31347531 -0.19764347 -0.11638015 0.43292773 0.88302821 0.18120366 0.17838062
-0.30130053 -0.1943288 -0.11456794 0.19605517 0.97962725 0.043505553 0.17820153
-0.29644084 -0.19249421 -0.11375041 0.088716999 0.99573696 0.025241517 0.16802225
-0.28284019 -0.1936574 -0.11283035 0.12285445 0.99241948 0.0032075818 0.13287418
-0.27450407 -0.19196177 -0.11817053 0.023003554 0.99532199 0.093834706 0.13349505
-0.26531553 -0.19603544 -0.11106142 0.16735139 0.98251712 -0.081569642 0.090616345
-0.2508781 -0.19317643 -0.11738946 0.031493586 0.99760371 0.061602235 0.1019092
-0.24704947 -0.19577929 -0.11808968 0.065043435 0.99602634 0.060834389 0.077822238
-0.238472 -0.19562553 -0.11322876 -0.10068466 0.99351478 0.052830327 0.073528133
-0.2255827 -0.19283617 -0.11697959 -0.2099119 0.97266603 0.099286489 0.17835927
-0.21556678 -0.19643454 -0.1145138 -0.098127417 0.99175942 0.082366824 0.14717901
-0.2035661 -0.19619216 -0.1135393 -0.18881275 0.97949117 0.070333712 0.16252215
-0.19343217 -0.19462572 -0.11511303 -0.095437936 0.94196904 0.32184768 0.16919762
-0.18928465 -0.19153938 -0.11215737 -0.26278585 0.88151199 0.39227581 0.22228391
-0.17347831 -0.19609924 -0.11111519 0.17497727 0.90618461 0.38498354 0.15118231
-0.16387491 -0.19577366 -0.11490709 0.13812815 0.77741665 0.61363184 0.11134179
-0.15637311 -0.19570327 -0.11462668 0.14202736 0.67548794 0.72356367 0.096266381
-0.14411801 -0.19601023 -0.11369418 -0.058667209 0.67071748 0.73938912 0.089011453
-0.13501567 -0.19661456 -0.11311351 -0.027693534 0.82028764 0.57128036 0.11046745
-0.12412496 -0.19286898 -0.11581041 -0.043638125 0.62688386 0.77788973 0.12414089
-0.11488083 -0.19606055 -0.11463092 -0.14575383 0.87460661 0.46240583 0.10105723
-0.10580647 -0.19681041 -0.11367536 -0.042444225 0.85047865 0.52429432 0.12332988
-0.092768632 -0.19172387 -0.11616457 0.0083395746 0.49462318 0.86906755 0.08958707
-0.075342894 -0.19511393 -0.11616457 0.057158366 0.79730177 0.6008684 0.12664427
-0.0645115 -0.19469123 -0.11432629 0.061502535 0.9141084 0.40077832 0.12496074
-0.055804733 -0.19639771 -0.11572029 0.083738148 0.74605346 0.66059983 0.12082152
-0.047384728 -0.19569345 -0.11372419 0.038507838 0.72343218 0.68932074 0.12580639
-0.035845008 -0.19597927 -0.11459654 -0.015878407 0.7165249 0.69738084 0.13142712
-0.026956504 -0.19654982 -0.11537089 -0.024722828 0.72162038 0.69184738 0.12711142
-0.013148564 -0.19525762 -0.11497388 -0.042148571 0.72585428 0.68655598 0.14961126
-0.005936292 -0.19283459 -0.11616457 0.097082488 0.71787339 0.68937135 0.14331132
0.0035291016 -0.19782963 -0.11475033 0.032727562 0.87351382 0.48569798 0.12879406
0.015078273 -0.19790564 -0.11447138 -0.16972579 0.83435702 0.52444398 0.12149384
0.024208099 -0.19620371 -0.11521504 0.064275682 0.77523661 0.62839234 0.1340979
0.035429031 -0.19426464 -0.11606035 -0.044908814 0.56518871 0.82373834 0.09202227
0.046394266 -0.19698766 -0.11616457 0.0037713812 0.83063036 0.55681157 0.12489431
0.052536823 -0.19214845 -0.11616457 -0.029082796 0.67045802 0.74137729 0.12479964
0.065366738 -0.19789274 -0.11575039 0.028071934 0.90207851 0.43065789 0.11232939
0.074209005 -0.19349654 -0.11570934 -0.03639913 0.77975351 0.62502766 0.11235154
0.083488874 -0.19413328 -0.11409487 0.05943276 0.86852229 0.49207401 0.12010973
0.098164044 -0.19628966 -0.11441821 -0.081361622 0.78417915 0.61517745 0.12325849
0.10470819 -0.19787805 -0.11418223 -0.10369078 0.82820618 0.55074739 0.13191791
0.11266442 -0.19136357 -0.11616458 -0.022245821 0.54351157 0.83910686 0.096339911
0.13663253 -0.19821987 -0.11246696 0.042407002 0.94480991 0.32486278 0.11432352
0.14397018 -0.19749606 -0.11249542 -0.083850279 0.9012267 0.42515814 0.14291483
0.15561353 -0.19546573 -0.11539671 -0.02478819 0.91115391 0.41131988 0.13166913
0.16517089 -0.19625521 -0.11477012 0.052019347 0.75290024 0.6560756 0.1462265
0.17577462 -0.19423428 -0.11504471 0.073583201 0.64513022 0.76052123 0.12441792
0.18523164 -0.19741538 -0.11429164 0.066821575 0.86048847 0.50506872 0.099723771
0.19635722 -0.19645092 -0.11349289 0.10486444 0.76678163 0.63328457 0.11115605
0.20124783 -0.19687916 -0.11616457 -0.03814758 0.62569696 0.7791329 0.068648078
0.21467482 -0.19598186 -0.1135304 -0.24070181 0.83684653 0.49168131 0.12474225
0.2453067 -0.19641301 -0.11631128 0.50492692 0.80790979 0.30385932 0.13724531
0.25459495 -0.19607711 -0.11292722 0.37810865 0.89325804 0.24315421 0.1504968
0.26420555 -0.19354963 -0.11009867 0.1395026 0.98513615 0.10022838 0.14909671
0.27151307 -0.19145364 -0.11402594 0.12305937 0.98607832 0.11182964 0.14304735
0.28555402 -0.19335751 -0.11554812 0.050470531 0.99247581 0.11155466 0.10552603
0.29589725 -0.19385338 -0.11610935 -0.004830136 0.9994151 0.033854697 0.062945284
0.31604838 -0.1953793 -0.11609089 0.078555718 0.99689066 -0.006158594 0.072436817
0.32564971 -0.19409002 -0.11678438 -0.0026994429 0.99874038 0.050103988 0.079428717
0.3361302 -0.19200921 -0.11563906 -0.21847118 0.97551 0.025503995 0.17085828
0.34806418 -0.19389048 -0.11394787 -0.0025782564 0.99130607 0.13155136 0.14636555
0.35265455 -0.19636087 -0.11631165 -0.071328327 0.99300426 0.09409973 0.13320538
0.36398083 -0.19724579 -0.11505599 -0.2299616 0.96031708 0.15782498 0.14581145
0.37348187 -0.19584532 -0.11555132 -0.24068716 0.92063367 0.30741376 0.16844957
-0.32765424 -0.18494861 -0.11406321 0.74438757 0.20215571 0.63641196 0.18827516
-0.31325868 -0.1871656 -0.11390586 0.61384058 0.51723796 0.5963763 0.20684403
-0.29693839 -0.18467699 -0.11696259 -0.14880535 0.95367306 -0.26146638 0.2560946
-0.22681846 -0.18893211 -0.11844003 -0.11320943 0.98961389 0.088589199 0.19912054
-0.21526046 -0.18230176 -0.11304171 -0.11058181 0.96412021 -0.24133757 0.26863831
-0.20817977 -0.18526125 -0.118638 -0.69143409 0.50515825 0.51646304 0.19860217
-0.19107735 -0.18585894 -0.11729459 -0.34406689 0.35380849 0.86973417 0.22371417
-0.18849571 -0.18424951 -0.11307659 -0.42338297 0.39037734 0.81752819 0.23226514
-0.1735609 -0.18554576 -0.11330535 -0.078588143 0.33710206 0.93818235 0.20957188
-0.15604523 -0.18152572 -0.11616458 0.1867023 0.21189395 0.95929313 0.052800748
-0.14260516 -0.18669832 -0.11616457 0.017777428 0.44346249 0.89611661 0.076684415
-0.1397568 -0.18870524 -0.11616458 0.035795953 0.51310641 0.85757828 0.090227909
-0.12352479 -0.18452525 -0.11616457 -0.036540113 0.50786895 0.86065894 0.1088007
-0.11314014 -0.18400732 -0.11616457 -0.017811285 0.56007367 0.8282513 0.11747184
-0.101539 -0.18573064 -0.11616458 0.11051817 0.46391708 0.87895769 0.12000275
-0.09563306 -0.18406482 -0.11616457 -0.031219568 0.45721364 0.88880879 0.12151352
-0.08501403 -0.18565929 -0.11616457 0.0072790571 0.6028614 0.7978127 0.14377478
-0.072942853 -0.18596558 -0.11616457 0.035579953 0.64194107 0.76592797 0.14441651
-0.067029469 -0.18803124 -0.11616457 0.042071965 0.62618983 0.77853465 0.14787927
-0.055184085 -0.18458331 -0.11616457 -0.02540059 0.5507375 0.83429193 0.17711614
-0.04533539 -0.18461961 -0.11616457 -0.026760096 0.36489722 0.93066317 0.09533935
-0.039226353 -0.18830793 -0.11616457 -0.0089126518 0.51072562 0.85969752 0.13517208
-0.022446012 -0.18316139 -0.11616457 -0.00022655968 0.35294661 0.93564343 0.12688079
-0.016521918 -0.18318594 -0.11616457 -0.016271204 0.3849462 0.92279553 0.1002983
-0.0051813144 -0.18892159 -0.11616457 0.038849734 0.62049663 0.78324616 0.15346785
0.0066722874 -0.18725143 -0.11616457 0.038095973 0.52943754 0.84749311 0.13928585
0.015982423 -0.18623467 -0.11616457 -0.12278512 0.5975312 0.79238904 0.16503982
0.023741608 -0.18513559 -0.11616457 0.079868674 0.46161988 0.88347507 0.14074144
0.032177463 -0.18558465 -0.11616457 0.085472912 0.46409774 0.88165057 0.1204849
0.046721447 -0.18675192 -0.11616457 0.027622793 0.57052189 0.82081771 0.14326361
0.054168567 -0.18296765 -0.11616457 0.046449665 0.46452165 0.88434273 0.13949153
0.065560617 -0.18407589 -0.11616457 -0.10914274 0.44802231 0.8873353 0.13664293
0.075643644 -0.18167317 -0.11616457 -0.0242297 0.42225915 0.90615124 0.11600632
0.084858634 -0.18461148 -0.11616457 0.073176712 0.4198468 0.90464014 0.10184836
0.097584367 -0.18420754 -0.11616457 -0.0039892695 0.55974156 0.82865763 0.14707087
0.10138878 -0.18005526 -0.11616457 0.028596308 0.36962831 0.92873961 0.10959905
0.11378177 -0.18331045 -0.11616457 -0.050950732 0.3495788 0.93552047 0.080477737
0.12352432 -0.18486622 -0.11616457 -0.058184966 0.37745586 0.92419779 0.09345068
0.13456489 -0.18613009 -0.11616457 -0.017021494 0.50584865 0.86245435 0.10900711
0.14903992 -0.18637837 -0.11616457 0.018917272 0.57974136 0.81458092 0.13595249
0.15767686 -0.18538232 -0.11616457 -0.022220938 0.53171933 0.84662914 0.13964388
0.16514942 -0.18493867 -0.11616457 0.034674808 0.5754934 0.81707102 0.14779751
0.17591143 -0.18224722 -0.11616457 0.075803831 0.41858658 0.90500772 0.11796255
0.18771537 -0.18612292 -0.11616457 0.064499646 0.58433485 0.8089453 0.11471722
0.19518586 -0.18675591 -0.11616457 -0.037427817 0.4722451 0.88067234 0.12214403
0.20500045 -0.18434145 -0.11616458 -0.41991466 0.28870574 0.86041892 0.087617248
0.21224378 -0.18538797 -0.11614039 -0.36295903 0.25727311 0.89558429 0.12129934
0.23876342 -0.18938424 -0.11065444 0.23452243 0.94294149 0.23634867 0.21183822
0.24261141 -0.18732078 -0.11740544 0.56440097 0.35813993 0.74376559 0.2097891
0.2562716 -0.18694949 -0.1163193 0.64374298 0.65964121 0.38790262 0.1770938
0.28008765 -0.18927547 -0.11907819 0.046922199 0.99020028 0.13153614 0.16289261
0.3529855 -0.18432596 -0.11230193 -0.32426566 0.9224444 0.2096381 0.25210473
0.36177769 -0.18305349 -0.11566779 -0.70217878 0.39210999 0.59430176 0.19092703
0.37736249 -0.18447869 -0.11591341 -0.50936157 0.2372032 0.82721549 0.16758312
0.40899199 -0.18180862 -0.11191434 0.27963763 0.29420891 0.91391683 0.056542177
0.4152821 -0.18519746 -0.11508219 0.25722566 0.3778916 0.8894003 0.045346349
0.4248082 -0.18271363 -0.11536416 -0.010883114 0.43148127 0.90205628 0.047852859
0.43625566 -0.18245241 -0.11175223 -0.29421195 0.64122659 0.70870852 0.053767607
-0.33021897 -0.17686094 -0.11001672 0.73471242 0.11676455 0.66825432 0.17195746
-0.32751495 -0.17675395 -0.1155122 0.8003211 0.11398103 0.58863777 0.15636216
-0.31102318 -0.17644829 -0.11681924 0.73555332 0.13923553 0.66300434 0.17701173
-0.30607104 -0.17552784 -0.11586094 0.70127481 0.2862131 0.65291327 0.23111627
-0.29641449 -0.17525947 -0.11913058 0.49405357 0.043819502 0.86832649 0.27761552
-0.21591702 -0.17620653 -0.11389738 -0.6813215 0.53453207 0.50007653 0.24349613
-0.20587528 -0.17487136 -0.11563472 0.75280398 -0.26477566 -0.60264421 0.19280365
-0.19205579 -0.17854916 -0.11828259 -0.47130978 0.19789867 0.85947841 0.2090144
-0.18781398 -0.17435704 -0.11199555 -0.32069379 0.078755215 0.94390309 0.20499319
-0.17356609 -0.17339978 -0.11338956 0.090049498 0.090209812 0.9918434 0.18766196
-0.15210348 -0.17589158 -0.11616457 0.1196577 0.10071152 0.98769391 0.0270728
-0.14170684 -0.17340958 -0.11616457 0.0045751021 0.11364404 0.99351102 0.01867152
-0.13610499 -0.17476685 -0.11616458 -0.0081737209 0.14514597 0.98937649 0.023775974
-0.12531981 -0.17475368 -0.11616457 -0.0044923378 0.16085269 0.98696822 0.030109264
-0.11232147 -0.1745967 -0.11616457 0.040926121 0.1581573 0.98656541 0.032416306
-0.10354149 -0.17139116 -0.11616457 0.0041850531 0.045778636 0.99894285 0.0044165682
-0.094798565 -0.17481411 -0.11616458 0.015034978 0.22249728 0.97481728 0.083614849
-0.085131168 -0.17630999 -0.11616457 -0.043317731 0.36230296 0.93105322 0.12381253
-0.073910333 -0.17319807 -0.11616457 -0.0090585873 0.11127916 0.99374789 0.017671769
-0.065114401 -0.17483394 -0.11616457 0.039477363 0.23552278 0.97106671 0.090297408
-0.055907503 -0.17400436 -0.11616457 0.0031688337 0.094379917 0.9955312 0.05372243
-0.043765433 -0.17455143 -0.11616457 0.0026308887 0.17852107 0.98393261 0.070222132
-0.035125207 -0.17299648 -0.11616457 -0.013833677 0.10385463 0.99449623 0.01674922
-0.024731362 -0.17253448 -0.11616457 -0.0033223592 0.078549437 0.99690467 0.010766092
-0.013391056 -0.17272422 -0.11616457 0.018472929 0.10932218 0.99383467 0.014479447
-0.0044305818 -0.17332575 -0.11616458 -0.002647172 0.093246773 0.99563956 0.015025776
0.0062565492 -0.17378759 -0.11616458 0.01903102 0.10951991 0.99380237 0.01685982
0.015988551 -0.1767662 -0.11616457 -0.024260629 0.30199605 0.95300043 0.10360441
0.023934923 -0.17186671 -0.11616458 0.014246334 0.096358851 0.99524468 0.01629482
0.035665352 -0.17336346 -0.11616457 0.011408033 0.10684469 0.99421024 0.019899106
0.043644994 -0.17530829 -0.11616457 -0.061493538 0.24818558 0.96675879 0.086562254
0.055512924 -0.17436302 -0.11616458 -0.0011857515 0.14259398 0.98978055 0.035700541
0.06209169 -0.17571652 -0.11616457 -0.017695239 0.20878145 0.97780216 0.078166142
0.086625062 -0.17382257 -0.11616457 0.011901423 0.12230653 0.99242103 0.015710209
0.093781516 -0.17703319 -0.11616457 0.015975539 0.29791078 0.95446008 0.1034502
0.10746318 -0.17513628 -0.11616457 0.0044021811 0.19547783 0.98069823 0.058127813
0.11452764 -0.1751309 -0.11616457 0.00025025365 0.15406723 0.9880603 0.024894996
0.12432692 -0.17634118 -0.11616457 -0.03028604 0.31411356 0.94890219 0.088396072
0.13841498 -0.17964368 -0.11616457 -0.03517611 0.43272024 0.90084177 0.10355496
0.14579979 -0.17497608 -0.11616457 0.05101753 0.23871197 0.96974939 0.062910773
0.15696409 -0.17153978 -0.11616457 0.00057022041 0.071119718 0.99746758 0.0097723473
0.1653353 -0.17753947 -0.11616457 0.034181643 0.35241526 0.93521929 0.099253684
0.17418087 -0.17678502 -0.11616457 0.004673528 0.32341933 0.94624424 0.092727214
0.18024497 -0.17896134 -0.11616457 0.039095927 0.34359214 0.93830478 0.10966015
0.19396901 -0.17477186 -0.11616457 -0.13011701 0.098747738 0.98656899 0.031929359
0.20511831 -0.17363127 -0.11616457 -0.54389375 0.12106994 0.83037436 0.066063933
0.21547358 -0.17732105 -0.11396885 -0.30890685 0.070953228 0.94844198 0.14685933
0.23801331 -0.17170443 -0.11185389 -0.54795331 -0.12497033 -0.8271212 0.19051662
0.24164699 -0.17665274 -0.11780405 -0.67043155 -0.1268589 -0.73104602 0.19667214
0.25647894 -0.17752595 -0.11658957 -0.81022012 -0.19801812 -0.5516631 0.17022958
0.26809916 -0.17460087 -0.11666526 -0.77860099 -0.23368393 -0.58238506 0.23775512
0.35567975 -0.17302144 -0.11620283 -0.74350357 0.091618232 0.66242629 0.21584897
0.37657097 -0.17361604 -0.11710481 -0.75111568 -0.034178879 0.65928525 0.16277654
0.38181394 -0.17110437 -0.11016996 -0.50351411 -0.12700561 0.85460109 0.20729057
0.41190279 -0.17379336 -0.11489432 -0.40911564 -0.14384322 -0.90107358 0.031360861
0.42260841 -0.17529218 -0.11616457 0.10652883 0.28852719 0.95152706 0.036135502
0.43421793 -0.17535567 -0.11555038 -0.15445039 0.42758632 0.89068234 0.04277112
0.44362971 -0.1748964 -0.11362469 -0.30291623 0.51535773 0.80165339 0.062647052
0.4508819 -0.17029008 -0.11319255 -0.44380128 0.49040499 0.75002903 0.055723064
-0.33137724 -0.16750088 -0.11077252 0.73662245 -0.017169453 0.67608619 0.18830349
-0.32944816 -0.16640446 -0.11343526 0.81127715 0.029587921 0.58391267 0.14656463
-0.313905 -0.16848941 -0.11306354 0.8296352 0.019721257 0.55795747 0.18916818
-0.3028861 -0.16879365 -0.11259963 0.82002479 0.10196804 0.56317133 0.26616722
-0.29860213 -0.16161907 -0.11745193 0.39351234 0.17441906 0.90262181 0.2750662
-0.27173206 -0.16834161 -0.11173978 0.65187073 0.75108761 -0.10455602 0.21437648
-0.26727512 -0.16275458 -0.11310892 0.23904812 0.96873939 0.066332661 0.1293163
-0.24731733 -0.16590251 -0.1118105 -0.33678693 0.93748784 0.087698638 0.22017173
-0.21499956 -0.16692121 -0.11270168 0.7032162 -0.42429212 -0.57049376 0.23433992
-0.20467094 -0.16120443 -0.11406523 0.81139421 -0.079123609 -0.57911915 0.20539252
-0.1909453 -0.16436398 -0.11867017 -0.38864964 0.11494932 0.91418713 0.19776267
-0.18813172 -0.16755109 -0.11432339 -0.36821645 0.16834177 0.91437286 0.20213298
-0.17356607 -0.16557834 -0.11341475 0.032635015 0.080667302 0.99620664 0.20518629
-0.16268303 -0.16728175 -0.11616457 0.2574856 0.075911269 0.96329576 0.081708081
-0.15285544 -0.16292104 -0.11616457 0.13131131 0.060050946 0.98952067 0.025738522
-0.14239237 -0.16527742 -0.11616457 2.231876e-05 1.3127694e-05 1 0
-0.13885581 -0.16900118 -0.11616457 0.0041288547 0.024377571 0.99969429 0.00089301076
-0.12564984 -0.16434905 -0.11616457 -0.00038157811 0.001848569 0.99999821 0
-0.11414602 -0.16608484 -0.11616457 0.00044534798 0.002002947 0.99999791 4.2453883e-07
-0.1059429 -0.16499715 -0.11616458 1.5795309e-05 1.9980853e-05 1 0
-0.09498442 -0.16613019 -0.11616457 1.6854416e-05 3.553008e-05 1 0
-0.082856424 -0.16465721 -0.11616457 3.5930207e-06 8.7973958e-06 1 0
-0.072160289 -0.1654266 -0.11616457 3.6496622e-06 2.5589541e-05 1 0
-0.066114672 -0.16406266 -0.11616457 4.0454129e-06 2.400306e-05 1 0
-0.054358013 -0.16473439 -0.11616457 1.002024e-05 1.7348966e-05 1 0
-0.046051599 -0.16678555 -0.11616457 6.5868044e-05 0.011308839 0.99993604 0.00035760039
-0.035919644 -0.16472282 -0.11616457 5.1128586e-06 3.4940585e-05 1 0
-0.024961993 -0.16518992 -0.11616457 7.761011e-07 1.0530905e-05 1 0
-0.01478922 -0.16622961 -0.11616457 -8.1603859e-05 0.0058478899 0.99998289 9.6351745e-05
-0.0035704828 -0.16168125 -0.11616457 -3.1874924e-07 2.2853743e-05 1 0
0.0072741117 -0.16268134 -0.11616459 -1.0359672e-06 3.196258e-05 1 0
0.014462874 -0.16052674 -0.11616457 -3.055947e-06 3.2444263e-05 1 0
0.028683066 -0.16483675 -0.11616457 -4.718886e-06 1.8429057e-05 1 0
0.035386268 -0.16587311 -0.11616457 1.9918391e-05 0.00047849462 0.99999988 0
0.045719646 -0.16647714 -0.11616457 0.00016588534 0.00040543696 0.99999994 0
0.053612985 -0.16408765 -0.11616458 -1.0884752e-05 1.523414e-05 1 0
0.065096095 -0.16449343 -0.11616458 -1.4963795e-05 3.5172317e-05 1 0
0.077138901 -0.1603692 -0.11616457 -1.0786927e-07 1.6512879e-05 1 0
0.08236365 -0.16125451 -0.11616457 -1.6858656e-05 2.32374e-05 1 0
0.096778154 -0.16331317 -0.11616457 -1.3428147e-05 2.5111893e-05 1 0
0.10536704 -0.16651085 -0.11616458 -1.8616751e-05 1.7738112e-05 1 0
0.11230892 -0.1679235 -0.11616458 -1.6382737e-05 3.3886168e-05 1 0
0.12366176 -0.16516517 -0.11616457 -1.3189404e-05 1.9369672e-05 1 0
0.1353071 -0.16639346 -0.11616458 -7.1246127e-06 2.4221628e-05 1 0
0.14702028 -0.16431166 -0.11616457 -1.6076607e-05 8.768e-06 1 0
0.15409906 -0.16358317 -0.11616457 -8.6459231e-06 2.4604085e-05 1 0
0.16457659 -0.16650668 -0.11616458 -0.0037670704 0.010790649 0.99993473 0.00016062419
0.17076844 -0.16779687 -0.11616457 -0.0015421723 0.011384635 0.99993402 0.00015754237
0.18411277 -0.16665275 -0.11616457 0.00088159385 0.0052925637 0.99998564 7.8889687e-05
0.19591284 -0.16442759 -0.11616457 -0.19736439 0.010737834 0.9802714 0.030664828
0.20856772 -0.16042863 -0.11616457 -0.41744235 -0.025722314 0.90833926 0.079177506
0.2148203 -0.16475953 -0.11351936 -0.40802106 0.093139298 0.9082092 0.15588567
0.237367 -0.16684255 -0.1132369 0.47801131 0.17862666 0.8599987 0.1983134
0.25554082 -0.16168742 -0.11536694 -0.78457516 -0.0085428655 -0.61997473 0.16058072
0.26327848 -0.16428003 -0.11062686 -0.79022318 -0.20017631 -0.57920367 0.25235775
0.30613446 -0.16241668 -0.11386344 -0.021059228 0.97522438 0.22021329 0.14561416
0.31489867 -0.16376302 -0.11257742 0.082287006 0.9295488 0.35939944 0.14875504
0.32486716 -0.16169515 -0.11031395 -0.092290133 0.96077436 0.26152477 0.1801604
0.34768987 -0.16466434 -0.118053 -0.71542734 0.69154823 0.099622436 0.26880679
0.35939068 -0.16466525 -0.11877868 -0.77364427 -0.0060742451 0.63359112 0.20839939
0.36364263 -0.16457552 -0.11323737 -0.86318475 -0.1087713 0.49303219 0.2068325
0.3784098 -0.16297513 -0.11683396 -0.59505063 -0.11627069 0.79523319 0.17098302
0.38179904 -0.16151902 -0.11032639 -0.49493498 -0.054020323 0.86724913 0.22851805
0.40794519 -0.16895312 -0.11084262 -0.41145077 -0.0086772032 -0.91139072 0.062114246
0.4162235 -0.16408712 -0.11555476 -0.31444564 0.004589566 -0.94926435 0.027293285
0.4287256 -0.16755289 -0.11616457 -0.013958368 0.19247726 0.98120219 0.026046554
0.43674842 -0.16449185 -0.11616457 -0.12934065 0.18683514 0.97383958 0.023387836
0.44668522 -0.1630488 -0.11616457 -0.25660288 0.25791392 0.9314695 0.027630886
0.45399261 -0.16350935 -0.11481691 -0.38893908 0.34088552 0.85587585 0.050423365
-0.32773075 -0.15687999 -0.1164708 0.77917486 -0.047883026 0.62497503 0.14443862
-0.31281155 -0.1557515 -0.11448854 0.84464675 -0.059793897 0.5319742 0.16060291
-0.21521977 -0.15545319 -0.1129887 0.65050524 -0.28207168 -0.70517975 0.24442288
-0.20569652 -0.15665823 -0.11540177 0.77724892 0.034038842 -0.62827182 0.17392634
-0.19127713 -0.15533485 -0.11770485 -0.39509267 0.053436778 0.91708577 0.19041026
-0.18896735 -0.15883966 -0.11467621 -0.35956988 0.037335318 0.93237096 0.17948531
-0.17205846 -0.15833439 -0.11616457 0.036575783 0.024028705 0.99904191 0.1655407
-0.1654865 -0.15463802 -0.11616457 0.25868461 -0.032076288 0.96542913 0.11540757
-0.15552641 -0.15006283 -0.11616457 0.17503165 -0.027134839 0.98418885 0.034662385
-0.14448653 -0.15195255 -0.11616457 2.4533099e-05 2.1527332e-05 1 0
-0.13069899 -0.15523195 -0.11616457 1.4930508e-05 1.0804928e-05 1 0
-0.12477532 -0.15541892 -0.11616458 3.0289964e-05 2.6796497e-05 1 0
-0.114647 -0.15291533 -0.11616457 1.6652983e-05 3.826847e-05 1 0
-0.10623415 -0.15741369 -0.11616457 1.3394751e-05 2.4192608e-05 1 0
-0.083926469 -0.15440306 -0.11616457 -4.3485948e-06 2.6815649e-05 1 0
-0.072795421 -0.15322886 -0.11616457 1.4473532e-05 2.6720138e-05 1 0
-0.062992744 -0.15673518 -0.11616457 1.4501329e-05 1.0044544e-05 1 0
-0.05262883 -0.15014619 -0.11616457 8.144556e-06 2.4533199e-05 1 0
-0.045315884 -0.15452975 -0.11616458 2.9820569e-06 3.4896857e-05 1 0
-0.037276022 -0.15584712 -0.11616457 1.5181568e-06 2.1065567e-05 1 0
-0.024630593 -0.15509531 -0.11616457 3.0183023e-06 1.7831162e-05 1 0
-0.015771896 -0.1557788 -0.11616457 1.2810615e-06 3.3021217e-05 1 0
-0.0054532895 -0.15196782 -0.11616457 -1.9918439e-06 1.7427179e-05 1 0
0.0059732855 -0.15401678 -0.11616457 -2.3623261e-06 1.7731905e-05 1 0
0.016687516 -0.15380594 -0.11616457 -2.4861049e-06 7.8931116e-06 1 0
0.02397396 -0.15679713 -0.11616457 -1.2474796e-06 3.2632332e-05 1 0
0.032891925 -0.15647982 -0.11616457 -1.5809828e-06 9.4898769e-06 1 0
0.04372989 -0.15433645 -0.11616457 -3.5017797e-06 3.0715692e-05 1 0
0.053051647 -0.15105572 -0.11616457 -1.0113136e-05 1.7055907e-05 1 0
0.06189869 -0.15556543 -0.11616457 -1.3858633e-05 3.0380839e-05 1 0
0.075435698 -0.15877804 -0.11616457 -7.7514068e-07 1.6104868e-05 1 0
0.089417368 -0.15078418 -0.11616458 -1.72157e-05 3.5890684e-05 1 0
0.093740106 -0.15400292 -0.11616459 -1.4247787e-05 2.9951078e-05 1 0
0.1037133 -0.15435836 -0.11616457 -1.9695817e-05 3.300143e-05 1 0
0.11497322 -0.15669267 -0.11616457 -5.6644631e-06 3.1510939e-05 1 0
0.12482781 -0.15606137 -0.11616457 -1.4942993e-05 2.1932694e-05 1 0
0.13149713 -0.15966679 -0.11616457 -1.2343215e-05 9.87365e-06 1 0
0.14733578 -0.15746804 -0.11616457 -1.5359177e-05 2.3274246e-05 1 0
0.15685219 -0.15600868 -0.11616458 -2.1051768e-05 2.5435977e-05 1 0
0.165328 -0.15472449 -0.11616457 -4.8310067e-05 2.9210179e-05 1 0
0.17432857 -0.15688059 -0.11616457 -4.7652422e-05 3.0413947e-05 1 0
0.19474079 -0.15568568 -0.11616457 -0.1179422 0.015160361 0.99290472 0.015987717
0.20190313 -0.15278736 -0.11616457 -0.30366644 -0.016200243 0.95264059 0.059689596
0.21567076 -0.15527758 -0.11307545 -0.29187742 0.24747528 0.92388499 0.18130487
0.23864815 -0.15604517 -0.1132594 0.53209049 0.24532931 0.81036621 0.21268728
0.24101424 -0.15629067 -0.1168934 0.43008244 0.010456147 0.90272909 0.21202633
0.25469115 -0.15248847 -0.11425962 -0.78235555 0.14563335 -0.60556638 0.17219721
0.26465088 -0.15591183 -0.11241535 -0.73436582 0.083881572 -0.67355084 0.24711075
0.34945536 -0.15267956 -0.1166983 -0.70978659 -0.05017671 0.70262736 0.26395738
0.36213076 -0.15523218 -0.1152077 -0.84036309 -0.15790598 0.5185129 0.16880123
0.37779641 -0.15480544 -0.11571302 -0.59877068 0.069730818 0.79787928 0.17439121
0.40911555 -0.1532273 -0.1120408 -0.39563084 -0.041729849 -0.91746116 0.052348156
0.41303122 -0.15729003 -0.1151062 -0.42051867 -0.027775349 -0.90685862 0.029673899
0.42788491 -0.15296042 -0.11616457 0.10313509 0.040696245 0.99383444 0.0090555698
0.4357942 -0.15559699 -0.11616457 -0.050530437 0.098012425 0.99390149 0.010085862
0.44294128 -0.1546443 -0.11616458 -0.15908316 0.14492619 0.97656995 0.014730639
0.45556512 -0.15559486 -0.11590306 -0.32788807 0.22848746 0.91666955 0.048275009
0.46237466 -0.15736488 -0.11255379 -0.58635241 0.39271706 0.70849425 0.061055716
-0.32687572 -0.14445728 -0.11536268 0.68619144 -0.28221223 0.6704458 0.13464797
-0.31439173 -0.14360455 -0.11242922 0.76194602 -0.33687994 0.55312771 0.17180838
-0.30526853 -0.14163537 -0.11542441 0.51462281 -0.56083131 0.64856112 0.18620934
-0.21532178 -0.14116021 -0.11312164 0.51947743 0.5104754 -0.68524313 0.21244958
-0.19190475 -0.14184846 -0.11565665 0.43419641 0.17201009 -0.88424319 0.20144051
-0.18809012 -0.14396441 -0.11049382 -0.38454542 -0.093313731 0.91837758 0.24588327
-0.17220129 -0.14251573 -0.11616457 0.10642517 0.0013284901 0.9943198 0.15107729
-0.16486657 -0.14739281 -0.11616457 0.25995368 0.050661758 0.96429116 0.10449486
-0.15716197 -0.14456628 -0.11616457 0.24502847 -0.004681428 0.96950454 0.056567654
-0.1443139 -0.14749204 -0.11616458 3.4398407e-05 8.8144125e-06 1 0
-0.13893294 -0.14636011 -0.11616457 2.6733444e-05 -2.9431948e-07 1 0
-0.12604257 -0.14616664 -0.11616458 1.7618007e-05 3.1978132e-05 1 0
-0.11629815 -0.1474582 -0.11616457 2.4053664e-09 1.7214075e-05 1 0
-0.10322975 -0.14560433 -0.11616457 1.2257993e-05 -8.0997261e-06 1 0
-0.094991729 -0.14569539 -0.11616457 1.1985523e-05 1.4466503e-05 1 0
-0.087257437 -0.1423125 -0.11616458 9.717749e-06 7.9428974e-06 1 0
-0.073539145 -0.14624129 -0.11616457 1.1490709e-05 1.8904648e-05 1 0
-0.062430739 -0.14655252 -0.11616457 7.8010835e-06 7.3893161e-06 1 0
-0.05484442 -0.14519483 -0.11616457 1.5305619e-05 3.2353797e-05 1 0
-0.045074333 -0.14847331 -0.11616457 6.6359808e-06 3.847466e-05 1 0
-0.034617066 -0.14343292 -0.11616457 4.1551471e-06 1.6906479e-05 1 0
-0.023774352 -0.14229523 -0.11616458 2.6025473e-06 3.6344893e-05 1 0
-0.017670881 -0.14652216 -0.11616457 1.3479749e-06 2.4841067e-05 1 0
-0.003940444 -0.1471795 -0.11616459 -5.902798e-06 4.4073029e-05 1 0
0.0030222321 -0.14302729 -0.11616458 -2.8746786e-06 1.9980371e-05 1 0
0.015967593 -0.14371915 -0.11616457 -4.1939666e-07 2.6127744e-05 1 0
0.023497522 -0.14636999 -0.11616457 2.9782034e-06 2.9534154e-05 1 0
0.038401127 -0.14456582 -0.11616457 -1.1130568e-05 1.6330059e-05 1 0
0.046637081 -0.14612612 -0.11616457 -1.0591848e-05 2.0634319e-05 1 0
0.05544617 -0.14206159 -0.11616457 -1.2327604e-05 7.3579467e-06 1 0
0.066690847 -0.14509799 -0.11616457 -3.7157829e-06 9.8213677e-06 1 0
0.07479009 -0.1448971 -0.11616457 -1.3434389e-05 8.2159895e-06 1 0
0.086201929 -0.1458143 -0.11616457 -1.4388776e-05 1.6491915e-05 1 0
0.095787771 -0.14924029 -0.11616457 -1.6972466e-05 4.0386316e-05 1 0
0.10667475 -0.14117293 -0.11616458 -1.8421651e-05 2.1443308e-05 1 0
0.11089478 -0.14552993 -0.11616458 -2.7446005e-05 2.541052e-05 1 0
0.12258002 -0.14270723 -0.11616457 -3.9056481e-06 2.3143688e-05 1 0
0.13714227 -0.14610498 -0.11616457 -1.3957678e-05 2.7094602e-05 1 0
0.14716291 -0.1468389 -0.11616457 -1.5699608e-05 -1.774482e-06 1 0
0.15238509 -0.14008398 -0.11616457 -2.8736045e-05 4.0739374e-06 1 0
0.16689073 -0.14719963 -0.11616458 -2.2819257e-05 1.2347777e-05 1 0
0.17498472 -0.1458182 -0.11616458 -3.009288e-05 4.6719124e-05 1 0
0.18500654 -0.14496796 -0.11616457 -3.4978311e-05 7.722917e-06 1 0
0.19166036 -0.14656046 -0.11616457 -0.090699024 -0.0038380483 0.99587101 0.0099345092
0.20336881 -0.14613837 -0.11616457 -0.22029902 0.070680954 0.9728682 0.048180386
0.21529403 -0.14608458 -0.11478236 -0.32984689 0.25696358 0.90838903 0.13719356
0.23856162 -0.14645006 -0.11211976 -0.4851436 0.19732194 -0.85188013 0.24281052
0.24176872 -0.14141814 -0.11478072 0.38004264 0.099732421 0.91957653 0.20347749
0.25563759 -0.1489813 -0.11549306 -0.79656321 0.30549273 -0.52169067 0.17186348
0.26647872 -0.14416438 -0.11479751 -0.58281463 0.58990866 -0.55886936 0.17545001
0.27066106 -0.14041081 -0.11866803 -0.43654662 0.70062834 -0.56439954 0.19650733
0.34952012 -0.14047417 -0.11664859 -0.50940293 -0.56632149 0.64791089 0.20402136
0.36497116 -0.14527842 -0.11150601 -0.86376566 -0.10594169 0.4926309 0.19812022
0.37524468 -0.14693379 -0.11913584 -0.69994402 0.026920136 0.71369016 0.1835859
0.40805542 -0.14123687 -0.11095546 -0.36902881 -0.21417128 -0.904405 0.059781887
0.41709617 -0.14500606 -0.11584587 0.26130763 0.088657118 0.96117544 0.026150202
0.4284783 -0.14408578 -0.11616457 0.043957673 0.014308685 0.99893099 0.0023076481
0.43566072 -0.14373168 -0.11616457 0.041029219 0.0085988017 0.99912089 0.0024624048
0.44673678 -0.14350381 -0.11616457 -0.10879499 0.060438983 0.99222517 0.0071254927
0.45354864 -0.14478001 -0.11616457 -0.15138619 0.1256851 0.9804517 0.013964094
0.46181571 -0.1476914 -0.11616457 -0.39889461 0.17892639 0.89937115 0.048812225
0.47115916 -0.14645851 -0.11118189 -0.67623639 0.30748364 0.66944611 0.057214435
