# .PCD v0.7 - Point Cloud Data file format
VERSION 0.7
FIELDS x y z normal_x normal_y normal_z curvature
SIZE 4 4 4 4 4 4 4
TYPE F F F F F F F
COUNT 1 1 1 1 1 1 1
WIDTH 571
HEIGHT 1
VIEWPOINT 0 0 0 1 0 0 0
POINTS 571
DATA ascii
0.064720422 -0.13438201 -0.11576498 0.040803105 -0.21575677 0.97559428 0.13323998
0.074142992 -0.13784271 -0.1143972 0.052746076 -0.20242693 0.97787583 0.10342149
0.083297767 -0.13306051 -0.11880388 -0.017877664 -0.11774406 0.99288303 0.1137959
0.093392208 -0.13342926 -0.11769855 0.070994593 -0.15952161 0.98463845 0.091110714
0.10514889 -0.13492078 -0.11853626 -0.0853379 -0.17443283 0.98096412 0.10116042
0.11365741 -0.13355242 -0.11806802 0.039283644 -0.20521313 0.97792864 0.09754853
0.12210543 -0.13467583 -0.1143821 -0.025418546 -0.2022377 0.97900647 0.10340166
0.13875073 -0.13183042 -0.11713694 -0.15235561 -0.090878613 0.98413861 0.14059339
0.14183287 -0.13461636 -0.11584684 -0.12079585 -0.18916468 0.97448701 0.12421273
0.15684707 -0.13561065 -0.11970526 -0.50011843 -0.016287535 0.86580384 0.12942764
0.16127513 -0.13340378 -0.11405179 -0.57080013 0.052516997 0.81940782 0.13746066
-0.1616192 -0.12494801 -0.11314134 0.66856891 0.095053658 0.73755026 0.15298013
-0.155968 -0.12446542 -0.11978843 0.35073376 0.091041505 0.93203938 0.16282694
-0.14359848 -0.12557136 -0.11824194 0.065278582 -0.11079888 0.99169666 0.13022983
-0.13461459 -0.1244723 -0.11670471 -0.00093293737 -0.10625052 0.99433893 0.15007186
-0.12554352 -0.12477685 -0.11828681 0.0039873207 -0.17179739 0.98512423 0.13434218
-0.11471012 -0.1254576 -0.11515925 0.031332772 -0.081550114 0.9961766 0.14074977
-0.1062881 -0.12246404 -0.11616758 -0.0048096729 0.042753287 0.9990741 0.12089642
-0.094293073 -0.12399659 -0.11571433 0.089120202 0.056015644 0.99444449 0.094684497
-0.08388903 -0.12551342 -0.11528609 0.040086713 -0.0062332428 0.99917674 0.16461179
-0.072705805 -0.12462023 -0.11571759 -0.059760604 0.047564484 0.99707884 0.14884534
-0.065142252 -0.12476668 -0.11758863 0.00018582556 0.0022199813 0.99999756 0.11433001
-0.053099502 -0.12594397 -0.11365272 -0.00058396882 -0.20334001 0.97910798 0.17992838
-0.04628389 -0.12478982 -0.11679394 0.013425912 -0.13262697 0.99107504 0.11305107
-0.032693371 -0.12449892 -0.11710014 0.19592103 -0.19992565 0.96002328 0.10604937
-0.023863655 -0.12326144 -0.11709373 0.16648573 -0.14747764 0.9749527 0.070500754
-0.015416798 -0.12312665 -0.11847658 0.16626035 -0.087136298 0.98222446 0.042357139
-0.0067166872 -0.12478282 -0.11670659 -0.0038350127 -0.018960193 0.99981284 0.0025929171
0.0064295959 -0.12539783 -0.11710469 -0.0068874974 -0.01227313 0.99990094 0.0040757977
0.017021928 -0.12251554 -0.11570742 -0.18745656 -0.072778165 0.97957313 0.059058581
0.028515583 -0.12448763 -0.11617804 -0.19750461 -0.15813753 0.9674629 0.10532916
0.035630025 -0.12594561 -0.11655352 -0.16573644 -0.22026944 0.96125585 0.11370245
0.047270082 -0.12338466 -0.11432827 0.085978903 -0.10465203 0.99078536 0.17998551
0.05517789 -0.12407108 -0.11433154 0.061189532 -0.051798757 0.99678117 0.16914396
0.065492809 -0.12171987 -0.11985216 0.019271934 0.13702844 0.99037969 0.10902253
0.075275958 -0.12539695 -0.1155676 0.013148709 0.04918224 0.9987033 0.12711117
0.085523188 -0.12506008 -0.11670324 0.053554032 0.046106547 0.99749994 0.12952901
0.095666111 -0.12401965 -0.11709785 0.023887746 0.061118174 0.99784464 0.1399523
0.10488249 -0.12505352 -0.11710281 -0.12958038 0.039185338 0.99079436 0.12805824
0.11589795 -0.12296156 -0.11827817 0.016926315 0.01971698 0.99966234 0.1238979
0.12499792 -0.12328092 -0.11785962 -0.029788597 -0.044906478 0.99854696 0.10819754
0.13567182 -0.12457921 -0.11640895 -0.098809995 -0.038704887 0.99435335 0.12734477
0.14286287 -0.12684405 -0.11698692 -0.039591685 -0.17187668 0.98432261 0.14462541
0.15422028 -0.12665819 -0.11943668 -0.38091874 -0.077565297 0.92134929 0.13112347
0.16072746 -0.12662216 -0.11540779 -0.53594977 -0.026833093 0.84382337 0.1384348
-0.16009483 -0.11278868 -0.11694655 0.55244809 0.075140707 0.83015358 0.12874441
-0.15525746 -0.11788866 -0.11968472 0.25823978 -0.047793716 0.96489799 0.13635148
-0.14446956 -0.11416632 -0.11795729 -0.094065137 -0.040544 0.99474019 0.15433234
-0.13386795 -0.1170383 -0.11464084 0.019378552 -0.069274805 0.99740946 0.1750506
-0.12176458 -0.11396158 -0.11428335 0.19700678 0.063769385 0.97832596 0.16068652
-0.11427201 -0.11415526 -0.11428427 0.14618112 0.21629764 0.96532202 0.15237884
-0.10499203 -0.11610556 -0.11484645 0.12548752 0.089324541 0.98806578 0.11078952
-0.09695705 -0.11454858 -0.11649804 0.071247958 0.26053697 0.96283144 0.087543778
-0.083563961 -0.11641213 -0.11844251 0.062749751 0.14054902 0.98808324 0.071587846
-0.07458318 -0.11722414 -0.11982881 -0.002778287 0.19639631 0.98052067 0.11027031
-0.066274174 -0.11499121 -0.11613122 -0.066670753 0.21421292 0.974509 0.097357877
-0.055668365 -0.11485848 -0.11636103 -0.23212281 0.21660185 0.94826293 0.10590394
-0.045775495 -0.11474475 -0.11428708 -0.16478163 0.10600781 0.98061675 0.14624412
-0.036223423 -0.11434378 -0.11479932 0.074190319 -0.080792852 0.99396592 0.13190192
-0.023519181 -0.11513399 -0.1177448 0.1820482 -0.057745259 0.9815926 0.075432979
-0.015531446 -0.11485898 -0.11705172 0.19643643 -0.047870576 0.97934729 0.052594204
-0.0030931856 -0.11519816 -0.11760702 -0.010814162 -0.018233992 0.99977529 0.0031050893
0.004524359 -0.11387823 -0.11520427 -0.014046758 -0.0089375023 0.99986136 0.0030771308
0.017528804 -0.11321674 -0.11796539 -0.22094691 0.016395794 0.97514802 0.067998044
0.024340788 -0.11578825 -0.11705661 -0.26617709 -0.079284944 0.96065789 0.087376431
0.034744982 -0.114554 -0.11705042 -0.083463676 0.025679125 0.99617982 0.12039872
0.043889746 -0.11452868 -0.11649711 0.034690257 0.083892137 0.99587077 0.13005003
0.054802615 -0.11672562 -0.11745613 0.1923272 0.08171808 0.9779225 0.12065652
0.063482903 -0.11538788 -0.11613265 0.02098521 0.25553897 0.96657097 0.10937252
0.075655885 -0.11550007 -0.11797654 -0.01442703 0.17847002 0.98383951 0.098905221
0.084980115 -0.11528738 -0.11780827 -0.021479776 0.18557158 0.98239595 0.091992401
0.093006581 -0.11485428 -0.11797326 0.044661812 0.1979163 0.97920102 0.087585762
0.10604589 -0.11304418 -0.11427898 -0.083911128 0.25846568 0.96236914 0.093264624
0.11447209 -0.11403063 -0.11612603 -0.13943046 0.24207498 0.96018696 0.11296503
0.12699972 -0.11649342 -0.11761349 -0.032402575 -0.043247037 0.99853879 0.13888769
0.13565119 -0.11348443 -0.1154393 -0.070544064 -0.044801872 0.99650204 0.13188656
0.14334007 -0.11568127 -0.11707902 -0.069083326 0.0070985579 0.99758571 0.12510201
0.15420015 -0.11630753 -0.11956468 -0.31179819 0.0068774768 0.95012355 0.13393621
0.16184771 -0.11188539 -0.1125024 -0.70934474 0.035598777 0.70396215 0.12562007
-0.16139776 -0.10365485 -0.11360425 0.66261554 0.063790478 0.74623811 0.17561653
-0.155709 -0.10639702 -0.11970674 0.28675234 -0.010140643 0.95795107 0.14060678
-0.1446325 -0.10639501 -0.11976524 0.029801054 -0.090217255 0.99547613 0.13906686
-0.13394803 -0.1066369 -0.11690493 -0.034472734 -0.11138707 0.99317896 0.16123691
-0.12668586 -0.10815334 -0.11425565 0.23198611 0.060130134 0.97085887 0.17842579
-0.1153167 -0.1055017 -0.11700533 0.12097011 0.11024272 0.98651546 0.081210002
-0.1030305 -0.10447782 -0.11700091 0.05313161 0.12702319 0.99047577 0.030568123
-0.095190756 -0.10428105 -0.1186568 0.019417252 0.061863318 0.99789572 0.015982883
-0.086770199 -0.10730552 -0.11609364 0.050932921 0.13259558 0.98986065 0.044028603
-0.076723754 -0.10484318 -0.11700229 0.023562428 0.054221362 0.99825096 0.023845905
-0.063232467 -0.10601813 -0.1197706 -0.024228619 0.055140231 0.99818462 0.020016529
-0.056360085 -0.10584257 -0.11608604 -0.23566623 0.16718969 0.95734477 0.079265408
-0.045522708 -0.10645774 -0.11631972 -0.28730646 0.153724 0.94542265 0.12019801
-0.03504483 -0.10349818 -0.11600449 0.038414471 -0.0038854794 0.99925435 0.13970228
-0.025263559 -0.10426938 -0.11660441 0.20777391 -0.035344902 0.97753811 0.092163242
-0.012564037 -0.10503331 -0.11838446 0.10610905 -0.019019376 0.99417257 0.025281034
-0.0046810573 -0.10728719 -0.11740916 -0.01660452 -0.00057739863 0.99986196 0.0025813722
0.0013877305 -0.10178452 -0.11698716 -0.011953769 -0.028897371 0.99951088 0.0028759788
0.016149415 -0.10594396 -0.11898077 -0.10285392 -0.033942126 0.9941172 0.028557179
0.025877304 -0.10535257 -0.11792606 -0.20848854 0.055171631 0.97646743 0.089301124
0.034898419 -0.10454445 -0.11508352 -0.047648363 -0.021560935 0.99863142 0.15100087
0.044295277 -0.10713755 -0.11701391 0.11975677 0.15678076 0.98034596 0.11929486
0.05399308 -0.10349562 -0.11630487 0.20013672 0.064666994 0.97763157 0.053777307
0.064731561 -0.10491336 -0.11739697 0.049785044 0.068854488 0.99638373 0.019458456
0.07602524 -0.10453284 -0.11699972 0.0059728269 0.09650369 0.99531472 0.047775541
0.083605595 -0.10347081 -0.11699528 -0.0042970851 0.062651537 0.99802613 0.025663644
0.094546854 -0.10767979 -0.11793736 -0.027588448 0.079025932 0.99649078 0.044763133
0.10404986 -0.10468105 -0.11792213 -0.018378647 0.12318343 0.99221379 0.035223663
0.11312917 -0.10627137 -0.11700949 -0.13136853 0.15660962 0.97888499 0.081769928
0.12414291 -0.10231211 -0.11606874 -0.3667475 -0.0057050874 0.93030304 0.14100052
0.13064484 -0.10105518 -0.11500251 -0.092029758 -0.042615037 0.9948439 0.15866171
0.1436161 -0.10384937 -0.11857109 -0.039249644 -0.03984097 0.99843484 0.12078691
0.15776139 -0.10468172 -0.11901511 -0.45354301 0.020181039 0.89100587 0.11543106
0.16187523 -0.10525137 -0.11240214 -0.72291911 -0.024029106 0.69051474 0.12043642
-0.16151053 -0.097588904 -0.11329065 0.72823739 -0.064379498 0.68229437 0.15417273
-0.15819517 -0.095931403 -0.11922318 0.44426626 -0.035828829 0.89517808 0.12726539
-0.14682262 -0.093597189 -0.11814179 0.033269104 -0.00250618 0.99944323 0.1438469
-0.13333392 -0.095594645 -0.11442808 -0.057017963 0.034392484 0.99778062 0.20087907
-0.12324785 -0.092385858 -0.11694048 0.26383948 0.014386174 0.96445936 0.11587813
-0.11469635 -0.095754512 -0.11603641 0.23771791 0.044046566 0.97033501 0.071843036
-0.10489807 -0.097598024 -0.11641401 0.034084387 0.013522387 0.99932742 0.0038021863
-0.093770124 -0.094016381 -0.1161956 0.0082596652 -0.0083457297 0.99993104 0.0043209214
-0.086858317 -0.09403374 -0.11556859 0.01347601 -0.034726296 0.99930596 0.005606832
-0.075740002 -0.094658524 -0.11695064 0.018595239 -0.049083784 0.99862152 0.0046458584
-0.065761887 -0.095039569 -0.11879317 -0.011231501 -0.008651224 0.99989951 0.0044247182
-0.054247022 -0.095011935 -0.11860923 -0.11119466 0.023448896 0.99352199 0.030338712
-0.044840287 -0.095205553 -0.11603415 -0.26374716 -0.00082370447 0.96459144 0.10303196
-0.036531288 -0.095623575 -0.11640406 -0.042590111 -0.047727924 0.99795198 0.11574043
-0.026953919 -0.094481491 -0.11787057 0.21652651 0.017719515 0.976116 0.10828914
-0.012867837 -0.09560632 -0.11577328 0.094032668 -0.052319553 0.99419338 0.025812155
-0.0081539582 -0.097549133 -0.1169659 0.034124203 -0.056448624 0.99782211 0.010719776
0.0052055819 -0.094155446 -0.11763896 -0.0068646967 -0.036286484 0.99931782 0.0037967016
0.014602443 -0.095444299 -0.11419506 -0.17636772 0.019720668 0.98412681 0.04289408
0.023687752 -0.096556477 -0.11489056 -0.30359957 -0.082038276 0.94926131 0.10126352
0.033844177 -0.092516072 -0.11479511 -0.040406849 0.030885166 0.99870586 0.10850523
0.044068944 -0.092106991 -0.11417916 0.23977211 0.035772596 0.9701699 0.099639028
0.056949805 -0.09664724 -0.11751322 0.12935568 -0.051021893 0.99028474 0.018731572
0.063537605 -0.092365399 -0.11654566 0.037613016 -0.038412549 0.99855381 0.004218807
0.074784406 -0.095621504 -0.11787663 0.0020397373 -0.032725953 0.99946225 0.004225764
0.085050583 -0.092973739 -0.11878291 -0.004168299 -0.038535237 0.99924856 0.0043348107
0.093780518 -0.094495691 -0.11750285 -0.0053889873 -0.025155142 0.99966902 0.0042429715
0.10549919 -0.095594846 -0.11879617 -0.078973345 -0.016380053 0.99674213 0.011850119
0.11592773 -0.096138209 -0.11530224 -0.21247776 -0.036650266 0.9764784 0.10832966
0.12753992 -0.09704826 -0.11604313 -0.30047259 0.008072501 0.95375627 0.14223444
0.13435875 -0.094218738 -0.11574709 -0.037543315 0.014684268 0.99918717 0.18977422
0.14284845 -0.095710315 -0.11737651 -0.049097922 0.0049667237 0.99878156 0.12455041
0.15868758 -0.093448251 -0.11823673 -0.37403971 0.010052566 0.92735821 0.12276857
-0.1608566 -0.087860338 -0.11490226 0.55736142 0.0030109945 0.83026451 0.1381333
-0.15361777 -0.086487517 -0.11962702 0.14075068 -0.039562885 0.98925424 0.14329089
-0.14528051 -0.085098274 -0.11700129 0.076735049 -0.070554636 0.99455208 0.12682737
-0.1347795 -0.085772254 -0.11598808 -0.09492515 0.033648286 0.99491554 0.17383084
-0.12612848 -0.086522169 -0.11599136 0.27277899 0.071248762 0.95943487 0.16095379
-0.11560567 -0.082738914 -0.11523733 0.20311718 -0.044093467 0.97816116 0.074934259
-0.10455056 -0.085721381 -0.11966518 -0.0035504622 -0.012254547 0.99991864 0.0033804299
-0.098364398 -0.088511296 -0.11416201 0.0083341682 -4.7343499e-05 0.99996531 0.0030199809
-0.070620187 -0.088417612 -0.11692055 0.012816556 -0.02520741 0.99960011 0.0058190431
-0.066109359 -0.083470047 -0.11413798 0.017442789 0.0051959935 0.99983436 0.006269203
-0.059321452 -0.08735124 -0.11599591 -0.10487182 -0.020088293 0.99428284 0.025808536
-0.043170717 -0.084185511 -0.11781842 -0.15946251 0.0021453856 0.98720169 0.091093905
-0.033038955 -0.085443482 -0.11690606 0.10060365 0.05866655 0.99319541 0.11395922
-0.025504868 -0.086308792 -0.116358 0.24442862 0.072220974 0.96697402 0.1040495
-0.014537938 -0.084983192 -0.11690395 0.097218625 -0.046644408 0.99416941 0.03335746
-0.0047771586 -0.084566973 -0.11634962 -0.011273272 -0.018630641 0.99976295 0.0041307425
0.0050032246 -0.086752765 -0.11599267 -0.013192369 -0.029020872 0.99949175 0.0043030316
0.014548545 -0.08453685 -0.11634915 -0.14266905 -0.017047472 0.98962367 0.037754819
0.025098 -0.086202778 -0.11635752 -0.15339023 -0.0047866465 0.98815405 0.077154465
0.03428914 -0.086256318 -0.11382835 -0.010517315 0.04713786 0.99883306 0.15931423
0.042642187 -0.085786395 -0.11414901 0.14407954 0.018030614 0.98940188 0.10505673
0.058174033 -0.084031902 -0.11781786 0.10576008 -0.0050162873 0.99437904 0.018615985
0.066093102 -0.085003063 -0.11621429 0.018954167 -0.010235968 0.99976796 0.0050500571
0.07705953 -0.087007254 -0.11415485 -0.0059402972 -0.034889154 0.9993735 0.0037951947
0.086446539 -0.084662616 -0.11690143 0.019780107 -0.026070027 0.99946439 0.0046845633
0.095628187 -0.083866969 -0.11413988 0.0063894158 -0.012653654 0.99989957 0.0044256276
0.10564545 -0.083890818 -0.11505904 -0.12706795 0.013450529 0.99180281 0.022783911
0.11665214 -0.086016119 -0.1178276 -0.14255501 0.022757363 0.9895252 0.075612597
0.12490056 -0.08735235 -0.11636338 -0.16768791 -0.065917015 0.98363394 0.11707339
0.13373442 -0.085602112 -0.11419428 -0.16692354 -0.16008832 0.97288656 0.19583303
0.14377406 -0.088444576 -0.11709915 -0.056230452 -0.030378729 0.99795556 0.12431721
0.15397686 -0.085773289 -0.11962169 -0.23662607 -0.040632136 0.97075081 0.13638289
0.16271071 -0.089050181 -0.11020677 -0.75716347 -0.047795285 0.65147454 0.13940926
-0.16173398 -0.074343443 -0.11261505 0.62062335 -0.020829853 0.78383213 0.11920525
-0.15458468 -0.07714995 -0.11957852 0.20659387 -0.068167008 0.97604924 0.11612786
-0.14675456 -0.073571198 -0.11838832 0.035987828 -0.0033568377 0.99934661 0.12292556
-0.13565297 -0.075103633 -0.11685396 0.049195945 0.083067909 0.99532878 0.13490219
-0.12518339 -0.074464492 -0.11567005 0.20059085 -0.092127889 0.97533363 0.12644416
-0.11821414 -0.072650328 -0.11684132 0.12960331 -0.0096605625 0.99151886 0.05358056
-0.10333417 -0.076227695 -0.117411 0.061958313 -0.0025978859 0.99807537 0.0091272136
-0.093819648 -0.07396657 -0.11409267 -0.0066973786 0.021608012 0.99974412 0.0041060597
-0.08337488 -0.075513236 -0.11777439 0.0081854593 0.023635009 0.99968714 0.0050911889
-0.075063825 -0.07354933 -0.11776482 0.02864608 0.018908596 0.99941069 0.004346828
-0.068203583 -0.078765385 -0.11411554 0.017639987 0.004582346 0.99983388 0.0058583026
-0.05369373 -0.075067915 -0.11646016 -0.13591427 0.029691476 0.9902755 0.031910904
-0.044842344 -0.073710077 -0.11409145 -0.23018783 0.031342294 0.97264135 0.13404427
-0.032576539 -0.079678863 -0.11687687 0.027141724 0.048304144 0.99846387 0.13469106
-0.021446656 -0.07199946 -0.11408329 0.20151943 -0.0032794136 0.97947901 0.10105044
-0.014071615 -0.077387199 -0.11410898 0.12362312 -0.034176584 0.99174052 0.02896731
-0.0061340178 -0.078067727 -0.11805031 -0.014397345 -0.011461307 0.99983066 0.0041579898
0.0060052522 -0.072482936 -0.11408559 -0.036520366 0.00082416355 0.99933255 0.0064195544
0.015384072 -0.075727426 -0.11740856 -0.099497586 0.014497339 0.99493217 0.020124651
0.025111668 -0.075606458 -0.11685669 -0.14459497 0.021642515 0.98925418 0.071934983
0.033992156 -0.075611278 -0.11580892 -0.03097086 0.046244647 0.99844992 0.088722602
0.046004813 -0.074975252 -0.11409748 0.23636895 0.058260877 0.96991509 0.067260437
0.052702747 -0.07556773 -0.11810885 0.10181934 -0.0094220918 0.99475831 0.039816126
0.063928336 -0.074447401 -0.11409497 0.024913603 0.0080584409 0.99965715 0.006749352
0.076315813 -0.075111806 -0.11409813 -0.0072350856 0.00096953555 0.99997336 0.0060496959
0.085308835 -0.074870937 -0.11791262 0.017735748 0.0023256815 0.99983996 0.0062775058
0.093666099 -0.074705221 -0.11740296 0.035852656 -0.020147771 0.99915397 0.0045879278
0.10622662 -0.075720258 -0.11593875 -0.11095212 0.003704652 0.99381888 0.02215638
0.11537667 -0.074656896 -0.11685169 -0.22314216 0.019549353 0.97458988 0.090496995
0.12501405 -0.074815415 -0.11593378 -0.35766035 -0.082663491 0.93018591 0.14057954
0.1363526 -0.074605443 -0.1174026 -0.057823531 -0.055446066 0.99678588 0.17055924
0.14212908 -0.076379098 -0.11715048 -0.057359044 -0.017041888 0.99820817 0.15334864
0.15203194 -0.076236956 -0.11958888 -0.19190334 0.020811092 0.98119318 0.13888225
0.16086048 -0.079115227 -0.11485218 -0.3988983 0.025144937 0.91665035 0.15133491
-0.16121012 -0.066987157 -0.11391066 0.60844702 -0.010912265 0.79351956 0.12437617
-0.15593003 -0.065013483 -0.11951496 0.22180305 6.6722336e-05 0.97509146 0.13411517
-0.14382794 -0.06648092 -0.11621602 0.063993461 -0.050222687 0.99668574 0.12832607
-0.13306633 -0.063955575 -0.11640494 0.055485681 -0.033099357 0.99791068 0.129621
-0.12380024 -0.065436028 -0.11641245 0.2331973 -0.044815958 0.97139615 0.095997125
-0.11603526 -0.06535089 -0.11641233 0.19614233 0.0027416446 0.98057163 0.068222076
-0.10383058 -0.064513601 -0.11680123 0.082152858 0.0048698736 0.9966079 0.013229981
-0.095583774 -0.064278722 -0.11624936 0.013662721 0.0033672862 0.999901 0.0035673073
-0.085581914 -0.066006728 -0.11562829 0.0056552985 0.021416441 0.99975467 0.0050334786
-0.077989586 -0.062682994 -0.11954552 0.0070048762 0.034359623 0.999385 0.0041496963
-0.062644333 -0.066590376 -0.11681111 0.0039021585 0.0084987478 0.99995619 0.0055741975
-0.05736912 -0.066338718 -0.11818716 -0.10743431 0.01066441 0.99415505 0.024522522
-0.045893103 -0.066312477 -0.1184627 -0.11415983 -0.0067630885 0.99343944 0.062438715
-0.033201031 -0.064184241 -0.11817649 -0.017304935 -0.10461293 0.99436241 0.12188341
-0.026726708 -0.065325521 -0.11625478 0.19508307 -0.059459683 0.97898275 0.10534128
-0.018916536 -0.060484942 -0.11953409 0.083671451 -0.011743053 0.9964242 0.046898138
-0.0045288824 -0.065284945 -0.11611615 0.0011334479 0.012426089 0.99992216 0.0042777658
0.0064813932 -0.063582055 -0.11404316 -0.03319753 0.015434874 0.99932963 0.0077485549
0.016921597 -0.063976064 -0.11845112 -0.12303213 0.019536784 0.99221033 0.037675336
0.024738176 -0.065411679 -0.11588722 -0.15876326 -0.05917291 0.98554194 0.095954098
0.034180034 -0.0652759 -0.11460423 -0.078078717 0.011170752 0.99688458 0.13604933
0.044387151 -0.064797595 -0.11719622 0.07978458 0.036511838 0.99614316 0.04698943
0.05524426 -0.065332867 -0.11833526 0.1164724 0.010060704 0.9931429 0.018920012
0.065834202 -0.066474386 -0.1154339 0.0056186276 0.013794236 0.99988902 0.0060046292
0.07346043 -0.061748795 -0.11678723 0.003319063 0.010546116 0.99993885 0.005595501
0.085770369 -0.063767068 -0.11679798 0.0093749445 0.024943808 0.99964488 0.0064783781
0.096176818 -0.060834445 -0.11953591 -6.8236375e-05 0.018777117 0.99982369 0.0038433215
0.1063742 -0.066271804 -0.11625934 -0.096065067 -0.0051474818 0.9953618 0.017948672
0.1164713 -0.064397529 -0.11680058 -0.16096275 0.052444257 0.98556608 0.085390933
0.12353611 -0.067107163 -0.11681452 -0.32584578 -0.031793661 0.94488817 0.13865109
0.13479121 -0.062613644 -0.11657466 -0.12747374 0.10884229 0.98585182 0.15419376
0.14354707 -0.065972142 -0.11550952 -0.028085917 -0.0051989169 0.99959201 0.16835316
0.15602547 -0.065836683 -0.11908314 -0.12138508 -0.060984809 0.99073029 0.14501171
0.16056316 -0.06617514 -0.11554575 -0.27490041 -0.03494763 0.96083736 0.15944962
-0.16176073 -0.059048571 -0.11247621 0.66713816 -0.084228083 0.74015695 0.14064544
-0.15741761 -0.054960568 -0.11912113 0.31535724 0.033216693 0.9483915 0.1426896
-0.14446291 -0.051956255 -0.115689 -0.019689914 -0.029556228 0.9993692 0.16260442
-0.13354342 -0.053615637 -0.1159085 0.15799993 -0.06709677 0.98515683 0.17441301
-0.12458575 -0.054060895 -0.1181244 0.23230992 0.015142431 0.97252399 0.099806868
-0.11607112 -0.055954121 -0.11675835 0.20273958 -0.012566056 0.97915202 0.082906395
-0.10413036 -0.055055752 -0.11675406 0.043692175 0.025382277 0.99872255 0.0076129432
-0.096937932 -0.056282669 -0.11767743 0.01217395 0.0078149736 0.99989533 0.0029018002
-0.085619695 -0.054273099 -0.11675053 0.029796455 0.0100148 0.99950582 0.0036963818
-0.074207276 -0.053902514 -0.11674924 -0.0030081423 0.0023800815 0.99999267 0.0052014403
-0.064575545 -0.057351291 -0.11951783 -0.01541879 0.0032057695 0.99987602 0.0060193823
-0.056050662 -0.056261536 -0.11676015 -0.14735851 0.029205719 0.98865181 0.025772206
-0.042980317 -0.05277298 -0.11765967 -0.098036312 -0.0058915992 0.99516541 0.073314846
-0.03492935 -0.054752395 -0.11668098 -0.07217069 0.045692854 0.99634516 0.13578707
-0.023385048 -0.055050001 -0.11675415 0.15666409 -0.034260221 0.98705757 0.076659016
-0.014070449 -0.054322489 -0.11620031 0.18845505 0.043682117 0.98110992 0.064681575
-0.0048026424 -0.054483794 -0.1176683 0.020762742 0.02319528 0.99951535 0.0049228771
0.0044159186 -0.056038409 -0.11510788 -0.011444961 0.012931904 0.99985093 0.0048169037
0.019052323 -0.055886291 -0.11813432 -0.15466541 0.01910045 0.9877823 0.056582067
0.027249275 -0.053420871 -0.11399472 -0.26474595 0.0055923793 0.96430194 0.13357973
0.034852471 -0.055271577 -0.11571013 0.058758654 -0.0053166985 0.99825805 0.15255487
0.045457158 -0.056265909 -0.11538424 0.095488191 -0.013616903 0.99533743 0.059937123
0.055235565 -0.053627085 -0.11766411 0.083210923 0.021019667 0.99631023 0.015144098
0.06266544 -0.055280037 -0.11950706 0.021074533 0.0050806729 0.99976498 0.0058109523
0.074466109 -0.05603119 -0.11400716 0.011711299 0.008839827 0.99989235 0.0061266175
0.093001977 -0.053799249 -0.11714134 0.0052224738 0.01362069 0.99989367 0.0045217518
0.10598729 -0.055534251 -0.11872201 -0.053865757 -0.006007039 0.99853009 0.0067509627
0.11634848 -0.056589663 -0.1163687 -0.15242508 0.063811094 0.9862529 0.061057821
0.12282181 -0.053852934 -0.11491366 -0.33501503 0.010022733 0.94215953 0.11341728
0.13459224 -0.055075839 -0.11583666 -0.062521614 -0.039936583 0.9972443 0.16178323
0.14362805 -0.056907833 -0.11802814 -0.063339539 -0.018040888 0.99782896 0.12944241
0.15713497 -0.054285478 -0.11936585 -0.017433921 -0.0068583395 0.99982452 0.13340586
0.16136357 -0.054724488 -0.11346227 -0.64394271 -0.036010295 0.76422578 0.15875582
-0.16194481 -0.044134036 -0.1119379 0.80443072 0.032023828 0.59318274 0.15751776
-0.15576901 -0.048777696 -0.11944115 0.29993168 -0.095894046 0.94912869 0.14149188
-0.14451918 -0.043955393 -0.11669905 -0.013134252 -0.046046961 0.99885291 0.14339872
-0.13478445 -0.043478761 -0.11582383 0.11773555 -0.010105081 0.99299359 0.16003335
-0.12535131 -0.045331504 -0.11395615 0.38610798 -0.030002149 0.92196554 0.16060039
-0.11382277 -0.043542176 -0.11669694 0.23201121 -0.027901053 0.97231287 0.072868787
-0.097011015 -0.044275634 -0.11725024 0.027709097 -0.017246602 0.99946731 0.003337712
-0.085596867 -0.045649234 -0.116707 0.023335392 -0.0045753894 0.99971724 0.0044042198
-0.075281851 -0.045558758 -0.11640106 -0.017671943 -0.022388134 0.9995932 0.0045002266
-0.064901792 -0.043550629 -0.11944614 -0.020153126 -0.02828439 0.99939668 0.0046813781
-0.054911468 -0.046296086 -0.11533586 -0.20913988 -0.018794393 0.97770512 0.053677589
-0.043739244 -0.045393921 -0.11670692 -0.17010537 -0.047291249 0.98429048 0.093152791
-0.036801368 -0.043986998 -0.11598685 -0.047603969 -0.067798965 0.99656272 0.12881209
-0.026347553 -0.047983069 -0.11580238 0.18073727 0.01204747 0.98345762 0.10055698
-0.016822992 -0.04712921 -0.11671439 0.15400846 0.033139843 0.9875136 0.070858955
-0.0049884105 -0.045013983 -0.11578763 0.0048876833 0.028382486 0.99958521 0.0037940443
0.0048785475 -0.045212302 -0.11578856 -0.035335772 0.024496114 0.99907523 0.0039282176
0.01539833 -0.044297729 -0.11761723 -0.1270629 0.013280952 0.99180573 0.036825299
0.024700284 -0.046569843 -0.11579538 -0.20302564 -0.028295116 0.97876453 0.084572971
0.035735585 -0.046159279 -0.11505981 0.1840445 -0.021776371 0.98267674 0.16999683
0.042273577 -0.046210058 -0.1153353 0.16033158 -0.011918304 0.98699129 0.090862021
0.058172286 -0.040953942 -0.11393528 0.15653361 -0.0012243785 0.98767191 0.037480071
0.062040187 -0.044528782 -0.11807619 0.015695397 0.0093794493 0.99983281 0.0059521305
0.075835764 -0.044508271 -0.11807656 -0.0081928987 -0.022746226 0.9997077 0.005971028
0.082251996 -0.043605663 -0.11669683 0.0082000978 -0.033002775 0.99942166 0.0051031802
0.096587941 -0.045602009 -0.11517952 -0.01130146 -0.029525369 0.99950016 0.0043871743
0.10436837 -0.044785395 -0.11578662 -0.064417996 -0.011093948 0.99786139 0.0073726401
0.115781 -0.043412298 -0.11669585 -0.20524167 -0.038552757 0.97795165 0.073268346
0.12470106 -0.04574357 -0.11533296 -0.32868847 -0.018549897 0.94425619 0.11256811
0.13361505 -0.043674 -0.11542781 -0.10213307 0.025912143 0.99443322 0.13139521
0.14192915 -0.042389993 -0.11293932 -0.056460712 -0.0066215652 0.99838281 0.16302322
0.15923417 -0.04745448 -0.1188259 -0.37027714 -0.01198213 0.92884409 0.14439468
0.16267124 -0.042678759 -0.11008599 -0.73704565 -0.064621069 0.6727466 0.17528598
-0.16143662 -0.038054228 -0.11319792 0.6475395 -0.036479875 0.76115823 0.15761673
-0.15292546 -0.038822182 -0.11941154 0.228019 -0.00029592641 0.97365665 0.13255654
-0.1432405 -0.035410587 -0.11713453 0.03202739 0.120252 0.9922266 0.15082324
-0.13330087 -0.035404831 -0.11444704 0.24851955 -0.093823411 0.96407223 0.19727816
-0.12539947 -0.034483254 -0.11939905 0.20454825 -0.011969848 0.97878331 0.12440131
-0.11121127 -0.037161108 -0.11574942 0.22804414 -0.019075956 0.97346389 0.064035766
-0.10470857 -0.034998339 -0.11720361 0.074164487 -0.0037832819 0.99723887 0.018237874
-0.093308359 -0.037303131 -0.11575016 0.03654654 -0.0070471186 0.99930704 0.0037103819
-0.085613936 -0.033783928 -0.11939541 0.017786521 -0.024730036 0.99953598 0.0050201244
-0.072370373 -0.033356238 -0.11756224 -0.026030909 -0.032600034 0.99912941 0.0046048053
-0.062946945 -0.031270437 -0.11388912 -0.057938538 -0.022823861 0.99805915 0.009532488
-0.055101264 -0.036477506 -0.11482996 -0.18617411 -0.0070253774 0.98249167 0.043048549
-0.046373483 -0.03563178 -0.11574125 -0.35657939 0.033778321 0.93365419 0.11406605
-0.034684643 -0.033590589 -0.11573133 0.086990215 0.054208092 0.99473321 0.1346743
-0.024797883 -0.035112072 -0.11610512 0.26885986 0.054064654 0.9616608 0.11192095
-0.01423922 -0.035874594 -0.11803244 0.10499665 0.016160326 0.99434131 0.023979265
-0.0059436681 -0.034481324 -0.11527853 -0.0083798831 0.010392067 0.99991089 0.0041743922
0.0043603713 -0.035417486 -0.11757221 -0.028277885 0.031598583 0.99910057 0.0044394773
0.014167428 -0.034542184 -0.11756774 -0.11046127 -0.0081032459 0.99384743 0.021593733
0.027072987 -0.032002907 -0.11663909 -0.16125494 -0.0055639441 0.98689711 0.1131613
0.037075032 -0.033429861 -0.11664701 0.083109997 -0.046839334 0.99543899 0.10643136
0.041705966 -0.033702653 -0.11481645 0.10746098 -0.020802526 0.99399167 0.11041035
0.052677732 -0.034456294 -0.11610194 0.22456598 0.011450565 0.97439164 0.058551494
0.06313327 -0.037170265 -0.11666507 -5.0159746e-05 0.0040691891 0.99999177 0.006234026
0.0755767 -0.033454623 -0.11756267 -0.028834533 -0.010986079 0.99952382 0.0054020942
0.085092328 -0.033416282 -0.117039 0.015513925 -0.029215354 0.99945277 0.0049178298
0.095986828 -0.034277774 -0.11829923 -0.01924832 -0.05259826 0.99843025 0.0039118519
0.10465142 -0.035894733 -0.11574251 -0.07629703 -0.043387987 0.99614072 0.012424569
0.11498369 -0.035013229 -0.1194018 -0.11991397 -0.033768296 0.99220985 0.035705075
0.12409643 -0.033918828 -0.11468654 -0.33606336 0.11037637 0.9353494 0.12056143
0.13456339 -0.034229189 -0.11587399 -0.081900008 0.054285709 0.995161 0.14251029
0.14353488 -0.036068689 -0.11940727 -0.053234868 0.020262845 0.99837643 0.13590646
0.15728876 -0.032459345 -0.11880098 -0.074325681 0.065189384 0.99510103 0.15089786
0.16087615 -0.031483293 -0.11459167 -0.6430214 0.098595537 0.75947511 0.15859632
-0.1618285 -0.024385169 -0.1121389 0.64296979 0.010927067 0.76581353 0.15739831
-0.15524502 -0.027174121 -0.1191116 0.32960626 -0.027635325 0.94371396 0.12118679
-0.13292664 -0.023838695 -0.1149347 0.054254919 -0.05726403 0.99688375 0.17419282
-0.125475 -0.024450162 -0.11660149 0.21319614 -0.025884334 0.97666645 0.12339101
-0.11820527 -0.022183282 -0.11750529 0.186106 -0.030273167 0.98206317 0.08523912
-0.10587555 -0.023693919 -0.113853 0.049788255 -0.14228228 0.98857307 0.04965958
-0.096190676 -0.024613112 -0.11866164 0.012469924 -0.10655572 0.99422854 0.021984365
-0.083271667 -0.027323365 -0.11606731 0.0012222802 -0.10588779 0.99437732 0.017224832
-0.074939951 -0.02477622 -0.11728931 -0.03731041 -0.10891777 0.99335033 0.019239876
-0.063429154 -0.024934622 -0.11751875 -0.02261848 -0.1084239 0.99384743 0.021038763
-0.054928117 -0.026919302 -0.11508863 -0.13213386 -0.10814907 0.98531437 0.034357384
-0.045407198 -0.025064331 -0.11715358 -0.15777531 -0.07249409 0.98481041 0.086687475
-0.03614971 -0.023910891 -0.11584415 0.042127404 -0.038410224 0.99837369 0.1023279
-0.025337985 -0.024062559 -0.1154236 0.204689 0.0029930598 0.97882241 0.098368637
-0.015612496 -0.025412347 -0.1187419 0.11221112 0.022375597 0.9934324 0.024423793
-0.0089743733 -0.0237644 -0.11659805 0.074127726 0.000359139 0.99724865 0.019722277
0.0039742142 -0.023288621 -0.1175101 -0.026313089 -0.0017546935 0.99965221 0.0039848099
0.014267118 -0.023357427 -0.11698861 -0.16153599 -0.008048539 0.98683405 0.04117693
0.025825236 -0.02621324 -0.113865 -0.17755008 -0.027477624 0.98372811 0.11350057
0.035658941 -0.026240189 -0.11716002 0.072447754 -0.023317738 0.99709958 0.11461239
0.045873195 -0.024065239 -0.11797257 0.18921229 -0.017828628 0.98177433 0.093691505
0.053586729 -0.026459139 -0.11935736 0.10028262 -0.082989737 0.99149185 0.033339478
0.06200511 -0.025259867 -0.11386046 0.072624505 -0.071166568 0.99481708 0.026098011
0.072707079 -0.027016856 -0.11753003 -0.016386932 -0.049282156 0.99865043 0.012204161
0.083353698 -0.022015765 -0.11384499 0.010037147 -0.18852755 0.98201662 0.062233437
0.09612713 -0.028027296 -0.1157042 -0.0046972497 -0.07604114 0.99709362 0.014813439
0.10308905 -0.023653956 -0.11522505 -0.070748039 -0.1447311 0.98693848 0.035458084
0.11422789 -0.026251372 -0.11496337 -0.21233055 -0.12305482 0.969419 0.058765847
0.12800534 -0.024267614 -0.1156859 -0.17294557 0.027234796 0.98455477 0.14260811
0.13030165 -0.02457965 -0.11139757 -0.25188464 -0.036109686 0.96708339 0.21875843
0.14985156 -0.022540389 -0.11933701 -0.13843369 0.073839843 0.98761517 0.11153299
0.15436052 -0.025250588 -0.11934087 -0.1094396 0.0061009084 0.99397469 0.10873911
0.16098872 -0.023892678 -0.11426866 -0.47377869 0.03881751 0.87978798 0.15329552
-0.16101368 -0.015549134 -0.11416614 0.47831389 0.012243627 0.87810361 0.15330097
-0.15684202 -0.015680553 -0.1190052 0.3654798 -0.043889351 0.92978394 0.1067187
-0.1417774 -0.016823055 -0.11930732 0.080197379 -0.014673773 0.99667096 0.12857468
-0.13382103 -0.017344872 -0.11748061 -0.00017137107 -0.010612107 0.99994367 0.16381674
-0.12569931 -0.014230034 -0.11694272 0.15278608 -0.0059733032 0.98824126 0.14449644
-0.11483852 -0.017041195 -0.11382128 0.23676986 -0.097262584 0.966685 0.14764678
-0.10072718 -0.014458932 -0.11563712 -0.016080255 -0.29026741 0.95681047 0.087579556
-0.096346304 -0.013168812 -0.11928833 0.012235801 -0.20246133 0.97921383 0.086172149
-0.084353983 -0.017837416 -0.11565433 0.01052177 -0.17381965 0.98472124 0.074835256
-0.072044037 -0.015526545 -0.11930057 0.0038512954 -0.18934658 0.98190272 0.06183885
-0.068274789 -0.012520251 -0.11517087 -0.055702973 -0.23687194 0.96994275 0.103663
-0.054174788 -0.014444713 -0.11655259 -0.13175295 -0.15516891 0.97906268 0.10490753
-0.045394216 -0.015939897 -0.11724517 -0.080325872 -0.083069928 0.99330109 0.11161989
-0.035776459 -0.015338885 -0.11710517 0.077325381 0.02089167 0.99678701 0.12122776
-0.023611018 -0.013358599 -0.1170954 0.25098357 0.051508229 0.96661997 0.086599395
-0.017366156 -0.013701545 -0.1192911 0.152095 -0.028049849 0.98796773 0.05230546
-0.0034141243 -0.017810894 -0.11931244 -0.014669503 -0.008291116 0.99985802 0.0039600395
0.0035852746 -0.015531775 -0.11655724 -0.039854649 -0.0085363667 0.99916905 0.0040348354
0.017494975 -0.017139653 -0.11382174 -0.17562972 -0.028024759 0.98405731 0.07582894
0.023875689 -0.016098328 -0.11820652 -0.24074185 -0.045725785 0.96951151 0.096135102
0.033751383 -0.015434782 -0.11282662 -0.052899629 -0.0090807937 0.99855852 0.13931833
0.045434792 -0.011198182 -0.11790688 0.15324295 -0.042600274 0.98726988 0.11556957
0.054947346 -0.016482988 -0.11930554 0.1241926 -0.064419381 0.99016488 0.040887434
0.067793615 -0.015232109 -0.11564199 -0.07262975 -0.27279896 0.95932561 0.096988358
0.075141512 -0.015291745 -0.11694825 -0.031106776 -0.22916302 0.97289097 0.071234569
0.085822262 -0.016181001 -0.11656063 0.024132723 -0.18922028 0.98163813 0.080359675
0.093869559 -0.01460121 -0.11545541 -0.040297788 -0.25326869 0.96655631 0.10199001
0.10598274 -0.015950261 -0.11747391 -0.065865643 -0.16410692 0.98424113 0.069745719
0.11610081 -0.015674744 -0.1160095 -0.13088977 -0.17534508 0.97576743 0.13143767
0.12652285 -0.015378428 -0.11564243 -0.09348885 -0.10364588 0.99021071 0.13985647
0.13442996 -0.014717838 -0.11460647 0.014122348 -0.099830456 0.99490428 0.17064239
0.1448189 -0.012827797 -0.11860102 -0.061534073 -0.0086379657 0.99806756 0.11709276
0.1549615 -0.014048079 -0.11911748 -0.27136022 -0.04570011 0.96139228 0.11630131
-0.16068111 -0.0029088587 -0.11495087 0.58681417 -0.078755163 0.80588257 0.14343734
-0.15317854 -0.0065403781 -0.11909053 0.24027477 -0.064563818 0.96855539 0.13281198
-0.14536516 -0.0064002713 -0.11761899 0.12176835 -0.077738464 0.98950958 0.15064031
-0.13482319 -0.0036903638 -0.11375763 0.062330324 -0.047749054 0.99691272 0.20786753
-0.12543468 -0.0053826384 -0.11498424 0.051090721 -0.096234247 0.99404669 0.20143484
-0.1132596 -0.008185043 -0.11597252 0.046318781 -0.16109288 0.98585176 0.11189122
-0.10586491 -0.0016122423 -0.1192283 -0.022626711 0.018390402 0.99957484 0.10313156
-0.094031617 -0.0049406155 -0.1170522 0.041160032 -0.12373743 0.99146104 0.12765159
-0.083984531 -0.0047143283 -0.11548076 0.050637752 -0.14595255 0.98799467 0.13995031
-0.075714648 -0.0041033379 -0.11512957 -0.12931544 -0.17231089 0.9765175 0.17064656
-0.065453552 -0.0063343849 -0.115141 0.022588344 -0.22967479 0.97300529 0.14578517
-0.05514966 -0.0056998264 -0.11543945 -0.15410362 -0.092821814 0.98368496 0.14307676
-0.044628248 -0.0030249509 -0.11407454 0.085050277 0.027128708 0.9960072 0.17843764
-0.033933345 -0.0054420731 -0.11483141 0.20212942 0.090446256 0.97517341 0.14373785
-0.02458033 -0.0049572876 -0.11705265 0.18364857 0.021391833 0.98275918 0.079383254
-0.01611778 -0.0034006422 -0.11688875 0.15580118 0.028361525 0.98738122 0.042779498
-0.0054424517 -0.0066730254 -0.11742689 -0.0076529067 -0.015125488 0.99985629 0.0057608099
0.0066481088 -0.0033210148 -0.11581122 -0.054636199 0.0075150109 0.99847806 0.0040370142
0.014291499 -0.0030088797 -0.11558115 -0.18226315 0.031289358 0.98275179 0.038245387
0.026793007 -0.0048823082 -0.11650447 -0.18943657 0.092276722 0.97754735 0.10323311
0.036282547 -0.0059485096 -0.11484199 -0.043227416 0.046629909 0.99797642 0.1059477
0.044444628 -0.0048809848 -0.11611291 0.11590314 0.037881125 0.99253792 0.10759153
0.055842694 -0.0057684104 -0.11742272 -0.03451208 -0.13525839 0.9902091 0.12511122
0.063233659 -0.0055388506 -0.11603147 -0.094877839 -0.16372766 0.98193252 0.13747242
0.074507169 -0.0025452895 -0.11409703 -0.12364615 0.060056999 0.99050736 0.17607494
0.087686218 -0.0059560486 -0.11485992 0.059409659 -0.16147068 0.98508763 0.15217716
0.095399603 -0.0030773464 -0.1158102 0.016587058 0.014932277 0.99975091 0.16340463
0.10494053 -0.0037156113 -0.1176734 -0.017956879 0.033880685 0.99926454 0.13104814
0.11541654 -0.0081226462 -0.11652014 -0.066373587 -0.13050832 0.989223 0.12860329
0.12750943 -0.0045739608 -0.11558908 -0.051640626 0.065059051 0.9965443 0.18771884
0.13513704 -0.0030787427 -0.11832225 -0.014474954 0.092851713 0.99557471 0.13118353
0.14440565 -0.0043344479 -0.11697154 -0.15511714 -0.018891014 0.98771542 0.1417006
0.15894037 -0.0033290624 -0.1189513 -0.49007884 -0.059040058 0.86967635 0.1106453
0.16222392 -0.0073105106 -0.11105344 -0.62686354 -0.1552736 0.76349998 0.13658288
-0.16161342 0.0021156594 -0.11255908 0.63619214 -0.11551096 0.76283473 0.13688581
-0.15283138 0.0050357971 -0.11919378 0.25866282 -0.047189079 0.96481431 0.13834265
-0.14292698 0.0055502369 -0.1191911 0.068693221 0.024887767 0.99732733 0.14715324
-0.13488419 0.0036921804 -0.11646136 0.043178365 -0.017115187 0.99892074 0.13574091
-0.12396716 0.0017404441 -0.11555827 0.029272888 0.12967542 0.99112427 0.15065068
-0.11542344 0.0034962397 -0.11810581 0.027366269 0.086467795 0.9958787 0.10168262
-0.10425219 0.0043698703 -0.11737111 0.01311482 0.061543103 0.99801826 0.093730606
-0.094123632 0.0056885551 -0.11675572 0.021151232 0.23847917 0.97091728 0.12012797
-0.083713219 0.0057629789 -0.11493 0.056634389 0.16472445 0.98471242 0.1404433
-0.076268733 0.0058014668 -0.1160601 -0.013873382 0.1304459 0.99135846 0.10418601
-0.065306753 0.0049426658 -0.11782461 -0.0046697818 0.090612449 0.99587524 0.13180992
-0.054888792 0.0049643968 -0.11645527 -0.047499347 0.12718722 0.99074078 0.10144111
-0.045378771 0.0035312814 -0.11646192 0.098867729 0.13783313 0.98550856 0.12614988
-0.035388432 0.0067988676 -0.11644652 0.097590387 0.15570399 0.98297125 0.074842498
-0.025075801 0.0038834838 -0.11463449 0.1260912 0.085972771 0.98828626 0.075656764
-0.0130518 0.0035050004 -0.11591467 0.044896424 -0.037662815 0.99828142 0.01593172
-0.0042897058 0.0054061553 -0.11645275 0.0021717502 -0.036764044 0.99932158 0.0042912285
0.0019966911 0.0066614822 -0.11507758 -0.0089227194 -0.019132195 0.9997772 0.0047776583
0.014103644 0.0070711798 -0.11507552 -0.064747162 0.024014316 0.99761271 0.011177137
0.02646143 0.0039806864 -0.11645977 -0.15696549 0.16984814 0.97288918 0.074890286
0.036359016 0.0040259794 -0.11554635 -0.0058274963 0.14559485 0.98932713 0.093661055
0.046775129 0.0044137514 -0.11554501 0.030332232 0.12862776 0.99122906 0.097539589
0.056670915 0.0044909315 -0.11481436 0.0354685 0.25306118 0.96679986 0.1608326
0.064766601 0.0066135908 -0.11589926 -0.096028492 0.18369551 0.97828138 0.11125939
0.075985469 0.0044549904 -0.11481438 -0.016986093 0.28149053 0.95941365 0.17738648
0.084932536 0.0038674045 -0.11919984 -0.013884485 0.14618053 0.98916048 0.11711696
0.09435039 0.0052094706 -0.11493209 -0.027507117 0.27915579 0.9598518 0.15517843
0.1068099 0.0056383549 -0.1148083 0.039323572 0.25588033 0.96590835 0.14609216
0.11515995 0.0059374287 -0.11590282 -0.016085286 0.22027841 0.97530442 0.10440173
0.12432127 0.0053771837 -0.1176272 -0.082005367 0.13218586 0.98782688 0.13355301
0.13615775 0.0046136216 -0.11371803 -0.14268783 0.068046488 0.98742592 0.15813828
0.14392754 0.0055014049 -0.11635774 -0.18411545 0.046861961 0.98178691 0.14776434
-0.16084969 0.011467245 -0.11445414 0.61443895 -0.074278682 0.78546 0.14325465
-0.14231174 0.013295923 -0.11523209 0.21269515 0.080143191 0.97382647 0.16951096
-0.13540678 0.015013057 -0.11549292 0.23176974 0.075630188 0.96982616 0.14829527
-0.12625411 0.014959219 -0.11585788 0.20046492 0.13737649 0.97002131 0.099251673
-0.11316842 0.017848065 -0.11639133 -0.018335154 0.10498078 0.99430525 0.033767987
-0.10296421 0.01628786 -0.11503037 0.032714937 0.18384728 0.98241025 0.06963443
-0.094812468 0.015320031 -0.11640348 -0.031399157 0.15560721 0.98731983 0.078809895
-0.085965641 0.016191468 -0.11679026 -0.033583164 0.18460818 0.98223829 0.063291751
-0.074353881 0.013979758 -0.11732283 0.017985513 0.12584154 0.99188727 0.058489814
-0.066183396 0.014199279 -0.11367234 -0.041314334 0.2730003 0.96112639 0.095153414
-0.058835115 0.018398775 -0.11365231 -0.017332846 0.19185236 0.98127067 0.058067322
-0.045524545 0.013471995 -0.11641272 0.022600954 0.14894851 0.9885866 0.073008157
-0.034859307 0.014510256 -0.11640782 0.075266205 0.12686615 0.9890601 0.045895241
-0.025225941 0.015443438 -0.11757595 0.030983295 0.038435921 0.99878061 0.015059507
-0.016700627 0.015808795 -0.11366466 0.041415945 0.039927937 0.99834383 0.015821917
-0.0053132335 0.01389237 -0.11758379 0.0016175435 0.00054683164 0.99999851 0.0037842784
0.0045834938 0.014115255 -0.11914662 0.0054742093 -0.0069338758 0.99996102 0.0035500946
0.015783286 0.015364844 -0.11640324 -0.022342423 0.0034841483 0.9997443 0.0033955625
0.023837073 0.015666122 -0.11640191 -0.049564566 0.062326729 0.99682426 0.014398322
0.03444571 0.013763612 -0.11504312 -0.044078045 0.17194755 0.98411953 0.067533918
0.045622528 0.013040417 -0.11446001 0.011367224 0.18474843 0.98272014 0.068412311
0.052832767 0.016511463 -0.1163978 0.028869392 0.12368101 0.99190199 0.038789026
0.066187985 0.015627315 -0.11548991 -0.052627083 0.1646124 0.9849534 0.062462956
0.075647287 0.015177838 -0.11757708 -0.017350154 0.25771695 0.96606469 0.076655075
0.086579606 0.013760128 -0.11777981 0.059651293 0.17043641 0.98356152 0.061439164
0.09677235 0.016229762 -0.11804088 -0.0041403519 0.13235252 0.99119401 0.033556491
0.10890687 0.012826796 -0.11550385 -0.0041245259 0.21733055 0.97608942 0.081588902
0.11674856 0.015436633 -0.11777151 0.025883416 0.19065116 0.98131657 0.051418066
0.12532832 0.013405645 -0.11586618 -0.14371006 0.21707308 0.96551889 0.11183254
0.13401698 0.015863489 -0.11571695 -0.17730702 0.18912075 0.9658134 0.10594178
0.14193398 0.013759953 -0.11914846 -0.19993882 0.023146782 0.97953492 0.10008307
0.15691069 0.014293725 -0.11892182 -0.30206144 -0.093358904 0.94870591 0.14257844
-0.15653582 0.023478908 -0.11785703 0.39057815 -0.071174018 0.91781425 0.14779457
-0.14340337 0.023220848 -0.11699457 0.26744384 -0.030914366 0.96307743 0.095540315
-0.13951911 0.025972642 -0.11908503 0.24379717 0.049558356 0.96855927 0.093171008
-0.12534031 0.025769809 -0.11771865 0.15146841 0.023633847 0.9881795 0.049031511
-0.11376861 0.025574435 -0.11772031 -0.033309996 -0.019354416 0.99925762 0.0046058726
-0.10500371 0.024349866 -0.11581185 -0.038760446 0.038741946 0.99849719 0.015294618
-0.09088026 0.025179964 -0.11361998 -0.008281148 0.067568682 0.99768025 0.016802106
-0.085162945 0.026218794 -0.11665297 -0.0086992858 -0.017684095 0.99980587 0.0038378437
-0.077398434 0.022599759 -0.11636774 0.0069202525 0.052074872 0.9986192 0.014395243
-0.066363811 0.025177645 -0.11362 -0.00030439097 0.080203064 0.99677849 0.017503137
-0.055969249 0.024495581 -0.11726964 0.011433451 0.080495715 0.99668938 0.01493643
-0.043940216 0.02841272 -0.11724961 0.048113916 0.0048414259 0.99883014 0.0023658248
-0.036137544 0.024424428 -0.1151154 0.018765552 0.022507908 0.99957055 0.0032814629
-0.026739594 0.025990957 -0.11580352 -0.013632066 0.0035189625 0.99990082 0.0031613822
-0.014792961 0.024807507 -0.11635638 -0.0037493212 -0.010880663 0.99993372 0.0039933142
-0.0036585715 0.026964674 -0.11361147 -0.0046429522 -0.01657768 0.99985182 0.0039292611
0.00533586 0.024793057 -0.11580952 0.014084351 0.0020409492 0.99989873 0.0034716981
0.013517688 0.02500823 -0.1175273 -0.012243483 -0.00050838105 0.99992484 0.003891567
0.026556017 0.025167082 -0.11635504 -0.016977215 -0.0052185599 0.99984229 0.0029367011
0.03649224 0.026015889 -0.113616 -0.0089874277 0.01526671 0.99984306 0.0020442449
0.046575271 0.024890499 -0.11726753 0.0050703571 0.0092305262 0.99994457 0.0019603644
0.054977667 0.025162656 -0.1169014 0.017383004 0.06640806 0.99764109 0.0077972487
0.062876008 0.02413632 -0.11499216 0.023480145 0.075798944 0.99684668 0.01106963
0.074721932 0.026023973 -0.11595989 0.014501478 0.018830799 0.99971747 0.0044863387
0.085638188 0.023613384 -0.11545002 -0.003123343 0.097344331 0.99524587 0.021708837
0.09645959 0.027848735 -0.11907528 -0.010949081 0.0017638794 0.99993843 0.0046464144
0.10628337 0.022792645 -0.11636685 -0.013226263 0.082801074 0.99647832 0.020994075
0.11462396 0.024252266 -0.11635888 0.014943406 0.088222846 0.99598867 0.017350174
0.12673588 0.025358463 -0.11635371 -0.19778259 0.033957127 0.97965759 0.054417681
0.13395551 0.02277544 -0.11773395 -0.23007882 0.060306229 0.97130162 0.09083119
0.14161253 0.024682632 -0.11690412 -0.29852408 0.067215525 0.95203227 0.099349387
0.15488279 0.024694962 -0.1190905 -0.41625369 0.041181289 0.90831548 0.12760016
0.16068092 0.021462439 -0.11483518 -0.63145036 0.011309367 0.77533382 0.15209503
-0.16182567 0.037323628 -0.11187843 0.81803226 0.13172881 0.55988467 0.16411512
-0.15691887 0.0360073 -0.11903346 0.47016901 0.042919371 0.88153225 0.15437604
-0.14195347 0.03759893 -0.11292136 0.39846933 0.084331885 0.91329646 0.15232024
-0.13398501 0.033957664 -0.11514413 0.22363494 0.032727249 0.97412336 0.089111954
-0.12471315 0.035405349 -0.11630603 0.23157577 0.0089415126 0.97277576 0.065991379
-0.11554089 0.032315765 -0.11495264 -0.028433139 0.0058305627 0.99957871 0.0057030348
-0.10540318 0.035736497 -0.11513706 -0.029474022 0.032391772 0.99904054 0.0041672057
-0.096382879 0.037021652 -0.11357352 -0.011846137 0.030405303 0.99946743 0.003711696
-0.083999045 0.032992065 -0.11540493 -0.0043804911 -5.7180194e-05 0.99999046 0.0035366097
-0.07445956 0.035457458 -0.1166992 -0.019006528 0.0087453304 0.99978113 0.0047260066
-0.062179495 0.035093222 -0.11448526 0.010492814 0.0099530332 0.99989545 0.0043844366
-0.054101743 0.034845211 -0.11494332 0.018884109 0.0058493651 0.99980462 0.0030146614
-0.047237035 0.035682444 -0.1142593 0.025803104 0.021240406 0.99944139 0.0031892594
-0.034959815 0.032430571 -0.11795819 0.0078237718 0.0049904846 0.99995691 0.0032637771
-0.025541633 0.03585821 -0.1174788 -0.0099265706 0.0039383923 0.99994302 0.0037742357
-0.019653808 0.03478653 -0.11630759 -0.017559377 0.0009404266 0.99984539 0.0042101364
-0.005380284 0.035439398 -0.11494217 -0.0056841974 -0.010216454 0.99993163 0.0043607568
0.0050963238 0.034890715 -0.11767573 0.022577614 -0.013678836 0.99965155 0.0039683436
0.014438678 0.037170928 -0.11630367 0.013890613 -0.0075284028 0.99987525 0.0046426216
0.025401985 0.035746384 -0.11630896 -0.016218796 0.011070611 0.99980718 0.0030856931
0.037038799 0.034399055 -0.11631821 -0.011114968 0.02068511 0.99972421 0.0023360169
0.046967741 0.034582328 -0.11540222 0.0038706551 0.0089311991 0.99995261 0.0022975528
0.055512454 0.033314664 -0.11813595 0.024478579 0.012811335 0.99961829 0.0027370881
0.064959399 0.035121772 -0.11556485 0.014263025 0.0065056114 0.9998771 0.0041518221
0.075805128 0.035318661 -0.11630893 0.02555996 0.010444961 0.99961871 0.0051807333
0.087044112 0.036803946 -0.11357353 0.028808137 -0.0049208878 0.99957287 0.005799734
0.095903963 0.03641209 -0.11630865 0.0026613285 0.015017168 0.99988371 0.004671081
