# .PCD v0.7 - Point Cloud Data file format
VERSION 0.7
FIELDS x y z normal_x normal_y normal_z curvature
SIZE 4 4 4 4 4 4 4
TYPE F F F F F F F
COUNT 1 1 1 1 1 1 1
WIDTH 613
HEIGHT 1
VIEWPOINT 0 0 0 1 0 0 0
POINTS 613
DATA ascii
0.055374306 -0.13438585 -0.046503138 3.1155196e-06 -1.4171842e-06 1 2.0777825e-06
0.0634735 -0.1370022 -0.046503138 2.9183691e-06 -4.179577e-06 1 2.0223299e-06
0.07483121 -0.13726521 -0.046503138 3.7600787e-06 1.9664749e-07 1 2.3887742e-06
0.088802867 -0.13507031 -0.046503138 5.190805e-06 -5.7461352e-06 1 2.4237777e-06
0.10452146 -0.13413486 -0.046503138 2.05423e-06 -4.1655167e-06 1 5.4445348e-07
0.11536118 -0.1360622 -0.046503138 -2.1551155e-06 1.5820811e-08 1 5.4559177e-07
0.12520994 -0.13624579 -0.046503134 4.3717992e-06 -3.2790363e-06 1 4.7658571e-07
0.15321094 -0.13366398 -0.046503134 3.4673678e-07 3.5540522e-06 1 1.0696341e-06
0.16464213 -0.1389004 -0.046503138 9.3901344e-06 -8.1106118e-06 1 2.3871805e-06
0.17302144 -0.13099979 -0.046503138 8.4432946e-07 4.1833869e-06 1 4.6396289e-07
0.18512952 -0.13449314 -0.046503138 4.5003549e-06 2.9766561e-06 1 1.1273947e-06
0.19589248 -0.13126501 -0.046503142 9.8285172e-06 2.786404e-08 1 1.1275375e-06
0.20095038 -0.13909453 -0.046503142 -1.378854e-05 7.3626375e-06 1 0
0.21275719 -0.13431717 -0.046503138 -1.0544479e-05 2.9531152e-06 1 0
0.23637694 -0.13109067 -0.046503134 1.0619226e-07 -1.9732393e-06 1 5.3213853e-07
0.24158807 -0.1317022 -0.046503138 8.0325635e-06 5.3338467e-06 1 5.1635124e-07
0.26794383 -0.13322344 -0.046503138 -8.8040097e-06 4.7519907e-06 1 0
0.27551687 -0.13652171 -0.046503134 -2.3807139e-07 3.3278609e-06 1 0
0.2841748 -0.13703774 -0.046503138 -5.1963689e-06 -1.8490732e-06 1 2.2069769e-06
0.29354435 -0.13615911 -0.046503138 -2.8120608e-06 -6.7210385e-06 1 5.2842074e-07
0.31649438 -0.13231303 -0.046503138 0.0078851301 -0.053856973 0.99851751 0.0094955023
0.32325578 -0.13585925 -0.046503138 -0.0018581392 -0.11063619 0.99385923 0.025406782
0.33539701 -0.13397254 -0.046503142 -0.01461322 -0.07215105 0.99728668 0.013625006
0.34333387 -0.13481179 -0.046503142 0.0042566499 -0.050166611 0.99873179 0.010214124
0.35229674 -0.13713646 -0.046503134 0.051957097 -0.16198768 0.98542404 0.055200923
0.36417165 -0.13501155 -0.046503138 -0.024142265 -0.053668801 0.99826688 0.026908787
0.37582427 -0.13721511 -0.046503134 0.004036495 0.0076691974 0.99996245 0.017874297
0.38636789 -0.13613957 -0.046503138 0.035078492 -0.011784725 0.99931502 0.031337474
0.39233479 -0.13694125 -0.046503142 0.052266903 -0.019368812 0.99844527 0.033259418
0.40532231 -0.13439497 -0.046503138 0.011146919 -0.074069194 0.99719083 0.017785482
0.42547718 -0.13600948 -0.046503134 -0.025075588 -0.06351579 0.99766576 0.012340521
0.43596435 -0.13766111 -0.046503138 5.6701934e-05 -8.8090364e-06 1 2.5621048e-06
0.44390234 -0.13357778 -0.046503138 3.0909931e-05 -9.8086011e-06 1 2.2955712e-06
0.45462453 -0.13325582 -0.046503138 0 0 1 5.1361093e-07
0.4739463 -0.13439818 -0.046503138 0.13587189 0.18811852 0.97270256 0.19469735
0.48464006 -0.13583755 -0.046503138 -0.71760726 -0.10640154 -0.68827206 0.15813278
0.49582839 -0.13517319 -0.045526162 -0.88424456 -0.027740985 -0.46619943 0.075818539
-0.49573791 -0.1236668 -0.044864938 0.82586759 0.013557091 -0.56370109 0.058513749
-0.48690948 -0.12473688 -0.044549927 0.63007784 -0.023289513 -0.77618259 0.10442353
-0.47493994 -0.12436511 -0.046503138 0.38187757 0.039271802 -0.92337817 0.14708076
-0.46480042 -0.12500156 -0.046503138 0.25144556 -0.030928448 0.96737713 0.1546165
-0.43362275 -0.12234757 -0.046503138 -9.4507386e-06 -4.7574408e-06 1 1.0337785e-06
-0.42325145 -0.12400397 -0.046503138 -9.1422844e-06 -1.5273234e-06 1 2.357149e-06
-0.41467142 -0.12373664 -0.046503142 8.8541692e-06 -1.930382e-06 1 5.5011662e-07
-0.392526 -0.12196387 -0.046503138 2.3013732e-07 2.2629524e-06 1 0
-0.38410974 -0.12451317 -0.046503142 2.8436874e-05 -4.2376129e-07 1 0
-0.37589055 -0.12333773 -0.046503142 2.0956604e-05 4.510493e-06 1 0
-0.36558002 -0.12895215 -0.046503138 1.8975663e-05 2.8495319e-06 1 0
-0.35296863 -0.12526183 -0.046503138 1.8832721e-05 1.1766226e-05 1 0
-0.34496966 -0.12253767 -0.046503138 3.0388774e-05 -1.716866e-06 1 0
-0.33555043 -0.12317757 -0.046503138 -5.929423e-06 -3.9704344e-07 1 0
-0.32937136 -0.12591173 -0.046503138 2.2524335e-05 -2.5037734e-06 1 0
-0.30892134 -0.1263335 -0.046503138 -8.814236e-06 -3.0064525e-06 1 1.96769e-06
-0.29502547 -0.12291862 -0.046503142 -4.7147805e-06 -4.3105729e-06 1 1.0931968e-06
-0.27558964 -0.12597136 -0.046503142 -1.0402586e-05 -4.0289251e-06 1 2.1814237e-06
-0.26526853 -0.12464527 -0.046503134 -2.6994243e-05 -1.2049791e-05 1 2.279568e-06
-0.24555942 -0.12516329 -0.046503138 6.3900834e-06 -9.7572129e-06 1 2.1706728e-06
-0.22372547 -0.12470237 -0.046503138 8.7261824e-06 3.05745e-07 1 5.453885e-07
-0.21587357 -0.12885556 -0.046503142 -3.2888045e-05 -0.0023436414 0.99999726 2.0161408e-05
-0.20411998 -0.12724605 -0.046503142 3.575982e-06 -1.7614908e-06 1 5.0384011e-07
-0.18305002 -0.12544344 -0.046503138 -1.5421836e-05 -4.3095542e-06 1 2.4547844e-06
-0.17522252 -0.12306618 -0.046503142 4.5626766e-06 8.1002199e-06 1 0
-0.16314265 -0.12430489 -0.046503134 2.0266639e-06 -2.6524492e-07 1 0
-0.15812868 -0.12514055 -0.046503138 1.9419842e-06 -2.3653965e-07 1 0
-0.14750381 -0.12903714 -0.046503138 -1.9007718e-06 -9.7174025e-06 1 5.6528626e-07
-0.13530427 -0.12217661 -0.046503134 1.67118e-06 1.6606241e-06 1 0
-0.12563585 -0.12735017 -0.046503138 2.4766882e-06 -3.1365565e-07 1 5.7259962e-07
-0.11015423 -0.12415978 -0.046503138 -3.2558336e-07 -4.5281113e-06 1 2.2380175e-06
-0.10665412 -0.12783933 -0.046503138 -3.5661053e-06 -4.1281564e-07 1 1.0595496e-06
-0.088097453 -0.12994295 -0.046503138 -2.4995581e-06 -7.0843066e-06 1 1.9932415e-06
-0.077698216 -0.12723145 -0.046503142 -7.9093263e-07 -1.7227047e-06 1 9.4463059e-07
-0.050032035 -0.12449931 -0.046503138 -1.4229894e-06 -3.8235171e-06 1 5.2244991e-07
-0.046943791 -0.12245789 -0.046503142 -1.0555702e-06 -5.7899101e-06 1 5.5252565e-07
-0.031873442 -0.12572545 -0.046503138 -2.7140088e-06 -1.2858892e-05 1 2.3961759e-06
-0.028381931 -0.12692153 -0.046503138 -0 -0 1 1.1172853e-06
-0.017392239 -0.12703569 -0.046503142 -1.0193538e-06 -3.9770148e-06 1 2.611232e-06
0.0064083673 -0.1269515 -0.046503138 0 0 1 4.9433731e-07
0.018531777 -0.12725338 -0.046503138 -1.046639e-06 -1.7624055e-06 1 0
0.022433538 -0.12210549 -0.046503142 6.7017226e-07 -3.6342749e-09 1 6.6857785e-07
0.036653638 -0.12055378 -0.046503138 6.2426113e-07 2.0646996e-06 1 0
0.045080401 -0.12640603 -0.046503138 2.0954144e-06 -2.349236e-06 1 1.1954634e-06
0.056667179 -0.12076257 -0.046503134 2.2255542e-06 -1.0045579e-05 1 2.1519752e-06
0.072553024 -0.12427374 -0.046503138 1.0546362e-06 -2.0452107e-06 1 5.2183304e-07
0.084820591 -0.12753439 -0.046503138 1.1900181e-06 -1.0869126e-07 1 1.0535704e-06
0.096264616 -0.12814549 -0.046503142 8.4075793e-08 -1.8574041e-06 1 4.8939e-07
0.10482138 -0.12366811 -0.046503138 2.1855362e-06 2.2026345e-06 1 1.1369647e-06
0.11665852 -0.12610576 -0.046503138 4.3596956e-06 -6.4321517e-07 1 5.1020817e-07
0.12349551 -0.1243096 -0.046503138 2.846577e-06 -6.354222e-06 1 2.6396067e-06
0.13871238 -0.12095991 -0.046503138 0 0 1 0
0.14239427 -0.12421017 -0.046503138 5.9387344e-06 -2.4444728e-07 1 0
0.15656176 -0.12465069 -0.046503138 7.5086991e-06 -4.5848151e-06 1 2.3061154e-06
0.16289979 -0.12319285 -0.046503138 -4.3660757e-06 -7.0636162e-07 1 0
0.18460761 -0.12464717 -0.046503142 3.2728651e-06 -2.4131586e-07 1 0
0.1926932 -0.12763861 -0.046503142 4.3207601e-06 -1.7714934e-06 1 1.638668e-06
0.20492008 -0.12573586 -0.046503142 -3.2334922e-06 -7.6249371e-06 1 1.3055584e-06
0.21769388 -0.12457607 -0.046503142 -8.5590245e-06 5.9863437e-06 1 0
0.2239593 -0.12138291 -0.046503138 0 0 1 5.183411e-07
0.23359442 -0.12251054 -0.046503138 -3.5804262e-06 -4.6374333e-07 1 0
0.24951638 -0.12371794 -0.046503138 7.4219211e-06 8.8681526e-07 1 0
0.2552 -0.12850539 -0.046503138 5.2615369e-06 -4.5825946e-06 1 5.45879e-07
0.26060611 -0.12641206 -0.046503138 -8.6277769e-06 2.1478529e-06 1 0
0.27701825 -0.12343875 -0.046503138 -1.1590098e-05 -7.2836735e-07 1 0
0.28225186 -0.1263545 -0.046503138 -4.7124495e-06 2.6232706e-06 1 5.1962286e-07
0.29500651 -0.12477639 -0.046503138 -1.1588212e-08 2.4774672e-06 1 5.0619531e-07
0.30296889 -0.12620696 -0.046503138 2.6817055e-08 2.0691032e-06 1 6.0697664e-07
0.3150225 -0.12769701 -0.046503138 -0 -0 1 1.0445863e-06
0.32083753 -0.12390232 -0.046503138 -5.3305026e-08 -1.8386169e-06 1 0
0.33926237 -0.12987618 -0.046503138 -0.0030628594 -0.027543647 0.99961591 0.0027858804
0.35527921 -0.12429195 -0.046503142 -1.0054893e-05 3.3193742e-06 1 5.9185152e-07
0.36783803 -0.12313721 -0.046503138 -6.5488452e-06 3.0586359e-06 1 0
0.37642595 -0.12496854 -0.046503138 -8.2441675e-06 -1.3164489e-06 1 5.3721641e-07
0.38480261 -0.12552087 -0.046503138 0.0025379816 0.0098966509 0.99994779 0.00020933144
0.39688441 -0.12536544 -0.046503138 1.7780776e-05 -6.2138206e-06 1 2.2691979e-06
0.40156037 -0.12522183 -0.046503138 1.8814136e-07 -2.5894622e-06 1 1.0184389e-06
0.42477655 -0.12845413 -0.046503138 7.9420852e-06 -2.3959149e-06 1 5.0932982e-07
0.43031746 -0.12959155 -0.046503138 6.6298713e-07 -4.2297665e-06 1 1.1209223e-06
0.44640809 -0.12656388 -0.046503138 1.6023234e-05 3.556662e-07 1 5.4368934e-07
0.45243251 -0.1249137 -0.046503142 -1.5303278e-05 5.8122905e-06 1 0
0.46839398 -0.1216681 -0.046503138 -0.22713089 -0.024602704 0.97355342 0.083892398
0.47590768 -0.12879516 -0.046503138 0.083048016 0.15902437 0.9837755 0.16326432
0.48507464 -0.12388502 -0.046503142 -0.72045165 -0.11289559 -0.68425435 0.15670347
0.49534142 -0.12656939 -0.043510843 -0.8532787 -0.048920739 -0.51915532 0.10598052
-0.49595383 -0.1151557 -0.045424923 0.81261146 -0.0044722259 -0.58278859 0.073942997
-0.48651886 -0.11625773 -0.044056166 0.65898943 0.016017171 -0.75198156 0.10638972
-0.475539 -0.11522029 -0.046503138 0.54367769 0.04806849 -0.83791649 0.14573921
-0.45956725 -0.11403952 -0.046503138 0.26900122 -0.017581191 0.96297944 0.12989229
-0.44336969 -0.11519606 -0.046503138 -1.9647545e-05 -5.4536413e-06 1 1.9275774e-06
-0.43513703 -0.11661019 -0.046503138 -9.794865e-06 -6.7798987e-06 1 2.2817853e-06
-0.42176196 -0.11472589 -0.046503142 3.468444e-09 -2.1239612e-06 1 5.3183595e-07
-0.41365448 -0.11671732 -0.046503138 2.0609559e-07 -2.2858833e-06 1 6.1599837e-07
-0.40828243 -0.11591588 -0.046503138 -8.4813755e-06 3.7519867e-06 1 0
-0.39755639 -0.11364684 -0.046503138 1.529164e-05 4.6279661e-06 1 0
-0.38476789 -0.11533187 -0.046503138 1.8053803e-05 5.7158027e-06 1 0
-0.37578857 -0.11627877 -0.046503138 1.8770077e-05 2.9340129e-06 1 0
-0.36478084 -0.11537956 -0.046503138 8.0191985e-06 1.7294709e-06 1 0
-0.35691318 -0.11576515 -0.046503138 8.0725722e-06 8.5728952e-06 1 0
-0.34626368 -0.11546575 -0.046503138 1.5957468e-05 -3.1415136e-06 1 0
-0.33523867 -0.11516459 -0.046503138 -8.3640152e-06 8.3985287e-06 1 5.418101e-07
-0.32507515 -0.11306734 -0.046503138 3.6540596e-06 1.5437407e-06 1 0
-0.31794888 -0.11333526 -0.046503142 -4.1042608e-06 9.446872e-07 1 0
-0.30414918 -0.11239801 -0.046503138 -8.5853508e-06 -6.5393665e-06 1 1.1223862e-06
-0.28090876 -0.11351219 -0.046503138 -4.1308085e-06 1.8990616e-07 1 2.1130918e-06
-0.27619496 -0.11692679 -0.046503134 -1.6005726e-05 -8.5580041e-06 1 2.0186042e-06
-0.26489311 -0.11804166 -0.046503138 -2.4089059e-05 -4.0432051e-06 1 2.0969644e-06
-0.25545901 -0.11395127 -0.046503142 2.7873816e-07 -1.8608268e-06 1 9.9462591e-07
-0.23372053 -0.11184327 -0.046503138 -9.4331199e-06 2.9828893e-06 1 1.0804966e-06
-0.22829512 -0.11097644 -0.046503134 2.03349e-07 1.9382762e-06 1 5.6667034e-07
-0.21536298 -0.11694434 -0.046503138 -4.8053007e-06 -4.8705574e-06 1 1.140717e-06
-0.20593989 -0.11587485 -0.046503138 -1.9366744e-05 -1.1860145e-05 1 2.3808784e-06
-0.19434446 -0.11871967 -0.046503138 -3.7734087e-06 -2.4098777e-06 1 4.9357953e-07
-0.18655798 -0.11480529 -0.046503142 -4.43208e-06 -4.8372035e-06 1 2.1822962e-06
-0.17686057 -0.11740457 -0.046503138 4.7957669e-06 -8.4503273e-07 1 5.5711888e-07
-0.16916707 -0.11623437 -0.046503134 4.2308375e-06 -1.6473118e-06 1 5.8737299e-07
-0.14225224 -0.11289673 -0.046503142 -4.4605536e-06 -1.8572282e-06 1 5.1477309e-07
-0.13676825 -0.11297482 -0.046503142 8.3566274e-06 1.5037153e-06 1 0
-0.12701166 -0.11451672 -0.046503134 -1.6904107e-08 2.0851837e-06 1 6.05823e-07
-0.11209534 -0.11448108 -0.046503138 -3.6023828e-06 -1.0676857e-06 1 5.0953673e-07
-0.10781136 -0.11610946 -0.046503142 2.3629833e-07 -3.8309036e-06 1 4.5531269e-07
-0.094468117 -0.11569464 -0.046503138 -1.6159918e-06 -5.9695831e-06 1 1.193597e-06
-0.076300278 -0.11410016 -0.046503138 -0 -0 1 1.0694038e-06
-0.063182145 -0.11672325 -0.046503142 -1.716806e-07 -3.6472934e-06 1 1.0656577e-06
-0.055541042 -0.11651536 -0.046503138 -8.8855165e-07 -6.3301486e-06 1 5.5629386e-07
-0.033755377 -0.11103474 -0.046503142 -1.8202327e-07 1.9606623e-06 1 0
-0.026411092 -0.11484782 -0.046503138 2.9800319e-07 -1.8915283e-06 1 4.8289394e-07
-0.010298546 -0.11220935 -0.046503138 -2.3554605e-07 3.5979278e-06 1 0
0.0057122689 -0.11516581 -0.046503142 1.1037469e-07 -4.6221535e-06 1 4.9740345e-07
0.013559095 -0.1110541 -0.046503134 -8.0209605e-07 -3.9849001e-06 1 0
0.026886694 -0.11542138 -0.046503134 6.0854694e-07 -1.7080824e-08 1 6.140408e-07
0.03502883 -0.11350566 -0.046503142 1.6013709e-07 2.1801602e-06 1 0
0.044765618 -0.11680593 -0.046503138 -1.0428381e-06 2.0422301e-06 1 5.2581737e-07
0.063617565 -0.11696704 -0.046503142 6.2072621e-07 -8.9515088e-06 1 2.1748979e-06
0.075696759 -0.11310647 -0.046503138 4.1170329e-06 4.9025454e-07 1 2.0242114e-06
0.08401905 -0.11426394 -0.046503134 -3.8579842e-06 -1.1093945e-05 1 2.1614781e-06
0.095284157 -0.11584064 -0.046503142 1.969144e-06 2.3491937e-08 1 2.304517e-06
0.10543206 -0.11575915 -0.046503142 -2.0264854e-06 -2.6067898e-06 1 2.3109533e-06
0.11265769 -0.11289358 -0.046503138 1.9898403e-06 4.5468237e-06 1 1.1349575e-06
0.12720773 -0.11450215 -0.046503138 2.2061681e-06 -3.2559669e-06 1 6.1640458e-07
0.13971549 -0.11494315 -0.046503138 1.8655589e-06 -2.273735e-07 1 5.7536687e-07
0.14255072 -0.11783683 -0.046503138 4.4392918e-06 -3.7600082e-06 1 1.2676916e-06
0.15539441 -0.11366987 -0.046503138 7.655769e-06 -8.8319384e-06 1 1.2530602e-06
0.16504243 -0.11770946 -0.046503138 4.3687478e-06 7.3649694e-06 1 5.222401e-07
0.18999976 -0.11763255 -0.046503142 -0 -0 1 0
0.2077401 -0.11181838 -0.046503138 -4.1980193e-06 2.1121595e-07 1 0
0.21204565 -0.11700627 -0.046503138 -4.4884837e-06 -1.3343054e-06 1 0
0.22326967 -0.11704115 -0.046503134 4.3440741e-07 3.9907832e-06 1 5.5696393e-07
0.23484445 -0.11578652 -0.046503134 0 0 1 5.6169483e-07
0.24520755 -0.11396865 -0.046503142 1.8258854e-08 -2.6120595e-06 1 5.3458848e-07
0.26171747 -0.11626051 -0.046503138 -3.7568643e-06 8.618743e-07 1 5.0464291e-07
0.27332354 -0.11539469 -0.046503138 -6.329013e-08 -2.283271e-06 1 0
0.28298903 -0.11423223 -0.046503138 -9.6079489e-08 5.5386613e-06 1 5.7289429e-07
0.29343551 -0.11523896 -0.046503138 -3.7393502e-06 -3.1448957e-07 1 5.3600542e-07
0.30535924 -0.11488974 -0.046503134 1.6370595e-05 -7.8897729e-06 1 2.4691508e-06
0.31294173 -0.11446781 -0.046503134 7.9694e-06 -5.1405618e-06 1 1.0890569e-06
0.32267436 -0.11755627 -0.046503138 -3.9776464e-06 -2.540572e-06 1 5.5394798e-07
0.34401163 -0.11488409 -0.046503134 -8.8187035e-06 2.577498e-06 1 0
0.35531759 -0.11446922 -0.046503138 3.6607478e-05 1.1452679e-06 1 1.2130737e-06
0.36241317 -0.11285897 -0.046503138 9.8091323e-06 3.72772e-06 1 5.4103486e-07
0.37657252 -0.11560594 -0.046503138 6.9243806e-06 -5.1390189e-06 1 1.0764029e-06
0.38675511 -0.11424349 -0.046503138 8.2739043e-06 8.4393626e-08 1 2.3695334e-06
0.3936156 -0.11141819 -0.046503138 1.1414631e-05 -1.1378092e-06 1 2.4116403e-06
0.41550723 -0.11567801 -0.046503142 0 0 1 2.2342349e-06
0.42724621 -0.11744848 -0.046503134 -0 -0 1 9.9876536e-07
0.43584996 -0.11895317 -0.046503138 -0 -0 1 1.2208947e-06
0.44414079 -0.11269969 -0.046503138 -1.6693717e-05 5.0062927e-06 1 0
0.4596521 -0.11492658 -0.046503138 -6.4408233e-08 -2.9929763e-06 1 6.5950434e-07
0.46430826 -0.11393839 -0.046503138 -0.17975323 0.026074303 0.98336607 0.070032224
0.47457016 -0.11332003 -0.046503142 -0.082355805 -0.054573167 0.99510771 0.16196361
0.48023909 -0.11101443 -0.046503138 -0.35019219 -0.03037677 -0.93618518 0.17183416
0.49374682 -0.11584938 -0.046331216 -0.80552512 -0.030279851 -0.59178746 0.13895971
-0.49573398 -0.10590856 -0.044702359 0.7738356 -0.012833945 -0.63325649 0.069794238
-0.48717174 -0.1048575 -0.043543305 0.68104649 -0.043308586 -0.73095834 0.11293147
-0.47827721 -0.10589378 -0.046503138 0.58979803 -0.062680043 -0.80511457 0.13188273
-0.46513903 -0.10693776 -0.046503142 0.20868249 0.066182517 0.97574151 0.13774852
-0.44242698 -0.1004765 -0.046503138 -1.1238918e-05 -1.1965875e-05 1 2.2596487e-06
-0.4266077 -0.10731512 -0.046503138 -1.1623736e-05 -1.2693538e-06 1 1.2389296e-06
-0.41629493 -0.10534011 -0.046503138 2.5457615e-07 4.8515531e-06 1 5.5556524e-07
-0.40430808 -0.10349501 -0.046503142 -1.518204e-05 2.3920825e-06 1 0
-0.39366955 -0.10606198 -0.046503138 -1.6337392e-05 -3.9306443e-07 1 6.1081488e-07
-0.38666645 -0.10288706 -0.046503138 4.2375419e-08 -2.6740972e-06 1 6.0079486e-07
-0.37536654 -0.10535026 -0.046503138 -1.61442e-05 -8.4335289e-07 1 5.8862366e-07
-0.3659825 -0.10069773 -0.046503138 -1.5622829e-05 -6.844997e-07 1 0
-0.35281038 -0.10621383 -0.046503138 1.6132233e-05 3.4194229e-06 1 0
-0.34658453 -0.10080525 -0.046503138 -7.6350852e-06 1.5611679e-06 1 1.1609856e-06
-0.33701319 -0.1041615 -0.046503138 7.1546151e-07 -5.8980336e-06 1 5.5228787e-07
-0.32203826 -0.10568502 -0.046503142 4.4891926e-06 -4.0493492e-06 1 5.7390429e-07
-0.31512722 -0.1009963 -0.046503138 2.3738014e-07 -2.0867458e-06 1 5.7704892e-07
-0.30859119 -0.1038123 -0.046503138 1.1269279e-07 4.3866071e-06 1 5.0734758e-07
-0.29790631 -0.10242705 -0.046503134 -4.105842e-06 -2.932513e-07 1 0
-0.28856081 -0.10885666 -0.046503138 2.9467321e-06 4.3358941e-06 1 5.2481442e-07
-0.27563766 -0.10439914 -0.046503138 -7.8779003e-06 -3.7062548e-06 1 1.0921431e-06
-0.26650929 -0.1026051 -0.046503142 5.5350492e-06 -7.4749514e-06 1 1.1403285e-06
-0.24028255 -0.10229704 -0.046503138 3.8629696e-06 2.8912928e-06 1 5.0634367e-07
-0.2359015 -0.10673676 -0.046503138 -1.6051896e-05 -5.3745634e-06 1 2.3198158e-06
-0.22453877 -0.10713276 -0.046503142 -1.8201677e-05 -6.0509783e-06 1 2.7095455e-06
-0.216042 -0.10531252 -0.046503138 -5.7213733e-06 -7.5135945e-06 1 2.5100956e-06
-0.20855832 -0.10023774 -0.046503142 8.1413273e-06 -1.7939946e-06 1 5.1310087e-07
-0.19404769 -0.10601529 -0.046503142 -2.0667818e-08 3.3453603e-06 1 5.2719378e-07
-0.17701924 -0.10707382 -0.046503138 1.422337e-06 -6.2033109e-06 1 2.6198381e-06
-0.16590439 -0.10151255 -0.046503134 -1.4465637e-06 -3.6075298e-06 1 2.1283038e-06
-0.15434764 -0.10406137 -0.046503138 -1.8904564e-06 2.0672085e-06 1 0
-0.13620575 -0.10838576 -0.046503142 -1.0017336e-05 -5.8359942e-06 1 2.3155676e-06
-0.12051387 -0.10010673 -0.046503138 -2.3775042e-06 2.4484141e-06 1 0
-0.11579894 -0.10533865 -0.046503134 0 0 1 0
-0.10501906 -0.10367632 -0.046503142 2.6179879e-07 -2.2365846e-06 1 2.6642695e-06
-0.085040845 -0.1053616 -0.046503142 -5.3733156e-06 -4.778648e-06 1 2.1308667e-06
-0.072818905 -0.10166995 -0.046503138 -8.6099078e-07 -1.4208091e-07 1 2.1636802e-06
-0.064932786 -0.10397141 -0.046503134 -3.9450865e-06 -4.3459686e-06 1 2.3337846e-06
-0.055276532 -0.10942721 -0.046503138 -1.1450663e-06 -4.5822564e-08 1 1.0706368e-06
-0.04543696 -0.10634153 -0.046503134 1.0500939e-06 3.7623952e-06 1 5.6212969e-07
-0.020258192 -0.10349618 -0.046503138 1.1100834e-06 -4.4868757e-06 1 5.4462873e-07
-0.013984019 -0.10457957 -0.046503138 5.1160367e-07 -2.4679396e-06 1 5.651346e-07
-0.0046387985 -0.10469642 -0.046503138 2.3266155e-07 -5.22547e-06 1 1.1824907e-06
0.0063277557 -0.10701647 -0.046503134 2.5219424e-07 1.9665565e-06 1 0
0.015082414 -0.10398658 -0.046503142 -2.8602076e-07 -5.0147047e-08 1 0
0.027024232 -0.1064842 -0.046503138 -5.3869843e-07 -2.1651906e-06 1 0
0.032415979 -0.10542642 -0.046503138 -2.7829049e-07 -4.9194527e-06 1 0
0.046899278 -0.10682297 -0.046503138 5.0230653e-07 3.5663595e-06 1 0
0.055398908 -0.10122163 -0.046503142 0 0 1 0
0.064607121 -0.10275204 -0.046503138 -1.7662423e-07 -2.3325379e-06 1 1.0678149e-06
0.084103413 -0.10297649 -0.046503138 -1.0878574e-06 -2.0143717e-07 1 9.8858391e-07
0.093931146 -0.10330243 -0.046503138 0 0 1 4.7840575e-07
0.10632491 -0.10531552 -0.046503134 7.2421612e-06 -2.2857421e-06 1 2.187616e-06
0.11660175 -0.10435851 -0.046503138 -1.0105247e-07 -2.2337949e-06 1 5.3295645e-07
0.12599608 -0.10480806 -0.046503138 3.98566e-06 -5.0680324e-08 1 1.1986092e-06
0.13459854 -0.10551029 -0.046503138 5.0571589e-06 -2.7949093e-06 1 5.2548637e-07
0.14578566 -0.10279156 -0.046503138 0 0 1 0
0.15345089 -0.10917908 -0.046503138 -2.0422444e-06 5.1850129e-09 1 0
0.16453026 -0.10660237 -0.046503142 -8.1282415e-06 3.3820979e-06 1 0
0.17389826 -0.10647051 -0.046503142 4.0563509e-06 2.0235402e-06 1 5.3833293e-07
0.18275206 -0.10530259 -0.046503138 0 0 1 5.0099015e-07
0.19696015 -0.10265471 -0.046503138 1.1984402e-07 -3.9972447e-06 1 5.2974127e-07
0.20400667 -0.10711297 -0.046503138 4.8871689e-06 -1.875085e-07 1 5.7640119e-07
0.21502355 -0.10632822 -0.046503142 4.90704e-06 7.5683039e-07 1 1.2656564e-06
0.22701401 -0.10724312 -0.046503138 -3.9788015e-06 2.2602535e-06 1 6.1324124e-07
0.23159969 -0.10210582 -0.046503138 -4.7058784e-06 4.7821359e-06 1 0
0.25343314 -0.10706847 -0.046503142 3.6553256e-06 5.2608857e-06 1 0
0.26410106 -0.1044629 -0.046503138 2.8943711e-07 1.7603606e-06 1 0
0.27109572 -0.10816007 -0.046503138 8.709315e-09 1.8708311e-06 1 0
0.28838307 -0.10480382 -0.046503138 -8.1174594e-06 -2.2042732e-07 1 5.8652648e-07
0.2995699 -0.10531503 -0.046503138 -3.6962942e-06 -2.1058434e-06 1 4.7792759e-07
0.30428523 -0.106534 -0.046503142 1.4135159e-05 -7.3551309e-06 1 1.0595789e-06
0.3249729 -0.10204875 -0.046503142 1.2768872e-05 -5.6163058e-06 1 1.0468791e-06
0.33493197 -0.10503553 -0.046503138 7.7609802e-06 5.8007977e-08 1 5.4546558e-07
0.3442544 -0.1068271 -0.046503138 -9.7037764e-06 4.6812511e-06 1 0
0.35633469 -0.10483763 -0.046503138 3.4854718e-05 3.3455483e-06 1 1.2847087e-06
0.36435923 -0.10422343 -0.046503142 -8.0701493e-06 8.8550865e-07 1 0
0.37184328 -0.10684528 -0.046503138 1.8405075e-05 8.9973946e-07 1 1.1081693e-06
0.40472254 -0.10682045 -0.046503138 1.1747255e-07 -1.789766e-06 1 1.9737174e-06
0.42911023 -0.10640045 -0.046503138 1.0322946e-05 -2.4358203e-06 1 1.063378e-06
0.43684682 -0.10176344 -0.046503134 2.4001371e-05 -5.8935789e-06 1 1.2034996e-06
0.44475034 -0.10199645 -0.046503138 -3.0419706e-05 -3.593633e-06 1 0
0.45761919 -0.10620016 -0.046503134 -1.543934e-05 -7.7066267e-07 1 0
0.46544579 -0.10401068 -0.046503142 -0.20405151 -0.017641833 0.97880113 0.066068955
0.47129816 -0.10863863 -0.046503138 -0.11744325 -0.030357825 0.99261546 0.16608344
0.48293298 -0.10516509 -0.046503138 -0.3045921 0.040375445 -0.95162672 0.16786321
0.49637341 -0.10321283 -0.046140164 -0.85252482 -0.0025374922 -0.52268058 0.11019112
-0.49154788 -0.094586909 -0.041598961 0.60483927 0.0065003964 -0.79632097 0.10322613
-0.48494917 -0.097871721 -0.046503138 0.61323202 -0.019717112 -0.78965676 0.11076654
-0.47389582 -0.095139496 -0.046503142 0.21594943 -0.14116402 -0.96614623 0.14877775
-0.46545032 -0.094319388 -0.046503138 0.20649002 0.12305003 0.97068048 0.14680345
-0.45761651 -0.092577957 -0.046503138 0.23217341 0.06135546 0.9707374 0.10974987
-0.44461033 -0.095416315 -0.046503138 -8.0001018e-06 -2.4078015e-06 1 0
-0.43396205 -0.094299197 -0.046503138 9.5611267e-06 1.1919738e-06 1 0
-0.42345577 -0.095636085 -0.046503138 1.9683954e-07 3.2388809e-06 1 0
-0.41161248 -0.095777921 -0.046503138 -1.8173943e-05 -7.2044486e-07 1 5.8024722e-07
-0.40515858 -0.096214034 -0.046503138 7.4511017e-06 1.0416816e-07 1 0
-0.38245618 -0.097495832 -0.046503138 0 0 1 6.2507769e-07
-0.37616712 -0.096410647 -0.046503138 6.94644e-06 2.54821e-06 1 0
-0.36602789 -0.093489595 -0.046503138 1.9404424e-05 5.1140114e-06 1 5.7779982e-07
-0.35689387 -0.095542006 -0.046503138 8.9501555e-06 -1.0163991e-06 1 5.6787434e-07
-0.34569839 -0.096565552 -0.046503134 -0 -0 1 5.4015874e-07
-0.33195007 -0.09672676 -0.046503142 5.4264336e-07 -2.4583496e-06 1 6.1070637e-07
-0.32556814 -0.095886573 -0.046503134 -4.2951838e-06 1.4472835e-06 1 6.0774238e-07
-0.31760645 -0.090107307 -0.046503134 -1.3584719e-05 8.6160406e-07 1 1.2464164e-06
-0.3064203 -0.093419805 -0.046503142 -1.9963019e-05 -2.1845162e-06 1 2.5828808e-06
-0.29525763 -0.094200715 -0.046503138 -3.3483168e-06 2.2106774e-06 1 0
-0.28921419 -0.099248923 -0.046503138 -1.8413144e-05 -2.9619689e-06 1 2.1959424e-06
-0.26387569 -0.094032526 -0.046503138 -8.8146553e-06 -5.0500007e-06 1 2.0850625e-06
-0.25321513 -0.095635891 -0.046503138 -3.9421761e-06 -5.9393087e-06 1 1.0248177e-06
-0.24835934 -0.092089161 -0.046503142 7.3871474e-06 2.1191202e-06 1 0
-0.23678403 -0.095593736 -0.046503138 3.3800006e-06 -2.3917403e-06 1 5.5295737e-07
-0.22363476 -0.093037486 -0.046503142 4.5840434e-06 3.9378068e-07 1 0
-0.2166317 -0.097269461 -0.046503138 -5.3512385e-06 5.0959363e-07 1 1.2372941e-06
-0.20791547 -0.094557799 -0.046503138 -4.0044251e-06 -2.1491871e-06 1 1.038305e-06
-0.18326804 -0.093750581 -0.046503138 -1.437527e-07 -1.9270458e-06 1 1.0790875e-06
-0.17539729 -0.093738787 -0.046503142 -6.2930358e-06 -4.4059007e-06 1 2.1230367e-06
-0.16344699 -0.094234012 -0.046503138 -1.113545e-05 -4.94494e-06 1 2.3367386e-06
-0.15635012 -0.096561782 -0.046503142 -3.9031088e-06 3.1852542e-07 1 5.5242458e-07
-0.14185393 -0.093506888 -0.046503134 -8.2302458e-06 -3.455654e-06 1 5.9292984e-07
-0.13616735 -0.095988438 -0.046503138 -7.2156367e-06 1.2278671e-06 1 5.5530404e-07
-0.12956828 -0.095897771 -0.046503142 -1.6977834e-06 -2.3763199e-07 1 5.4332963e-07
-0.11117033 -0.090429522 -0.046503138 0 0 1 5.4525145e-07
-0.10007136 -0.09117227 -0.046503134 -1.5906627e-06 -2.1542185e-06 1 5.976845e-07
-0.095732465 -0.094616875 -0.046503134 2.1809749e-06 -2.650469e-06 1 5.9320644e-07
-0.087583169 -0.097218439 -0.046503134 8.361738e-08 -2.3276648e-06 1 5.5740838e-07
-0.065868959 -0.097205326 -0.046503134 -3.0795936e-06 -6.3232701e-06 1 2.5526851e-06
-0.053383946 -0.095902056 -0.046503138 -1.0086593e-06 4.3263785e-06 1 5.590324e-07
-0.045673005 -0.096762516 -0.046503138 -8.0533823e-07 -2.0373436e-06 1 5.4369264e-07
-0.034205757 -0.095800161 -0.046503142 -5.874291e-07 2.4716076e-06 1 5.2670811e-07
-0.026921162 -0.094611563 -0.046503138 4.5208282e-07 3.7071118e-08 1 0
-0.017985018 -0.090712577 -0.046503134 2.8181694e-07 3.9349992e-08 1 6.4953042e-07
-0.0063597471 -0.093464173 -0.046503138 -2.2147929e-10 4.731357e-06 1 0
0.0051859813 -0.093244366 -0.046503142 1.3943441e-07 -6.4754695e-06 1 0
0.012415478 -0.09321066 -0.046503138 3.1482247e-07 -2.2599247e-06 1 0
0.021270417 -0.096387163 -0.046503138 -1.971723e-07 2.068907e-06 1 0
0.036392253 -0.093870848 -0.046503138 -1.2946762e-06 2.5882753e-06 1 0
0.047045473 -0.094153263 -0.046503138 -1.0350645e-06 -2.1210683e-06 1 0
0.066797793 -0.091043822 -0.046503134 -4.1387685e-07 -2.13099e-06 1 1.0650494e-06
0.076493964 -0.097885177 -0.046503142 2.4236749e-06 -2.0218397e-06 1 1.1937341e-06
0.10746618 -0.092999764 -0.046503138 8.7457414e-07 -3.8495755e-06 1 2.0156708e-06
0.11774834 -0.091064982 -0.046503138 4.6636887e-06 -2.236512e-06 1 9.529931e-07
0.13190873 -0.09480799 -0.046503142 8.0549945e-08 -4.2494307e-06 1 5.3364437e-07
0.14395571 -0.09330155 -0.046503138 4.9783284e-06 -2.6566584e-06 1 0
0.15186533 -0.098815501 -0.046503138 -4.5502534e-06 4.0240019e-07 1 0
0.16177304 -0.095031105 -0.046503142 -2.7223398e-06 4.2989836e-06 1 0
0.17466487 -0.095682003 -0.046503138 4.1976755e-06 -5.3537165e-06 1 5.4168515e-07
0.18818811 -0.093756169 -0.046503138 7.129423e-06 -1.5051946e-06 1 1.0571424e-06
0.19608986 -0.096126579 -0.046503142 1.1075294e-05 -4.9407304e-06 1 1.1895563e-06
0.20354752 -0.09472277 -0.046503138 3.8570488e-06 -4.0509349e-06 1 1.1572051e-06
0.22243109 -0.095914185 -0.046503142 -7.0449666e-08 3.3794613e-06 1 0
0.23805326 -0.096539289 -0.046503134 -4.514794e-06 2.1688628e-07 1 4.6768969e-07
0.24491332 -0.092338964 -0.046503138 -3.7767034e-06 -2.4503623e-07 1 5.0202726e-07
0.25304073 -0.098314822 -0.046503134 -4.6923237e-06 7.0355645e-07 1 5.3158084e-07
0.26591623 -0.096882433 -0.046503138 3.6069071e-06 -4.372439e-06 1 1.1890806e-06
0.27583098 -0.09499006 -0.046503142 -4.2425872e-06 1.4265355e-06 1 0
0.28303534 -0.096822008 -0.046503138 -9.4294646e-06 -1.4178532e-06 1 5.1085897e-07
0.29524532 -0.098271705 -0.046503138 -7.5375474e-06 -3.7475395e-06 1 0
0.31460378 -0.095619574 -0.046503138 -4.4026988e-06 -2.1529615e-06 1 5.3120414e-07
0.32907245 -0.095754191 -0.046503138 1.8961102e-05 -1.2360936e-06 1 5.2302863e-07
0.33667392 -0.099954128 -0.046503134 7.5160924e-06 1.0522425e-07 1 5.39528e-07
0.34581938 -0.093155347 -0.046503138 -1.143471e-05 -7.2990401e-06 1 6.5859592e-07
0.35624373 -0.095746465 -0.046503138 -9.3280405e-06 -1.5434327e-06 1 6.095417e-07
0.36192891 -0.095239192 -0.046503138 -1.8073946e-05 -2.1571159e-06 1 6.0310674e-07
0.38898438 -0.091305554 -0.046503138 7.7067316e-06 -1.2343104e-06 1 1.0363809e-06
0.4061155 -0.096917547 -0.046503134 7.8747835e-06 -3.3433382e-06 1 1.7242476e-06
0.42460608 -0.096875429 -0.046503142 1.0137871e-05 -2.0051755e-06 1 2.3598102e-06
0.43639708 -0.092714742 -0.046503138 -5.0556685e-07 -6.0844532e-06 1 2.4318283e-06
0.44335121 -0.096828885 -0.046503142 -3.4532761e-05 -3.4435988e-07 1 0
0.45472094 -0.09557125 -0.046503138 -2.8646704e-05 -2.0653461e-06 1 0
0.46727213 -0.09617056 -0.046503138 -0.2119517 0.055984084 0.97567523 0.072754622
0.47608206 -0.09474162 -0.046503138 -0.0055488469 0.04949281 0.99875903 0.11543113
0.48416662 -0.096120179 -0.046503134 -0.26468229 0.029331563 -0.96388948 0.14815429
0.49693257 -0.09091302 -0.04778789 -0.85071111 -0.024994891 -0.52503896 0.095761329
-0.49481016 -0.085761264 -0.045740768 0.68073672 -0.0144594 -0.7323854 0.075777464
-0.48406219 -0.085065693 -0.046503142 0.52833593 -0.054196909 -0.84730387 0.12105772
-0.47385612 -0.084538989 -0.046503142 0.20299827 -0.032254212 -0.97864777 0.15285394
-0.46490747 -0.086377203 -0.046503138 0.18763307 -0.030197667 0.98177493 0.11597855
-0.45787817 -0.082028195 -0.046503138 0.29870617 0.081615768 0.95084882 0.10535324
-0.44809067 -0.083382331 -0.046503138 2.2416825e-05 -4.3829491e-06 1 5.5604755e-07
-0.43476665 -0.083628543 -0.046503138 9.2527844e-06 2.4146482e-07 1 5.9073858e-07
-0.42484272 -0.084507324 -0.046503138 -9.0230478e-06 1.0827025e-06 1 5.678944e-07
-0.41716313 -0.08420822 -0.046503138 -8.3583072e-06 -2.1893964e-06 1 6.1317087e-07
-0.40394342 -0.086869612 -0.046503138 -0 -0 1 4.9709553e-07
-0.39054927 -0.089067526 -0.046503138 7.8947814e-06 2.8829199e-06 1 0
-0.38962278 -0.088839538 -0.046503138 9.133035e-08 2.0099264e-06 1 5.4292786e-07
-0.3787488 -0.086554989 -0.046503138 3.1483228e-07 -4.7125227e-06 1 1.191726e-06
-0.36407301 -0.08407446 -0.046503138 -1.9666813e-07 2.0294469e-06 1 4.8562885e-07
-0.35335669 -0.084120832 -0.046503138 -9.9426152e-06 -2.2201293e-06 1 2.2523643e-06
-0.33813244 -0.081390679 -0.046503138 -1.2783825e-07 -1.7077707e-06 1 4.7856037e-07
-0.31598052 -0.084857039 -0.046503138 -5.409463e-06 -1.7575533e-06 1 5.4378262e-07
-0.30401886 -0.087892443 -0.046503142 -5.3340327e-06 -4.6348382e-06 1 3.1217423e-06
-0.28196731 -0.087483868 -0.046503138 1.1520015e-05 1.139714e-06 1 4.5398281e-07
-0.27401757 -0.084792167 -0.046503134 -1.2694547e-05 -3.1879781e-06 1 9.9573481e-07
-0.26592633 -0.089172661 -0.046503138 -3.5625771e-06 -1.0534139e-06 1 4.8703515e-07
-0.25090092 -0.085656486 -0.046503138 -4.248016e-06 -1.5948052e-06 1 5.2267791e-07
-0.2321157 -0.082450189 -0.046503142 9.6529147e-06 4.189747e-06 1 0
-0.22013803 -0.086931393 -0.046503138 0 0 1 6.1763615e-07
-0.20199899 -0.083563194 -0.046503138 -3.7845869e-06 -4.4752891e-08 1 1.0547433e-06
-0.19586736 -0.081075214 -0.046503134 -7.1381265e-08 -3.6273086e-06 1 2.0883895e-06
-0.17731942 -0.085209876 -0.046503138 -1.1978724e-05 -3.1802999e-06 1 2.2101553e-06
-0.16620088 -0.084503785 -0.046503134 -2.177876e-06 4.2564704e-08 1 1.1496534e-06
-0.15490168 -0.081033558 -0.046503142 2.317056e-06 1.1333215e-06 1 5.5243055e-07
-0.14614916 -0.085333146 -0.046503138 4.8745092e-06 5.4160836e-07 1 5.5317537e-07
-0.13289917 -0.08369714 -0.046503142 -1.3713804e-07 -2.2439344e-06 1 5.9122914e-07
-0.12449042 -0.086937264 -0.046503134 3.5040152e-06 1.6420906e-07 1 0
-0.11251602 -0.082326874 -0.046503138 -3.5952066e-06 -1.8182303e-07 1 5.5149366e-07
-0.1034243 -0.086304128 -0.046503138 1.6235981e-06 2.077672e-06 1 0
-0.09525305 -0.086261511 -0.046503134 -3.7082222e-07 2.3481066e-06 1 5.5028141e-07
-0.083089866 -0.082711264 -0.046503138 -0 -0 1 5.6278367e-07
-0.075619921 -0.088586234 -0.046503138 3.8787371e-07 2.5223508e-06 1 5.603556e-07
-0.05570082 -0.088985503 -0.046503134 -2.8653608e-06 -1.6969271e-06 1 1.0877523e-06
-0.045938272 -0.084960461 -0.046503142 3.3149817e-07 -2.2281333e-06 1 5.5421549e-07
-0.033984039 -0.087599143 -0.046503134 1.505218e-07 4.6496266e-06 1 0
-0.026666682 -0.083858296 -0.046503134 4.9056769e-07 -1.1773357e-08 1 0
-0.012469854 -0.088222116 -0.046503138 3.8083002e-07 2.6821922e-06 1 0
-0.005707168 -0.086046457 -0.046503138 3.2416253e-07 -1.3272143e-08 1 0
0.00087288953 -0.084267691 -0.046503134 -1.6365325e-07 4.5264837e-06 1 0
0.012569845 -0.082278952 -0.046503134 -8.4206522e-07 4.6016253e-06 1 0
0.021840919 -0.084659353 -0.046503142 -8.0888856e-07 5.0383214e-06 1 0
0.035406575 -0.086505622 -0.046503142 -3.9849786e-07 4.2192942e-06 1 0
0.043421313 -0.088372916 -0.046503134 1.2745794e-06 -8.1062872e-08 1 6.0425003e-07
0.057761319 -0.084101424 -0.046503142 1.3004334e-06 -6.2959716e-06 1 2.4720432e-06
0.064766459 -0.086766846 -0.046503138 -5.276517e-08 2.3924822e-06 1 5.5921834e-07
0.077249005 -0.089376375 -0.046503138 0 0 1 1.1470416e-06
0.081832893 -0.081110492 -0.046503142 -3.8894209e-06 1.643214e-06 1 5.2681975e-07
0.095449664 -0.080794603 -0.046503142 0 0 1 1.1132961e-06
0.11153539 -0.084577009 -0.046503134 1.9395741e-06 -1.8976608e-06 1 2.0476893e-06
0.13330032 -0.08382719 -0.046503138 5.6809399e-06 -1.8910364e-06 1 1.0134295e-06
0.14535016 -0.08079081 -0.046503134 -5.4033894e-06 7.3660914e-07 1 0
0.1558301 -0.082960054 -0.046503142 4.5099741e-06 -1.6149539e-06 1 1.2244491e-06
0.16984496 -0.089068741 -0.046503142 -4.2440247e-06 2.4868825e-06 1 0
0.17429043 -0.084074803 -0.046503138 8.4464191e-06 1.066544e-06 1 1.0164031e-06
0.19359747 -0.0840334 -0.046503142 4.1182485e-08 -1.0372411e-06 1 5.3831542e-07
0.20484097 -0.085365988 -0.046503138 1.1390315e-05 -4.6348605e-06 1 2.3475402e-06
0.21530567 -0.087969869 -0.046503138 -9.1201337e-06 3.9698161e-06 1 0
0.22047123 -0.088492855 -0.046503138 0 0 1 0
0.2360952 -0.081694894 -0.046503138 -7.1441455e-08 1.1782021e-06 1 1.1394483e-06
0.2477449 -0.085532568 -0.046503134 -3.8484682e-06 -1.9810693e-07 1 0
0.2537457 -0.083770826 -0.046503138 -4.1149774e-06 2.2536501e-06 1 0
0.26519871 -0.083142251 -0.046503138 -8.763589e-06 1.6428342e-07 1 5.294778e-07
0.27189344 -0.085546955 -0.046503138 5.0107351e-06 -4.198469e-06 1 5.2245849e-07
0.29352024 -0.083991788 -0.046503138 8.7434682e-06 -4.9765713e-06 1 2.2578979e-06
0.30476677 -0.083285414 -0.046503142 4.0599875e-06 -1.8091621e-06 1 4.951209e-07
0.31619799 -0.083304934 -0.046503138 -1.2401172e-07 -2.0478844e-06 1 5.485594e-07
0.32695365 -0.087702662 -0.046503138 2.0312786e-05 4.5373722e-06 1 5.1701102e-07
0.33952516 -0.086347342 -0.046503138 1.6196109e-05 1.230964e-06 1 0
0.34473825 -0.083439372 -0.046503138 9.7263692e-06 3.0860028e-06 1 6.0349907e-07
0.35221598 -0.086195052 -0.046503138 -4.1419938e-07 1.9898816e-06 1 0
0.36495161 -0.085412525 -0.046503138 9.8502605e-06 4.0811844e-07 1 5.5733608e-07
0.37760293 -0.083509684 -0.046503142 1.0712289e-05 -3.9507981e-06 1 1.2527219e-06
0.38012516 -0.084361553 -0.046503142 1.4847476e-05 -2.8100776e-06 1 2.12496e-06
0.39642385 -0.084674299 -0.046503142 4.7281424e-07 -3.607762e-06 1 1.3397848e-06
0.4078162 -0.082497656 -0.046503142 -2.8019838e-07 -2.9756145e-06 1 2.3836528e-06
0.41185653 -0.081265666 -0.046503134 1.6644955e-05 1.6350126e-06 1 1.1231691e-06
0.42992109 -0.08774209 -0.046503138 -8.1805429e-06 7.9779034e-07 1 5.2251625e-07
0.43414068 -0.086664081 -0.046503138 -7.6003603e-06 1.4376691e-06 1 6.037227e-07
0.44385672 -0.08496049 -0.046503138 -9.4627185e-06 1.6296851e-06 1 0
0.45399508 -0.082014598 -0.046503142 -5.228157e-07 3.6451756e-06 1 5.7491923e-07
0.46853411 -0.084247835 -0.046503138 -0.15470336 -0.082536072 0.98450738 0.081362985
0.4778772 -0.082584515 -0.046503142 -0.26536521 0.074690044 -0.9612506 0.18058603
0.48563963 -0.085244253 -0.046503138 -0.59480572 0.055319648 -0.80196381 0.16264045
0.49528211 -0.082677148 -0.045781687 -0.85078448 -0.0036447342 -0.52550209 0.10228156
-0.49631709 -0.075553328 -0.045281217 0.69169205 0.083091855 -0.71739656 0.070771128
-0.48797002 -0.074417673 -0.046503138 0.61478478 0.0034946578 -0.78868723 0.096750095
-0.47684532 -0.076187 -0.046503138 0.34062049 0.027570777 -0.93979657 0.14008939
-0.46412787 -0.076208964 -0.046503138 0.26320013 -0.0040568863 0.96473277 0.11462943
-0.45375234 -0.076069191 -0.046503142 0.19501759 -0.060388971 0.97893876 0.064082369
-0.44436064 -0.075129241 -0.046503134 7.4199615e-06 3.0933725e-06 1 0
-0.43798527 -0.077482916 -0.046503138 1.1748942e-07 -2.4764472e-06 1 0
-0.42692184 -0.074533708 -0.046503138 8.784582e-06 -2.190166e-06 1 5.7921369e-07
-0.41583335 -0.073235437 -0.046503138 1.4474517e-05 2.9193536e-06 1 0
-0.404172 -0.074979164 -0.046503138 1.0047952e-05 -1.2584038e-06 1 5.3382342e-07
-0.38670003 -0.074814744 -0.046503138 -2.7543401e-05 -2.8626748e-06 1 2.0571385e-06
-0.36502433 -0.076970719 -0.046503138 7.3977562e-06 2.3711123e-06 1 5.3845673e-07
-0.35644472 -0.07224264 -0.046503134 -1.2572549e-05 3.1645181e-06 1 2.1512676e-06
-0.32407248 -0.073328786 -0.046503142 -7.0469889e-07 -1.9536835e-06 1 1.5592396e-06
-0.31121823 -0.077653021 -0.046503142 -1.0855063e-05 -3.391749e-06 1 2.1531962e-06
-0.30701005 -0.074108794 -0.046503142 9.6820786e-06 -4.0829414e-07 1 9.7642226e-07
-0.29608902 -0.079755977 -0.046503142 -4.4498747e-06 8.822621e-07 1 1.0811151e-06
-0.27510083 -0.075746767 -0.046503138 -1.3697053e-05 -3.6776839e-07 1 4.7523847e-07
-0.26117754 -0.072213627 -0.046503138 -2.856174e-08 -1.1140335e-06 1 5.8436228e-07
-0.25506356 -0.077683687 -0.046503142 -4.7412427e-06 -3.295045e-06 1 5.8946108e-07
-0.24031879 -0.074101008 -0.046503142 -4.0588743e-06 -8.634417e-07 1 5.6632285e-07
-0.23516342 -0.078733884 -0.046503138 5.5012333e-06 -1.1479551e-06 1 5.9305495e-07
-0.22450759 -0.075370595 -0.046503138 3.7724653e-06 9.9796989e-07 1 0
-0.21869978 -0.070780881 -0.046503142 1.004912e-05 2.9932082e-07 1 6.322407e-07
-0.20244303 -0.079977214 -0.046503138 0 0 1 5.3895002e-07
-0.19429013 -0.071474984 -0.046503138 3.2834455e-06 -3.2445855e-06 1 5.1092201e-07
-0.1853441 -0.077848844 -0.046503138 -5.0844319e-06 -2.3030908e-07 1 2.4535802e-06
-0.17869511 -0.072707005 -0.046503138 -3.9702641e-06 -1.8915187e-06 1 5.864498e-07
-0.16603889 -0.072987609 -0.046503142 1.4826416e-05 2.1963424e-06 1 0
-0.15099461 -0.072429113 -0.046503138 -2.4711806e-06 2.1963037e-06 1 5.6984669e-07
-0.14796042 -0.076034412 -0.046503138 -2.8827289e-06 -2.0037521e-06 1 5.6830606e-07
-0.13202631 -0.073908359 -0.046503138 2.4351102e-06 2.7400702e-06 1 0
-0.10376684 -0.076123044 -0.046503142 1.2810472e-07 -9.954407e-07 1 5.1473324e-07
-0.098332785 -0.079838872 -0.046503142 4.6478999e-06 4.205689e-06 1 5.6280709e-07
-0.087178782 -0.075276673 -0.046503138 1.025337e-06 -3.6485751e-06 1 2.5741131e-06
-0.079609036 -0.070420362 -0.046503138 -8.97333e-07 -5.2219576e-07 1 5.4040561e-07
-0.06501326 -0.074464962 -0.046503138 -2.9641325e-07 -2.7999058e-06 1 4.9968952e-07
-0.050448831 -0.07853476 -0.046503142 1.8944506e-06 3.4845955e-06 1 0
-0.043879181 -0.071125112 -0.046503138 7.9671474e-07 9.0009922e-07 1 0
-0.035016716 -0.07692752 -0.046503138 -2.0310797e-06 2.3994171e-06 1 5.8960023e-07
-0.022449652 -0.075613491 -0.046503138 2.0622009e-08 2.1429678e-06 1 0
-0.017710108 -0.070499659 -0.046503138 4.5818035e-07 4.24981e-06 1 0
-0.0090458021 -0.076264702 -0.046503134 4.3131084e-07 2.0560369e-06 1 0
0.0099803731 -0.078412242 -0.046503138 -3.1050809e-07 2.2416837e-06 1 0
0.010800749 -0.074520551 -0.046503142 4.0538677e-07 1.4920662e-09 1 6.1342507e-07
0.026231427 -0.073963508 -0.046503142 5.0390906e-07 3.4200443e-08 1 5.1753426e-07
0.036533568 -0.072603814 -0.046503138 8.2654168e-07 2.257138e-06 1 4.9715749e-07
0.044015646 -0.07625109 -0.046503138 2.4272802e-06 -7.2344471e-07 1 2.6239718e-06
0.050905485 -0.078488983 -0.046503138 -2.1460939e-06 -3.0695202e-07 1 5.5125031e-07
0.061417166 -0.078243859 -0.046503138 1.9221693e-06 1.2661775e-06 1 1.1045811e-06
0.074015953 -0.077398054 -0.046503142 7.7593603e-07 -2.7214135e-06 1 2.5218721e-06
0.085788213 -0.076990284 -0.046503134 -5.9086865e-06 2.5899287e-06 1 5.435553e-07
0.098052524 -0.072544456 -0.046503134 2.1548033e-06 -4.400109e-06 1 2.3699549e-06
0.10552931 -0.07900463 -0.046503142 -1.9170159e-06 8.16252e-07 1 5.0869755e-07
0.11577134 -0.076366007 -0.046503138 2.0557735e-07 1.1863094e-06 1 2.1697265e-06
0.13420051 -0.074955329 -0.046503138 5.6763161e-06 -1.6854883e-06 1 2.2048405e-06
0.14870566 -0.074822105 -0.046503138 5.1839955e-08 1.8935104e-06 1 5.0590626e-07
0.15523225 -0.075211182 -0.046503138 -5.2615351e-06 -2.6441509e-07 1 5.6395203e-07
0.16881019 -0.078720488 -0.046503142 2.3729829e-06 -9.645546e-07 1 1.1001257e-06
0.17244604 -0.075991094 -0.046503142 4.1638295e-06 -1.6248863e-07 1 1.7044551e-06
0.18782006 -0.073557243 -0.046503138 5.3451686e-06 -5.8289569e-08 1 2.4469537e-06
0.20478697 -0.076370232 -0.046503138 4.8218849e-06 -2.7524532e-06 1 2.3204725e-06
0.21788019 -0.073736921 -0.046503138 5.3506133e-06 -3.8638609e-06 1 2.2173617e-06
0.22784588 -0.071174808 -0.046503134 4.2422766e-06 4.9610549e-07 1 5.6061361e-07
0.23564613 -0.073492326 -0.046503138 -9.2149712e-06 4.2225929e-06 1 0
0.25692719 -0.077257946 -0.046503142 3.9743682e-06 2.1145557e-07 1 5.7449773e-07
0.26508847 -0.074289627 -0.046503138 -3.7880388e-06 -2.4834959e-08 1 0
0.27532429 -0.078983396 -0.046503138 -3.937299e-06 3.0960595e-07 1 0
0.28456107 -0.072710648 -0.046503138 3.9167362e-06 2.035051e-06 1 0
0.29319945 -0.077553414 -0.046503138 -1.1827662e-05 2.4311157e-06 1 0
0.30422598 -0.075587831 -0.046503138 -0 -0 1 5.5532621e-07
0.31282246 -0.074833177 -0.046503138 -1.360263e-05 -4.5335887e-06 1 5.2000854e-07
0.32344449 -0.076099753 -0.046503142 -4.2942584e-06 3.7652961e-07 1 5.7356823e-07
0.33420727 -0.071727805 -0.046503134 -4.0548189e-06 -2.8411699e-07 1 0
0.35276949 -0.078104906 -0.046503138 -1.518567e-05 2.6270934e-06 1 0
0.36317012 -0.07613574 -0.046503138 -1.6935357e-05 4.3677228e-06 1 0
0.3770375 -0.075789616 -0.046503138 -3.0633745e-07 1.3544163e-06 1 5.3521262e-07
0.38751853 -0.076621607 -0.046503138 -7.6697652e-06 -2.7857368e-07 1 6.4620968e-07
0.39534986 -0.075298972 -0.046503138 -8.510744e-06 -3.748575e-06 1 6.8163968e-07
0.40911865 -0.072609797 -0.046503134 -9.3749486e-06 -6.4253402e-07 1 0
0.41601557 -0.071792573 -0.046503138 -7.1806376e-06 1.9245481e-06 1 0
0.42276847 -0.072821476 -0.046503138 -8.4683406e-06 -8.3879007e-07 1 5.7156575e-07
0.43388188 -0.077143669 -0.046503138 -8.9673786e-06 -4.6841171e-07 1 5.8004508e-07
0.44539955 -0.072480969 -0.046503138 -1.5639813e-05 -1.1342598e-06 1 5.5870669e-07
0.45584208 -0.074365675 -0.046503138 -1.8072864e-05 2.6676939e-06 1 0
0.46443751 -0.074784346 -0.046503138 -0.26988864 -0.083038345 0.95930427 0.095644414
0.47311479 -0.074635863 -0.046503138 -0.0047700503 -0.21495505 0.97661233 0.16973099
0.48692283 -0.075098984 -0.046503138 -0.799025 0.0052614375 -0.60127479 0.13608775
0.4956238 -0.076069541 -0.045484453 -0.86572665 -0.012877957 -0.50035137 0.091368996
-0.49528456 -0.06529025 -0.045017496 0.69595605 -0.037128352 -0.71712393 0.081483074
-0.48872167 -0.062841043 -0.043343045 0.67130339 0.064607188 -0.73836148 0.080024235
-0.4737173 -0.064938486 -0.046503138 0.22479762 0.10927787 -0.96825838 0.14801982
-0.46648619 -0.063985199 -0.046503138 0.17436087 -0.10613015 0.97894567 0.10474073
-0.45865965 -0.065890536 -0.046503138 0.2717959 -0.1304488 0.95347261 0.082117945
-0.44423655 -0.066244327 -0.046503138 1.6111802e-05 1.4631345e-07 1 0
-0.43839207 -0.066212542 -0.046503138 -8.4292305e-06 1.7786401e-06 1 0
-0.42263007 -0.063369527 -0.046503142 4.6002452e-08 -1.1890459e-06 1 5.4439045e-07
-0.41826922 -0.069361091 -0.046503138 8.9808491e-06 3.9220612e-07 1 0
-0.40568304 -0.064529024 -0.046503142 8.0308882e-06 -1.5070816e-06 1 5.4350357e-07
-0.39691746 -0.060540009 -0.046503134 -8.7737817e-06 9.9458464e-07 1 5.2796628e-07
-0.38626325 -0.064615235 -0.046503138 -3.4392189e-05 -3.0796582e-06 1 2.1488268e-06
-0.37516654 -0.065415621 -0.046503142 2.1929841e-07 1.544088e-06 1 4.7878973e-07
-0.35597703 -0.064862929 -0.046503138 -1.0223515e-05 -5.1077818e-06 1 2.3329001e-06
-0.34222385 -0.065230362 -0.046503134 -1.5882672e-05 2.8812442e-06 1 2.1438209e-06
-0.3338424 -0.063724548 -0.046503142 -7.5998346e-06 -2.162451e-06 1 2.1191481e-06
-0.31377298 -0.063105054 -0.046503138 4.6615719e-06 -5.9718377e-07 1 4.8262382e-07
-0.29235193 -0.067059293 -0.046503134 -1.7625644e-05 -2.4363098e-06 1 2.124908e-06
-0.28350422 -0.062634453 -0.046503138 -1.337533e-05 -3.0187405e-06 1 2.2832273e-06
-0.27259266 -0.066158503 -0.046503142 3.9266865e-06 -6.5523585e-07 1 5.1020788e-07
-0.2668736 -0.065173566 -0.046503138 -4.425178e-09 -9.1102572e-07 1 0
-0.2505624 -0.065163545 -0.046503138 -4.1925796e-06 -2.1488841e-06 1 0
-0.24270254 -0.065262482 -0.046503138 -3.4239779e-06 2.6176679e-06 1 0
-0.23449084 -0.067294374 -0.046503138 -8.6649552e-06 -8.4649463e-07 1 0
-0.22151291 -0.06435664 -0.046503134 -2.0351125e-07 -1.3142117e-06 1 5.6164419e-07
-0.21532294 -0.063445717 -0.046503138 5.7895434e-08 -2.3553707e-06 1 5.8062608e-07
-0.19792171 -0.061523564 -0.046503138 3.9751353e-06 -2.1472031e-06 1 1.0779506e-06
-0.18399291 -0.065292299 -0.046503138 -5.1373495e-06 -2.734503e-07 1 5.3258657e-07
-0.16567506 -0.064213514 -0.046503138 4.3847131e-06 -1.0089382e-06 1 0
-0.15315983 -0.063653134 -0.046503138 1.9939223e-06 1.4668738e-07 1 0
-0.14383143 -0.069283061 -0.046503138 2.5581535e-06 2.5942318e-06 1 5.4061638e-07
-0.134929 -0.066094093 -0.046503138 -2.4777646e-06 3.6405727e-06 1 4.806904e-07
-0.12478451 -0.065964162 -0.046503134 5.2507944e-06 -3.5627636e-07 1 0
-0.11649279 -0.065097727 -0.046503138 -2.1975529e-06 -1.9192137e-06 1 9.8932355e-07
-0.090006687 -0.068745054 -0.046503138 2.6102857e-06 1.6405595e-06 1 5.4104015e-07
-0.086022615 -0.062894247 -0.046503134 1.7458083e-07 -9.5207503e-07 1 5.4252257e-07
-0.075618453 -0.064269863 -0.046503138 9.5941107e-07 1.8441721e-06 1 5.524351e-07
-0.058755931 -0.061000966 -0.046503138 1.2228099e-07 1.1663793e-06 1 5.5681301e-07
-0.043866847 -0.066186585 -0.046503138 2.8705581e-06 -3.3416368e-06 1 5.9842506e-07
-0.032508858 -0.061487678 -0.046503138 6.0309071e-07 2.0452367e-06 1 0
-0.027712937 -0.064768098 -0.046503138 6.9304838e-07 2.2978847e-08 1 0
-0.0024915915 -0.064861983 -0.046503142 -1.1393095e-07 -1.7904298e-06 1 0
0.0033470478 -0.066016547 -0.046503138 -4.2129098e-08 -1.0894136e-06 1 6.1224625e-07
0.010599807 -0.068381049 -0.046503138 -8.0158929e-07 2.0444327e-06 1 0
0.021646148 -0.063466214 -0.046503138 6.1505904e-07 -2.8331592e-06 1 2.4698561e-06
0.033662666 -0.062038362 -0.046503138 0 0 1 1.0925492e-06
0.045211419 -0.064191073 -0.046503138 7.8042655e-07 -1.5589327e-06 1 2.1577237e-06
0.058853582 -0.062717691 -0.046503138 3.5806909e-06 -2.4003332e-06 1 2.0969132e-06
0.071137756 -0.063354433 -0.046503138 9.5488667e-07 1.3253397e-06 1 1.0501798e-06
0.083289154 -0.064377166 -0.046503142 5.5980363e-06 -3.4387804e-06 1 2.3625073e-06
0.0951657 -0.065896578 -0.046503142 6.3978632e-06 -5.9563508e-06 1 2.364586e-06
0.10190757 -0.060822748 -0.046503138 1.5785876e-07 -1.0036949e-06 1 6.1956757e-07
