# .PCD v0.7 - Point Cloud Data file format
VERSION 0.7
FIELDS x y z normal_x normal_y normal_z curvature
SIZE 4 4 4 4 4 4 4
TYPE F F F F F F F
COUNT 1 1 1 1 1 1 1
WIDTH 581
HEIGHT 1
VIEWPOINT 0 0 0 1 0 0 0
POINTS 581
DATA ascii
0.11460701 -0.30080995 -0.095573127 0.49211088 0.42859116 -0.75771797 0.20845
0.12614003 -0.30037448 -0.093383893 -0.99800855 0.062312923 -0.0098013422 0.26805159
0.15320285 -0.30151939 -0.094376124 0.52380168 0.85183293 0.0035200643 0.2042186
0.17439117 -0.30515838 -0.09490677 -0.92322528 -0.37925318 0.061823606 0.21090923
0.18443231 -0.30800599 -0.098679885 -0.99892068 -0.0058419518 -0.046078268 0.12614691
-0.17119354 -0.29366231 -0.092527896 0.97928739 -0.078331985 0.18670917 0.20937297
-0.15465461 -0.29531467 -0.090622321 0.46783903 -0.40914205 0.78340888 0.20386843
-0.12627554 -0.29412276 -0.096662894 0.3215946 0.13846618 0.93669844 0.22407092
-0.097964376 -0.29917833 -0.090831593 -0.33188936 0.59832394 -0.7292859 0.18062237
-0.086501621 -0.29452834 -0.096496254 0.54946226 -0.14389318 0.82303464 0.19646543
0.15465957 -0.29288059 -0.094488382 0.47614834 0.85270727 -0.2148793 0.23152588
0.17407139 -0.29472557 -0.094914012 -0.9590261 -0.24715911 0.13849646 0.23199245
-0.17464174 -0.28528851 -0.09380728 0.99849176 -0.0030552223 -0.054818023 0.21785277
-0.15465626 -0.28618953 -0.093027711 0.45605895 0.22477728 0.86109549 0.24476641
-0.12627554 -0.28594953 -0.095234782 0.42975506 0.47673208 0.76683575 0.250063
-0.086501613 -0.28207788 -0.094223931 0.59390533 0.27024993 0.75778723 0.18804364
0.086501613 -0.28596318 -0.091575816 -0.05833526 0.97642082 -0.20784479 0.19935261
0.12627554 -0.28531888 -0.091992058 -0.042134568 0.97444147 0.22065464 0.24925497
0.15465295 -0.28442603 -0.095565319 -0.5739426 0.698847 0.42685202 0.23888008
0.17540771 -0.2842412 -0.095723771 -0.99242842 0.0058470718 0.12268562 0.22649534
-0.17475837 -0.27578557 -0.095133625 0.941589 0.23474289 0.24146636 0.21286859
-0.15465957 -0.27424544 -0.095878087 0.49526215 0.84824252 0.1876166 0.23221585
-0.14499013 -0.27590665 -0.093897894 0.23090518 0.97266817 0.024481459 0.24685611
-0.13627362 -0.27564675 -0.095190004 0.19849432 -0.29531303 0.9345535 0.23576951
-0.12627554 -0.27785182 -0.096457094 0.37380993 -0.08779259 0.92334098 0.24150652
-0.11910507 -0.27505925 -0.096348956 0.3972801 0.1551182 0.90449268 0.2572664
-0.10845473 -0.27537 -0.094925202 0.30112097 0.67159259 0.67697084 0.20691822
-0.090652838 -0.27559158 -0.093672834 0.37733191 0.5871824 0.71612668 0.15667287
-0.087916791 -0.27614903 -0.09653388 0.39635596 0.57728398 0.71389443 0.15578786
0.086501613 -0.27993765 -0.098001346 -0.43224394 0.72819233 0.53188449 0.21450402
0.093502872 -0.27495953 -0.096850283 -0.24364403 0.7569676 0.60633123 0.24208395
0.10304575 -0.27724704 -0.090230152 -0.3042751 0.90253419 0.30471089 0.18248111
0.11180946 -0.27524483 -0.095416129 -0.27309257 0.80864877 0.52106398 0.24170336
0.12525451 -0.27546653 -0.095990703 0.20438167 0.57396185 0.79296649 0.29141033
0.13829133 -0.27561593 -0.093550429 0.26126438 0.90341753 -0.33996743 0.25570071
0.15415697 -0.27850422 -0.094580948 -0.52271509 0.79241449 0.31440145 0.2070836
0.17313288 -0.27450904 -0.09450715 -0.97432804 0.15023202 0.16767547 0.19190827
-0.17263921 -0.26656926 -0.093588151 0.93720543 0.34844729 0.015180876 0.20449613
-0.16201553 -0.26213872 -0.093162179 0.93376666 0.34557027 -0.093064286 0.23885393
-0.15503933 -0.2637428 -0.097443432 0.8492409 0.5212605 0.084126316 0.26054353
-0.12627554 -0.26494265 -0.094599709 0.71158731 -0.029509177 0.70197773 0.22844607
0.12627554 -0.26325226 -0.095915332 -0.9963448 -0.064413235 0.056107413 0.1728068
0.15725711 -0.2626192 -0.090746544 -0.93588394 0.21842556 0.27642629 0.24867328
0.16966109 -0.26150426 -0.09830828 -0.96363688 0.24551973 0.10547101 0.19619046
0.17199335 -0.26427171 -0.094788074 -0.92827481 0.34582138 0.13679734 0.18765157
0.18466526 -0.26187199 -0.097045422 -0.97474086 0.18921949 0.11864313 0.14911571
-0.18773288 -0.25571656 -0.090876408 0.94728607 0.30148277 0.10843081 0.13028847
-0.17400385 -0.25589055 -0.094187886 0.92049497 0.37704939 0.10258055 0.20597397
-0.12627554 -0.25559586 -0.095900327 0.8607161 0.11516585 0.49588779 0.13805565
0.12627554 -0.25411785 -0.0937365 -0.94229138 0.20378973 0.26562509 0.12509048
0.16707811 -0.25349358 -0.09370093 -0.89433295 0.16781345 0.41473758 0.26262677
0.17163846 -0.25328079 -0.094549842 -0.96156955 0.15781325 0.2246753 0.22842078
-0.18686773 -0.24130431 -0.09127783 0.92861265 0.35119507 0.11975131 0.09772262
-0.17299084 -0.24765611 -0.097737134 0.86267042 0.50516248 0.024712497 0.19743776
-0.16631232 -0.24360819 -0.094647601 0.29835528 0.94850039 -0.10644791 0.2166699
-0.15265584 -0.24163488 -0.096119873 -0.61670071 0.78532118 0.054322068 0.18021989
0.15482317 -0.24205609 -0.091583431 0.77930218 0.62611949 0.025739279 0.16495727
0.16669564 -0.24181315 -0.094344914 -0.43605542 -0.34438774 0.83141613 0.26912436
0.17417811 -0.24760287 -0.097265244 -0.79952443 0.60049987 -0.012672842 0.20758303
0.18834755 -0.24077587 -0.092072316 -0.93051583 0.30102801 0.20862035 0.093593121
-0.18378867 -0.2335587 -0.095524833 0.99386901 0.093960881 -0.058274046 0.1634118
-0.141315 -0.23363248 -0.096044466 0.81838965 0.57147157 0.060486604 0.24397977
-0.1377103 -0.23164207 -0.095478103 0.97740036 0.18642795 0.099665277 0.18427832
-0.12627554 -0.23192731 -0.090782292 0.99823761 -0.059029266 0.0061005093 0.13473451
0.12627554 -0.2335276 -0.096227877 -0.89260703 0.18212277 0.41241249 0.17046659
0.13826184 -0.23183304 -0.097088732 -0.96588057 0.25752449 0.027491363 0.18813625
0.14407937 -0.23484889 -0.097332761 0.57985508 0.81179374 -0.068985201 0.24428727
0.18583713 -0.23370795 -0.093932822 -0.97839612 0.19678837 0.063366532 0.15241039
-0.19094916 -0.22834313 -0.091242611 0.98958772 0.14277029 0.018242035 0.10964659
-0.13699472 -0.22612533 -0.094427064 0.9810735 0.16110499 0.10742407 0.18838318
-0.12627554 -0.22348632 -0.092323557 0.96666294 -0.25604874 -0.0013495224 0.14894068
0.038899411 -0.221021 -0.093623295 0.93290395 0.29038277 -0.21299767 0.15495354
0.12627554 -0.22561395 -0.095927067 -0.99746495 -0.052655023 0.047866538 0.17235613
0.13752376 -0.22258113 -0.097654067 -0.98486733 0.13971794 0.1025437 0.23292361
0.19147819 -0.22652878 -0.097095586 -0.98455787 0.16718042 -0.051927369 0.10642496
-0.18750656 -0.2157768 -0.092781574 0.96486086 -0.26109782 0.029521855 0.16669257
-0.17454028 -0.21343809 -0.095539875 -0.52646035 0.8485058 -0.053641077 0.2160425
-0.1627236 -0.21323445 -0.096770152 0.10348655 0.96045971 -0.25847179 0.22831777
-0.15602055 -0.21389124 -0.090101823 0.6209628 0.74893582 0.23130141 0.18873036
-0.13779078 -0.21621215 -0.098396719 0.92109305 0.35052902 0.1694608 0.21853164
-0.030122031 -0.21470316 -0.099411711 0.43548447 0.8814283 -0.18285902 0.19389233
0.039589588 -0.21573013 -0.09693075 0.81876856 0.56147695 -0.11984018 0.18050651
0.12627554 -0.21461287 -0.094976932 0.76172119 0.64697504 -0.034700762 0.20734702
0.14700204 -0.21363227 -0.095050424 -0.62045836 0.71063781 0.33170074 0.23622176
0.15406519 -0.21362738 -0.092780888 -0.60890901 0.75991923 0.22749193 0.23806413
0.16431659 -0.21372673 -0.091772124 -0.26471901 0.94467533 0.19368123 0.22924203
0.17509973 -0.21312356 -0.097896285 0.60898 0.7500596 -0.25798047 0.23609297
0.18306623 -0.21372367 -0.094131082 -0.89244944 -0.39883122 0.21087374 0.20984948
-0.18612228 -0.20370741 -0.0947688 0.98250592 0.13622481 -0.12698394 0.24283703
-0.16622116 -0.2044764 -0.093785882 -0.10272744 0.99169523 0.077379458 0.19989106
-0.15482984 -0.20313184 -0.093767643 0.3087638 0.91952026 0.24320234 0.19221464
-0.14259367 -0.20450155 -0.096069828 0.46781489 0.79989016 0.37593213 0.22762251
-0.13461974 -0.20234078 -0.094344452 -0.02765964 0.94700921 0.3200132 0.22358981
-0.11101217 -0.20078039 -0.090147875 -0.24626824 0.90682781 0.34207517 0.1175231
-0.1050742 -0.20067459 -0.090524748 -0.13439374 0.91653657 0.37669489 0.10899711
-0.088586628 -0.20043883 -0.091364697 -0.017914938 0.93848574 0.34485304 0.12824841
-0.066436738 -0.20034862 -0.0916861 -0.040655836 0.95765108 0.28504664 0.16496772
-0.029329792 -0.20467509 -0.095551223 0.14582568 0.9865225 -0.074216835 0.20669635
0.052769847 -0.20068936 -0.090472162 0.065651745 0.88043374 0.46960223 0.15858889
0.068393931 -0.20010379 -0.09255822 -0.046273176 0.9233129 0.38125047 0.14249389
0.07668139 -0.20039889 -0.091506913 0.0066794087 0.92722458 0.37444639 0.12934735
0.12784946 -0.20287713 -0.09302336 0.22538456 0.92498273 0.30595541 0.18975657
0.1366363 -0.2026951 -0.093169004 -0.16858108 0.72334146 0.66959512 0.22067626
0.14511359 -0.20422478 -0.092615113 -0.24836673 0.88795578 0.38710278 0.19329914
0.16292815 -0.20393546 -0.096112564 -0.041296113 0.96163213 0.27121627 0.19395524
0.17258549 -0.20248711 -0.09491723 -0.23472406 0.91541827 0.32697713 0.22214176
0.18642485 -0.20218472 -0.092588097 -0.96407872 0.25014031 0.089342408 0.22698958
0.19159907 -0.20195788 -0.093192205 -0.97242826 0.22421739 -0.064108089 0.20970041
-0.18687889 -0.19728354 -0.093684122 0.94252938 0.3143743 -0.1131689 0.20093325
-0.17378047 -0.19032384 -0.090232991 0.94726682 0.30964187 0.082507797 0.27697089
-0.16552317 -0.19496018 -0.093749538 -0.040429257 -0.1472532 0.98827219 0.30443904
-0.15369195 -0.19427805 -0.095190682 0.53001791 0.51214832 0.67585886 0.23765059
-0.14067726 -0.1908312 -0.094467267 0.33428031 0.32924423 0.88309401 0.23944964
-0.12460448 -0.19463186 -0.093688719 -0.31787333 0.76336044 0.56234998 0.22161785
-0.11318631 -0.19427586 -0.093620539 -0.22620109 0.8861118 0.40452304 0.17857541
-0.10492919 -0.19560206 -0.095761247 -0.028012987 0.93324614 0.35814372 0.17232527
-0.094565414 -0.19524181 -0.093062617 -0.10554248 0.92094779 0.37512106 0.14162293
-0.080382951 -0.1945166 -0.090633132 0.060506657 0.90191549 0.42765343 0.14173476
-0.071041964 -0.19743833 -0.096286006 -0.11059927 0.9773398 0.18048492 0.17890568
-0.063352354 -0.19954756 -0.097233467 -0.093029857 0.98333549 0.15619442 0.20148548
-0.05415662 -0.19386928 -0.095317699 0.24027917 0.82629079 0.50942081 0.2255398
-0.026152011 -0.19529247 -0.095285937 0.50822908 0.80327201 0.3105756 0.25663981
-0.017334366 -0.19562268 -0.093807764 -0.25828108 0.93948448 0.22507742 0.2189718
-0.0011838945 -0.19475806 -0.090381965 -0.021575345 0.85643339 0.51580644 0.1417089
0.005867946 -0.19498381 -0.094485022 0.020870196 0.92286867 0.38454887 0.16395117
0.012821048 -0.19277322 -0.092446871 0.071120404 0.91185862 0.40429679 0.14717568
0.024113672 -0.19562799 -0.095344156 0.15882036 0.97122687 0.17746717 0.20634902
0.035166625 -0.19335037 -0.095034607 0.45677406 0.83323765 0.31156453 0.25175679
0.0461707 -0.19548535 -0.093070984 0.015588953 0.9405362 0.33933577 0.22233041
0.056962669 -0.19951609 -0.096237734 -0.10254005 0.91405284 0.39241943 0.16930605
0.065042704 -0.19699405 -0.095347777 -0.021380575 0.94588572 0.32379496 0.16710386
0.074200317 -0.19142708 -0.093847319 0.028704451 0.92547977 0.37770781 0.18251501
0.08509542 -0.19635379 -0.095369957 -0.10622243 0.90047693 0.42173219 0.14820306
0.099602036 -0.1995839 -0.094410375 0.069954135 0.96258938 0.26177859 0.13988349
0.10323291 -0.19954266 -0.097078398 0.26591706 0.93924063 0.21705981 0.18198496
0.11842316 -0.19659556 -0.097203366 0.18121953 0.84176415 0.50852007 0.26326233
0.12400965 -0.19293997 -0.092273399 0.23420322 0.75935078 0.60707104 0.19996412
0.13529474 -0.19961719 -0.099437721 -0.15271981 0.74210095 0.65265816 0.26725864
0.15730463 -0.19955446 -0.09745238 -0.15937857 0.92708814 0.33927265 0.21914183
0.16949832 -0.19878545 -0.09444797 -0.25788081 0.93133259 0.25713271 0.24550171
0.17721705 -0.19409196 -0.094471715 -0.67010987 0.7200315 0.18029806 0.28808856
0.18437654 -0.19559082 -0.093238793 -0.90404475 0.38438332 -0.18695588 0.24625796
0.19256695 -0.19719183 -0.093514569 -0.9816919 0.019985469 -0.1894245 0.19253926
-0.19116788 -0.18586802 -0.091935843 0.98328084 -0.010804079 -0.18177521 0.18172444
-0.18911491 -0.18348897 -0.094013929 0.9860341 0.025650598 -0.16455625 0.17195606
-0.16518769 -0.18544433 -0.093926452 0.090463102 0.019215424 0.99571437 0.27502501
-0.15849981 -0.18440112 -0.094971858 0.75483799 0.16201881 0.6355859 0.23080412
-0.14436622 -0.18455459 -0.095965289 0.56735969 0.2236155 0.79252708 0.22084542
-0.13738696 -0.1860801 -0.09582708 0.13022709 0.37692913 0.9170416 0.23890093
-0.12792346 -0.18406162 -0.096009955 -0.14054812 0.34297827 0.92876917 0.20947248
-0.11759835 -0.1840535 -0.096010685 -0.29262623 0.4547593 0.84116822 0.21976036
-0.10638748 -0.18527561 -0.095899969 0.1369433 0.62097543 0.77177459 0.21467634
-0.089761846 -0.1865986 -0.095780127 0.11800087 0.7583071 0.64112878 0.20528755
-0.073569939 -0.18032467 -0.096348494 0.11805123 0.52360976 0.84373981 0.19071773
-0.065850906 -0.18454213 -0.095966414 0.081722498 0.70215106 0.70732266 0.2006764
-0.051200323 -0.18383896 -0.096030116 -0.37266299 0.39962995 0.83750707 0.25934759
-0.043039769 -0.18375777 -0.096037477 -0.56393838 -0.006646838 0.82579005 0.257566
-0.032618869 -0.18432969 -0.095985666 0.99686444 -0.0024194333 -0.079091772 0.24984592
-0.012153311 -0.18555173 -0.09587495 0.18660365 0.92134869 0.34102136 0.25871375
-0.0063293008 -0.18014607 -0.09636467 0.26615113 0.47236574 0.84025842 0.2475557
0.0041712229 -0.18366416 -0.096045949 0.20660503 0.74026871 0.63977861 0.19595724
0.013215832 -0.18692215 -0.095750809 -0.091566078 0.89891529 0.42844719 0.18930419
0.026385946 -0.18786173 -0.095665686 -0.31266007 0.90160125 0.29892945 0.23328692
0.037170433 -0.18428427 -0.096696459 -0.92734152 0.36469886 0.08385922 0.26688573
0.043105282 -0.1833618 -0.096789792 0.86331981 0.11183298 0.49211007 0.2393856
0.066236101 -0.18680498 -0.095761418 0.058271486 0.82995188 0.55478305 0.22186317
0.074057959 -0.18559824 -0.095870741 -0.0041752551 0.62731266 0.77875632 0.20931351
0.084507205 -0.18347675 -0.096062936 -0.074674599 0.2742008 0.95876878 0.24116051
0.090793066 -0.18021306 -0.096358605 -0.015472254 0.26543504 0.96400452 0.22677447
0.11216187 -0.18583731 -0.095849082 0.25213277 0.50142753 0.82764703 0.22803929
0.13084371 -0.18459405 -0.095961712 0.30664882 0.24818636 0.91889608 0.21096519
0.14440094 -0.18351346 -0.096059598 -0.53722399 0.070619345 0.840478 0.20255962
0.15573107 -0.18411875 -0.09400107 -0.71573198 -0.018476035 0.69813067 0.22082745
0.16659647 -0.18274592 -0.093836941 -0.74847347 -0.084318802 0.6577825 0.28847179
0.17519939 -0.18521065 -0.093679249 -0.96680522 0.092506506 -0.23818099 0.26870498
0.18232971 -0.18621954 -0.092916682 -0.90025336 0.15282118 -0.40766352 0.24246064
0.19092885 -0.18229763 -0.094788805 -0.95530587 0.043739907 -0.29236546 0.16268897
-0.19054449 -0.17410061 -0.095780112 0.99347234 -0.1055843 -0.043182522 0.15634836
-0.18537936 -0.17433947 -0.094038382 0.99391896 -0.094448023 -0.056609586 0.22004013
-0.17340273 -0.17599817 -0.093136787 0.92559642 0.056538463 -0.37426558 0.26454189
-0.16535036 -0.17336757 -0.094948955 -0.36557496 0.85028309 0.378647 0.27923369
-0.15605453 -0.1746881 -0.095580578 0.68832469 -0.021050995 0.72509718 0.21350554
-0.14722037 -0.17399356 -0.096922055 0.7199803 0.073910348 0.69004744 0.15884817
-0.13429949 -0.17054416 -0.097234532 -0.058777213 0.10861721 0.9923445 0.23403615
-0.11357141 -0.17011124 -0.09727376 0.057784971 0.23540215 0.97017872 0.19344756
-0.10218226 -0.17559125 -0.09677732 0.094198093 0.41386896 0.90544981 0.16406912
-0.098861605 -0.1774179 -0.09661182 0.16190869 0.34657922 0.92394173 0.2201824
-0.086163029 -0.1711348 -0.097181037 -0.090065204 0.46528941 0.88056463 0.18077964
-0.074792296 -0.17708489 -0.096641995 0.030737987 0.49619642 0.86766601 0.18411778
-0.06193452 -0.17201602 -0.097101197 -0.16062635 0.36770144 0.91596657 0.19052613
-0.054036774 -0.17427394 -0.096896648 -0.31684625 0.28823549 0.90361977 0.16591957
-0.04358108 -0.17159623 -0.097139232 -0.39711657 0.37505931 0.83763289 0.23408145
-0.034415416 -0.17539634 -0.096794963 0.8102898 0.25524426 0.52752346 0.2535136
-0.029783644 -0.17331299 -0.097615384 0.88229442 0.12901409 0.452672 0.24353291
-0.0030142516 -0.17388888 -0.096931539 0.46369088 0.40060657 0.79025638 0.19432306
0.0044306172 -0.17570889 -0.096766651 0.01144923 0.52465445 0.85123831 0.20001426
0.017289257 -0.17527764 -0.096805722 -0.32997146 0.33990252 0.88067311 0.21664163
0.03625026 -0.17299104 -0.09532246 -0.94339013 0.12951249 0.30535489 0.21966158
0.046460502 -0.17300195 -0.097011879 0.79990208 0.15960684 0.57851732 0.21164873
0.056233838 -0.17650181 -0.09669482 0.28071919 0.2046937 0.93770856 0.19029227
0.064868763 -0.17207067 -0.097096249 0.045500755 0.29230461 0.95524222 0.16253754
0.075069249 -0.17355095 -0.096962146 -0.047009669 0.40096596 0.914886 0.18560712
0.084099591 -0.17357665 -0.096959822 0.063888989 0.21983035 0.97344387 0.20892207
0.096194193 -0.17456341 -0.096870422 -0.036307264 0.18266195 0.98250508 0.20724165
0.10527216 -0.17706516 -0.096643783 -0.21315587 0.28476435 0.93459821 0.17992279
0.1136624 -0.17180194 -0.097120591 -0.12375351 0.11443093 0.98569298 0.17659569
0.12106279 -0.17218436 -0.097085953 0.004759274 0.09837047 0.99513847 0.18697198
0.1330909 -0.17519195 -0.096813478 0.069487311 0.046914645 0.99647897 0.16831774
0.14602023 -0.17663632 -0.09668263 -0.65878516 0.13494256 0.74013013 0.18623807
0.15715277 -0.17390764 -0.095786884 -0.77660865 -0.071097523 0.6259585 0.20151697
0.1656044 -0.17711703 -0.094608508 -0.42559525 -0.15410388 0.89169544 0.27710867
0.1737185 -0.17430654 -0.093037158 -0.91270119 -0.078790188 -0.40095964 0.28631765
0.18639652 -0.17671567 -0.093186677 -0.97039986 0.043904301 -0.23747927 0.17535114
0.19068871 -0.17629999 -0.099584788 -0.9773224 -0.086913288 -0.19309841 0.15616047
-0.18807991 -0.16504902 -0.096602999 0.99912006 -0.038203951 -0.017306533 0.17131948
-0.17501719 -0.16601431 -0.094032869 0.89890575 -0.43759716 -0.021842459 0.30437219
-0.16381578 -0.16306394 -0.095428057 0.5803948 -0.16642597 0.79714751 0.30054542
-0.15584724 -0.16536501 -0.097267725 0.69253355 0.032947645 0.72063291 0.24919097
-0.1416928 -0.16356967 -0.097866386 0.56260556 0.1168403 0.81842726 0.19865204
-0.13084111 -0.16907872 -0.097367302 -0.023555491 0.28408596 0.95850945 0.19102156
-0.12705754 -0.16723529 -0.097534306 0.035757992 0.32607889 0.94466603 0.18200628
-0.11090621 -0.16634734 -0.097614743 -0.030789135 0.14573701 0.98884416 0.20078711
-0.096593946 -0.16155909 -0.098048523 0.098022021 0.083392158 0.99168408 0.207966
-0.084041074 -0.16548781 -0.097692609 0.065977968 0.45435631 0.88837343 0.17764848
-0.064882427 -0.16678776 -0.097574845 -0.22980718 0.15834399 0.96026862 0.21307938
-0.050390653 -0.1668867 -0.097565889 -0.22478589 0.17148876 0.95919907 0.20429562
-0.042294417 -0.16528726 -0.097710788 -0.44786844 0.26098219 0.85516208 0.24777842
-0.036144238 -0.16465777 -0.097767808 0.26356319 0.63534522 0.72585881 0.30568621
-0.026469624 -0.16548517 -0.097692847 0.57409722 0.2565746 0.77754861 0.29464719
-0.016617782 -0.16765799 -0.097496018 0.51466811 0.4298121 0.74187487 0.2677485
0.0021862281 -0.16773245 -0.097489268 0.23049682 0.32756886 0.91628045 0.21751671
0.028882664 -0.1649088 -0.097745068 -0.55239415 -0.19497047 0.81046116 0.24773768
0.035523631 -0.16658802 -0.097592942 -0.906582 -0.11778051 0.40526131 0.25533953
0.041699536 -0.16011395 -0.098179452 0.91611069 0.11676729 0.38354489 0.24727558
0.053673528 -0.16772625 -0.097489826 0.62455273 0.25355616 0.73867661 0.21087714
0.09320271 -0.1635973 -0.097863883 -0.23327167 0.15474515 0.96002001 0.17512394
0.10446157 -0.16928867 -0.097348288 -0.1407679 0.24624191 0.95893139 0.21744573
0.11459938 -0.16878486 -0.097393923 -0.15473564 0.14649402 0.97703445 0.19546977
0.1246181 -0.16736348 -0.097522691 -0.085301049 0.013062341 0.99626958 0.17330213
0.1404154 -0.1612204 -0.098079219 -0.15307909 0.0083873346 0.98817837 0.16607091
0.15576246 -0.16313639 -0.097239211 -0.58777589 -0.18302149 0.78804994 0.23580576
0.16659763 -0.16516376 -0.095323883 -0.44135794 0.4313232 0.78686941 0.28408661
0.17589124 -0.16489692 -0.093032055 -0.9381603 -0.22617456 -0.26210749 0.26069361
0.18524122 -0.16344401 -0.093400419 -0.96753305 0.039212529 -0.24968405 0.18736658
-0.18600792 -0.15429528 -0.094016448 0.98243117 -0.13135068 -0.13257483 0.19313914
-0.17239471 -0.15474191 -0.093007296 0.97610652 -0.20946194 0.057808273 0.28637666
-0.16532885 -0.15592378 -0.09641546 0.2968328 -0.0081111481 0.95489508 0.28166956
-0.15952912 -0.15467732 -0.092046283 0.79908681 -0.020317867 0.60087228 0.18409237
-0.14521563 -0.15274993 -0.098846585 0.50489181 -0.015189408 0.86304891 0.20602615
-0.13598454 -0.15463899 -0.098675445 0.27412158 0.0008663364 0.96169466 0.18480459
-0.12547618 -0.15335426 -0.09879183 0.1144167 -0.22573881 0.96744555 0.20859614
-0.11489149 -0.15510614 -0.098633125 0.11196967 0.050452713 0.99243003 0.21687028
-0.099773884 -0.15082309 -0.099021137 0.30592635 -0.15949903 0.93859953 0.22458887
-0.06473279 -0.15327926 -0.098798633 -0.16251931 -0.047813993 0.98554623 0.18196493
-0.055620432 -0.1540443 -0.098729327 -0.26796174 -0.27909189 0.92211944 0.1697432
-0.043070603 -0.1575534 -0.098411418 -0.16252373 -0.025834788 0.98636645 0.21184851
-0.035752639 -0.15088321 -0.099015698 -0.11975112 -0.38708952 0.91423273 0.24847713
-0.025428757 -0.15545183 -0.098601811 0.70156246 -0.093686312 0.70642275 0.27260879
-0.019416545 -0.15341935 -0.098785937 0.7942915 0.097535454 0.59965652 0.25931242
0.0024109574 -0.15265162 -0.098855495 -0.15698752 -0.20191228 0.96674007 0.19723114
0.012183266 -0.15700895 -0.098460749 -0.282738 -0.086615078 0.95527858 0.1969534
0.039054733 -0.1525299 -0.094100296 -0.9750995 -0.04186913 -0.21777959 0.21036455
0.051230438 -0.15650862 -0.098506063 0.68608743 -0.15734226 0.71030098 0.21497713
0.063887142 -0.15205419 -0.098909616 0.058100171 -0.080519363 0.99505824 0.19917108
0.073936388 -0.15680185 -0.098479502 -0.20876136 0.11560296 0.97111005 0.17609738
0.088250801 -0.15305036 -0.098819368 -0.24701878 -0.067864448 0.96663129 0.19468556
0.094105482 -0.15759422 -0.098407723 -0.085441209 0.086080328 0.99261773 0.197744
0.10384237 -0.15421891 -0.098713502 0.046583924 0.071231216 0.99637139 0.1894086
0.11424468 -0.15343013 -0.098784961 -0.1101166 0.23829776 0.96492928 0.17555432
0.12685803 -0.15685689 -0.098474517 -0.039104521 0.37677214 0.92548013 0.14234723
0.13414794 -0.15643595 -0.09851265 -0.15774415 0.20039755 0.966932 0.18160288
0.14318927 -0.15629816 -0.098525137 -0.1387369 0.025045561 0.99001253 0.22065303
0.15082599 -0.15515068 -0.098629087 -0.51443666 0.16008256 0.84245384 0.2155478
0.16450429 -0.15513262 -0.094429396 -0.77259403 -0.053576909 0.63263577 0.24877012
0.17589067 -0.15615207 -0.093781278 -0.90308827 -0.20406631 -0.37787357 0.28164968
-0.18399787 -0.14646542 -0.094242133 0.92717969 -0.27636731 -0.25290105 0.20056109
-0.17156477 -0.14270264 -0.094496369 0.83937198 0.47409379 -0.26587543 0.30326563
-0.16512389 -0.14583024 -0.096614026 0.62260628 -0.24124122 0.74442202 0.26667672
-0.1548892 -0.14544904 -0.096406415 0.78946596 0.0059117903 0.6137659 0.18786763
-0.14404833 -0.14882228 -0.099202402 0.43210179 0.17109479 0.88544595 0.18628302
-0.13536145 -0.14440468 -0.09960261 0.24517825 0.063934669 0.96736759 0.19487302
-0.12359588 -0.14942902 -0.099147432 -0.11091185 -0.24195902 0.96392655 0.21509419
-0.11130206 -0.14512405 -0.099537432 0.1285914 -0.43282422 0.89225972 0.19850503
-0.10755391 -0.14382353 -0.099655256 0.20054823 -0.4908402 0.84785396 0.22215232
-0.08405076 -0.14704625 -0.099363297 0.0021354184 -0.41477838 0.90991992 0.20068222
-0.062128089 -0.14108992 -0.099902906 0.28378221 0.51281613 -0.81023908 0.22256967
-0.050054539 -0.1489343 -0.099192254 -0.41684067 0.012711448 0.90889072 0.18984391
-0.046309948 -0.14036877 -0.09996824 -0.34095672 -0.41692424 0.84256899 0.2288502
-0.03851793 -0.14967003 -0.099125601 -0.42417949 -0.33354446 0.84191442 0.22592738
-0.02715374 -0.14518285 -0.097936928 0.57605779 -0.4118883 0.7060492 0.26263717
-0.012916782 -0.14734048 -0.099336639 0.22568147 -0.54218125 0.80938703 0.24153796
-0.0053588012 -0.14628309 -0.099432439 0.090376064 -0.37579328 0.92228603 0.20273843
0.0013160454 -0.14300331 -0.09972956 0.0034489015 -0.49820283 0.86705369 0.21432132
0.018885782 -0.1454774 -0.099505424 -0.41733515 -0.32659134 0.84803867 0.22404221
0.028128019 -0.14567864 -0.099487193 0.79408175 0.49318671 -0.35524794 0.22500411
0.036557153 -0.14384431 -0.095497876 -0.98893446 -0.13178819 -0.068121456 0.26026449
0.041753992 -0.14586462 -0.099347331 -0.98336774 0.1377821 -0.11833876 0.23567599
0.058519542 -0.1400186 -0.099999964 -0.3408249 0.59876162 -0.72479177 0.20267716
0.085405044 -0.14063647 -0.099943981 0.036546811 0.67708814 -0.73499382 0.22635941
0.096232198 -0.14050533 -0.099955864 -0.21436617 -0.60473156 0.76703775 0.24480979
0.10586634 -0.14444336 -0.099599101 -0.0011424762 -0.1833334 0.98305017 0.22170986
0.11477412 -0.14362389 -0.099673338 0.070691548 -0.053119782 0.99608278 0.21732827
0.12477332 -0.14621477 -0.09943863 -0.11024668 -0.020592537 0.99369097 0.2009418
0.13774742 -0.14602193 -0.099456102 -0.21815386 -0.36250633 0.90608937 0.20701064
0.14782678 -0.14871928 -0.09921173 -0.44978586 -0.15569378 0.87946129 0.21551195
0.15612119 -0.14578718 -0.097223982 -0.67053771 -0.058956802 0.73952913 0.21980296
0.16311285 -0.14537601 -0.094352677 -0.74641883 0.055900827 0.66312444 0.25734964
0.17444432 -0.14238678 -0.093814909 -0.90846664 0.27489996 -0.31483075 0.29070154
0.18571225 -0.14238319 -0.093714841 -0.93551785 -0.05479002 -0.34900478 0.18104969
-0.18415537 -0.13572769 -0.095611803 0.95476413 -0.091504 -0.28293565 0.16368976
-0.17126487 -0.13603131 -0.094769336 0.97273594 -0.18368457 0.14157972 0.28465965
-0.164993 -0.13477711 -0.09415143 0.80637306 0.077647567 0.5862878 0.23845239
-0.15623751 -0.1366545 -0.0952961 0.78223872 -0.13156293 0.60892844 0.23024082
-0.13586079 -0.13295875 -0.097995728 -0.15738995 0.9127835 -0.37690148 0.22947115
-0.084583439 -0.13431621 -0.098519742 -0.21688229 0.79999429 -0.55943835 0.22373107
-0.060783982 -0.13780096 -0.099864937 0.31644177 0.58982211 -0.74294978 0.23367952
-0.057810012 -0.13730253 -0.099672534 0.10957965 0.75085771 -0.65131015 0.21593191
-0.047139265 -0.13131805 -0.097362384 -0.74944168 0.44490054 0.49030674 0.28008422
-0.037159465 -0.13183787 -0.097563051 0.79702884 0.22231826 -0.56153333 0.27933416
-0.028288886 -0.13502595 -0.090254679 0.82659769 0.19478422 -0.52801079 0.23874789
-0.006645632 -0.13432372 -0.098522633 0.0057753371 0.87284869 -0.48795676 0.19684951
0.0070693977 -0.13541472 -0.0989438 0.39072737 0.82337022 -0.41157466 0.28130296
0.013955737 -0.13342439 -0.098175481 -0.10025031 0.97969127 -0.17365146 0.21814203
0.023129717 -0.13534433 -0.09891662 0.36089498 0.91633219 -0.17346533 0.26056772
0.036984079 -0.13343799 -0.095515788 0.89019579 0.4306531 -0.14862463 0.27127466
0.056990761 -0.13141401 -0.097399428 -0.12578724 0.95056891 -0.2838949 0.18603796
0.064041495 -0.13134384 -0.097372338 -0.01185247 0.92309147 -0.38439777 0.17902045
0.078366384 -0.1326378 -0.09787184 0.3078208 0.90586597 -0.29095221 0.21362184
0.083315298 -0.13523036 -0.098872632 0.044198852 0.85654855 -0.51417023 0.20280655
0.092773885 -0.13091844 -0.097208127 0.43733668 0.88021058 -0.18429847 0.23008841
0.13019301 -0.13564125 -0.099031232 -0.24171674 -0.092198566 0.96595675 0.27518478
0.15010963 -0.13776907 -0.099852636 -0.75751692 0.29298258 0.58337754 0.22022502
0.1636761 -0.13289686 -0.094653726 -0.70274001 0.0083631473 0.71139765 0.28504488
0.18559851 -0.13903844 -0.094017982 -0.96724117 -0.061868589 -0.2462047 0.15466121
-0.17373616 -0.12517519 -0.09317071 0.99919701 -0.03219663 -0.023847548 0.25484747
-0.1677202 -0.12564445 -0.093749203 0.92298192 0.22877136 0.30946422 0.24945067
-0.15478915 -0.12892631 -0.09577854 0.88865554 0.072646886 0.45278448 0.20509477
-0.13316739 -0.12830248 -0.094235189 -0.32795444 0.94418478 -0.030999638 0.24189244
-0.12432592 -0.12599027 -0.090049632 0.13520336 0.83728081 -0.52979332 0.12960951
-0.10704991 -0.12738669 -0.092577398 -0.097899012 0.87380105 -0.47632715 0.16742344
-0.093387388 -0.12864551 -0.094856128 -0.43008658 0.82086539 -0.37577328 0.17180629
-0.07317625 -0.12684628 -0.091599196 0.091641344 0.95877391 -0.26898807 0.16724993
-0.052315753 -0.12894779 -0.0953077 -0.10696533 0.94024456 -0.32326254 0.2463768
-0.045821127 -0.12737015 -0.092547476 -0.35138729 0.86155063 -0.36641169 0.22519779
-0.030838348 -0.12971087 -0.09660995 0.99636918 -0.022156935 0.082204312 0.26467776
-0.026415102 -0.12431328 -0.095291406 -0.96068001 0.27621591 -0.028261846 0.23914587
0.013608482 -0.12629567 -0.090602443 0.077050276 0.89979708 -0.42945126 0.15446979
0.036806002 -0.12769052 -0.095786192 -0.47238475 0.83653009 -0.2776148 0.27204669
0.040043764 -0.12912065 -0.097918145 -0.31901076 0.81528741 -0.48325834 0.27028269
0.056926616 -0.12853265 -0.094651818 -0.16785094 0.895078 -0.41311195 0.20233251
0.085154042 -0.12685174 -0.091609076 0.10648102 0.92530411 -0.36397001 0.11151801
0.097527087 -0.12722138 -0.092278175 0.017047023 0.93120128 -0.36410645 0.1955322
0.11456172 -0.12894107 -0.095391169 -0.044556979 0.9463439 -0.32007483 0.19483891
0.14753532 -0.12778243 -0.093293801 -0.8682431 0.22708836 0.4411177 0.23431957
0.15749574 -0.1220423 -0.095184259 -0.79248899 0.52192366 0.31552649 0.2333646
0.16320907 -0.12606831 -0.094392136 -0.81088859 0.53847927 0.22912832 0.28864563
0.17443106 -0.12660314 -0.093058705 -0.91907382 0.39074656 -0.051189952 0.26464492
0.18262261 -0.12511726 -0.092584632 -0.9574973 -0.063779235 -0.28130266 0.20271823
-0.18281379 -0.11318626 -0.094736814 0.93890172 -0.16256383 -0.30337539 0.18824379
-0.17533159 -0.11440667 -0.093551636 0.97057408 0.0042938972 -0.24076447 0.23488791
-0.16629292 -0.11611333 -0.09289477 0.90324771 -0.42906156 -0.0070472406 0.23750784
-0.15980957 -0.11225312 -0.094985157 0.97057462 -0.073190525 0.22940825 0.21741098
-0.028890265 -0.1138636 -0.093865424 -0.024090014 0.85432172 0.51918602 0.21807623
0.15939361 -0.11570276 -0.09301272 -0.82340807 0.3765505 0.42451009 0.23733564
0.16497402 -0.11315706 -0.092963099 -0.79450989 0.49854031 0.34671536 0.2354058
0.17599316 -0.11378403 -0.093520537 -0.98180276 0.18843903 -0.023536803 0.23057313
0.18398899 -0.11440546 -0.093724079 -0.98082173 0.016907014 -0.19417259 0.17313604
-0.18376812 -0.10496967 -0.095949367 0.92468995 -0.18726628 -0.33148134 0.1841426
-0.17515716 -0.10378347 -0.093455762 0.92602521 -0.18177146 -0.33081177 0.23474276
-0.16376822 -0.10802962 -0.094825655 0.96749091 0.2457152 0.05987804 0.23754218
-0.15814883 -0.10585099 -0.094533861 0.94911903 -0.20757884 0.23682088 0.19647376
-0.029074322 -0.10658811 -0.09505032 0.99671346 -0.074846029 -0.030989306 0.12461991
0.039119557 -0.10675086 -0.095379941 -0.98830539 -0.15038797 -0.025216667 0.11149622
0.15855372 -0.10817218 -0.093661524 -0.68698722 0.53869939 0.48770019 0.23615491
0.16918252 -0.10558593 -0.093386739 -0.76423067 0.61945492 0.17951903 0.24269702
0.17500533 -0.10308042 -0.093199365 -0.92392302 0.32412404 0.2032482 0.2378383
0.18210216 -0.10650731 -0.093326494 -0.9874022 0.15503891 -0.031621408 0.19205302
-0.16473237 -0.099087559 -0.093909107 0.99103129 -0.00051978801 0.1336288 0.2231658
-0.028289264 -0.097573698 -0.091092862 0.99268609 -0.0060415352 -0.12057254 0.065919466
0.039271951 -0.095439032 -0.096505769 -0.99233019 -0.037286855 -0.11785801 0.13206802
0.1640331 -0.091665514 -0.09364149 -0.92873609 0.041298285 0.36843437 0.25253418
0.17650147 -0.096502222 -0.093788199 -0.97176677 -0.12800799 0.19820009 0.21103416
0.18346591 -0.094004557 -0.096001416 -0.99400252 -0.042393509 -0.1008057 0.16152576
-0.18372585 -0.08573696 -0.095963135 0.99150246 -0.03804934 -0.12439891 0.15287499
-0.17716856 -0.082542099 -0.09396825 0.9953928 0.068909355 -0.066667482 0.22415106
-0.16300777 -0.084699154 -0.093113579 0.99387687 0.022515127 0.10817469 0.21922526
-0.15825114 -0.085522473 -0.093878843 0.9107793 0.099969223 0.40060866 0.15409127
-0.028996665 -0.080854453 -0.095339 0.9889245 -0.093471907 -0.11528835 0.097991787
0.15910533 -0.086267032 -0.093061775 -0.90969455 -0.041913304 0.41315743 0.19728678
0.1642983 -0.084727228 -0.093940094 -0.80540234 -0.14532056 0.57463813 0.20844373
0.17644772 -0.086068973 -0.093625546 -0.99796182 -0.039683945 -0.049974926 0.21022505
0.18435901 -0.0858436 -0.097175278 -0.99333262 -0.11370851 -0.018993156 0.13913381
-0.18431148 -0.073597267 -0.092815429 0.92035693 0.35777986 -0.15791339 0.1884833
-0.17481425 -0.074626759 -0.09321855 0.9853738 0.14554231 -0.088634141 0.22399318
-0.16633691 -0.073459677 -0.094378628 0.94302398 0.31504169 0.10702586 0.22903329
-0.15952912 -0.075499766 -0.091775343 0.92723274 0.31493491 0.20262131 0.22661917
-0.028776539 -0.074450999 -0.094335482 0.99489725 0.017077416 -0.099437878 0.08159893
0.039093018 -0.074887566 -0.096110202 -0.99502903 0.073997453 -0.066645898 0.087386481
0.1595291 -0.072135873 -0.092966735 -0.94230866 -0.19845164 0.26957652 0.23152755
0.16644153 -0.073670395 -0.093416162 -0.95858842 -0.22276354 0.17743903 0.24070451
0.17243801 -0.073946573 -0.095381536 -0.91906428 -0.24093382 0.31188431 0.23887035
0.184359 -0.072908744 -0.091440022 -0.9822216 0.011617665 -0.1873652 0.17974678
-0.17599091 -0.063481383 -0.094868496 0.98123217 0.17352717 0.08409407 0.21050042
-0.16569026 -0.064329386 -0.094885707 0.94994187 -0.12669127 0.28558651 0.23452245
-0.15807568 -0.069254473 -0.092746332 0.93233955 0.057930939 0.35691297 0.19835965
-0.028148584 -0.060364902 -0.091358207 0.99622637 0.011880559 -0.0859752 0.024152545
0.038398005 -0.066194616 -0.092626184 -0.99511361 -0.042643566 -0.089053079 0.058028433
0.15912274 -0.064894482 -0.095012829 -0.94265443 -0.19722147 0.26927 0.22033972
0.16586208 -0.065551601 -0.096718326 -0.9418686 -0.24521858 0.22967692 0.25192028
0.17490387 -0.066604294 -0.097005188 -0.99901986 -0.014071364 0.041968517 0.2455599
0.18270402 -0.065183908 -0.095233843 -0.98849803 -0.038454212 -0.14626336 0.18096575
-0.18143655 -0.057211246 -0.093557954 0.99492484 0.058878414 -0.081596911 0.18694463
-0.1780948 -0.055350356 -0.092451908 0.98873019 0.10273898 -0.1088906 0.18990451
-0.1642106 -0.055498134 -0.096126236 0.97852796 0.048113778 0.20041996 0.2262276
-0.15906939 -0.05364766 -0.095403522 0.89843303 0.11091276 0.42487237 0.21450853
0.15690757 -0.054227054 -0.095413439 -0.93407321 -0.13566098 0.33030781 0.21345577
0.16827834 -0.055670876 -0.093294829 -0.98393148 -0.16500598 -0.068204127 0.24628165
0.17408733 -0.058488153 -0.095932543 -0.96665424 -0.17681246 -0.18524818 0.2277226
0.1830301 -0.054445952 -0.094873473 -0.98259038 0.18550114 0.010270017 0.19910696
-0.18058059 -0.040547937 -0.095754698 0.99688977 0.061192647 -0.049661152 0.17508417
-0.17513934 -0.046240598 -0.094573483 0.95889407 0.011079979 -0.28354776 0.1966057
-0.1678369 -0.04676991 -0.095464617 0.99715167 0.044054799 0.061218824 0.23060472
-0.15730137 -0.044278946 -0.093593597 0.89485425 0.012623185 0.44617993 0.18687148
-0.029505998 -0.04083332 -0.099162422 0.99169493 -0.086537801 -0.095144175 0.13349907
0.038473967 -0.048688062 -0.093512282 -0.99856895 0.044876352 -0.029088898 0.080810145
0.15761822 -0.04588601 -0.094225205 -0.95407909 -0.1909208 0.23082964 0.20797522
0.167373 -0.045826722 -0.097505018 -0.94071865 -0.024015749 0.33833671 0.25340885
0.17277403 -0.046301678 -0.093383975 -0.998546 -0.017073961 0.051132068 0.22364797
0.18244913 -0.045849711 -0.094270363 -0.99333131 -0.080632374 0.082410052 0.16889389
-0.18036002 -0.036943503 -0.094848983 0.99560231 0.070669129 -0.0614971 0.19150189
-0.17504402 -0.032826077 -0.097312622 0.97818267 -0.16376305 -0.12782913 0.22106577
-0.16594 -0.035641637 -0.094759427 0.93423361 -0.34879962 0.074474439 0.23021828
-0.15661165 -0.033917353 -0.094238281 0.85721481 -0.1461903 0.49377239 0.1570631
0.038998511 -0.036116537 -0.096665598 -0.97283763 0.11599778 -0.20032844 0.14411117
0.15676379 -0.034151312 -0.094469607 -0.96809971 -0.17010123 0.18397962 0.18326096
0.16585191 -0.035542142 -0.095831886 -0.93644887 -0.3400487 0.086199515 0.25574401
0.17389269 -0.03415012 -0.095023967 -0.9808808 -0.079784095 -0.17750315 0.22757109
0.18435901 -0.033959612 -0.09411817 -0.99457204 -0.085720427 -0.058979228 0.19095248
-0.18335944 -0.02565445 -0.093791001 0.98118681 -0.18054654 -0.068377398 0.17666967
-0.17191939 -0.024790557 -0.094592415 0.88734066 -0.34716803 -0.30348131 0.20838219
-0.164823 -0.026030945 -0.093816392 0.97790378 -0.18987237 0.087479271 0.2288488
-0.15746595 -0.022056401 -0.094387867 0.86935192 -0.049119931 0.49174625 0.19339356
-0.029120568 -0.023145445 -0.097582571 0.97433007 0.16901566 -0.14870977 0.15733027
0.038558826 -0.020653233 -0.094734304 -0.98033804 0.0032641771 -0.19729836 0.080328502
0.15716483 -0.025263682 -0.092732988 -0.99130249 -0.043423474 0.1242323 0.20295644
0.16445634 -0.025932789 -0.09628506 -0.98127621 -0.18949273 -0.034489721 0.24762741
0.17688681 -0.024610303 -0.094218194 -0.94752532 -0.13426299 -0.29011953 0.22132178
0.18291427 -0.02597104 -0.095612444 -0.99062961 -0.11336281 -0.076169245 0.18119812
-0.18219024 -0.015489515 -0.096085832 0.97007 -0.18283117 -0.15980338 0.22171809
-0.1676048 -0.015166119 -0.09496586 0.88624644 -0.44177973 -0.13927682 0.2608062
-0.15770729 -0.014722198 -0.091913387 0.98512244 -0.13303964 0.10878533 0.19977397
-0.028403113 -0.014822419 -0.09396822 0.9759444 0.18480231 -0.11567476 0.098364606
0.039093975 -0.010371011 -0.097881734 -0.99570805 0.080465607 0.045723807 0.16354805
0.15738574 -0.011071415 -0.09030252 -0.96823919 -0.24990392 0.0078078886 0.16478324
0.16388024 -0.015169735 -0.094065353 -0.91224289 -0.16124874 0.3765789 0.24349879
0.17546868 -0.016489226 -0.094893791 -0.95912504 -0.071984187 -0.27367392 0.25760415
0.18068403 -0.01942547 -0.093339965 -0.99978215 -0.017389359 -0.011543301 0.22487558
-0.17687155 -0.0017708332 -0.093872227 0.93440801 0.20590293 -0.29066423 0.2343462
-0.16883999 -0.0055242935 -0.094337329 0.93340993 -0.012237685 -0.358603 0.24578895
-0.15673609 -0.0082845287 -0.092140168 0.94549179 -0.28161222 0.16352327 0.17083409
-0.027842261 -0.0076559801 -0.091160864 0.96630543 0.25685507 0.016712092 0.095692761
0.037769888 -0.0030281842 -0.090991803 -0.96018434 0.22559653 0.16477928 0.10735288
0.15701962 -0.0056488272 -0.090809099 -0.9473657 -0.3189747 0.027449004 0.21295086
0.16437735 -0.0044919965 -0.09396667 -0.97465521 0.045863327 0.21896061 0.24459565
0.17506038 -0.0050435495 -0.094132647 -0.9831928 0.076400653 0.16581568 0.25887245
0.18229717 -0.0060048308 -0.09564203 -0.99528563 0.04525096 0.0857841 0.20906745
-0.18365233 0.0074702147 -0.094315886 0.98355728 0.048500597 0.17396154 0.19818853
-0.17321536 0.0032029734 -0.094152719 0.98973984 0.057764959 0.1306835 0.27640414
-0.16498375 0.0032313932 -0.093839303 0.8178907 -0.093938723 -0.5676533 0.25226039
-0.15676953 0.0020689915 -0.093502335 0.91350085 -0.38013098 -0.14497167 0.24601822
-0.13342409 0.0087781269 -0.096854977 0.3794075 -0.92482293 -0.027431987 0.19821499
-0.12937175 0.0058824993 -0.093098827 0.24541679 -0.9683798 0.044846006 0.14507492
-0.061206255 0.0059282677 -0.093705721 0.042921867 -0.98720473 0.15357229 0.15549864
-0.055584308 0.0057793148 -0.091730624 -0.084909596 -0.99577737 0.03489719 0.16554357
-0.044875819 0.008005932 -0.096547037 -0.28690165 -0.85994923 0.42210743 0.25871012
-0.028010914 0.0045020534 -0.092396937 0.98155242 0.17726026 0.071650058 0.14423358
0.043286182 0.006387468 -0.095967323 -0.95468193 0.29762313 0.0017020236 0.196401
0.057576299 0.0063225166 -0.096404307 0.34011516 -0.90204561 0.26577333 0.19034222
0.11702754 0.0076483483 -0.09534169 -0.3033933 -0.94293833 0.13718514 0.17823169
0.1246148 0.0080081727 -0.098677978 -0.24551427 -0.95319676 0.17646207 0.17035066
0.13073519 0.0057600848 -0.091475636 -0.17910984 -0.98365241 0.01864247 0.13989148
0.16927126 0.003101808 -0.093418628 -0.95732838 0.12487483 -0.26063114 0.2458114
0.17710063 0.004251631 -0.093966439 -0.9775092 -0.087002739 -0.19210991 0.2576732
0.18330804 0.0068368502 -0.095442325 -0.99774474 -0.0057675601 0.0668744 0.22304475
-0.18293674 0.016955415 -0.095923245 0.96400309 0.060270432 0.2589699 0.21574368
-0.17340395 0.014811201 -0.094154738 0.95957142 0.27685755 -0.050721955 0.281156
-0.16449541 0.015457033 -0.0938548 0.43197677 0.643318 -0.63209027 0.2823025
-0.15668271 0.016148914 -0.093349166 0.73576546 -0.53950596 -0.40936843 0.30913219
-0.1362188 0.014369705 -0.096645951 0.19596539 -0.96711105 0.1621533 0.23657848
-0.12451479 0.013977371 -0.098918311 0.90080315 -0.43351483 -0.024871817 0.23409055
-0.11540973 0.014403462 -0.093361035 -0.0088991998 -0.99068642 -0.13587178 0.18050031
-0.10278079 0.015558188 -0.096720695 0.082079992 -0.99546576 -0.048072018 0.20648549
-0.094289474 0.016567415 -0.097581998 0.4009532 0.89857852 0.17830625 0.18093036
-0.085051633 0.015702438 -0.093732201 0.20724559 0.96374351 0.16807069 0.16573103
-0.062457427 0.016657868 -0.095935866 -0.049017757 0.97817951 0.20189647 0.16039218
-0.05194483 0.016318349 -0.093727261 0.1963402 -0.97030967 -0.14124297 0.2117677
-0.044162709 0.014458027 -0.098567039 0.011175716 -0.97843683 0.20624362 0.2576274
-0.028135082 0.016629171 -0.093393937 0.98564714 -0.1220248 0.1166604 0.16400018
0.03855858 0.01710904 -0.094510928 -0.95397741 0.14479698 0.26260391 0.15945935
0.047451347 0.01291011 -0.098922305 -0.99366236 0.098425828 0.054290827 0.2221778
0.055193871 0.01692928 -0.098230273 -0.70774502 0.70643991 -0.0063016028 0.25643924
0.069616973 0.015570397 -0.096882582 0.16228788 -0.98674166 -0.0018766089 0.19426647
0.074942388 0.015053844 -0.090033226 0.00052985846 0.97181314 0.23575185 0.13803671
0.084547617 0.016693972 -0.095876582 -0.12365203 0.97335196 0.19312224 0.16504426
0.094184726 0.015260139 -0.092768647 -0.045824405 0.9834947 0.17503794 0.15950568
0.10393126 0.015262946 -0.092805855 -0.32640448 -0.9403252 0.096169733 0.15725735
0.11278155 0.015624522 -0.096801698 -0.030885136 -0.99465901 -0.0984862 0.22112018
0.12588671 0.012986419 -0.098922014 0.01396161 -0.97637177 0.21564578 0.21608678
0.13395576 0.016542612 -0.098551489 -0.053628065 -0.93194973 0.35859957 0.27359048
0.14234801 0.017728539 -0.092539012 0.02717986 -0.99508703 -0.095199652 0.2565161
0.15684354 0.013929696 -0.095709689 -0.83987391 -0.48619482 -0.24130157 0.28895268
0.16562335 0.01523097 -0.094604522 -0.84376174 -0.36538678 -0.39313951 0.25590459
0.17515694 0.01728794 -0.094896652 -0.95686883 0.24424794 -0.15730506 0.23756236
0.18349968 0.013883642 -0.096494377 -0.99924654 -0.038329951 -0.0061029298 0.2357403
-0.18359521 0.022918064 -0.096399873 0.96398866 0.13997099 0.2261283 0.24329273
-0.17204095 0.029173905 -0.093416721 0.55124617 0.023488872 -0.83401197 0.26093221
-0.16589983 0.024324477 -0.094467007 0.58470869 -0.52429503 -0.61905605 0.27597234
-0.15632911 0.021956064 -0.096002162 0.96609163 -0.04191827 -0.25477394 0.28150612
-0.13783844 0.023936458 -0.09657608 0.073386945 -0.99618566 0.047206838 0.25155863
-0.12410696 0.024635602 -0.096797623 0.75153124 -0.63584447 0.17579095 0.25552696
-0.11758701 0.025793953 -0.095338322 0.66444916 0.71515 0.21695139 0.26068091
-0.10490625 0.028895412 -0.097865798 0.53187454 0.65242475 0.53986239 0.17409001
-0.085019104 0.025838697 -0.097877219 0.008302778 0.94359559 0.3309961 0.19387895
-0.070417814 0.023749901 -0.09788502 -0.0056303781 -0.99910945 -0.041816857 0.27199864
-0.061138608 0.029032335 -0.097865283 0.9732551 -0.030563882 -0.22768468 0.23944238
-0.050866835 0.025593998 -0.096934125 0.89755088 -0.40698668 -0.16960013 0.26448178
-0.044083267 0.027695129 -0.097715564 0.74795079 -0.60265791 -0.27816015 0.26494405
-0.037513085 0.027548663 -0.093535282 0.94461536 -0.31907865 0.076750495 0.21083948
-0.028583229 0.025737409 -0.096043311 0.97197354 -0.17498589 0.15699488 0.16129829
0.038279504 0.025777575 -0.094194323 -0.99229002 0.0074347085 0.12371463 0.14295685
0.042428613 0.025272081 -0.097879112 -0.97994983 0.10305049 0.17052552 0.18352686
0.057515845 0.023514466 -0.098384291 0.7628296 -0.50415629 0.40486738 0.27825195
0.077769868 0.027038725 -0.097872734 0.014391884 0.95363086 0.30063456 0.24364166
0.084195904 0.023267053 -0.097886823 -0.074343421 -0.95405257 -0.2902703 0.21697181
0.094521113 0.026500076 -0.097874738 -0.35810488 0.69108588 0.62782264 0.21420963
0.10212194 0.027154986 -0.097872302 -0.32823667 0.63413191 0.70009816 0.24017584
0.11708219 0.02662584 -0.097274005 -0.7764802 -0.40008035 -0.48684111 0.26543814
0.1246075 0.021026755 -0.09789519 -0.92802125 0.371364 0.029418031 0.26647982
0.13477945 0.027697353 -0.098867059 -0.0081567783 0.5847134 0.81119889 0.29559666
0.15839544 0.023347247 -0.094286963 -0.77582234 -0.61893624 -0.12254638 0.28960517
0.16272815 0.024111448 -0.094001971 -0.65130138 -0.68745017 -0.32127693 0.29151288
0.17547911 0.023715479 -0.094393469 -0.94276518 -0.12469318 -0.30926597 0.23650207
-0.184359 0.033902805 -0.090604283 0.97652721 -0.12190074 0.17758045 0.19880998
-0.17458251 0.037445873 -0.093340799 0.57652014 0.05604862 -0.81515831 0.24294205
-0.16352862 0.032895647 -0.093830153 -0.40999386 -0.17824976 0.89450103 0.263944
-0.15539595 0.036343358 -0.099603646 0.83747196 0.52084041 -0.16542648 0.27217168
-0.13724066 0.039289039 -0.097054243 0.35753199 -0.86663002 0.34802765 0.29319069
-0.12549287 0.037056655 -0.097291455 0.96977931 -0.10015846 0.22247796 0.26060942
-0.11611518 0.035048943 -0.097842813 0.78703928 0.36576158 0.4967773 0.25292233
-0.10330843 0.0389347 -0.097828284 0.53500402 0.37369734 0.75770772 0.19431818
-0.097894818 0.032973401 -0.097850561 0.37722173 0.47829792 0.7930541 0.20645389
-0.088979863 0.035691109 -0.097840406 0.10589184 0.4882592 0.86625046 0.21084455
-0.061343998 0.036498707 -0.098499805 0.9768995 -0.082124814 -0.19728884 0.23498166
-0.045807291 0.037760634 -0.098102264 0.95678425 0.04971398 -0.28651804 0.26777774
-0.038103595 0.037049673 -0.094028831 0.98172522 0.18351446 0.050378647 0.22060348
-0.028345447 0.035287861 -0.095031373 0.96890277 0.15035842 0.19651917 0.15222114
0.048269305 0.038505431 -0.098826669 -0.99195623 0.062252413 0.11021545 0.20449075
0.054493673 0.035511471 -0.096636444 -0.98911011 -0.13818699 -0.050650306 0.23848258
0.061253011 0.036051761 -0.094512135 -0.96207565 0.075377963 -0.26216152 0.27729535
0.077648088 0.035405479 -0.097841479 0.22538726 0.20354305 0.95277005 0.24147727
0.085593686 0.036482658 -0.097837448 0.0021870949 0.25690034 0.96643543 0.22519143
0.10087034 0.032239251 -0.097853303 -0.47593877 0.53803283 0.69570321 0.22567946
0.11464006 0.032122839 -0.098185994 -0.91173595 0.11052686 0.39562798 0.27541342
0.12690796 0.038423367 -0.097799994 -0.97613031 -0.21529298 -0.028610224 0.2904658
0.13592497 0.036928341 -0.096784219 -0.21712959 -0.9737711 0.068004414 0.26337138
0.15848885 0.038443111 -0.093475394 -0.8243798 0.53327274 0.18978481 0.29620552
0.1647231 0.034531746 -0.09402597 -0.59676522 0.1537908 -0.78754026 0.23973626
0.17420247 0.034100205 -0.094458416 -0.855501 -0.031269424 -0.51685613 0.23298253
-0.18127088 0.047916114 -0.094662905 -0.43739477 -0.1008281 0.89359921 0.24420011
-0.17846762 0.040027186 -0.093290947 0.75654066 0.026470657 -0.65341079 0.26457015
-0.16422513 0.044605795 -0.093619741 -0.34187827 -0.26560175 0.9014293 0.23264049
-0.15760493 0.046615537 -0.094333269 -0.18317303 0.035597425 0.982436 0.2903766
-0.14158255 0.042229332 -0.093153521 0.26721972 -0.70191258 0.6602366 0.28747645
-0.13262925 0.043084837 -0.098809563 0.45457062 -0.84633911 0.27762514 0.26297674
-0.12516196 0.043722015 -0.096972734 0.99573368 0.085592985 0.034470953 0.25949109
-0.11637369 0.04435892 -0.097111605 0.85497308 -0.088913143 0.51099455 0.21287602
-0.10240183 0.042622432 -0.097814523 0.57941687 -0.071529083 0.81188649 0.20997989
-0.078749731 0.044436898 -0.097807735 -0.15792771 -0.3876279 0.90818685 0.22826093
-0.05174179 0.045141429 -0.096051902 0.39537254 -0.91852003 -0.0012498919 0.27494368
-0.044514917 0.044400871 -0.097907782 0.96038896 0.26188791 -0.09522526 0.27020657
-0.03821943 0.049036827 -0.094087824 0.97449452 0.19085023 0.1180534 0.22661181
