# .PCD v0.7 - Point Cloud Data file format
VERSION 0.7
FIELDS x y z normal_x normal_y normal_z curvature
SIZE 4 4 4 4 4 4 4
TYPE F F F F F F F
COUNT 1 1 1 1 1 1 1
WIDTH 587
HEIGHT 1
VIEWPOINT 0 0 0 1 0 0 0
POINTS 587
DATA ascii
0.13679853 -0.19601361 0.018891545 -0.012787287 0.99097502 -0.13343446 0.042674586
0.14149144 -0.19605176 0.013705385 -0.031924699 0.98640525 -0.16120017 0.0066071609
0.15417761 -0.19569001 0.014824947 0.064811215 0.99385506 -0.08972995 0.023764139
0.17448373 -0.19772653 0.01405945 0.087870002 0.98181695 -0.16826862 0.0058358684
0.18369439 -0.19874224 0.011882788 0.083497308 0.9826743 -0.16546699 0.0046463697
0.19559291 -0.19890666 0.014553674 -0.01322989 0.97979194 -0.19958135 0.020194678
0.20407337 -0.19960177 0.013707533 -0.22305903 0.96859694 -0.10983944 0.070907488
0.21270517 -0.19947755 0.016049547 -0.21351975 0.97294044 -0.088296093 0.10857386
0.22319026 -0.19268513 0.019264109 -0.33168772 0.93834835 -0.09739463 0.15904875
0.23669808 -0.1936478 0.011074077 0.11224207 0.97078532 -0.21207912 0.19115902
0.24676043 -0.19659132 0.014260333 0.10408211 0.92848837 -0.35647753 0.15311216
0.25417754 -0.19389805 0.016983707 0.21778439 0.92326373 -0.31647116 0.20279683
0.26418802 -0.19527784 0.018144161 0.040990233 0.94080919 -0.33644909 0.14804414
0.27626508 -0.19550109 0.01871188 -0.015136978 0.92435616 -0.38123026 0.16370526
0.28439605 -0.1912616 0.018754315 -0.12927936 0.8760739 -0.46452284 0.21064407
0.29450843 -0.19309969 0.017004646 -0.21110831 0.86037928 -0.46387577 0.1630484
0.30415064 -0.19712685 0.013063447 -0.16724308 0.93958348 -0.29868507 0.13267404
0.32545388 -0.19737117 0.017771296 -0.17509012 0.83076227 -0.52837247 0.1785567
0.33760223 -0.19615363 0.010979852 -0.19430867 0.87275857 -0.44781309 0.13878113
0.341097 -0.19115865 0.016597603 -0.21127488 0.807657 -0.55050254 0.13879153
-0.4456704 -0.186379 0.013715091 0.88952011 0.45045981 0.076418929 0.14845885
-0.35403323 -0.18557499 0.01719721 0.57342851 -0.13841711 -0.80747783 0.12804349
-0.34016308 -0.18628499 0.010102913 0.35795528 -0.56449258 -0.74378496 0.26602975
-0.33587214 -0.18420275 0.012027675 0.53346819 -0.21754871 -0.81736422 0.2670677
-0.32632169 -0.18277077 0.015981177 0.54902971 -0.63336444 -0.5453586 0.29554439
-0.31442785 -0.18587592 0.018678322 0.12020393 0.073033698 -0.99005914 0.27089214
-0.30580539 -0.18754183 0.019383686 0.071620569 -0.13693658 -0.98798728 0.2592558
-0.29645199 -0.18630274 0.019059982 0.24752539 0.26711866 0.93133169 0.24031307
-0.28366867 -0.18265253 0.016632684 0.38338339 0.16924725 0.90794969 0.20941687
-0.27614242 -0.18734214 0.013701791 0.48890522 0.19666924 0.84987813 0.20767096
-0.26586559 -0.18560237 0.014742635 0.53655761 0.15032494 0.83036631 0.14361249
-0.2572878 -0.18417954 0.012481709 0.55988491 0.082898945 0.82441294 0.056464761
0.21958405 -0.18940282 0.01030723 -0.52945912 0.84149098 0.1075455 0.20125592
0.23746432 -0.18809959 0.013051419 0.049740691 0.97364199 -0.2225921 0.24154054
0.24928749 -0.18439288 0.014947116 0.29791373 0.72883093 -0.61648434 0.26806748
0.25575495 -0.18491153 0.016902743 0.064991534 0.93471009 -0.34941819 0.28011084
0.2652607 -0.18511383 0.018959472 0.10903086 0.83426207 -0.54048038 0.244615
0.27131575 -0.18538472 0.019377211 -0.14627662 0.77831793 -0.6105935 0.252909
0.28482801 -0.18283913 0.018805431 -0.43673575 0.70246303 -0.56196761 0.25391304
0.29526383 -0.18585753 0.017185751 -0.34487638 0.75253451 -0.56102771 0.21862935
0.30546707 -0.18347183 0.012360187 -0.35364276 0.75928348 -0.5462833 0.25527921
0.31227267 -0.1824965 0.01341042 -0.34842628 0.69372654 -0.63035119 0.22420408
0.34724069 -0.1872665 0.017923798 -0.39710787 0.7494747 -0.52971035 0.11310028
0.36135361 -0.18267499 0.014342678 -0.43000141 0.68481469 -0.58832622 0.11165299
-0.4507477 -0.17299612 0.013836001 0.99163455 0.099229179 0.082550921 0.11123206
-0.44961873 -0.17352399 0.018551975 0.99363196 0.11154384 0.01592326 0.10261148
-0.36354905 -0.17742163 0.010216716 0.63610113 -0.04011441 -0.77056217 0.15396383
-0.35639668 -0.17558333 0.015486395 0.63700294 0.083066851 -0.76637268 0.15119539
-0.33582854 -0.17466114 0.011852655 -0.31557369 0.85825598 0.40473434 0.25839701
-0.32585645 -0.17389894 0.015792485 -0.25370002 0.72335929 0.64217424 0.25502992
-0.31413665 -0.17362443 0.018716225 -0.083948508 0.49513516 0.86475068 0.23266928
-0.30199379 -0.17310193 0.019400477 0.19053608 0.34357691 0.9195928 0.24532616
-0.2950092 -0.17646722 0.018949298 0.2291972 0.19410753 0.95382959 0.25002882
-0.2852236 -0.17797366 0.016967382 0.44544804 0.086298376 0.89113897 0.24083026
-0.27567968 -0.17313272 0.013184501 -0.36316824 0.60720152 -0.70669311 0.22722085
-0.26376799 -0.1721576 0.016008684 0.46197474 -0.032688517 0.88629049 0.11802243
0.22305496 -0.17699754 0.016308175 -0.80963761 0.55106658 0.20202114 0.1629274
0.23441103 -0.1750624 0.014970307 -0.74765778 0.38938844 0.53794456 0.18589692
0.24408022 -0.17329374 0.013864243 -0.33663833 0.44457269 0.83007818 0.2433994
0.25738037 -0.17440929 0.017906519 -0.31610599 0.25641707 0.91341513 0.27021638
0.26601425 -0.17621292 0.018985989 -0.97226924 0.11734235 0.20229498 0.25589734
0.27290997 -0.17335093 0.019384233 -0.31849855 -0.22820592 -0.92004389 0.26213342
0.28345358 -0.17446199 0.019072048 -0.59059894 -0.13167173 -0.79615045 0.27252716
0.29677829 -0.17490268 0.017575905 -0.41605416 0.091396198 -0.90473509 0.28282267
0.30716208 -0.17441291 0.01278824 -0.24119824 -0.3106724 -0.91940528 0.25932887
0.31677881 -0.17509583 0.014455415 -0.60237312 0.035973337 -0.79740363 0.23639709
0.32840014 -0.17470947 0.013543226 -0.34814405 -0.4280729 -0.833996 0.28137192
0.33815223 -0.17447583 0.016606031 -0.17190394 0.89292634 -0.41609094 0.23667975
0.3554281 -0.17381214 0.015727768 -0.39152297 0.70197368 -0.59493095 0.14411999
0.36260197 -0.17293045 0.016312256 -0.42763159 0.58579034 -0.68846267 0.11815958
0.37435779 -0.17254347 0.014122407 -0.46611226 0.45004502 -0.76170784 0.095224977
-0.45391619 -0.16273217 0.013931517 0.98576146 0.1403165 0.09265817 0.10404166
-0.43643209 -0.16551098 0.01430822 0.94723576 0.086857937 0.30854511 0.11418472
-0.35357639 -0.16589876 0.016877869 0.5692457 0.24909979 -0.7835232 0.17809768
-0.324862 -0.1674813 0.012381609 0.064912312 0.10803189 -0.99202591 0.26483586
-0.31507295 -0.16797964 0.011095531 0.47467124 -0.54603952 -0.69031006 0.24453886
-0.30666721 -0.16796798 0.015528399 0.16251138 -0.23128775 -0.95921636 0.26336071
-0.29802826 -0.16775759 0.014914527 0.1969061 0.30388963 0.93213683 0.23070906
-0.28759483 -0.16747445 0.013726873 -0.11549825 0.19019088 -0.97492951 0.22338228
-0.2738373 -0.16627714 0.015300444 0.40144816 -0.20480911 0.89268845 0.16129753
-0.26427683 -0.16377348 0.016085986 0.42807555 -0.15117873 0.89100862 0.11599646
-0.25937384 -0.16902611 0.013404888 0.48672688 -0.14645989 0.86118895 0.12598786
0.23712127 -0.16372834 0.01120712 -0.53171808 0.54443568 0.64874166 0.16909307
0.24652673 -0.16502918 0.014790042 -0.17121571 0.63126475 0.75643247 0.18872634
0.25476009 -0.16640802 0.01799782 -0.3546758 0.67418218 0.64782977 0.2112385
0.26688409 -0.16235977 0.019351522 -0.30340636 0.64841187 0.69821674 0.24475235
0.27356169 -0.16601102 0.019387105 0.23813051 0.65389091 0.71813673 0.25447008
0.28333023 -0.16598417 0.01891922 0.16808172 0.71003103 0.68381613 0.24815834
0.29640001 -0.16513921 0.018258486 -0.13354439 0.78731555 0.60191375 0.26067394
0.30482098 -0.16628304 0.014029237 0.37464079 0.85139531 0.36711097 0.25014085
0.31418359 -0.16429877 0.01255548 -0.43330678 -0.78208512 -0.44787058 0.20956326
0.36599249 -0.16565639 0.017864084 -0.51716596 0.4447743 -0.73124224 0.0850951
0.37414035 -0.16408053 0.013897007 -0.57446063 0.33763281 -0.74565351 0.089307591
0.38248789 -0.16631828 0.011521599 -0.48885101 0.37380713 -0.78822142 0.10915048
-0.45677263 -0.15207446 0.015689531 0.94581461 0.27369735 0.17471264 0.10394631
-0.35587528 -0.15528186 0.015179038 0.55298001 0.17292345 -0.81505251 0.12027354
-0.34933653 -0.15337181 0.019092508 0.45174465 0.019244704 -0.8919397 0.1041494
-0.30442399 -0.15025571 0.011947067 0.99546456 0.030425318 -0.090136163 0.2448273
-0.26000997 -0.15067956 0.013455339 0.54001302 -0.039592598 0.84072495 0.061025225
0.23808058 -0.15682158 0.012882486 -0.48543736 0.40551203 0.77453899 0.14622498
0.24627696 -0.15615955 0.014777714 -0.38674462 0.35719314 0.85020089 0.15900216
0.25575647 -0.15429637 0.017334355 -0.27391011 0.43408406 0.85822165 0.18143329
0.26556209 -0.15440242 0.018926388 -0.11417329 0.67284292 0.73092192 0.19711699
0.2742874 -0.15383412 0.019057889 -0.10537932 0.74229491 0.66173518 0.23289186
0.2880308 -0.15083377 0.017756412 -0.067359105 0.94338965 0.3247748 0.27224779
0.29592383 -0.15612735 0.01808447 -0.32096606 0.57627195 0.75159264 0.27312446
0.30444148 -0.15457152 0.01417059 0.35132179 0.80618292 0.47606939 0.27033663
0.31053603 -0.15574917 0.0100817 -0.45411047 -0.63837308 -0.62150103 0.22953013
0.3655982 -0.1596947 0.019776698 -0.50394267 0.33545026 -0.79593652 0.065058388
0.37632048 -0.15501361 0.014996477 -0.58536285 0.29724377 -0.75431854 0.095873863
0.38522187 -0.1536516 0.012195266 -0.54547858 0.20538999 -0.81256878 0.10087324
0.39253506 -0.15637647 0.010016162 -0.48791814 0.17768079 -0.8546142 0.12842658
-0.44417107 -0.14326853 0.015981166 0.92495888 0.14022757 0.35325253 0.13608651
-0.36151674 -0.14507379 0.011473785 0.59661579 -0.39428169 -0.69899333 0.048026633
-0.35176158 -0.14758243 0.017455231 0.46379256 -0.13795391 -0.87513733 0.085725114
-0.31306177 -0.14703591 0.010197733 0.83342808 0.32431465 0.44745675 0.22719382
-0.30407435 -0.14061511 0.014544431 -0.28431213 0.81229258 0.50926161 0.25857091
-0.29634359 -0.14307652 0.010298866 0.53994817 -0.57593894 -0.61379993 0.23602584
-0.27111369 -0.14924845 0.019788578 0.3773011 -0.037405632 0.92533487 0.091741465
-0.26322556 -0.14429253 0.015164163 0.44290778 0.17534748 0.87925309 0.083602689
-0.25720268 -0.14174677 0.011719191 0.50987697 0.22872482 0.82928312 0.061510723
0.2376771 -0.14562923 0.012658088 -0.42246369 0.31174788 0.8510803 0.12276565
0.2452039 -0.14482248 0.013538206 -0.34535781 0.3048436 0.8875801 0.1548622
0.25720176 -0.14624716 0.014932462 -0.18050848 0.39117765 0.90243924 0.16460961
0.26572487 -0.1489802 0.01716448 -0.12608396 0.59440988 0.79421639 0.21662697
0.27126175 -0.14735067 0.015436301 -0.11259697 0.55730534 0.82263762 0.23614159
0.28396004 -0.14839897 0.014524881 0.17317119 0.51485693 0.83960348 0.21264189
0.29478905 -0.14730583 0.014091857 0.07559672 0.50707257 0.85858172 0.24745436
0.30393094 -0.14589207 0.015337964 -0.034968406 0.99127573 0.12708159 0.24222536
0.31467244 -0.14298245 0.01197542 -0.044805374 0.98247802 -0.18091257 0.22324224
0.36905754 -0.14529133 0.019915089 -0.56444269 0.20765103 -0.79892772 0.048552904
0.37749955 -0.1447932 0.015951414 -0.63318294 0.24468331 -0.7343089 0.073943838
0.3850176 -0.14493588 0.01177244 -0.65553659 0.21152985 -0.72493243 0.089980304
-0.46237016 -0.13343628 0.016470067 0.92988002 0.35812452 0.084082633 0.12968904
-0.44538498 -0.13814323 0.018859705 0.90275425 0.19271426 0.38457245 0.1256523
-0.35358313 -0.13350415 0.013612171 0.40548918 -0.64730906 -0.64542198 0.051570926
-0.34049591 -0.13098788 0.014163637 0.2987625 -0.81045222 -0.50389296 0.07972122
-0.33512849 -0.13098788 0.010530077 -0.015334193 0.93977815 0.34144098 0.088283792
-0.32582471 -0.13098788 0.016295083 0.20121695 0.93510383 0.29170623 0.10491786
-0.30307829 -0.13246511 0.013278462 -0.14149652 0.98323941 -0.11497427 0.1217925
-0.29847619 -0.13098788 0.019270428 -0.15432519 0.98782486 0.019638341 0.14801608
-0.28606743 -0.13098788 0.016035508 -0.0034236037 0.88695407 0.46184492 0.11397911
-0.27355269 -0.13098788 0.015183245 0.17987177 0.72895831 0.66050434 0.079957433
-0.26578388 -0.13170701 0.013602793 0.3421109 0.72983062 0.59186757 0.071260989
0.23745699 -0.13341646 0.012193979 -0.4072448 0.59936851 0.68913645 0.13079321
0.24500586 -0.13183397 0.013689257 -0.25649357 0.73007095 0.63340956 0.1372232
0.25694489 -0.13522035 0.018729361 -0.0023169154 0.9622103 0.27229756 0.22648492
0.28986019 -0.13085328 0.016607555 -0.11431701 0.9916091 -0.060357369 0.20204996
0.29809192 -0.13529943 0.016825777 0.024269493 0.98826164 -0.15083051 0.18703796
0.3041577 -0.13509426 0.016003884 -0.027255205 0.99194074 -0.12373655 0.15305403
0.31420907 -0.13329539 0.012106039 -0.0034933689 0.99241078 -0.12291662 0.15837869
0.37567815 -0.13456586 0.018747296 -0.52947783 0.21367921 -0.82097161 0.048986591
0.38341993 -0.13644999 0.0153958 -0.66844475 0.23867689 -0.70442522 0.08733131
0.39470154 -0.13386479 0.011913141 -0.58427632 0.2802904 -0.76161569 0.10400496
-0.465177 -0.12501514 0.014377593 0.95287669 0.28251314 0.11050968 0.15099716
-0.44682971 -0.12283228 0.014339489 0.77747267 0.29767221 0.55401033 0.16336492
0.37962139 -0.12457457 0.018121231 -0.54831702 0.23699024 -0.80198753 0.065285645
0.38539264 -0.1253555 0.014831621 -0.63239837 0.35304269 -0.68951654 0.088415004
0.3973197 -0.12535447 0.012872628 -0.55982763 0.34999615 -0.75106317 0.10744354
0.40050048 -0.12321345 0.011720966 -0.53608698 0.34868962 -0.76878238 0.10606956
-0.46912044 -0.11240313 0.012160301 0.92189354 0.38450906 0.047592562 0.18404907
-0.44892606 -0.11485015 0.018666632 0.85644561 0.17032795 0.48732883 0.15314692
0.38699663 -0.11534658 0.01618032 -0.59236479 0.23028319 -0.77205795 0.073493622
0.39555427 -0.11499032 0.013258163 -0.52756339 0.33913025 -0.7788887 0.095179811
0.40041733 -0.11190017 0.011223215 -0.47020811 0.35419446 -0.80836296 0.074855156
-0.47147495 -0.10481563 0.010986621 0.96670359 0.25429046 0.028646637 0.20319141
-0.45081383 -0.10327591 0.019208862 0.84356153 0.2494351 0.47559023 0.16736428
-0.44861335 -0.10700651 0.011111834 0.69282043 0.0043287701 0.72109711 0.21428853
0.38558683 -0.10693526 0.018376151 -0.47065473 0.15440463 -0.86870205 0.043811746
0.39469698 -0.10465211 0.014732758 -0.47836551 0.24736428 -0.84260154 0.057188205
0.4034023 -0.10506684 0.011324913 -0.43068853 0.3575736 -0.82864261 0.068662271
-0.47420889 -0.094673313 0.013118492 0.87208813 0.489306 -0.0064714542 0.19562766
-0.45061219 -0.094615847 0.011582052 0.68369013 0.20481646 0.70044124 0.16552716
0.38845643 -0.095270097 0.019297251 -0.37995028 0.14075954 -0.9142344 0.0064160372
0.39413294 -0.094881147 0.016922839 -0.38136524 0.13649781 -0.91429144 0.0064537353
-0.48034307 -0.085210539 0.011704754 0.89488578 0.39454114 -0.20860657 0.094133876
-0.47908989 -0.087348968 0.013891838 0.89397115 0.41325426 -0.17331013 0.12553641
-0.45163855 -0.088717088 0.012797798 0.73765188 -0.022181539 0.67481673 0.14765365
0.39225245 -0.084610425 0.01852701 -0.3683902 0.081618004 -0.92608166 0.00052242883
0.40776676 -0.086637095 0.01179467 -0.4038116 0.13109127 -0.90540117 0.0057276748
0.41126716 -0.085158058 0.01042792 -0.40205652 0.12282159 -0.90733975 0.0056234347
-0.48176929 -0.074375033 0.012786343 0.94847506 0.27709255 -0.15367113 0.089630209
-0.45256752 -0.076464072 0.016452577 0.62227392 0.058468115 0.78061301 0.11742288
0.39425349 -0.074557304 0.01846957 -0.36042657 0.062775992 -0.93067276 0.00024799473
0.40549436 -0.0785072 0.013396586 -0.38868842 0.081747219 -0.91773564 0.00012833699
0.41239893 -0.074084163 0.010819016 -0.39266777 0.071573131 -0.9168911 5.5405544e-05
-0.48397309 -0.064310662 0.011135322 0.98852873 -0.0094849169 -0.15073465 0.027978774
-0.45362294 -0.062254969 0.019120848 0.62409747 -0.044263437 0.78009176 0.10557038
0.40742534 -0.064258009 0.013698714 -0.39073455 0.071504727 -0.91772193 5.2865274e-05
0.41348118 -0.064911604 0.011064756 -0.39590022 0.070760652 -0.91556323 5.0417308e-05
-0.48050612 -0.059808139 0.011898258 0.93869388 -0.093207344 -0.33191282 0.15012847
-0.47935525 -0.054986857 0.01108457 0.84427428 -0.19501628 -0.4991689 0.22882009
-0.45261317 -0.052253485 0.013070418 0.64283472 -0.18421061 0.74352533 0.13668707
0.3980827 -0.050032094 0.018775344 -0.36115858 0.069885485 -0.92988199 0.00021573278
0.40999818 -0.055502608 0.013296997 -0.39409789 0.070216864 -0.91638225 4.307631e-05
0.41255933 -0.055304103 0.012203502 -0.39535266 0.069616243 -0.91588742 5.3878714e-05
-0.47977293 -0.048376817 0.011062331 0.94138902 -0.15542863 -0.29938033 0.19653122
0.40751404 -0.042372759 0.015381684 -0.37934282 0.070314586 -0.92258054 0.00013504838
0.41336933 -0.044490144 0.012664134 -0.39788672 0.068808056 -0.91485059 4.6568333e-05
-0.4805395 -0.030362165 0.011016686 0.83568966 0.022856303 -0.54872614 0.17128474
-0.45355228 -0.031842001 0.01429309 0.77134198 0.018402562 0.63615471 0.12292773
0.39888087 -0.035563421 0.019574683 -0.3633123 0.073514827 -0.92876244 0.00024895719
0.40401942 -0.035382874 0.017411815 -0.37137181 0.070031583 -0.92583942 0.00023541735
0.41591316 -0.033671111 0.01235847 -0.39699829 0.069634251 -0.91517395 5.7599311e-05
0.42018574 -0.0375796 0.010173246 -0.4036997 0.068994813 -0.91228628 4.2977954e-05
-0.47880837 -0.024064219 0.015663996 0.90346229 0.17450213 -0.39154175 0.24052049
-0.45456058 -0.02436682 0.017746046 0.65845197 0.060157191 0.75021476 0.11401919
0.40540788 -0.022758456 0.01779809 -0.3820526 0.059731785 -0.92220819 0.0001756259
0.41961855 -0.022722488 0.011549008 -0.40152165 0.066516481 -0.91343087 9.0164678e-05
-0.48030037 -0.013640435 0.0129526 0.84171301 -0.076271519 -0.53451091 0.2614705
-0.45378667 -0.015352418 0.012908978 0.70908403 0.023719233 0.70472491 0.12022839
0.40506792 -0.016574206 0.018414859 -0.37458205 0.053376399 -0.92565614 0.00020897499
0.4159312 -0.019498238 0.013423662 -0.39579144 0.060494751 -0.91634566 9.7668926e-05
-0.4803043 -0.0038101061 0.013870769 0.934668 -0.35479847 -0.022666827 0.25245994
-0.47985238 -0.0092116678 0.014383792 0.84932834 0.28647611 -0.44336537 0.25528806
-0.45406443 -0.0026740031 0.012286143 0.7630049 -0.051216509 0.64436042 0.14644843
0.40466896 -0.0095080864 0.019160137 -0.37263536 0.035169221 -0.92731118 0.00036642069
0.41715193 -0.0064769736 0.013869801 -0.39751253 0.020132408 -0.91737586 0.00051978836
-0.48110756 0.0081043402 0.011481463 0.64259559 0.14314143 -0.752716 0.22993951
-0.4544006 0.0079756631 0.014612298 0.65624714 0.0014925234 0.75454462 0.12991853
0.40552413 0.0065408545 0.018968428 -0.36988178 -0.018985024 -0.92888486 0.00043625708
0.42147946 0.0033044997 0.012177108 -0.40606382 -0.0049227509 -0.91383153 0.00062391744
-0.45401978 0.014057422 0.01379112 0.72171295 0.0681943 0.68882495 0.1174714
0.40937972 0.014847888 0.016585983 -0.38121754 -0.051519807 -0.92304873 0.00023542088
0.42336953 0.0151511 0.010375087 -0.4052119 -0.059798166 -0.91226512 8.7378743e-05
-0.47893023 0.020131961 0.015683178 0.54206431 0.12310014 -0.83127165 0.23104607
-0.4537726 0.024177179 0.014173127 0.73021019 0.038629889 0.68212962 0.091186129
0.39974186 0.028358644 0.019745775 -0.36176294 -0.067026451 -0.92985755 0.00037753899
0.40179262 0.025389554 0.019081138 -0.36339155 -0.067252204 -0.92920595 0.0003954733
0.41606057 0.023228927 0.012948187 -0.39829695 -0.064737059 -0.91496921 7.5269447e-05
-0.47680482 0.032536268 0.019745367 0.95158279 0.18927045 0.24221256 0.21716094
0.40569791 0.033992667 0.016652545 -0.37645772 -0.070973024 -0.92371118 0.00018481788
0.41399634 0.037101015 0.012729537 -0.39262575 -0.069235556 -0.91708857 8.2350416e-05
-0.47800726 0.047308326 0.015637433 0.96633112 -0.10991043 -0.23264556 0.19849952
-0.4538694 0.043170564 0.017426461 0.75570482 0.018819747 0.65464187 0.083289355
0.39826724 0.04339242 0.019171638 -0.36107406 -0.073029742 -0.92967319 0.00035686386
0.40291101 0.043556102 0.017104842 -0.374037 -0.072345763 -0.92458773 0.00025884708
0.410157 0.040058248 0.014186053 -0.3849408 -0.070756845 -0.92022502 0.0001488378
-0.47771746 0.057289731 0.016103566 0.93777287 0.095532358 -0.3338497 0.23727298
0.40567917 0.05446583 0.01499792 -0.38035455 -0.070182078 -0.92217404 0.00015014515
0.41280097 0.054964591 0.011872759 -0.39201128 -0.06906002 -0.9173646 2.8458222e-05
-0.48130268 0.060664505 0.011947921 0.92695022 -0.019913906 -0.37465566 0.11900355
-0.45330101 0.064713612 0.018048495 0.66528457 -0.041038562 0.74546111 0.11499809
0.40888947 0.063377209 0.012919061 -0.38979778 -0.069723725 -0.91825724 1.172294e-05
0.41611636 0.060149778 0.010084135 -0.39754105 -0.069439292 -0.91495317 2.7476888e-05
-0.45225415 0.07454408 0.0147182 0.72765291 0.057458919 0.68353474 0.11615438
0.39430407 0.074389823 0.018395882 -0.36966011 -0.072362527 -0.92634499 0.00032820686
0.40820745 0.079415232 0.012034543 -0.39129704 -0.073279664 -0.91734225 3.9566465e-05
-0.48007372 0.085230835 0.01482082 0.93800557 -0.30278245 -0.1687257 0.13602503
-0.47846842 0.087150134 0.014242836 0.9214204 -0.36130944 -0.14296798 0.16841732
-0.45258647 0.086996399 0.017697925 0.6995123 -0.027370904 0.71409625 0.12119073
0.39049679 0.080055289 0.019617343 -0.35729381 -0.07089138 -0.93129778 0.00049052399
0.40528753 0.083919846 0.012945607 -0.40435174 -0.1126411 -0.90764081 0.0040031159
0.4103356 0.086709768 0.010596009 -0.41390547 -0.16413714 -0.89540011 0.019468725
-0.47361782 0.09471494 0.016953455 0.97243667 -0.21920867 0.079464547 0.16581278
-0.45131075 0.09580157 0.016066561 0.70766294 -0.12342515 0.69568628 0.13024272
0.38941479 0.091686554 0.019147092 -0.36760038 -0.079685181 -0.92656374 0.00099380163
0.39489639 0.096152559 0.016465886 -0.47784668 -0.18751052 -0.85819709 0.035956103
0.40644556 0.094616562 0.011670232 -0.40938044 -0.22285323 -0.88472825 0.046528395
-0.46934128 0.10876611 0.015909787 0.93473148 -0.27677938 0.22286806 0.16635634
-0.44804463 0.10978012 0.010504097 0.78689086 -0.094577491 0.60980147 0.17849849
0.3878586 0.10189721 0.017292073 -0.50226367 -0.19101995 -0.84335196 0.040165715
0.40349331 0.10496364 0.011878082 -0.44395444 -0.29187593 -0.84717941 0.061952692
-0.46796829 0.11210932 0.018936554 0.95246464 -0.28434423 0.10935996 0.14766335
-0.4478758 0.11187248 0.011264199 0.77817303 -0.05561405 0.6255827 0.16946726
0.37793562 0.11923049 0.019170472 -0.45123076 -0.14409672 -0.88069683 0.010176921
0.39508143 0.11365606 0.014160874 -0.51330984 -0.17189446 -0.84081239 0.072171926
0.40104342 0.1138196 0.011891979 -0.51208901 -0.23495385 -0.82617283 0.067516275
-0.46466935 0.12385403 0.015524885 0.92750835 -0.27100736 0.2574555 0.145377
-0.44601792 0.12415254 0.011410777 0.83735687 -0.14429912 0.52726775 0.17072989
0.37688133 0.12721694 0.018827427 -0.49511892 -0.1900572 -0.84778267 0.032194972
0.38817343 0.12675075 0.016173638 -0.58181626 -0.25250459 -0.77313083 0.062234778
0.39050102 0.12361916 0.013852964 -0.57049012 -0.25390673 -0.78107125 0.077106327
0.40356013 0.12137766 0.010583464 -0.5058623 -0.33367446 -0.79546511 0.09179119
-0.46131381 0.13478839 0.014967279 0.90942115 -0.34415334 0.23347723 0.13550097
-0.44469494 0.13380428 0.012208762 0.89458716 -0.20147762 0.39889923 0.17043914
-0.36122721 0.1312698 0.011248064 0.49296185 0.6271041 -0.60309952 0.083173193
-0.35197416 0.13304436 0.015766829 0.38785443 0.59327686 -0.70540172 0.074280001
-0.34499422 0.13085537 0.013513689 0.28046182 0.74114084 -0.60996014 0.083430275
-0.334988 0.13085537 0.01659924 -0.013205217 -0.763156 0.64607936 0.10280604
-0.32468757 0.13085537 0.014984556 0.16606076 -0.90170044 0.39919919 0.097152293
-0.31551802 0.13085537 0.01416497 0.15388818 -0.94996756 0.27180865 0.11988465
-0.30774471 0.13595198 0.015910713 0.15031971 -0.91270274 0.37997085 0.14921598
-0.29334751 0.13085537 0.012830798 -0.17070332 -0.94271243 0.28662449 0.09526784
-0.27387688 0.13085537 0.017325474 0.22349378 -0.67486483 0.70328379 0.09240929
-0.26666498 0.13134897 0.013467109 0.32869565 -0.63560385 0.69854629 0.072440907
-0.25624675 0.13263306 0.010727389 0.43276352 -0.679178 0.59281778 0.071518116
0.23710591 0.13434406 0.01193983 -0.38382739 -0.6409269 0.66474754 0.1146997
0.24470043 0.13606118 0.014019831 -0.26993147 -0.54214495 0.79574859 0.15160851
0.25478187 0.13490376 0.017525036 -0.10247362 -0.87751579 0.46847123 0.15858021
0.26320928 0.13296168 0.014253184 -0.055894319 -0.76583475 0.6406036 0.17115419
0.27726349 0.13091923 0.017296784 -0.063859411 -0.98017007 0.18758616 0.23109575
0.28675485 0.13581048 0.016246045 -0.096724294 -0.97834092 0.18301234 0.23446232
0.29673395 0.1311629 0.013169821 -0.063194528 -0.9957124 -0.067552306 0.19934899
0.30206904 0.13469072 0.015427779 -0.057150334 -0.99025303 -0.12701522 0.16338912
0.31444955 0.13459493 0.011672088 0.014083182 -0.98640168 -0.16374783 0.19021967
0.3725301 0.13184661 0.019910613 -0.53913313 -0.19568165 -0.81917286 0.037074048
0.38514778 0.13638417 0.015647477 -0.58340377 -0.30141774 -0.75417989 0.070508592
-0.45733142 0.1470895 0.016254082 0.94402111 -0.3051326 0.12537265 0.10671589
-0.44391152 0.1435359 0.014242224 0.90517974 -0.10161579 0.41270313 0.12072623
-0.35490742 0.14486313 0.015472151 0.54598272 0.11919955 -0.8292734 0.093347728
-0.31269163 0.14908899 0.01162407 0.69932169 0.10975362 0.7063309 0.27392477
-0.30310181 0.14394839 0.013171192 0.12473066 -0.65035373 0.74932116 0.25182253
-0.27073553 0.145137 0.019422738 0.39454684 -0.17633292 0.90179789 0.090509564
-0.25683436 0.14519131 0.011571361 0.53503448 -0.1110267 0.83750296 0.093083844
0.23562324 0.14454854 0.011019895 -0.54137403 -0.1674549 0.82393754 0.14059542
0.24515925 0.14399795 0.014428295 -0.38094014 -0.38856465 0.83898878 0.13424125
0.2566711 0.14620911 0.01479869 -0.13474204 -0.34259149 0.92977184 0.15730248
0.26264241 0.1412029 0.017169325 -0.031506754 -0.49382684 0.86898929 0.16499852
0.27622893 0.14691743 0.014172245 -0.091169998 -0.41584408 0.90485454 0.22026825
0.28398243 0.14682332 0.016043436 0.074993275 -0.54610157 0.83435553 0.24550763
0.29231134 0.14448981 0.017563431 -0.080289312 -0.97821903 0.19141884 0.22344989
0.30336633 0.14679645 0.01410598 -0.048116419 -0.96534252 0.25651237 0.25067553
0.3143492 0.14032795 0.011455774 0.13311723 -0.99079132 -0.024745613 0.21968865
0.37352228 0.1440236 0.018462373 -0.55441362 -0.26333064 -0.78948241 0.04960357
0.38454765 0.14500809 0.013034683 -0.57423043 -0.24862589 -0.78002858 0.083441868
0.3945511 0.140828 0.011828309 -0.53130466 -0.2436624 -0.81138402 0.079628237
-0.45456827 0.15497673 0.019005021 0.94617248 -0.31168157 0.087247312 0.10203011
-0.44173065 0.15317428 0.017745348 0.93215364 -0.27461886 0.23595361 0.11200209
-0.36239162 0.15249656 0.011054325 0.64114177 -0.048466727 -0.76589048 0.085334547
-0.35013425 0.15642561 0.018699549 0.57856941 -0.16367134 -0.79904264 0.12765321
-0.30589813 0.15069541 0.011937485 0.98287839 -0.13323241 -0.12727572 0.23465182
-0.2700747 0.15878431 0.019478932 0.39645177 0.20785742 0.89421546 0.10627209
-0.2582745 0.15734118 0.012589421 0.5557338 0.17742464 0.81220722 0.10207125
0.23424943 0.15229833 0.010107568 -0.57815289 -0.25780505 0.77412909 0.17244013
0.24683189 0.15430404 0.014747079 -0.41045102 -0.31581038 0.8554495 0.17072098
0.25570005 0.15464938 0.017993588 -0.19804899 -0.38770494 0.90025634 0.15810536
0.26511425 0.1560189 0.018530168 -0.18575144 -0.54154384 0.81989425 0.21213678
0.27411547 0.15349562 0.018605407 -0.38837728 0.65212083 -0.65107721 0.2573854
0.28639716 0.15485822 0.018202309 -0.126072 -0.7726292 0.62221372 0.2443693
0.29497322 0.15559702 0.017357375 -0.19327115 -0.89195424 0.40873447 0.23082823
0.30620965 0.1548437 0.014629317 -0.42608833 0.81417167 -0.39442775 0.24609746
0.31454349 0.15440997 0.011910709 -0.60197002 0.76934284 -0.21387801 0.26445687
0.37560707 0.15421435 0.016412867 -0.55563289 -0.29399061 -0.77771562 0.069088206
0.38344669 0.15315844 0.01355392 -0.53423154 -0.25901091 -0.80468011 0.084729239
-0.45123178 0.16745377 0.014801129 0.95451933 -0.21835718 0.20300975 0.12739432
-0.43626577 0.16531798 0.013490862 0.92184079 -0.18511361 0.34050339 0.13235943
-0.35511759 0.16789533 0.016003478 0.50969434 -0.19287008 -0.83845854 0.14091142
-0.3486641 0.16707821 0.019896459 0.56701821 -0.15348232 -0.80927962 0.15486428
-0.33201796 0.16665158 0.011327607 -0.052080527 -0.80315101 -0.59349483 0.23221889
-0.31351748 0.16652735 0.013591799 -0.090570554 -0.32285655 0.94210434 0.2554689
-0.30666822 0.16634408 0.016515732 0.05931139 -0.2286492 0.97170043 0.25326046
-0.2952849 0.16726698 0.015117641 0.071490645 -0.028991371 0.99701989 0.25272664
-0.28574669 0.16783115 0.01285027 0.29920486 0.31366247 0.90116161 0.22877234
-0.2786797 0.16587457 0.010216242 -0.34856957 -0.68591928 -0.63875973 0.21291907
-0.26706132 0.16471504 0.017786192 0.40849075 0.13602528 0.90256983 0.1504813
0.23800412 0.16745266 0.01387809 -0.48824027 -0.3898944 0.78077132 0.16128509
0.24637294 0.16591498 0.015233968 -0.47896677 -0.47455457 0.73850447 0.20781849
0.25471735 0.16561064 0.01765362 -0.26374546 -0.57505292 0.77443689 0.21044809
0.26123422 0.16547884 0.018854726 -0.27821541 -0.72375149 0.63149035 0.2357067
0.2746824 0.16476084 0.019140502 -0.33518875 0.62754774 -0.70273203 0.25596583
0.28409794 0.16615272 0.018615564 -0.5531407 -0.60835969 0.56915194 0.2581349
0.29435152 0.16496803 0.017515179 0.14330819 -0.83754563 0.52723801 0.22625294
0.30624297 0.16574153 0.014097134 -0.48643517 0.78229356 -0.38909838 0.25316873
0.31007919 0.16443868 0.015289894 -0.52478915 0.7501356 -0.40235925 0.23641665
0.36614388 0.16530015 0.017964724 -0.52098912 -0.46505755 -0.71574569 0.084346808
0.3745147 0.16485864 0.014318977 -0.55869478 -0.4710291 -0.6826359 0.11082831
0.38379192 0.16132383 0.011903482 -0.47780052 -0.43848363 -0.76120871 0.12397216
-0.44853806 0.1752651 0.017261548 0.95730019 -0.25046501 0.14437352 0.11593531
-0.43299201 0.17377868 0.013888252 0.93478817 -0.14770322 0.32304004 0.11985248
-0.35652426 0.17700663 0.015445854 0.55367708 -0.020712238 -0.83247381 0.11990044
-0.33622566 0.1758838 0.012353023 0.15718895 -0.86341405 -0.47938278 0.29226464
-0.32994574 0.17754206 0.015144098 0.36520493 0.23283911 -0.9013387 0.25134447
-0.31438455 0.17359756 0.01902478 0.06418433 -0.46183118 0.88464248 0.29335779
-0.30575171 0.17674625 0.019393483 -0.022228772 -0.22541191 0.97400993 0.23912518
-0.29316542 0.17547001 0.018407052 0.16226564 -0.095855117 0.98208034 0.2470665
-0.28301799 0.17477259 0.015967183 0.55165815 -0.18404314 0.81351173 0.27243882
-0.27392411 0.17452288 0.012233426 0.47939208 -0.2734102 0.83392447 0.23334797
-0.26735148 0.17522512 0.015153398 0.48141971 -0.23553731 0.84424955 0.1524317
0.22546595 0.17622831 0.016884983 -0.88529509 -0.37096211 0.28042772 0.16583557
0.23623675 0.17271402 0.010776916 -0.61300987 -0.39984828 0.68142509 0.22740047
0.24377586 0.1766059 0.015149865 -0.74145442 -0.60096473 0.29847416 0.28448993
0.25419858 0.17567101 0.017426621 -0.6541031 -0.087765239 0.7512964 0.29991451
0.262205 0.17646588 0.018811369 -0.93041652 -0.31557518 -0.18637972 0.29974106
0.27486044 0.17492828 0.019295085 -0.9933092 -0.1120382 -0.028005989 0.22823778
0.28203362 0.17505756 0.019164931 -0.90290338 -0.058560394 0.42583576 0.27649683
0.29497099 0.17361748 0.016958803 -0.96452582 0.22426333 0.13926938 0.2695953
0.30547112 0.17490017 0.013437379 -0.97590655 -0.18640481 -0.11340021 0.28309697
0.31495863 0.17436206 0.014865475 -0.58615011 0.20012313 -0.78509796 0.24933434
0.32180101 0.17519943 0.016994433 -0.45188561 -0.68773907 -0.56816751 0.28398797
0.3399328 0.1741834 0.013819852 -0.086027116 -0.86500043 -0.49434152 0.22933671
0.34372371 0.17385101 0.016059745 -0.23143935 -0.83068973 -0.50634998 0.18505366
0.35446885 0.17229286 0.01379595 -0.41344464 -0.67490619 -0.61119986 0.15875936
0.36525732 0.17299479 0.016640315 -0.46014959 -0.54391563 -0.70172513 0.10054825
0.37408513 0.17825505 0.010469343 -0.55231279 -0.64314795 -0.53038794 0.12811394
-0.4544923 0.18757457 0.012471404 0.93515462 -0.34607694 -0.075608209 0.15329546
-0.44345725 0.18632366 0.014210009 0.9042092 -0.38536245 0.18412353 0.14724079
-0.43580088 0.18605898 0.012990393 0.87844956 -0.3119427 0.3619644 0.15952615
-0.36308423 0.18282223 0.010705615 0.59519142 0.083937101 -0.7991882 0.11413797
-0.35672101 0.18910557 0.015570077 0.55988163 0.047092084 -0.8272332 0.097526759
-0.33517924 0.18528113 0.012818101 0.32570234 0.5488798 -0.76983696 0.23373888
-0.32506207 0.1867824 0.016664725 0.43333691 0.40652862 -0.80433422 0.23319115
-0.31321299 0.18375881 0.019182248 0.11241673 -0.57490844 0.8104583 0.25446576
-0.30592209 0.18336642 0.019394232 -0.067111686 -0.58462399 0.80852389 0.27212703
-0.29321811 0.18481098 0.018418211 0.20631054 -0.36942014 0.90607107 0.23941207
-0.28521237 0.18641999 0.016503308 0.35986063 -0.073985882 0.93006796 0.22350116
-0.27472469 0.18409416 0.012589229 0.55455774 -0.35630971 0.75200337 0.19932628
-0.26652685 0.18625037 0.018104689 0.45749539 -0.082609229 0.88536638 0.05653023
-0.25742364 0.18723631 0.012612132 0.59910935 -0.052771721 0.79892623 0.056688633
0.22105497 0.18491763 0.013515433 -0.72906238 -0.58509547 0.35514987 0.1545144
0.23795749 0.18695591 0.011227778 -0.021597728 -0.99306697 -0.11554887 0.23595779
0.24580583 0.18592441 0.014832605 0.030779161 -0.96815819 -0.24843986 0.21400829
0.25849584 0.1862582 0.01860035 -0.00061386748 -0.9405542 -0.33964312 0.21466282
0.26233178 0.18365417 0.018423544 0.018038183 -0.87870538 -0.4770236 0.26738685
0.27543569 0.18377708 0.019527184 -0.25611115 -0.8498596 -0.46059287 0.26407513
0.28432032 0.18422028 0.019129653 0.046700139 -0.82337075 -0.56557906 0.25410715
0.29452837 0.18617848 0.01668402 -0.10367791 -0.9028967 -0.41716725 0.23177105
0.30535114 0.1859166 0.014400839 -0.047164623 -0.94907957 -0.31148598 0.22401696
0.31449175 0.18521051 0.012249793 -0.2882866 -0.91431963 -0.28444776 0.22143184
0.34959 0.18745115 0.015467526 -0.33314845 -0.8287515 -0.44964781 0.13619876
0.3546111 0.18633044 0.013597963 -0.47309741 -0.63950866 -0.60597652 0.097172193
0.37096766 0.18049328 0.010657921 -0.50355935 -0.66872323 -0.5470258 0.11858117
-0.45180511 0.19311368 0.013929632 0.79959673 -0.59386438 -0.089275666 0.13122873
-0.44753343 0.19510132 0.014689438 0.81755555 -0.5758428 -0.0028089879 0.13527049
-0.43701914 0.19910976 0.019450989 0.61984015 -0.78472722 -0.0012044624 0.13195816
-0.36100829 0.19084026 0.012645967 0.59909302 0.13901477 -0.7885192 0.11346351
-0.35595328 0.19847497 0.016275667 0.53216046 0.46835333 -0.70530164 0.18923989
-0.3408972 0.19418183 0.010276774 0.64679945 -0.19117759 -0.73830992 0.27505171
-0.33583188 0.19368114 0.012528022 0.27838075 0.02808094 -0.96006024 0.28303117
-0.32393193 0.1970816 0.017005652 0.27050352 -0.45385221 -0.84902644 0.24396534
-0.31200492 0.19515462 0.019350225 0.028208245 -0.076965325 -0.99663466 0.19836153
-0.30613714 0.19641033 0.01939518 0.20139131 0.2026048 0.95832819 0.22240376
-0.29319024 0.19827604 0.018412309 0.45124021 0.097428367 0.88706821 0.24878564
-0.2874344 0.19367167 0.017193735 0.27935836 0.027797865 0.95978445 0.20173167
-0.27492231 0.1957778 0.012677066 0.43891928 0.13780394 0.88789642 0.20174412
-0.26497525 0.19937804 0.012543954 0.46234384 -0.076181598 0.88342202 0.19087887
-0.25621939 0.19470498 0.012088072 0.63411111 -0.19925469 0.74712831 0.10453225
0.07034938 0.19938068 0.017017689 -0.030440589 -0.97005057 -0.24098825 0.0053994162
0.089855388 0.19887795 0.015931211 -0.03276268 -0.97661489 -0.21248539 0.0041561797
0.10187136 0.19921225 0.011349447 -0.023297381 -0.98687601 -0.15979065 0.0029879624
0.11555302 0.19865072 0.01217341 -0.027358575 -0.986637 -0.16062061 0.0032710491
0.12596291 0.19755802 0.015385942 -0.02755522 -0.99012697 -0.13743822 0.02471444
0.13844499 0.19718802 0.014872553 -0.014340888 -0.98565692 -0.16815117 0.0029165165
0.14229423 0.19777168 0.011967499 -0.011576557 -0.98852807 -0.15059264 0.0028169071
0.15769078 0.1955494 0.019146368 -0.0015680837 -0.98280835 -0.18462153 0.026753405
0.16500045 0.19617099 0.01811089 -0.013616489 -0.97155857 -0.23640758 0.027280454
0.18282244 0.19851655 0.012986906 0.026644699 -0.97291547 -0.2296204 0.008306996
0.19437543 0.19910383 0.013106777 0.042458948 -0.97426003 -0.22139221 0.016703628
0.2037579 0.19939964 0.014523325 -0.12235019 -0.98378354 -0.13115016 0.078690648
0.21295375 0.19960329 0.017247684 -0.24370584 -0.96692246 -0.075289905 0.10781916
0.22039595 0.19155438 0.012443051 -0.59143239 -0.7532807 0.28770784 0.17982391
0.23728824 0.19410975 0.011287815 0.079177439 -0.98432976 -0.15756217 0.2011871
0.24467549 0.19448447 0.012591759 0.16538015 -0.96398401 -0.20828858 0.19422637
0.25576589 0.19548497 0.016564393 0.0075185178 -0.94436377 -0.32881692 0.16862862
0.26462841 0.19908769 0.014064349 -0.11375844 -0.99172342 -0.05952898 0.1405509
0.27188048 0.1974265 0.016203405 -0.078573205 -0.96024579 -0.26786959 0.17356257
0.2839019 0.19600061 0.01770493 0.068146847 -0.92902368 -0.36369064 0.14837244
0.294076 0.19558549 0.016881119 -0.096128799 -0.94180346 -0.32212645 0.13967504
0.30473208 0.19594181 0.014126251 -0.15723979 -0.96310079 -0.2184319 0.15468675
0.31048134 0.19123356 0.010120999 -0.14336948 -0.97771329 -0.15336886 0.19649492
0.3222501 0.19896872 0.01776213 -0.18920003 -0.91321415 -0.36089244 0.15417022
0.33242923 0.19629437 0.014800662 -0.24278614 -0.88050175 -0.40715057 0.1502386
0.34151089 0.19302115 0.011831105 -0.20395277 -0.89108944 -0.40541694 0.17523521
-0.43181834 0.20140134 0.017678369 0.54241204 -0.83965141 0.02783386 0.12141354
-0.42487288 0.20454052 0.015178066 0.41624802 -0.90876853 0.02961885 0.064640917
-0.41070789 0.20960553 0.011315505 0.31309724 -0.9303512 0.19083202 0.092991956
-0.3628909 0.20613728 0.01105875 -0.37449241 -0.82148618 0.43001857 0.22086735
-0.35311955 0.20251887 0.018265732 0.37178117 0.57510895 -0.72871703 0.20980699
-0.34073329 0.20572172 0.010334661 0.17262194 -0.96253574 -0.20910917 0.22777486
-0.33519745 0.2037973 0.012810006 0.24738577 -0.95491546 -0.16412416 0.28614667
-0.32492614 0.20546396 0.016770998 0.12018368 -0.97253132 -0.19934601 0.25250939
-0.3147352 0.20644961 0.018829869 0.0266155 -0.96243232 -0.27021402 0.23727506
-0.30349594 0.20657934 0.019383544 0.29592627 -0.68010521 -0.67073429 0.2877984
-0.29685357 0.20357256 0.019183308 0.34434912 0.16456491 0.92430621 0.28983921
-0.28354639 0.20706384 0.016286111 -0.3805857 -0.82596797 -0.4158504 0.25399834
-0.2763578 0.20684339 0.013315069 -0.34204346 -0.73938286 -0.57993037 0.23681891
-0.26120028 0.20103481 0.015432554 0.60127813 -0.24779789 0.75964516 0.15601137
-0.25619069 0.20172283 0.012207847 0.45871991 -0.28492311 0.84166199 0.17962594
-0.13674718 0.20896173 0.013138776 -0.086734518 -0.99206007 -0.09107098 0.0010102345
-0.1263849 0.20780796 0.014555097 -0.07286112 -0.98648828 -0.14673829 0.0035278301
-0.11434728 0.20699151 0.014885978 -0.059644416 -0.98411602 -0.16720712 0.0032932512
-0.1017129 0.20654847 0.011656524 -0.054112162 -0.99069458 -0.12488453 0.001310411
-0.094419494 0.20581001 0.014782323 -0.058597177 -0.99090207 -0.12115912 0.0015050218
-0.082982711 0.20529139 0.013088215 -0.057201076 -0.98964179 -0.13167053 0.00210304
-0.073913015 0.20444787 0.016200189 -0.061509714 -0.98508996 -0.1606683 0.0024383571
-0.066997491 0.20374636 0.019252563 -0.069319509 -0.97785896 -0.19745027 0.0045837457
-0.056949645 0.20368674 0.015129203 -0.066363558 -0.98716885 -0.14523619 0.0027017053
-0.032818604 0.2029388 0.015738495 -0.031029828 -0.98903328 -0.14439592 0.0026924838
-0.016539291 0.2024892 0.015194228 -0.011987525 -0.99238688 -0.12257456 0.0022367812
-0.0049197897 0.20222239 0.01386518 -0.026217759 -0.99343902 -0.11131773 0.0018130121
0.00058897445 0.2015595 0.019469257 -0.038754534 -0.9797613 -0.19638173 0.0052760956
0.011015639 0.20182315 0.012621891 -0.046511389 -0.98689222 -0.15453261 0.0034668245
0.024557941 0.20123529 0.015885385 -0.055817779 -0.98142982 -0.18352082 0.0032734666
0.045890741 0.2007516 0.013338894 -0.032385912 -0.98744702 -0.1545943 0.0035179695
0.069489613 0.2000629 0.013191622 -0.02374251 -0.98288614 -0.18267779 0.0039629149
0.21295743 0.20101862 0.013234632 -0.23099197 -0.97155064 -0.052269682 0.099258229
0.22142041 0.20081577 0.019768674 -0.079087168 -0.98956007 -0.12048323 0.1273859
0.23853113 0.20216277 0.016326698 0.084911913 -0.98146045 -0.17182922 0.1340273
0.24790812 0.2020299 0.01874565 -0.045732923 -0.97110873 -0.23421402 0.14876086
0.25373685 0.20095901 0.019161971 0.016877502 -0.95028889 -0.3109118 0.16910304
-0.40428916 0.21134764 0.01148513 0.31857139 -0.94139951 0.11081105 0.097031549
-0.39752859 0.21263082 0.015127953 0.29921168 -0.95327401 0.041726615 0.055275068
-0.38372186 0.21610554 0.016955612 0.062562756 -0.99759895 0.029703481 0.04741656
-0.37401953 0.21810503 0.01811943 -0.052570388 -0.99704963 0.055932701 0.066093102
-0.36590266 0.21693058 0.014845155 -0.10074639 -0.97886729 0.17795794 0.13571338
-0.35211971 0.2127016 0.019177178 -0.095266834 -0.96007568 0.26301908 0.17288306
-0.33717942 0.21027388 0.011929135 0.027053948 -0.97979987 -0.19814232 0.21010172
-0.32448453 0.21570905 0.01444128 0.033931904 -0.98957282 -0.13997926 0.1613691
-0.31358624 0.21570876 0.017366733 0.1036006 -0.99270087 -0.061741099 0.14408991
-0.30612043 0.21663614 0.015774531 0.073887251 -0.99658877 -0.036762398 0.17148906
-0.29560095 0.21618435 0.015523051 0.0073662298 -0.99953729 -0.029509341 0.16938698
-0.28546786 0.21632084 0.01481017 -0.025648838 -0.99214846 -0.122407 0.17614973
-0.27435637 0.2154437 0.011306271 -0.067486443 -0.99583352 -0.061328109 0.15010311
-0.25664383 0.21229357 0.012855829 0.34061486 -0.88201004 0.32563767 0.21882956
-0.24585426 0.21822351 0.019788396 0.20672187 -0.97728091 0.046776913 0.07554359
-0.23282993 0.21755488 0.014465343 0.087159172 -0.99613857 -0.010543955 0.043675531
-0.2249655 0.21661162 0.018355886 -0.013311451 -0.99506009 -0.098378137 0.017304365
-0.21728538 0.21589094 0.018438205 -0.084794983 -0.99021775 -0.11080893 0.0020897784
-0.20423475 0.21503735 0.015046755 -0.087003089 -0.99176419 -0.093991093 0.0010124824
-0.19593479 0.21406709 0.017819576 -0.082884818 -0.98801106 -0.13024668 0.0029603606
-0.18397528 0.21349549 0.013294044 -0.088310055 -0.99116975 -0.098912776 0.0017512373
-0.17563118 0.21277425 0.013197659 -0.098331168 -0.99165857 -0.083331846 0.00062256359
-0.16428791 0.21142992 0.015582604 -0.11131706 -0.98668659 -0.11856693 0.0014722024
-0.40007836 -0.21079111 0.023378558 0.26285887 0.94253272 -0.20624562 0.016243402
-0.39314225 -0.21145682 0.027294779 0.21525517 0.90943331 -0.35580376 0.0070444699
-0.38569319 -0.21443 0.023000505 0.063030563 0.9790175 -0.19378333 0.044966176
-0.37249395 -0.2169918 0.024822572 -0.013395685 0.99907207 -0.040934589 0.076000653
-0.36519292 -0.21856695 0.02207946 -0.061594542 0.99665117 0.053781066 0.081817232
-0.34599248 -0.2167076 0.023695955 0.020974176 0.99960107 0.018915525 0.14022025
-0.33147007 -0.21025455 0.02718446 -0.0061831777 0.99420577 -0.10731584 0.21526247
-0.32663271 -0.21853204 0.029121026 -0.11076545 0.98037487 -0.16308317 0.1955668
-0.31522527 -0.21612962 0.028613036 -0.14264426 0.88052803 -0.45202088 0.18972395
-0.29583788 -0.211643 0.027302429 0.10667855 0.82552969 -0.55418444 0.22650479
-0.28551561 -0.21042222 0.025133446 0.0025712734 0.8909198 -0.45415336 0.25551274
-0.27669889 -0.21125948 0.022772336 -0.1543228 0.97165298 -0.17909503 0.19220267
-0.26583958 -0.21875556 0.022339273 -0.034769427 0.99648136 -0.076262102 0.17824639
-0.25310987 -0.21762146 0.029571792 0.046272926 0.994596 -0.092938691 0.050609428
-0.22264624 -0.21616717 0.024735799 -0.065891117 0.9680084 -0.24211179 0.0064504319
-0.21488428 -0.21554208 0.02412238 -0.095915101 0.96622598 -0.2391811 0.0044662715
-0.20526956 -0.21459036 0.024625987 -0.10059896 0.97275001 -0.20889552 0.0050059892
-0.18347669 -0.21284187 0.021550372 -0.082456909 0.97859108 -0.18857445 0.0048406236
-0.17846508 -0.21188611 0.026555372 -0.10542963 0.96511501 -0.23966148 0.0042833178
-0.16639036 -0.21071482 0.02488994 -0.10043116 0.96562678 -0.23974679 0.004436655
-0.42728439 -0.20230511 0.022774467 0.45159149 0.8858484 -0.10647885 0.04108236
-0.41535005 -0.20679638 0.023488812 0.32777399 0.93086642 -0.1614061 0.020818576
-0.34831193 -0.20488536 0.021115119 0.41281381 -0.60581905 -0.68012357 0.22090654
-0.33456972 -0.20198967 0.026522828 0.2250803 -0.4542942 -0.86194873 0.23405124
-0.31070703 -0.20149505 0.028642913 0.1802014 0.055619739 0.98205596 0.14176169
-0.30690679 -0.20067707 0.028449789 0.14293201 0.014780479 0.98962212 0.13359614
-0.29083693 -0.20475954 0.026283156 0.3121289 0.40226433 -0.86067361 0.24623312
-0.28902909 -0.20652893 0.025923159 0.1153806 0.4109861 -0.90431076 0.23030561
-0.27503496 -0.20813045 0.022189081 -0.24955504 0.93056864 -0.26788855 0.25307161
-0.26979971 -0.20265022 0.020023683 0.5778299 -0.011807298 0.81607181 0.20197795
-0.15581344 -0.208608 0.029856674 -0.079583861 0.95494193 -0.28592345 0.0057782503
-0.14643872 -0.20844339 0.026213063 -0.095415846 0.96913677 -0.22730981 0.0035936648
-0.13445279 -0.20687926 0.028077964 -0.071658932 0.96493316 -0.25252536 0.004028603
-0.12667821 -0.20725763 0.021986008 -0.079614773 0.97940463 -0.18554789 0.0036681094
-0.11335459 -0.20580769 0.025544278 -0.060807295 0.96782678 -0.24415921 0.0030623008
-0.10428122 -0.20514345 0.025342396 -0.052628897 0.97688049 -0.20720725 0.0033613259
-0.085775673 -0.20384853 0.02609607 -0.095075868 0.96399927 -0.24832618 0.0041972101
-0.069285318 -0.20146054 0.025296908 -0.082211986 0.97034127 -0.22733033 0.004975637
-0.055007573 -0.20091689 0.025304258 -0.086406842 0.96858048 -0.23320743 0.0052706501
-0.041199651 -0.20052281 0.026536312 -0.061913814 0.96588808 -0.25144967 0.0053691817
0.2329376 -0.20094518 0.024413448 -0.076651588 0.92283523 -0.37749121 0.16582468
0.24732991 -0.20196433 0.023849247 0.0041348762 0.91751248 -0.39768562 0.13447018
0.2535376 -0.20192289 0.024564903 0.076397814 0.87922305 -0.47024471 0.16420276
0.26392502 -0.20110053 0.020895919 0.0030256743 0.94011188 -0.34085259 0.14806734
0.28640601 -0.20058732 0.020914651 -0.083745524 0.94005108 -0.33059141 0.12731686
0.29094812 -0.20062347 0.022652527 -0.22053207 0.88085622 -0.41887695 0.11504934
-0.45132494 -0.19265932 0.020978794 0.83206737 0.51476729 -0.20658806 0.073746234
-0.4452312 -0.19448356 0.024966963 0.72574794 0.62940282 -0.27774441 0.063980564
-0.4341217 -0.19774175 0.029354338 0.5548929 0.78000748 -0.28927875 0.051177695
-0.34650353 -0.19354884 0.021892063 0.51445276 -0.25891998 -0.81749547 0.16118565
-0.33380944 -0.19504207 0.02655253 0.26807734 -0.37525576 -0.88730925 0.18436339
-0.32351381 -0.19476876 0.027677158 -0.067887396 0.25684565 0.96406519 0.17021199
-0.31602678 -0.19654606 0.028098717 0.016291818 0.14227635 0.98969287 0.12921879
-0.29713279 -0.19566762 0.027338257 0.017660128 0.063997194 -0.99779385 0.13401917
-0.27478519 -0.1982592 0.022029951 0.53822643 0.17918332 0.8235324 0.14555176
-0.017384656 -0.19980118 0.026371341 -0.018043652 0.96788895 -0.25072986 0.0073649832
-0.0067293881 -0.19966424 0.024703149 -0.022241626 0.9755801 -0.21851459 0.0072933929
0.0049579581 -0.19928548 0.025526227 -0.037503626 0.97334301 -0.22626725 0.0083070202
0.012868734 -0.19919105 0.023073904 -0.015566192 0.97931272 -0.20175339 0.0068233954
0.024652964 -0.19779098 0.025718221 -0.017696703 0.95676839 -0.29031202 0.011500635
0.035609536 -0.19806062 0.025762254 -0.043556862 0.93840134 -0.3427912 0.011248793
0.04621733 -0.19622386 0.028136421 -0.062024008 0.90259063 -0.42600849 0.020611802
0.050706904 -0.19810557 0.024165563 -0.062856592 0.96779734 -0.24375671 0.0098870723
0.064878494 -0.19585638 0.026954398 -0.083273888 0.94661397 -0.31142804 0.013283967
0.073387012 -0.19565053 0.026487095 -0.057117846 0.94490606 -0.3223199 0.014097066
0.085035816 -0.1951209 0.026315071 -0.031408969 0.91595185 -0.40005705 0.01837231
0.095925517 -0.19707663 0.020444792 -0.0062215328 0.9723199 -0.23357083 0.0083780512
0.10578972 -0.19426906 0.025825616 -0.045596261 0.92725778 -0.37163696 0.013948879
0.11572382 -0.19534539 0.022836749 -0.041283477 0.96460158 -0.26046029 0.0080714114
0.12247536 -0.19367151 0.025426218 0.074825607 0.93600202 -0.3439495 0.065540843
0.13075115 -0.19124883 0.029455256 0.064023323 0.96596903 -0.25060892 0.13116865
0.14269756 -0.19373018 0.023333872 -0.014792883 0.9851737 -0.17092094 0.069094755
0.15411784 -0.19198602 0.025739133 -0.096132293 0.96534932 -0.24260926 0.14824805
0.17448469 -0.19335286 0.026932016 -0.023394894 0.92503476 -0.37916127 0.066827625
