# .PCD v0.7 - Point Cloud Data file format
VERSION 0.7
FIELDS x y z normal_x normal_y normal_z curvature
SIZE 4 4 4 4 4 4 4
TYPE F F F F F F F
COUNT 1 1 1 1 1 1 1
WIDTH 576
HEIGHT 1
VIEWPOINT 0 0 0 1 0 0 0
POINTS 576
DATA ascii
-0.049166508 -0.041591473 -0.045454171 -0.74445456 0.20980689 0.63385218 0.12535129
-0.020334885 -0.049864125 -0.040496968 0.10157702 0.042419329 0.99392289 0.011531583
-0.019467074 -0.04736571 -0.040674768 0.13010788 0.073183551 0.98879528 0.0085760355
-0.0048983814 -0.04311214 -0.042682514 0.16550545 0.21131259 0.96330422 0.042436887
0.0092644505 -0.041853882 -0.045240104 0.27305564 0.22484893 0.93535209 0.12180959
0.011295821 -0.041011192 -0.045372009 0.25360751 0.2260958 0.94051254 0.12837838
0.022135586 -0.042155996 -0.048070345 0.38330525 0.12024882 0.91576058 0.18213312
0.06457261 -0.045227192 -0.042685453 -0.53563529 0.783023 0.31618002 0.26644489
0.08836434 -0.043356016 -0.04823751 -0.68773675 -0.71355963 -0.13360678 0.25926131
0.090712599 -0.048182517 -0.048767373 -0.61548197 -0.76270431 -0.19865538 0.24050887
0.11728903 -0.044621844 -0.048955012 -0.63856292 0.07946901 0.76545548 0.18373287
0.16916649 -0.042229649 -0.04018065 0.097199656 0.041930281 0.99438125 0.033914421
0.17644069 -0.045409217 -0.040272325 0.033925775 0.077547573 0.9964112 0.18790339
0.18176842 -0.0440697 -0.040534105 -0.51401561 0.0016559312 0.8577792 0.22976916
0.19569053 -0.045409326 -0.0448213 -0.97165382 0.031558212 0.23429233 0.10720317
0.35133561 -0.045325287 -0.044040475 -0.95482171 -0.0019043062 -0.2971732 0.0021796587
0.46831638 -0.044865184 -0.048395291 -0.64179301 0.25419345 0.72352421 0.069019534
0.47178861 -0.048021272 -0.044294257 -0.66243607 0.14499678 0.73495203 0.095624216
-0.48284909 -0.038543824 -0.041379899 0.82376647 -0.28151739 0.49209434 0.18156306
-0.45686871 -0.034222014 -0.0475237 0.96354598 -0.18485738 0.19340849 0.16023257
-0.38607275 -0.034474343 -0.047644842 0.98022634 0.015987083 -0.19723292 0.0038199481
-0.22472981 -0.030962817 -0.046270162 0.89762598 0.0010644186 0.44075674 0.00093019241
-0.16555579 -0.033398211 -0.047326908 0.68881774 -0.59828043 0.40937838 0.065703928
-0.044450667 -0.035808068 -0.043463495 -0.16804652 0.36684063 0.91497999 0.12917869
-0.010784327 -0.035805229 -0.040913936 0.083076917 0.35509002 0.93113339 0.054782309
-0.0069673075 -0.035310093 -0.041522097 0.092576087 0.41358152 0.90574831 0.080762111
0.0039492268 -0.037544668 -0.043338396 0.16267514 0.22050744 0.96172404 0.046071094
0.024253225 -0.032236189 -0.04659047 0.26449925 0.045810241 0.96329719 0.16819598
0.036553912 -0.034083612 -0.048549458 -0.019968167 -0.090720728 0.99567622 0.19899726
0.041591883 -0.032770116 -0.049338233 -0.15834445 -0.11552063 0.98060292 0.18528086
0.057866845 -0.032916155 -0.046770532 -0.41481453 0.38439494 0.82472396 0.2546933
0.060970671 -0.039635114 -0.041029952 -0.56378341 0.61002094 0.55679679 0.1859415
0.084098279 -0.035225876 -0.042809367 -0.76308286 -0.59890968 -0.24292336 0.25941259
0.11813629 -0.034894269 -0.044341415 -0.64715397 -0.068690188 0.75925845 0.12745175
0.15633681 -0.034135908 -0.040150858 0.033597913 0.039602354 0.99865055 5.6532514e-05
0.1655352 -0.032991804 -0.040540826 0.011333779 0.024720473 0.99963015 0.013844363
0.17487928 -0.035575997 -0.04073818 0.082152076 -0.022498202 0.99636579 0.15457705
0.18417473 -0.035933539 -0.041051943 -0.70858687 0.088788114 0.70001519 0.21617115
0.19583058 -0.034768067 -0.044434763 -0.94920939 0.10956725 0.29495189 0.12660271
0.35292801 -0.031240284 -0.0494061 -0.9650293 -0.0076850383 -0.26202944 0.0026472236
-0.38607293 -0.020475887 -0.047645476 0.97545552 -0.0013754729 -0.22019227 0.0033409069
-0.22474642 -0.023259953 -0.046233058 0.89996749 -0.0013503513 0.43595502 0.0010037029
-0.15061162 -0.029159663 -0.045995329 0.24955544 -0.88287514 0.397811 0.013997244
-0.14378829 -0.027237685 -0.043747623 0.18658912 -0.90479004 0.38280475 0.0040121758
-0.13433459 -0.025818657 -0.044128381 0.20142688 -0.86284286 0.46360487 0.012143657
-0.1247822 -0.025419053 -0.047419056 0.18474151 -0.85698104 0.48109663 0.012931864
-0.11532851 -0.022141628 -0.042578205 0.20494579 -0.78804541 0.58050114 0.026342377
-0.097298563 -0.020870835 -0.047337923 0.29211667 -0.61359286 0.73360187 0.03608055
-0.042432457 -0.025411904 -0.049146224 -0.19178186 0.054697935 0.9799121 0.20258586
-0.036003243 -0.023970529 -0.045601029 -0.013513781 0.23303443 0.97237456 0.1739797
-0.025578314 -0.024589695 -0.045258954 0.036157403 0.31850493 0.94723135 0.12862721
-0.012074274 -0.026065826 -0.045070063 0.029047607 0.39159718 0.91967815 0.09904284
-0.0041576158 -0.027024457 -0.044753741 0.022535091 0.33338219 0.94252235 0.11701428
0.0063555539 -0.025146816 -0.04841999 0.040700708 0.12832096 0.99089718 0.17401879
0.012783254 -0.028075462 -0.047064055 0.14001451 0.13653028 0.98069131 0.11365798
0.059655815 -0.029691588 -0.046724312 -0.24637493 0.26485696 0.93228221 0.27292418
0.065421902 -0.026874747 -0.044390224 -0.24592823 0.61969244 0.74531919 0.27490166
0.076084897 -0.024788909 -0.043161407 -0.89448327 0.43352127 -0.10935728 0.23744926
0.11655048 -0.025242593 -0.045215633 -0.60470605 -0.12858547 0.78600019 0.069114119
0.13721694 -0.021663383 -0.040072955 -0.10709748 0.024682621 0.99394208 0.023996141
0.14860885 -0.024441935 -0.040388592 0.03462315 0.032766428 0.99886316 6.67196e-05
0.15529616 -0.025690679 -0.040561706 0.034654334 0.032467052 0.9988718 7.3156516e-05
0.16458084 -0.023649922 -0.040981036 -0.013633197 0.01917476 0.9997232 0.0046231756
0.17475468 -0.023630921 -0.041367523 -0.035099819 -0.06190351 0.99746478 0.1625427
0.18749715 -0.022823183 -0.040831875 -0.83624774 0.090645291 0.54080778 0.19448774
0.19484295 -0.023330897 -0.047160447 -0.96142578 0.036601778 0.27261826 0.1098583
0.35118294 -0.025667533 -0.043525912 -0.95430911 -0.0065471968 -0.29874936 0.0017947871
0.46868253 -0.027672715 -0.049073167 -0.73634964 0.077004507 0.67220491 0.0042399014
0.47393274 -0.024509966 -0.043202434 -0.79246527 0.040594313 0.60856467 0.0052723992
-0.4578476 -0.016599447 -0.046760719 0.99913555 0.033637971 0.024429148 0.10471874
-0.3848145 -0.010804234 -0.043069676 0.96651369 0.012164552 -0.25632653 0.0054666158
-0.22713201 -0.013328902 -0.040906914 0.89102072 -0.00063440099 0.45396227 0.0012802209
-0.096718304 -0.017663788 -0.042641371 0.27321801 -0.63768119 0.72021836 0.039047591
-0.087532088 -0.019420875 -0.047776274 0.16125858 -0.63943058 0.75174737 0.036248121
-0.074017197 -0.010176896 -0.049685929 0.040463194 -0.45543742 0.88934773 0.089746892
-0.060908325 -0.012113045 -0.049983006 -0.12642528 -0.49956706 0.85700029 0.10577026
-0.047009185 -0.011252264 -0.049938638 0.11028022 -0.32041901 0.9408347 0.097819313
0.11621886 -0.015054591 -0.044096552 -0.48582518 -0.1513759 0.86084801 0.053775392
0.14599542 -0.013718392 -0.04038718 0.03303495 0.015760439 0.99932992 9.05446e-05
0.15498501 -0.015796807 -0.040708967 0.035544533 0.016863585 0.99922574 0.0001023324
0.16345647 -0.014764037 -0.041012205 0.011387962 0.01644312 0.99979997 0.00071456039
0.17564714 -0.018820558 -0.041448575 -0.0012330222 0.021921512 0.99975896 0.16071647
0.18743753 -0.016988479 -0.040960982 -0.82110411 -0.0057464549 0.57074958 0.18125603
0.19619919 -0.016590301 -0.04341748 -0.95166034 -0.0082881516 0.30704057 0.092170082
0.35184789 -0.014700569 -0.045766469 -0.96231246 0.0089181298 -0.27179986 0.0023544584
0.47312957 -0.016679304 -0.044638544 -0.77888185 0.040247336 0.62587804 0.0026205808
-0.45914888 -0.00652254 -0.042647261 0.97621578 0.14064455 0.16499029 0.12051287
-0.3860724 -0.0054352838 -0.047852758 0.98177272 -0.0019136399 -0.1900491 0.003511138
-0.22695091 -0.001707837 -0.041311208 0.88413477 0.0014194049 0.46722978 0.0012574998
-0.096543171 -0.0082395477 -0.041457266 0.31243351 -0.22714521 0.92238301 0.052701473
-0.085355818 -0.0081148595 -0.046518873 0.1371434 -0.31486729 0.93917525 0.078143835
-0.073857002 -0.0055868425 -0.048318218 -0.0650886 -0.27877536 0.95814806 0.11596148
-0.065278701 -0.007828407 -0.045196362 -0.075161092 -0.39924428 0.91375864 0.12011988
-0.05637005 -0.0071470132 -0.04589257 0.055739611 -0.38763815 0.92012483 0.16175388
-0.043291476 -0.0060634487 -0.049023774 0.17044832 -0.13816665 0.97563171 0.10777785
-0.038035981 -0.007317835 -0.049493294 0.12595162 -0.1231423 0.98436385 0.065120794
-0.026045198 -0.0013910842 -0.048815642 0.050879229 -0.027057437 0.99833822 0.031977057
-0.0023780945 -0.0039428594 -0.049235586 -0.018772284 0.0081612924 0.99979049 0.01771679
0.0080139637 -0.0014348576 -0.048972469 -0.0089396127 -0.011004608 0.99989951 0.018201048
0.013075322 -0.0072387336 -0.04971078 -0.0038715042 -0.064745724 0.99789429 0.040605586
0.026731282 -0.0052898792 -0.04952785 0.029982632 -0.054259054 0.99807662 0.017512878
0.034545068 -0.0040889899 -0.049410071 0.023632729 -0.05998623 0.99791944 0.031253152
0.047439009 -0.0046395329 -0.049523786 -0.04196408 -0.062386885 0.99716949 0.034916371
0.053131782 -0.002960687 -0.049361251 -0.028033681 -0.059065759 0.99786043 0.03883348
0.067875288 -0.0063782292 -0.049763065 0.044196859 -0.040095802 0.99821788 0.10088561
0.075919986 -0.0046184356 -0.049593713 0.0283859 -0.027626993 0.99921519 0.097164728
0.08266329 -0.00098376221 -0.049248733 0.035834525 0.0092420541 0.9993149 0.047953825
0.115905 -0.0038915619 -0.044140819 -0.3323724 -0.048775431 0.94188619 0.024390597
0.14482532 -0.0058765742 -0.040345296 0.01479356 0.0031291475 0.99988568 0.0015162228
0.15620188 -0.0056404267 -0.040752526 0.035069879 0.0053369347 0.99937063 2.8638269e-05
0.16381876 -0.0061933398 -0.041025173 0.012959992 0.0094367294 0.99987149 0.00074073405
0.17611992 -0.0076934109 -0.041465499 0.033165511 0.04823697 0.99828517 0.16082676
0.1845395 -0.0043550264 -0.041766882 -0.51394665 -0.091050752 0.85297626 0.19850646
0.19631124 -0.0038109331 -0.043108251 -0.89980125 0.021365141 0.43577656 0.10196094
0.4698537 -0.0015076509 -0.049761262 -0.74769795 0.0092385579 0.66397464 0.0019208152
0.47260401 -0.0066072084 -0.046033453 -0.771375 0.013498338 0.63623774 0.0034210796
-0.45894766 0.0048132758 -0.044202309 0.98796159 0.068872079 0.13852277 0.13123073
-0.38536149 0.0044647432 -0.0450585 0.9738223 0.00083005917 -0.22730929 0.0037308326
-0.22472365 0.0061573666 -0.046283916 0.89754856 -0.00043313298 0.44091529 0.0010930748
-0.094333231 0.0059729409 -0.042193294 0.27860725 0.22259952 0.93425232 0.047176626
-0.086842261 0.0064895083 -0.045653127 0.20044465 0.26967007 0.94185978 0.064125009
-0.072562627 0.0026061705 -0.043292552 -0.052739255 0.12165365 0.99117053 0.16563793
-0.065404736 0.0033153493 -0.048877969 0.035440218 0.19965789 0.97922456 0.12000206
-0.056357358 0.0068478812 -0.046164375 -0.031423084 0.36490533 0.93051428 0.16336939
-0.040027596 0.0099708987 -0.049811646 0.071543731 0.056895096 0.99581343 0.08063823
-0.037834425 0.0095177218 -0.049765512 0.072598502 0.01740572 0.99720937 0.075821713
-0.022890527 0.0047104624 -0.049239054 0.032997731 -0.017141553 0.99930841 0.049208697
-0.016284084 0.0035995569 -0.049131416 0.0079663442 0.031870052 0.99946022 0.052640378
-0.0051185898 0.0059467494 -0.049470544 0.051266275 -0.0061330283 0.99866617 0.054184381
0.0048590377 0.0050102901 -0.049399409 0.03853846 0.052034322 0.99790132 0.041795447
0.018286033 0.0056425766 -0.049537089 0.042599346 0.11963788 0.99190325 0.049737766
0.025711905 0.0051155034 -0.049505096 0.0026903024 0.10378002 0.9945966 0.031919152
0.044055726 0.0038332101 -0.049428508 0.0230016 0.11020566 0.99364263 0.035750438
0.056195874 0.0041403039 -0.049520358 -0.072566397 0.11528988 0.99067777 0.035231385
0.065799147 0.0038639477 -0.049462367 -0.029018344 0.020612705 0.99936628 0.079764195
0.07660076 0.0010962968 -0.049235653 0.054694001 -0.035555564 0.99786991 0.056173556
0.084454551 0.00021347034 -0.049161691 0.060166106 -0.002442217 0.9981854 0.051754571
0.092171118 0.0057889819 -0.049718522 0.026640564 0.069939807 0.99719536 0.061698087
0.10322361 0.00073362346 -0.049309291 -0.17319858 0.043623164 0.9839204 0.051244821
0.11551109 0.0054947734 -0.04487431 -0.40355611 0.15593995 0.90156817 0.033253949
0.14616241 0.0076237628 -0.040393159 0.035619013 -0.0036561016 0.99935871 1.2985324e-05
0.15947971 0.0053633824 -0.040869854 0.0331867 -0.0026258563 0.99944574 1.5652418e-05
0.16225769 0.006097395 -0.040969297 0.019820189 0.00061476347 0.99980336 0.00066126348
0.17600049 0.0063798684 -0.041461222 0.10101683 -0.008943039 0.9948445 0.15967315
0.18079327 0.0083492734 -0.041632779 -0.10555188 -0.11690652 0.98751789 0.17245437
0.19544008 0.0016579628 -0.045512505 -0.92871684 -0.0086289579 0.37068951 0.10109431
0.35250187 0.004971555 -0.047970127 -0.96696091 0.0047775181 -0.25487998 0.002278259
0.47224036 0.0060969549 -0.046602771 -0.77097106 -0.023125418 0.63645017 0.0047159619
-0.45810178 0.014375718 -0.04631789 0.98267013 -0.070088588 0.17160153 0.1292243
-0.38641232 0.017938372 -0.048879474 0.98383027 -0.0086134542 -0.17889583 0.0029094159
-0.22511213 0.014120844 -0.045416586 0.89431357 -0.0054592327 0.44740748 0.0015579148
-0.10174345 0.018922096 -0.040685665 0.32817453 0.55370331 0.76531965 0.04122781
-0.093667403 0.013992799 -0.043485455 0.27865982 0.54866183 0.78823787 0.048960865
-0.086408831 0.015943499 -0.046966851 0.24153376 0.4939225 0.83528566 0.049737606
-0.059578717 0.01039165 -0.049776614 0.018810194 0.38493556 0.92275172 0.099770717
-0.02157646 0.010115922 -0.04991157 -0.015079001 -0.067692108 0.99759239 0.10553779
0.11556354 0.018670898 -0.045189399 -0.46925852 0.21255471 0.85709798 0.056682236
0.13658744 0.015491423 -0.040050417 -0.13241403 0.011995836 0.99112189 0.020229798
0.14217813 0.018966019 -0.04025054 -0.036179356 -0.0027629121 0.99934149 0.0065391427
0.15357772 0.015251689 -0.040658589 0.035089433 -0.0096782194 0.99933732 3.1071246e-05
0.16311677 0.013017073 -0.041000042 0.027761394 -0.0084008435 0.99957931 8.2132814e-05
0.17345333 0.015387153 -0.041370042 0.099758975 -0.098782964 0.99009597 0.11442319
0.18542571 0.01204115 -0.041346505 -0.54951698 -0.10498697 0.82885998 0.22267891
0.35105249 0.015780589 -0.043086175 -0.95195997 -0.0066013872 -0.30615133 0.0014301143
0.47277617 0.019531984 -0.045144174 -0.78611326 -0.037013911 0.6169731 0.0032438068
-0.45825657 0.02558874 -0.042777888 0.9964987 0.083480045 -0.004633572 0.16984445
-0.38522071 0.023858929 -0.044546761 0.97838497 0.00047046717 -0.20679106 0.0026861525
-0.22547126 0.024702055 -0.044614788 0.88774204 0.0050506098 0.46031353 0.0014383188
-0.15437406 0.029035844 -0.043909062 0.34228712 0.84202522 0.41693297 0.029771427
-0.14457472 0.0288243 -0.047842231 0.24072133 0.89672482 0.37139973 0.011722822
-0.1373021 0.024877686 -0.040113412 0.20156728 0.87164962 0.44676358 0.017626315
-0.12494967 0.023601627 -0.042235177 0.20515032 0.87266439 0.44313684 0.025949903
-0.11098678 0.022262424 -0.044923585 0.24129659 0.78917837 0.56477737 0.03262702
-0.10004201 0.021571983 -0.048040397 0.19137964 0.73171729 0.65418929 0.032208413
-0.099179968 0.020787278 -0.046233874 0.25619569 0.67259264 0.69424993 0.042860936
-0.042718828 0.027414836 -0.047762092 -0.27509469 -0.26001939 0.92558789 0.18093981
-0.037677564 0.024656745 -0.044433091 -0.11679455 -0.18954004 0.97490191 0.14664096
-0.028718837 0.02250064 -0.048612684 -0.063982517 -0.3814593 0.92216861 0.17866264
-0.014033665 0.027015997 -0.042779367 0.060407169 -0.31937808 0.94570005 0.10831487
-0.0039298367 0.028339123 -0.043442097 0.18000124 -0.32094392 0.9298358 0.11693912
0.0035192827 0.027798366 -0.045440394 0.099979453 -0.2117703 0.97219205 0.1446685
0.030852079 0.029550621 -0.049382936 0.05360369 0.14836183 0.98747933 0.15365008
0.06439849 0.027413584 -0.044676065 -0.28368056 -0.48026487 0.82998246 0.23499469
0.075693205 0.026017629 -0.046333734 -0.58680868 -0.55044442 0.59385735 0.27662107
0.11616622 0.02510714 -0.046840817 -0.58201271 0.13184492 0.80242014 0.073617689
0.13769171 0.02195188 -0.040089946 -0.14187525 0.0064060725 0.98986387 0.028162306
0.14567229 0.025510222 -0.040293507 0.0083561102 -0.0090369452 0.9999243 0.0034790807
0.15372379 0.024622304 -0.0405926 0.03433416 -0.017606264 0.99925524 2.4036746e-05
0.16390762 0.024783021 -0.040967532 -0.010334104 -0.037816212 0.99923116 0.0041396203
0.17355247 0.024172783 -0.04130451 -0.049718764 -0.03871664 0.99801254 0.10998154
0.18745311 0.025144259 -0.040704455 -0.82803243 0.048427213 0.55858493 0.17870493
0.19540691 0.024853906 -0.045604054 -0.92150033 -0.065404229 0.38283083 0.11305181
0.35196838 0.024956107 -0.0461725 -0.96389973 0.0065590558 -0.26618469 0.0028961722
0.47348237 0.024657317 -0.043980543 -0.78032571 -0.047618937 0.62355775 0.0031097929
-0.45725602 0.035209201 -0.045583542 0.98681039 0.12381609 0.10428263 0.15824941
-0.38605455 0.032273382 -0.047578502 0.98382413 -0.012640956 -0.17869008 0.0028002062
-0.22464007 0.033838678 -0.046470523 0.89758587 -0.0036628204 0.44082448 0.00098982616
-0.16507776 0.032210495 -0.045597672 0.6131357 0.67300004 0.4136855 0.057163883
-0.15815288 0.030782999 -0.047072202 0.44069567 0.79348463 0.41972542 0.04921826
-0.043575112 0.034913369 -0.042376164 -0.39636222 -0.295564 0.8692174 0.067680873
-0.012014382 0.03610177 -0.040720835 0.16598681 -0.32031238 0.93265665 0.075309224
-0.0068444926 0.031738073 -0.041466661 0.17775297 -0.32095432 0.93026459 0.08529295
0.016813777 0.035081815 -0.045371335 0.21962297 -0.1750786 0.95974642 0.11138304
0.023613341 0.034732938 -0.046931773 0.15851957 -0.076573268 0.98438203 0.14858304
0.031812713 0.032974407 -0.048064411 0.089808345 0.016656142 0.99581975 0.17972086
0.042813402 0.033289198 -0.049547136 -0.32034019 0.046608739 0.94615525 0.21030013
0.058655854 0.034487359 -0.045148022 -0.345552 -0.63732529 0.68877447 0.21391018
0.083988294 0.034882382 -0.042347416 -0.67204571 0.70702088 -0.22017293 0.23930591
0.11781556 0.034242991 -0.045881536 -0.52289462 -0.079835601 0.84865046 0.16646454
0.15606394 0.036154538 -0.040353879 0.029065521 -0.02804693 0.99918389 5.5369208e-05
0.16559359 0.033374831 -0.040776368 0.031076808 -0.021606799 0.99928343 0.015504104
0.17330813 0.038543526 -0.040883642 0.081915602 0.018555393 0.99646658 0.12562966
0.18536988 0.035475403 -0.040622093 -0.57425696 0.35730141 0.73658985 0.20068464
0.19665031 0.033997163 -0.042172462 -0.91787136 0.079310879 0.38887259 0.10258348
0.35134894 0.036217287 -0.044085141 -0.95804983 -0.00044442105 -0.28660133 0.0015063204
0.47268626 0.03749365 -0.044110585 -0.72343671 -0.13460144 0.67714244 0.032804519
-0.48304388 0.049037393 -0.047694009 0.83685017 0.29691747 0.45991507 0.19961041
-0.45696118 0.045164235 -0.044613086 0.97397244 0.22224556 0.044548124 0.20457879
-0.38493022 0.045661893 -0.04349044 0.97453797 -0.013228561 -0.22383185 0.0041365959
-0.22476119 0.048293024 -0.04620013 0.90553957 -0.0057622804 0.42422259 0.0008836959
-0.17012799 0.044084586 -0.041255459 0.85520077 0.2514506 0.45321551 0.039939623
-0.16810095 0.04595156 -0.046494886 0.84625012 0.28759685 0.4484961 0.051873036
-0.047940396 0.047034908 -0.042602587 -0.41890851 -0.15527341 0.8946541 0.026111117
-0.01688637 0.047200643 -0.041203525 0.15821752 -0.10737023 0.9815492 0.023846153
0.0046044425 0.045940604 -0.045237105 0.47611353 -0.35837314 0.803047 0.16784483
0.014141841 0.045685798 -0.047403526 0.48803166 -0.20451656 0.84852701 0.23463599
0.022639574 0.044019159 -0.048432481 0.12954627 -0.21235439 0.96856767 0.19959047
0.063896291 0.047086027 -0.046078864 -0.68699419 -0.23754151 0.68674088 0.26075038
0.089214973 0.041719507 -0.041487213 0.3296575 -0.73129648 0.59710246 0.25442731
0.09112142 0.045133799 -0.043386519 0.27332866 -0.75747031 0.59289986 0.27007803
0.11804489 0.046936274 -0.045362156 -0.31392843 -0.24509776 0.91726553 0.18265101
0.1565924 0.043839492 -0.040147834 0.027376959 -0.031052221 0.99914277 5.0045313e-05
0.16334988 0.043845084 -0.040389556 -0.00056148786 -0.035499398 0.9993695 0.0013548036
0.17384259 0.043429963 -0.04068841 0.12279092 0.12833855 0.98409939 0.16479746
0.18568635 0.046804793 -0.040488448 -0.82836556 0.062140871 0.55673069 0.20816928
0.19510436 0.043103237 -0.046438992 -0.95479351 0.082649432 0.28554928 0.11314826
0.3513473 0.042598363 -0.044079751 -0.9572649 0.0006610924 -0.28921181 0.0015500616
0.46965569 0.044382062 -0.047064211 -0.6442908 -0.23535256 0.7276665 0.077260613
0.47524261 0.040052384 -0.040922113 -0.764314 -0.14359964 0.62865198 0.03334824
-0.48190919 0.050455958 -0.04704491 0.8206718 0.29189897 0.49121562 0.20969732
-0.47844347 0.054992467 -0.045048818 0.88632935 0.080234788 0.45605102 0.21319701
-0.45632833 0.056228168 -0.045215763 0.99925053 0.013656265 0.036217455 0.19202431
-0.38465771 0.053136975 -0.042499524 0.96749341 -0.010281608 -0.2526871 0.0051420992
-0.2248843 0.056190468 -0.045925282 0.90403569 -0.0094000064 0.42735365 0.00092911831
-0.16828321 0.057059702 -0.046011072 0.92623824 0.069276713 0.37051785 0.0062698852
-0.052124947 0.055550594 -0.046588078 0.94039387 0.14839624 -0.30600309 0.077219866
-0.046381421 0.05406424 -0.040983744 -0.15931943 -0.022902623 0.98696136 0.022983288
-0.020889804 0.051597718 -0.040383276 0.12633617 -0.0027531912 0.99198365 0.0075841658
-0.018268244 0.054536838 -0.040920395 0.17330912 0.018568462 0.98469245 0.002727455
-0.0047375443 0.053781599 -0.04369266 0.19669743 0.020853097 0.98024243 0.00070454425
0.0025498425 0.059943847 -0.045185752 0.27051497 0.057438452 0.9610008 0.14284816
0.015425895 0.055446669 -0.047823887 -0.1267712 -0.45649245 0.88064963 0.27559364
0.021325704 0.055692937 -0.049032677 0.25569907 0.20373058 0.94504589 0.24250355
0.06461893 0.058390606 -0.043908499 -0.30681774 0.065786585 0.94949192 0.25111893
0.092115857 0.052556317 -0.044205599 0.25343752 -0.93760073 -0.23806366 0.26578772
0.11808582 0.058179043 -0.045696784 -0.43570486 -0.034320828 0.8994351 0.28470463
0.17748334 0.05408974 -0.040130135 -0.0006069793 0.0082111442 0.99996614 0.19638485
0.18571675 0.054415606 -0.040145196 -0.735641 -0.026582299 0.67684978 0.21663521
0.19614416 0.057631649 -0.043569356 -0.9435249 0.090097517 0.31881556 0.094979912
0.35143626 0.059517268 -0.044379368 -0.96227294 0.0012268672 -0.27208319 0.0020820787
0.4461154 0.055960812 -0.044020373 -0.62327254 -0.34402323 0.70226729 0.13861224
0.45287269 0.055862796 -0.045104027 -0.62283558 -0.2714583 0.73374814 0.13829237
0.46557522 0.055867162 -0.044692468 -0.58200908 -0.21223135 0.78499889 0.11737713
0.47274065 0.056576177 -0.0415022 -0.65220946 -0.053391851 0.75615615 0.10000602
-0.48238415 0.063365377 -0.047449667 0.82801062 -0.23226622 0.51034397 0.20448247
-0.47379026 0.063367113 -0.046536356 0.76101911 -0.39240736 0.51659113 0.18174349
-0.45616221 0.063713521 -0.044212844 0.98019159 -0.18169509 -0.078812316 0.17776999
-0.38551503 0.063897714 -0.045765031 0.9718495 0.0012857434 -0.23559901 0.0037063344
-0.22612184 0.067311242 -0.043162283 0.88399023 -0.00050322956 0.46750513 0.0014763303
-0.16828422 0.064812422 -0.045999747 0.93250668 -8.0859812e-05 0.36115268 0
-0.051087614 0.062995948 -0.04557588 0.78204465 0.070777014 -0.61919045 0.12909447
-0.048844349 0.062403351 -0.043386981 -0.24389833 0.011216405 0.96973592 0.021149108
-0.02271902 0.063331507 -0.040008493 0.082785428 0.020997992 0.99634618 0.01187397
-0.018728871 0.065429725 -0.040826023 0.16604583 0.0071816114 0.98609191 0.0026797352
0.0046483735 0.063091129 -0.045615718 0.37171382 0.080229715 0.92487413 0.1861714
0.023581533 0.060141552 -0.04949487 0.37888098 0.29785424 0.87620318 0.20112552
0.064147383 0.065273017 -0.045324732 -0.50306916 -0.16172665 0.84897929 0.24767245
0.090764478 0.064937063 -0.048598699 -0.061534904 -0.99353862 -0.095363989 0.23144177
0.11798839 0.064712338 -0.046485025 -0.30119482 -0.17415436 0.93752438 0.2526218
0.19574508 0.063336186 -0.044670742 -0.96750897 -0.015658118 0.25235114 0.089335054
0.35193625 0.06718418 -0.046064239 -0.96208376 0.0053159869 -0.27270225 0.0019984522
0.4450531 0.064550802 -0.047717232 -0.690265 -0.1827153 0.70010668 0.1399571
0.45337874 0.063230358 -0.046011724 -0.66670859 -0.108836 0.73732924 0.15358618
0.46334061 0.064196929 -0.043888062 -0.4806433 -0.091799915 0.87209791 0.11648953
0.47205368 0.067093417 -0.048021402 -0.52250123 -0.036865804 0.85184109 0.10974901
-0.45490542 0.078867897 -0.046994872 0.99601817 -0.04744184 0.075479291 0.13631196
-0.38472143 0.077071019 -0.042731311 0.96640408 0.012429531 -0.25672683 0.004359521
-0.22390775 0.078187227 -0.048105508 0.90263081 0.0069781002 0.43035918 0.0014175243
-0.17038977 0.070021749 -0.040549263 0.93222958 0.00028871611 0.36186722 2.3066312e-07
-0.16964731 0.073378354 -0.04246534 0.93231869 0.00013698069 0.36163783 5.2769451e-06
-0.05322767 0.074816152 -0.047664072 0.91412234 0.041439537 -0.40331501 0.077179886
-0.049257487 0.075190529 -0.043790113 -0.22768605 0.016280798 0.97359848 0.019771257
-0.01529237 0.073966339 -0.041530117 0.19005913 0.0044941269 0.98176235 0.00024625272
-0.0038659554 0.077774063 -0.043871243 0.2317149 -0.015322298 0.97266304 0.074610651
0.0084877051 0.078717202 -0.04640235 0.4283846 0.10244215 0.8977707 0.21039402
0.014400111 0.072679289 -0.047613721 0.41576082 0.16155188 0.89501053 0.21563329
0.064713389 0.074348941 -0.043624807 -0.47321701 -0.14563023 0.86882538 0.20823783
0.090652362 0.076350749 -0.048963178 -0.22618762 -0.85047656 -0.4748987 0.2487594
0.11856805 0.075328037 -0.044150591 -0.24514292 0.074054196 0.96665448 0.22706328
0.19509649 0.07455387 -0.046460733 -0.97002685 -0.040374532 0.23962006 0.11157276
0.35189331 0.075884596 -0.045919545 -0.96228004 0.010047679 -0.27187517 0.0021639848
0.4587791 0.0714183 -0.048573337 -0.52647918 -0.041814215 0.84915918 0.13464917
0.46587819 0.074223168 -0.04843808 -0.49042025 0.0026382769 0.87148207 0.13712206
0.47187245 0.076380342 -0.04857333 -0.5764538 0.0073400149 0.81709677 0.12068927
-0.4813081 0.082800329 -0.040757753 0.8247456 -0.16603938 0.54057896 0.1783033
-0.45526415 0.086441994 -0.043139488 0.99306947 0.0087258499 0.11720487 0.1590436
-0.22465709 0.085317612 -0.04643254 0.89823729 0.0055725686 0.43947548 0.001101079
-0.17057621 0.088706508 -0.040085152 0.9318769 0.0012291385 0.36277252 0
-0.050552435 0.089748591 -0.045053679 0.72859645 0.032905601 -0.68415225 0.1236036
-0.048913039 0.087471247 -0.043454017 -0.28478101 0.03167307 0.95806921 0.02095267
-0.021725154 0.085623838 -0.040212128 0.07245373 0.01484671 0.99726123 0.011099641
-0.016544443 0.088645287 -0.04127359 0.17971553 0.0013506191 0.98371774 0.00056091463
-0.0053962991 0.084192038 -0.043557696 0.20071758 -7.2316897e-07 0.97964913 0
0.0054137791 0.086251825 -0.045772534 0.53036177 -0.25125363 0.80968386 0.15522894
0.0127474 0.081767976 -0.0472751 0.37926453 0.14792931 0.9133867 0.20935652
0.06482251 0.089727394 -0.043297082 -0.68249035 -0.12638274 0.71988487 0.23182838
0.092548952 0.084146075 -0.042797692 -0.26085401 -0.32865682 -0.90771133 0.23856549
0.11866839 0.082993306 -0.04402383 -0.35412127 -0.11751217 0.92778713 0.23743331
0.19548383 0.085791171 -0.045391757 -0.96503377 -0.13572718 0.2242498 0.13887984
0.3504996 0.085105352 -0.041223228 -0.95493746 0.0039404989 -0.29678082 0.0017399817
0.44640264 0.083836108 -0.048573341 -0.67269039 0.18124706 0.71738219 0.12297114
0.45426843 0.086277023 -0.048381023 -0.6037429 0.14547865 0.78379244 0.12652242
0.46562117 0.086922109 -0.047905184 -0.62051636 0.048471935 0.78269392 0.11364706
0.47199911 0.085030198 -0.04857333 -0.61924165 -0.038948007 0.78423393 0.086772643
-0.48152035 0.096110605 -0.040338546 0.72772437 0.11397205 0.6763339 0.1876801
-0.47975767 0.099371091 -0.041089527 0.72303706 0.094901979 0.68425941 0.17461927
-0.45539594 0.094422951 -0.040383831 0.99878526 0.047189839 -0.014186672 0.18257661
-0.38526019 0.095106862 -0.044690255 0.96971518 -0.094917476 -0.22504021 0.024373556
-0.22491328 0.094682939 -0.045860581 0.885993 0.094064824 0.45405746 0.027560554
-0.16917609 0.094336666 -0.04369472 0.9318589 0.00096850551 0.36281958 0
-0.053611554 0.095612824 -0.048038654 0.88550121 -0.012678489 -0.46446401 0.060916651
-0.047449198 0.096360072 -0.042025652 -0.24255989 0.030551629 0.96965522 0.024876259
-0.015021903 0.096897662 -0.041585535 0.18804368 -0.0039294888 0.98215282 0.0004747865
-0.0064781839 0.096404091 -0.043336034 0.20058413 -0.0046016308 0.97966564 2.5692674e-05
0.0038344052 0.094866835 -0.045448948 0.29612255 -0.11999347 0.94758266 0.10340882
0.015860179 0.094619893 -0.04791287 0.31733993 -0.039094903 0.94750559 0.22133194
0.024431761 0.093614511 -0.049669072 0.41119227 -0.1670114 0.8961184 0.18711355
0.064435266 0.093125701 -0.044460118 -0.50839448 -0.38437134 0.77058017 0.26542413
0.092183203 0.096244693 -0.043986659 -0.025301224 -0.99657673 0.078706622 0.21892074
0.11814083 0.093782485 -0.045868911 -0.65146768 -0.35480312 0.67060012 0.25675195
0.19544892 0.09594667 -0.045488086 -0.92082375 0.35424095 0.16308528 0.14110853
0.35201567 0.092034593 -0.046331886 -0.96361476 -0.054693166 -0.26163954 0.0091685504
0.44244051 0.091549709 -0.047782928 -0.70593482 0.19992173 0.67947572 0.098733038
0.45472351 0.091877408 -0.043720663 -0.60996187 0.16793312 0.77443206 0.12196124
0.46579587 0.093408793 -0.04561235 -0.6260798 0.12627031 0.76946729 0.10150119
0.4741936 0.090133741 -0.043431859 -0.69309717 -0.018462317 0.72060776 0.077667788
-0.46993965 0.10783549 -0.048940629 0.74114901 0.044976611 0.66983223 0.12343171
-0.45355371 0.10154088 -0.048331387 0.8404032 -0.018119855 0.5416587 0.13044491
-0.38474515 0.10671082 -0.042817615 0.96117723 -0.20807748 -0.1812236 0.10572789
-0.22569099 0.10492887 -0.044124201 0.89822596 0.1789977 0.40143475 0.087534159
-0.053754173 0.10478754 -0.048177823 0.89578199 -0.17954525 -0.40661791 0.068993695
-0.049449526 0.10187378 -0.043977499 -0.31633434 0.058070663 0.94686878 0.021308705
-0.020063052 0.10353317 -0.040552668 0.11765295 -0.01235661 0.99297792 0.0067816898
-0.016543204 0.10759181 -0.04127384 0.16566379 0.023459844 0.9859032 0.00418205
-0.0057524336 0.10789368 -0.043484729 0.19454472 0.056050789 0.97929084 0.0057042381
0.004934323 0.10455034 -0.045674302 0.38523051 -0.0053115645 0.92280507 0.14200689
0.013509364 0.10896148 -0.047431216 0.26310626 0.062106412 0.96276581 0.22310705
0.024038702 0.10514387 -0.049588535 0.52701294 -0.31690016 0.78856307 0.23541239
0.063776225 0.10868588 -0.04643945 -0.73528743 0.18369333 0.65238726 0.24271795
0.091748193 0.10673994 -0.045400839 -0.086283483 -0.98173094 -0.16958654 0.21788171
0.11718143 0.10511687 -0.047696874 -0.73018527 -0.018107055 0.68300921 0.22777879
0.19553296 0.10456467 -0.045256183 -0.86064357 0.50666833 0.050793245 0.18128181
0.35144466 0.10577679 -0.044407666 -0.93896586 -0.21548744 -0.26815715 0.090773843
0.46746227 0.10539649 -0.044969071 -0.69550288 0.27671608 0.66310185 0.07842458
-0.4802857 0.11669512 -0.040396914 0.75666273 -0.044038128 0.65232062 0.15145017
-0.47212851 0.11428671 -0.043817069 0.79085219 0.11352994 0.601385 0.15789485
-0.46609747 0.11397559 -0.044616591 0.80910015 0.20983958 0.54893017 0.16109841
-0.45508218 0.11399396 -0.045337241 0.90112454 0.076447509 0.42676735 0.14873259
-0.3851136 0.11560778 -0.046161 0.96582514 -0.15941879 -0.20437081 0.15740408
-0.37259099 0.11672099 -0.047432061 0.46494201 -0.85379297 -0.23423599 0.2304424
-0.36362687 0.116721 -0.046138991 0.091694959 -0.99221855 -0.084228553 0.16391161
-0.35843405 0.11672099 -0.047348619 0.18158805 -0.98332435 -0.009954989 0.16095412
-0.34486833 0.11672099 -0.043722272 -0.0028268513 -0.99736273 0.072522864 0.1679223
-0.33541307 0.11672099 -0.046336517 -0.031281669 -0.99758691 0.061983358 0.056861423
-0.32409108 0.11672099 -0.043122452 -4.6820376e-05 -1 -1.3994388e-06 8.1710705e-06
-0.31371337 0.11672099 -0.045833126 0 -1 0 2.3978803e-06
-0.30617809 0.11672099 -0.047029931 -3.4773784e-05 -1 2.066927e-06 4.6105056e-06
-0.28529406 0.116721 -0.045058616 -1.225847e-05 -1 -1.9514055e-06 1.9878757e-06
-0.27705485 0.116721 -0.040684808 0.045394588 -0.99878806 0.019017821 0.12861833
-0.25680903 0.116721 -0.042533129 -0.10618035 -0.99400842 -0.025942555 0.14795223
-0.24343707 0.116721 -0.045333918 -0.15707567 -0.98230463 -0.10200474 0.19755763
-0.23580459 0.11672099 -0.044997133 0.88321012 0.0035411743 0.4689641 0.24159285
-0.22420815 0.11510974 -0.047434889 0.92513859 0.03342944 0.37815478 0.089437559
-0.16952956 0.11402795 -0.042889558 0.9315809 0.0015544471 0.3635307 2.1192161e-06
-0.053709026 0.11425595 -0.048567254 0.87291622 -0.1759418 -0.45504045 0.069425113
-0.021103367 0.11297441 -0.040339526 0.11667227 0.090447657 0.98904335 0.014500377
-0.016583497 0.1143808 -0.041213732 0.17565329 0.080632053 0.98114437 0.027413255
-0.0057693091 0.11580976 -0.043374058 0.18667176 0.046507791 0.98132086 0.039667252
0.0041598994 0.114764 -0.045451395 0.2675963 -0.041387014 0.96264189 0.14677998
0.015975848 0.11873099 -0.047792777 0.12893096 -0.1617049 0.9783805 0.22561902
0.020449709 0.11143786 -0.0488532 0.36731073 -0.071770266 0.92732519 0.20773236
0.06299001 0.11520845 -0.044977687 -0.6837759 0.14788172 0.7145499 0.19429971
0.11754906 0.11516529 -0.045048412 -0.49039394 0.065718912 0.86901945 0.18194418
0.19705775 0.11601892 -0.043857478 -0.52544159 0.77560687 0.34977877 0.20920737
0.20395993 0.116721 -0.044882935 -0.80218351 0.51116139 0.30857027 0.19410805
0.21135342 0.116721 -0.046332851 -0.035655003 -0.98695183 -0.15701866 0.17963436
0.22371915 0.116721 -0.046719037 0.016863437 -0.99932748 -0.032562479 0.016004713
0.23485652 0.116721 -0.043413833 0 -1 0 1.0584787e-05
0.2424452 0.116721 -0.043731421 1.7069624e-05 -1 -3.1799593e-06 8.5228976e-06
0.25364208 0.116721 -0.047040287 4.7743903e-05 -1 -5.0178119e-06 1.0722304e-05
0.26533499 0.11672099 -0.045608789 8.8331044e-06 -1 -1.1940109e-06 6.4988217e-06
0.28721371 0.11672099 -0.043092459 3.0887903e-05 -1 -7.930102e-07 6.5620766e-06
0.29536062 0.116721 -0.045031104 6.8921048e-07 -1 -6.1543701e-06 1.1116613e-05
0.30278099 0.116721 -0.046786815 2.3721839e-05 -1 -5.4096031e-06 1.4245246e-05
0.3144047 0.11672099 -0.042828158 -1.574196e-05 -1 -4.6764681e-06 6.1976948e-06
0.32457718 0.116721 -0.044309039 -0.04423999 -0.99896139 -0.010910908 0.022809291
0.33394784 0.116721 -0.043957017 -0.0091302237 -0.99550122 0.094307922 0.10086183
0.3416791 0.116721 -0.04473272 -0.92293447 0.11325818 -0.36791912 0.2037202
0.35163301 0.11527927 -0.045533966 -0.95820552 -0.020575933 -0.28533992 0.11732067
0.46808869 0.11043243 -0.045900345 -0.72400206 0.2275565 0.65118277 0.05375072
0.47153312 0.11373626 -0.043768093 -0.74526268 0.19203284 0.63851941 0.055150066
-0.47464946 0.12489034 -0.041242115 0.72684377 -0.081648014 0.68193239 0.113529
-0.38453528 0.12589873 -0.042054541 0.99200749 0.027645616 -0.12311276 0.12398695
-0.22637203 0.12313439 -0.042603694 0.8749519 -0.11284087 0.47087803 0.11099568
-0.1684327 0.1229701 -0.045740072 0.92644185 -0.097810745 0.36350864 0.022975633
-0.044960514 0.12837395 -0.047805205 0.96837395 0.12859508 -0.21381125 0.26633665
-0.039227769 0.12989904 -0.040240157 -0.36019894 -0.64781952 -0.6712575 0.22412866
-0.013177329 0.12389307 -0.041621625 0.17012227 0.055390686 0.98386496 0.13189173
-0.0056229956 0.12387604 -0.042913351 0.24725874 0.084818296 0.96522999 0.15650927
0.0049908585 0.1256946 -0.044468731 0.081883922 0.041987021 0.99575704 0.17311718
0.014937838 0.12534051 -0.046844255 0.40843391 -0.31203353 0.85779762 0.26764429
0.025007229 0.12535661 -0.047967643 0.19591697 -0.47694391 0.85682029 0.26707342
0.034204882 0.12690881 -0.049079027 0.096463308 -0.77129555 0.62912482 0.26775736
0.057191901 0.12627552 -0.047622431 0.50525838 -0.7689817 -0.39163902 0.25657555
0.081918053 0.12696554 -0.043434057 0.22298574 -0.79779428 -0.56017995 0.27926654
0.11626159 0.12614407 -0.046928778 -0.74009174 -0.46399799 0.48679566 0.13526714
0.19541948 0.12542474 -0.045569342 -0.9770835 0.11977202 0.17596146 0.19462352
0.4776271 0.12566303 -0.045966737 -0.77685165 -0.05318154 0.6274339 0.074454561
0.48546797 0.12569717 -0.046481378 -0.84503895 -0.025658784 0.53408867 0.097019203
-0.4801054 0.13945694 -0.040009458 0.7179985 -0.086120665 0.6906963 0.08844316
-0.47898814 0.13320732 -0.04069753 0.70984817 -0.085032359 0.69920325 0.094971232
-0.46518841 0.13293272 -0.044917017 0.71010303 -0.039534491 0.70298696 0.061346166
-0.38484207 0.13337362 -0.04316999 0.98175102 -0.038133588 -0.18630822 0.11365478
-0.22455606 0.13530712 -0.046658084 0.87676728 0.089857191 0.47244555 0.15910897
-0.16840968 0.1342451 -0.045855597 0.79116189 -0.52686578 0.31060484 0.098767184
-0.041058734 0.1314318 -0.044503536 -0.26308134 -0.49159503 -0.83013403 0.22429052
-0.035130594 0.1362855 -0.046838004 -0.16213965 -0.95401186 -0.25213519 0.20077871
-0.024528418 0.13426681 -0.045671009 -0.18904302 -0.67572504 -0.71250147 0.19134018
-0.014577731 0.13271762 -0.045217652 -0.18262199 -0.46930447 -0.8639459 0.21198845
-0.0014100256 0.13256755 -0.048148029 -0.14379337 -0.97464716 -0.17142442 0.24198756
0.005034816 0.1315047 -0.047743883 -0.085193723 -0.97733116 -0.19381927 0.21815209
0.065550365 0.13379329 -0.047293428 0.081549063 -0.99138153 -0.10253056 0.16556266
0.076493882 0.13463473 -0.044294327 0.21670842 -0.95537353 -0.20074581 0.14741634
0.089950949 0.13958646 -0.042416535 0.016276944 -0.9989664 0.04244129 0.09628702
0.095411055 0.13979745 -0.045804393 -0.044097345 -0.99701762 0.063335128 0.10269022
0.1007424 0.13958429 -0.043404303 -0.14889273 -0.97532988 0.16297981 0.13370147
0.11540697 0.13648136 -0.046386987 -0.61757201 -0.71114689 0.3359687 0.095518544
0.19472581 0.13464305 -0.047483772 -0.9618203 -0.0020121643 0.27367443 0.10248177
0.46104389 0.13760474 -0.04994845 -0.56514913 -0.32144308 0.75979 0.031170893
0.48724064 0.13028269 -0.041530754 -0.82320946 -0.13982517 0.55025005 0.084352516
-0.46293139 0.14390624 -0.04399427 0.68013084 -0.17751555 0.71127373 0.064389393
-0.38500124 0.14799449 -0.043748647 0.96837068 -0.027657809 -0.24797836 0.11145929
-0.3627997 0.14372632 -0.048227016 0.53361738 0.53504199 -0.65496761 0.26173043
-0.35271996 0.14443628 -0.045202695 0.81356567 0.36115992 -0.45571309 0.10987031
-0.34861988 0.14455554 -0.042676754 0.68553251 0.40996173 -0.60164499 0.088964574
-0.27159837 0.1448348 -0.042678762 0.70828176 -0.48688853 0.51115221 0.081904523
-0.26466697 0.14450204 -0.0448801 0.70421278 -0.43654388 0.55992311 0.088089213
-0.25310186 0.14388278 -0.045912009 0.6999411 0.43553406 0.56603223 0.26982316
-0.22633563 0.14306292 -0.042700373 0.80184889 0.18489733 0.56819999 0.13298683
-0.16622467 0.14388667 -0.045077197 0.57264948 -0.78962213 0.22038484 0.089450255
-0.15636387 0.14387418 -0.046128377 0.25829825 -0.9611873 0.096958913 0.067528769
-0.14238361 0.14330137 -0.04576778 0.090440966 -0.99443537 0.054025356 0.024911247
-0.12490173 0.14302406 -0.044107407 -0.01338564 -0.99986088 -0.0099490974 7.1690738e-05
-0.11803138 0.14299189 -0.047128975 -0.020024963 -0.9995079 0.024145951 0.005536763
-0.10549808 0.1428522 -0.044719733 -0.0086148689 -0.9998849 -0.012489254 1.9164268e-05
-0.093674995 0.14276755 -0.04447465 -0.0086371917 -0.99993664 -0.0072147935 7.9068464e-05
-0.085297912 0.14272417 -0.045370243 -0.0092867455 -0.99990088 -0.010581162 1.0019534e-06
-0.074926615 0.14263749 -0.044784293 -0.011714149 -0.99991298 -0.0060609295 2.7422653e-05
-0.0630266 0.14246602 -0.042203307 -0.14777826 -0.98901784 0.0023009048 0.024567718
-0.052102327 0.14226098 -0.045667186 -0.12602696 -0.99167424 -0.026446115 0.08444339
-0.042203665 0.14207396 -0.046738517 -0.15106151 -0.98527217 -0.080119945 0.092405818
-0.033289511 0.14190561 -0.047819763 -0.032237086 -0.97613311 -0.21476695 0.11631395
-0.022210818 0.14169562 -0.047937993 -0.034652423 -0.95671237 -0.28896466 0.1423272
-0.015268094 0.14156321 -0.046652414 -0.0089838458 -0.95417988 -0.29909888 0.15067458
-0.0036193172 0.14134161 -0.045460988 -0.052282646 -0.99720085 -0.053450771 0.129666
0.017559405 0.14094061 -0.046317205 0.034335505 -0.99784249 -0.05595975 0.14610884
0.024546171 0.14080751 -0.045302879 0.0033765039 -0.99689329 0.078691483 0.14416327
0.030828103 0.14068754 -0.043880887 0.049969032 -0.98813599 0.14522569 0.12429383
0.044001509 0.1404372 -0.042945202 0.040268093 -0.95884806 0.2810497 0.11870164
0.055189073 0.14022708 -0.046226487 -0.019840946 -0.99959862 0.020221466 0.13120236
0.074991286 0.14012432 -0.048331067 0.1481407 -0.9882198 -0.038417786 0.10109099
0.089596853 0.14002892 -0.04840868 -0.029742718 -0.99954587 0.0048371973 0.089459874
0.19598618 0.14117306 -0.044005338 -0.94074988 0.061014771 0.33356696 0.080703348
0.21452284 0.14894207 -0.046424389 0.54955757 -0.82953429 -0.099294141 0.25234035
0.22658369 0.14929305 -0.045097291 -0.17877744 -0.97401637 0.13903514 0.13274744
0.23689669 0.14978687 -0.042036589 -0.34683961 -0.87175846 0.34603405 0.042199373
0.30352885 0.14954692 -0.043108627 0.41244835 -0.82508224 0.38616776 0.051971782
0.31775135 0.14881861 -0.047350973 -0.66678214 0.65373528 -0.35781538 0.058866959
0.32277885 0.14845896 -0.042602375 -0.046785749 -0.99828887 -0.035078708 0.16614722
0.35137349 0.14440826 -0.044167984 -0.94863605 -0.13230234 -0.28737751 0.12278342
0.46281183 0.14517163 -0.043153983 -0.59774917 -0.41281599 0.68722552 0.01682674
-0.47812229 0.15718028 -0.040229287 0.73150337 -0.28496623 0.61943275 0.12500058
-0.46199489 0.15341692 -0.043062914 0.59818614 -0.26114744 0.75761169 0.070365138
-0.45971566 0.15686965 -0.044317864 0.55302656 -0.3337923 0.76337689 0.055569701
-0.385351 0.15436202 -0.045020483 0.90697312 0.19675587 -0.37240684 0.13171013
-0.36782756 0.15716897 -0.042687092 0.88115567 0.39449057 -0.26065657 0.2453987
-0.24694498 0.15715741 -0.045446552 0.69291639 -0.34649536 0.63230366 0.25496262
-0.2242202 0.15155339 -0.047407955 0.83769107 0.073074535 0.5412336 0.18121704
0.19452608 0.15551208 -0.048035026 -0.95010185 0.044440813 0.30875796 0.1192949
0.20876864 0.15222129 -0.044514351 -0.89071912 0.1037822 0.4425481 0.23876724
0.32748362 0.15396005 -0.045306928 0.12930459 -0.98219061 0.1363157 0.16045886
0.35121289 0.15442647 -0.043626875 -0.95822668 -0.16744719 -0.23186891 0.19038154
0.45423371 0.15674743 -0.047144227 -0.54702729 -0.40251884 0.73398888 0.006378694
-0.47505325 0.16554004 -0.041131891 0.64947546 -0.43210489 0.62567323 0.11100341
-0.46119222 0.16205768 -0.041938126 0.55309272 -0.48149171 0.67989278 0.077380016
-0.45416871 0.16400197 -0.046888463 0.4420667 -0.56364298 0.69777048 0.036034256
-0.38483709 0.16464622 -0.043151788 0.86111504 0.36695403 -0.35188866 0.17792045
-0.3672106 0.1653783 -0.041618831 0.88339615 0.12367927 -0.45201173 0.21750337
-0.22395481 0.16548058 -0.048000492 0.45500308 -0.38903636 0.80101359 0.19155365
0.19689292 0.16274759 -0.041502889 -0.92481613 -0.065902762 0.37466249 0.096864194
0.20750678 0.16635375 -0.04596312 -0.87004632 -0.23621435 0.43269175 0.14763422
0.32782158 0.16731723 -0.044951923 -0.91576177 0.40143165 0.01526538 0.28044665
0.35088623 0.16957 -0.042526104 -0.69419187 0.64302826 -0.32343835 0.2191139
0.45192251 0.16702354 -0.045028418 -0.48432776 -0.43437353 0.7594381 0.010038835
-0.45364949 0.17027327 -0.043567181 0.39888313 -0.61233312 0.68259829 0.036095042
-0.4453207 0.17187111 -0.045515765 0.42371982 -0.6543346 0.6263448 0.026068997
-0.43457052 0.17730355 -0.042764228 0.1887061 -0.83897787 0.51039803 0.013903704
-0.42649108 0.17713426 -0.046016071 0.18613443 -0.83161956 0.52322358 0.011956568
-0.40451187 0.1796492 -0.045666523 -0.081654802 -0.9239862 0.37360677 0.034314871
-0.38582027 0.17635171 -0.046316687 -0.071579494 -0.95968091 0.2718251 0.26170075
-0.36802244 0.17407596 -0.043024477 0.63910002 -0.66218466 -0.39123225 0.17436682
-0.32532817 0.17399511 -0.046252478 -0.21832429 -0.88440704 0.41250294 0.024294406
-0.31421459 0.17469202 -0.04297949 -0.081985213 -0.89781761 0.43266851 0.0309327
-0.30472183 0.17270689 -0.045751683 0.0039711981 -0.94732708 0.32024312 0.054061692
-0.29225737 0.17454697 -0.043765567 0.1708131 -0.909711 0.3784821 0.025598796
-0.28635225 0.17583369 -0.047293596 0.26690847 -0.90678769 0.3263371 0.026572142
-0.24748845 0.17463654 -0.04388079 0.59371907 0.73806709 0.32055354 0.20856436
-0.22553816 0.17383252 -0.04446543 0.3410615 -0.77543384 0.53139395 0.13924332
0.19531944 0.17596081 -0.045845397 -0.87646788 -0.28340229 0.38921356 0.20728454
0.20767847 0.17531019 -0.045352023 -0.89804351 0.12098158 0.42294359 0.15755296
0.21007656 0.17689125 -0.041199826 -0.8626895 0.25440848 0.43708473 0.17369731
0.25085074 0.17721349 -0.047564864 -0.22285984 -0.87984622 0.41976678 0.025910206
0.26338446 0.17737004 -0.045686349 -0.017082127 -0.90506214 0.42493615 0.03776592
0.27432677 0.1768077 -0.044824485 0.11038768 -0.89876711 0.42430213 0.041181147
0.28558722 0.17970285 -0.046834834 0.2457139 -0.91033709 0.33303294 0.04139296
0.32756385 0.1751046 -0.044676386 -0.53034145 -0.49469501 -0.68848723 0.27560604
0.35051641 0.17518589 -0.041279912 -0.53763556 0.81371367 -0.22094834 0.18180078
0.42368227 0.17777005 -0.047977053 -0.19077651 -0.76787782 0.61152917 0.015656393
0.43588087 0.17700872 -0.043885969 -0.28076378 -0.74724084 0.6023311 0.016875612
0.44255784 0.17367965 -0.04411222 -0.34453842 -0.68869847 0.6379559 0.011405985
-0.40252459 0.1805886 -0.042856324 -0.14615142 -0.92915106 0.33958524 0.052658301
-0.39590856 0.18112834 -0.042129587 -0.24734232 -0.92469072 0.28942823 0.1244106
-0.38709557 0.18136327 -0.043636695 -0.089538261 -0.95446455 0.2845704 0.21736673
-0.36599612 0.18635336 -0.043192662 0.37542254 -0.90464884 -0.20166391 0.10623094
-0.33387816 0.18579496 -0.044592813 -0.22578827 -0.94251704 0.24633573 0.054244779
-0.3287046 0.18676049 -0.041035164 -0.19416167 -0.92848492 0.31657058 0.042320892
-0.28251141 0.18438859 -0.04637897 0.27345487 -0.9001655 0.33900526 0.023381254
-0.27486193 0.18890835 -0.043998402 0.14024894 -0.97608769 0.16608147 0.079475261
-0.25796673 0.1899409 -0.042038001 -0.10178615 -0.96935064 -0.22360446 0.14615743
-0.24542804 0.18404077 -0.049098909 -0.4292866 -0.90095657 0.063169755 0.16002436
-0.22559732 0.18423477 -0.044333354 -0.0085521126 -0.96260136 0.27078676 0.091160804
-0.21481618 0.18409102 -0.044921223 0.25163686 -0.8798942 0.40306956 0.043518759
-0.20373744 0.18401724 -0.044443883 0.13626616 -0.92234039 0.36155194 0.026245257
-0.19316845 0.18362336 -0.04526329 -0.017164085 -0.95168632 0.30659184 0.0017246754
-0.18819538 0.18353689 -0.045352221 -0.023931339 -0.94284338 0.33237594 0.0021549484
-0.17597532 0.18358783 -0.044549175 -0.016575854 -0.94538826 0.32552454 0.0015840728
-0.16295844 0.18360715 -0.043600645 -0.021878049 -0.95133162 0.30739123 0.0014159317
-0.15630998 0.18322141 -0.044229046 -0.016915342 -0.94681317 0.32133904 0.0021471721
-0.14731172 0.18142548 -0.048482895 -0.026241066 -0.93614173 0.35064235 0.0018428476
-0.13402116 0.18069039 -0.049709171 -0.0262387 -0.93422794 0.35571006 0.0013345836
-0.11631645 0.18223277 -0.044465534 -0.011891735 -0.94216895 0.3349272 0.0011265983
-0.10643212 0.18144725 -0.046393443 -0.0060392744 -0.94040644 0.3399989 0.0013432273
-0.094355255 0.18151562 -0.045826856 0.00011244265 -0.9411546 0.33797637 0.0014829109
-0.087572761 0.18101501 -0.047162581 -0.0040124017 -0.94334507 0.33178914 0.0011453137
-0.074950114 0.18163593 -0.044993646 0.0034880359 -0.94804662 0.31811249 0.0013168565
-0.066602841 0.18089494 -0.047131762 -0.0097773084 -0.94131309 0.33739302 0.0012590374
-0.058053266 0.18134598 -0.045825735 -0.0038704302 -0.94361788 0.33101395 0.0016268443
-0.048308417 0.18304981 -0.040731218 -0.0054976931 -0.95698017 0.29010123 0.0012432162
-0.025705822 0.1813412 -0.046308391 0.0032026228 -0.94209963 0.33531788 0.0010262337
-0.017396212 0.18281327 -0.04194539 0.011829855 -0.95453846 0.29785284 0.0013067839
-0.0019139317 0.18275809 -0.042315006 -0.0031914455 -0.94974226 0.31301665 0.001007206
0.0034546908 0.18246286 -0.043228537 -0.0016329805 -0.94935143 0.31421188 0.0011024269
0.023545068 0.18203393 -0.044430383 -0.001873037 -0.94710398 0.32092145 0.0010057078
0.035950638 0.18260415 -0.042891018 0.01382177 -0.95038676 0.31076375 0.00104334
0.042930186 0.18187883 -0.044983849 0.010168995 -0.94431806 0.32887688 0.00079198414
0.053578466 0.18236525 -0.043674093 0.010871047 -0.94257599 0.33381468 0.00088411185
