# .PCD v0.7 - Point Cloud Data file format
VERSION 0.7
FIELDS x y z normal_x normal_y normal_z curvature
SIZE 4 4 4 4 4 4 4
TYPE F F F F F F F
COUNT 1 1 1 1 1 1 1
WIDTH 570
HEIGHT 1
VIEWPOINT 0 0 0 1 0 0 0
POINTS 570
DATA ascii
0.39390326 -0.13392986 0.12438576 -0.47553268 0.4949404 -0.72725695 0.059440639
-0.10488672 -0.12519722 0.12369981 0.41839561 0.27848932 -0.86451656 0.034641281
-0.098928779 -0.12459148 0.12717018 0.40180394 0.29503825 -0.86689442 0.036149722
0.39464509 -0.12235241 0.12365948 -0.64255476 0.15764314 -0.74984795 0.018364683
-0.10303845 -0.11603114 0.12477639 0.47901803 0.1009024 -0.87198651 0.011720836
-0.097543299 -0.11340784 0.12797718 0.46394956 0.062321045 -0.88366669 0.0084707458
0.39562237 -0.11316574 0.12270264 -0.69248277 0.034329686 -0.72061718 0.0022733463
-0.1050694 -0.10706408 0.1235934 0.50214809 7.0533919e-05 -0.86478162 1.0114724e-05
-0.097997099 -0.1030609 0.12771285 0.4859854 -0.0016421858 -0.87396538 0.00026705113
0.38972846 -0.1068303 0.12847321 -0.68995422 0.0027475476 -0.72384781 8.2133141e-05
0.39299458 -0.10776755 0.12527546 -0.69284689 0.00075839279 -0.72108436 6.8199901e-05
-0.11096335 -0.092792794 0.12016031 0.50334388 -5.1233235e-07 -0.86408615 0
-0.10665441 -0.096917704 0.12267017 0.50275499 -7.3175702e-06 -0.86442894 0
-0.095840573 -0.094313532 0.12896898 0.47149882 -0.0035315689 -0.8818596 0.00057244732
0.38985258 -0.097509779 0.1283517 -0.69067055 8.3828141e-05 -0.72316957 0.00017871957
0.39404941 -0.093725801 0.12424272 -0.69713843 -1.6154039e-05 -0.71693647 8.5462882e-05
-0.10111059 -0.082642347 0.12589931 0.49515006 0.00063849101 -0.8688072 0.00012829318
-0.097328976 -0.083495706 0.12810203 0.47928277 -0.00066021754 -0.87766033 0.00053118961
0.39586046 -0.08119157 0.12246954 -0.69953144 -8.2958259e-06 -0.71460187 5.0659943e-05
-0.11070286 -0.070951521 0.12031204 0.50280082 -9.4643714e-05 -0.86440229 0
-0.10576034 -0.078883335 0.12319095 0.50002331 -5.0968738e-05 -0.86601186 1.4284912e-05
-0.095347323 -0.074008442 0.12925629 0.4737173 0.0023697999 -0.88067377 0.00053902884
0.38897717 -0.073741548 0.12920877 -0.68938643 0.00014647916 -0.72439384 0.00010811468
0.39562115 -0.077797815 0.12270385 -0.69953603 -1.9518573e-05 -0.71459728 7.9682621e-05
-0.10314933 -0.069658734 0.1247118 0.50009042 0.0010417956 -0.86597252 1.0180751e-05
-0.096109368 -0.062978499 0.12881242 0.47524673 -0.0027816852 -0.87984824 0.00053349527
0.3933067 -0.066728868 0.12496986 -0.69276673 0.00038768662 -0.7211616 0.00015702381
-0.10439792 -0.054503497 0.12398452 0.50129235 -0.00093236327 -0.86527747 9.1849706e-06
-0.094738699 -0.051608473 0.12961079 0.47413242 -0.0016904118 -0.88045198 0.00064837496
0.39334488 -0.054078817 0.12493247 -0.69208246 0.00063259603 -0.72181821 0.00014505401
-0.11035717 -0.042206157 0.12051341 0.50232887 -3.2288834e-05 -0.86467665 1.4849082e-06
-0.10596842 -0.045756295 0.12306974 0.50211221 3.1890409e-05 -0.86480248 1.5947769e-05
-0.097131878 -0.042232066 0.12821683 0.47589043 -0.0020557377 -0.87950218 0.00056189235
0.39228964 -0.044857033 0.12596563 -0.69224399 0.0002171121 -0.72166353 8.4616579e-05
0.38945419 -0.033555374 0.12874174 -0.68696362 -0.00097228162 -0.72669107 0.00018516484
0.39219952 -0.033897877 0.12605388 -0.69406551 0.00214317 -0.71990865 1.2208399e-05
-0.10384317 -0.022367962 0.12430765 0.4985894 0.0021198716 -0.86683565 7.316751e-05
0.38957253 -0.024408868 0.12862587 -0.68781418 -0.00078671862 -0.72588634 0.0002559312
0.3943418 -0.02673552 0.12395643 -0.69968444 0.00015400788 -0.71445197 0
-0.10503945 -0.014683208 0.12361085 0.50228041 0.00043175777 -0.86470467 4.6943974e-06
-0.096055828 -0.019268161 0.12884361 0.48501804 0.0014977662 -0.8745029 0.00028418712
0.38842645 -0.019604219 0.12974799 -0.68818122 0.00011927875 -0.72553885 0.00031615183
0.39581499 -0.016555222 0.12251412 -0.69957483 -2.8702538e-05 -0.71455932 9.137435e-06
-0.10313253 -0.0040194569 0.12472159 0.49574262 0.0016447792 -0.86846793 0.00013561289
-0.096454948 -0.0055275992 0.12861112 0.47416773 -2.5773354e-05 -0.88043457 0.00056611374
0.38852993 -0.0078653852 0.12964666 -0.68428463 0.00041267162 -0.72921485 0.00037660962
0.39347646 -0.0025122215 0.12480368 -0.69359583 0.0010204705 -0.72036362 0.00016852694
-0.11066698 0.0092195943 0.12033294 0.50331646 1.8135249e-06 -0.86410213 1.1398276e-05
-0.10534988 0.004225716 0.12343004 0.50161868 0.00029572559 -0.86508882 0
-0.097887851 0.0047843182 0.12777649 0.48458168 -0.0012772615 -0.87474507 0.00023454036
0.38960126 0.00060861674 0.12859777 -0.68579984 0.002122767 -0.7277872 0.00043697169
0.39129874 0.003681876 0.12693581 -0.69276464 0.00047569358 -0.72116357 0.00013265805
-0.10507637 0.013937411 0.12358934 0.50022596 -0.00020610965 -0.86589485 1.5736694e-05
-0.097805843 0.016332932 0.12782425 0.47969058 -0.00089505053 -0.87743723 0.0002962471
0.3884044 0.015128568 0.12976955 -0.67866391 -0.0026714369 -0.73444414 0.00062763755
0.39423975 0.012675709 0.12405633 -0.69467986 0.00040225143 -0.71931899 8.412738e-05
-0.10488278 0.023934552 0.12370211 0.50143409 -0.00042711245 -0.86519569 1.3196938e-05
-0.097650148 0.026369989 0.12791494 0.48469311 0.00023322026 -0.87468427 0.00027668363
0.38825127 0.023084901 0.12991947 -0.6793915 0.0010630804 -0.73377514 0.00061962905
0.39447567 0.025753986 0.12382533 -0.69319499 -0.0014570057 -0.72074866 0.00017409306
-0.10845476 0.037874971 0.12162151 0.50251478 2.4757934e-05 -0.86456859 0
-0.096565343 0.035984453 0.12854682 0.47143286 -0.0016764702 -0.88190043 0.00068370946
0.38992351 0.038845025 0.12828225 -0.69078457 -0.0018899919 -0.72305822 9.8881334e-05
0.39505753 0.035983693 0.1232557 -0.69576293 -0.00043418011 -0.71827132 3.1871008e-05
-0.11078617 0.042199671 0.12026352 0.5026105 9.9469624e-05 -0.86451298 0
-0.10316443 0.04722032 0.124703 0.50241596 0.00035161775 -0.86462605 0
-0.098907262 0.043057837 0.12718269 0.49501482 0.0020864157 -0.868882 0.00015199906
0.39369458 0.046034105 0.12459011 -0.69354528 -0.00056017336 -0.72041285 0.00011512025
-0.1061012 0.05091745 0.12299241 0.50250298 0.00029968788 -0.86457545 5.1694187e-06
-0.095285609 0.054782756 0.12929222 0.47343311 0.0019841178 -0.88082755 0.00054531451
0.39611006 0.057957854 0.12222517 -0.69751126 -4.5940553e-05 -0.71657377 4.538841e-06
-0.1032823 0.067609496 0.12463435 0.49686036 0.00057314656 -0.86783034 0.00011718209
0.38840461 0.068631984 0.12976938 -0.66960788 0.0011337623 -0.74271393 0.001195434
0.39387038 0.064721085 0.12441798 -0.69357288 0.0009351857 -0.72038579 6.8736321e-05
-0.10680269 0.075208902 0.1225838 0.50167465 0.00012665805 -0.86505634 1.0587947e-05
-0.096717745 0.073483139 0.12845805 0.47935468 -0.0024364302 -0.8776179 0.00048459624
0.38908231 0.0712841 0.12910584 -0.68275934 -0.0010723887 -0.7306425 0.00061534654
0.39446414 0.073924236 0.12383668 -0.6943869 0.0026842814 -0.71959686 5.8154736e-05
-0.10553189 0.086514093 0.12332404 0.50105762 0.00035074356 -0.86541378 1.0004386e-05
0.39348713 0.088318892 0.12479317 -0.69185442 0.00031123208 -0.72203702 0.00014784899
-0.1042973 0.096016511 0.12404314 0.50093371 -0.00073072535 -0.86548537 4.879319e-06
-0.09897846 0.095919594 0.12714124 0.48474896 0.00089637673 -0.87465286 0.00030958685
0.38993979 0.091476128 0.12826633 -0.69135636 7.1475879e-05 -0.72251397 0.00017087115
0.39353037 0.094610974 0.12475087 -0.69329375 -0.00035795252 -0.72065496 0.00019460118
-0.11001816 0.10460949 0.12071086 0.50188059 -6.1332852e-05 -0.86493695 1.7388172e-06
-0.10463773 0.10415872 0.12384484 0.50093138 0.00033450933 -0.86548692 2.3240409e-05
-0.096078411 0.10151064 0.12883043 0.46817183 -0.0024577978 -0.88363403 0.00060058472
0.38908181 0.10262189 0.12910633 -0.68371421 -0.0036116466 -0.72974092 0.00048376393
0.39560032 0.1056371 0.12272422 -0.69781393 -3.3307988e-05 -0.71627903 0.00015461726
-0.11116564 0.11504859 0.12004249 0.50300246 -0.029898338 -0.86376762 0.0020985852
-0.10496052 0.11372795 0.12365682 0.49948049 -0.027314229 -0.8658945 0.0019734758
-0.098046288 0.11724478 0.12768421 0.45279762 -0.098245315 -0.8861841 0.010484826
0.39550027 0.11574578 0.12282218 -0.67182624 -0.079149105 -0.7364679 0.0069313152
-0.11090946 0.12842265 0.1201917 0.46199536 -0.23669684 -0.85471338 0.030540932
-0.10359892 0.12918814 0.12444992 0.40864187 -0.2606667 -0.87467974 0.037042461
-0.098587327 0.12287527 0.12736906 0.41301307 -0.16296779 -0.8960256 0.023954723
0.39389944 0.12612024 0.12438953 -0.63490498 -0.23656957 -0.73547971 0.038056415
-0.11054707 0.1379931 0.12040278 0.34894484 -0.45006451 -0.82199723 0.048557103
-0.10590521 0.13461877 0.12310655 0.33722222 -0.49334857 -0.80180311 0.052529611
-0.098149754 0.13555992 0.12759088 0.30416653 -0.50925392 -0.80507332 0.048057936
-0.0865632 0.13795963 0.12617595 0.12028049 -0.73077178 -0.67194128 0.033388663
-0.074870981 0.13700771 0.12807973 0.12597503 -0.77031147 -0.62510037 0.028007194
-0.065059789 0.13769971 0.12669575 0.050136495 -0.82665861 -0.56046575 0.017532939
-0.05464749 0.13933089 0.1234334 0.024374099 -0.87294269 -0.48721355 0.0026253804
-0.044542566 0.13789068 0.12631382 0.022490013 -0.8754946 -0.48270428 0.0020637049
-0.034179419 0.13822031 0.12565453 0.0025637452 -0.87629688 -0.48176473 0.0016389932
-0.026525609 0.13781253 0.1264701 0.0033828751 -0.87696522 -0.480542 0.0017486911
-0.0063105733 0.13818996 0.1257153 -0.00082198408 -0.88288307 -0.46959212 0.00087283645
0.0061343703 0.13888821 0.12431876 0.0022948275 -0.87850893 -0.47772038 0.0014305556
0.012226632 0.13811314 0.1258689 -0.0078808637 -0.87123102 -0.49080995 0.0020244285
0.023949184 0.1380555 0.12598416 -0.0065079452 -0.87452209 -0.48494199 0.0018834441
0.035744298 0.13784979 0.1263956 -0.00031941477 -0.87611181 -0.48210785 0.0015737279
0.043724172 0.13830964 0.12547588 0.0017306801 -0.87652463 -0.48135382 0.0012401608
0.058805067 0.13797769 0.1261398 0.0051421751 -0.86159319 -0.50757343 0.0024228217
0.066729933 0.13823687 0.12562142 0.0076951571 -0.87729514 -0.47988957 0.0015771309
0.076714978 0.13761954 0.12685609 0.00096038816 -0.874466 -0.48508584 0.0017181298
0.084245376 0.13791592 0.12626334 0.0014521452 -0.87675893 -0.48092788 0.0015091273
0.094987065 0.13750529 0.12708458 0.0087307487 -0.86383057 -0.50370669 0.0026218148
0.10410901 0.13865101 0.12479313 0.00075588195 -0.88236779 -0.47055995 0.0010094946
0.11614405 0.13779889 0.12649739 0.00081719912 -0.87427014 -0.48543891 0.0023070592
0.12668261 0.13736649 0.12736218 0.0046864855 -0.87038696 -0.49234605 0.0028763025
0.13484512 0.13750318 0.12708881 -0.0035653226 -0.87568754 -0.48286507 0.0012841673
0.14494567 0.13860637 0.12488242 0.0003401658 -0.87905872 -0.47671342 0.001069958
0.15661088 0.13785863 0.12637791 -0.00273693 -0.86722445 -0.49790984 0.0030600224
0.16652396 0.13771255 0.12667008 -0.0032383383 -0.87462687 -0.48478577 0.0018874279
0.17455922 0.13869201 0.12471113 -0.0049840668 -0.8835023 -0.46840027 0.00095412019
0.18388687 0.13814859 0.12579799 -0.0011541736 -0.88010347 -0.47478047 0.001182692
0.19331893 0.13861483 0.12486552 -0.0071596857 -0.88270503 -0.46987304 0.00083937909
0.20752068 0.13976079 0.12257359 0.0015413637 -0.88035309 -0.47431642 0.001201455
0.21683006 0.13750717 0.12708084 0.011061509 -0.85600382 -0.51685107 0.0033954212
0.22573681 0.13707979 0.12793563 0.00088482269 -0.85847396 -0.51285648 0.0031725408
0.24570076 0.13763706 0.12682109 -0.0024684609 -0.87829512 -0.47811237 0.0010332463
0.25253597 0.13911767 0.12385984 -0.00203311 -0.88334107 -0.46872628 0.00078533537
0.26493838 0.1380233 0.12604856 -0.008643805 -0.88157481 -0.47196531 0.00089033379
0.27558523 0.13853793 0.12501933 -0.001333867 -0.88193154 -0.4713757 0.00064148707
0.28452113 0.13704482 0.12800553 0.0054865875 -0.88008618 -0.47478235 0.00072523777
0.29856515 0.13879657 0.12450206 0.00010583257 -0.88006741 -0.47484872 0.00094945199
0.30596399 0.1375417 0.12701182 -0.0060128467 -0.86430818 -0.50292665 0.0025925396
0.31597304 0.13846774 0.1251597 -0.0073030842 -0.876589 -0.48118439 0.0013535813
0.32500389 0.13747029 0.1271546 -0.012175976 -0.86384422 -0.50361192 0.0029176192
0.33305517 0.13773783 0.12661953 0.0023978516 -0.86151886 -0.50771999 0.002727699
0.34749526 0.13682006 0.12845504 0.0054932749 -0.8425442 -0.53859913 0.0046703685
0.35816309 0.13853666 0.12502183 -0.032736674 -0.86586225 -0.49921024 0.0049922857
0.3798275 0.13753 0.12703517 -0.22380656 -0.73260081 -0.64281166 0.03673828
0.38313675 0.13762553 0.12684412 -0.24355212 -0.72614098 -0.64296317 0.035104871
0.39360631 0.13284262 0.12467653 -0.54272318 -0.36334419 -0.75725329 0.047580611
-0.10392529 0.14009482 0.12190554 0.26915091 -0.55544066 -0.78679311 0.052397564
-0.090621427 0.1401011 0.12189296 0.11790446 -0.72588313 -0.67763722 0.032536313
-0.065638542 0.14022346 0.12164827 0.026408849 -0.86271685 -0.50499719 0.0052263211
-0.042481106 0.14005932 0.12197652 -0.00083933031 -0.88524663 -0.46512118 0.00063157367
-0.0085074883 0.14070532 0.12068452 0.0010316209 -0.88769066 -0.46043909 0.0004404677
0.0084386282 0.14075544 0.12058427 1.3508275e-06 -0.89442801 -0.44721192 4.4139577e-07
0.015962288 0.14014 0.12181519 -0.00031892493 -0.88526493 -0.46508703 0.00075045193
0.036191475 0.14005047 0.12199422 -0.00064609438 -0.88426644 -0.46698222 0.00063566497
0.044691022 0.14036138 0.1213724 0.0043724631 -0.8841812 -0.46712363 0.00070230459
0.065293431 0.14073007 0.12063505 -0.0030144837 -0.89019877 -0.45556238 0.00024597018
0.070337638 0.1405274 0.12104036 -0.00072679674 -0.89048308 -0.45501575 0.00031437277
0.080176212 0.14031017 0.12147479 0.0039571761 -0.88959706 -0.45672897 0.00034908284
0.10596739 0.14043094 0.12123326 -0.0032805086 -0.88743615 -0.46091911 0.00044263474
0.11089532 0.14062643 0.1208423 0.00063183572 -0.88752151 -0.46076587 0.00050710246
0.12418213 0.14015892 0.12177731 0.002607466 -0.88771296 -0.46038988 0.00049637386
0.13406549 0.14036292 0.12136933 -0.0017446362 -0.88539034 -0.464845 0.00073435769
0.14490055 0.14027189 0.12155139 -0.0020729427 -0.88257682 -0.47016382 0.00091243477
0.17435019 0.14075977 0.12057564 -1.500807e-05 -0.89441711 -0.44723374 0
0.19286276 0.140481 0.12113315 -0.00017069513 -0.88723546 -0.46131679 0.00055225112
0.25303236 0.14085215 0.12039088 -0.0018407766 -0.89030194 -0.45536703 0.00031049905
0.26680905 0.14064923 0.12079674 -0.00015029122 -0.89105338 -0.45389843 0.00019233456
0.27747282 0.1402588 0.12157758 0.001457588 -0.88342619 -0.46856812 0.00055676623
0.30139214 0.1406094 0.12087639 0.0017031704 -0.89025098 -0.45546722 0.00025318004
0.31253517 0.14073628 0.12062264 3.3742213e-05 -0.89442939 -0.44720924 4.8615556e-07
0.320328 0.1409249 0.12024538 -0.00096724491 -0.89015216 -0.45566237 0.00028203195
0.34917021 0.14022177 0.12165165 -0.00048054286 -0.88934618 -0.45723417 0.00040216654
0.35640231 0.1404328 0.12122957 0.0020705538 -0.889072 -0.45776278 0.00050061452
0.36214989 0.14049995 0.12109528 -0.0067880712 -0.88380593 -0.4678044 0.0010386726
-0.091343097 -0.1317957 0.13158865 0.34549385 0.41914493 -0.83961385 0.03950306
-0.086835265 -0.1329105 0.13291396 0.30476633 0.52789581 -0.79274428 0.041666277
-0.07275641 -0.13301176 0.13607164 0.18081151 0.62974048 -0.75546944 0.028855212
-0.065393075 -0.1333295 0.13543619 0.11850761 0.69917679 -0.70505863 0.028101131
-0.055887245 -0.13482201 0.13245115 0.098853603 0.76740843 -0.63349211 0.02240902
-0.044903029 -0.13336475 0.13536568 0.029470943 0.77148926 -0.6355595 0.020145224
-0.032851972 -0.13322607 0.13564302 0.013078152 0.79356152 -0.6083495 0.01053974
-0.02483565 -0.13427886 0.13353746 0.023189681 0.819574 -0.57250392 0.0078359172
-0.012509651 -0.13227563 0.1375439 0.01626692 0.79480141 -0.60665148 0.0084289946
-0.0041329623 -0.13335621 0.13538276 -0.0016734427 0.80628526 -0.59152454 0.0079954742
0.0047196257 -0.13439436 0.13330644 -0.0055013774 0.81448257 -0.58016199 0.0074255657
0.014797505 -0.13376194 0.13457131 -0.0034424777 0.80892193 -0.58790594 0.0089899674
0.02543892 -0.13423315 0.13362892 -0.002071586 0.82144821 -0.57027942 0.0074932822
0.033848044 -0.13364534 0.13480452 -0.0086671887 0.82023579 -0.57195991 0.0083127283
0.045759335 -0.13269925 0.13669668 0.012825337 0.80592728 -0.59187561 0.0092103099
0.052774642 -0.13403894 0.13401727 -0.021923872 0.81483692 -0.57927549 0.0076777013
0.065187916 -0.13367783 0.13473953 0.0072586592 0.8181541 -0.5749532 0.0095497956
0.075500362 -0.13266996 0.13675527 0.011248739 0.80865055 -0.58818179 0.0089300079
0.084191561 -0.13339196 0.13531126 0.0019103384 0.80440027 -0.59408456 0.0097166663
0.095609985 -0.13329741 0.13550033 -0.0066683008 0.81544328 -0.57879859 0.009056299
0.10118771 -0.13379495 0.13450527 -0.0028759649 0.82118642 -0.57065278 0.0078601204
0.11512966 -0.1345741 0.13294697 0.010052817 0.83036196 -0.55713379 0.0069263256
0.12352459 -0.13353944 0.13501632 -0.013417264 0.80075341 -0.59884393 0.0079994807
0.13455051 -0.13474306 0.13260902 -0.030295286 0.82301176 -0.56721586 0.0071884533
0.14418371 -0.13393411 0.13422695 -0.010784308 0.80492282 -0.59328151 0.0078094993
0.15814488 -0.13322671 0.13564177 0.012881578 0.79479533 -0.60674077 0.0075517204
0.16445266 -0.13347451 0.13514613 0.011755051 0.79875302 -0.60154414 0.0077372976
0.17631418 -0.13305601 0.13598309 0.00045498708 0.80125731 -0.59831977 0.0093875229
0.1859322 -0.13323148 0.13563223 0.0021132445 0.80466527 -0.59372497 0.0086651249
0.19384752 -0.13427754 0.13354011 -0.0090089235 0.81980908 -0.57256591 0.0073281857
0.2044106 -0.13338049 0.13533421 -0.012384284 0.81189716 -0.58366907 0.0074609942
0.21354136 -0.13346121 0.13517278 -0.0085299248 0.8042869 -0.59417993 0.0078609446
0.2277326 -0.1336094 0.13487639 -0.0013758418 0.81608647 -0.57792813 0.0075386902
0.23583251 -0.13462444 0.13284631 -0.004952882 0.81348836 -0.58156008 0.0081651937
0.24406669 -0.13338792 0.13531934 0.0020296189 0.79951656 -0.60064054 0.0075406688
0.2548607 -0.13307981 0.13593557 -0.0029309769 0.79868639 -0.60174036 0.0082174679
0.26488137 -0.13445525 0.13318469 0.0041685756 0.81497514 -0.57948083 0.0070126029
0.2785511 -0.13188705 0.13832107 -0.0048022992 0.780186 -0.62552923 0.0072416039
0.28443685 -0.13397899 0.1341372 -0.0080352165 0.80895483 -0.58781588 0.0070031192
0.29379326 -0.13391939 0.13425641 0.0058196085 0.80259281 -0.59649891 0.0075792172
0.30735958 -0.13356444 0.1349663 0.0021693092 0.80004114 -0.59994125 0.0089296522
0.31528994 -0.1338664 0.13436238 0.0079071224 0.80093199 -0.59870309 0.011281215
0.32580358 -0.13388835 0.13431847 -0.0051075458 0.82097298 -0.57094419 0.010270469
0.3358413 -0.13317521 0.13574475 -0.009813549 0.80548382 -0.59253663 0.012406684
0.34494048 -0.13388455 0.13432604 0.0039986121 0.80503076 -0.59321976 0.010479942
0.35438445 -0.13258922 0.13691674 -0.057698149 0.75918812 -0.64830875 0.0239351
0.36676037 -0.13372204 0.13465111 -0.1638612 0.69507098 -0.70001841 0.03617296
0.37368536 -0.13355233 0.1349905 -0.27993378 0.56872785 -0.77342469 0.042948496
0.38535014 -0.13365045 0.13241081 -0.4355495 0.45129994 -0.77886134 0.051113859
-0.093232751 -0.12396868 0.13048798 0.39147016 0.27540317 -0.87801147 0.032870963
-0.083843112 -0.12531623 0.13556617 0.32023495 0.34092757 -0.88386536 0.036174823
-0.076297924 -0.12278815 0.13848868 0.28090063 0.31304917 -0.90724581 0.033763774
0.38513798 -0.12647438 0.13296762 -0.55371118 0.29034689 -0.78045028 0.036287952
-0.091770813 -0.11544509 0.13133952 0.42236558 0.11913465 -0.89856231 0.014047001
-0.085685968 -0.11549047 0.13461237 0.38568926 0.13763046 -0.91230565 0.01459746
-0.078406475 -0.11622291 0.13771029 0.34946838 0.21367393 -0.91225827 0.023578826
0.37913275 -0.11167032 0.13884716 -0.58382905 0.10664725 -0.80484152 0.014266301
0.38375393 -0.11656871 0.1343227 -0.57968658 0.19459112 -0.79126334 0.026428755
-0.089136496 -0.10396142 0.13287394 0.44428229 0.0023394395 -0.8958838 0.00082854484
-0.075083025 -0.1009843 0.13893715 0.37829694 0.0020953729 -0.92568195 0.0009304164
0.37981123 -0.102862 0.13818291 -0.5754618 0.022866478 -0.81750894 0.0061828671
0.38412285 -0.10598721 0.13396148 -0.63946301 0.030532699 -0.76821536 0.0037476453
-0.092271954 -0.095237106 0.13104762 0.45269409 0.0015194752 -0.89166468 0.0008397678
-0.084337369 -0.095541731 0.13545929 0.42816675 -0.0026971116 -0.9036957 0.00083163724
0.37906477 -0.094154686 0.13891372 -0.5858534 -6.202342e-05 -0.810417 0.0071507567
0.38347092 -0.093613304 0.13459976 -0.64404678 9.7681688e-05 -0.76498616 0.0024805362
-0.092663653 -0.084223412 0.13081945 0.46839789 0.0066376762 -0.88349271 0.00063322636
-0.082610138 -0.084599018 0.13613063 0.42040303 0.0034496302 -0.90733093 0.00092177
-0.077001408 -0.085880727 0.13822897 0.39852992 0.0023416413 -0.91715235 0.00097869278
0.38395074 -0.085446037 0.13413 -0.6520111 -0.0028151842 -0.75820422 0.0020868068
-0.090208888 -0.07654275 0.1322493 0.45816416 0.0021492639 -0.88886499 0.00077005755
-0.083319463 -0.075935036 0.13584402 0.42055261 0.0015785659 -0.9072668 0.00076934812
-0.074853264 -0.075250603 0.13902195 0.36099178 -0.0046852627 -0.93255723 0.0012161154
0.37925121 -0.076784804 0.13873118 -0.57845616 0.0058202543 -0.81569272 0.006692233
0.38319778 -0.076474339 0.13486721 -0.6339066 -7.7538367e-05 -0.77340955 0.0026843979
-0.092909232 -0.063358903 0.13067642 0.47370192 -0.00073726731 -0.88068491 0.0005350642
-0.085552841 -0.065157741 0.13475196 0.43062872 0.0015319866 -0.90252787 0.0010284634
-0.076610267 -0.063478835 0.13837335 0.37437201 -0.0073890509 -0.92724913 0.00086692488
0.3788498 -0.067390218 0.13912421 -0.55813962 -0.0084291967 -0.82970423 0.0074469908
0.38394248 -0.064911619 0.13413809 -0.64801419 0.0064984225 -0.76160055 0.002798765
-0.092147343 -0.051485866 0.1311202 0.46425766 -0.0027320406 -0.88569593 0.0008889414
-0.08547882 -0.056157965 0.13491063 0.42255127 0.00229224 -0.90633613 0.00096117757
-0.076976217 -0.055113655 0.13823827 0.37474251 0.0052292887 -0.92711419 0.0010195237
0.37916517 -0.054624725 0.13881542 -0.55735999 -0.012627761 -0.83017498 0.0066914926
0.38487375 -0.053750373 0.13322634 -0.64319706 0.0050948211 -0.76568377 0.0031798277
-0.091700643 -0.043931715 0.13138039 0.46377802 0.0027709745 -0.88594711 0.00081133895
-0.084599093 -0.044985801 0.13515608 0.42698821 0.0050313934 -0.90424317 0.0011813684
0.37825236 -0.045797475 0.13964985 -0.54573053 -0.015866967 -0.83781046 0.0072582862
0.38484198 -0.040793568 0.13325745 -0.65176481 0.002243361 -0.75841784 0.0022728774
-0.08530388 -0.032800354 0.13510635 0.42134556 -0.0012643244 -0.90689921 0.0010082643
-0.078864992 -0.031216517 0.13754101 0.3966279 -0.0015554045 -0.91797817 0.00093718636
0.37835982 -0.036049169 0.13960391 -0.55431962 -0.0029455845 -0.8322987 0.0067035821
0.38471693 -0.036354151 0.13337988 -0.63734913 -0.0061118766 -0.77055097 0.002690136
-0.092883319 -0.023027593 0.13069151 0.46995199 0.0010336667 -0.88269132 0.00055716961
-0.085308269 -0.026327413 0.13490516 0.42238584 -0.0010439085 -0.90641552 0.00070567848
-0.075957015 -0.025716489 0.13861451 0.37739497 0.00076002104 -0.92605197 0.00073336437
0.37894276 -0.023430239 0.13903318 -0.57964039 0.0129071 -0.81477022 0.0058080372
0.3834824 -0.024256632 0.13458858 -0.6338644 0.0059639546 -0.77342123 0.0037655053
-0.091154501 -0.016472332 0.1316985 0.45771334 -0.0052816169 -0.88908416 0.00078251836
-0.085838728 -0.01437883 0.13458088 0.42603919 -0.0043853703 -0.90469402 0.0010349734
-0.076629251 -0.0188816 0.13836634 0.37420604 -0.0066280495 -0.92732191 0.00081789249
0.37972787 -0.013971446 0.13826449 -0.59103048 0.0011946535 -0.80664831 0.0060582897
-0.092835665 -0.0043233125 0.13071926 0.47145411 -0.0004781427 -0.88189048 0.00052545435
-0.089700818 -0.00017267374 0.13254525 0.44523624 -0.00066316751 -0.89541286 0.00089958805
-0.077846475 -0.007105954 0.137917 0.38452375 -0.0074341674 -0.92308509 0.0011602874
0.37822488 -0.0022447507 0.13971408 -0.58213991 0.010663739 -0.81301874 0.0069148219
0.38464579 -0.008116723 0.13344951 -0.65896982 -0.0029072491 -0.75216383 0.0015585086
-0.092481226 0.0052626119 0.13092571 0.47145554 0.0029199342 -0.88188493 0.00047463158
-0.082682796 0.0032871081 0.13613166 0.40958351 -0.0079709012 -0.91223782 0.0010180151
-0.077368923 0.0041799373 0.13809331 0.38498551 -0.0032314188 -0.92291701 0.00081383414
0.37890276 0.0035559637 0.13907233 -0.5720107 -0.012582118 -0.82014966 0.0066302037
0.38463792 0.0048054652 0.13345721 -0.66587406 -0.0061195325 -0.74603909 0.0013342226
-0.090314381 0.015106133 0.13218786 0.44777206 0.0027402944 -0.89414352 0.0007510623
-0.077535242 0.015468823 0.1380319 0.38443431 -0.00041135211 -0.92315233 0.00095177162
0.37932935 0.016158393 0.13865468 -0.5912866 0.0058395267 -0.80644035 0.0060332529
0.38502413 0.013560335 0.13307908 -0.66419482 0.0037172283 -0.74755031 0.0013216126
-0.092303455 0.028207889 0.13102926 0.46218741 -0.0042753033 -0.88677198 0.00061990455
-0.084036946 0.023818973 0.13546711 0.42423931 -0.0056552747 -0.90553248 0.00072351808
-0.076120444 0.023226539 0.13855419 0.37601566 -0.0025358913 -0.92660981 0.00091478904
0.3792921 0.025906764 0.13869116 -0.58029771 0.0019182229 -0.81440216 0.0058959927
0.3853851 0.026683543 0.1327257 -0.66408324 -0.0011850401 -0.74765772 0.0015987651
-0.09257102 0.032407068 0.13087341 0.45931187 -0.0040619243 -0.88826573 0.00080106803
-0.086495876 0.032986283 0.13415155 0.43969145 -0.0049972748 -0.89813495 0.0009016479
-0.07715755 0.033926375 0.13817132 0.37927851 0.0013555797 -0.92528158 0.0010296043
0.37795973 0.03394853 0.13989887 -0.55028075 -0.017285852 -0.83480072 0.0089678075
0.38494596 0.035885014 0.13315558 -0.65459973 0.0015597753 -0.75597405 0.0019381469
-0.092025489 0.04457527 0.13119118 0.45196682 -0.0010389922 -0.89203411 0.00087993761
-0.088319093 0.04702872 0.13335006 0.44320995 0.0049430006 -0.89640427 0.0010072624
0.37873641 0.047816351 0.13923523 -0.57497674 0.0027469795 -0.81816518 0.0058679502
0.384958 0.042744163 0.13314384 -0.65739912 -0.0069908751 -0.75351012 0.0017234755
-0.0871066 0.057199974 0.13402727 0.42571428 0.00082082162 -0.90485734 0.00078109716
-0.073860765 0.054883178 0.13938835 0.36155683 0.00057490828 -0.93234992 0.00064602232
0.38587379 0.053355318 0.13224722 -0.66090888 -0.0083576394 -0.75041956 0.0016334311
-0.092360973 0.06661763 0.13099577 0.46971002 -0.00074347371 -0.88282043 0.00063663052
-0.086445175 0.065129377 0.13438083 0.42867848 0.012334084 -0.90337288 0.00092627539
-0.077363834 0.061619788 0.13809517 0.3811197 -0.00079857878 -0.92452538 0.00093619386
0.38415593 0.0630484 0.13392913 -0.64442974 0.004876262 -0.76464802 0.0016958154
-0.091059163 0.077530429 0.13175404 0.45042989 0.0010154151 -0.89281124 0.00084489002
-0.084154531 0.075109631 0.13536198 0.42766422 -0.0037374012 -0.90392989 0.00087436551
-0.077432714 0.076996513 0.13806973 0.37141788 0.0097192209 -0.928415 0.00063958805
0.37837052 0.077205852 0.13952859 -0.57154042 -0.001944698 -0.82057166 0.0054905829
0.38562301 0.074151583 0.13249277 -0.66738003 0.0035195264 -0.74470896 0.0014037811
-0.091926679 0.085014686 0.13124873 0.46641061 -0.002881367 -0.88456362 0.0006305842
-0.08654058 0.082468323 0.1343227 0.42663121 -0.0025211363 -0.9044221 0.00096989394
-0.076778732 0.087314367 0.13831118 0.37999675 0.00029958776 -0.92498779 0.00079653633
0.37956786 0.085351884 0.13842118 -0.5705871 0.020786902 -0.82097399 0.0058565848
0.38485739 0.086086012 0.13324234 -0.65603662 0.0031410025 -0.75472254 0.0022683649
-0.085144795 0.094944984 0.13489664 0.42445228 -0.010521658 -0.90538919 0.0008752353
-0.075313747 0.096206777 0.13885197 0.36241028 0.0010586552 -0.93201804 0.001162256
0.37929857 0.092512593 0.13868484 -0.58218563 0.0031257833 -0.81304991 0.0065801623
0.38347897 0.092252716 0.13459192 -0.65370578 0.00032381699 -0.75674874 0.0021601203
-0.091253884 0.10385495 0.13164061 0.45987278 -0.00467161 -0.88797253 0.00075095514
-0.084141463 0.10519195 0.13546437 0.42734668 -0.0062223021 -0.90406638 0.00091724156
-0.075281084 0.10155895 0.13886403 0.38044867 -0.0050234077 -0.92478842 0.00080745295
0.37882459 0.10516791 0.13914889 -0.57458496 -0.015162946 -0.81830454 0.0083449818
0.38290268 0.10554596 0.13515614 -0.65344507 -0.015346834 -0.75681835 0.0025544984
-0.086123355 0.11394951 0.13442288 0.42664182 -0.093426891 -0.89958215 0.0090009924
-0.075546287 0.11719816 0.13876612 0.3296304 -0.17155161 -0.92839313 0.016757308
0.3789053 0.11461101 0.13906984 -0.55815578 -0.12779634 -0.81983542 0.014181915
0.38428843 0.11437616 0.13379942 -0.62346232 -0.11069393 -0.7739777 0.012568157
-0.091757089 0.12426174 0.13134751 0.38112506 -0.23047756 -0.89533436 0.034171913
-0.087140858 0.12518217 0.13398893 0.30640569 -0.32272664 -0.89552391 0.035304718
-0.07605134 0.12559003 0.13857968 0.24892201 -0.37267983 -0.89395052 0.038594261
0.37903309 0.12249073 0.13894475 -0.46257949 -0.29446357 -0.83624846 0.033717863
-0.08521387 0.1335935 0.13344188 0.20350935 -0.56067824 -0.80263561 0.043553635
-0.076314181 0.13435906 0.13337706 0.18563324 -0.6318832 -0.75250512 0.036960747
-0.062345125 0.13335416 0.13538684 0.067786783 -0.71280193 -0.69808185 0.032653101
-0.055913895 0.13278532 0.13652453 0.10150553 -0.69197536 -0.7147494 0.035156939
-0.043905452 0.13305336 0.13598847 0.0690578 -0.78789061 -0.61193091 0.020593015
-0.031861864 0.13321818 0.13565879 0.011264463 -0.79867685 -0.60165471 0.01297305
-0.025087547 0.13405828 0.13397859 0.0040359665 -0.80435342 -0.59413749 0.012268306
-0.013580535 0.13283901 0.13641718 0.0038534517 -0.81046009 -0.58578128 0.0090860678
-0.003645258 0.1332559 0.13558336 -0.013950229 -0.81032366 -0.5858165 0.0075899526
0.0057406756 0.13241835 0.13725848 -0.0075484924 -0.8031202 -0.59576935 0.0093221646
0.013113203 0.13271804 0.1366591 -0.021230867 -0.796211 -0.6046465 0.0079714125
0.023921404 0.13344553 0.13520414 -0.0020965619 -0.80661094 -0.59107906 0.0070039341
0.032861609 0.13416967 0.13375583 -0.00012132226 -0.81054258 -0.58567977 0.0058224835
0.045340076 0.13258411 0.13692698 0.0079720411 -0.79784024 -0.60281622 0.0075970907
0.053379811 0.13362511 0.13484496 0.0090169692 -0.80310863 -0.59576434 0.0073597701
0.065185495 0.13337022 0.13535471 0.016563142 -0.81150979 -0.58410406 0.0077805244
0.075716257 0.13334423 0.13540669 0.0030067312 -0.80131954 -0.59822899 0.0091380868
0.083067961 0.1343132 0.13346879 -0.011950431 -0.82003325 -0.572191 0.0074428609
0.093299896 0.1320225 0.13805018 0.0027557309 -0.80804265 -0.58911747 0.0081112487
0.1035527 0.1337014 0.13469237 0.0019926766 -0.81183738 -0.58388025 0.0075242161
0.11580233 0.1324096 0.13727596 -0.0054816236 -0.81436068 -0.58033311 0.0089174388
0.12388503 0.1351506 0.13179396 -0.0034031994 -0.83074355 -0.55664486 0.0063703717
0.13871524 0.13481766 0.13245986 -0.012533396 -0.84440589 -0.53555727 0.0060796482
0.14246836 0.13338423 0.13532671 -0.020454722 -0.80398393 -0.59429914 0.0088062678
0.15663971 0.13441855 0.13325809 0.0059679351 -0.83196515 -0.5547958 0.0056466185
0.16546413 0.13411716 0.13386083 -0.0048506414 -0.81421304 -0.5805459 0.0072880285
0.17741859 0.13282132 0.13645254 -0.013942784 -0.81045765 -0.58563131 0.0085494053
0.18408883 0.13256048 0.13697423 0.0025877801 -0.8056891 -0.59233302 0.0074285334
0.19589031 0.13280106 0.13649304 -0.016128728 -0.80458516 -0.59361821 0.0075404611
0.20284468 0.13375193 0.13459136 -0.032260515 -0.81373131 -0.58034533 0.0070909089
0.21414094 0.13335021 0.13539477 0.0072579803 -0.80428404 -0.59420079 0.0080606136
0.22549057 0.13382393 0.13444731 0.0071557295 -0.80865997 -0.58823282 0.0070218104
0.23390502 0.13447151 0.13315217 0.022380302 -0.81560051 -0.57818246 0.0071280985
0.24488214 0.13210705 0.1378811 -0.005672778 -0.79413265 -0.60771799 0.0096830605
0.25575525 0.1335488 0.13499759 0.0018545958 -0.80951244 -0.58709967 0.0081074294
0.26527575 0.13376123 0.13457273 -0.0073385872 -0.83115929 -0.55598599 0.0065491754
0.27724114 0.13263455 0.13682608 -0.0023234317 -0.80604327 -0.59185207 0.0081182625
0.28283328 0.13264881 0.13679755 0.0030060129 -0.80922973 -0.58748466 0.0076514687
0.29486167 0.13287207 0.13635102 -0.0050373706 -0.80235869 -0.59682089 0.0077938461
0.30676854 0.13481341 0.13246833 -0.0087964656 -0.82860172 -0.55976933 0.0063504451
0.31284592 0.13392612 0.13424292 -0.0016890645 -0.80239141 -0.59679592 0.0088694347
0.32098895 0.13416691 0.13376138 -0.015734345 -0.81167388 -0.58389884 0.0074995686
0.33561337 0.13323915 0.13561687 0.0040187095 -0.79832274 -0.60221648 0.0074527198
0.34426567 0.13311808 0.13585904 0.0054099718 -0.78635675 -0.61774915 0.010577955
0.35553035 0.13396776 0.13415965 -0.031452309 -0.7741316 -0.63224286 0.01671567
0.36560509 0.13472706 0.13264105 -0.11377336 -0.76694447 -0.63154709 0.02883791
0.37473017 0.13544227 0.13121065 -0.24912745 -0.71066827 -0.65794075 0.039996188
0.38337535 0.13359742 0.13379326 -0.35680878 -0.50387645 -0.78663582 0.041545741
-0.061000228 -0.13064681 0.14080153 0.14830858 0.60691148 -0.78080922 0.03477845
-0.044562183 -0.13084337 0.14040841 0.036122855 0.67311138 -0.73865837 0.035427053
-0.025772624 -0.13008334 0.14192849 0.032032482 0.69842148 -0.71496958 0.022643311
-0.0022299066 -0.13030446 0.14148627 0.0061283172 0.74666095 -0.66517651 0.011097126
0.0083299633 -0.13037933 0.14133652 0.021902757 0.73637903 -0.67621452 0.010808333
0.036566727 -0.13058399 0.14092718 -0.0018234164 0.76687491 -0.64179403 0.0096287113
0.044862613 -0.1307579 0.14057936 0.020257402 0.76915377 -0.63874257 0.011550195
0.058666002 -0.13094179 0.14021163 -0.00074575248 0.79934752 -0.60086852 0.0096630016
0.073472671 -0.13022912 0.14163691 0.026509279 0.75433123 -0.65595853 0.01110939
0.081749924 -0.13045891 0.14117736 -0.0071495692 0.78134793 -0.62405461 0.01024715
0.091486193 -0.13047449 0.1411462 0.0061527342 0.78680658 -0.6171689 0.010557599
0.10050299 -0.13024874 0.14159769 -0.0055518062 0.76693565 -0.64170009 0.010578173
0.11366464 -0.13020848 0.14167821 -0.0069814972 0.75735766 -0.65296292 0.011513694
0.12608162 -0.13090572 0.14028375 -0.0037499866 0.76333463 -0.6459924 0.0093717463
0.13972078 -0.13076013 0.1405749 -0.014500979 0.76882327 -0.63929683 0.008729415
0.14735988 -0.13060509 0.14088501 0.0018382352 0.77681094 -0.62973124 0.0083235111
0.17469656 -0.1301153 0.14186455 -0.00047069645 0.75860471 -0.65155107 0.0086194845
0.1823796 -0.13069168 0.14071183 0.01054235 0.77582538 -0.63085961 0.0090724844
0.19771212 -0.13064621 0.14080276 -0.0038127119 0.76969057 -0.63840586 0.0074797613
0.20795155 -0.1304746 0.14114596 -0.0073497784 0.77443874 -0.63260615 0.0079796892
0.23604487 -0.13075767 0.14057983 -0.00031233917 0.75055128 -0.66081214 0.010387256
0.253227 -0.13077681 0.14054157 -0.0071161138 0.78318095 -0.62175316 0.0082320226
0.27577585 -0.13083196 0.14043126 0.0077607846 0.7451154 -0.66689038 0.012357661
0.29663792 -0.13080229 0.14049061 0.0033878125 0.76699358 -0.64164585 0.013341277
0.31763154 -0.13052577 0.14104365 -0.016437506 0.70872158 -0.70529675 0.021509169
0.32134384 -0.13031936 0.14145644 -0.019691387 0.72103596 -0.69261777 0.022715496
0.35320234 -0.13026543 0.14156429 -0.057933584 0.61995012 -0.78249955 0.026642667
0.37098852 -0.13087517 0.14034486 -0.29997736 0.52587062 -0.79591066 0.043767765
-0.063561946 -0.12248167 0.1431628 0.24126482 0.31045929 -0.91945988 0.027482873
-0.05417623 -0.12389145 0.14543694 0.17117392 0.40202293 -0.89948708 0.030612623
-0.04321659 -0.12454066 0.14599054 0.10296483 0.53790718 -0.83669239 0.034907922
-0.035675533 -0.12305882 0.14690635 0.085020758 0.5013988 -0.86102879 0.032567289
-0.024650304 -0.12537469 0.14547507 0.049054533 0.58910304 -0.80656761 0.025311226
-0.013271176 -0.12588482 0.1451598 0.031885549 0.66980362 -0.74185336 0.017537346
-0.0060850633 -0.12419653 0.1462032 0.0085634589 0.66378391 -0.74787533 0.016138619
0.0099240784 -0.12357737 0.14658588 0.0062639238 0.67338836 -0.73926246 0.011347929
0.015342061 -0.12641989 0.14482909 -0.0054304269 0.70683932 -0.70735323 0.011593124
0.026258687 -0.12656727 0.144738 -0.00097958313 0.70446718 -0.70973575 0.010142055
0.035995118 -0.1266378 0.14462309 -0.0045162607 0.72480965 -0.68893445 0.010935954
0.04255835 -0.12721992 0.14429563 -0.021066658 0.70444936 -0.70944154 0.011801014
0.054999571 -0.12288303 0.14701499 -0.0089557692 0.6509285 -0.75908619 0.0091630677
0.065139793 -0.12458619 0.14596239 -0.012238049 0.66402179 -0.74761307 0.010297982
0.075447433 -0.12410516 0.1462597 0.019956375 0.66931134 -0.74271393 0.0097324448
0.087249987 -0.12789321 0.14390253 0.0044757142 0.72437942 -0.68938696 0.012550672
0.097632013 -0.12309102 0.14688645 -0.014705163 0.66553891 -0.74621826 0.0095106848
0.10738769 -0.12411354 0.14625449 -0.0096036317 0.67249203 -0.74004203 0.011164935
0.11455156 -0.12580529 0.14520894 -0.00099498034 0.71653312 -0.69755238 0.01090162
0.12546597 -0.12404639 0.14629601 -0.0094467653 0.65084469 -0.75915211 0.0078650061
0.1320457 -0.12541054 0.1454529 -0.0057557686 0.68740261 -0.72625375 0.01185289
0.14346862 -0.1223208 0.14736247 0.0029295974 0.62206405 -0.78296095 0.0094447928
0.15797988 -0.12470587 0.14588842 0.019769158 0.68817967 -0.72527099 0.0088037224
0.16650017 -0.12411205 0.14625543 -0.016212467 0.68343538 -0.72983098 0.0097158737
0.17326792 -0.12457994 0.14596626 0.00010855409 0.67244631 -0.74014592 0.010053395
0.18604048 -0.1244696 0.14603446 0.0068810754 0.69334882 -0.72056931 0.014019446
0.19357151 -0.12365726 0.14653651 -0.013163919 0.66904646 -0.74310398 0.01218856
0.20435677 -0.12607066 0.14496475 0.0044445908 0.69767624 -0.71639943 0.012145274
0.21649408 -0.12475438 0.14585844 -0.024073586 0.67199308 -0.74016601 0.011615771
0.22528832 -0.1233708 0.14671354 -0.0054117185 0.65997899 -0.75126457 0.01117951
0.23365934 -0.12494606 0.14573999 -0.023143247 0.67123985 -0.74087888 0.010488726
0.24381645 -0.12437395 0.14605027 0.011054105 0.65425491 -0.75619328 0.012128891
0.25646949 -0.12021033 0.14866683 0.020320183 0.53259319 -0.84612739 0.017512929
0.26387009 -0.12605527 0.14505444 -0.0050513619 0.68684667 -0.72678477 0.016133975
0.27459425 -0.12373833 0.1464864 0.011992903 0.63113803 -0.77557784 0.015662704
0.2864483 -0.12783483 0.14391583 0.017846107 0.68523675 -0.72810173 0.017898204
0.29697791 -0.12451857 0.14600417 0.0066500474 0.57631665 -0.81719935 0.024865303
0.30451646 -0.12259065 0.1471957 0.0037385514 0.48856494 -0.87251955 0.020237926
0.31133226 -0.12456983 0.14597251 -0.02590197 0.58414221 -0.81123787 0.028217357
0.32294506 -0.12502292 0.14569248 -0.036828775 0.54476148 -0.83778191 0.02893495
0.33368692 -0.12720242 0.14434546 -0.011029782 0.61077499 -0.79172736 0.028942473
0.34544048 -0.12594239 0.14505914 -0.051696312 0.55710584 -0.82883084 0.027762428
0.35342303 -0.12617584 0.14497994 -0.088203989 0.56149536 -0.82276541 0.032883432
0.36409551 -0.12496579 0.14560251 -0.28118977 0.39893094 -0.87280375 0.036634091
0.37442032 -0.12420742 0.1423652 -0.38587633 0.36791956 -0.84601098 0.037274513
-0.071703091 -0.11477208 0.14018486 0.31484362 0.14921232 -0.93734157 0.018459173
-0.064299718 -0.11459116 0.14291784 0.27346656 0.17980511 -0.94492656 0.01640087
-0.05653635 -0.11317503 0.14516872 0.25175759 0.19192918 -0.94856805 0.016674189
-0.044515871 -0.11520648 0.14795983 0.15621892 0.29134643 -0.94377595 0.019811675
-0.038601421 -0.1165859 0.14933315 0.10022955 0.33026725 -0.93855083 0.019600147
-0.013625021 -0.11952753 0.14908883 0.070806891 0.4654856 -0.88221854 0.02163443
0.0054557445 -0.11861204 0.14965463 0.044801392 0.48252404 -0.87473619 0.015905898
0.01019094 -0.11958775 0.14905159 0.025450543 0.50806415 -0.86094308 0.014192438
0.046330914 -0.11960649 0.14904001 0.0094943652 0.57376385 -0.81896585 0.0061259796
0.07643725 -0.119022 0.14940125 0.0022072778 0.5735873 -0.81914145 0.0068388982
0.10394691 -0.11922067 0.14927846 -0.0020430293 0.62341398 -0.78188932 0.0094965417
0.13961741 -0.11877015 0.14955691 -0.0043911547 0.55023026 -0.83500141 0.007179854
0.14348477 -0.11902935 0.1493967 -0.0033888477 0.55966991 -0.82870871 0.0077117244
0.15095308 -0.11989695 0.14886048 0.0082404856 0.54811442 -0.83636278 0.007199659
0.1808192 -0.11951581 0.14909606 0.0070740646 0.54987484 -0.83521712 0.0079915058
0.19738638 -0.11937949 0.14918029 -0.0012403928 0.54537189 -0.83819324 0.013233657
0.20621979 -0.11832623 0.14983127 0.0096078115 0.53446776 -0.84513426 0.014056755
0.24586624 -0.1189736 0.14943117 0.011686904 0.52099442 -0.8534801 0.018683251
0.26384705 -0.11893962 0.14945215 0.0040220623 0.51627177 -0.85641533 0.019099489
0.27254879 -0.11806963 0.14998984 -0.012067814 0.44244638 -0.89671379 0.015973436
0.28982413 -0.11911481 0.14934389 -0.013126747 0.45450738 -0.89064622 0.017217021
0.29447919 -0.1183162 0.14983746 -0.0082407203 0.42265832 -0.90625167 0.018644506
0.31244743 -0.11843078 0.14976665 -0.027366135 0.4283731 -0.90318751 0.023863776
0.32704979 -0.1199871 0.14880478 -0.0020612008 0.46518251 -0.88521242 0.024255104
0.36696973 -0.11739774 0.14680214 -0.33807918 0.22396453 -0.91408002 0.021790529
0.37337646 -0.11423779 0.14309259 -0.45965701 0.20131443 -0.86497855 0.025695881
-0.067332335 -0.10353246 0.14179833 0.32441148 0.016600715 -0.94577038 0.0011954417
-0.053022042 -0.10439885 0.14598472 0.24611102 0.058648806 -0.96746558 0.0034764654
-0.044151209 -0.10362904 0.1480445 0.21065484 0.059928045 -0.9757219 0.0045329956
-0.037770782 -0.1054156 0.149526 0.16271725 0.10297666 -0.98128438 0.0078108544
0.3566525 -0.10583567 0.14901826 -0.24330434 0.10756779 -0.96396691 0.011902104
0.36342883 -0.10376337 0.14741004 -0.31105104 0.080055527 -0.9470154 0.0096412282
0.37386006 -0.10686199 0.1427556 -0.48286122 0.07944236 -0.87208599 0.013156825
-0.070691243 -0.099456102 0.14055838 0.3438822 0.00074399397 -0.93901253 0.0011366988
-0.066275969 -0.094387271 0.1421883 0.3191002 -0.00062778755 -0.94772083 0.00087114627
-0.045776747 -0.095982358 0.14766707 0.23711729 0.016859474 -0.97133476 0.00083914871
0.35375157 -0.094330348 0.14960673 -0.22159864 0.022459574 -0.97487926 0.0052882363
0.36489969 -0.092909157 0.14734527 -0.39524838 -0.0025661127 -0.91857064 0.0058838995
0.37379134 -0.095534153 0.14280349 -0.51624769 -0.0078906929 -0.85640305 0.0082063498
-0.071097732 -0.086476304 0.14040832 0.35017717 -0.0050805048 -0.93666965 0.0014903725
-0.062451299 -0.088633433 0.1436002 0.2884365 -0.0061679697 -0.95747918 0.00043901202
-0.054112501 -0.085461006 0.14573152 0.25901634 0.00039778202 -0.96587288 0.00033421852
-0.04411792 -0.084952593 0.14805223 0.23665737 1.8499626e-05 -0.97159314 0.00017323997
-0.037607986 -0.083963603 0.14956382 0.20874971 -1.6995493e-05 -0.97796911 0.00025836242
0.35444286 -0.08725892 0.1494665 -0.2296602 0.013366061 -0.9731791 0.0056369239
0.36441597 -0.088006116 0.1474434 -0.38881886 -0.0057793004 -0.92129612 0.0052978573
0.37329713 -0.082092181 0.14314789 -0.44651231 0.011198896 -0.89470738 0.0069485814
-0.064939246 -0.074749008 0.14268175 0.29901192 0.00059381034 -0.95424914 0.00064984319
-0.04626444 -0.074199319 0.14755383 0.24105905 0.0046933838 -0.9704991 0.00023739337
-0.036961857 -0.076000847 0.14971384 0.21272482 0.00026978165 -0.97711211 0.00022788932
0.35646296 -0.076821402 0.1490567 -0.2546111 -0.011768689 -0.96697193 0.0046395883
0.3642818 -0.075026698 0.14747062 -0.36948407 0.00074961997 -0.92923671 0.0069678277
0.37374318 -0.072148271 0.14283708 -0.45943332 0.0016181552 -0.88821077 0.0088526262
-0.063566841 -0.065587357 0.14318839 0.29149932 0.001809711 -0.95656931 0.00057718763
-0.053691115 -0.064132817 0.14582936 0.25920099 0.0022575953 -0.96582079 0.00041720792
-0.047370762 -0.066838555 0.14729692 0.24077895 0.00093527831 -0.97057956 0.00025940334
-0.03993028 -0.060286906 0.14902459 0.21553308 -0.0024857672 -0.97649342 0.0001769972
0.35525805 -0.064825669 0.14930114 -0.23735237 -0.0069520976 -0.97139877 0.0055906833
0.36167935 -0.063106112 0.14799854 -0.32439932 -0.00056382699 -0.94592005 0.0085786926
0.37346295 -0.062012091 0.14303233 -0.4683457 0.01229157 -0.88345981 0.0093422774
-0.071764544 -0.050446074 0.14016217 0.35289419 0.0039933147 -0.9356547 0.0014301731
-0.061853055 -0.054272115 0.14379472 0.2955355 0.0049532889 -0.95531887 0.00064878393
-0.055620704 -0.055122133 0.14538133 0.26181275 0.0034077729 -0.96511263 0.00044977665
-0.04544922 -0.054907437 0.14774311 0.23374631 -0.00064897561 -0.97229737 0.00020350011
-0.038602039 -0.059358194 0.149333 0.21224946 -0.0045837783 -0.97720474 0.00015517695
0.35744345 -0.055375416 0.1488578 -0.27209881 0.0069841547 -0.96224397 0.0043847738
0.36408445 -0.056064006 0.14751065 -0.38630125 0.0065924241 -0.9223491 0.0054057403
0.37375829 -0.054184817 0.14282653 -0.48661008 -0.011955157 -0.87353748 0.0089951251
-0.066963643 -0.048848927 0.14193444 0.32351241 -0.00039259408 -0.9462238 0.00087008195
-0.052792132 -0.048493639 0.1460381 0.25826266 0.0036408254 -0.96606785 0.00037035844
-0.043264415 -0.047187574 0.14825042 0.22616449 -0.00011123198 -0.97408915 0.00026016482
0.35293034 -0.049465902 0.14977333 -0.22007182 -0.0047046659 -0.97547233 0.0049940199
0.36239088 -0.041953791 0.14785419 -0.35777903 0.012049058 -0.93372858 0.0074497126
0.37420356 -0.045437094 0.14251626 -0.50181824 -0.009434389 -0.86492163 0.0088551631
-0.07152994 -0.036957208 0.14024878 0.35711697 -0.0013742682 -0.93405867 0.0010620037
-0.05941594 -0.038541403 0.14450009 0.28394651 -0.0018478392 -0.95883834 0.00056003575
-0.044621956 -0.035607461 0.14793521 0.22951594 0.00067313097 -0.97330469 0.00024115255
0.35636497 -0.032423753 0.14907658 -0.22244066 0.0061866427 -0.97492659 0.0052341847
0.36469203 -0.034672432 0.14735977 -0.36648536 -0.0062336922 -0.93040287 0.0068194745
0.37273768 -0.035271101 0.14353773 -0.47377729 -0.0097950753 -0.8805902 0.010358749
-0.063362643 -0.025236368 0.14326377 0.29302558 -0.0017475137 -0.95610303 0.00066118554
-0.056175612 -0.023738321 0.14525248 0.26859772 0.0024001275 -0.96324939 0.00042816094
-0.044429321 -0.025828319 0.14797993 0.22283679 0.00066666899 -0.97485554 0.00014226134
-0.036719203 -0.027184548 0.14977017 0.20859735 0.0017111662 -0.9780001 0.00017908693
0.35737884 -0.026543483 0.1488709 -0.26678094 0.0019149811 -0.96375525 0.0072266501
0.36210078 -0.027590383 0.14791304 -0.3340444 -0.0084697334 -0.94251931 0.0066537652
0.37141988 -0.022262761 0.14445598 -0.45373058 0.021579769 -0.8908776 0.0094418814
-0.066248685 -0.015083715 0.14219837 0.32308584 0.0015803525 -0.9463684 0.00081661518
-0.05335328 -0.014945947 0.14590782 0.25832421 0.0057800659 -0.96604103 0.0004438078
-0.045683801 -0.018860085 0.14768864 0.23789032 -0.0029284479 -0.97128761 0.00014403857
0.35394937 -0.015437353 0.14956659 -0.212163 -0.014699139 -0.9771238 0.0060399049
0.36403874 -0.017976807 0.14751993 -0.33643183 -0.0032751721 -0.94170219 0.0069059893
0.37373564 -0.01493244 0.14284231 -0.50638437 -0.0067425752 -0.8622815 0.0079223178
-0.070883386 -0.0060077198 0.14048746 0.35043919 0.0022476877 -0.93658268 0.0011324135
-0.064778194 -0.0042866846 0.1427412 0.30240732 -0.0013437707 -0.95317781 0.00087341398
-0.058543518 -0.00038814553 0.14470267 0.27349249 0.00027298622 -0.96187413 0.0005076814
-0.04448694 -0.004668144 0.14796655 0.23341429 0.0015335062 -0.97237611 0.00018696293
0.3556343 -0.0061124866 0.14922482 -0.2412781 0.0014732752 -0.97045487 0.0049682888
0.36734945 -0.0047981008 0.14680988 -0.43370885 0.0076819821 -0.90102035 0.0082504572
0.37364793 -0.0043884921 0.14290343 -0.49948302 0.0076984908 -0.86628944 0.0094899666
-0.064095601 0.0024415955 0.14299093 0.30145139 -0.0016710929 -0.95348006 0.00074590143
-0.055004485 0.0058335066 0.1455244 0.26675823 -0.0015616046 -0.96376216 0.00049095944
-0.041589387 0.004183135 0.14863935 0.21739499 -0.00095127197 -0.97608322 0.00025073049
-0.037049428 0.0036602118 0.14969349 0.21490413 -0.00097917311 -0.97663468 0.00022700272
0.35449147 0.0078072697 0.14945664 -0.25277495 0.0015961655 -0.96752375 0.0048096101
0.3639442 0.0053996188 0.14753911 -0.34309077 0.0016406764 -0.93930078 0.0091226678
0.37414199 0.0056169098 0.14255917 -0.51553392 -0.01089348 -0.8567999 0.0091235554
-0.065529652 0.01315951 0.14243701 0.31377381 0.0015369137 -0.94949651 0.00081751839
-0.055664837 0.01456121 0.14537108 0.26776609 -0.0051641893 -0.9634701 0.00039443551
-0.045659773 0.013992643 0.14769422 0.23078847 0.00029383862 -0.97300392 8.3362349e-05
0.35484937 0.015938401 0.14938404 -0.25352246 -0.0029468704 -0.96732503 0.005187958
