# .PCD v0.7 - Point Cloud Data file format
VERSION 0.7
FIELDS x y z normal_x normal_y normal_z curvature
SIZE 4 4 4 4 4 4 4
TYPE F F F F F F F
COUNT 1 1 1 1 1 1 1
WIDTH 580
HEIGHT 1
VIEWPOINT 0 0 0 1 0 0 0
POINTS 580
DATA ascii
0.49040055 0.085734904 -0.10898104 -0.99966747 0.016331712 0.019954098 0.080173708
-0.48382857 0.097354203 -0.10467418 0.78761274 -0.32797837 0.52162856 0.11812391
-0.47077227 0.093932599 -0.10292998 0.20097937 -0.1098717 0.9734143 0.15340015
-0.46543035 0.094487734 -0.10055632 0.26324075 -0.15556411 0.9521051 0.12947546
-0.45168978 0.091670752 -0.10016116 0.050320737 -0.28918034 0.95595109 0.15548605
-0.44021729 0.092992358 -0.1012606 0.30467969 -0.18442762 -0.93442857 0.25556156
-0.43547902 0.095792688 -0.10135885 0.54841256 -0.42931035 -0.71759063 0.20602998
-0.35898077 0.094741501 -0.10821903 0.94720697 0.2423245 0.20994693 0.028919386
-0.32092732 0.094685182 -0.10691493 0.93804425 -0.20053312 0.28259411 0.086119346
-0.2221439 0.093182966 -0.10273663 0.97548509 0.055699188 -0.21290004 0.050799623
-0.21677931 0.094231218 -0.10937413 0.96041059 0.12764619 -0.24762471 0.082761839
-0.17758533 0.095469266 -0.10354616 0.99650788 -0.075552315 0.03555144 0.11215792
-0.16971684 0.096194804 -0.10403137 0.98055917 0.054232359 0.18858092 0.097583927
-0.083845973 0.094868183 -0.10439329 0.99822783 -0.011620292 0.058363978 0.066583283
0.066286996 0.097393215 -0.10292017 -0.99657542 0.002925619 0.082636721 0.038248193
0.24503967 0.095579535 -0.10531107 -0.96412003 0.1892911 -0.18612234 0.12562303
0.36609557 0.095631219 -0.10433561 -0.90887427 0.077578664 -0.40979144 0.18570526
0.37492678 0.097191878 -0.10549596 -0.94967854 -0.28382048 -0.13250092 0.25709358
0.38544351 0.092250697 -0.10606338 -0.34934708 -0.81049556 0.47016326 0.20151842
0.43518555 0.098424681 -0.10762171 -0.89853084 0.015722586 -0.43862849 0.041579403
0.47682926 0.09185794 -0.10522943 -0.99002123 0.13843268 0.026350755 0.12000863
0.48340094 0.09185794 -0.10082953 -0.97954392 -0.1850749 -0.078999229 0.092586577
-0.47389045 0.10680892 -0.10220668 0.54887569 -0.18006021 0.81628042 0.1808423
-0.46915749 0.10889108 -0.10341265 0.15564597 0.12263858 0.98017049 0.14048494
-0.43248919 0.10378876 -0.10902787 0.80880356 -0.49832207 -0.31226921 0.083498247
-0.4268508 0.10725386 -0.10204887 0.78156662 -0.42014739 -0.46111804 0.047932111
-0.32273686 0.1081788 -0.10108016 0.96443278 -0.025597429 0.26308581 0.038032118
-0.31285435 0.10948817 -0.10895316 0.88492846 -0.03930648 0.46406519 0.040321846
-0.22169188 0.10215933 -0.1011802 0.98178518 -0.015519052 -0.18935959 0.035674989
-0.17685501 0.10702076 -0.10554443 0.99697882 0.041180972 0.065858945 0.094823264
-0.083326899 0.10400613 -0.10060763 0.99929905 -0.022848081 -0.029656097 0.016636133
-0.016890276 0.10068908 -0.10127093 0.97228777 0.046519794 0.22911206 0.078149296
0.065845825 0.10628188 -0.10613763 -0.98784763 -0.038659442 0.15054095 0.070346415
0.23756811 0.10850249 -0.10324298 -0.58818382 -0.80869263 -0.0074870605 0.1709059
0.24453564 0.10474709 -0.10346414 -0.92083001 -0.36530423 -0.1364727 0.21958968
0.36732975 0.1001243 -0.10243113 -0.87952876 -0.41051677 -0.24063508 0.19388224
0.38194358 0.10929318 -0.10686125 -0.9656775 0.25973377 0.0023092076 0.23912707
0.433092 0.10387561 -0.10394762 -0.91316885 -0.073663682 -0.40086943 3.953126e-05
-0.47453907 0.11083691 -0.10098157 0.64248568 -0.16146451 0.74909371 0.17627288
-0.46564826 0.11637013 -0.10351068 0.083071843 0.13477747 0.98738748 0.11815127
-0.45954585 0.11940655 -0.10368114 0.44329369 -0.14936414 0.88384444 0.10390367
-0.42637718 0.11645126 -0.10559513 0.81980664 -0.35439441 -0.44980186 0.006921004
-0.36004233 0.11710104 -0.10292173 0.98858714 0.0042690462 0.15058932 0.0024892634
-0.35905424 0.11741567 -0.10798214 0.97876883 0.0078592226 0.20481665 0.0025719842
-0.32244271 0.11691856 -0.10202867 0.95361847 -0.088165268 0.28781718 0.050834749
-0.315036 0.11603093 -0.10289326 0.930255 -0.23332982 0.28316569 0.078199103
-0.22254992 0.11515585 -0.10355771 0.93790025 0.16210975 -0.30669773 0.061306741
-0.21607447 0.11133666 -0.1071893 0.93486005 0.075237967 -0.34695226 0.037442211
-0.17840162 0.11352469 -0.10714795 0.99495161 -0.045701921 -0.089345708 0.097131982
-0.16823262 0.11354844 -0.10729988 0.9671362 0.077642716 0.24211372 0.10117764
-0.084092557 0.11255138 -0.10619166 0.99866122 0.0026048108 -0.051662181 0.015848825
0.066608608 0.11392744 -0.1005747 -0.97394317 -0.14188306 0.17692879 0.018668665
0.23749952 0.118086 -0.10339487 -0.4300037 -0.90245485 -0.025925472 0.15548468
0.25973675 0.11347648 -0.10562821 -0.74697298 0.65132344 -0.13345136 0.10573027
0.26073909 0.1166808 -0.10864656 -0.79626828 0.59237218 -0.12268712 0.099430889
0.35594529 0.11145739 -0.10395964 -0.88608742 -0.41850692 -0.19925106 0.093162864
0.36152184 0.11055784 -0.10720807 -0.83216161 -0.54334241 -0.11084265 0.18667969
0.38782737 0.11435588 -0.10110238 -0.95646858 0.19425845 0.21778776 0.1323967
0.43116936 0.11783704 -0.10228267 -0.91914135 -0.082495138 -0.38519311 0.00047920292
-0.45734128 0.12844983 -0.10374272 0.77872628 -0.61292136 0.13383844 0.014668669
-0.42251548 0.12294581 -0.10165695 0.83815908 -0.32438546 -0.43847865 0.0021656703
-0.31303108 0.12890571 -0.10846235 0.82372755 -0.30558667 0.4775874 0.14571433
-0.22319157 0.12472247 -0.1062312 0.86894882 0.29939982 -0.39406571 0.10968897
-0.21594551 0.12403677 -0.10662038 0.92557687 0.2032381 -0.31937709 0.070324741
-0.17621058 0.1258437 -0.10489072 0.99049008 0.12806165 0.05029567 0.10489476
-0.16887042 0.12499257 -0.10589531 0.95686883 0.10647913 0.27030393 0.12404535
-0.016760491 0.122082 -0.10155675 0.81697112 -0.56948841 0.090780087 0.11488172
0.20941326 0.12684219 -0.10143392 -0.21184963 -0.97078252 -0.11269849 0.06708318
0.21703225 0.12537481 -0.10726691 -0.32177839 -0.93835175 0.12631206 0.091553815
0.22559319 0.12266622 -0.10323272 -0.57927364 -0.81312859 -0.057131287 0.081304833
0.25978386 0.12077157 -0.10599329 -0.80716729 0.57573509 -0.13042256 0.087335311
0.26064 0.12155481 -0.1083713 -0.80383784 0.58217669 -0.1221274 0.085955828
0.35375962 0.12539712 -0.10996771 -0.91122395 -0.38078025 0.15709019 0.078187793
0.38736033 0.12347633 -0.10369799 -0.94863248 0.28355378 0.14033394 0.058539584
0.43168715 0.12495077 -0.10506242 -0.91486555 -0.080298282 -0.39569345 0.00022761732
-0.45577097 0.130916 -0.10378657 0.77622634 -0.61570531 0.13557145 0.017890675
-0.4473106 0.13996327 -0.1040229 0.40016574 -0.5502522 0.7328642 0.072227158
-0.42160425 0.13191235 -0.107921 0.64982915 -0.18839025 -0.73636347 0.10324575
-0.41873798 0.13266622 -0.10277728 0.64569193 -0.12446625 -0.75338572 0.14673635
-0.36008662 0.13327776 -0.1017849 0.99527335 0.0037596379 0.097039923 0.0046595582
-0.32060027 0.13450214 -0.1079694 0.89741248 -0.17807151 0.40365997 0.097612895
-0.30641124 0.13702911 -0.10521389 0.87572163 -0.084613368 0.4753443 0.21208867
-0.29439387 0.13340572 -0.10655241 0.052850522 -0.99719447 0.053009938 0.15291992
-0.28497282 0.13527644 -0.10539421 -0.096438468 -0.99115759 -0.091137916 0.057740368
-0.27588299 0.13174643 -0.10267249 -0.078835845 -0.9760868 -0.2025822 0.033832852
-0.26788241 0.1322577 -0.10652252 -0.03338496 -0.9839403 -0.17534779 0.033046681
-0.25450748 0.13283387 -0.10397658 0.13009678 -0.98992705 -0.055849858 0.055196736
-0.24487297 0.13513291 -0.10601301 0.066177115 -0.9947983 -0.077439524 0.15008686
-0.23435421 0.13514237 -0.10449906 -0.40959492 -0.8960318 0.17134456 0.23570624
-0.22861521 0.13594384 -0.10540136 0.71730775 0.49080345 -0.49455199 0.21212131
-0.17823535 0.13329127 -0.10641436 0.99712437 0.0025704501 0.07573846 0.11453947
-0.16943038 0.13733782 -0.10466218 0.96855539 -0.094825834 0.23001854 0.094523244
-0.013806459 0.13536464 -0.10278276 -0.96529156 -0.22475998 -0.13302337 0.27324319
-0.0056148078 0.13717172 -0.10149106 0.78512144 -0.60754216 0.12031974 0.20611934
0.0064044036 0.13717173 -0.1033732 0.51448995 -0.79397643 0.32388484 0.21622784
0.026727885 0.13717173 -0.10779252 -0.091248654 -0.89388722 0.43890721 0.18589176
0.045093879 0.13717173 -0.10191828 -0.26056087 -0.96182936 0.083619781 0.17953269
0.057192348 0.13717173 -0.10466117 -0.16994679 -0.96088308 0.21868198 0.23519835
0.065017872 0.13314112 -0.10627656 -0.99589503 -0.00066824228 -0.090513326 0.2593365
0.1364668 0.13984248 -0.1006847 -0.14308241 -0.98939645 -0.024941524 0.062331114
0.14370316 0.13887155 -0.10397886 -0.11877802 -0.99185801 0.045928687 0.067847259
0.15444651 0.13793738 -0.10682896 -0.063057639 -0.99641931 0.05632272 0.085293271
0.16499248 0.13842811 -0.10587551 -0.037546456 -0.99745303 0.06064349 0.093632206
0.17092833 0.13847148 -0.10321513 -0.14222971 -0.98955667 0.023415735 0.097901031
0.18486774 0.13492055 -0.10409179 -0.43946466 -0.8952685 0.073247634 0.096760236
0.19185838 0.1333327 -0.10731363 -0.44418523 -0.88312244 0.15097697 0.064645112
0.35447851 0.13657376 -0.1059722 -0.94443631 -0.22566266 0.23899019 0.096633777
0.38669705 0.13470161 -0.10738434 -0.98071361 0.037192188 0.19187911 0.0050075962
0.43196476 0.13209823 -0.10775869 -0.91750336 -0.092838861 -0.38674086 2.5435891e-05
-0.41485822 0.14242622 -0.10584018 0.60244244 -0.064459883 -0.79555523 0.16646367
-0.40916616 0.14805907 -0.1003696 0.71433949 -0.079881065 -0.69522512 0.14457567
-0.36014166 0.14530008 -0.10037152 0.99762797 0.00014620725 0.068835549 0.003319961
-0.32245395 0.14580669 -0.10199238 0.95975882 0.045665585 0.27708784 0.096294522
-0.31311479 0.14680666 -0.10581058 0.87668967 0.21152192 0.43205741 0.1178855
-0.30775344 0.1440523 -0.10462288 0.82597786 0.37130484 0.42413837 0.18972765
-0.29884827 0.14705703 -0.10934624 0.61239541 0.68096173 0.40157557 0.16340151
-0.28860629 0.14213148 -0.10788228 -0.25474817 -0.93497103 -0.24684542 0.095638976
-0.23411576 0.14459047 -0.1030455 0.6645183 -0.65010804 -0.36847663 0.18567343
-0.22426984 0.14524923 -0.10422571 0.90307063 -0.11874861 -0.41274947 0.12948228
-0.21600339 0.14391318 -0.10687573 0.94047004 -0.022280714 -0.33914569 0.11048888
-0.17016496 0.1409436 -0.10304449 0.96610552 -0.08719369 0.2429761 0.07183224
-0.084179997 0.14621748 -0.10682929 0.99386758 0.096473008 -0.054037809 0.16145094
0.027992122 0.14989662 -0.10434015 -0.065178223 -0.99379313 0.090150319 0.18238743
0.045342285 0.14909832 -0.10464592 -0.13372031 -0.99019486 0.040409718 0.17714262
0.055980943 0.1487157 -0.10527249 -0.080827318 -0.99642164 -0.024719361 0.18450148
0.064788103 0.14765848 -0.10491516 0.062595651 -0.99572653 -0.067900293 0.18040143
0.074661091 0.14769349 -0.10377159 0.21080306 -0.97687209 -0.03581788 0.16947785
0.085484132 0.14672057 -0.10422461 0.032043807 -0.98541027 0.16715179 0.11341307
0.09405683 0.14632167 -0.10622454 -0.082132906 -0.98663276 0.14074832 0.11090521
0.10596814 0.14499712 -0.1056812 -0.12248918 -0.98952281 0.076425955 0.089687794
0.11478612 0.14401814 -0.10448829 -0.12211238 -0.99161917 0.042189948 0.079487957
0.12478764 0.14265189 -0.10521718 -0.15052392 -0.98455226 0.089439675 0.075544313
0.13539644 0.14243072 -0.10670902 -0.13890064 -0.98247617 0.12428689 0.076154351
0.14556053 0.14333928 -0.1030512 -0.13757297 -0.99016768 -0.025332034 0.06355194
0.15815413 0.14251673 -0.10714426 -0.0087143695 -0.99993861 -0.0068417913 0.092195533
0.16451557 0.14560063 -0.10454631 0.074131578 -0.99354738 -0.085837923 0.11439032
0.26623142 0.14773363 -0.10265741 -0.95568562 -0.23878068 -0.17218857 0.15516506
0.27793482 0.14403574 -0.10696292 -0.13863578 -0.98645067 -0.087722771 0.19934389
0.28494993 0.14562848 -0.10474135 -0.15309618 -0.98773712 -0.030609023 0.041204706
0.29316184 0.14277165 -0.10543217 -0.10688955 -0.99134237 -0.076255918 0.011620006
0.3073841 0.14195731 -0.10892446 -0.015183476 -0.98554629 -0.16872479 0.011930887
0.31445736 0.14255789 -0.10107504 0.074701823 -0.99366558 -0.083954521 0.013724222
0.32368153 0.14243777 -0.10667743 0.10577204 -0.99174309 -0.072512053 0.021732362
0.33472142 0.14399798 -0.10473207 -0.039077472 -0.99912131 -0.015153073 0.14279792
0.34502149 0.14485365 -0.10580891 -0.96092165 -0.07821168 0.26554185 0.19218963
0.35220632 0.14533523 -0.10261752 -0.97158617 0.1491929 0.18374376 0.19176552
0.38714132 0.14819305 -0.1049152 -0.99146032 -0.013983928 0.12965634 0.0027708043
0.42880625 0.14421073 -0.1027372 -0.88786614 -0.076499231 -0.45369777 0.054858744
0.43024457 0.14165187 -0.10645013 -0.88799179 -0.02932002 -0.45892349 0.05294051
-0.4334819 0.1513523 -0.10440918 0.41437268 -0.26773071 0.86983657 0.16076501
-0.42837745 0.1540696 -0.10455175 0.3704232 -0.43028677 0.82318896 0.15218221
-0.40981787 0.15166783 -0.10587542 0.59522307 -0.19273944 -0.78010327 0.1760897
-0.35953465 0.15644793 -0.106433 0.98121715 0.0094846431 0.19267295 0.0041967835
-0.32014668 0.1596799 -0.109432 0.90198243 0.13896933 0.40879732 0.048198894
-0.3136591 0.15714011 -0.10671787 0.87703311 0.1537284 0.45517084 0.076400153
-0.22227955 0.15456113 -0.10396232 0.88977063 -0.23629908 -0.39047533 0.071817867
-0.2161091 0.15408486 -0.10655768 0.90271842 -0.17577885 -0.39268479 0.061700288
-0.17797473 0.15376997 -0.10526441 0.99459893 0.026446287 0.10036717 0.081118636
-0.083890423 0.15400326 -0.10471743 -0.03265829 -0.99927086 -0.019776836 0.24857904
-0.05662851 0.15689588 -0.10577916 0.039022963 -0.97733593 0.20806643 0.1115589
-0.043231986 0.15463811 -0.10361648 -0.14108464 -0.97980148 0.14171843 0.09718664
-0.036847576 0.15357095 -0.10704988 -0.26128292 -0.93285471 0.24801882 0.13771962
-0.025858259 0.15359452 -0.10503598 -0.31925941 -0.94533402 0.06646166 0.1694738
-0.01757744 0.15323624 -0.10595722 -0.19332205 -0.98007572 -0.045586798 0.20153116
-0.0063483617 0.15256889 -0.10473863 -0.17748471 -0.97815627 -0.10821051 0.20223071
0.0048079784 0.15177007 -0.10541606 -0.029433049 -0.99736726 -0.066273987 0.20452288
0.013884023 0.15152301 -0.10450869 -0.032794777 -0.99926305 0.019946052 0.17994921
0.025053587 0.15061374 -0.10592438 -0.16371329 -0.97739947 0.13374712 0.18663591
0.034513708 0.15052052 -0.10657875 -0.14190006 -0.98352373 0.11200598 0.18425992
0.04165297 0.1500693 -0.10057474 -0.17740475 -0.98335564 0.039233714 0.16063361
0.075462632 0.15931591 -0.10386316 -0.0094056707 -0.9990254 0.0431231 0.11938402
0.083499707 0.15859906 -0.10582844 -0.09290345 -0.99554127 0.016326943 0.085016087
0.096616626 0.15729503 -0.10462978 -0.093732342 -0.9944424 -0.047944695 0.10044792
0.10667059 0.15608695 -0.1045323 -0.077947393 -0.99589491 -0.046015494 0.086379886
0.11455952 0.15487488 -0.10788676 -0.19329201 -0.96592832 -0.17210652 0.11294658
0.1249677 0.1538199 -0.10543778 -0.12136444 -0.98905361 -0.083926387 0.087047882
0.13660711 0.15235764 -0.10716432 -0.13744716 -0.98693955 -0.084015653 0.094929643
0.14348742 0.15151519 -0.10811387 -0.12832859 -0.98909914 -0.072213225 0.086135462
0.15447709 0.15014842 -0.10996683 0.12567426 -0.98940438 -0.072697788 0.12534052
0.16449967 0.15165488 -0.10285281 0.30095771 -0.95107806 -0.069821753 0.11303939
0.17959784 0.15540044 -0.10507652 -0.78690195 0.54545629 0.2885527 0.20129624
0.18027858 0.15512925 -0.10345612 -0.81934643 0.49728411 0.28527156 0.20099969
0.22779587 0.1555557 -0.10718779 -0.97087902 -0.082927004 -0.2247602 0.11296961
0.25947082 0.15532178 -0.1024614 -0.90520197 -0.40558061 -0.12694001 0.084953301
0.26581028 0.15309055 -0.10581088 -0.76645887 -0.57091302 -0.2942774 0.111394
0.27318341 0.15128744 -0.10709354 -0.62116438 -0.75724632 -0.20182361 0.11709597
0.33970317 0.15182365 -0.10624067 -0.666511 0.71296954 0.21780196 0.1642471
0.34327394 0.15188134 -0.1045782 -0.84923202 0.46478358 0.25056159 0.16358738
0.35451996 0.15429282 -0.10574184 -0.93804789 0.25715932 0.23223932 0.081764564
0.38758695 0.15941088 -0.10243846 -0.97461349 0.0001837899 0.22389409 0.095286861
0.45574594 0.15571621 -0.10511061 -0.36788696 -0.89444453 -0.2542209 0.12429261
-0.42433152 0.16279013 -0.10362329 0.32875153 -0.48293775 0.81159937 0.15971695
-0.41729978 0.16740817 -0.10452887 0.338898 -0.51565427 0.78692359 0.15324883
-0.40119094 0.16707227 -0.10096569 0.63183331 -0.59121972 -0.50124437 0.1425935
-0.36002463 0.16491553 -0.10337678 0.93671566 0.21872088 0.27335876 0.11239249
-0.35967329 0.16495749 -0.10568345 0.94323498 0.20702192 0.25971067 0.075714059
-0.2154624 0.1651846 -0.10448875 0.90489733 -0.20448501 -0.37329155 0.063686274
-0.17748046 0.16628452 -0.10308351 0.91938281 0.39034593 0.048635025 0.18836705
-0.16174856 0.16174099 -0.10622509 0.31829619 -0.91538072 0.24650694 0.16823898
-0.1457483 0.16591845 -0.10533514 0.066123471 -0.98442775 0.16287953 0.1066739
-0.13370614 0.16369338 -0.10664271 -0.12761043 -0.98864263 -0.079380177 0.078352533
-0.12639856 0.16541755 -0.10828836 -0.13508777 -0.98934853 -0.054228839 0.066407412
-0.11677064 0.16362192 -0.10350314 0.00039206451 -0.99780869 -0.066163629 0.021602802
-0.094147839 0.1640175 -0.10695395 -0.18789928 -0.9696061 -0.15670925 0.086785451
-0.074915498 0.16487904 -0.10793287 0.097081982 -0.97677982 -0.19098796 0.11830068
-0.064456753 0.16501805 -0.10439004 -0.042199533 -0.99893105 -0.018865092 0.086629428
-0.056183595 0.16388142 -0.10558084 -0.12358126 -0.99228334 -0.010074787 0.093837611
-0.047303274 0.1643413 -0.109603 -0.11165238 -0.98680484 -0.11725996 0.1074418
-0.035897225 0.1646587 -0.10269523 -0.075027078 -0.99630201 0.041873358 0.071345374
-0.024227813 0.16439104 -0.1035235 0.00026382951 -0.99966717 0.025795862 0.087123454
-0.0016705198 0.16398141 -0.10352668 -0.067267589 -0.99086422 -0.11688926 0.16175613
0.0074380836 0.16379832 -0.10374216 0.088867486 -0.98091668 -0.17293081 0.18540852
0.015089743 0.16356671 -0.10368179 -0.083356313 -0.99177688 -0.097109959 0.17301653
0.024074938 0.16293767 -0.10439219 -0.22074912 -0.974087 0.049238577 0.14630131
0.03413716 0.16213065 -0.10547006 -0.18261765 -0.97329974 -0.13906214 0.17211801
0.04042333 0.16175187 -0.10453209 -0.20206663 -0.96385825 -0.17362703 0.17824626
0.055813964 0.16068135 -0.10417902 -0.035955023 -0.99702632 -0.068160228 0.16770922
0.18453529 0.16803484 -0.1002829 -0.64799982 0.69211709 0.31791541 0.030846974
0.2273235 0.16819599 -0.10156251 -0.39841929 -0.91689074 0.023947293 0.19280028
0.25944495 0.16479012 -0.10215311 -0.79992056 -0.59681332 -0.062777393 0.060694557
0.2607539 0.16454487 -0.10868765 -0.76086825 -0.58646411 -0.27773967 0.073486723
0.35466176 0.16556767 -0.10495365 -0.84013486 0.51852971 0.15906072 0.085565157
0.42404631 0.16691738 -0.10407192 -0.79436803 -0.30620062 -0.52461463 0.038921241
-0.41556984 0.1707381 -0.10228164 0.37108523 -0.66351998 0.64964378 0.13631716
-0.39294317 0.17444606 -0.10083058 0.57829928 -0.76817757 -0.27472383 0.077812679
-0.38996744 0.17723024 -0.10245966 0.53741026 -0.79801601 -0.27269161 0.04656494
-0.35935843 0.17865396 -0.10700134 0.69767696 -0.60425413 0.38486871 0.19026998
-0.31502762 0.17402345 -0.10291661 0.93321204 0.16354917 0.31994832 0.068117276
-0.22243997 0.17456505 -0.10400273 0.89927888 -0.29940385 -0.31883338 0.078802943
-0.21508211 0.17405829 -0.10281076 0.82490301 -0.46235219 -0.32521585 0.091048777
-0.17761867 0.17633119 -0.10369328 0.79495764 0.29904658 -0.52783853 0.24370794
-0.14947893 0.17376001 -0.10096285 -0.30492479 -0.93294156 0.19141814 0.22291051
0.18759835 0.17269406 -0.10501277 -0.59483451 0.76688057 0.24096917 0.035957985
0.2039104 0.17820683 -0.1046732 0.11088513 -0.96103859 -0.25319812 0.033681687
0.22781122 0.17167163 -0.10737044 -0.1872931 -0.95887244 -0.21327233 0.20632826
0.23493354 0.17695135 -0.10906998 -0.082223482 -0.98967785 -0.11737542 0.1556216
0.24698719 0.17689851 -0.10977855 -0.23824714 -0.96821988 -0.076082841 0.12126017
0.25699449 0.17472553 -0.10599707 -0.61900318 -0.75876284 -0.20276606 0.079016209
0.35604882 0.17454076 -0.10410753 -0.70086026 0.70931602 0.075271584 0.078233942
0.36027867 0.17603043 -0.1086155 0.29371637 -0.95404452 -0.059410952 0.10789428
0.37920046 0.17711455 -0.10413845 -0.023805538 -0.9964391 0.080885381 0.11222359
0.38693565 0.17141199 -0.10605802 -0.82112938 -0.20324166 0.53332853 0.13591807
0.41904065 0.17474493 -0.10649695 -0.70379484 -0.57133579 -0.42219448 0.027452875
0.42207295 0.17205971 -0.10807819 -0.73548865 -0.3893443 -0.55449748 0.035542842
-0.38229829 0.18401819 -0.10769822 0.22270021 -0.71240848 0.66549134 0.10535594
-0.37747562 0.18662091 -0.10151252 0.19654088 -0.90350306 0.38085949 0.11923805
-0.35882866 0.18191496 -0.10507461 0.61282009 -0.75180328 0.24339975 0.19148207
-0.32511869 0.18580227 -0.10561228 0.61733854 0.75539225 0.21971738 0.0599797
-0.31811306 0.18126962 -0.10829163 0.69809723 0.64941978 0.30151984 0.06638734
-0.22168079 0.18070611 -0.10111851 0.80145591 -0.49613932 -0.33393741 0.091765568
-0.21576615 0.18219602 -0.10471515 0.73249102 -0.58542222 -0.34747359 0.087089606
-0.1849961 0.18822327 -0.10789509 -0.095700711 -0.96052974 0.26119718 0.23871295
-0.1498839 0.18421032 -0.103706 0.77695024 0.62813318 0.042391632 0.1086386
0.21741629 0.18063635 -0.10602496 -0.15339822 -0.98707175 -0.046458673 0.099703066
0.22540635 0.18216464 -0.10672113 -0.20752837 -0.9779613 0.022882871 0.11389981
-0.3344399 0.19099949 -0.10115162 -0.32319298 -0.94285411 -0.081071809 0.076016419
-0.2021586 0.19177918 -0.10874574 0.12943141 -0.99106795 -0.032122009 0.070325397
-0.19417387 0.19161078 -0.10479156 0.15797178 -0.98462331 0.074577518 0.12304729
-0.16578957 0.19749896 -0.10233639 0.039125253 -0.99918842 -0.0095716817 0.15120317
-0.15867034 0.19517256 -0.10158816 -0.50401884 -0.83851641 -0.20701502 0.15012842
-0.36301723 -0.19299228 -0.094190538 0.31592673 0.92845625 0.19534412 0.12711094
-0.3503738 -0.19158396 -0.091806091 0.14085299 0.9771772 0.15901269 0.11782205
-0.19709305 -0.19288023 -0.094578594 0.23910028 0.96826226 0.072795197 0.073148772
-0.18689148 -0.19108887 -0.097246446 0.30957347 0.94996607 0.041577075 0.19332835
-0.17320445 -0.19862667 -0.09131372 0.020028412 0.99546188 0.093029298 0.092452243
-0.16468862 -0.1969178 -0.095074542 -0.20670845 0.97834039 0.011029312 0.1332791
-0.15786037 -0.19355296 -0.095882855 -0.39016014 0.91126436 -0.13180412 0.13094941
-0.38242739 -0.18221799 -0.095959097 0.34344941 0.93390805 0.099288724 0.13427185
-0.37426525 -0.18766543 -0.096087366 0.31253967 0.94035518 0.13435431 0.12891978
-0.35885128 -0.18478505 -0.099518865 0.35539529 0.9043476 0.23632503 0.13858683
-0.3240959 -0.18344945 -0.095249809 0.71173966 -0.69923609 0.067049347 0.10049111
-0.31806394 -0.18154608 -0.09219636 0.94537836 -0.32314453 0.042863298 0.07737302
-0.2206862 -0.18055737 -0.090704523 0.98880792 0.14771086 -0.020985501 0.069541879
-0.21476406 -0.18341509 -0.0935442 0.67301327 0.73948115 0.014856346 0.077973001
-0.18024081 -0.1861372 -0.093350321 -0.071128175 0.92349249 0.37696457 0.23488086
-0.15242772 -0.18725918 -0.098508008 0.79794508 -0.58261716 0.15440451 0.15090916
0.21848246 -0.18029377 -0.099342003 -0.06975475 0.99727869 0.023864465 0.065062501
0.22406703 -0.18113811 -0.098124273 -0.17548171 0.98245203 0.063198902 0.084132656
0.23476498 -0.18321484 -0.090974838 -0.21369322 0.97569078 0.048608705 0.086295046
0.40367332 -0.18123727 -0.093744107 -0.14906539 0.97792768 0.14641356 0.091821834
-0.41782144 -0.17038772 -0.098943643 0.29163015 0.87900233 0.37723559 0.15514146
-0.3906467 -0.17491436 -0.092391327 0.51735181 0.80364048 -0.29412436 0.073252223
-0.36105102 -0.17517011 -0.092901617 0.8513431 -0.055480167 0.52166742 0.22586136
-0.32416916 -0.17092188 -0.096035317 0.97746146 -0.14296569 0.15533808 0.070653379
-0.22089265 -0.175072 -0.093249269 0.9946081 0.09494213 -0.041721381 0.068332426
-0.17717864 -0.17590387 -0.096490145 0.9190011 -0.22860546 -0.32121095 0.26807818
-0.15097739 -0.17726114 -0.092530876 0.77800733 -0.60617566 0.16509263 0.20918937
0.19544306 -0.17300294 -0.093962014 -0.58396667 -0.76688129 0.26622561 0.03748244
0.20674291 -0.17766029 -0.093833692 0.22451307 0.96448302 -0.13916342 0.064596869
0.21838617 -0.17978907 -0.093925536 -0.027188946 0.99700761 -0.072364628 0.079098523
0.24486171 -0.17180251 -0.093648702 -0.4208205 0.90712041 0.0065350528 0.11293147
0.25295085 -0.17032732 -0.095068768 -0.58525676 0.81082559 0.0060323114 0.10514764
0.35989439 -0.17029089 -0.092523783 -0.65617055 -0.75253755 -0.055924077 0.10868179
0.36321589 -0.17066948 -0.095169649 -0.62447035 -0.78006154 0.039253477 0.10804389
0.41505566 -0.1749007 -0.094249792 -0.65749621 0.64149618 -0.39519808 0.079948448
0.42060655 -0.17067999 -0.095517315 -0.76018566 0.44749302 -0.47102833 0.027910603
-0.42770249 -0.16325282 -0.099046171 0.38706455 0.65315044 0.65082681 0.14153226
-0.40060124 -0.16438434 -0.095938407 0.50238293 0.67873943 -0.53565305 0.11263289
-0.39878091 -0.16654386 -0.093258336 0.54522413 0.67109996 -0.50234997 0.10870139
-0.36104304 -0.16495523 -0.093106911 0.95631468 -0.11471401 0.26889202 0.11182789
-0.22119728 -0.16137764 -0.09499424 0.97675234 0.19253744 -0.094255999 0.066666171
-0.21444568 -0.16635425 -0.09727402 0.9907499 0.094250023 -0.097629294 0.054981396
-0.17217539 -0.161741 -0.096064724 0.51038218 0.85701489 0.070961423 0.25931793
-0.16062543 -0.16174099 -0.097085111 0.30564222 0.95201606 0.015754469 0.17062688
-0.15765843 -0.161741 -0.098939821 0.35498828 0.93442041 0.029012177 0.15439622
-0.14322539 -0.16553453 -0.095058694 -0.020820715 0.99287415 -0.11733427 0.11358287
-0.13426852 -0.165913 -0.094717532 -0.1772128 0.98415548 -0.0057992758 0.078815438
-0.12840579 -0.16527583 -0.092990242 -0.12399946 0.9921062 -0.01869054 0.038004138
-0.11383951 -0.16595824 -0.098154686 -0.0099732671 0.99943739 -0.032019958 0.0095690684
-0.10281358 -0.16434281 -0.094434701 -0.053004276 0.99808258 0.031965069 0.013838296
-0.094101019 -0.16496612 -0.094205715 -0.19097202 0.98140126 0.019524423 0.096795969
-0.086320281 -0.16315342 -0.09574461 -0.13697211 0.98919696 0.052229203 0.12694991
-0.074017741 -0.16587386 -0.09459351 0.022733666 0.99939311 0.026393432 0.073236935
-0.064369597 -0.16559303 -0.096813276 -0.035814177 0.99780655 -0.055672407 0.052327029
-0.055852108 -0.1638394 -0.096685961 -0.14742604 0.98903823 0.008301775 0.042117439
-0.045429606 -0.1654359 -0.094462231 -0.16867803 0.98516047 0.03172823 0.055741731
-0.025124405 -0.16523544 -0.092450321 -0.022682661 0.99906439 0.036823232 0.094744764
-0.012471616 -0.16499217 -0.092787199 0.069641188 0.99560696 0.062585942 0.12458736
-0.0046792021 -0.16454986 -0.096798323 -0.043008566 0.9977349 0.051722795 0.12074272
0.0044255522 -0.16450021 -0.095266029 -0.095455892 0.99497736 0.030136809 0.13665007
0.015159031 -0.16430044 -0.094434872 -0.11943098 0.99275249 0.013370507 0.14018837
0.023372579 -0.16380258 -0.093924053 -0.19958189 0.97916561 0.037440594 0.13144541
0.03589122 -0.16281401 -0.095066294 -0.0087196426 0.99987048 -0.013528469 0.18251251
0.045075495 -0.1622144 -0.094289169 -0.08915098 0.99536616 0.036032725 0.16073512
0.053746141 -0.16171259 -0.092729591 0.069997035 0.99273348 0.097881161 0.13118315
0.063855484 -0.16079842 -0.095161997 0.015506012 0.98435044 0.17553867 0.13054158
0.18650031 -0.16747773 -0.09626697 -0.65936559 -0.69348276 0.29037684 0.040736616
0.25702858 -0.16791473 -0.095831037 -0.68879259 0.72490764 -0.008586227 0.075894907
0.35591593 -0.16826792 -0.09588062 -0.84967059 -0.51756239 0.10094118 0.075679347
0.36274621 -0.16973881 -0.098913282 -0.46022981 -0.88738286 0.027205845 0.1149931
0.38795209 -0.16405836 -0.094134614 0.20229976 0.86945957 0.45068267 0.22511536
0.42323592 -0.16445209 -0.096514918 -0.78505224 0.31111836 -0.53562891 0.034251172
-0.4393481 -0.15288863 -0.096311755 0.61287194 0.69895446 0.36857927 0.098103687
-0.40614346 -0.15149851 -0.097254284 0.6355716 0.28729016 -0.71659833 0.11747787
-0.36098349 -0.15367086 -0.094635457 0.99887121 -0.016618894 0.044498786 0.0022122129
-0.32412565 -0.15750805 -0.095677406 0.97730011 -0.18857892 0.096553355 0.066303946
-0.31708804 -0.15172657 -0.096092738 0.96535885 -0.22578785 0.13077544 0.096516408
-0.22073337 -0.15353298 -0.09134233 0.98075908 0.17400444 -0.088509791 0.091224588
-0.21432459 -0.15174082 -0.095417187 0.98927522 0.10622974 -0.10024834 0.076218739
-0.17470537 -0.15611407 -0.096558638 0.99847895 0.0539863 0.011191176 0.15367877
-0.082108192 -0.15913862 -0.091719642 -0.036262453 0.99911213 0.021448178 0.13120981
-0.053946748 -0.15605773 -0.093531542 -0.1652125 0.98615265 -0.014409888 0.045222215
-0.044482313 -0.15413406 -0.093649372 -0.1932551 0.98114628 -0.0021264527 0.050838772
-0.036680698 -0.15402909 -0.096359752 -0.28748685 0.9577083 0.012082432 0.11640846
-0.021368433 -0.15416253 -0.092798233 -0.17734361 0.97386283 -0.14191665 0.17407246
-0.016588802 -0.15384644 -0.096514799 -0.16842061 0.98368108 -0.063293204 0.1847944
-0.0046764412 -0.15308142 -0.093192272 -0.079728752 0.99151421 0.10267828 0.2108819
0.004489114 -0.15179546 -0.094033651 -0.0053578052 0.99820226 0.059694856 0.21456137
0.015432896 -0.15132128 -0.094950281 -0.18787988 0.9821431 -0.0098048802 0.19665073
0.024645956 -0.15117787 -0.096292742 -0.15501937 0.98772478 0.019204907 0.18213643
0.036469221 -0.15041545 -0.094718978 -0.094190545 0.99506348 -0.031254407 0.17828976
0.079938211 -0.15972698 -0.094251484 -0.041091166 0.99773133 0.053324699 0.1059419
0.081812501 -0.15968734 -0.093024582 -0.10211658 0.99392807 0.040976979 0.099943265
0.093427099 -0.15822411 -0.097572088 -0.1293195 0.98988169 0.058401242 0.08623343
0.10481732 -0.15716605 -0.093427896 -0.19006278 0.9767257 0.099413015 0.075006746
0.11361 -0.15572715 -0.098308921 -0.10676946 0.9934054 0.041786104 0.075309105
0.12610607 -0.15447159 -0.094993584 -0.16042995 0.97995752 0.11809115 0.080216318
0.13628942 -0.153418 -0.092686377 -0.12722918 0.98922223 0.072471261 0.081628159
0.14172649 -0.15267718 -0.093770258 -0.15598461 0.9859435 0.05986743 0.073955029
0.15295786 -0.15106103 -0.098206878 -0.050086606 0.99836957 0.027378509 0.073855668
0.16280419 -0.15062217 -0.093538485 0.14490664 0.98471344 -0.096651867 0.10506073
0.25921547 -0.15651764 -0.094728924 -0.8695817 0.49377066 0.0042577442 0.060048651
0.35601231 -0.15396854 -0.09606079 -0.87856698 -0.47748414 0.011352964 0.060231671
0.38783795 -0.15019508 -0.092774987 -0.99422461 0.10348219 -0.028439585 0.0075972225
0.42758429 -0.15381226 -0.099278726 -0.80817032 0.18180291 -0.56018603 0.070668548
0.45811477 -0.15381444 -0.097143218 -0.67980325 0.70322251 -0.20819612 0.04897375
0.46050051 -0.15021864 -0.09779425 -0.85934591 0.50813979 -0.057606887 0.013843772
-0.45238554 -0.14078143 -0.091612436 0.72992468 0.6834268 -0.0117379 0.014953744
-0.44434997 -0.14799675 -0.092485622 0.68354911 0.72945094 -0.025728585 0.015736934
-0.4073371 -0.14582646 -0.09357737 0.63383138 0.24838279 -0.73250508 0.13163182
-0.36083436 -0.14267084 -0.098464727 0.997096 -0.0053373403 0.075967036 0.0033561429
-0.32420468 -0.14395623 -0.094366223 0.99796295 -0.029836407 0.056389235 0.096484154
-0.31424099 -0.14464727 -0.095762245 0.98337871 -0.098199025 0.15271921 0.1193393
-0.30532706 -0.14422821 -0.097165972 0.78873378 -0.57455349 0.21860325 0.1997934
-0.23281939 -0.1444544 -0.093668602 0.74850446 0.6461814 -0.14896521 0.19007635
-0.22718906 -0.14445426 -0.094921388 0.89651895 0.38465565 -0.21975842 0.17608616
-0.21387619 -0.14596385 -0.093045332 0.99559444 0.093653023 0.0045631211 0.10480975
-0.17432332 -0.1438171 -0.097033054 0.97679734 0.19817178 0.081209503 0.095414117
-0.082596861 -0.14005099 -0.095283523 0.99499255 -0.074338935 -0.066809885 0.034051701
0.044696063 -0.14961316 -0.094469011 -0.024014089 0.99968576 0.0071888305 0.18422179
0.056899678 -0.14872287 -0.093434773 0.053551354 0.99522507 0.081604704 0.1782726
0.064892225 -0.14800532 -0.096437208 0.14397173 0.98763365 0.062063415 0.18867864
0.074933946 -0.14746597 -0.094059989 0.32454872 0.93617278 -0.13508776 0.19482814
0.08646474 -0.1468776 -0.098721363 0.049490716 0.9977591 0.045025945 0.11462983
0.092968673 -0.14616022 -0.095364071 -0.064432032 0.99630672 0.056757584 0.095669776
0.10180955 -0.14444688 -0.097259723 -0.12504709 0.98831707 0.087135978 0.075118296
0.11529198 -0.14400171 -0.094748467 -0.056961544 0.99795115 0.029133555 0.073888741
0.12476844 -0.1438525 -0.093357652 -0.13719189 0.98685312 0.08543539 0.077727735
0.13475373 -0.14210624 -0.097469732 -0.15083261 0.98665512 0.061328944 0.072116941
0.14554019 -0.14335795 -0.093567118 -0.14098027 0.98946124 0.03303083 0.071179658
0.15357794 -0.14283645 -0.094212271 -0.055648334 0.99844027 0.0044937315 0.070902094
0.16440018 -0.1428902 -0.095166326 0.022814831 0.99930197 -0.029581692 0.093637876
0.17825748 -0.14813915 -0.097951129 0.13795634 0.9784655 -0.15353619 0.24116965
0.18076189 -0.14825132 -0.090367578 0.35937515 0.85408676 -0.37601233 0.23153187
0.22703993 -0.14036 -0.095157519 -0.99345583 -0.10929547 0.033165947 0.12909772
0.25927293 -0.14704874 -0.097076416 -0.87528938 0.45751244 -0.15668757 0.11235367
0.26423383 -0.14360867 -0.094452284 -0.9700473 0.24034831 -0.03522769 0.16897912
0.27304655 -0.1439151 -0.096764714 -0.51481444 0.85509813 -0.061427753 0.16484192
0.28397501 -0.14010729 -0.099889338 -0.14232755 0.9898119 0.0038951414 0.033387221
0.32596156 -0.14010729 -0.095800579 0.12258382 0.99162251 -0.04071939 0.010431172
0.33675003 -0.14295101 -0.094546027 0.2667264 0.96350157 -0.022838393 0.048488379
0.34440652 -0.14453177 -0.09503416 -0.59220868 -0.80429274 0.049011625 0.13860822
0.35291719 -0.14404719 -0.094338343 -0.89302605 -0.44485825 0.067865111 0.1026505
0.38799974 -0.14630054 -0.094702199 -0.99594182 0.089159817 0.012263395 0.009003208
0.42803156 -0.14424528 -0.097958401 -0.92584157 0.13439271 -0.35320812 0.0024739469
0.45822501 -0.14973348 -0.091408059 -0.87079465 0.49144813 -0.013977851 0.013080652
0.4620288 -0.14392519 -0.092986807 -0.89012653 0.45547363 -0.014780796 0.016429083
-0.46163622 -0.13042961 -0.099816509 0.79549456 0.59996533 0.085029155 0.020700194
-0.45373756 -0.13957112 -0.091495447 0.73426265 0.67862523 -0.01805887 0.014498913
-0.41515112 -0.13258255 -0.095162265 0.83602345 0.16301355 -0.52391922 0.057360839
-0.36089051 -0.1373374 -0.097022928 0.99774337 0.0086007686 0.066590078 0.0038822934
-0.32407063 -0.13440539 -0.098564334 0.98842674 0.055490952 0.1411856 0.12927248
-0.31453061 -0.1332145 -0.093824774 0.99588585 0.042804521 0.079870299 0.19094965
-0.30693638 -0.13484339 -0.092318341 0.4141261 -0.90905464 -0.046034928 0.22246279
-0.29579514 -0.1325188 -0.094940774 0.15130728 0.98807317 -0.028591955 0.1394189
-0.28515553 -0.13342096 -0.097782776 -0.13764212 0.98653519 -0.088334508 0.033213623
-0.27504075 -0.13266243 -0.091566175 -0.061971571 0.99802756 -0.010024308 0.0090098996
-0.263466 -0.13204861 -0.096117042 0.08631938 0.98628074 -0.14071004 0.026578233
-0.25542936 -0.13238177 -0.0942389 0.14157587 0.98101532 -0.13253383 0.02692488
-0.24388286 -0.1317417 -0.097118527 -0.084351607 0.99636155 -0.012180825 0.098815493
-0.2337103 -0.13671549 -0.094824396 0.0061120684 0.9946925 -0.10271052 0.24452719
-0.22704801 -0.13583928 -0.096905932 0.94771057 -0.23770839 -0.21293047 0.24377163
-0.021009542 -0.13433373 -0.092199549 0.92473555 -0.061697736 0.37557647 0.21052259
-0.017266592 -0.13717178 -0.092358619 -0.92750257 0.32593042 -0.1830525 0.26443204
-0.007856641 -0.13717178 -0.096646547 0.78097868 0.58953005 0.20622014 0.24205856
0.005733381 -0.13717178 -0.094140157 0.24263531 0.96097553 0.13286901 0.19991955
0.021051846 -0.13717178 -0.090755023 0.034211472 0.99847698 -0.043281462 0.18323585
0.036987253 -0.13717178 -0.095850743 -0.0046152226 0.99824452 0.059047397 0.18233769
0.042467386 -0.13717178 -0.097610094 -0.24768339 0.95840037 0.14185098 0.18574959
0.0520854 -0.13717178 -0.09382005 -0.29771343 0.9524315 -0.065121643 0.21549337
0.13744374 -0.13973562 -0.094594911 -0.11961658 0.992432 0.027759738 0.072850503
0.14660241 -0.13852505 -0.09382274 -0.15258962 0.9882679 0.0065522864 0.067422368
0.15270989 -0.13797568 -0.094367802 -0.066981308 0.99773937 0.0054506594 0.071657576
0.17452723 -0.13638951 -0.091239728 -0.28353366 0.95543015 -0.08223141 0.099752992
0.18546408 -0.13355276 -0.095348462 -0.46374223 0.88537759 -0.032396466 0.087566778
0.19200248 -0.13105756 -0.093138017 -0.51780206 0.85250235 -0.071560256 0.078429885
0.22699745 -0.13963293 -0.094651595 -0.98748946 -0.15694158 -0.015293317 0.15451804
0.2662015 -0.13935158 -0.096520081 -0.98925167 -0.1416384 -0.036327537 0.22758479
0.27358717 -0.13867719 -0.0944288 -0.035623919 0.99936503 -0.0005944717 0.1646322
0.28621119 -0.1374338 -0.094425179 -0.062615976 0.99802232 -0.0055415314 0.02290117
0.29631189 -0.13708304 -0.095292099 -0.079179153 0.99680001 -0.010973789 0.0079309046
0.3029497 -0.13689429 -0.096816823 -0.041052647 0.99910957 -0.0097344322 0.0067758881
0.31679693 -0.13710448 -0.093387097 0.054683894 0.99846393 0.0089107668 0.0084092291
0.32270139 -0.13695434 -0.094283342 0.095786668 0.99491596 0.031099265 0.0089605348
0.33242306 -0.13935158 -0.094918989 0.16669139 0.98592377 -0.012971111 0.036424909
0.3451291 -0.13881207 -0.09649922 0.072741009 0.99408919 0.080594219 0.19691239
0.35291576 -0.13935158 -0.096915595 -0.98287505 -0.16509452 0.081855945 0.17313014
0.42743436 -0.13702652 -0.095562786 -0.93683499 0.095120355 -0.33658937 0.0085305218
0.46511614 -0.13473521 -0.093006164 -0.91192907 0.4075934 -0.047464769 0.0095511125
0.47130579 -0.13173757 -0.092670754 -0.91718489 0.39492005 -0.053009242 0.010062046
-0.46730205 -0.12089296 -0.091981247 0.87895441 0.4602952 0.12477017 0.11555246
-0.41587839 -0.12873583 -0.092695571 0.81702751 0.28354621 -0.50206339 0.022627247
-0.32421991 -0.12445751 -0.094173461 0.98953909 0.13495629 0.050983094 0.081261449
-0.31709701 -0.12750807 -0.095985748 0.97444105 0.17199339 0.14450912 0.10845314
-0.2210333 -0.12940204 -0.094082981 0.9651584 -0.21175589 -0.15371646 0.13857023
-0.21391805 -0.12504768 -0.09197095 0.98606324 -0.15967479 -0.046725821 0.082692765
-0.17538325 -0.1259975 -0.096380956 0.99060613 0.050929733 0.12690786 0.054618049
-0.082940519 -0.1248378 -0.097789779 0.99898893 0.01020151 -0.043783911 0.018910991
-0.017705934 -0.12234722 -0.099474698 0.9207046 0.3318412 0.20538861 0.09265662
0.067456424 -0.12170433 -0.094391584 -0.96462154 0.11889489 0.23530671 0.11483525
0.19713902 -0.12899259 -0.090789944 -0.51136172 0.85473365 -0.08910419 0.079257637
0.20405813 -0.12740074 -0.094573282 -0.19974744 0.96749097 -0.15511997 0.085630059
0.22387628 -0.1228089 -0.096415043 -0.60092652 0.79711682 -0.059094463 0.16725563
0.38816041 -0.12906468 -0.097051486 -0.99534178 -0.090319946 -0.033719696 0.016509077
0.46776053 -0.12640657 -0.092073262 -0.91611266 0.39911637 -0.037994992 0.010508846
0.47251239 -0.12604488 -0.093205966 -0.92232555 0.38473713 -0.035956994 0.010921595
-0.47122359 -0.11572102 -0.093885139 0.8459518 0.43645045 0.30639285 0.161733
-0.46793842 -0.11969741 -0.090463176 0.88258749 0.45888597 0.10228866 0.11180185
-0.42137244 -0.11362778 -0.095493481 0.80151707 0.32650876 -0.50096136 0.011907721
-0.36097082 -0.11247852 -0.09496098 0.99939042 0.0028041827 0.034798793 0.0038333093
-0.31721997 -0.11846435 -0.094521686 0.97711396 0.20278224 0.064247034 0.087352045
-0.21393424 -0.11448261 -0.091555513 0.9923588 -0.063368402 -0.10586984 0.042212497
-0.1750482 -0.1146218 -0.097197071 0.98912752 0.037103489 0.14230259 0.040976942
-0.082506254 -0.11721528 -0.094622724 0.99233311 -0.0065483917 -0.12341882 0.00046166137
-0.021202575 -0.11589853 -0.091774449 0.93437338 0.1053362 0.34036842 0.018620197
0.067395784 -0.1146762 -0.094833754 -0.9803564 0.097367734 0.17152505 0.018269124
0.2272518 -0.1149399 -0.097680718 -0.67301983 0.72355169 -0.15335295 0.10506354
0.23662946 -0.11724911 -0.096863925 -0.61703181 0.77124447 -0.15637676 0.193855
0.24268293 -0.11280344 -0.092305362 -0.39278188 0.91740513 -0.063955598 0.22922319
0.25936708 -0.11578601 -0.096295796 -0.79334527 -0.60861129 0.013987112 0.14600897
0.35559568 -0.11814898 -0.090746269 -0.90089941 0.42814106 -0.071242407 0.05457994
0.38839042 -0.11242583 -0.099354692 -0.90440971 -0.15187259 0.39872023 0.18960313
0.43110839 -0.11413488 -0.099222317 -0.92488921 0.0665517 -0.37436724 0.0024093611
0.47554311 -0.11657925 -0.092362367 -0.94811851 0.31438836 -0.047235616 0.0091255112
-0.4839375 -0.10440167 -0.09374962 0.79248625 0.45324168 0.40809008 0.15918842
-0.47679117 -0.10449842 -0.095347486 0.46608195 0.045806028 0.88355494 0.20452988
-0.4235754 -0.10556082 -0.095736317 0.78866893 0.3274394 -0.52036977 0.043160681
-0.36092621 -0.10030425 -0.096106604 0.98397356 -0.15285063 0.091830224 0.017701255
-0.32417679 -0.10410108 -0.094887048 0.98218518 0.063034348 0.17702794 0.036980417
-0.31721872 -0.10292256 -0.094536498 0.98599494 0.076353408 0.14827077 0.033820685
-0.22179428 -0.10874014 -0.098312244 0.97914422 -0.034175061 -0.20027104 0.031689644
-0.17712785 -0.10628844 -0.092752546 0.99655247 -0.031758036 0.076646656 0.036056124
-0.019592807 -0.10112762 -0.095319457 0.93157583 0.00022499192 0.36354703 0.0031480433
0.067365199 -0.10834391 -0.095056847 -0.98931712 0.018662915 0.14457984 0.00031860176
0.2269713 -0.10863904 -0.09434016 -0.71522939 0.65840298 -0.23441972 0.086437516
0.24295858 -0.10464533 -0.093952298 -0.81009978 0.57622486 -0.10818226 0.23410429
0.25918716 -0.10848995 -0.09197291 -0.72192687 -0.67783749 0.13913299 0.14295147
0.35577935 -0.10559125 -0.090685427 -0.89023763 0.44175169 -0.11105148 0.11119681
0.36500829 -0.10193028 -0.093638957 -0.019521255 0.98975074 0.14146522 0.243854
0.37445864 -0.10311773 -0.093005538 0.09636496 0.99422234 -0.047283862 0.22490269
0.42827877 -0.10537776 -0.091178976 -0.92765015 0.047318984 -0.37044027 0.018174922
0.43209484 -0.10473647 -0.099649973 -0.9107945 0.054928202 -0.40918979 0.0010116126
-0.48459965 -0.094055079 -0.096397273 0.77609122 0.42907238 0.46214637 0.15253022
-0.47246781 -0.094361961 -0.096822396 0.19784234 0.20850998 0.95780063 0.19584978
-0.46554336 -0.095069751 -0.094245121 0.20623131 -0.015566313 0.97837949 0.19033882
-0.45656651 -0.095967174 -0.093588822 0.22416759 0.13897108 0.96459109 0.14587286
-0.44855484 -0.095461093 -0.093633749 0.31954348 -0.92511427 -0.20507431 0.14386244
-0.43432933 -0.093784899 -0.097149596 0.62927598 0.32393408 -0.70645481 0.1882209
-0.42861122 -0.094248377 -0.09491697 0.68698531 0.32235166 -0.65126073 0.13523513
-0.36086002 -0.091055647 -0.097805895 0.93282646 -0.34651017 0.098820008 0.046894506
-0.21466237 -0.095680766 -0.098230124 0.92978323 -0.31823179 -0.18501788 0.076789357
-0.17581825 -0.095514096 -0.094135731 0.9773283 0.20765208 0.041351169 0.086168617
-0.021244492 -0.094200157 -0.091682136 0.93247151 0.023317831 0.36049011 0.0035140754
0.24312097 -0.095075354 -0.09497723 -0.99294156 -0.0087089771 -0.11828499 0.18928352
0.36208928 -0.09422709 -0.095281415 -0.95399302 -0.059360273 -0.29389402 0.21730217
0.37147421 -0.098607123 -0.099521115 -0.28596461 0.95329642 0.097212188 0.19570714
0.38435873 -0.093308322 -0.095451869 -0.32497492 0.94318652 0.069213644 0.14063476
0.42940205 -0.092326112 -0.090347201 -0.86527574 -0.10979056 -0.48912567 0.080132023
0.43131995 -0.094952248 -0.095625378 -0.83212888 -0.062236264 -0.55107903 0.084378012
0.4783529 -0.093989693 -0.092987299 -0.99562442 0.076588273 -0.053537462 0.15806125
0.48236606 -0.093551785 -0.094805077 -0.9850927 0.15172815 -0.081061125 0.094764002
-0.48577991 -0.083498813 -0.096689664 0.87754172 0.3740404 0.30002376 0.10068446
-0.4287836 -0.083114222 -0.09348394 0.79713029 0.1407536 -0.58717263 0.091921553
-0.32408971 -0.084653594 -0.094914854 0.76492429 0.64051229 0.068079658 0.06278047
-0.31803295 -0.086362511 -0.092673585 0.85567951 0.51516509 0.049168464 0.071013734
-0.22197536 -0.089373395 -0.099318691 0.95239335 -0.18509802 -0.24225108 0.058263093
-0.21126057 -0.081426881 -0.091093995 0.56679928 -0.81479299 -0.12186401 0.0822834
-0.17491558 -0.087140366 -0.092582703 0.98488003 0.17322963 0.0016868119 0.089793973
-0.083237037 -0.081594177 -0.099952266 0.99950618 0.013324441 -0.028458055 0.02006159
0.066734068 -0.085423969 -0.099659622 -0.99019396 0.00098352972 0.139696 3.6364741e-05
0.24334469 -0.085694477 -0.096347429 -0.99105793 0.048972242 -0.1241209 0.082615323
0.36308113 -0.08593405 -0.098137438 -0.89940858 -0.26201043 -0.34987831 0.14930448
0.39810261 -0.08663363 -0.093191661 -0.45204422 0.88310117 0.12565209 0.062122826
0.40449947 -0.083281398 -0.095687479 -0.28339267 0.93162686 0.22750837 0.068799399
0.4277404 -0.080477245 -0.093506247 -0.78373486 0.46482134 -0.41194755 0.21923034
0.43125933 -0.087552741 -0.094170004 -0.713597 -0.035207521 -0.69967109 0.17668574
0.46967453 -0.083768219 -0.091607831 -0.50331527 -0.86095071 -0.073740475 0.17183186
0.47637761 -0.083657324 -0.093069009 -0.96990895 -0.24343845 -0.0037926466 0.19171903
0.48739001 -0.086879544 -0.093561292 -0.99621367 0.056663349 -0.06593588 0.10580379
0.49045128 -0.088938795 -0.090570107 -0.99603057 0.075183719 -0.047650103 0.10430916
-0.487863 -0.07575351 -0.094385788 0.95726025 0.28410316 -0.054204874 0.057348203
-0.43390664 -0.074722759 -0.096991889 0.87694871 0.063013509 -0.47643489 0.056502104
-0.42919838 -0.079248562 -0.092047743 0.81619883 0.13618943 -0.56149071 0.047944754
-0.34176624 -0.075598136 -0.094227925 -0.055472713 0.99573785 -0.073681653 0.062354196
-0.33618653 -0.076564357 -0.095703393 0.17277189 0.98380387 -0.047748271 0.063207895
-0.20534754 -0.077561617 -0.096881121 0.41541526 -0.90775442 -0.058413357 0.076037973
-0.19364816 -0.075808465 -0.096191034 -0.16505259 0.93648165 -0.30945086 0.16047291
-0.18346632 -0.078803942 -0.095547616 0.8581121 -0.26956108 0.43701321 0.21421188
-0.17393696 -0.071876273 -0.094737791 0.96099722 -0.19131179 0.19971018 0.11690579
-0.082213819 -0.071042553 -0.092489973 0.99072939 -1.3456422e-06 -0.13585022 0
-0.018748537 -0.073611885 -0.097178698 0.9462927 -0.0031585568 0.32329595 0.019366223
0.067230374 -0.076842904 -0.09604013 -0.99072903 1.8660279e-06 0.13585265 0
0.2430903 -0.077474713 -0.095120057 -0.97941238 -0.047537722 -0.19619259 0.0058564795
0.36185667 -0.07729587 -0.094611585 -0.88778734 -0.13252209 -0.44076246 0.054625321
0.41258073 -0.079055309 -0.097116299 -0.28547543 0.90535581 0.31437972 0.11206257
0.4257561 -0.071050659 -0.099513054 -0.63121712 0.76373649 0.13517235 0.19018757
0.43266004 -0.072237559 -0.0955633 -0.80669826 0.46782237 -0.36108184 0.1821491
0.44498837 -0.072719395 -0.099597178 -0.71512198 0.19088034 -0.67243236 0.2111066
0.4565523 -0.075714208 -0.09746071 0.094851889 0.87423241 0.47615209 0.18303868
0.46158341 -0.077076331 -0.094781607 -0.22338866 -0.92788488 -0.29854178 0.11822612
0.48292461 -0.07488393 -0.093321413 -0.99783987 -0.037884511 0.053670187 0.18669331
-0.49098033 -0.062757678 -0.093094409 0.98270309 0.17911893 -0.04702092 0.023107929
-0.48887247 -0.069665551 -0.090709314 0.9625749 0.23722225 -0.13105407 0.019988479
-0.43636957 -0.06596674 -0.096629843 0.94908822 0.10022936 -0.29863951 0.069009535
-0.17181459 -0.064867921 -0.099411666 0.94261229 -0.22811697 0.24381308 0.079737805
-0.082162499 -0.062741928 -0.092115685 0.9907304 2.2601414e-06 -0.13584316 3.3912038e-06
-0.018493462 -0.064585142 -0.097740427 0.94983691 0.023090882 0.31189209 0.026556179
0.2432566 -0.066082358 -0.096216008 -0.98322242 -0.0031826575 -0.1823827 8.6709588e-06
0.36365473 -0.064956777 -0.099789262 -0.91507518 -0.016335523 -0.40295219 0.0084173931
0.42759115 -0.069242269 -0.099441282 -0.59640527 0.78304672 0.17646131 0.17905198
0.43295398 -0.064091466 -0.097355731 -0.87862754 0.4711636 -0.077578567 0.17306599
0.48126554 -0.065031521 -0.092199892 -0.81853932 0.22900711 0.52682918 0.15797709
-0.43759674 -0.054247979 -0.093138039 0.97541904 0.18789959 -0.11511512 0.10722674
-0.082422853 -0.052805852 -0.094014429 0.99103367 -0.00071928732 -0.13361065 1.9413741e-05
-0.018185683 -0.057392985 -0.098418206 0.96822321 -0.065130956 0.24145751 0.031000521
0.067561999 -0.055473726 -0.093621597 -0.98512512 -0.089692384 0.14657372 0.011416213
0.24247605 -0.058800053 -0.092136122 -0.98326331 -0.0029047392 -0.18216711 0
0.36275601 -0.052687529 -0.097201385 -0.93411124 -0.0036233009 -0.35696355 0.0020227141
0.43992555 -0.054675486 -0.099243432 -0.92211896 0.38684571 0.0068626581 0.14892021
0.44179738 -0.055271946 -0.094460875 -0.93760854 0.26999709 -0.21907037 0.15930532
