# .PCD v0.7 - Point Cloud Data file format
VERSION 0.7
FIELDS x y z normal_x normal_y normal_z curvature
SIZE 4 4 4 4 4 4 4
TYPE F F F F F F F
COUNT 1 1 1 1 1 1 1
WIDTH 582
HEIGHT 1
VIEWPOINT 0 0 0 1 0 0 0
POINTS 582
DATA ascii
0.3361465 0.16590486 -0.086016789 -0.64560598 -0.70607591 -0.2909463 0.29267731
0.34534985 0.16590486 -0.083813414 -0.54158342 -0.83426052 0.103425 0.25217289
0.35482368 0.1617268 -0.082386695 0.066584125 -0.99777913 0.0018122925 0.178932
0.3751601 0.16519099 -0.084712982 -0.73938251 0.67200857 -0.041448522 0.21305919
0.38883471 0.1650659 -0.085882396 -0.84295577 0.48422468 -0.23441856 0.17664789
0.4319407 0.16743863 -0.08271642 -0.58191001 -0.73076588 0.35687819 0.0065405369
-0.45860356 0.17061606 -0.083367907 0.74182796 -0.63568765 0.21352375 0.014935168
-0.42111552 0.17462683 -0.084020309 0.95067579 0.27319163 -0.14690751 0.16516215
-0.4132154 0.17327833 -0.084365308 0.96970129 0.22222336 -0.10147002 0.16323216
-0.2637307 0.17431863 -0.087109208 0.98624015 -0.13893546 0.089594781 0.14561784
-0.25971183 0.17440324 -0.083075136 0.99785793 -0.057011466 0.032082077 0.067816138
0.21838616 0.17324607 -0.084713079 -0.99717784 -0.0083628464 0.074608587 0.097764187
0.22929713 0.17544515 -0.085490078 -0.99449646 -0.054011133 0.089775048 0.21773684
0.37562919 0.17633408 -0.081150003 -0.95298749 0.18723802 0.23823677 0.19937626
0.38898349 0.17432682 -0.084145963 -0.86676651 0.42576486 -0.25969228 0.19775547
0.41618547 0.17685501 -0.086046822 -0.53281265 -0.77325845 0.34377626 0.10052974
0.42153829 0.1724028 -0.087249264 -0.61521894 -0.67805547 0.40217707 0.031539984
-0.44714424 0.18163486 -0.085764952 0.56083286 -0.79743814 0.2226184 0.079756774
-0.42096162 0.18269977 -0.087377869 0.95628649 0.067693189 -0.28448862 0.21234225
-0.4133459 0.1872313 -0.08337374 0.93041569 -0.36322364 -0.048940647 0.23477298
-0.26699075 0.18387228 -0.08330825 0.96388614 0.22273211 0.14599261 0.20683219
-0.25971574 0.18681712 -0.084069334 0.99332547 -0.10866564 -0.038680211 0.13880818
-0.046571724 0.18995439 -0.082152694 -0.10627136 -0.99058884 0.086255729 0.015852947
-0.032186776 0.18883733 -0.086754397 -0.085000724 -0.97123933 0.22241637 0.046251908
-0.025394764 0.18825874 -0.085449733 -0.092120744 -0.97948802 0.17921227 0.038541768
-0.016087867 0.18750879 -0.085438855 -0.078490973 -0.98058438 0.17970356 0.037023094
-0.0016089398 0.18635306 -0.089596868 -0.068741031 -0.97424448 0.21476109 0.037425641
0.0053461269 0.18574488 -0.084094897 -0.057541896 -0.98476046 0.16412111 0.033453062
0.019387266 0.18464883 -0.088115133 -0.062310949 -0.98446333 0.16416219 0.037218619
0.026252722 0.18403074 -0.083308205 -0.081153028 -0.99434555 0.068491369 0.012764061
0.032660645 0.18352124 -0.084375538 -0.080018997 -0.98888552 0.12530905 0.027700765
0.047128361 0.18235259 -0.085929267 -0.07039132 -0.97886175 0.1920277 0.040663924
0.057040427 0.18155627 -0.086256795 -0.053793311 -0.98006839 0.1912386 0.045396943
0.063584358 0.18101847 -0.086141564 -0.0079135969 -0.98625433 0.16504499 0.038475633
0.076245517 0.18160012 -0.086064704 0.041063562 -0.97635686 0.21222895 0.047022935
0.085269988 0.18323697 -0.086913854 0.15391029 -0.9678455 0.19896422 0.038139977
0.097340047 0.18543944 -0.080529034 0.17970829 -0.98037958 0.080998413 0.013135173
0.10749012 0.18727314 -0.085731871 0.19485374 -0.94934833 0.24651541 0.041204538
0.11345427 0.18835862 -0.08419174 0.17158467 -0.97014523 0.17139716 0.030413216
0.12086996 0.1896999 -0.087080255 0.17635503 -0.95932269 0.22045171 0.036342356
0.21859604 0.18659832 -0.086084485 -0.982131 -0.15104957 0.11226196 0.14930582
0.22896571 0.18575658 -0.082972758 -0.95091748 0.30767357 0.033060513 0.19876133
0.3748773 0.18564388 -0.08686085 -0.7270087 0.43785214 0.52890813 0.29981914
0.38898304 0.18636286 -0.083292909 -0.79602027 0.60437709 -0.032862894 0.25483584
0.40654489 0.18680868 -0.082839727 -0.60419405 -0.78288001 0.14848734 0.16960868
0.41285622 0.18115568 -0.083101697 -0.48816815 -0.81942725 0.30038452 0.12531836
-0.43316674 0.1958755 -0.08393307 0.43465415 -0.89998609 0.033178832 0.1372408
-0.42109817 0.19574052 -0.086388774 0.46558678 -0.88494152 -0.010368784 0.218409
-0.41295689 0.19800177 -0.086328477 0.24737817 -0.96842736 -0.030861476 0.18477817
-0.39221776 0.19463408 -0.085354067 -0.046874303 -0.99769711 -0.049021512 0.13646869
-0.3841452 0.19124052 -0.086185403 -0.32050452 -0.89798969 -0.30148202 0.22353236
-0.37796921 0.1912405 -0.089099288 0.58734119 0.77456892 0.23467703 0.20729439
-0.36742938 0.19124052 -0.084532157 -0.3680582 -0.92670381 0.075849928 0.23680076
-0.35598305 0.1912405 -0.085087121 0.0023422544 -0.99961531 -0.027635274 0.22674665
-0.34555882 0.19124049 -0.083747014 -0.26458028 -0.94833624 -0.1750875 0.24304506
-0.33702478 0.19124049 -0.085576899 -0.0041443487 -0.99959624 -0.02810945 0.22145985
-0.32715189 0.1912405 -0.083247229 -0.21342482 -0.97275937 0.090492681 0.21051113
-0.31242481 0.1912405 -0.083938785 0.12281387 -0.95012689 -0.28666306 0.20380518
-0.30782661 0.19124049 -0.083530627 0.21442752 -0.90211087 -0.37445539 0.19841574
-0.29574049 0.1912405 -0.08768563 0.6252321 -0.67952496 -0.3838369 0.25103122
-0.28804064 0.19552743 -0.08600796 0.092077427 -0.99420553 -0.055472091 0.11965298
-0.26706889 0.19622602 -0.083901823 0.012750492 -0.99965578 0.022928828 0.21293491
-0.2597149 0.1947313 -0.083853595 0.70623624 -0.70779997 0.015798131 0.23118676
-0.1651888 0.19965009 -0.08365377 -0.084821619 -0.99013662 0.11151132 0.021003686
-0.15296167 0.19864185 -0.083230369 -0.10636204 -0.98838091 0.10858353 0.015648058
-0.14371896 0.19791353 -0.085314587 -0.080316409 -0.9862994 0.1440926 0.01683956
-0.13372473 0.1970921 -0.086192772 -0.083076447 -0.97517902 0.20524165 0.047264833
-0.12904112 0.19668363 -0.082581013 -0.069157474 -0.99605256 0.055645879 0.0067444448
-0.11497076 0.1955481 -0.08354494 -0.093975887 -0.98678738 0.13198175 0.021302246
-0.10296734 0.19459197 -0.089864977 -0.0773983 -0.9624905 0.26004142 0.050665539
-0.093132854 0.19377287 -0.083980896 -0.068453573 -0.98772246 0.14042205 0.02942989
-0.085543267 0.19317043 -0.086679839 -0.090880118 -0.96597916 0.24212606 0.0495224
-0.072144412 0.19207782 -0.08531858 -0.079715811 -0.98201907 0.17112562 0.030022031
-0.068827718 0.19183384 -0.087497361 -0.080772914 -0.95336163 0.29082155 0.059942704
-0.056625962 0.19080244 -0.084485404 -0.10492901 -0.97648776 0.18831262 0.043138001
-0.048827104 0.19012684 -0.081210241 -0.10016195 -0.99202424 0.076520637 0.012959586
0.12670524 0.19076319 -0.083817557 0.17340299 -0.97189808 0.15920301 0.02643257
0.13664906 0.19256254 -0.083853193 0.15968084 -0.97589636 0.14875613 0.021947583
0.14375986 0.19386691 -0.08056704 0.17222127 -0.97956628 0.10387343 0.012744411
0.15280958 0.19550666 -0.082411177 0.15746506 -0.98066288 0.11621106 0.017624235
0.16752267 0.19813335 -0.088263713 0.179562 -0.95920378 0.21837032 0.037329443
0.17372672 0.19930191 -0.082938701 0.19390757 -0.97760099 0.081830449 0.01056136
0.21835649 0.19760254 -0.084081173 -0.47379422 -0.87243825 0.11987668 0.2040284
0.22918025 0.19534695 -0.084602237 0.13857378 -0.98831725 -0.063453764 0.20771173
0.24955542 0.19315368 -0.082569823 -0.055236787 -0.9981814 -0.024137903 0.16783553
0.25431865 0.19131176 -0.086325459 -0.2548041 -0.90187311 -0.3488549 0.22498085
0.26512516 0.19067609 -0.085185885 -0.32708699 -0.91498095 -0.23627074 0.18716164
0.27481312 0.19067609 -0.084994614 -0.20809615 -0.95351034 -0.21797715 0.17245369
0.28581446 0.19067609 -0.087543532 -0.094662651 -0.99230045 -0.079867296 0.15581456
0.29373592 0.19067609 -0.089361534 -0.029734068 -0.99394232 0.10580435 0.19613968
0.30235824 0.19067609 -0.085932612 -0.13019826 -0.96697444 -0.21910919 0.2214599
0.31288397 0.19067609 -0.084196672 -0.067036331 -0.98001343 -0.18729594 0.23434305
0.32507458 0.19067609 -0.083812132 0.26203048 -0.94699222 -0.1858651 0.21828932
0.33602431 0.19067609 -0.086273469 0.38878867 -0.88419956 -0.25891033 0.23881915
0.34878126 0.19067609 -0.085507005 -0.44118705 0.66605276 0.60143805 0.21996862
0.35255632 0.19414423 -0.084710345 0.020013602 -0.99684983 -0.076744936 0.14376025
0.37521556 0.19506958 -0.084291555 0.033529259 -0.9983958 -0.045623772 0.22355849
0.38898328 0.19477339 -0.083771966 0.18542075 -0.98074567 0.061294716 0.23776466
0.39856064 0.19614494 -0.082207248 -0.35446218 -0.9261148 0.12910415 0.14506857
0.4018212 0.19231609 -0.085374191 -0.48393875 -0.86455125 0.1354785 0.15942982
-0.42126852 0.20487086 -0.086871132 0.2955291 -0.95121616 0.088601977 0.13573216
-0.41302353 0.20221007 -0.08582288 0.25937688 -0.96447641 0.05008883 0.17542316
-0.40552953 0.2036261 -0.083697848 0.047842465 -0.99701464 0.060603753 0.11843807
-0.3948485 0.20304419 -0.086097963 -0.072393209 -0.99666613 -0.037627295 0.088669293
-0.28380471 0.20362611 -0.082274057 0.097551428 -0.99522007 -0.0045605092 0.079115272
-0.27447376 0.20362611 -0.085016444 0.057448976 -0.9927662 -0.10542697 0.11179119
-0.26788908 0.20323353 -0.083948039 -0.089238517 -0.99599159 -0.0060929512 0.20490429
-0.25789702 0.20483293 -0.086637847 0.18999594 -0.97938204 0.068646848 0.13342543
-0.24553832 0.20623392 -0.083865471 0.20906425 -0.97735792 0.032613255 0.068774238
-0.2349748 0.20536612 -0.083919413 -0.0095657669 -0.9946233 0.10311572 0.024575848
-0.22651365 0.2046719 -0.084451705 -0.061713409 -0.98547274 0.15822418 0.029804667
-0.21458234 0.20369348 -0.083793119 -0.069467962 -0.99337995 0.091490261 0.011681304
-0.20546108 0.20295197 -0.085317016 -0.089745812 -0.9766587 0.19515006 0.045764361
-0.19450045 0.20204496 -0.082994729 -0.059822589 -0.99186659 0.11234736 0.023956375
-0.1865405 0.20139845 -0.083609939 -0.056281384 -0.98657268 0.15331937 0.03114089
-0.17346977 0.20033143 -0.084472813 -0.062378529 -0.98908019 0.13352646 0.025174418
0.18572579 0.2014771 -0.084331043 0.17919064 -0.97358471 0.14150505 0.028463213
0.19639607 0.20341393 -0.085208535 0.015140038 -0.99177396 0.12710327 0.053765729
0.2065742 0.20526071 -0.084404171 -0.16021971 -0.98623681 0.040824141 0.060466625
0.21586815 0.20649944 -0.086366609 -0.19313437 -0.97958338 0.05581554 0.10861579
0.2296702 0.20144251 -0.088323884 0.04272351 -0.99908692 0.00024707933 0.1764957
0.23733278 0.20306173 -0.085348174 0.034866337 -0.99727851 -0.064960383 0.12887569
0.24535382 0.20259419 -0.084165581 -0.066909522 -0.99737537 -0.027665148 0.073865049
0.25063065 0.20172501 -0.089206509 -0.12641197 -0.98673749 -0.10182878 0.062462397
0.36932877 0.20306173 -0.08593215 0.058664668 -0.99419463 0.090196647 0.14295465
0.38898405 0.20344995 -0.085351236 -0.12895374 -0.98650384 0.10090169 0.15800093
0.39301357 0.20266253 -0.083288297 -0.28745669 -0.95204633 0.1047682 0.14114924
-0.4245362 -0.20240381 -0.074675657 0.1739188 0.98461699 -0.016779181 0.15109184
-0.41236657 -0.20004977 -0.073996492 0.019300699 0.99898893 -0.040602926 0.14489681
-0.40562975 -0.20004976 -0.07470452 -0.014969295 0.99930167 -0.034236822 0.1403476
-0.39704365 -0.20004976 -0.07683403 -0.0625384 0.99792987 -0.014999785 0.092427783
-0.28283855 -0.20004976 -0.076232202 0.16946054 0.98547196 0.011318316 0.079836331
-0.27364251 -0.20004976 -0.076245509 0.13585654 0.99040478 0.025325462 0.14672746
-0.26762167 -0.20004976 -0.07352028 0.1776299 0.98348844 0.034613729 0.16185187
-0.25662175 -0.2050281 -0.073983632 0.26326972 0.95981359 0.09719532 0.11825636
-0.2459197 -0.20519431 -0.075596653 0.27665353 0.9609431 0.0071495273 0.077410191
-0.23212251 -0.20406207 -0.073261619 -0.030982886 0.99947715 -0.0092434911 0.0045979782
-0.22521369 -0.20349471 -0.073338404 -0.079912022 0.99679738 -0.0030068841 3.0508579e-06
-0.21455769 -0.20261998 -0.072425939 -0.081589244 0.99666595 -0.00024305425 4.1904976e-05
-0.20480666 -0.20181841 -0.074985564 -0.081384502 0.99667823 0.0029987919 6.4921456e-05
-0.19700623 -0.20117797 -0.074649148 -0.080965966 0.99671543 0.0017063443 3.4518791e-05
-0.18944585 -0.20055725 -0.074325666 -0.080627456 0.9967441 0.00059773232 3.1867938e-05
0.18846379 -0.20090371 -0.072228663 0.17713355 0.98417115 -0.0055501312 0.00010126211
0.19417077 -0.20193863 -0.074381486 -0.0077841226 0.99982071 0.01726177 0.036739003
0.20165315 -0.20329562 -0.075940967 -0.088079751 0.99329019 0.074942999 0.061079007
0.21835308 -0.20509951 -0.076999933 -0.024001859 0.99655265 0.079414301 0.17375258
0.22979417 -0.20349866 -0.07358636 0.21205461 0.97281629 -0.093064994 0.17110415
0.23352911 -0.20498335 -0.073058784 0.24954318 0.96834701 -0.0056739566 0.14759508
0.24647589 -0.20739774 -0.078051552 -0.0034163957 0.99909717 -0.042345472 0.097357266
0.25065738 -0.20450261 -0.075332835 -0.051589433 0.99834871 -0.025264177 0.083031617
0.35733983 -0.20641677 -0.075783812 0.15419053 0.98800558 -0.0083748968 0.062600635
0.3658205 -0.20739773 -0.077768445 -0.0076778736 0.999129 -0.041015841 0.098219708
0.37679625 -0.20506161 -0.077763528 -0.23834458 0.96313131 -0.12477924 0.12749416
0.38922182 -0.20323589 -0.077842191 -0.34003893 0.93872893 -0.056227732 0.12893927
0.39173624 -0.20308763 -0.079282299 -0.32128975 0.94429803 -0.071232922 0.13335443
-0.43564314 -0.19356729 -0.074167795 0.36840746 0.92850065 0.046502434 0.15476833
-0.4255352 -0.19829875 -0.076986879 0.16392256 0.98572969 -0.038291261 0.16962209
-0.41409454 -0.19575979 -0.075586848 0.24588171 0.95674258 -0.15551794 0.19479768
-0.39312991 -0.19608608 -0.075979672 -0.059973586 0.99813306 0.011552296 0.090170965
-0.28624678 -0.19279271 -0.075077772 0.073318981 0.99721158 0.013898012 0.090969197
-0.2659553 -0.19427031 -0.073055483 0.19206126 0.98087096 -0.031695537 0.23597206
-0.18002741 -0.19978398 -0.073852062 -0.080982625 0.99671537 0.00060615852 2.2085174e-05
-0.17261951 -0.19917552 -0.074267872 -0.081592679 0.99666572 0.0001293063 3.8708517e-06
-0.16537552 -0.19858044 -0.074936442 -0.081178829 0.99669945 0.00033481786 0
-0.15854356 -0.19801794 -0.079500332 -0.080166429 0.996602 0.01891638 0.00049930345
-0.14520088 -0.19692351 -0.075713307 -0.081159756 0.99669963 0.0016885593 1.6549364e-05
-0.13634312 -0.19619569 -0.077052429 -0.081424326 0.99667865 0.001310332 3.0173949e-05
-0.12514098 -0.19527608 -0.076172128 -0.081527859 0.99662822 0.0092421472 0.00023454148
-0.11749015 -0.19464828 -0.074728228 -0.08120279 0.99669743 0.00054281601 0
-0.10652532 -0.19374746 -0.076065883 -0.080923609 0.99672002 0.0006535704 2.9315175e-05
-0.096290506 -0.19290715 -0.075555392 -0.08078564 0.99673069 0.0012644796 0
-0.086696364 -0.19211964 -0.074560702 -0.080680884 0.99673575 0.0029074028 0
-0.075416781 -0.19119373 -0.073473439 -0.08090087 0.99671245 0.0044098254 0
0.12910441 -0.19013709 -0.075797424 0.17777082 0.98407179 0.00035249331 5.1669907e-05
0.13511887 -0.19122738 -0.076875106 0.17831585 0.9837907 0.018959487 0.0013648013
0.1432257 -0.19269831 -0.075984903 0.17743351 0.98412901 0.0027289568 6.5877888e-05
0.15073498 -0.19406042 -0.074724592 0.176579 0.98427242 0.0052589676 0.00015118021
0.16277885 -0.19624454 -0.078662038 0.17539257 0.98442686 0.011884575 0.00028814576
0.17228429 -0.19796892 -0.074883871 0.17857006 0.9839254 0.0019034846 0.00029015794
0.21835326 -0.19115314 -0.077390224 -0.95487958 0.28908354 0.068086118 0.19192085
0.22989205 -0.19866152 -0.071792349 0.33788756 0.93875289 -0.067638464 0.19260964
0.23028386 -0.19361731 -0.074556619 -0.78017199 -0.62551397 0.0079958094 0.21924762
0.25408635 -0.19501214 -0.075459085 -0.35705018 0.93109071 -0.074734837 0.22995797
0.26746988 -0.19501214 -0.07575424 -0.42007366 0.90693808 0.031647138 0.20418549
0.27662075 -0.19501214 -0.074283771 -0.093289621 0.9837451 -0.1534363 0.25308645
0.28294235 -0.19501214 -0.073959753 0.11277486 0.97459811 0.19349493 0.23294786
0.29504085 -0.19501214 -0.074195594 -0.033347126 0.98759794 0.15342198 0.20079271
0.30283758 -0.19501214 -0.076912694 -0.17842226 0.97384298 -0.14069606 0.21365488
0.3132425 -0.19501214 -0.076023512 -0.047134206 0.99684805 -0.063815512 0.20731102
0.32131159 -0.19501214 -0.076941565 -0.18333936 0.98283172 -0.020699048 0.23083015
0.33517131 -0.19501214 -0.07411436 0.42654741 0.88107193 -0.20437627 0.20465183
0.34665853 -0.19501214 -0.073895209 -0.64414579 -0.76179188 -0.068915822 0.14633055
0.35499531 -0.1953582 -0.076978303 0.16459136 0.97501278 -0.14919683 0.21203743
0.37789407 -0.19472916 -0.074188806 -0.36413491 0.92389584 -0.11756787 0.20866309
0.38897938 -0.19553407 -0.075665116 -0.32022077 0.94655049 -0.038739882 0.21408732
0.39696804 -0.19693922 -0.07609757 -0.23462191 0.97111356 -0.043486286 0.16694626
0.40519053 -0.19154672 -0.071246162 -0.4262678 0.89763582 0.11200813 0.093976304
-0.44381976 -0.18578888 -0.074395739 0.5488078 0.8357265 0.019267134 0.11830285
-0.42107791 -0.18686938 -0.074476756 -0.17452213 0.98440063 -0.02230281 0.27003148
-0.41360819 -0.18157431 -0.070510402 0.97131628 0.049936634 -0.23248877 0.25328624
-0.39142215 -0.18782641 -0.077814989 -0.30598438 0.94951767 0.069207743 0.2208657
-0.38502678 -0.18766414 -0.077254891 0.54561478 -0.83750695 0.029776925 0.21098396
-0.37660232 -0.18766415 -0.075058818 0.74918854 -0.66090566 0.043819573 0.2055534
-0.36942908 -0.18766415 -0.077736571 -0.25857002 0.95418018 -0.15060432 0.17311345
-0.35296857 -0.18766414 -0.07617639 0.02199715 0.99755573 -0.066322058 0.2456114
-0.34597689 -0.18766412 -0.074343756 -0.11239884 0.97535306 0.18987612 0.21110384
-0.33652794 -0.18766415 -0.074380435 0.058483209 0.97908759 0.19485153 0.23133042
-0.32457593 -0.18766412 -0.078559823 0.10234734 0.98738176 0.1208403 0.21932533
-0.31589824 -0.18766414 -0.074546516 0.040885791 0.98420769 0.17223136 0.21858805
-0.30766743 -0.18766414 -0.074757122 0.377758 0.92581594 0.012797426 0.21054552
-0.29313701 -0.18766412 -0.079854742 0.56364143 0.82155359 -0.085779302 0.19832386
-0.28731003 -0.18856512 -0.075105488 0.25267419 0.94666541 0.19995084 0.24905606
-0.26608834 -0.18425557 -0.078922868 0.95057821 -0.30912071 -0.029076142 0.23162098
-0.25967747 -0.1846752 -0.074350365 0.99801737 0.045288566 0.043707218 0.16458128
-0.053397596 -0.18939011 -0.07581684 -0.081633769 0.99666011 0.0021388128 2.3764956e-06
-0.040568564 -0.18833208 -0.07348197 -0.081202999 0.99663877 0.010829424 0.00024391551
-0.034743022 -0.18788609 -0.079630807 -0.093413904 0.99220031 0.082536556 0.010868857
-0.025540615 -0.18710829 -0.07727477 -0.08017993 0.99658895 0.019535564 0.00047551177
-0.01364278 -0.18612364 -0.074126184 -0.08168605 0.99665701 0.0014510541 1.8933171e-05
-0.0043464415 -0.18538582 -0.076850675 -0.084757358 0.99639291 0.0041713584 0.00015580982
0.0056660604 -0.1845455 -0.074087076 -0.079771869 0.9968102 0.0024418037 3.762652e-05
0.015034226 -0.18376619 -0.074230142 -0.081219964 0.99669605 -0.00061845616 4.8089121e-05
0.024040613 -0.18304536 -0.073724918 -0.081252202 0.99669349 8.8380511e-05 6.8839872e-05
0.037068326 -0.18198359 -0.075720802 -0.080928303 0.99671751 0.0022004887 4.7610964e-05
0.047666281 -0.18113065 -0.076638825 -0.073408984 0.99730182 -0.00054512406 0.00017666146
0.053456176 -0.18064705 -0.075521544 -0.062564597 0.99804091 0.00021671125 0.00042077177
0.075766005 -0.18046041 -0.072760142 0.094080351 0.99556184 0.0023569632 0.0018094919
0.084985696 -0.18213174 -0.07495001 0.13928069 0.99025035 0.0022725151 0.0007864525
0.094507396 -0.1838574 -0.075799219 0.17515381 0.98454088 0.00059516879 5.7823963e-05
0.10741687 -0.18620199 -0.07637272 0.17797151 0.9840247 0.0046438733 9.4377807e-05
0.11502922 -0.18758221 -0.076616384 0.17806758 0.98386943 0.017112311 0.0010744756
0.12385209 -0.18918455 -0.074082911 0.17776333 0.98406899 -0.0029073218 6.7292487e-05
0.21835282 -0.18474816 -0.076493934 -0.97202682 0.22827578 0.055263165 0.13522175
0.22978432 -0.18487608 -0.073583171 -0.98332763 -0.14756498 0.10626069 0.20242725
0.37828338 -0.18016592 -0.073585659 -0.91472089 -0.37657106 -0.14656039 0.18789582
0.38897809 -0.18222848 -0.073015034 -0.92934525 -0.36769208 -0.033466414 0.20948605
0.40715677 -0.18699095 -0.077127546 -0.53905892 0.81401932 0.21630563 0.13901764
0.41502601 -0.1833632 -0.073460877 -0.47067842 0.853508 0.22357525 0.046352215
-0.45428467 -0.17535755 -0.074397579 0.71674061 0.69285601 0.078951992 0.0019163918
-0.44959116 -0.17911991 -0.079839706 0.57347864 0.81369287 0.095005736 0.067307115
-0.4210794 -0.17686398 -0.074855752 0.97989899 -0.19896127 -0.014574308 0.18533641
-0.41398194 -0.17764069 -0.073842131 0.99090904 -0.081508577 -0.10703123 0.1796941
-0.26572204 -0.17483753 -0.07587792 0.999246 0.015096147 0.035770237 0.13908583
-0.25968221 -0.17602777 -0.075553864 0.99914604 0.025109317 -0.032811366 0.032470126
0.064637847 -0.17973542 -0.075693294 -0.0087445248 0.99996114 -0.0011126203 0.0014576138
0.21835276 -0.1762819 -0.076364651 -0.99794602 0.0059638745 0.063782223 0.074036218
0.26623055 -0.17024089 -0.074802957 -0.87155122 -0.47202864 -0.13261755 0.2118604
0.27558598 -0.17024089 -0.0757339 -0.64854997 -0.17375901 -0.74107409 0.25375256
0.28468612 -0.17024089 -0.072734766 -0.97325635 -0.017814768 0.22903015 0.25174904
0.29439026 -0.17024089 -0.075235546 -0.94215739 0.26559648 0.20444572 0.27696487
0.30806935 -0.17024088 -0.071805254 -0.88746023 0.07736066 -0.45434535 0.28511539
0.31614137 -0.17024089 -0.074205607 -0.88258755 0.43678176 -0.17395654 0.26580155
0.32394707 -0.17024089 -0.076569796 -0.99684888 -0.074687876 -0.026724642 0.27637935
0.33413848 -0.17024089 -0.073730998 -0.90349936 0.22220083 0.36649123 0.28560063
0.34527612 -0.17024088 -0.076089382 -0.75661856 0.56193137 0.33430767 0.21060289
0.37801301 -0.17401999 -0.072718628 -0.96743315 -0.24491417 -0.06395442 0.14725821
0.41903383 -0.17980209 -0.074785158 -0.60196936 0.77219534 0.20334022 0.0057369866
-0.46361768 -0.16631782 -0.072834298 0.77292228 0.6247412 0.11085856 0.0036127283
-0.42107636 -0.16687235 -0.074079171 0.95822752 -0.27451757 -0.08024998 0.1212988
-0.41391224 -0.16419122 -0.073889285 0.85782099 -0.50274593 -0.10672279 0.16450675
-0.39148179 -0.16289291 -0.075513355 -0.01943934 0.9991594 -0.036092836 0.24420358
-0.38798025 -0.16289291 -0.07545986 0.25005281 0.9682315 -0.0011747685 0.24035634
-0.37391463 -0.16289291 -0.075691812 0.92397147 0.28012988 0.26039171 0.28812405
-0.36382261 -0.16289291 -0.074640989 0.42206624 -0.78437918 0.45454302 0.27139646
-0.35497069 -0.16289291 -0.074180096 -0.2650384 0.95146239 0.15644144 0.31166831
-0.34017757 -0.16289291 -0.078369848 0.14391419 0.92756295 0.34484142 0.30061695
-0.33174923 -0.16289291 -0.0789169 0.66921157 0.53257066 -0.51819336 0.29487202
-0.32401738 -0.16289291 -0.076975413 0.93925887 0.33485541 0.07526388 0.30565685
-0.31537318 -0.16289291 -0.078209877 0.23608312 0.74521631 -0.62363243 0.26187876
-0.30458328 -0.16289292 -0.074665092 0.49090829 -0.86936164 0.056739695 0.27459261
-0.2940228 -0.16289291 -0.075033523 0.66441625 -0.71986926 0.20084676 0.27936256
-0.28662416 -0.16041096 -0.072211206 0.077891648 0.98680794 0.14192633 0.19971608
-0.26586562 -0.16520852 -0.076060876 0.87472242 0.48416537 -0.02108399 0.16126494
-0.25967321 -0.16717909 -0.073266089 0.97879601 0.19946361 -0.04661148 0.087829717
0.21835235 -0.16941491 -0.075496823 -0.97788709 0.19916831 0.063786514 0.10437921
0.2298706 -0.16810738 -0.074238561 -0.88985199 0.44066244 0.11823725 0.20021021
0.23030308 -0.16471161 -0.077523611 -0.82445943 0.56591237 0.0031361589 0.19676387
0.25054821 -0.16531932 -0.071689948 -0.088036969 0.99455768 0.055717044 0.19550966
0.35686904 -0.16726121 -0.079446524 0.12586989 0.98876059 0.080679983 0.21658126
0.37824672 -0.16829121 -0.072329998 -0.93922412 -0.34244794 0.024239531 0.15870914
0.38897818 -0.16249952 -0.073211305 -0.95740646 -0.28751272 -0.026630385 0.13233127
0.43283093 -0.16785365 -0.078765005 -0.57048231 0.76627946 0.29557675 0.0051693544
0.44230023 -0.16342632 -0.07446821 -0.5592857 0.75928366 0.33269766 0.0044490844
-0.47107124 -0.15388191 -0.075609028 0.8435936 0.51732665 0.14395472 0.0017886937
-0.46924362 -0.15713648 -0.076749854 0.83017582 0.54195064 0.13075805 0.0028444743
-0.42107338 -0.15362014 -0.073322527 0.83174753 -0.55499923 0.013113373 0.12528537
-0.41284254 -0.15333399 -0.074849732 0.63568825 -0.77193952 0.0031360504 0.16206838
-0.40393463 -0.15050729 -0.071460135 -0.20413153 0.97860688 -0.025669714 0.1151754
-0.39502218 -0.15128641 -0.076101236 0.035226304 0.99881738 0.033511527 0.068970606
-0.28648755 -0.15651324 -0.074833915 0.061045639 0.99797976 0.017601058 0.10810535
-0.27404428 -0.15050729 -0.074895397 0.23261386 0.97223747 0.025400052 0.12837785
-0.26629981 -0.15340643 -0.074560724 0.42292702 0.90601212 0.016578602 0.15146387
0.2298 -0.15889487 -0.073057659 -0.6823374 0.72476512 0.095556982 0.18799584
0.23511603 -0.15785529 -0.073582157 -0.39812422 0.9170748 0.021700561 0.20030008
0.24394481 -0.15785529 -0.077225983 0.025355179 0.99831957 0.052107263 0.14142802
0.35848349 -0.15809664 -0.075589731 0.055134345 0.99549508 0.077133805 0.16622606
0.36340177 -0.1578553 -0.074431553 0.14481317 0.98451954 0.098745026 0.17892314
0.37444484 -0.15793484 -0.076013871 -0.5102073 -0.85907656 0.040938966 0.17823774
0.3889778 -0.15468735 -0.072405621 -0.8918972 -0.44918218 -0.05248557 0.15984209
0.45398742 -0.15322772 -0.077983543 -0.65747404 0.5861668 0.47343048 0.0086204773
-0.47479776 -0.14675398 -0.074746408 0.95292532 0.25555342 0.16317382 0.057385873
-0.41602397 -0.14885746 -0.072264619 0.62780643 -0.77834564 -0.0060942871 0.12656517
-0.40357769 -0.14885746 -0.076006047 -0.21288858 0.97638851 0.03665885 0.11071557
-0.38339493 -0.14885744 -0.079145342 0.053160097 0.99819726 0.027864246 0.086478144
-0.37322083 -0.14885747 -0.074086368 -0.080662787 0.99612814 -0.034959815 0.098072201
-0.36211723 -0.14885746 -0.076895222 -0.042754564 0.99714661 -0.062214848 0.11287054
-0.35510409 -0.14885746 -0.072120667 0.04741684 0.99847662 -0.028214863 0.10342286
-0.34137258 -0.14885746 -0.071922824 -0.011618019 0.99804497 -0.06141099 0.11156558
-0.33909494 -0.14885746 -0.074585184 -0.052847069 0.9980337 0.033702493 0.10748071
-0.32391804 -0.14885746 -0.07563448 -0.066313893 0.99763656 0.017993255 0.11657813
-0.31191474 -0.14885746 -0.073480546 0.0074891434 0.99747717 -0.070591763 0.091168463
-0.30600709 -0.14885747 -0.074867986 -0.052862082 0.99815845 -0.029756656 0.09132687
-0.29080135 -0.14885746 -0.074960932 -0.08575616 0.99353147 0.07443998 0.075972013
-0.28764671 -0.14885746 -0.073397391 -0.033535529 0.99893695 0.031628553 0.08118581
-0.27860716 -0.14885746 -0.077680826 0.11179303 0.99290627 0.040489648 0.10735743
-0.26554126 -0.14885746 -0.076354124 0.56795025 0.82108486 -0.057027053 0.12454987
-0.25969848 -0.14905719 -0.079692245 0.65393442 0.73154616 0.19289914 0.13622114
0.21888359 -0.14885746 -0.07578785 -0.64686781 0.76251894 0.011269226 0.15267909
0.22961316 -0.14885746 -0.073754236 -0.34705514 0.93762058 -0.020502012 0.14679079
0.23574856 -0.14885746 -0.07127592 -0.098906107 0.99422628 -0.041613769 0.13143893
0.24475941 -0.14885746 -0.076047339 -0.013481069 0.99776477 -0.06545005 0.11969067
0.25051022 -0.14885746 -0.074523211 -0.01693731 0.99887735 -0.044240266 0.15239568
0.26443839 -0.14885746 -0.075864218 0.091115125 0.99580199 0.0087424284 0.17406042
0.27072009 -0.14885746 -0.077252522 0.024058437 0.99930638 0.028423261 0.19782497
0.28709543 -0.14885746 -0.0788728 0.0073357141 0.98479372 0.17357297 0.22068623
0.29221371 -0.14885746 -0.078881308 0.043863669 0.99903655 0.0013701752 0.23445317
0.30635926 -0.14885746 -0.076403372 0.001285265 0.99771357 -0.067571163 0.22639731
0.31044036 -0.14885744 -0.076026708 -0.0095127355 0.99765164 -0.067829363 0.23690821
0.32467201 -0.14885746 -0.074625663 0.30567789 0.94666308 0.1019313 0.22873236
0.33494437 -0.14885746 -0.074942999 -0.10529222 0.99295652 -0.054320861 0.17834508
0.35759836 -0.14885746 -0.072049059 0.051968932 0.99512935 0.083766304 0.12211345
0.36312819 -0.14885747 -0.075657085 0.070162766 0.99598569 0.055584539 0.13293803
0.37478423 -0.14885747 -0.074981563 0.13563497 0.99074006 0.0061092773 0.13124424
0.38235766 -0.14885746 -0.077385761 -0.44776091 -0.89402086 -0.015390646 0.13666171
0.46260205 -0.146562 -0.073067904 -0.72869515 0.48130119 0.48718843 0.014614552
-0.48127064 -0.13351308 -0.075806618 0.99033183 -0.081328906 0.11237685 0.078368083
0.4627718 -0.13737884 -0.076558359 -0.77133858 0.33962506 0.53823006 0.0078383852
-0.48295528 -0.12623508 -0.073866174 0.93391216 -0.3334403 0.12894052 0.071796462
-0.473364 -0.12398626 -0.074180469 0.96082759 -0.26770118 0.071739398 0.054921631
-0.46697047 -0.12211519 -0.073295079 0.96090961 -0.26547819 0.07857541 0.052927736
0.4665288 -0.12557602 -0.076356858 -0.80024552 0.24124233 0.54900748 0.0016289242
-0.46592686 -0.1168766 -0.074003324 0.95169717 -0.30255306 0.052289385 0.055044852
0.46801433 -0.11492103 -0.078699932 -0.79851186 0.19817814 0.56842262 0.0013943041
0.47319657 -0.11515124 -0.071742155 -0.82298791 0.20228483 0.53082174 0.0032889012
-0.46716824 -0.10848805 -0.075169235 0.9921332 -0.12350414 0.020453291 0.064642802
0.47646642 -0.10275508 -0.071121417 -0.84176785 0.098645054 0.53075039 0.0029900407
-0.46929994 -0.096667133 -0.074547306 0.99408758 0.1078996 0.012142557 0.053897217
0.47275016 -0.095327482 -0.076044127 -0.82196486 0.045675002 0.5677039 0.0016834681
-0.47216988 -0.081908733 -0.072536752 0.97100312 0.21294153 0.10866839 0.065539852
0.47346509 -0.085099377 -0.075097106 -0.82715416 0.0099255675 0.56188744 0.0015352014
-0.47263297 -0.076268174 -0.075521804 0.98073262 0.1887157 0.050495286 0.06192274
0.47134998 -0.076219641 -0.07789886 -0.82080406 0.0060183168 0.5711782 0.0014715472
-0.47452775 -0.065711915 -0.074443787 0.98285145 0.16606754 -0.080153011 0.074473403
0.47274718 -0.063236199 -0.076048106 -0.82320678 0.00018797714 0.56774169 0.0013608942
-0.47489396 -0.057544827 -0.075048752 0.99715185 0.044132415 -0.061160568 0.072615489
0.47362572 -0.056964055 -0.074884363 -0.82233256 -0.0022974529 0.56900245 0.0012488101
-0.47520587 -0.046426218 -0.073201336 0.99864072 0.020395692 -0.047965538 0.051415004
0.47451767 -0.044398088 -0.07370282 -0.83859533 -0.0096392091 0.54466969 0.00279256
-0.47465888 -0.032652047 -0.076440804 0.99361604 -0.056769636 -0.0974904 0.052472241
0.47460565 -0.034494068 -0.073586307 -0.83690572 -0.0043656807 0.54732966 0.002585154
-0.47501642 -0.026418455 -0.074323356 0.99362147 -0.10634036 -0.037525661 0.061556634
0.46991307 -0.027763134 -0.079802305 -0.8087455 -0.040649015 0.58675241 0.0027785224
0.47188151 -0.02351799 -0.07719481 -0.79570973 -0.10548799 0.59642124 0.016507225
-0.47430456 -0.011752147 -0.07853926 0.95350564 -0.25232476 -0.16480047 0.12725008
-0.47496521 -0.0019187037 -0.074626505 0.99363214 -0.076703966 -0.082534075 0.14679833
0.47402906 -0.0042835176 -0.074350029 -0.83162111 -0.11973361 0.5422824 0.12717967
-0.47436428 0.0049877632 -0.076214395 0.93724918 0.20718089 -0.28042817 0.1659022
-0.46518961 0.00053664355 -0.074857682 0.95219934 -0.2864733 -0.10606311 0.25323173
-0.45553792 0.00053664361 -0.074117482 0.061149716 -0.99677753 0.051916428 0.074719511
-0.43211034 0.00053664361 -0.077958196 0.0041019162 0.99985451 0.016555756 0.0059800963
-0.42530376 0.00053664361 -0.075932868 0.0013038127 -0.99995661 -0.0092230476 0.00023736444
-0.4119468 0.00053664361 -0.075272672 0.0013471072 0.99986261 0.016518537 0.00043155797
-0.40345532 0.00053664361 -0.075592481 -0.00023010574 0.99996293 0.0086076669 0.000178139
-0.3937996 0.00053664361 -0.075092874 -0.0015917713 0.99983853 0.017896442 0.00056396966
-0.38597983 0.00053664361 -0.073056966 0 -1 0 0
-0.37455788 0.00053664367 -0.076342948 0.0030388548 0.99993896 0.010625714 0.00036921486
-0.36679038 0.00053664361 -0.073823772 0 -1 0 0
-0.35079634 0.00053664361 -0.071480796 6.9334505e-10 -1 1.4339748e-08 0
-0.34463105 0.00053664361 -0.075815909 0.0011185989 0.99979794 0.020071778 0.0013321223
-0.33464673 0.00053664361 -0.07782279 0.0032414901 0.99978328 0.020563047 0.0042211697
-0.32364401 0.00053664361 -0.078823164 -0.0011314625 -0.99985129 0.0172075 0.0090468116
-0.31320351 0.00053664361 -0.074639052 2.5593479e-07 -1 1.7040088e-08 0
-0.30273268 0.00053664361 -0.07954783 0.013958117 0.99904555 0.041390255 0.019649584
-0.29379791 0.00053664361 -0.076626077 0.00059799559 0.99976981 0.021448312 0.0010805172
-0.28459603 0.00053664361 -0.073486716 2.874716e-09 -1 5.0985694e-08 0
-0.27844781 0.00053664361 -0.077824503 0.005624027 0.99976873 0.020756917 0.0064146915
-0.26389939 0.00053664367 -0.075498194 6.3130422e-08 -1 2.0360092e-08 0
-0.25103384 0.00053664361 -0.074875101 1.142791e-07 -1 7.1335307e-08 0
-0.24441789 0.00053664361 -0.076628566 -0.0037798516 0.99917775 0.04036792 0.0019380753
-0.23511904 0.00053664367 -0.076009542 0.001782344 0.99977565 0.021106306 0.00099561235
-0.22627783 0.00053664361 -0.073021717 1.5009005e-07 -1 -3.0610472e-09 0
-0.21486565 0.00053664361 -0.077890456 -0.003556296 -0.99946618 0.032474902 0.0040257326
-0.2064867 0.00053664361 -0.074258693 -4.2852655e-08 -1 3.757776e-08 0
-0.18494906 0.00053664361 -0.072963342 0 -1 0 0
-0.17628193 0.00053664361 -0.078989834 0.016530378 -0.9998222 0.0090638138 0.0072457534
-0.16653945 0.00053664361 -0.076345973 -0.0011081287 0.99990058 0.014060538 0.00049422943
-0.15598992 0.00053664361 -0.071965739 4.3217123e-09 -1 5.0523347e-08 0
-0.14397962 0.00053664361 -0.075045794 6.4364457e-08 -1 4.0504883e-08 0
-0.13778791 0.00053664367 -0.073508501 8.6229178e-08 -1 -1.2897845e-08 0
-0.1279121 0.00053664361 -0.071971253 2.7024654e-09 -1 3.267299e-08 0
-0.11472581 0.00053664361 -0.075861126 -8.2093533e-11 -1 3.5666812e-08 0
-0.10411712 0.00053664361 -0.074123152 0.0011407656 -0.99998575 -0.0052249129 9.3531911e-05
-0.095367841 0.00053664361 -0.074659742 0.0011675041 0.99997759 0.0065865475 0.00013346203
-0.084982671 0.00053664361 -0.076831341 -0.002155184 -0.99979514 0.020129357 0.001572355
-0.075139955 0.00053664361 -0.075159028 3.3293215e-08 -1 2.2135993e-08 0
-0.061819367 0.00053664361 -0.071344852 1.2245254e-08 -1 3.0607694e-08 0
-0.05311697 0.00053664361 -0.074602954 -7.0290955e-09 -1 -1.6911153e-08 0
-0.044214923 0.00053664361 -0.074105568 3.2230101e-08 -1 1.7232416e-08 0
-0.035887308 0.00053664361 -0.073097661 9.0122798e-09 -1 3.0167413e-08 0
-0.025583049 0.00053664361 -0.073445186 8.3048999e-09 -1 3.6799978e-08 0
-0.013536453 0.00053664361 -0.074104048 5.2786877e-09 -1 1.790092e-08 0
-0.0026180805 0.00053664361 -0.073071077 -4.8465849e-09 -1 3.3429231e-08 0
0.0063896663 0.00053664361 -0.072491065 2.8690161e-10 -1 3.7528082e-08 0
0.013281249 0.00053664361 -0.073628932 -4.0687236e-09 -1 -6.3760275e-10 0
0.024941437 0.00053664361 -0.073114857 -1.9524217e-08 -1 1.5939884e-08 0
0.035651255 0.00053664361 -0.075580537 1.162492e-09 -1 6.1447594e-08 0
0.043293204 0.00053664367 -0.072932482 -1.8829656e-08 -1 6.5796456e-08 0
0.05551102 0.00053664361 -0.076160997 -1.2273495e-08 -1 5.5153507e-08 0
0.064058028 0.00053664361 -0.075196177 7.6841716e-05 -0.99999893 -0.0014627732 6.0247553e-06
0.083534062 0.00053664361 -0.075869679 -2.3142537e-08 -1 3.6800387e-08 0
0.094090357 0.00053664361 -0.076493889 -0.0014251653 0.99987322 0.015859043 0.00076018041
0.1063528 0.00053664361 -0.074506305 -7.5236187e-08 -1 5.447902e-08 0
0.11343241 0.00053664361 -0.073828861 -5.9056422e-08 -1 4.4260744e-08 0
0.12738268 0.00053664361 -0.074273609 -3.5193434e-08 -1 4.8241957e-09 0
0.13423713 0.00053664361 -0.070657812 -6.1266583e-08 -1 1.4383052e-08 0
0.14660172 0.00053664361 -0.074608549 -3.8398742e-08 -1 -1.0935086e-09 0
0.15576306 0.00053664361 -0.075693183 0.0018792623 0.99976844 0.021433774 0.0010252134
0.16289236 0.00053664361 -0.074333772 7.1074602e-10 -1 4.4675271e-08 0
0.17867261 0.00053664361 -0.074981533 -3.339574e-08 -1 1.3587182e-08 0
0.1858597 0.00053664361 -0.073540181 -3.0506811e-08 -1 2.1937522e-08 0
0.19550052 0.00053664361 -0.074805059 0.00033748912 -0.99998939 -0.0046112686 0.00011931991
0.20496038 0.00053664361 -0.076968543 -0.0017722119 -0.99994522 0.010321187 0.0017179373
0.21753211 0.00053664361 -0.076616138 0.0014440931 -0.99998808 0.0046722586 0.0020665973
0.22691837 0.00053664361 -0.07412371 -1.5176396e-07 -1 5.5772865e-08 0
0.234538 0.00053664361 -0.077425264 -0.0066276719 -0.99995834 0.0062767193 0.0032297189
0.24553268 0.00053664361 -0.075515896 -1.4254398e-07 -1 2.354221e-08 0
0.25687838 0.00053664361 -0.076089978 -1.4467953e-07 -1 1.5744522e-08 0
0.26620883 0.00053664361 -0.072920538 2.738501e-09 -1 4.6627672e-08 0
0.27844766 0.00053664361 -0.075024702 -5.9515145e-08 -1 -3.0233471e-09 0
0.2857213 0.00053664361 -0.074261822 -1.3868022e-07 -1 2.1653264e-08 0
0.29432285 0.00053664367 -0.073332682 -6.2990395e-08 -1 3.3851467e-08 0
0.3053028 0.00053664361 -0.077950358 -0.0011170205 -0.99996698 0.008049964 0.001212795
0.31608975 0.00053664361 -0.074721344 -0.0020739122 0.99993086 0.011570917 0.00047306574
0.32229164 0.00053664361 -0.076252893 -0.00042761772 0.9999131 0.013179265 0.00045129692
0.33380198 0.00053664361 -0.07293345 -1.8637392e-07 -1 4.3899622e-08 0
0.34867153 0.00053664361 -0.077210449 -0.00054467999 0.99992329 0.01237017 0.00088557566
0.35988611 0.00053664361 -0.074457318 -1.2709795e-07 -1 2.7291067e-08 0
0.36137539 0.00053664361 -0.074272513 -1.9908782e-07 -1 9.1606026e-08 0
0.37572637 0.00053664361 -0.077239372 0.00195581 -0.99988914 0.014759263 0.001604657
0.38497365 0.00053664361 -0.077383876 -0.00012227843 -0.99999481 0.0032156548 0.00020665681
0.39582488 0.00053664361 -0.072683945 -6.1744728e-08 -1 5.4145659e-08 0
0.40756088 0.00053664361 -0.07526698 -1.3487015e-07 -1 5.5016169e-08 0
0.41306838 0.00053664361 -0.07564418 -0.0016473454 0.99998206 0.0057734507 0.00010077853
0.42443901 0.00053664361 -0.074977145 -0.0020729464 0.99998319 0.0054277387 8.3454732e-05
0.43472692 0.00053664361 -0.078268431 -0.0087223267 -0.99987996 0.012804304 0.0072969417
0.44485351 0.00053664367 -0.072259828 -0.013147901 -0.99988049 0.0081354249 0.026969569
0.45816416 0.00053664361 -0.075103432 -0.3285729 0.93754238 0.11425477 0.21200204
0.4674589 0.00053664361 -0.07345394 -0.87488413 -0.011379046 0.4841986 0.17297587
0.47301754 0.0032086098 -0.073392183 -0.75449532 0.23389719 0.61321181 0.17527056
-0.47444153 0.017709911 -0.077728137 0.92879128 0.24870151 -0.27476212 0.10793442
0.46988636 0.019735796 -0.07983765 -0.81790143 0.18098123 0.54615295 0.041808788
0.47249934 0.01319359 -0.076376408 -0.82501912 0.17396431 0.53766149 0.056497864
-0.4746387 0.025568407 -0.076560244 0.99001336 0.086805888 -0.11107749 0.068617597
0.4727273 0.024401104 -0.076074407 -0.80000579 0.11888774 0.58809572 0.017118545
-0.47467142 0.035417564 -0.076366603 0.9927662 -0.064243495 -0.10143048 0.052706007
0.47502762 0.033254553 -0.073027357 -0.83395803 0.0060742479 0.55179447 0.0017196888
-0.47537428 0.044573486 -0.072204106 0.99457109 0.102582 0.017473916 0.068652943
0.47309923 0.045113891 -0.075581744 -0.82462978 -0.00098864979 0.56567198 0.0015390259
-0.47495741 0.052636813 -0.074673042 0.99786019 -0.00085564452 -0.065379098 0.062773623
0.46982235 0.056031317 -0.079922423 -0.8067385 0.00073687936 0.59090811 0.00027711672
0.47204447 0.055128787 -0.076978937 -0.82004201 -0.0025870444 0.57229739 0.0010227649
-0.4743042 0.064251669 -0.0770806 0.9852193 -0.067812026 -0.15730381 0.063078143
0.47437206 0.06592086 -0.0738957 -0.82540846 -0.00070575479 0.56453562 0.0016031334
-0.47325015 0.075376645 -0.073861673 0.97818309 -0.1971125 0.065608636 0.044022739
0.47360915 0.077027366 -0.074906282 -0.82369375 0.003109107 0.56702644 0.0017513571
-0.47131315 0.085518308 -0.075035267 0.97940475 -0.2007241 0.021819945 0.054799665
-0.46988693 0.089594275 -0.079342999 0.98284012 -0.17454401 -0.059661929 0.061838813
0.47210118 0.08349812 -0.076903827 -0.82428408 -0.0026854149 0.5661701 0.001461742
-0.46938425 0.099385597 -0.072378203 0.99460024 -0.089481696 0.052568682 0.040301338
0.47508907 0.094631046 -0.0729459 -0.83020157 -0.051191274 0.55510795 0.0024345729
-0.46841559 0.10253485 -0.074916907 0.99967611 -0.0098445211 -0.023467164 0.044428006
0.47358543 0.10461861 -0.074836463 -0.81353897 -0.10138185 0.57260466 0.00227032
0.46882284 0.1146754 -0.078162551 -0.80163223 -0.1794392 0.570252 0.0014374946
0.47347909 0.11460669 -0.072022423 -0.8336677 -0.19803846 0.51553744 0.0026910843
-0.48239616 0.12715405 -0.075275324 0.98104542 0.18195862 0.066640079 0.096500389
-0.47242823 0.12494127 -0.07404127 0.9589988 0.28285584 0.017714191 0.068674445
-0.46633196 0.12306454 -0.075922452 0.9702825 0.24084422 -0.023367591 0.049510207
0.46753868 0.1217059 -0.077019177 -0.80148476 -0.22325133 0.5547803 0.001324794
0.47167718 0.12173141 -0.071526796 -0.8308453 -0.22376344 0.50953507 0.0025358065
-0.48020846 0.13540518 -0.079660997 0.99596286 -0.073650435 0.05131809 0.086699471
0.46496841 0.13426383 -0.075343169 -0.78809738 -0.29110783 0.542364 0.0033121346
-0.47569412 0.14466742 -0.078839198 0.96263617 -0.23482691 0.13486278 0.058560152
-0.41462278 0.14993075 -0.075167947 0.43238598 0.89849716 -0.075796984 0.16700318
-0.40161663 0.14993075 -0.077867731 -0.13365774 -0.99026006 0.038995624 0.1093851
-0.3931846 0.14993075 -0.074688829 0.093508765 -0.99561441 -0.0028438913 0.080782786
-0.37215415 0.14993075 -0.072540216 -0.022623669 -0.99964845 -0.013824791 0.12338747
-0.36252719 0.14993075 -0.076739147 -0.19788776 -0.97807461 0.064888149 0.14632864
-0.35593173 0.14993075 -0.076716959 0.067163296 -0.99599695 0.058984339 0.15355723
-0.34397852 0.14993075 -0.074792415 0.081833892 -0.99265313 0.089124054 0.13980043
-0.33649293 0.14993075 -0.076212838 0.041460268 -0.99486834 0.092293501 0.14334974
-0.32502621 0.14993075 -0.07673464 0.0045336876 -0.99813563 0.060866095 0.12901981
-0.31391799 0.14993075 -0.075060986 0.0053236219 -0.99979073 -0.019750129 0.13982195
-0.30650684 0.14993075 -0.07427489 0.013671613 -0.99975604 -0.017348373 0.1249082
-0.29513496 0.14993075 -0.076460898 -0.087600626 -0.99589044 -0.022985918 0.10527567
-0.287343 0.14993075 -0.073483676 -0.10049743 -0.99310911 -0.060287666 0.085349582
-0.27620468 0.14993075 -0.074346893 0.060222942 -0.99783844 -0.026298016 0.11771724
-0.26251185 0.14993075 -0.075274967 0.66747063 -0.74132824 0.07011082 0.1308511
0.21917467 0.14993075 -0.075092934 -0.73009783 -0.67851329 0.081097879 0.14594609
0.22428925 0.14993075 -0.074588902 -0.57624286 -0.81084359 0.1023565 0.16066824
0.23530389 0.14993073 -0.075317122 -0.19022331 -0.98146915 0.023094976 0.12144658
0.24456599 0.14993075 -0.071484946 0.055018932 -0.99830389 -0.019031996 0.082474157
0.25763571 0.14993075 -0.079522386 0.011389994 -0.99771434 0.066605844 0.092616141
0.27687314 0.14993075 -0.074457332 0.0069977124 -0.99955708 0.028926451 0.13290095
0.2873877 0.14993075 -0.075906202 0.012793801 -0.99900442 0.042738549 0.12362517
0.29326904 0.14993075 -0.073953047 0.065653384 -0.99690473 0.043250673 0.1476337
0.30651575 0.14993075 -0.074212 -0.018825298 -0.99877059 -0.045856934 0.12988624
0.31706154 0.14993075 -0.076876566 -0.016063336 -0.99783814 0.063726127 0.12904517
0.32513401 0.14993075 -0.075371832 0.080345914 -0.99661899 -0.017179338 0.1436615
0.33697641 0.14993075 -0.074759342 -0.016481692 -0.99953055 0.025827819 0.12225459
0.34405607 0.14993075 -0.076005541 -0.093095563 -0.99540144 0.02256597 0.10591898
0.3554858 0.14993075 -0.073991284 -0.10445375 -0.99343336 -0.046687309 0.091363907
0.3641392 0.14993075 -0.074002139 0.062327426 -0.99749625 -0.033416584 0.11711338
0.37487265 0.14993073 -0.076577552 0.29293102 -0.9540872 0.062522873 0.12702404
0.38191757 0.14993075 -0.077389024 -0.47192267 0.87950635 -0.061299376 0.13590027
0.45830497 0.14893168 -0.078235507 -0.72011101 -0.47449231 0.50625801 0.014371837
0.46321088 0.14334024 -0.073999055 -0.76183569 -0.39018381 0.51707155 0.012438575
-0.47151139 0.15499531 -0.072883278 0.85916674 -0.49455458 0.13133273 0.0036776653
-0.42108279 0.15547839 -0.075711578 0.86899191 0.4911184 -0.06046351 0.13976361
-0.41222042 0.15408365 -0.073979162 0.47059584 0.88157606 0.036922645 0.15366295
-0.4054634 0.15408365 -0.077576198 -0.16312173 -0.98577493 0.040484354 0.14751807
-0.39483213 0.15408364 -0.073658131 0.046794284 -0.99889213 0.0049842652 0.097654186
-0.2810201 0.15408365 -0.075331032 0.013246875 -0.99917126 -0.038490288 0.11464044
-0.27746367 0.15408364 -0.074718185 0.18605818 -0.98173618 -0.039703701 0.13897507
-0.2682966 0.15408367 -0.074808776 0.49585092 -0.86796969 0.027575767 0.14584927
-0.25968403 0.15157068 -0.076015182 0.7854678 -0.6161859 0.057925213 0.12693352
0.21835154 0.15426722 -0.073847115 -0.8371529 -0.53097171 0.13131678 0.13572402
0.22854419 0.1556104 -0.074895307 -0.42961192 -0.90211642 0.040245444 0.17579328
0.24543357 0.15377268 -0.072484329 -0.04343947 -0.99796677 -0.046642959 0.11151021
0.3567926 0.1543839 -0.074543074 0.026053224 -0.99696583 -0.073350899 0.12595475
0.37375823 0.15364507 -0.073980018 0.29619515 -0.95505667 -0.011622115 0.13398044
0.38897666 0.1567457 -0.070032284 -0.86169302 0.50400186 -0.058883887 0.12349852
0.45425159 0.15516041 -0.076032743 -0.6616587 -0.59189421 0.4602924 0.012299029
0.46180934 0.15123671 -0.072660863 -0.69231135 -0.56541938 0.44833681 0.019366367
-0.46544829 0.16450991 -0.075749993 0.78246897 -0.60816216 0.13371986 0.0033249944
-0.42107952 0.16634035 -0.07487376 0.97718477 0.21011199 -0.031028483 0.086663932
-0.39307284 0.16455056 -0.076210976 0.15095071 -0.9867996 0.058654509 0.2473565
-0.38253418 0.16646926 -0.074019589 0.95701945 -0.28480923 -0.054750476 0.25926003
-0.3733269 0.16646926 -0.072914273 0.75729132 -0.63519692 0.15177195 0.29479241
-0.36680666 0.16646926 -0.074273676 0.13562845 -0.21133585 0.96795768 0.32209525
-0.35734382 0.16646926 -0.075933389 0.029723177 -0.11679466 0.99271119 0.29943055
-0.34561941 0.16646926 -0.075343154 0.45667055 -0.029178942 -0.8891573 0.27251938
-0.33322224 0.16646926 -0.073506922 0.71100748 0.39959365 -0.57861322 0.30840206
-0.32215926 0.16646926 -0.074253835 0.80697578 0.49810356 -0.31730565 0.26334077
-0.31486106 0.16646926 -0.076732136 0.60319269 0.79523635 -0.061301041 0.29037663
-0.30215463 0.16646926 -0.076393932 0.8698287 0.47727516 0.12492578 0.28791389
-0.2980839 0.16646926 -0.074255347 0.64595675 0.51950014 0.55933845 0.23713458
-0.28725031 0.16330415 -0.075697765 -0.050375249 -0.99342304 -0.10282502 0.18459134
-0.26626253 0.16670358 -0.076522946 0.88740069 -0.46096817 -0.0053281435 0.16948681
-0.25968558 0.16284388 -0.07640174 0.91686291 -0.38431767 0.10799236 0.12807339
0.21835187 0.16594979 -0.07454998 -0.9754979 -0.21675986 0.037671287 0.10512359
0.22818069 0.1660492 -0.07467933 -0.85786128 -0.50707984 0.083330467 0.1929006
0.24906999 0.16356513 -0.07350184 -0.010056655 -0.99913931 0.040242542 0.19907565
0.25377926 0.16590486 -0.07258375 -0.27178311 -0.3503876 -0.89630491 0.29452798
0.26481274 0.16590486 -0.075629257 -0.75518411 0.48299974 0.44317961 0.29639405
0.28482229 0.16590485 -0.073558673 -0.44115201 -0.041412298 -0.89647633 0.28299081
0.29637155 0.16590488 -0.072607115 -0.69373298 -0.25563884 -0.6733374 0.28011307
0.30443633 0.16590485 -0.076147705 -0.86657703 0.48720983 0.10803186 0.27831849
0.31429169 0.16590486 -0.076565497 -0.41154242 -0.91075993 0.033899155 0.31957686
0.32478312 0.16590485 -0.072147667 0.11269443 -0.8360343 0.53697914 0.29122132
0.3372499 0.16590488 -0.074123956 -0.35680342 -0.93365198 -0.031391062 0.26152629
0.34699282 0.16590486 -0.07464277 -0.22147012 -0.9695245 -0.10475358 0.25618145
0.35455292 0.16384281 -0.074568614 -0.10945517 -0.99392951 0.011129451 0.21447098
0.37593377 0.16562545 -0.078836434 -0.85812861 0.513381 0.0074385223 0.20086505
0.38897988 0.16535583 -0.076647364 -0.91231632 0.39178744 -0.11908636 0.15921819
0.43605399 0.1674111 -0.077319048 -0.57559228 -0.73342723 0.36163238 0.0026806307
0.44275004 0.16408578 -0.07464321 -0.57952458 -0.7426765 0.33553371 0.005149988
-0.45707035 0.17391743 -0.0728333 0.72231758 -0.6840986 0.10132291 0.0024120607
-0.41423184 0.17459114 -0.073465213 0.97909433 0.18506591 -0.084409326 0.1381727
-0.26616374 0.17630704 -0.074862428 0.99017638 -0.1380468 0.022218799 0.11674303
-0.25968146 0.17746416 -0.075362563 0.99633169 -0.078159757 0.034844875 0.037663355
0.21835203 0.17447089 -0.074875988 -0.99871409 -0.027968189 0.042285345 0.059317213
0.22816481 0.17722589 -0.072514199 -0.99581552 -0.057973035 0.070643827 0.16551195
