# .PCD v0.7 - Point Cloud Data file format
VERSION 0.7
FIELDS x y z normal_x normal_y normal_z curvature
SIZE 4 4 4 4 4 4 4
TYPE F F F F F F F
COUNT 1 1 1 1 1 1 1
WIDTH 603
HEIGHT 1
VIEWPOINT 0 0 0 1 0 0 0
POINTS 603
DATA ascii
-0.024379376 0.14662215 0.11217371 0.00033069847 -0.82904059 -0.55918831 1.9846927e-06
-0.016059948 0.14703314 0.11156961 0.00031537766 -0.82900953 -0.55923438 1.848592e-05
-0.0057750512 0.14635965 0.11257818 0.00029285229 -0.82895839 -0.5593102 0
0.0057813004 0.14445777 0.11540974 0.0043970267 -0.81952626 -0.57302487 0.0008573159
0.014646337 0.14530781 0.11415579 0.00029829337 -0.82885349 -0.55946559 0
0.024844198 0.14576338 0.11348283 0.00021117675 -0.82878274 -0.55957049 0
0.034445513 0.14337997 0.11700791 -0.0012964245 -0.81579036 -0.57834625 0.0011140855
0.044960346 0.14479172 0.11491996 0.00095948979 -0.82370383 -0.56701946 0.00030907986
0.055102751 0.14451641 0.11532715 0.0016949336 -0.82117307 -0.5706768 0.00062345382
0.06495209 0.14332776 0.11708517 -1.0424564e-05 -0.81056559 -0.58564782 0.0013481695
0.073381975 0.14480291 0.11490341 3.6364363e-05 -0.8284328 -0.56008857 3.9605027e-05
0.084141754 0.14552565 0.11383445 1.2039035e-05 -0.8284443 -0.56007147 0
0.092527926 0.14445242 0.11542177 -0.0018134114 -0.8235566 -0.56723106 0.0003664775
0.10518758 0.14463404 0.11515315 -6.7785941e-06 -0.82841372 -0.56011671 4.0520234e-07
0.11382632 0.14533973 0.11410943 1.5441947e-06 -0.82841128 -0.56012022 1.3931756e-05
0.12470622 0.14487094 0.11480277 -0.00087722659 -0.82387334 -0.56677324 0.0003190143
0.13652237 0.14660183 0.11224278 1.6444032e-05 -0.82841802 -0.56011027 5.0199428e-06
0.14484046 0.14391303 0.11621954 0.0028436109 -0.81944901 -0.57314503 0.00047256303
0.16536605 0.14530143 0.11417042 -0.018328208 -0.79756492 -0.60295469 0.004662429
0.17388311 0.14506724 0.11452349 -0.06598039 -0.7561214 -0.6510967 0.014708159
0.1837796 0.14571778 0.11356907 -0.070279963 -0.75503784 -0.65190381 0.012995819
0.19693285 0.1457943 0.1134662 -0.14790928 -0.66038173 -0.73621923 0.024940295
0.20333637 0.14399859 0.11417296 -0.22800916 -0.51950347 -0.8234852 0.029914929
0.21179669 0.14492279 0.11100338 -0.25578079 -0.47677454 -0.84098881 0.026859533
-0.091417268 -0.14086628 0.12066488 0.18208475 0.59843832 -0.78020304 0.030425886
-0.075171053 -0.14048497 0.12124307 0.1188702 0.71177316 -0.69227803 0.016190551
-0.067392431 -0.14109787 0.12033971 0.048192095 0.75651801 -0.65219474 0.0082718413
-0.053457588 -0.14006588 0.12187853 -0.0037114625 0.7797749 -0.62604898 0.0058952887
-0.049946338 -0.14006768 0.12187796 -0.0055089737 0.78600729 -0.61819267 0.0057250005
-0.039680287 -0.14047301 0.12128312 0.0046038753 0.78878313 -0.6146543 0.0058109425
-0.021828949 -0.14004956 0.12192927 -0.0056888317 0.77549231 -0.63133138 0.0074426327
-0.003763258 -0.14054807 0.1211964 -0.0085771084 0.77511579 -0.63176101 0.0081520341
0.0056837164 -0.14104503 0.12046137 0.0053074332 0.80463946 -0.59373999 0.0019081732
0.016866021 -0.14047617 0.12130275 -0.00083203602 0.80060536 -0.59919143 0.0022472097
0.028131034 -0.1406748 0.12100894 -0.00061422726 0.80248994 -0.59666526 0.0023006389
0.037419334 -0.14081824 0.12079681 -0.0097078234 0.79347259 -0.60852849 0.0032780785
0.063699573 -0.14063813 0.1210632 0.0065408736 0.79760456 -0.60314512 0.0033392487
0.071808979 -0.14107193 0.12042159 0.0011348331 0.80393201 -0.59472013 0.0021564122
0.092434928 -0.14033395 0.12151308 0.00042986724 0.7857182 -0.61858445 0.0049880934
0.10419778 -0.14107941 0.12041055 0.0073872656 0.79060829 -0.61227769 0.0047084955
0.11824267 -0.14129964 0.12008481 -0.0062403227 0.80587924 -0.59204704 0.0016803376
0.13341576 -0.14002879 0.12196441 -0.002929067 0.7771197 -0.62934589 0.0077776266
0.1430608 -0.14089313 0.12068604 -0.00064302102 0.80837822 -0.58866304 0.0014459415
0.16452189 -0.1407014 0.12097331 -0.04974819 0.73554814 -0.67564338 0.014998352
0.18127024 -0.14054334 0.12122019 -0.19412345 0.5834443 -0.78861195 0.030418703
0.19224568 -0.14102854 0.1205112 -0.24000232 0.51834327 -0.82080394 0.028714603
-0.10184181 -0.13333674 0.12100968 0.34045604 0.34412828 -0.87502307 0.027728507
-0.094611764 -0.13368139 0.12476056 0.33426404 0.405377 -0.85084492 0.031192644
-0.085362397 -0.13414524 0.12748359 0.26077929 0.50184602 -0.82470888 0.035197575
-0.074405104 -0.13663481 0.12695315 0.1270652 0.66271067 -0.73801702 0.02421896
-0.065620475 -0.13675973 0.12677388 0.062950395 0.6741904 -0.73586994 0.018774932
-0.056582153 -0.1378639 0.12514207 0.018881321 0.71467668 -0.69920009 0.015649848
-0.044038959 -0.13765997 0.12545267 0.014615231 0.73595124 -0.67687684 0.015030202
-0.034096636 -0.13793257 0.12505783 -0.012361885 0.74024773 -0.67222053 0.014057526
-0.026354983 -0.13684562 0.12667112 -0.010990931 0.71868384 -0.69525015 0.016662389
-0.016454047 -0.13789968 0.12511338 -0.02269518 0.74006587 -0.67215139 0.01431201
-0.0042038448 -0.13842788 0.12433217 0.00010479512 0.73886871 -0.67384946 0.014908302
0.0041773114 -0.13762239 0.12552351 0.013863169 0.75175077 -0.65930164 0.011880342
0.016937099 -0.13738325 0.1258772 0.021310771 0.74887902 -0.66236395 0.012503791
0.026247343 -0.13786128 0.12517019 0.0014462287 0.75620621 -0.6543318 0.011587563
0.03436809 -0.13713595 0.12624294 -0.01024728 0.73434281 -0.6787014 0.014005212
0.042618871 -0.13739134 0.12586522 0.00055878895 0.73533016 -0.67770886 0.013110075
0.054825962 -0.13707957 0.12632635 0.00024113921 0.71400404 -0.70014143 0.016334407
0.063584268 -0.13718373 0.12617229 -0.010953881 0.74773937 -0.66390204 0.011210228
0.078007378 -0.13724956 0.12607494 -0.0002907931 0.70977598 -0.70442736 0.015704725
0.080091961 -0.13736838 0.12589921 0.011343323 0.71339768 -0.70066762 0.014792871
0.092776068 -0.13693942 0.12653363 0.0020741115 0.75274533 -0.65830868 0.0095774289
0.10653225 -0.13593602 0.12801766 0.0009969814 0.72249967 -0.69137061 0.014669328
0.11453385 -0.136804 0.12673391 0.00046943032 0.70943493 -0.70477086 0.018032279
0.12686709 -0.13798842 0.12498215 0.0051232283 0.73931319 -0.67334223 0.015505794
0.13363931 -0.13597909 0.12795399 -0.03044104 0.71910101 -0.69423854 0.01813155
0.14536422 -0.13636361 0.12738527 0.0033592375 0.72235727 -0.69151187 0.014765115
0.15420815 -0.13588546 0.12809244 -0.053902872 0.69824779 -0.71382385 0.018429117
0.16479984 -0.1362239 0.12759583 -0.090082467 0.67250472 -0.73459005 0.024063895
0.17731577 -0.13334964 0.12883979 -0.24119358 0.50459117 -0.82898337 0.032861803
0.18425153 -0.13527334 0.12528035 -0.25999448 0.51954556 -0.8139258 0.029663507
0.19302219 -0.13758492 0.12086579 -0.25132331 0.48286358 -0.83885598 0.029453455
-0.10022246 -0.12799451 0.12227969 0.37887684 0.2904295 -0.87869394 0.024959005
-0.096195124 -0.12584741 0.12455457 0.39545754 0.29678732 -0.86921269 0.024288481
-0.085610181 -0.12849541 0.12987593 0.31205624 0.41079929 -0.85665911 0.034818012
0.17925234 -0.1249508 0.12915364 -0.3208701 0.27690998 -0.90573907 0.01804151
0.18459876 -0.12564343 0.12654822 -0.36993146 0.30407426 -0.87788922 0.019787183
0.19439378 -0.12345251 0.12227795 -0.38953876 0.23471323 -0.8906005 0.011964125
-0.10311755 -0.11151298 0.12207419 0.45780945 0.07542821 -0.88584489 0.00018334601
-0.095602453 -0.113786 0.12582107 0.4521932 0.09325783 -0.88703114 0.0014243864
-0.089841656 -0.11355324 0.12884997 0.41340977 0.11042978 -0.90382391 0.0039913035
0.18714559 -0.11284941 0.12721519 -0.40763012 0.13863058 -0.90256262 0.0012408596
0.19656529 -0.11479126 0.1225199 -0.4145216 0.15073048 -0.89746982 0.0011739874
0.20211878 -0.11124752 0.12043338 -0.42056608 0.13055621 -0.89781922 5.3785047e-06
-0.1035068 -0.10533099 0.12236117 0.46200401 0.070141718 -0.88409984 0
-0.097109839 -0.10443194 0.12577537 0.46014065 0.070042811 -0.88507885 1.4184689e-05
-0.089941591 -0.10867702 0.12918456 0.41414791 0.071613893 -0.90738797 0.0021013536
0.19445845 -0.10608085 0.12477331 -0.42059278 0.13042097 -0.89782631 1.7143942e-05
0.20264713 -0.10714441 0.12078241 -0.4205952 0.13055663 -0.89780551 3.0323963e-06
-0.10718091 -0.094955936 0.1212642 0.46200836 0.070134133 -0.88409817 4.7687126e-06
-0.095694624 -0.094913632 0.12726997 0.45525259 0.069031112 -0.88768226 0.00011963167
0.18857092 -0.096577421 0.12891324 -0.39660254 0.12088867 -0.90999579 0.00083415781
0.19340682 -0.093748771 0.12705895 -0.41086632 0.12378886 -0.9032526 0.00024153999
0.2039825 -0.094280116 0.12202714 -0.42124689 0.12908961 -0.89771205 1.2717555e-05
-0.11059615 -0.081940301 0.12051195 0.4619872 0.070136309 -0.88410896 6.4876298e-07
-0.10411445 -0.085443087 0.12362126 0.46199864 0.070115514 -0.88410467 1.3976814e-05
-0.096281491 -0.084086597 0.12782216 0.44671947 0.06668447 -0.89218551 0.00036199982
0.1940957 -0.086379416 0.12780766 -0.41426933 0.11067127 -0.90340066 0.00020110008
0.20467818 -0.085340299 0.12300101 -0.42242831 0.11121121 -0.89954787 0.00016645672
0.21105942 -0.083090335 0.12033863 -0.42415106 0.10251924 -0.89976984 0.00022558907
-0.11132216 -0.075451508 0.1206473 0.4619998 0.070125766 -0.88410324 1.2579623e-05
-0.10675035 -0.074875757 0.12308206 0.46194881 0.070115469 -0.88413072 6.776138e-06
-0.095901109 -0.07766822 0.12853009 0.44548234 0.066466153 -0.89282012 0.00036454378
0.1932205 -0.074350439 0.12996659 -0.40823734 0.079294868 -0.90942544 0.00041887516
0.20223112 -0.077219248 0.12529993 -0.42275357 0.088651277 -0.90189826 0.00026588043
0.21254377 -0.076548487 0.12054434 -0.42888439 0.088034824 -0.89905953 0.00023667708
-0.11306057 -0.064942345 0.12057249 0.46200714 0.070133694 -0.88409877 9.7392831e-06
-0.10283779 -0.064641006 0.12593855 0.45671961 0.069750994 -0.88687205 7.0081944e-05
-0.096669778 -0.06461592 0.12916377 0.42774287 0.061970048 -0.90177363 0.0017100883
0.19660407 -0.065964431 0.12877721 -0.41455737 0.064407922 -0.90774101 0.00045764371
0.20182136 -0.063714452 0.12637097 -0.42521113 0.058451585 -0.9032048 0.00017781992
0.21374643 -0.064289413 0.12060159 -0.43239903 0.056460124 -0.89991295 0.0001136686
-0.11158108 -0.05597372 0.12205708 0.46202102 0.07012184 -0.88409251 1.8360336e-06
-0.10467191 -0.053794838 0.12584046 0.45889375 0.069138691 -0.88579714 3.3739983e-05
-0.098312959 -0.057638671 0.12885857 0.43607044 0.063891515 -0.8976416 0.0014669814
0.19727832 -0.056332864 0.12890641 -0.4090682 0.042442933 -0.91151619 0.00077080942
0.20625132 -0.05873863 0.12447228 -0.4336828 0.050075639 -0.8996731 4.7691326e-05
0.21396527 -0.05550772 0.12091005 -0.43287036 0.04720537 -0.90021932 6.4610058e-06
-0.11295708 -0.047648288 0.12199843 0.46201435 0.070138745 -0.8840946 8.6415375e-06
-0.10626039 -0.047259126 0.12552881 0.45942214 0.06968458 -0.88548028 1.8786221e-05
-0.098803014 -0.045058101 0.12960045 0.40473977 0.056284636 -0.91269803 0.0029563266
0.19739807 -0.049209014 0.12918445 -0.40059263 0.035088114 -0.91558415 0.00094338116
0.20249015 -0.045390714 0.1269124 -0.43333605 0.042360112 -0.90023637 1.2239931e-05
0.21361446 -0.043572571 0.1216414 -0.43346193 0.042414781 -0.90017313 1.433811e-06
-0.11485891 -0.034179937 0.12207299 0.46201065 0.070135072 -0.88409686 0
-0.10561502 -0.035680324 0.12678458 0.44903639 0.065981157 -0.89107406 0.00037250546
0.19866681 -0.030777335 0.1294421 -0.40248409 0.034613583 -0.91477233 0.0011484153
0.20590389 -0.03409249 0.12580103 -0.43171075 0.041660458 -0.90104955 0
0.21315406 -0.035340551 0.12225103 -0.43347195 0.042421009 -0.90016806 0
-0.1191723 -0.02309107 0.12069856 0.4622243 0.066506252 -0.88426548 2.9806082e-05
-0.10720635 -0.024509635 0.1268391 0.4416559 0.063838981 -0.8949104 0.00043439172
0.20533717 -0.021602232 0.12666251 -0.43023688 0.037265576 -0.90194649 4.4790453e-05
0.21483301 -0.023639945 0.12199395 -0.43452388 0.038321521 -0.89984465 7.8799449e-06
-0.12040346 -0.011904037 0.12094261 0.46158487 0.042790495 -0.8860634 0.00035914331
-0.11468985 -0.014301583 0.12373821 0.46035272 0.042562947 -0.88671517 0.00033836439
-0.10631667 -0.015546402 0.12801506 0.43647829 0.053465858 -0.89812475 0.00067083037
0.20355709 -0.014047824 0.12787564 -0.42905003 0.029258022 -0.90280676 0.00010108396
0.21392822 -0.015372551 0.12281923 -0.43266559 0.029942654 -0.90105718 0.00010526514
-0.12258072 -0.0061083138 0.12026457 0.46118522 0.03293439 -0.88669246 0.00040969148
-0.11645212 -0.0052349493 0.1235365 0.46156886 0.02629724 -0.88671452 0.00045192995
-0.10784948 -0.0067921355 0.1279085 0.44096625 0.035889834 -0.89680582 0.00074371707
0.20567015 -0.0049361885 0.12728755 -0.42996818 0.011607608 -0.90276939 0.00021533718
0.21148503 -0.0076083401 0.12436158 -0.43374789 0.019120483 -0.90083134 0.0001638559
-0.12103093 0.0053052767 0.12113816 0.45989254 -0.022922415 -0.88767868 0.00058589486
-0.11327124 0.0014571034 0.12549843 0.46264467 -0.0031005351 -0.88653839 0.00068685593
-0.10515256 0.0052103419 0.1294433 0.43357989 -0.0096712951 -0.9010632 0.00091409474
0.20598567 0.0052857525 0.12711914 -0.4299306 -0.010035468 -0.90280616 0.00018379165
0.21374886 0.0054357108 0.12337389 -0.43220538 -0.0073559596 -0.90174514 0.00026738239
0.22023471 0.0023918711 0.12039418 -0.43229172 -0.0042049247 -0.90172398 0.00021121888
-0.11670657 0.014677657 0.12265448 0.4625752 -0.044789534 -0.88544798 0.00034708509
-0.10647262 0.011691031 0.12823939 0.44333589 -0.035091884 -0.89566839 0.00071025151
0.20328811 0.015011134 0.12795979 -0.41621 -0.027423063 -0.9088549 0.00057326898
0.21457848 0.014563024 0.12254427 -0.43295428 -0.029067799 -0.90094709 0.00013676177
0.22000381 0.012205678 0.12004288 -0.43495417 -0.025398986 -0.90009433 0.00014637654
-0.11653029 0.027070759 0.12176351 0.4620032 -0.070132457 -0.88410091 0
-0.10729981 0.027279116 0.12657058 0.45151845 -0.068724811 -0.88961112 0.00013381561
0.20597832 0.023806727 0.12624989 -0.43168133 -0.040029585 -0.90113753 8.3151854e-06
0.21431811 0.023513788 0.12224784 -0.43348199 -0.042422093 -0.90016323 0
-0.11533868 0.03411898 0.1218271 0.46201468 -0.070128098 -0.88409531 1.0604282e-06
-0.10427157 0.037163008 0.12736902 0.45238733 -0.064899229 -0.88945699 0.00013285462
0.19806772 0.037095305 0.12943286 -0.41027206 -0.032524984 -0.91138297 0.0009858855
0.20497285 0.036797147 0.12612188 -0.43346915 -0.042420138 -0.90016943 0
0.21403614 0.035270631 0.12182958 -0.43343967 -0.042418599 -0.90018374 0
-0.11394127 0.044877335 0.12170395 0.46202162 -0.070141345 -0.88409054 0
-0.10421436 0.044641692 0.12680566 0.45590934 -0.065003775 -0.88764924 7.7674857e-05
-0.098727174 0.046823621 0.12950003 0.41649884 -0.059691966 -0.90717453 0.0017652769
0.19790089 0.045590214 0.12911287 -0.41971776 -0.038036015 -0.90685743 0.00047272877
0.20253332 0.042713191 0.1270178 -0.42884162 -0.042243294 -0.90239149 0.00012361666
0.21607089 0.047908023 0.12025424 -0.43343303 -0.042937122 -0.90016234 0
-0.11321449 0.052702028 0.12146304 0.46201888 -0.070127986 -0.88409311 0
-0.10432529 0.055538204 0.1258833 0.46012387 -0.069157079 -0.88515723 2.305735e-05
-0.097631119 0.056025062 0.1293429 0.42731029 -0.064715937 -0.90178591 0.0012952656
0.19686504 0.051277198 0.12934366 -0.41678149 -0.040398933 -0.90810847 0.00047315931
0.20495823 0.05457573 0.12529111 -0.43354261 -0.047200534 -0.89989609 3.554648e-05
0.21306042 0.053474292 0.12144157 -0.43333197 -0.046407379 -0.90003878 2.9574949e-05
-0.11195724 0.066116005 0.12105596 0.4620091 -0.070138142 -0.8840974 4.417298e-06
-0.10143097 0.064885072 0.12665434 0.44110778 -0.066905841 -0.89495677 0.00081169826
-0.097665951 0.065290421 0.1285897 0.43821004 -0.065378517 -0.89649183 0.00082766276
0.1966418 0.061991867 0.12894624 -0.4197343 -0.059228893 -0.90571249 0.00026926943
0.20584102 0.06902805 0.12418497 -0.4284656 -0.067156412 -0.90105897 0.0001988959
0.21132094 0.065375745 0.12171835 -0.43109745 -0.057135325 -0.90049464 0.00010890521
-0.1104637 0.07446909 0.12117384 0.46199286 -0.070133105 -0.88410634 6.3369216e-06
-0.10366549 0.077375099 0.12449587 0.46200484 -0.070125952 -0.88410062 6.1182905e-06
-0.096308857 0.073277384 0.1286653 0.4292556 -0.066350564 -0.90074259 0.00095723878
0.19633375 0.074533597 0.12845616 -0.40642619 -0.084464937 -0.90977103 0.00074361661
0.20504266 0.073565781 0.12433622 -0.42741624 -0.077281386 -0.90074575 0.0002904401
0.2115128 0.079466216 0.12065314 -0.42615736 -0.088018455 -0.90035701 0.00028745507
-0.10511431 0.085206032 0.12311756 0.46200371 -0.070127711 -0.88410109 0
-0.096500576 0.086839162 0.12748931 0.44201371 -0.066761836 -0.89452046 0.00051688525
0.19404086 0.085123859 0.12801588 -0.40244859 -0.10417739 -0.90949559 0.00068050384
0.20516846 0.087431222 0.12246733 -0.42305973 -0.11568597 -0.89868641 0.00016302694
0.21020243 0.0831163 0.12073633 -0.42460224 -0.10162815 -0.89965808 0.00029074735
-0.10352939 0.096757606 0.12302946 0.46203455 -0.070137225 -0.88408417 0
-0.093362443 0.094545327 0.12851791 0.42685726 -0.061535455 -0.90222299 0.0014262466
-0.089749523 0.099919543 0.12997963 0.41679481 -0.067278706 -0.90650737 0.0018008108
0.1891225 0.090983413 0.12946816 -0.38552469 -0.10742583 -0.91642255 0.00098593126
0.19226323 0.099355571 0.12677954 -0.40955606 -0.12727197 -0.90336353 0.00037300034
0.20414098 0.094657578 0.12189803 -0.42114875 -0.12726457 -0.89801866 2.585559e-05
-0.1056071 0.10364249 0.12139755 0.46202624 -0.070143081 -0.88408804 0
-0.095351614 0.10636395 0.12654091 0.45519477 -0.067399576 -0.88783729 0.00016937229
0.18880452 0.10279056 0.12790048 -0.39164376 -0.12191033 -0.91200495 0.00082500384
0.19412281 0.1043401 0.12518366 -0.42059296 -0.13053648 -0.89780951 1.8726929e-05
0.20051105 0.10645651 0.12188315 -0.42059618 -0.13052928 -0.89780897 6.7575655e-07
-0.10276277 0.11278823 0.12215842 0.46188167 -0.070477173 -0.88413703 9.0277617e-06
-0.093286797 0.11423762 0.12699535 0.42260221 -0.12873557 -0.89712572 0.004108557
-0.088466957 0.11235613 0.12966332 0.39102721 -0.12126014 -0.91235614 0.0047168434
0.18498021 0.11742061 0.12756503 -0.37145093 -0.18976071 -0.90885365 0.0063980911
0.19433771 0.11447529 0.1236094 -0.41498765 -0.14206211 -0.89866775 0.00032477904
-0.10417569 0.12258582 0.12064287 0.42954129 -0.15703669 -0.88928837 0.0056231092
-0.095930248 0.12712978 0.12459127 0.37381649 -0.30341765 -0.87646961 0.018969102
-0.08789666 0.12747782 0.1287618 0.32222071 -0.40163571 -0.85724127 0.027820179
0.17714953 0.12819971 0.1296664 -0.28436005 -0.40325716 -0.86978328 0.027496019
0.18698855 0.12398812 0.1256693 -0.37177935 -0.27918577 -0.8853448 0.016476827
0.19405769 0.12444068 0.12229174 -0.35076827 -0.26915863 -0.89694774 0.016161622
-0.096207142 0.13611586 0.1236423 0.27362221 -0.47444823 -0.83667779 0.02994087
-0.084201366 0.13702817 0.1261742 0.21009789 -0.5830645 -0.7847895 0.024291396
-0.075181827 0.13741781 0.12579139 0.15132201 -0.6469475 -0.74736905 0.028148614
-0.060481653 0.1372389 0.12606642 0.025102528 -0.69973344 -0.71396291 0.01968883
-0.055154569 0.1375553 0.12560044 0.0012542886 -0.7289291 -0.68458796 0.017108113
-0.043869764 0.13888091 0.12364154 0.0052467254 -0.75547081 -0.65516132 0.011097493
-0.039317381 0.13723312 0.12609099 0.008698374 -0.74775404 -0.66391879 0.012670616
-0.027452182 0.13698134 0.12647161 -0.014591046 -0.7087543 -0.70530444 0.017297938
-0.014472649 0.13782649 0.12522162 -0.018459555 -0.74851382 -0.66286224 0.011787905
-0.0050197146 0.13636306 0.12738606 -0.011206477 -0.69482303 -0.71909344 0.023104403
0.0040816669 0.13805002 0.12489104 -0.0032606642 -0.74166995 -0.67075706 0.011856955
0.015188469 0.13819923 0.12467033 0.0043557095 -0.74029434 -0.67226875 0.013711442
0.025046166 0.13712448 0.12625991 0.0088618929 -0.74261397 -0.6696611 0.013738804
0.033390038 0.13926268 0.12309746 -0.0059574666 -0.76346004 -0.64582759 0.0085009169
0.047244005 0.13720295 0.12614384 0.0031746333 -0.73343307 -0.6797542 0.012594426
0.052636586 0.13829312 0.12453146 -0.016772766 -0.72836936 -0.68497938 0.01609317
0.066239104 0.13859913 0.12407888 -0.0091358703 -0.75094283 -0.66030401 0.012339774
0.079108529 0.13494478 0.12948368 0.0013798544 -0.65898591 -0.75215393 0.024808973
0.085722506 0.13706924 0.12634158 -0.00550878 -0.71933436 -0.69464225 0.017934725
0.094854154 0.13803181 0.12491795 0.003136789 -0.73347586 -0.67970824 0.014975538
0.10092586 0.13816679 0.12471831 -0.0092293294 -0.73947895 -0.67311651 0.014847858
0.11267757 0.13543072 0.12876499 0.0064993515 -0.69631529 -0.7177065 0.019938082
0.124175 0.13673724 0.12683263 0.005687322 -0.73972833 -0.6728816 0.014236243
0.1369682 0.13676204 0.12679595 -0.005923267 -0.72485769 -0.68887323 0.017091859
0.14454255 0.13852009 0.12419576 -0.0056439419 -0.73807502 -0.67469507 0.015201619
0.15367876 0.13640104 0.12732989 -0.049500044 -0.67978424 -0.73173982 0.018883642
0.16557947 0.13856745 0.12413023 -0.096795142 -0.68493783 -0.72214329 0.018981883
0.17942166 0.13648304 0.12555516 -0.20181739 -0.5622685 -0.80195004 0.032424282
0.18863074 0.13837968 0.12280757 -0.21502401 -0.52598029 -0.82286662 0.0302171
0.19421755 0.13658524 0.12045113 -0.24303943 -0.50668263 -0.82716656 0.03030036
-0.090202756 0.14017522 0.12169061 0.2034454 -0.57809842 -0.79019755 0.028931666
-0.074462399 0.14109817 0.12033428 0.078731619 -0.74686885 -0.66029418 0.012902759
-0.061773207 0.14091584 0.12061302 0.0070883655 -0.78558737 -0.6187101 0.0062934319
-0.055008393 0.14112784 0.12030276 0.011963747 -0.80673611 -0.59079069 0.0016681697
-0.036594484 0.14069806 0.12095177 -0.0057863942 -0.78516209 -0.61926323 0.0065309177
-0.025161132 0.14027919 0.12158467 -0.00093106681 -0.79288167 -0.60937482 0.0033346547
-0.015669005 0.14071442 0.12094845 -0.011341777 -0.79748678 -0.60322982 0.0038131275
-0.00095467921 0.14095074 0.12060082 0.0089663584 -0.78051698 -0.62507033 0.0066788374
0.026174895 0.14093716 0.12062089 4.2552609e-05 -0.80256784 -0.59656084 0.0020263516
0.058636479 0.14119059 0.12024608 -0.0024135653 -0.80482358 -0.59350932 0.001518406
0.065999329 0.14085646 0.12074023 0.0018655708 -0.80496407 -0.59332061 0.0017564697
0.074100107 0.14122733 0.1201917 -0.0031506079 -0.80819231 -0.58891022 0.001744336
0.083056375 0.14101124 0.12051134 0.0042451168 -0.80300367 -0.59595895 0.0019995845
0.09268865 0.1402553 0.12162936 0.00077395915 -0.80185801 -0.59751415 0.0023014077
0.10846397 0.1413489 0.12001193 -0.0039533409 -0.80133277 -0.5982058 0.0024847675
0.12144044 0.1402033 0.12170628 0.0026374611 -0.7997939 -0.6002689 0.002447031
0.13222082 0.14070198 0.12096873 0.0078119333 -0.7835958 -0.62122178 0.0066939029
0.14497581 0.14026509 0.12161492 0.0014301878 -0.78320211 -0.62176555 0.0058970377
0.15888207 0.14005463 0.12192618 -0.03282319 -0.73918688 -0.67269993 0.011875984
0.17137471 0.14008352 0.12189252 -0.10966767 -0.69479734 -0.7107951 0.021602388
0.18621449 0.14021917 0.12170351 -0.18057412 -0.59398878 -0.78394526 0.027958043
-0.084280312 -0.13434452 0.1301069 0.2033567 0.52861965 -0.82414043 0.030784881
-0.07582736 -0.13333438 0.13184631 0.16982077 0.55209637 -0.8163029 0.030033004
-0.061811578 -0.13361965 0.13143267 0.067234159 0.60767609 -0.79133391 0.024335744
-0.053410403 -0.13181934 0.13410631 0.05158516 0.56089836 -0.826276 0.026294297
-0.044947527 -0.13268968 0.13281903 0.013119479 0.64167893 -0.76686114 0.017899293
-0.033302791 -0.13048023 0.13608685 0.009707748 0.54976332 -0.83526409 0.028421314
-0.026442619 -0.13196853 0.13388564 -0.014628942 0.55426568 -0.8322112 0.02916497
-0.014775097 -0.13244379 0.13318272 0.01373766 0.55283654 -0.83317649 0.030093368
-0.0055616098 -0.13239412 0.13325617 0.0036734217 0.59439951 -0.80416149 0.031992123
0.0097463392 -0.13135567 0.13479207 0.019643206 0.53300095 -0.84588659 0.030279528
0.014623649 -0.13355762 0.13153535 0.013324576 0.64758021 -0.76188082 0.023287384
0.02301446 -0.13142277 0.13469282 0.012890263 0.52331352 -0.85204268 0.029441817
0.036007207 -0.13298893 0.13237645 -0.015818184 0.63881731 -0.76919585 0.019040124
0.044124983 -0.13215108 0.13361564 -0.0082960697 0.53180629 -0.84682542 0.0284718
0.05251877 -0.13249214 0.13311122 -0.0096409675 0.55609781 -0.83106101 0.026577676
0.065767623 -0.13243976 0.13318866 -0.010823473 0.60655844 -0.79496521 0.026600711
0.073147483 -0.1315254 0.134541 0.009087882 0.58975601 -0.80753022 0.026153108
0.083469726 -0.1332978 0.13191964 0.027938098 0.606924 -0.79426867 0.023354873
0.094897524 -0.13227715 0.13342918 -0.027064914 0.52208346 -0.85246485 0.031825732
0.10663494 -0.13120967 0.13500799 0.018996758 0.52265394 -0.85233319 0.030320637
0.11467805 -0.1315387 0.13452134 0.019591674 0.55663675 -0.83052492 0.029319145
0.1273825 -0.13342227 0.13173553 0.0099655408 0.64434272 -0.76467192 0.028061867
0.13485149 -0.13403907 0.13082327 -0.014128792 0.64448982 -0.76448232 0.02716672
0.14553709 -0.1338641 0.13108204 0.0095103933 0.6350264 -0.77243191 0.026256222
0.15635149 -0.13216752 0.13359131 -0.067276075 0.498694 -0.86416334 0.024589144
0.16324031 -0.13143842 0.13385506 -0.12684351 0.44062051 -0.8886869 0.029291136
0.17225194 -0.13177304 0.13144134 -0.19501731 0.46030879 -0.86607391 0.027163431
-0.082816675 -0.1238431 0.13170479 0.3101286 0.23170127 -0.92202747 0.017323133
-0.075291604 -0.12472361 0.13539357 0.20703308 0.30720109 -0.92885131 0.023087971
-0.065295659 -0.12593462 0.13756789 0.11217324 0.37191182 -0.92146552 0.025479287
-0.054116577 -0.12381711 0.13760637 0.048672572 0.35090521 -0.9351452 0.0248536
-0.047108892 -0.12450159 0.13738768 0.0056198621 0.4122991 -0.91103125 0.029003607
-0.036009982 -0.12584805 0.13760635 0.013034292 0.41736212 -0.90864676 0.033383042
-0.025982298 -0.12515518 0.13760635 -0.027254758 0.40762606 -0.91274214 0.02450042
-0.016827488 -0.12483405 0.13760635 -0.018893264 0.3941631 -0.91884631 0.025162973
-0.0071845967 -0.12421969 0.13760637 -0.052235615 0.39344335 -0.91786367 0.024266735
0.0024629582 -0.12490141 0.13760637 -0.039063986 0.36822295 -0.92891657 0.027005969
0.014985744 -0.12506741 0.1375933 0.021416109 0.38875386 -0.92109275 0.030894538
0.02678776 -0.12476449 0.13760635 0.026190672 0.40582457 -0.91357565 0.034416135
0.034481339 -0.12593561 0.13760635 0.016466895 0.41994789 -0.90739882 0.033274785
0.043364618 -0.12414509 0.13760635 0.010593778 0.36670119 -0.93027848 0.027768282
0.052248694 -0.12214302 0.13760635 -0.012582174 0.30843687 -0.95116162 0.031279117
0.06317275 -0.12397223 0.13760637 -0.018120691 0.36712191 -0.92999631 0.029275458
0.07499706 -0.12449557 0.13760635 -0.0014312079 0.32960847 -0.94411659 0.026567187
0.086956747 -0.1254039 0.13760635 0.019530974 0.42442477 -0.90525258 0.032530081
0.099025056 -0.12213518 0.13760635 0.016838964 0.27148193 -0.96229625 0.025139265
0.10865035 -0.12684214 0.13760635 0.029709207 0.45973724 -0.88755792 0.029408358
0.11640226 -0.12607752 0.1373774 -0.007009157 0.44037014 -0.89778894 0.033648588
0.12430706 -0.12401519 0.13760637 -0.027215211 0.31568384 -0.94847399 0.024011703
0.13324189 -0.12546042 0.13760635 -0.015164102 0.4100979 -0.91191548 0.032968573
0.14321122 -0.12556437 0.13742074 -0.020017197 0.33653671 -0.94145763 0.023246223
0.15699798 -0.12655336 0.13760635 -0.09601973 0.3971442 -0.91271937 0.027542062
0.16639584 -0.12576325 0.13505858 -0.16196626 0.39160064 -0.90576804 0.030612957
0.17215009 -0.12664624 0.13223444 -0.22707854 0.37460905 -0.89894569 0.025532849
-0.084649511 -0.11455674 0.13148364 0.34046769 0.1616327 -0.92625952 0.012364668
-0.07508669 -0.11723822 0.13611247 0.21965408 0.21088831 -0.95251155 0.020304929
-0.064315364 -0.11438332 0.13760635 0.12426175 0.15290274 -0.98039776 0.011818086
-0.056871794 -0.11414646 0.13760635 0.063483812 0.16434404 -0.98435813 0.01419129
-0.041651256 -0.11800174 0.13760635 0.024644012 0.27740756 -0.96043622 0.026920021
-0.035656683 -0.11540279 0.13760635 0.0093457652 0.16962986 -0.9854635 0.016979227
-0.025909286 -0.11530929 0.13760637 0.0034369009 0.20251626 -0.97927278 0.020574998
-0.012678348 -0.11438705 0.13760635 -0.011871602 0.18031725 -0.9835369 0.017224556
-0.003219733 -0.11574217 0.13760635 -0.017955415 0.23965868 -0.97069114 0.024483267
0.0033661867 -0.11406226 0.13760635 -0.017190119 0.16247705 -0.98656255 0.015734104
0.026769171 -0.11525618 0.13760635 0.0023226803 0.19065198 -0.981655 0.016784532
0.036187552 -0.11508077 0.13760635 0.015555007 0.18372317 -0.98285496 0.019046184
0.04345426 -0.11575367 0.13760635 -0.021681737 0.16943945 -0.98530209 0.014589317
0.052746721 -0.11125429 0.13760635 -0.01031654 0.09367384 -0.99554944 0.0077238786
0.066914588 -0.11403771 0.13760635 -0.0054878839 0.17013502 -0.9854055 0.014790372
0.073610291 -0.11625075 0.13760635 0.017000273 0.17443082 -0.98452264 0.015929559
0.084248073 -0.11554614 0.13760637 0.0098566534 0.1842635 -0.98282748 0.017425798
0.094842739 -0.11980499 0.13760635 0.0053771404 0.27306679 -0.96198004 0.025079777
0.10885838 -0.11376455 0.13760635 -0.00013275559 0.1388097 -0.99031907 0.011678018
0.11457639 -0.11447176 0.13760635 -0.016830133 0.1837579 -0.98282743 0.015528163
0.12581137 -0.11417735 0.13760635 -0.022437152 0.17429799 -0.98443735 0.016107049
0.13468957 -0.11516305 0.13760635 -0.031837538 0.19165407 -0.980946 0.019820137
0.14144585 -0.11449092 0.13760635 -0.019805849 0.15473399 -0.98775756 0.011801422
0.1528956 -0.11575852 0.13760635 -0.071156651 0.17681025 -0.98166937 0.011793802
0.16639221 -0.11637393 0.13620593 -0.20868915 0.19681244 -0.95797378 0.014721315
0.17434433 -0.11606304 0.13274516 -0.30953687 0.19160049 -0.93138403 0.013249827
0.18064377 -0.1136016 0.13015184 -0.37083888 0.15023473 -0.91646504 0.0037362364
-0.082691893 -0.10361536 0.13337457 0.33718938 0.05136098 -0.94003481 0.0063271765
-0.075478837 -0.10306043 0.13680068 0.26593611 0.035047427 -0.96335334 0.0062330021
-0.065458901 -0.10543877 0.13760635 0.13675299 0.052027985 -0.9892379 0.007268026
-0.053593282 -0.10397525 0.13760637 0.029465418 0.021375878 -0.9993372 0.0017202443
-0.045021191 -0.10143868 0.13760635 0.00012429412 0.00084646442 -0.99999964 0
-0.034656055 -0.10396345 0.13760635 -0.0039338744 0.01809429 -0.99982858 0.00088025804
-0.022939611 -0.10779551 0.13760635 -0.0030715526 0.033953581 -0.99941862 0.0019569281
-0.01408281 -0.10633896 0.13760637 -0.0057303794 0.044558909 -0.9989903 0.0023406756
-0.0031287365 -0.10641654 0.13760635 -0.0030326732 0.04431219 -0.99901307 0.0024707206
0.0089652576 -0.10166404 0.13760635 -0.00020618709 0.011341089 -0.99993569 0.00047428717
0.01516346 -0.10595094 0.13760635 -0.0017805456 0.041935399 -0.99911875 0.0025154226
0.025744757 -0.10181954 0.13760635 0.0021378791 0.012374202 -0.99992114 0.00048073527
0.03299211 -0.10290697 0.13760635 3.9025013e-05 5.1694398e-05 -1 0
0.046071637 -0.10394165 0.13760635 -0.0020041117 0.029932566 -0.99954993 0.0017941777
0.053778313 -0.10502089 0.13760635 0.0029986661 0.031521428 -0.99949861 0.0017883247
0.06768389 -0.10133511 0.13760635 -1.2235451e-05 4.989698e-06 -1 0
0.075620033 -0.10548422 0.13760635 0.0013366758 0.048299536 -0.99883199 0.0027269358
0.089833543 -0.10398743 0.13760635 -0.0013552225 0.016955458 -0.99985534 0.0010849562
0.094802797 -0.10466175 0.13760637 -0.00704689 0.023965705 -0.99968797 0.0013040333
0.10345707 -0.1049706 0.13760635 0.0029279133 0.032407857 -0.99947041 0.0018379012
0.11701964 -0.10532247 0.13760637 0.0033873583 0.022793029 -0.99973446 0.00089957262
0.13591716 -0.10535622 0.13760635 0.0033879874 0.044188529 -0.99901748 0.0039857691
0.14549524 -0.10674646 0.13760635 -0.029884838 0.046556376 -0.99846858 0.0033738897
0.15646128 -0.10366508 0.13760634 -0.11096594 0.044706546 -0.99281824 0.0041641067
0.16471896 -0.10431388 0.13760635 -0.17800315 0.075057738 -0.9811632 0.0055282153
0.1734709 -0.1044021 0.13484974 -0.29227331 0.08681307 -0.95238638 0.0044732043
0.18451229 -0.10212912 0.13000749 -0.36839432 0.11949556 -0.92195791 0.0024833772
-0.090605542 -0.092508145 0.13012022 0.40610391 0.064423367 -0.9115532 0.0030152791
-0.084474236 -0.09716028 0.13295524 0.36350465 0.047769018 -0.93036681 0.005659645
-0.075411692 -0.096566401 0.13760635 0.2594986 0.026480401 -0.96538037 0.0064167799
-0.065639824 -0.093538694 0.13760637 0.13285606 0.0208827 -0.9909153 0.005701601
-0.056260776 -0.094544366 0.13760635 0.042725917 0.011667508 -0.99901873 0.0017728828
-0.04400833 -0.093823493 0.13760637 1.2393286e-07 -7.5226471e-06 -1 0
-0.037155386 -0.096037954 0.13760635 2.1200719e-06 4.5114148e-06 -1 0
-0.024489902 -0.093927711 0.13760635 -1.4991276e-07 3.9959691e-06 -1 0
-0.016395891 -0.09337011 0.13760635 1.7388863e-06 -8.4997032e-09 -1 0
-0.006437473 -0.09382315 0.13760635 1.1266457e-07 -4.4113494e-06 -1 0
0.0095632561 -0.095862329 0.13760635 -1.8219827e-05 8.5082189e-05 -1 0
0.011642875 -0.095769063 0.13760635 -9.9566641e-06 0.0001112565 -1 0
0.025674799 -0.095347568 0.13760635 1.1051642e-06 1.7577953e-05 -1 0
0.0340354 -0.094778635 0.13760635 -2.2160841e-06 -5.2924502e-06 -1 0
0.046954859 -0.092943095 0.13760635 0 0 -1 0
0.054469127 -0.093913734 0.13760635 -1.6625767e-06 -7.9073507e-06 -1 0
0.062524527 -0.09457773 0.13760635 -4.5230945e-06 3.9997331e-06 -1 0
0.074546136 -0.09580563 0.13760635 -4.8807124e-06 1.2997823e-05 -1 0
0.086916104 -0.097209647 0.13760635 -1.0805464e-07 3.8642083e-06 -1 0
0.096701823 -0.096828334 0.13760635 -1.3882494e-05 -8.9028536e-06 -1 0
0.10544237 -0.094959892 0.13760637 2.0440857e-06 2.0403137e-05 -1 0
0.11334725 -0.096593596 0.13760635 -0.00016993454 0.00087603816 -0.99999958 0
0.13298535 -0.096226059 0.13760635 -1.6707492e-05 5.2609321e-06 -1 0
0.14385422 -0.095799305 0.13760635 -6.8667505e-05 0.0010575232 -0.99999946 0
0.15674238 -0.096010692 0.13760635 -0.092547685 0.033153351 -0.99515605 0.0042377603
0.16553831 -0.095238544 0.13760634 -0.18996392 0.058577694 -0.98004204 0.0069957203
0.1771457 -0.096035153 0.13434462 -0.31608796 0.098834142 -0.94356781 0.0046285577
0.18215522 -0.095496848 0.13207601 -0.35084707 0.10976476 -0.92997748 0.003109633
-0.090434693 -0.087729238 0.13058858 0.40330729 0.064519361 -0.91278726 0.0028094016
-0.086657591 -0.0843651 0.13282926 0.36704114 0.049887396 -0.92886597 0.0046127299
-0.074190967 -0.086344533 0.13760635 0.19521673 0.020906575 -0.9805373 0.0076822494
-0.06293045 -0.085267045 0.13760635 0.096820258 0.014760763 -0.99519241 0.0047195209
-0.055418886 -0.083065957 0.13760635 0.0032316749 0.0028857421 -0.99999058 2.1978492e-05
-0.047194153 -0.081280321 0.13760635 0.00033551891 -4.7514812e-05 -0.99999994 0
-0.034673803 -0.084494099 0.13760635 -4.057692e-06 1.3295167e-05 -1 0
-0.025571117 -0.082720488 0.13760635 3.9671627e-06 3.8298822e-06 -1 0
-0.01433892 -0.084093772 0.13760635 1.3339529e-06 -3.6614313e-06 -1 0
-0.0036751814 -0.084899426 0.13760635 1.0553857e-07 -3.8176995e-06 -1 0
0.0055237017 -0.08595401 0.13760637 -1.0922511e-06 4.9268156e-06 -1 0
0.015501153 -0.088672206 0.13760635 1.328916e-06 4.4936655e-06 -1 0
0.024499742 -0.084831983 0.13760635 -4.0529694e-06 1.6364791e-05 -1 0
0.034534067 -0.084457174 0.13760635 2.4014605e-06 -9.2556747e-06 -1 0
0.046002343 -0.084603764 0.13760635 2.2673501e-06 4.1991502e-06 -1 0
0.055651445 -0.085745424 0.13760637 -6.7229012e-06 -7.5649012e-08 -1 0
0.064266428 -0.085859753 0.13760635 -3.6575439e-06 1.2821847e-05 -1 0
0.07585948 -0.086602397 0.13760635 2.6146088e-06 1.1786417e-05 -1 0
0.082618095 -0.0840481 0.13760635 -6.4554965e-06 8.7421995e-06 -1 0
0.093801923 -0.082180925 0.13760635 4.4054877e-06 -4.1095154e-06 -1 0
0.10495687 -0.0829731 0.13760637 -4.5914808e-06 5.1709781e-06 -1 0
0.11652698 -0.083706908 0.13760635 7.3731535e-06 7.9721934e-07 -1 0
0.12620436 -0.084058657 0.13760635 0 0 -1 0
0.13364984 -0.086068302 0.13760635 8.2109063e-06 7.7926943e-06 -1 0
0.14471874 -0.086928956 0.13760635 -0.0025908835 -0.00036971699 -0.9999966 9.526583e-07
0.15506637 -0.083706357 0.13760635 -0.022127144 0.016567634 -0.99961787 0.0010379941
0.16530803 -0.083498932 0.13760635 -0.13783236 0.044575378 -0.989452 0.005886348
0.17437567 -0.084686927 0.13706918 -0.21276177 0.054882269 -0.97556156 0.0073639937
0.18448871 -0.08716581 0.13219406 -0.35741025 0.10365649 -0.92817742 0.002646321
-0.084211886 -0.073779188 0.13494705 0.28183642 0.043397978 -0.95848048 0.0070101437
-0.073678523 -0.075086728 0.13753286 0.17056663 0.013079054 -0.98525929 0.0071730479
-0.063578457 -0.075077124 0.13760635 0.042026911 0.0043009287 -0.99910724 0.0018945751
-0.0564823 -0.077790268 0.13760635 0.014919963 -0.0022574665 -0.99988621 0.00048606106
-0.04660609 -0.074582539 0.13760635 0.00030280941 -1.6030104e-05 -0.99999994 0
-0.034272984 -0.074747838 0.13760635 2.815498e-06 7.961753e-06 -1 0
-0.024418937 -0.073151052 0.13760635 4.298094e-07 9.438405e-06 -1 0
-0.014185096 -0.07448905 0.13760635 -2.731521e-07 4.8847173e-06 -1 0
-0.0047550094 -0.075422212 0.13760635 2.4360183e-06 8.7533463e-06 -1 0
0.0046138605 -0.075233638 0.13760637 4.7468404e-07 1.0935247e-05 -1 0
0.013207457 -0.073984474 0.13760635 -9.9694041e-08 -3.7582963e-06 -1 0
0.026345637 -0.075920328 0.13760635 -3.6297959e-06 1.7287068e-05 -1 0
0.037004948 -0.075973734 0.13760637 -4.6224081e-06 4.6489467e-06 -1 0
0.044002201 -0.076850235 0.13760635 -5.1892293e-06 4.130135e-06 -1 0
0.055413824 -0.073720135 0.13760635 -3.3722051e-06 8.8022925e-06 -1 0
0.064789169 -0.075031869 0.13760637 4.0464956e-06 1.4616722e-07 -1 0
0.071721777 -0.074978538 0.13760635 -4.6136292e-06 9.4484531e-06 -1 0
0.085776761 -0.076027714 0.13760635 -4.1673115e-06 3.8873877e-06 -1 0
0.094708495 -0.07598871 0.13760637 -3.6704782e-07 7.1996242e-06 -1 0
0.10420714 -0.076676644 0.13760635 -9.2486071e-06 -3.8128146e-06 -1 0
0.11509776 -0.07427147 0.13760637 -1.7525008e-07 4.5129823e-06 -1 0
0.12616175 -0.075707875 0.13760635 -6.9925018e-06 -1.0848546e-05 -1 0
0.13363521 -0.078200758 0.13760635 3.2591089e-07 9.3537719e-06 -1 0
0.14395554 -0.077210754 0.13760637 -2.5227402e-05 -2.359882e-06 -1 0
0.15422449 -0.076033749 0.13760635 -0.0028102456 0.00079598068 -0.99999571 0
0.16292378 -0.076823935 0.13760635 -0.078862563 0.019065268 -0.99670321 0.0032731546
0.17468973 -0.076824106 0.13756917 -0.24017896 0.053195991 -0.96926993 0.0048849983
0.18668319 -0.074838929 0.13292189 -0.34617722 0.072986841 -0.93532574 0.0028827561
-0.092592791 -0.06646724 0.13114744 0.40584275 0.060787573 -0.91191912 0.0030578887
-0.084352784 -0.065035515 0.13555223 0.28433707 0.047335792 -0.95755512 0.0060127093
-0.078243025 -0.064430468 0.13760635 0.22421962 0.052445102 -0.97312647 0.0059927762
-0.064692304 -0.066741057 0.13760635 0.06755542 0.0094903111 -0.99767035 0.002858354
-0.05588134 -0.065997675 0.13760635 0.023455456 -0.00079590292 -0.99972451 0.00061185058
-0.045795564 -0.064084746 0.13760637 0.00030674468 0.00010074959 -0.99999994 0
-0.036906775 -0.064916313 0.13760637 -2.0384785e-07 4.3787318e-06 -1 0
-0.024872141 -0.064761326 0.13760635 -1.98664e-06 4.2262377e-06 -1 0
-0.014440788 -0.061848354 0.13760635 1.8998687e-06 9.126883e-06 -1 0
-0.0081331208 -0.066224366 0.13760635 -5.3200449e-07 1.0004163e-05 -1 0
0.0042412682 -0.064714387 0.13760635 -3.4300012e-07 4.5827028e-06 -1 0
0.013873807 -0.065051317 0.13760637 -4.1209194e-07 -4.5275447e-06 -1 0
0.029525772 -0.069001742 0.13760635 -1.2422389e-06 1.1481409e-05 -1 0
0.036218476 -0.06450364 0.13760637 1.9602949e-07 1.6045908e-05 -1 0
0.043341208 -0.067687958 0.13760635 -4.4821318e-06 -1.5451289e-07 -1 0
0.054989386 -0.064276688 0.13760635 -0 -0 -1 0
0.064253822 -0.065140948 0.13760637 -4.1165417e-06 1.3765944e-05 -1 0
0.0736688 -0.067262344 0.13760635 4.9467544e-06 1.2138208e-05 -1 0
0.086238384 -0.065073028 0.13760635 -4.6463542e-06 1.0287289e-05 -1 0
0.094759636 -0.065135546 0.13760635 -8.5564116e-06 1.0989826e-05 -1 0
0.10550728 -0.064576775 0.13760635 -1.2653847e-05 3.2126802e-06 -1 0
0.11744452 -0.066150978 0.13760635 7.8696357e-06 1.0486374e-05 -1 0
0.12420052 -0.065805264 0.13760635 9.2621704e-06 1.0751139e-05 -1 0
0.1359849 -0.064783894 0.13760637 -1.6963484e-05 -9.553562e-07 -1 0
0.14565831 -0.065678835 0.13760635 -0.00039056258 5.66868e-05 -0.99999994 0
0.15430744 -0.066562749 0.13760635 -0.0024714021 0.0017618686 -0.99999541 0
0.16448277 -0.065420292 0.13760635 -0.071994059 -0.0080740973 -0.99737239 0.0027359352
0.17520222 -0.066646606 0.13752906 -0.20166367 0.019528285 -0.97926015 0.0059950082
0.18533482 -0.066532061 0.13417692 -0.31583148 0.049729772 -0.9475112 0.0038274704
0.19420201 -0.060576133 0.13018778 -0.40663406 0.053562883 -0.91201961 0.00075045176
-0.094478227 -0.05559741 0.13102444 0.40499514 0.045281097 -0.91319692 0.0028652498
-0.082844846 -0.053808354 0.1367189 0.23469289 0.025138209 -0.97174448 0.0082366671
-0.071514696 -0.051338755 0.13760635 0.14353107 0.029368324 -0.98920989 0.0063252379
-0.064619943 -0.055171281 0.13760635 0.030671177 0.006025387 -0.99951142 0.00060909765
-0.055402424 -0.053021081 0.13760637 0.0048621674 -1.7186489e-05 -0.99998826 2.8248622e-05
-0.045928646 -0.052377153 0.13760635 -5.2420528e-08 5.064705e-06 -1 0
-0.036087066 -0.054539818 0.13760637 2.9833058e-07 2.0383018e-06 -1 0
-0.023196172 -0.058262594 0.13760635 1.0121695e-06 8.6673735e-06 -1 0
-0.012644741 -0.056304872 0.13760635 -1.7082769e-07 3.8355374e-06 -1 0
-0.0045133438 -0.056386083 0.13760635 -2.072527e-06 1.2928418e-05 -1 0
0.0020294851 -0.05231978 0.13760635 2.0798933e-07 -4.7647035e-08 -1 0
0.017262224 -0.052068096 0.13760635 -7.7674429e-07 6.0371599e-06 -1 0
0.025259119 -0.05388844 0.13760635 6.0186994e-07 1.350632e-05 -1 0
0.037666682 -0.055890799 0.13760635 -5.3833205e-06 7.7000577e-06 -1 0
0.045273315 -0.056466371 0.13760635 -1.2960033e-06 1.1919634e-05 -1 0
0.054774661 -0.053450629 0.13760635 -6.8159829e-06 6.4057699e-06 -1 0
0.065390989 -0.057041906 0.13760635 -4.2957399e-06 5.0495842e-06 -1 0
0.076902494 -0.057257097 0.13760635 -9.4691832e-06 1.7518423e-05 -1 0
0.086831264 -0.053834543 0.13760635 4.3736932e-06 3.7223383e-06 -1 0
0.094502486 -0.053456105 0.13760635 -4.7162898e-06 3.4871828e-06 -1 0
0.10250613 -0.055651639 0.13760637 9.541719e-06 -3.7871467e-07 -1 0
0.11606099 -0.056229819 0.13760637 -8.5885713e-06 -6.748533e-06 -1 0
0.12894797 -0.05087807 0.13760635 2.6660427e-07 3.8518779e-06 -1 0
0.13768168 -0.05506257 0.13760637 -7.7816148e-06 6.2596166e-07 -1 0
0.14708841 -0.054190181 0.13760635 -1.7838203e-05 5.7984389e-06 -1 0
0.15473069 -0.05280878 0.13760637 -0.00038057979 0.00021755505 -0.99999994 0
0.16496038 -0.054865479 0.13760635 -0.087897457 0.0041491622 -0.99612087 0.0031270657
0.17484091 -0.052545965 0.13760635 -0.18212572 0.023478625 -0.98299491 0.0055455519
0.18490857 -0.054502081 0.13494909 -0.29655978 0.015658017 -0.9548859 0.0045505031
0.19134164 -0.057435852 0.13171311 -0.36326215 0.042843767 -0.93070138 0.0031102935
-0.093987919 -0.048867803 0.13181448 0.39801243 0.045138214 -0.91626889 0.0029462364
-0.085974775 -0.047121253 0.13614048 0.28076702 0.035827208 -0.95910704 0.0066922652
-0.074421354 -0.040888134 0.13760635 0.12666567 0.021367311 -0.99171531 0.0055225524
-0.064333484 -0.044815209 0.13760637 0.022684192 0.0097380085 -0.99969518 0.00037693468
-0.05509793 -0.045333944 0.13760635 0.004450331 0.0022633341 -0.99998754 2.8625029e-05
-0.044028737 -0.047081742 0.13760637 1.0891335e-05 2.52123e-06 -1 0
-0.033218812 -0.042830057 0.13760637 2.6738803e-06 2.6650714e-06 -1 0
-0.026164776 -0.042108733 0.13760635 1.6793344e-06 3.9467386e-06 -1 0
-0.014181021 -0.046729185 0.13760635 2.2741108e-06 -2.0486916e-06 -1 0
-0.0033758795 -0.046963889 0.13760635 2.7301019e-07 -1.4359201e-08 -1 0
0.00861663 -0.048053842 0.13760635 -1.0947506e-06 6.3459179e-06 -1 0
0.016158517 -0.04687101 0.13760635 1.4189741e-06 7.5529083e-06 -1 0
0.02285265 -0.042951923 0.13760635 1.9983025e-07 2.7093042e-06 -1 0
0.032666069 -0.043329287 0.13760635 2.3397229e-06 -1.5610554e-07 -1 0
0.048727147 -0.043849964 0.13760635 -2.2234119e-06 2.6927037e-08 -1 0
0.054536626 -0.04703654 0.13760637 -6.3267821e-06 2.6193991e-06 -1 0
0.063758895 -0.0456024 0.13760635 -8.6613245e-06 -1.5217087e-06 -1 0
0.077326432 -0.048865721 0.13760635 3.7362549e-06 1.6377052e-06 -1 0
0.084627755 -0.044011433 0.13760637 -1.0118055e-05 2.1442145e-06 -1 0
0.097128466 -0.04715436 0.13760635 2.731102e-07 4.6882456e-06 -1 0
0.10335241 -0.045114465 0.13760635 -4.1079588e-06 2.7819808e-06 -1 0
0.11560163 -0.046741735 0.13760637 4.0658661e-06 2.1650405e-06 -1 0
0.1238047 -0.043927189 0.13760635 8.1554845e-06 2.618815e-06 -1 0
0.13386992 -0.04457172 0.13760635 -1.0904497e-05 2.0521929e-06 -1 0
0.14626373 -0.043345284 0.13760635 9.4667748e-06 7.8640815e-06 -1 0
0.15369903 -0.045830548 0.13760637 -0.00026958185 0.00030974127 -0.99999994 0
0.16423842 -0.045726251 0.13760635 -0.065793172 0.020992253 -0.99761248 0.0023834992
0.17326772 -0.046610586 0.13760635 -0.14889741 0.038871948 -0.98808831 0.0056248615
0.18687713 -0.047497731 0.13433124 -0.31198087 0.033944994 -0.94948179 0.0041724374
0.19160466 -0.04692775 0.13208167 -0.34344092 0.023492856 -0.93888038 0.0038872678
-0.097700112 -0.039462034 0.1306207 0.3822836 0.052353919 -0.92256075 0.0029272502
-0.086672589 -0.036095936 0.13620099 0.2680299 0.021319222 -0.96317464 0.0057721059
-0.073684677 -0.036201861 0.13760635 0.1121655 0.020989349 -0.99346787 0.0059322002
-0.062701687 -0.033640359 0.13760635 0.013818542 0.0080857184 -0.99987179 0.00024857532
-0.055162922 -0.034297228 0.13760635 4.7460441e-07 3.073395e-06 -1 0
-0.04698813 -0.033889331 0.13760635 5.7932914e-07 -4.8791612e-06 -1 0
-0.035504702 -0.036300682 0.13760635 1.7803906e-06 3.6402425e-06 -1 0
-0.02643271 -0.034722805 0.13760635 -8.7424615e-07 -3.6903725e-08 -1 0
-0.010841366 -0.034792542 0.13760635 1.0901125e-07 2.0376706e-06 -1 0
-0.0048877448 -0.032914475 0.13760635 4.075122e-07 5.3985701e-08 -1 0
0.0031920078 -0.033889405 0.13760637 1.0332209e-06 8.9188006e-06 -1 0
0.015599907 -0.037148997 0.13760637 -8.0825993e-07 -1.9177849e-06 -1 0
0.026466737 -0.036724329 0.13760635 0 0 -1 0
0.034282554 -0.034817427 0.13760637 -6.2369628e-07 5.5161136e-06 -1 0
0.04414399 -0.035072777 0.13760637 -4.1898911e-06 6.134136e-08 -1 0
0.054346494 -0.036288928 0.13760637 -4.7445756e-06 1.8942897e-06 -1 0
0.066044666 -0.034146398 0.13760637 -4.2067804e-06 5.7352886e-06 -1 0
0.073906705 -0.034437966 0.13760635 -7.8860212e-06 -1.7701478e-08 -1 0
0.089957088 -0.033356067 0.13760635 4.2031324e-06 2.14279e-06 -1 0
0.093943045 -0.033644151 0.13760637 4.2895977e-06 3.9279917e-06 -1 0
0.10484503 -0.035886779 0.13760635 -9.9323552e-06 2.9950461e-06 -1 0
0.11626761 -0.030538009 0.13760635 7.7520244e-06 3.8927401e-06 -1 0
0.12508014 -0.031122493 0.13760635 3.439653e-07 4.2579663e-06 -1 0
0.13376179 -0.035013959 0.13760637 0 0 -1 0
0.14495938 -0.034471866 0.13760637 -2.1906239e-05 3.2246942e-07 -1 0
0.15559191 -0.034855075 0.13760635 -0.0073355427 0.0006066123 -0.99997294 0.00012947095
0.16518278 -0.034646034 0.13760635 -0.054160636 0.017395411 -0.99838072 0.0019133013
0.17418306 -0.035628095 0.13760635 -0.13612145 0.02822184 -0.99029011 0.0057377922
0.18402217 -0.036367059 0.13620791 -0.25657627 0.042847671 -0.96557385 0.0055580777
0.19551462 -0.035501555 0.13073735 -0.39165896 0.038290288 -0.91931343 0.00122162
-0.093813583 -0.024423921 0.13384463 0.31821758 0.039746959 -0.94718415 0.0061427327
-0.081151053 -0.023094127 0.13760635 0.19667545 0.040493105 -0.97963208 0.006769971
-0.074216463 -0.024588432 0.13760635 0.10212584 0.011367174 -0.99470657 0.0046581021
-0.067440256 -0.023071667 0.13760635 0.02735869 0.003453546 -0.99961972 0.0011754327
-0.055027533 -0.025796607 0.13760637 2.4894191e-06 2.6172258e-06 -1 0
-0.046034962 -0.025320729 0.13760635 1.8138215e-06 -2.5646211e-06 -1 0
-0.035988618 -0.027690019 0.13760635 4.1242106e-06 1.406146e-06 -1 0
-0.024118612 -0.023809582 0.13760635 1.2424512e-06 4.9505293e-06 -1 0
-0.016510243 -0.023946358 0.13760637 7.6631159e-07 7.1180771e-06 -1 0
-0.0059223087 -0.023047859 0.13760637 3.2423566e-07 2.9933381e-06 -1 0
0.0040457533 -0.027539466 0.13760635 -1.9343942e-08 1.8199396e-06 -1 0
0.012875694 -0.024436098 0.13760635 4.8930855e-07 -9.408476e-07 -1 0
0.022604825 -0.027367296 0.13760635 1.874138e-06 2.9351233e-06 -1 0
0.036973115 -0.022968374 0.13760635 -5.155694e-06 -2.433987e-06 -1 0
0.046555381 -0.0217453 0.13760635 -1.2966723e-07 -9.6285339e-07 -1 0
0.053452782 -0.026864178 0.13760635 -6.5171025e-06 1.9548129e-06 -1 0
0.066262074 -0.026483862 0.13760637 -7.1215077e-06 3.0502636e-06 -1 0
0.077707849 -0.021785393 0.13760635 -0 -0 -1 0
0.084473051 -0.024919849 0.13760635 -5.5380347e-06 3.6646652e-06 -1 0
0.094994143 -0.025344849 0.13760637 1.1562077e-05 3.5481962e-06 -1 0
