# .PCD v0.7 - Point Cloud Data file format
VERSION 0.7
FIELDS x y z normal_x normal_y normal_z curvature
SIZE 4 4 4 4 4 4 4
TYPE F F F F F F F
COUNT 1 1 1 1 1 1 1
WIDTH 581
HEIGHT 1
VIEWPOINT 0 0 0 1 0 0 0
POINTS 581
DATA ascii
0.12510519 0.22408539 -0.084933899 0.11344143 -0.93119341 0.34642428 0.18283984
0.13549468 0.2240504 -0.084517494 -0.089111812 -0.92871624 0.35992387 0.18552467
0.14328918 0.22361757 -0.085453235 -0.37666488 -0.81634909 0.43783307 0.19315495
0.15354867 0.22666869 -0.086046502 -0.78672975 -0.53638428 0.3055293 0.19131574
0.16176285 0.22215812 -0.082446076 -0.93314922 -0.31481919 0.17355536 0.10485505
-0.15730992 0.23544106 -0.083237559 0.85899723 -0.48838243 0.15364371 0.14895977
-0.089255013 0.23441608 -0.086110108 0.84608418 -0.51841521 0.12404568 0.22582127
-0.079904154 0.23583396 -0.086563744 0.95062739 -0.14518698 0.27427766 0.17669888
0.079904109 0.23398739 -0.088284016 -0.99009186 -0.025513034 0.13808377 0.17698719
0.089029089 0.23974344 -0.081585318 -0.98848009 -0.14393002 -0.046810303 0.1597665
0.094875723 0.23408656 -0.083776906 -0.84907508 -0.52754593 0.027689289 0.24892786
0.15825355 0.23456113 -0.086832047 -0.89888531 -0.41832989 0.13040455 0.16334909
-0.1538934 0.24149005 -0.084862225 0.85543776 -0.42055809 0.30225357 0.14375156
-0.14428289 0.24208947 -0.086674884 0.65294683 -0.52577853 0.54517633 0.20942041
-0.13266905 0.24189626 -0.080721915 0.79285324 -0.45230958 0.40841123 0.26670626
-0.12234657 0.24190739 -0.084163681 0.90768176 0.10374606 0.40663311 0.22585408
-0.11612819 0.24235159 -0.089651138 0.38944533 -0.036334734 0.92033267 0.29182434
-0.094875842 0.2454329 -0.084206365 0.993918 -0.070046164 0.084973186 0.27867278
-0.079904146 0.24389911 -0.084473848 0.98404479 0.078284033 0.15977328 0.13092197
0.079904109 0.24375181 -0.086674035 -0.98801345 -0.0042805462 0.15430839 0.14158782
0.089029096 0.24369073 -0.08716134 -0.99059033 -0.13560042 0.018531051 0.20670885
0.094875723 0.24372292 -0.087843686 -0.9586401 -0.22578381 -0.17329411 0.21998934
0.11548585 0.24433771 -0.083840579 0.10318952 -0.7332468 0.67208707 0.26308736
0.1294912 0.2418588 -0.081587367 -0.55750012 -0.65052086 0.51576769 0.24812137
0.13582923 0.24194682 -0.08392372 -0.36056274 -0.59164453 0.72107655 0.23106235
0.14464314 0.24193239 -0.083858177 -0.71378022 -0.55945498 0.42134064 0.2111214
0.15613687 0.24186376 -0.083054841 -0.91804522 -0.37982473 0.11369374 0.14181939
-0.12485251 0.25712737 -0.084676124 0.91473269 -0.22594775 0.33498028 0.20844373
-0.11436465 0.25768879 -0.08769647 0.086339816 -0.9943257 0.062143717 0.25230679
-0.094875842 0.25445741 -0.085892007 0.95281452 0.30355278 -0.00036839041 0.26029193
-0.0890292 0.25611898 -0.084380351 0.99512631 0.084399261 0.050994795 0.19603515
-0.079904154 0.2530733 -0.084794953 0.98499894 0.08571282 0.14976795 0.12577897
0.079904109 0.25044131 -0.082591288 -0.98986316 -0.030421738 0.13872771 0.11288887
0.089029096 0.25444102 -0.084144212 -0.99982101 0.01306038 0.013686734 0.20714349
0.094875723 0.25281179 -0.086013272 -0.9801448 0.18034527 0.082412392 0.25677422
0.11436452 0.25776392 -0.082740903 0.0781122 -0.98933214 -0.12296456 0.2560769
0.12341361 0.25598574 -0.084612429 -0.17729269 -0.97827142 0.10748143 0.27126998
-0.14462005 0.26697052 -0.080318369 0.99554038 0.057497147 0.074789733 0.21653691
-0.1360095 0.26964724 -0.081133656 0.45456347 0.44270605 0.77290589 0.24730612
-0.12350413 0.26713419 -0.084143899 0.94807917 0.11862299 0.29508373 0.23470014
-0.11436465 0.26618442 -0.085495502 -0.076541632 -0.98557204 -0.15096049 0.30728424
-0.094875842 0.26482257 -0.086959869 0.95674449 0.087667681 -0.27740672 0.28250897
-0.0890292 0.26581129 -0.087289207 0.99262023 0.096300721 0.073696695 0.22285372
-0.079904154 0.26682562 -0.08270473 0.98974943 0.046118904 0.13516292 0.11555179
0.079904109 0.26601028 -0.085822769 -0.98718929 -0.075054832 0.14079781 0.13049798
0.089029096 0.26236737 -0.083474271 -0.99747258 -0.057883304 -0.041207131 0.18017641
0.094875723 0.26681048 -0.087366305 -0.97946566 0.044658396 -0.19660266 0.23270741
0.11436453 0.26698187 -0.083766289 0.27760679 -0.5033614 -0.81826746 0.26967329
0.12366327 0.26471639 -0.085233711 -0.86876422 0.26477855 0.41849864 0.22374809
0.14657944 0.26749057 -0.080476768 -0.89554787 -0.096796006 -0.43430921 0.20572847
-0.15019003 0.27742481 -0.083502628 0.97073078 0.20348944 0.12756868 0.18174967
-0.14911166 0.27480832 -0.082705677 0.92967331 0.28167996 0.2374109 0.19736964
-0.13625069 0.27420628 -0.082522303 -0.56140208 -0.62978554 -0.5368405 0.22631772
-0.12306974 0.27394319 -0.085749298 -0.71080989 -0.57087636 -0.41091302 0.24568115
-0.11436467 0.27534977 -0.086989701 -0.18281059 -0.90877706 -0.3751061 0.27529252
-0.094875842 0.27332875 -0.084691018 0.97153121 0.07475327 0.2248089 0.30948472
-0.089029208 0.27577448 -0.085955046 0.9971149 0.074895322 -0.01234878 0.16611533
-0.079904154 0.27648735 -0.084512085 0.98382461 0.061630167 0.16819873 0.12269139
0.079904109 0.27597174 -0.085677445 -0.98783606 -0.051323045 0.14678496 0.13554077
0.089029089 0.2746557 -0.084338613 -0.99530381 -0.068938814 -0.067954473 0.20858334
0.094875723 0.27570844 -0.08136484 0.83332074 -0.55267411 0.011307309 0.27959225
0.12347651 0.2748991 -0.082784496 0.81206572 -0.56579167 -0.14293018 0.26437581
0.13434899 0.27593288 -0.082725577 0.25137264 -0.75826716 -0.60153359 0.25753066
0.14165914 0.27231359 -0.081945807 0.61388463 -0.64430571 -0.4560875 0.2238023
0.15041886 0.27445826 -0.08148969 -0.97596407 0.21778937 0.0078685479 0.18561228
-0.1507365 0.28664315 -0.083552785 0.99893922 -0.025994871 -0.038010128 0.16198233
-0.14310037 0.28505301 -0.08387579 0.97853988 0.0033306624 -0.2060307 0.23197655
-0.13597523 0.28344896 -0.08427342 0.71112466 0.19756791 0.67473596 0.29264563
-0.1238166 0.28717697 -0.085607827 0.99359268 0.030763643 0.10875297 0.29203114
-0.11468782 0.28369722 -0.08425919 0.16657285 -0.91931033 0.35654166 0.27821723
-0.094875842 0.28654709 -0.083984107 0.95765269 0.051551793 -0.28327307 0.29595828
-0.089029193 0.28715998 -0.086227924 0.98950696 -0.1121696 0.091071106 0.22130907
-0.079904154 0.28745687 -0.085074387 0.98216307 -0.065327145 0.17631818 0.14136571
0.079904109 0.28092784 -0.085624926 -0.99100405 -0.023256185 0.13179505 0.14602722
0.094875723 0.28559709 -0.08412011 -0.98034912 0.19153634 -0.047216203 0.29464999
0.11542726 0.28875437 -0.084195487 0.074168704 -0.88534606 0.45897856 0.29894868
0.12449385 0.28733855 -0.084091924 -0.99006963 -0.036362857 -0.13579375 0.30361435
0.13631178 0.28703174 -0.084124699 -0.98570347 0.06994728 -0.15328388 0.28419596
0.14482427 0.28450716 -0.08345437 -0.99407363 0.10682946 0.02012768 0.22885253
0.15041886 0.28453577 -0.085060693 -0.99641013 0.024465403 0.081045166 0.16671219
-0.15111992 0.29268292 -0.086783268 0.99930012 -0.037384797 -0.0012686024 0.13682601
-0.14882186 0.29475608 -0.086865 0.99692923 -0.069648422 -0.035794884 0.18251924
-0.13432245 0.29191765 -0.089975819 0.92001307 0.2190764 0.32493296 0.28491896
-0.12272735 0.29528761 -0.086392984 0.35511273 -0.85437065 0.37940162 0.31148404
-0.11436465 0.29497424 -0.083479322 -0.16267397 -0.98635143 0.025458781 0.28235087
-0.094875842 0.29408488 -0.081346646 0.9556489 -0.21334431 0.20302567 0.26647103
-0.0890292 0.29048926 -0.087063871 0.99048007 -0.025727108 0.13523097 0.20020911
-0.079904154 0.29850197 -0.086803265 0.98515391 -0.027031554 0.1695319 0.13817915
0.079904109 0.29443628 -0.080992147 -0.99604356 0.060207382 0.065363191 0.11530193
0.089029089 0.29429168 -0.085966036 -0.99892813 0.046120077 0.003934626 0.2132179
0.094875723 0.2924571 -0.08536014 -0.96459532 -0.19131769 -0.18153065 0.28073221
0.11436451 0.29623803 -0.08524055 0.249018 -0.38990906 -0.88654435 0.29734746
0.12350401 0.2945807 -0.08714886 -0.99703473 -0.048611477 -0.059654798 0.28153864
0.13799413 0.29075378 -0.08915516 -0.92998534 -0.014419779 0.36731383 0.27270731
0.14815056 0.29406112 -0.08683151 -0.99911475 -0.0021950158 0.042012833 0.1695548
0.15140446 0.29090261 -0.086992286 -0.99299157 -0.0024381897 0.11816058 0.15038109
-0.15041898 0.30848172 -0.087152086 0.99028969 -0.13204324 -0.04348417 0.17114466
-0.14530194 0.3066344 -0.085057676 0.98031706 -0.18735215 -0.062270749 0.20620963
-0.13486862 0.30699146 -0.085861042 0.86728406 -0.49061939 -0.084326766 0.28674763
-0.12333523 0.30550495 -0.082195148 0.9968105 -0.0040078945 -0.079705074 0.29038605
-0.11436465 0.3041321 -0.082315028 0.13262601 -0.9836933 0.12148194 0.28663728
-0.094875842 0.303325 -0.082227893 0.84210289 -0.2961548 0.45072719 0.30792838
-0.0890292 0.30379224 -0.085630178 0.99953938 0.013170529 0.027341379 0.19431232
-0.079904154 0.30720779 -0.082283475 0.99291831 0.0089708827 0.1184598 0.13080606
0.079904109 0.30170816 -0.083471179 -0.99779862 0.0010969985 0.066307321 0.12253228
0.089029096 0.30593422 -0.084817387 -0.99980849 -0.019478491 -0.001896594 0.20720801
0.094875723 0.30592173 -0.084121056 -0.99989706 0.014163067 -0.0023240712 0.29662815
0.1153368 0.30662283 -0.083104126 -0.36663666 -0.92976981 0.033251055 0.28295591
0.12386522 0.30575925 -0.084375687 -0.83161008 -0.45399937 0.31985813 0.2716535
0.13427217 0.30729601 -0.084380955 -0.80142903 -0.59634125 0.045701507 0.28543064
0.14380448 0.30795169 -0.081183113 -0.99154133 -0.12247124 -0.042973846 0.22730805
0.15181205 0.30421668 -0.082268618 -0.99463117 -0.10095503 -0.022737784 0.14826089
-0.15041898 0.3128978 -0.081455722 0.95649588 -0.24811144 -0.1534805 0.15534566
-0.14270854 0.31514207 -0.086124174 0.88446146 -0.46326694 -0.05578281 0.20163743
-0.13572554 0.31280419 -0.085714757 0.86755222 -0.48327923 0.11744978 0.25111696
-0.12311989 0.31587932 -0.0864233 0.8578673 -0.39285564 0.33125243 0.25794911
-0.11436467 0.31408882 -0.08273223 0.23350319 0.2641314 0.93579423 0.29266265
-0.094875842 0.31697661 -0.080624506 0.99958307 -0.028828662 0.0016126444 0.25964248
-0.0890292 0.31629974 -0.085063085 0.99795741 0.011230493 0.062888764 0.17744054
-0.079904154 0.3178879 -0.083800554 0.9952724 -0.014233802 0.096074186 0.11866006
0.079904109 0.31351858 -0.082220607 -0.98813069 0.016964456 0.15267591 0.12647596
0.089029089 0.31634492 -0.084787056 -0.99885815 -0.015589852 -0.045158599 0.19718057
0.094875723 0.31678843 -0.084241666 -0.99215364 0.03524914 0.11995246 0.28684101
0.11436452 0.31615105 -0.087529257 -0.30026412 -0.94829118 0.10288392 0.27899617
0.12526968 0.31631997 -0.083663948 -0.91776741 -0.32499814 0.22820905 0.26184291
0.13510463 0.31266961 -0.086745098 -0.88167679 -0.46978745 0.044110894 0.24796924
0.14696123 0.31438822 -0.084507346 -0.99674124 -0.067244172 -0.044555981 0.1683643
0.15035598 0.31699333 -0.082518995 -0.99881363 -0.038604304 0.029681956 0.16949259
-0.15041898 0.32081994 -0.081789747 0.98240858 -0.18195502 0.042021122 0.13684161
-0.14193024 0.3235355 -0.081101187 0.56717646 -0.61419636 0.54870182 0.2203439
-0.12422327 0.32581627 -0.084753349 0.92517823 -0.31248856 0.21539757 0.22214022
-0.11436465 0.32568735 -0.085809529 0.27204332 -0.73843956 0.61700851 0.29348001
-0.094875842 0.32883734 -0.087550841 -0.8677271 -0.48711532 -0.098835044 0.27720395
-0.089029193 0.32444814 -0.08523865 0.99982721 0.00037101714 0.018582361 0.19048429
-0.079904146 0.32562447 -0.086577095 0.98173207 -0.019614393 0.18925484 0.13417338
0.079904109 0.32708549 -0.084878877 -0.98495704 -0.015805434 0.17207509 0.12989202
0.089029089 0.3230311 -0.087172523 -0.99309742 0.11034203 -0.039776061 0.19160238
0.094875723 0.32603708 -0.081342123 -0.92481393 0.30801296 0.22326495 0.26213756
0.11436452 0.32702363 -0.08821322 -0.47118378 -0.42785349 0.77131528 0.27274665
0.12260509 0.32397571 -0.083368555 -0.77327275 -0.55242103 0.31125584 0.23313837
0.14374143 0.3218241 -0.081675962 -0.95327926 -0.29734436 0.053338535 0.20545666
-0.12387956 0.3352586 -0.084142908 0.88228303 -0.090342291 0.46196848 0.24952713
-0.11574134 0.3355307 -0.082739599 0.01122397 -0.96780509 -0.25145069 0.25819284
-0.094875842 0.33649403 -0.086147644 0.9268595 -0.025497098 -0.37454146 0.28593248
-0.0890292 0.33653736 -0.083379731 0.99744362 -0.066749729 -0.025509577 0.21207027
-0.079904154 0.33862942 -0.081744492 0.9948085 -0.016308226 0.10044937 0.10997856
0.079904109 0.33159336 -0.082400411 -0.99652427 0.0077393218 0.08294335 0.1148055
0.089029096 0.33693299 -0.085608236 -0.99865913 0.044971496 -0.025640573 0.17329784
0.094875723 0.33553854 -0.081115201 -0.97534394 0.19357206 0.10599072 0.27994755
0.11541741 0.33496526 -0.083880201 0.33243799 -0.44239408 -0.83293009 0.27531582
0.12367719 0.33711344 -0.08503516 -0.89130831 0.31675404 0.32440174 0.24133655
-0.11436466 0.34391358 -0.085666426 0.5987038 -0.0021282416 0.80096769 0.27506411
-0.094875842 0.34062296 -0.084409893 0.956734 -0.28530791 0.057091303 0.28419113
-0.0890292 0.34564829 -0.08654587 0.9960804 -0.011764187 0.087666705 0.19729412
-0.079904154 0.34177551 -0.082823582 0.98954457 -0.063748665 0.12937404 0.12504984
0.079904109 0.3446542 -0.084694155 -0.99207342 -0.011907308 0.12509421 0.12292528
0.089029089 0.34666955 -0.086579084 -0.99797529 -0.063503563 -0.0035462906 0.20238444
0.094875723 0.34881866 -0.082362458 -0.98769641 0.15562306 0.015398845 0.2455723
0.11436453 0.3415207 -0.0848042 0.38520455 -0.56741387 -0.72777677 0.27045164
0.12574917 0.34022343 -0.081839964 -0.9183625 0.26042366 0.29797626 0.21591908
-0.15626562 0.35646272 -0.08607839 0.95621222 0.29146665 0.026560029 0.15388876
-0.14413899 0.35342598 -0.086923093 -0.78129643 -0.61522937 -0.10520899 0.22451714
-0.13428092 0.35354283 -0.084816262 -0.60065734 -0.6744625 -0.42931467 0.22213568
-0.11790469 0.3535988 -0.084575407 0.73978388 0.1276941 0.66061646 0.27704471
-0.094875842 0.35626397 -0.085807048 -0.89653182 -0.44295332 0.0048137498 0.27186376
-0.0890292 0.35847837 -0.088514529 -0.9472301 -0.31794107 -0.040850095 0.24378067
-0.079904154 0.35680825 -0.087635912 0.94835019 0.060474984 0.31140783 0.16841815
0.079904109 0.3533316 -0.083742879 -0.99720967 0.041853555 0.061815437 0.11799157
0.089029089 0.35084081 -0.08124271 -0.9801721 0.19481802 0.036173891 0.17650357
0.094875723 0.3553243 -0.085793391 0.8979699 -0.43825689 0.039760374 0.24686079
0.11463507 0.35307711 -0.08609537 -0.19268776 -0.36097914 0.91245031 0.28984579
0.12611453 0.35356483 -0.084037594 -0.92908829 0.17683944 0.32484257 0.27355939
0.13471776 0.35346395 -0.08671198 0.60774255 -0.71556574 -0.34440485 0.24855927
0.14502072 0.35361227 -0.083679542 0.79130393 -0.49105817 -0.36428005 0.20922108
0.15574697 0.35582009 -0.086349577 -0.94137144 0.3373718 0.0004228272 0.17449723
-0.15715718 0.36317512 -0.083333053 -0.91640061 -0.39455423 0.067356966 0.15589468
-0.14484814 0.36933917 -0.081989698 -0.41316158 -0.85038304 -0.32580093 0.22445899
-0.12771043 0.36961123 -0.083214074 0.05927933 -0.96412212 -0.25875556 0.1978461
-0.1158721 0.36946911 -0.085914828 -0.00072212983 -0.99165344 -0.12892972 0.19036618
-0.1067512 0.36947718 -0.086030006 -0.050476383 -0.98893642 -0.13948721 0.18138416
-0.095113315 0.36628416 -0.085606754 -0.52672529 -0.82973015 -0.18468434 0.22568102
-0.0890292 0.36291397 -0.087687247 -0.77574664 -0.61430985 -0.14436267 0.21882765
-0.079904146 0.3647663 -0.086436071 0.87259269 0.2064648 0.44266728 0.18978854
0.079904109 0.36820063 -0.085070416 -0.89966083 0.24923825 0.35845599 0.21835575
0.089503713 0.3654418 -0.08317259 0.82268047 -0.56601489 -0.053142074 0.18673073
0.094524041 0.36604181 -0.084758788 0.55097848 -0.82853061 -0.099798389 0.17672783
0.11447036 0.36972666 -0.084455252 -0.093853407 -0.97864562 -0.1828777 0.19916385
0.12304101 0.36954758 -0.086232282 -0.18237089 -0.96077842 -0.2089155 0.2109296
0.13565905 0.36943731 -0.085057974 0.16711691 -0.98227298 -0.084922373 0.20421964
0.14368665 0.36957628 -0.08421465 0.31536871 -0.87258321 -0.37301627 0.19887577
0.15807648 0.36518925 -0.08265239 0.8830632 -0.46903852 -0.014220387 0.15245575
-0.16422291 0.37481385 -0.083271429 0.91651475 0.30141091 0.26296815 0.10829565
-0.15545774 0.37384343 -0.08533477 -0.90422785 -0.40640023 -0.13119021 0.17540683
-0.14291857 0.37383044 -0.083886854 -0.32882452 -0.87138879 -0.3640824 0.20470941
-0.13693166 0.37382668 -0.084762737 -0.073013544 -0.91574866 -0.39506128 0.15758608
-0.124984 0.37386373 -0.088108324 -0.08106377 -0.97905403 -0.18676668 0.19272257
-0.11118709 0.37386373 -0.087748371 -0.10517554 -0.98244983 -0.15404683 0.15578243
-0.10507444 0.37382674 -0.085736357 -0.084582351 -0.93713677 -0.33855656 0.17021188
-0.093887225 0.37381622 -0.084260076 -0.3686699 -0.8773523 -0.30714059 0.16035745
-0.08596798 0.37383562 -0.084864609 -0.69586146 -0.59999776 -0.39468902 0.1798903
0.097273536 0.37380067 -0.084090687 0.29511791 -0.89032102 -0.34674749 0.16987082
0.10418914 0.37382281 -0.084237307 0.16123709 -0.94077981 -0.29822132 0.16946064
0.11595376 0.37384677 -0.084761783 -0.049648445 -0.97640461 -0.21016431 0.14076574
0.12844819 0.37385735 -0.085971363 0.064815126 -0.96987027 -0.23484166 0.17937267
0.13521132 0.37386373 -0.087063946 0.15744184 -0.91969699 -0.35967991 0.21328737
0.14410205 0.3738637 -0.088962905 0.49084643 -0.78335232 -0.38135141 0.21800385
0.15669335 0.37386376 -0.082944751 0.79330838 -0.52980858 -0.29994115 0.16365175
0.16380268 0.37563589 -0.084224015 -0.90189147 0.27551106 0.33269429 0.097214788
-0.16195726 0.38681474 -0.085952342 0.88655335 0.22433971 0.40459228 0.069030449
0.1623252 0.38652754 -0.085506707 -0.89137846 0.19642666 0.40848622 0.069855541
-0.16079272 0.39521703 -0.087173432 0.92945355 0.07034497 0.36217102 0.039153975
0.16046558 0.39883301 -0.08748351 -0.90771204 0.010245205 0.41946846 0.036842547
-0.16049163 0.40420878 -0.084604874 0.95579517 -0.11947109 0.26866749 0.020368738
-0.15955701 0.40367633 -0.088387333 0.87098116 -0.10152397 0.48071277 0.033789147
0.16054112 0.40418097 -0.084352158 -0.94623542 -0.1135336 0.30290028 0.016334776
-0.15926801 0.41441989 -0.084378339 0.94137383 -0.09386608 0.32404405 0.018578803
0.15943244 0.41565984 -0.082634106 -0.9534893 -0.10849488 0.28122398 0.015340197
-0.15835002 0.42153811 -0.084576681 0.941818 -0.12266993 0.31293923 0.016669225
0.15836054 0.42173994 -0.084381521 -0.9313699 -0.10706955 0.34797448 0.024556307
0.15693134 0.43432182 -0.083627962 -0.91908729 -0.15045507 0.36420032 0.037091635
-0.15579219 0.44148287 -0.084726028 0.88342315 -0.19182315 0.42751306 0.027740918
-0.068545222 0.44101089 -0.0843357 -0.21772733 -0.78751904 0.57654887 0.14665063
-0.054499637 0.44101092 -0.086583555 -0.14824086 -0.66073984 0.7358312 0.14830004
-0.045011554 0.44101089 -0.084354401 0.0021917319 -0.70318538 0.71100318 0.12086848
-0.032359689 0.44101089 -0.082214631 -0.012580376 -0.74174768 0.67056108 0.11366488
-0.024940427 0.44101089 -0.086252205 0.0096699549 -0.73857951 0.67409712 0.1114905
-0.015634609 0.44101092 -0.086948492 -0.029505454 -0.80420762 0.59361571 0.12924339
-0.0031529632 0.44101089 -0.086293787 0.00049045368 -0.77497131 0.63199615 0.12475556
0.004836217 0.44101092 -0.082711585 0.048841458 -0.74725598 0.66273916 0.12087649
0.016315833 0.44101089 -0.084612951 0.064709313 -0.77309626 0.63097918 0.14026195
0.028036719 0.44101089 -0.081465393 0.042228252 -0.79207063 0.60896719 0.1465005
0.034944456 0.44101086 -0.082383208 -0.0011212304 -0.68713391 0.72653002 0.15501152
0.047081914 0.44101089 -0.081892796 0.0070161652 -0.72599053 0.68766898 0.14836721
0.05391328 0.44101092 -0.086365812 0.027651245 -0.70348471 0.71017218 0.17488985
0.065005489 0.44101086 -0.087948859 0.16807957 -0.58782965 0.79133153 0.162945
0.07039836 0.44406947 -0.084760018 0.27224013 -0.7400369 0.6150046 0.15846291
0.15466082 0.44585899 -0.087111935 -0.79781401 -0.27253565 0.53778905 0.036809459
-0.15276206 0.45636189 -0.086099267 0.68567687 -0.45536834 0.56787926 0.054082345
-0.070398472 0.4567675 -0.083091617 -0.32872319 -0.79587561 0.50845158 0.16024993
-0.064607374 0.45082235 -0.082605429 -0.28042945 -0.85890347 0.42853719 0.13427384
-0.050036054 0.45082229 -0.081003204 -0.11776261 -0.60012287 0.79119188 0.14598021
-0.042504545 0.45082232 -0.084101319 0.0047281063 -0.68567997 0.72788775 0.12114117
-0.035715476 0.45082235 -0.087521434 0.023809209 -0.63937521 0.76852614 0.11757185
-0.025026347 0.45082235 -0.086622611 -0.0044108955 -0.68843859 0.72528112 0.13144241
-0.012702255 0.45082232 -0.083641768 0.011201334 -0.70469278 0.7094242 0.12177599
-0.0061994633 0.45082232 -0.083688781 -0.024613135 -0.68378353 0.72926962 0.13370571
0.0001592622 0.45082232 -0.081578366 0.0060472507 -0.67264241 0.73994297 0.12623209
0.015645707 0.45082229 -0.085073382 0.048420832 -0.70732963 0.70522356 0.13622443
0.026645094 0.45082232 -0.083956815 -0.0078755431 -0.742432 0.6698752 0.14121671
0.037114866 0.45082235 -0.085856698 -0.016694486 -0.78406918 0.62044883 0.15880339
0.044877902 0.45082232 -0.086113192 -0.024590375 -0.76142776 0.64778328 0.14375743
0.054872759 0.45082235 -0.0854389 0.11391356 -0.6471945 0.75376582 0.16802476
0.066612892 0.45082232 -0.087251082 0.1376169 -0.77875555 0.61204696 0.15390977
0.07039836 0.45569682 -0.083468266 0.35455498 -0.83899486 0.4127692 0.16516434
0.15296134 0.45632094 -0.085728146 -0.69322211 -0.43352807 0.57575744 0.041580968
-0.15221265 0.46348643 -0.083804861 0.59795231 -0.62807888 0.49796572 0.06981805
-0.14708459 0.46712989 -0.08542715 0.40884292 -0.74395972 0.52855593 0.085934803
-0.13454247 0.46861392 -0.086126819 0.13150355 -0.81804013 0.55992597 0.097617455
-0.12759355 0.46828943 -0.08809787 0.068005174 -0.79578674 0.60174638 0.11290041
-0.11629193 0.46880704 -0.088796891 -0.066384666 -0.83024365 0.55343342 0.15619853
-0.070398465 0.46084934 -0.080971919 -0.090041168 -0.72240871 0.68557864 0.18144989
0.07039836 0.46702364 -0.080963463 -0.068452671 -0.69605368 0.71471912 0.19956712
0.10869649 0.46993345 -0.088431522 -0.14135347 -0.89752293 0.41769829 0.13997729
0.11767006 0.4679862 -0.089524463 -0.01697349 -0.88013107 0.47442734 0.13133329
0.13605377 0.46626297 -0.089332782 -0.20111389 -0.78228498 0.58956206 0.085701399
0.14393267 0.46656853 -0.086954691 -0.3763648 -0.72830272 0.57264704 0.072159983
-0.13325772 0.47110876 -0.082470611 0.16442433 -0.85769421 0.48716041 0.092874438
-0.12118118 0.47141278 -0.084934264 -0.025743326 -0.88842994 0.45828971 0.15633555
-0.11536809 0.47260904 -0.084140003 0.084778391 -0.87626058 0.47432047 0.16596603
-0.10321654 0.47391805 -0.084765494 0.085214891 -0.8639673 0.49628511 0.14437667
-0.093906544 0.47342145 -0.08633139 -0.055295821 -0.86354929 0.50122362 0.15664166
-0.086063303 0.47396338 -0.086620502 -0.057616506 -0.86993587 0.48978773 0.17394689
-0.074297912 0.47541511 -0.085837036 -0.021515697 -0.7776621 0.62831432 0.17650603
0.071604289 0.47358343 -0.084808558 0.0097119343 -0.65046316 0.75947577 0.16878839
0.083733164 0.47664452 -0.084003098 -0.017224273 -0.86052245 0.50912124 0.14860286
0.092920244 0.47731733 -0.082101524 -0.051241506 -0.96603143 0.25329363 0.15726303
0.10681941 0.47329256 -0.084724687 -0.041673653 -0.93493718 0.3523576 0.17517297
0.11877009 0.47193691 -0.084688738 -0.039469022 -0.919972 0.3899917 0.1214927
0.12418155 0.47314912 -0.081439152 0.09077137 -0.91593772 0.39092028 0.12827162
0.13874228 0.4703899 -0.082275853 -0.21867724 -0.85840774 0.46402189 0.098879024
-0.07117907 0.48045138 -0.081312798 0.087037869 -0.76878083 0.63356173 0.15918012
0.073382273 0.48144138 -0.080006339 -0.15041685 -0.73841715 0.65735447 0.13996321
-0.10039012 -0.49167284 -0.077109963 0.26100391 0.96376938 0.055004396 0.031497359
-0.093563102 -0.49305657 -0.073317833 0.27225989 0.96081299 0.052086029 0.024802905
-0.084526382 -0.49492732 -0.076416872 0.17372237 0.96907651 0.17524625 0.036569595
-0.077476256 -0.49636275 -0.0728136 0.072829112 0.99622232 0.047298245 0.028528797
-0.06601499 -0.4978655 -0.070294484 -0.065431796 0.99363977 -0.0916446 0.042826243
-0.05522177 -0.49829704 -0.075600401 0.023495113 0.99709988 -0.072385758 0.062918231
-0.048211958 -0.4998644 -0.073532447 -0.02357666 0.9803769 -0.19571732 0.046068858
-0.036151052 -0.49989903 -0.078570336 0.0063469051 0.99903482 -0.043464527 0.067434706
-0.026319038 -0.49992394 -0.074758485 -0.010295188 0.98633265 -0.16444448 0.060872681
-0.017496489 -0.49994847 -0.076916352 0.032807648 0.98892969 -0.14471276 0.062997125
-0.0049813143 -0.49998116 -0.074820459 0.044642366 0.97538221 -0.21595509 0.060485326
0.0073007564 -0.49997512 -0.075252689 0.010027787 0.98268241 -0.18502606 0.054729223
0.014336459 -0.4999572 -0.0776897 -0.0022159137 0.99345523 -0.11420022 0.062130548
0.023854187 -0.49993068 -0.075119995 -0.039401546 0.98124605 -0.18868947 0.058018595
0.03564642 -0.49989888 -0.074913427 -0.020138972 0.9776805 -0.20912947 0.055083513
0.040652297 -0.49988511 -0.074280888 -0.030919662 0.9785682 -0.2035882 0.049049195
0.058274452 -0.49788871 -0.074825913 -0.0073733237 0.99560112 -0.093403175 0.053210042
0.063992344 -0.49787256 -0.073829889 -0.0059640328 0.99823254 -0.059129126 0.052765351
0.075134486 -0.49685058 -0.075949982 -0.046752404 0.99393314 0.099554762 0.042568512
0.087236024 -0.4943814 -0.078659028 -0.13738662 0.95491809 0.26316613 0.033573441
0.094289877 -0.49291945 -0.075841703 -0.22297278 0.96194816 0.15792069 0.035476685
-0.13479637 -0.48472914 -0.074970923 0.50593704 0.86204767 0.030026279 0.033208694
-0.12567657 -0.48510805 -0.074804932 0.33003184 0.94395524 0.0052359942 0.042198271
-0.11842412 -0.48800638 -0.074339867 0.24776652 0.96881896 0.0012637916 0.044094302
-0.10911783 -0.48989308 -0.07970605 0.24165964 0.94987786 0.19832467 0.0383319
0.11130628 -0.48943865 -0.078656897 -0.21156859 0.95796502 0.19375694 0.040293008
0.1225417 -0.48265588 -0.076681413 -0.25923508 0.96256888 0.079109855 0.043335639
0.13797942 -0.48267671 -0.075336553 -0.59747994 0.80186206 0.0059154867 0.031401087
-0.14338319 -0.47452638 -0.075594477 0.72868997 0.67183524 0.13284716 0.02781824
0.12241725 -0.47926816 -0.078712933 -0.27139196 0.9374755 0.21791284 0.060099032
0.14250487 -0.47602171 -0.076124042 -0.66355908 0.74780822 0.021727275 0.033475153
-0.14879897 -0.46530464 -0.076522499 0.86933172 0.48617297 0.088871717 0.01552536
0.1489542 -0.46504021 -0.072116114 -0.89051664 0.45257083 -0.046474695 0.011704211
0.15083668 -0.46148902 -0.076845713 -0.92405397 0.37560919 0.071007051 0.011389041
-0.1529312 -0.45467022 -0.077532373 0.94968814 0.2915822 0.11433375 0.012801553
0.15200692 -0.4563559 -0.072210871 -0.9469822 0.32015157 -0.026973214 0.0051098526
-0.15650019 -0.44221091 -0.075810246 0.97963321 0.19269824 0.056447431 0.013551981
-0.15764441 -0.43381739 -0.076008581 0.98718333 0.12691507 0.096755505 0.016833495
0.1572511 -0.43464556 -0.073845103 -0.99021268 0.13952832 0.0032713495 0.0066605443
-0.1581049 -0.42671305 -0.07611689 0.99209064 0.076631658 0.099417031 0.016865162
0.15810584 -0.4248623 -0.073263012 -0.99827647 0.058523934 0.004365481 0.0062499326
-0.15865961 -0.41303626 -0.074399993 0.9970566 0.059063278 0.048885226 0.010118022
0.1586412 -0.41327325 -0.072489366 -0.9984026 0.055769552 -0.0090618748 0.0052374233
-0.15923679 -0.40166086 -0.078683779 0.99101967 0.065841928 0.11638273 0.018006753
0.15897471 -0.4080568 -0.079020172 -0.98654258 0.062383045 0.15113574 0.021866413
-0.1597212 -0.3929404 -0.076247796 0.99310744 0.08080098 0.084904335 0.015420419
0.15953287 -0.39668068 -0.074525222 -0.99844933 0.052444026 0.018671265 0.0062889559
-0.16030645 -0.38488504 -0.07501287 0.99775916 0.057959456 -0.033425052 0.0043024616
-0.1598593 -0.38697264 -0.07730215 0.99526715 0.044516545 0.086381376 0.017018994
0.15986513 -0.3876369 -0.079927221 -0.98248512 0.070249468 0.17259175 0.023923427
0.16030438 -0.38466921 -0.075489946 -0.99550128 0.053032577 0.078516334 0.010004511
-0.1606825 -0.37382841 -0.075339638 0.99832582 0.049041569 0.03066556 0.0076412875
0.16109665 -0.37141842 -0.077644512 -0.99360949 0.074915595 0.084426515 0.0098855793
-0.16135107 -0.36469832 -0.073533736 0.999322 0.03458707 0.012621915 0.0073173242
0.16111559 -0.36406103 -0.073866419 -0.99870175 0.043173838 0.027033387 0.0079402439
-0.16192892 -0.35678068 -0.075834215 0.99661422 0.035644539 0.074091241 0.011303334
0.16159022 -0.35845202 -0.072912514 -0.99780124 0.064731419 0.01422983 0.0073802895
-0.16243456 -0.34639606 -0.073947243 0.99375921 0.065350458 0.090398945 0.012173981
0.16253109 -0.3447583 -0.073633537 -0.99718028 0.062824056 0.041043926 0.010339258
0.16348767 -0.33254349 -0.075190559 -0.98637205 -0.1347494 0.094407551 0.053458277
-0.16410556 -0.32496083 -0.075655788 0.94334841 -0.29984441 0.14208132 0.092778429
0.16411071 -0.32430688 -0.071171105 -0.97650099 -0.21546084 0.0047470853 0.068416983
-0.16354328 -0.31865144 -0.075297177 0.94950026 -0.30730867 0.063329771 0.081538558
-0.15519591 -0.31570587 -0.0741041 -0.82445621 0.55640936 -0.10334667 0.13167392
-0.14744341 -0.31599876 -0.072506271 -0.61522108 0.78616309 -0.05874167 0.18769564
-0.13562712 -0.31639057 -0.075632423 0.025345962 0.99223256 -0.12178724 0.1488986
-0.1232407 -0.31693101 -0.07546512 0.1264918 0.98512626 -0.11630166 0.148487
-0.11497255 -0.31547299 -0.075264879 0.038192309 0.99438691 -0.098671533 0.12388029
-0.10533425 -0.31580144 -0.074686579 -0.089406997 0.99158388 -0.093636945 0.1212277
-0.094775669 -0.31455117 -0.077133946 -0.47071865 0.87647367 -0.10108318 0.16130966
-0.084622703 -0.31774858 -0.074897364 -0.6492784 0.74939054 -0.12981275 0.13093442
-0.079904154 -0.31207114 -0.071977675 -0.94893032 0.31472161 0.021943975 0.14898556
0.079904109 -0.31587204 -0.07503932 0.87689167 0.46041632 -0.13812259 0.1473715
0.082301348 -0.3173455 -0.071835645 0.78183568 0.61189759 -0.11964226 0.16366717
0.094103068 -0.31571823 -0.073482469 0.53402364 0.82633096 -0.17887439 0.1755612
0.10536453 -0.31573173 -0.072987646 0.063605763 0.98897243 -0.13374534 0.12366415
0.11362242 -0.31714079 -0.074065253 0.053016111 0.99424821 -0.093057945 0.096827172
0.12690714 -0.31629235 -0.074637584 0.03402527 0.99930871 -0.014983839 0.12778172
0.13304986 -0.31543753 -0.071328789 -0.085103475 0.97773367 -0.19181834 0.15555839
0.14617835 -0.31652296 -0.074680611 0.36307609 0.93010396 -0.055518821 0.15886326
0.15683901 -0.31446478 -0.073790684 0.73408258 0.66854066 -0.1190635 0.14736429
0.16324461 -0.31740177 -0.072262876 -0.9491955 -0.31033453 0.052157961 0.088916771
-0.15762775 -0.30522826 -0.077164523 0.92020738 -0.38705811 0.058347423 0.13516027
-0.094875842 -0.30586994 -0.073101453 -0.76124579 0.64364666 -0.07889019 0.21967502
-0.0890292 -0.30745161 -0.073445529 -0.88397664 0.46642548 0.032132488 0.17426819
-0.079904154 -0.30649295 -0.075127766 0.99122161 -0.13168445 -0.011787634 0.13418993
0.079904109 -0.30707264 -0.077828303 -0.97567046 -0.20033984 0.089056455 0.13190295
0.089029089 -0.30424067 -0.076773413 -0.96178889 -0.27186918 0.03239274 0.18106328
0.094875723 -0.3067596 -0.077125609 0.5481497 0.83384496 -0.065072015 0.24147657
0.15918879 -0.30695993 -0.071795233 -0.88196802 -0.46152097 0.095555261 0.11841021
-0.15406509 -0.29632661 -0.075300001 0.94707388 -0.32093439 0.0072367266 0.13494854
-0.14418721 -0.29489762 -0.07425227 0.92661494 -0.32823908 -0.18342276 0.24271503
-0.13598606 -0.29588494 -0.072273508 0.63669622 -0.19606611 0.74577206 0.29061913
-0.12619825 -0.29850951 -0.075903475 0.93896449 -0.10460287 0.3277255 0.28009847
-0.11436467 -0.29444039 -0.075577855 0.38633075 0.74465328 0.54427952 0.26539925
-0.094875842 -0.29902586 -0.074421652 -0.9533428 0.30181366 0.0067744995 0.25352332
-0.0890292 -0.29634872 -0.074479856 0.99994838 0.0092612198 -0.0041690096 0.15847543
0.079904109 -0.29536653 -0.079451561 -0.99891239 0.014955548 0.044163965 0.10498445
0.089029089 -0.29002202 -0.075222403 -0.99693382 0.0314808 -0.071637675 0.18176913
0.094875723 -0.2956402 -0.071494117 -0.99192649 -0.1046028 0.071694724 0.24187478
0.11525159 -0.29570183 -0.074991487 -0.21089737 0.51138669 0.83307022 0.280099
0.12325156 -0.29800633 -0.073855273 -0.83941782 0.069436587 0.5390327 0.29385555
0.13559303 -0.29578495 -0.075647607 0.68448526 0.52611077 -0.50466567 0.25611305
0.14561893 -0.29796395 -0.074642874 -0.90321958 -0.41216281 0.11965042 0.24206647
0.15350424 -0.29838255 -0.074688762 -0.93358403 -0.34319055 0.10315593 0.1353583
-0.15041898 -0.28812853 -0.0748192 0.94045758 -0.33751214 -0.040310994 0.17185377
-0.14449903 -0.28315824 -0.072623327 -0.89280772 0.44907966 0.034955032 0.24343784
-0.13457838 -0.28523308 -0.076092996 -0.14565055 0.97836447 0.14693162 0.28725082
-0.12301627 -0.2835438 -0.077749588 -0.07426098 0.98554051 0.15229954 0.26245832
-0.11436467 -0.28356457 -0.079337448 0.11392557 0.99346423 -0.0070550181 0.23782142
-0.094875842 -0.28741595 -0.076090366 0.98936754 0.14444125 0.016986253 0.260694
-0.089029208 -0.28300184 -0.075149968 0.99816507 -0.039964415 -0.045491152 0.18634146
-0.079904154 -0.28257862 -0.076475874 0.99816912 -0.015715983 0.058407009 0.089130051
0.079904117 -0.28723592 -0.075556152 -0.99500567 0.043273747 0.089950018 0.094421938
0.089029096 -0.28657743 -0.075602569 -0.99681288 0.068078987 -0.041584197 0.2160895
0.094875723 -0.28819203 -0.074228019 -0.98434037 0.087060474 0.15327898 0.25748825
0.11436453 -0.28643152 -0.073105834 -0.14103159 0.95281434 0.26880279 0.26468912
0.12480868 -0.28559661 -0.074853212 -0.85832047 -0.052795742 0.51039058 0.2777369
0.13621756 -0.28562874 -0.07366322 -0.34149417 -0.012654147 0.93979865 0.29440063
0.14343125 -0.28478402 -0.074069224 -0.7399528 -0.29994389 0.60208267 0.25538602
-0.15041897 -0.27925938 -0.076008409 0.97605407 -0.20679575 -0.067482486 0.20626096
-0.14428367 -0.27427697 -0.072946332 0.87652647 -0.2065452 -0.43478772 0.19190408
-0.13789468 -0.27366677 -0.073936991 0.098815218 0.3572554 0.92876488 0.23285535
-0.1238637 -0.2761049 -0.07464949 -0.016642006 0.68013358 0.73289925 0.25684062
-0.11436465 -0.27567899 -0.076395549 0.064229235 0.98916596 0.13200481 0.27566344
-0.094875842 -0.27160215 -0.077228114 0.98548335 0.16518094 -0.039214671 0.27480721
-0.0890292 -0.27638894 -0.078708641 0.99748927 -0.0057781227 -0.070581757 0.20708716
-0.079904154 -0.27254838 -0.075945564 0.99982721 -0.0025695805 0.018411269 0.087384552
0.079904109 -0.27461982 -0.075347818 -0.99613303 0.024035789 0.084505349 0.094541997
0.089029096 -0.27421635 -0.076727755 -0.99626923 0.015684351 0.084861882 0.20410636
0.11436451 -0.27626592 -0.075740546 -0.09934245 0.99470502 0.026324419 0.29429114
0.12230545 -0.27533999 -0.076717861 -0.99204868 0.047631789 0.11649296 0.29814577
0.13593534 -0.27511159 -0.074124247 0.27721301 0.35155877 0.89418083 0.23994175
0.14660828 -0.27175847 -0.074204154 -0.62825161 0.27466366 0.72791469 0.16581027
-0.15041898 -0.2628729 -0.072971031 0.95034915 0.12435888 -0.28525665 0.17457278
-0.14431937 -0.26468888 -0.076934502 0.96948993 0.21503828 0.11767647 0.22071309
-0.1361388 -0.26649836 -0.075349897 -0.074956641 0.22363804 0.97178584 0.2794463
-0.12290486 -0.26590657 -0.075622104 0.80126446 0.56236613 -0.20425387 0.31098673
-0.11436466 -0.26319265 -0.074809648 -0.15192723 0.68899029 -0.70866811 0.27963245
-0.094875842 -0.26725399 -0.071805164 0.98806477 -0.090214401 0.12485743 0.26587737
-0.0890292 -0.26597366 -0.074973926 0.99963576 -0.0090730917 -0.025416816 0.18796025
-0.079904146 -0.26760727 -0.074278407 0.99564129 0.064527601 -0.06733983 0.083329074
0.079904109 -0.26443765 -0.073347241 -0.99991828 -0.012209124 0.0037829131 0.084343649
0.089029089 -0.26681203 -0.075977325 -0.99884069 -0.034575455 0.033495124 0.17242303
0.094875723 -0.26372087 -0.073762536 -0.98776764 -0.1255507 0.092478156 0.29044428
0.11436453 -0.2657662 -0.077634014 -0.2741949 0.88001943 0.38779238 0.26622224
0.12314445 -0.2660569 -0.076888055 0.50091606 0.59899896 0.62472659 0.30041954
0.13409165 -0.26536706 -0.07597173 -0.84691048 0.53069657 0.033223446 0.26882589
0.14576703 -0.26459858 -0.078334846 -0.95300466 0.30207071 0.023140203 0.18883128
0.15041886 -0.26369873 -0.075604782 -0.98539478 0.096136488 -0.14055249 0.16262296
-0.14390844 -0.25435424 -0.074316166 0.97290832 0.11779365 -0.19893198 0.21832705
-0.13456717 -0.25309554 -0.075458452 0.77580994 0.40434605 -0.48437932 0.28298992
-0.12490587 -0.25303844 -0.075217254 0.95440394 0.26532876 -0.13679855 0.27251998
-0.11547838 -0.25391826 -0.075917676 0.023527201 0.72224081 -0.69124138 0.26871175
-0.094875842 -0.25217944 -0.075007088 0.98110688 0.17867824 0.074184723 0.2712107
-0.0890292 -0.25007463 -0.07139653 0.99540609 -0.060576059 -0.074143939 0.17869127
-0.079904154 -0.25472805 -0.074087635 0.99994302 0.0044429987 0.0097095082 0.091281757
0.089029089 -0.25436306 -0.074438393 -0.99971598 -0.006424699 0.022949167 0.1834693
0.094875723 -0.25557303 -0.076458178 -0.99809647 -0.061120097 -0.0082332194 0.27442047
0.1146246 -0.25383347 -0.075073831 -0.14075437 0.81400049 -0.5635525 0.28714305
0.12450512 -0.25328502 -0.073970295 -0.96143144 0.044180691 -0.27147296 0.28002542
0.13670745 -0.2552802 -0.074527092 -0.77648175 0.42401898 -0.46613732 0.27414098
0.14423439 -0.25522146 -0.075664856 -0.96117795 0.17075796 -0.21674582 0.19889635
0.15024275 -0.25418884 -0.076032981 -0.97311163 0.12661974 -0.19240887 0.1647218
-0.15154131 -0.24550001 -0.074704766 0.9796775 0.01273608 -0.20017433 0.1342562
-0.14586891 -0.24505286 -0.074519798 0.98312664 0.022324929 -0.18155865 0.16386646
-0.13884544 -0.2440716 -0.07228753 0.97708124 0.21286333 -0.0012283212 0.25257593
-0.12318043 -0.24446689 -0.074835658 0.28173479 0.16435017 -0.94531196 0.30907673
-0.11532764 -0.24403325 -0.073753364 -0.026981676 0.90613323 0.42213073 0.27063826
-0.094875842 -0.24412058 -0.074692897 0.96538377 -0.20293498 -0.16386418 0.27745005
-0.0890292 -0.24474044 -0.071547352 0.99809378 -0.012691116 -0.060395326 0.17373
-0.079904154 -0.24512815 -0.07116539 0.9993791 0.0085596517 -0.03417664 0.08398319
0.079904109 -0.24434873 -0.073488094 -0.9993422 -0.026290601 -0.024977678 0.090281613
0.089029089 -0.24519946 -0.072428912 -0.99948722 -0.0048059793 -0.031656675 0.18934631
0.094875723 -0.24753037 -0.076853894 -0.95604497 -0.13411835 -0.26074946 0.2934013
0.11561812 -0.24452971 -0.075122952 0.035535555 0.49595803 -0.8676191 0.28297061
0.12323748 -0.24484102 -0.075523518 -0.68379945 0.61539698 -0.39205226 0.29213715
0.13339829 -0.24541141 -0.07253731 -0.95838171 0.057495344 -0.27964044 0.28625447
0.14615314 -0.244091 -0.072088726 -0.99042523 -0.058391728 -0.12509273 0.17072846
0.1514941 -0.2442698 -0.074203491 -0.99833924 0.041989084 -0.039440941 0.14392371
-0.1517368 -0.23747981 -0.075772554 0.98884958 -0.073516041 -0.12950665 0.12601899
-0.14490484 -0.23604883 -0.076269887 0.99450618 -0.095589548 -0.042660438 0.19396926
-0.13434792 -0.2352436 -0.074103519 0.88646871 -0.46276003 0.0051438399 0.28183365
-0.1258256 -0.23504816 -0.074904233 0.9522146 -0.30453855 0.023318358 0.27415943
-0.11480954 -0.23556058 -0.075286992 0.15723245 0.63681489 0.75481439 0.26207775
-0.0890292 -0.23666506 -0.074974641 0.99688923 0.010005809 -0.078177936 0.18822625
-0.079904146 -0.23692606 -0.074492991 0.99968988 0.012417301 -0.021584574 0.091822654
0.079904109 -0.23601632 -0.075107433 -0.99858689 0.031341359 0.042918 0.094053321
0.089029089 -0.23334514 -0.074719489 -0.99485785 -0.089855254 0.046731591 0.18919685
0.094875723 -0.23470581 -0.072344206 -0.95495653 -0.23411807 0.18233672 0.25441346
0.11721326 -0.23597981 -0.075059541 -0.094393425 0.99524122 0.024186503 0.28220689
0.12241383 -0.23489881 -0.075899236 0.40809581 0.91024894 0.0700344 0.28026086
0.13409516 -0.23524728 -0.073875561 -0.87554508 0.17901655 -0.44874704 0.27178875
0.14637335 -0.23544553 -0.075178824 -0.97764635 -0.030662304 -0.20800838 0.20550615
0.15157419 -0.23805735 -0.073118746 -0.99804652 0.01589256 -0.060420156 0.15826698
-0.14472157 -0.22666138 -0.074622951 0.95538354 -0.21885675 -0.19835354 0.17395225
-0.13480163 -0.22469297 -0.074237123 0.89437729 -0.43959808 0.082721621 0.25328282
-0.12350415 -0.22319449 -0.071800493 0.98741812 -0.15773618 0.011170701 0.23925668
-0.11436466 -0.22393107 -0.077737622 -0.14896306 0.54763019 -0.82335365 0.26509455
-0.089029193 -0.22480015 -0.076087214 0.99586952 -0.069595262 -0.058312446 0.18921356
-0.079904154 -0.22638151 -0.074930847 0.99885559 -0.039839372 -0.026463572 0.085348375
0.079904109 -0.22502199 -0.075772524 -0.99886853 0.00058843155 0.047553793 0.092936441
0.089029089 -0.22467022 -0.074503236 -0.99909246 0.035951961 -0.022840591 0.16699339
0.094875723 -0.22377968 -0.07752946 -0.9347353 -0.24955621 -0.25296563 0.29832584
0.11436453 -0.2263314 -0.073080964 0.36228111 0.50602984 -0.7827428 0.28870925
0.12386358 -0.2266283 -0.076576091 -0.9860884 0.062264498 -0.15411983 0.24278814
0.13879383 -0.22641683 -0.074540071 -0.95393825 -0.16748436 -0.24889922 0.26265159
0.14295651 -0.22379833 -0.076869287 -0.9748463 -0.073175661 -0.21052313 0.21210241
0.15041886 -0.22870836 -0.072990447 -0.9857474 -0.071107224 -0.15246636 0.16175275
-0.14620537 -0.21637073 -0.073533505 0.97925121 -0.1134888 -0.16789129 0.20457996
-0.13690795 -0.21442045 -0.075302206 0.12397449 0.33353105 -0.93455195 0.2581951
-0.12271504 -0.21451722 -0.074578613 0.794554 -0.12727866 0.59370369 0.26054731
-0.11830024 -0.21080962 -0.074040934 0.66243476 0.10447228 0.74179906 0.28433383
-0.094875842 -0.21675964 -0.079885319 -0.81305552 0.55988008 0.15960892 0.29881299
-0.0890292 -0.21417718 -0.074230038 0.99291074 0.017076049 -0.11762892 0.16711046
-0.079904154 -0.21385923 -0.071061686 0.99812472 0.016295698 -0.059003543 0.079758607
0.079904109 -0.21243051 -0.073405191 -0.99956864 0.027148314 0.011197683 0.085086554
0.089029089 -0.21220426 -0.074584566 -0.99815178 -0.037544254 -0.047784962 0.17303315
0.094875723 -0.21367677 -0.077061646 -0.96205848 0.17884029 -0.20605713 0.27179867
0.11436452 -0.2153205 -0.073115796 -0.3421365 0.32302195 0.88238281 0.28346655
0.12270657 -0.21442728 -0.073842518 -0.71637678 -0.037992973 0.6966784 0.28158993
0.13453807 -0.21419235 -0.073014706 -0.72008508 0.15265757 -0.67688489 0.25758457
0.14508174 -0.21518306 -0.07394097 -0.68906724 0.11043004 -0.71623427 0.1864038
0.15030806 -0.2142804 -0.076955654 -0.88806456 0.13874152 -0.43828326 0.16626142
-0.15041898 -0.2022263 -0.075616471 0.94002736 0.28300181 0.19041665 0.20869915
-0.14712246 -0.20378433 -0.074951805 0.81153941 0.40399361 0.42212906 0.24385092
-0.13426931 -0.20520002 -0.075723149 0.69402206 0.064422615 0.71706563 0.28841129
-0.12445402 -0.20529574 -0.075893193 0.79477412 0.23235516 0.56066489 0.26333287
-0.11779913 -0.20482269 -0.076201126 0.33272082 0.77391529 0.5388431 0.26221147
-0.094875842 -0.20741133 -0.071916856 0.87634909 -0.44428477 0.18607354 0.28555167
-0.0890292 -0.20345695 -0.075420216 0.99848783 0.045583338 -0.030727979 0.16779065
-0.079904154 -0.20591511 -0.072925366 0.99764305 0.044906419 -0.051881466 0.084466591
0.079904109 -0.20567437 -0.079389937 -0.9952985 0.022501605 0.094205156 0.096997812
0.094875723 -0.20334703 -0.075169556 0.60747093 0.23472644 0.75886917 0.30318168
0.11773787 -0.20390317 -0.075376019 -0.16075556 0.94971293 0.26870593 0.25793692
0.12478255 -0.20502326 -0.073919669 -0.69813728 0.32875875 0.63602048 0.26591036
0.13348353 -0.20454925 -0.073981561 -0.74774063 0.30030218 0.59220147 0.29954228
0.14246719 -0.20399098 -0.073392682 -0.45474994 0.13295044 0.88063991 0.28599501
0.15041886 -0.20472994 -0.074683249 -0.75113165 0.28476015 -0.59557778 0.21067202
-0.15041897 -0.19520691 -0.071614407 0.89779943 0.29475656 0.32722282 0.1742745
-0.14492095 -0.19603327 -0.073978156 0.81042087 0.37604412 0.44923139 0.21541445
-0.13508372 -0.19434097 -0.07237421 0.7387706 0.13781168 0.65971655 0.23148365
-0.1270602 -0.19713303 -0.074396849 0.87721717 0.041762389 0.47827381 0.21907859
-0.11633246 -0.19491856 -0.074379563 -0.19253123 0.039151371 0.98050946 0.26657042
-0.089029193 -0.19362342 -0.074733064 0.99669737 0.081163436 -0.0026299946 0.16546535
-0.079904154 -0.19466464 -0.073877007 0.9986887 -0.01979146 0.047214568 0.080560714
0.079904109 -0.19233778 -0.072862245 -0.99998564 -0.0013486642 -0.0051836818 0.085745148
0.089029089 -0.19602288 -0.076711714 -0.99680769 0.047324795 -0.064303271 0.16971514
0.094875731 -0.19653325 -0.07537888 -0.97681725 0.0043399688 -0.21403103 0.26515657
0.1153715 -0.19296861 -0.07251215 -0.14469296 0.029700598 0.98903066 0.2347388
0.12380922 -0.19600891 -0.074694201 -0.65812451 0.0034686117 0.75290108 0.25677094
0.13462058 -0.19479938 -0.073084965 -0.60737544 0.23935203 0.75749958 0.23810385
0.14301568 -0.19427627 -0.073388077 -0.31003895 0.22593278 0.92348808 0.22354153
0.15041886 -0.19395271 -0.070525184 -0.92971683 0.35487488 0.098440543 0.17135859
-0.15577169 -0.18433933 -0.076551825 0.91293693 0.38699564 0.12953973 0.17550416
-0.13413991 -0.18812765 -0.07463719 0.46165019 0.33886045 0.8197881 0.25082818
-0.12630698 -0.18768317 -0.075335845 0.83744276 0.03191388 0.54559255 0.23552053
-0.11793177 -0.18724328 -0.079091169 0.61516434 -0.10062703 0.78195077 0.27971229
-0.094875842 -0.18508632 -0.074977703 0.83198535 0.55126637 0.06249591 0.25752902
-0.089029193 -0.18112537 -0.07201694 0.97171158 0.23511082 0.022351215 0.14165872
-0.079904154 -0.18282835 -0.075325064 0.97434348 0.16746603 0.15036619 0.11137272
0.079904109 -0.18733586 -0.071250908 -0.99935502 0.023496576 0.027156653 0.087143868
0.089029089 -0.18471953 -0.074997172 -0.97788954 0.20900872 0.0068793283 0.19057888
0.1161381 -0.18761544 -0.075537659 -0.25620604 0.01449295 0.96651351 0.23514663
0.13541321 -0.18764651 -0.075008973 -0.28208619 0.39627194 0.8737253 0.24469022
0.14385051 -0.18801229 -0.074580945 -0.77412963 0.33462822 0.53735209 0.23302013
0.15661983 -0.18412359 -0.073715061 -0.88490015 0.4259198 0.18853088 0.15632583
-0.15682143 -0.17340982 -0.07746847 0.85883182 0.48160839 0.17453153 0.16714311
-0.1330893 -0.17177518 -0.076668374 0.0069170627 0.95805562 0.28649876 0.18734127
-0.12380322 -0.17200029 -0.074247599 -0.10771242 0.97427607 0.19794977 0.20666854
-0.1072311 -0.17202625 -0.073968396 0.07184846 0.95102549 0.30064654 0.15255487
-0.094180994 -0.17370144 -0.075941868 0.44746366 0.88107502 0.15324178 0.16418216
-0.0890292 -0.17874038 -0.074063852 0.90054899 0.43449655 0.014975721 0.1475721
0.079904109 -0.17436054 -0.075926147 -0.87426436 0.42805266 0.22898221 0.1596016
0.094861507 -0.17568834 -0.073931709 -0.47034407 0.88075227 0.055243365 0.21794675
0.10647849 -0.17187545 -0.075589933 -0.075407267 0.96022981 0.26883531 0.16205777
0.11826202 -0.17178924 -0.076517053 0.022776859 0.98553467 0.16793633 0.15027507
0.12855117 -0.17207642 -0.073428653 -0.007368891 0.97524649 0.22099745 0.19926597
0.13418202 -0.17188667 -0.075469337 0.059079479 0.95605028 0.28718874 0.17738561
0.14689524 -0.17219143 -0.072191864 -0.23037927 0.93415725 0.27253574 0.19850498
0.1561241 -0.17434037 -0.076592043 -0.69058228 0.68470019 0.23298436 0.17784345
-0.16397975 -0.16390048 -0.077896975 0.90089834 0.39480108 0.18031712 0.1302357
-0.15287653 -0.16801172 -0.074237034 0.63821805 0.74205941 0.20500138 0.20700505
-0.14528902 -0.1681181 -0.07342913 0.27618355 0.92688984 0.25416139 0.20315561
-0.13450639 -0.16773123 -0.076367684 0.0082204957 0.97235554 0.23336041 0.13233815
-0.12449215 -0.16768543 -0.076715425 -0.054397687 0.98504329 0.16349481 0.1890936
-0.11519645 -0.16730809 -0.079581484 -0.036315493 0.96961629 0.24192023 0.13447379
-0.10475636 -0.16817777 -0.07297603 0.052546371 0.96530306 0.25579041 0.14057103
-0.09042301 -0.16727903 -0.079802327 0.42599306 0.87089723 0.2450877 0.14182959
-0.086455896 -0.16772327 -0.07642813 0.52716887 0.80623686 0.26846814 0.13148738
0.087059878 -0.16745278 -0.078482568 -0.60485953 0.77808923 0.16947608 0.1569207
0.095635593 -0.16779593 -0.075876154 -0.34953478 0.92110825 0.17142045 0.1364895
0.10452434 -0.16824928 -0.072432868 -0.056429412 0.98229146 0.17865933 0.11031272
0.11744286 -0.16790815 -0.07502377 -0.0042893984 0.9924987 0.12217995 0.15069698
0.12539718 -0.16792218 -0.074917123 -0.032705821 0.98585469 0.16438018 0.16087933
0.13281429 -0.16777906 -0.076004423 0.12324475 0.95869726 0.25634044 0.16492577
0.14585635 -0.16786599 -0.075344063 -0.21441542 0.92423385 0.31593964 0.19493788
0.15434694 -0.16800565 -0.074283235 -0.67894864 0.67718643 0.28363219 0.19332504
0.16402319 -0.16446263 -0.07608524 -0.91587389 0.36854833 0.15920754 0.078007475
