# .PCD v0.7 - Point Cloud Data file format
VERSION 0.7
FIELDS x y z normal_x normal_y normal_z curvature
SIZE 4 4 4 4 4 4 4
TYPE F F F F F F F
COUNT 1 1 1 1 1 1 1
WIDTH 572
HEIGHT 1
VIEWPOINT 0 0 0 1 0 0 0
POINTS 572
DATA ascii
-0.14504269 0.28606313 -0.026337415 0.96764344 0.17565598 0.18113855 0.16942194
-0.10092871 0.28230122 -0.026053257 0.99996203 0.00067051488 0.0086926352 0.0037393323
-0.098646462 0.28943568 -0.020944666 0.99496967 0.018905502 0.098376386 0.024802558
0.098646365 0.28491652 -0.022558225 -0.99955487 0.018986888 0.023014743 0.0063017248
0.1009286 0.28593919 -0.026611635 -0.99997282 0.0061893119 0.0040006242 0.0039498387
0.13842717 0.28101051 -0.028842963 -0.82684726 0.21471979 0.51982599 0.14274618
0.14238665 0.28350228 -0.025589937 -0.98889858 0.14833793 0.008684732 0.16133279
0.15545638 0.28296211 -0.02545692 0.31817645 -0.50252789 -0.80388397 0.2682637
0.17474253 0.28194168 -0.025205635 -0.99033386 0.045359947 0.13107803 0.16222252
-0.1754062 0.29167667 -0.027834497 0.97750723 0.071708024 0.19833682 0.14957298
-0.16750804 0.29396367 -0.028801017 0.88602287 0.23388985 0.40032372 0.24760436
-0.15328479 0.29144725 -0.027740864 -0.72727072 -0.68516076 -0.040398668 0.2503213
-0.10092871 0.29584259 -0.025205374 0.99639612 0.049115781 0.069155134 0.021221969
-0.098646462 0.29263222 -0.026873246 0.99999964 -0.00070589792 0.00037696262 0.0032894618
0.098646358 0.29874057 -0.023289362 -0.99636769 0.031735361 0.079020523 0.017350662
0.1009286 0.29414991 -0.025456039 -0.99957442 0.014089647 0.025544064 0.0081198141
0.14811039 0.29661569 -0.029921828 -0.85693139 0.2518456 0.44971368 0.21003516
0.15163074 0.29043752 -0.027310796 0.57031822 -0.44220233 -0.69223851 0.19777939
0.16769691 0.29314116 -0.028453419 -0.80197877 -0.48105186 0.35414568 0.22407007
0.17560442 0.29184693 -0.028854609 -0.94423634 -0.25765181 0.20502 0.18444349
-0.1009287 0.3057709 -0.025151724 0.98553532 0.10770675 0.13084108 0.034161687
-0.098646462 0.30533138 -0.02324646 0.98516375 0.10604846 0.13492957 0.032942072
0.1009286 0.30513841 -0.029531442 -0.99703437 0.039638661 0.06596382 0.016795594
-0.18179218 0.31417838 -0.021748517 0.99491334 -0.086850628 -0.051032659 0.10536479
-0.10092871 0.31750819 -0.026188914 0.9696247 0.1664729 0.17920569 0.054002929
-0.098646462 0.31059152 -0.022751004 0.98505384 0.09605433 0.14297701 0.036781039
0.098646358 0.31824407 -0.025928466 -0.95756298 0.19335021 0.21374923 0.055462755
0.1009286 0.31140468 -0.02217181 -0.93859345 0.16291365 0.30414063 0.068885259
-0.18265645 0.32642445 -0.022753879 0.99625552 -0.084986255 0.015883273 0.14673221
-0.10092871 0.32589102 -0.020694215 -0.85193759 -0.37035471 -0.37018862 0.097363055
-0.098646462 0.32651094 -0.024067059 -0.8937366 -0.31813833 -0.31626388 0.086794794
0.09864635 0.32405552 -0.025817739 -0.8976841 0.28276551 0.33794516 0.082836092
0.1009286 0.3257575 -0.026506817 -0.90960407 0.29918355 0.28828755 0.080911867
0.18304271 0.3224439 -0.024966352 -0.99150866 0.11849181 0.053575434 0.14168091
-0.18192632 0.33361351 -0.025664957 0.99152124 0.079438157 -0.10283566 0.13583034
-0.17147976 0.33468282 -0.022301469 -0.62921011 -0.56016266 -0.5388065 0.20670316
-0.16542338 0.33495939 -0.022617558 -0.14340678 -0.69926506 -0.70033056 0.19344442
-0.15578303 0.33570737 -0.023343503 -0.098857455 -0.74225819 -0.66278201 0.14754665
-0.12476368 0.33635768 -0.023390483 -0.071983688 -0.74341428 -0.66494632 0.015321523
-0.11839345 0.33827651 -0.025479004 -0.24665394 -0.73745883 -0.62874192 0.063354611
-0.10524012 0.33378014 -0.025032628 -0.78847963 -0.46343902 -0.40438119 0.089370362
-0.099023603 0.33729285 -0.024192592 -0.65765351 -0.56045252 -0.50337332 0.092395835
0.099006362 0.3358297 -0.025036318 0.75115377 -0.43869644 -0.49326819 0.085104153
0.1027685 0.33485091 -0.022717342 0.69536942 -0.52174729 -0.49420753 0.092418626
0.11917651 0.33831847 -0.025539503 0.24891838 -0.71512824 -0.65317011 0.05352005
0.12440116 0.33585462 -0.022809962 0.10892554 -0.7161395 -0.68940508 0.024668509
0.147084 0.3371672 -0.024785928 -0.058479015 -0.8364293 -0.54494607 0.16223195
0.15426891 0.33718443 -0.024973609 -0.082380369 -0.83262128 -0.54768169 0.14850786
0.17385125 0.33578789 -0.023725975 -0.94143969 0.26172116 0.21258733 0.17797016
0.18183231 0.33362636 -0.025435999 -0.98697972 0.12556417 0.1005228 0.15426283
-0.18137123 0.34410247 -0.027778262 0.97700423 0.20161264 0.06939064 0.11631249
-0.14760792 0.34045994 -0.029013157 0.076975428 -0.81364071 -0.57624954 0.099896543
-0.12626988 0.34132689 -0.029311378 -0.037471846 -0.79528707 -0.60507381 0.0088678151
-0.11343636 0.34140784 -0.028975124 -0.36263317 -0.74305254 -0.56246793 0.075631738
0.10549884 0.34022066 -0.027491141 0.59749615 -0.57357693 -0.56036401 0.078664251
0.12274691 0.34128386 -0.029135948 0.18320905 -0.7769199 -0.60235369 0.034456342
0.14467481 0.34056556 -0.029035233 -0.17905374 -0.75942355 -0.62547237 0.15915906
0.16585754 0.34032881 -0.029610645 0.41643187 -0.72324705 -0.55090684 0.22949103
0.18109481 0.34573209 -0.026014781 -0.99583364 0.064741641 0.064217441 0.10077761
-0.17998184 0.35782844 -0.02233037 0.99766964 0.053132117 0.042805217 0.05997901
-0.1801917 0.36192563 -0.027032293 0.99668068 0.039057072 0.071429998 0.061798781
-0.17951971 0.3656812 -0.023742691 0.99587762 0.04905767 0.07629554 0.054017149
-0.17919068 0.37256771 -0.026020369 0.99591494 -0.08186084 -0.038109407 0.00037861444
0.17941383 0.37229499 -0.027744848 -0.99972397 0.013631213 0.01913245 0.020499257
-0.17689373 0.39474797 -0.022982311 0.99417174 -0.094768293 -0.051395882 0.00018470864
0.17763002 0.39183456 -0.027537292 -0.9956246 -0.091035664 -0.021076266 0.00054610899
0.17601924 0.40517497 -0.025221281 -0.99230617 -0.1159464 -0.043416202 0.00051985472
-0.17530529 0.41319743 -0.02651835 0.99115992 -0.1276498 -0.036159515 0.00074144546
0.17547506 0.41288966 -0.027442761 -0.99199635 -0.12143207 -0.034603469 0.00074436283
-0.17435101 0.42659903 -0.029297471 0.98868638 -0.14601712 -0.03432662 0.0016684658
-0.17220391 0.43147859 -0.021902457 0.98283285 -0.1684465 -0.075268045 0.0013674657
0.17297117 0.43574205 -0.027568908 -0.98280644 -0.1721497 -0.066752471 0.0041314457
-0.17112246 0.44251534 -0.023031443 0.97949952 -0.18230283 -0.08571066 0.0030805983
0.16976494 0.44858554 -0.021249935 -0.95829612 -0.25619864 -0.12661257 0.0092069209
0.17153493 0.4424783 -0.024750039 -0.97442281 -0.19757383 -0.10707365 0.0043408312
-0.16891098 0.45733657 -0.023999492 0.90339172 -0.38019606 -0.19832875 0.016466711
0.16935655 0.45698062 -0.024757419 -0.91735148 -0.36910787 -0.14908268 0.011628001
0.17028391 0.45723698 -0.027996581 -0.92541224 -0.35409153 -0.13502334 0.012575553
-0.1680183 0.46464938 -0.027406121 0.83862865 -0.50071967 -0.21443349 0.023294622
0.16501862 0.46074724 -0.020134993 -0.84256762 -0.49301574 -0.21682994 0.01970914
-0.1554305 0.47412369 -0.022169359 0.56164724 -0.73350501 -0.382783 0.031420678
-0.14559056 0.47943959 -0.022782564 0.36054316 -0.84936202 -0.38547727 0.029255129
-0.12580815 0.47733068 -0.024031119 0.062712282 -0.94671196 -0.31591707 0.029817803
-0.11967286 0.47828257 -0.025609586 -0.017161762 -0.96254927 -0.27056316 0.026980268
-0.1099216 0.47955388 -0.024489712 -0.016018135 -0.96940893 -0.24492823 0.031114725
0.10893479 0.47964424 -0.02842777 0.015372609 -0.9523443 -0.30463755 0.025762571
0.11347427 0.47910017 -0.02495108 0.0062647155 -0.9618634 -0.27345866 0.033175834
0.12191083 0.47792777 -0.025668336 0.055393614 -0.95924044 -0.27710879 0.023951592
0.1525069 0.47995371 -0.026485534 -0.52565259 -0.79973859 -0.29001302 0.018326776
-0.15375873 0.48030114 -0.027452633 0.50481617 -0.80524582 -0.31103018 0.02890438
-0.14445588 0.48038208 -0.02341578 0.2658717 -0.88353431 -0.38558966 0.036746096
-0.13780072 0.48322353 -0.024334854 0.14941546 -0.91603184 -0.37223732 0.02789809
-0.09299244 0.48154545 -0.020631155 0.10043162 -0.99178272 -0.079249494 0.014376163
-0.084425189 0.48230571 -0.026970571 0.079269394 -0.9723376 -0.21971768 0.030733185
-0.077206746 0.48294097 -0.027423892 -0.003285239 -0.96619546 -0.25778949 0.029472459
-0.069544949 0.48354635 -0.026732985 0.014967557 -0.96901375 -0.24655308 0.024022918
-0.053784881 0.48215556 -0.023002336 -0.0074071502 -0.96308643 -0.26909056 0.020656038
-0.044227105 0.48211035 -0.024011021 0.016185917 -0.95731169 -0.2886042 0.017234979
-0.03751877 0.48264927 -0.024033995 0.0075336192 -0.94294828 -0.33285415 0.01659585
-0.028838433 0.48081368 -0.022572288 0.012441322 -0.9535796 -0.30088398 0.015791334
-0.012508322 0.48354352 -0.024976449 0.015858777 -0.94612378 -0.32341668 0.014965485
-0.0051830439 0.48251152 -0.024266519 0.00074380654 -0.9570989 -0.28976062 0.0098241903
0.0063565988 0.48495299 -0.02738364 -0.012226025 -0.92507124 -0.37959671 0.014103316
0.015956938 0.48161244 -0.022811579 0.0084799444 -0.96083879 -0.27697828 0.011745097
0.023482962 0.48284611 -0.024302877 -0.026485203 -0.94433028 -0.32793117 0.015358625
0.049239084 0.48472559 -0.029503476 -0.023400955 -0.92907214 -0.36915761 0.016821152
0.052258242 0.48317042 -0.024582237 0.0029709663 -0.95326096 -0.30213344 0.014907677
0.062537722 0.48406708 -0.026298009 0.016969508 -0.96444428 -0.26374093 0.025297264
0.074784398 0.48314232 -0.026266005 -0.049661528 -0.9728775 -0.22592725 0.027820854
0.082751311 0.4824996 -0.024659403 -0.18453872 -0.96944427 -0.16162691 0.022432664
0.095600866 0.4811959 -0.025784371 -0.11890958 -0.97161162 -0.20452707 0.026639121
0.10530651 0.48008597 -0.026456665 -0.03458197 -0.97255427 -0.230092 0.031125467
0.13648574 0.48465863 -0.02625311 -0.11229604 -0.92930311 -0.35183129 0.021834226
0.14970434 0.48094141 -0.026124045 -0.42477015 -0.84699857 -0.31963068 0.025246907
0.15283018 0.48038223 -0.027131509 -0.52565479 -0.79974097 -0.29000229 0.018331617
-0.095699884 -0.47211266 -0.014484141 0.1915573 0.86508548 -0.46360862 0.066218972
-0.0733518 -0.47443941 -0.015411113 -0.080815621 0.94019139 -0.3309215 0.065193839
-0.065303728 -0.47284046 -0.011579202 -0.077356987 0.93340212 -0.35039485 0.070298739
-0.051592927 -0.47225848 -0.011264344 -0.0087714186 0.95486629 -0.29690641 0.075982049
-0.048321199 -0.47482374 -0.011106925 -0.013191052 0.96004939 -0.27951938 0.077009313
-0.023035171 -0.47290859 -0.010981651 0.097445704 0.95052069 -0.29498258 0.071280055
-0.014449809 -0.47145629 -0.010981651 0.098430052 0.97379613 -0.20501888 0.078730009
-0.0030837231 -0.47251332 -0.010981651 0.039287921 0.95166826 -0.30460471 0.082229607
0.0062045888 -0.47332844 -0.012934436 -0.01057947 0.94803751 -0.31798285 0.083732411
0.014224399 -0.47576934 -0.0110114 -0.050440978 0.96019542 -0.27473706 0.085610949
0.025880244 -0.47068915 -0.010981651 -0.012297751 0.95419145 -0.29894364 0.070132636
0.036232162 -0.47260451 -0.011002992 -0.012892558 0.93504214 -0.3543019 0.080679238
0.044687692 -0.47001836 -0.011062357 -0.0062721833 0.93162745 -0.36336055 0.068437688
0.065472692 -0.47505736 -0.012258087 0.051156107 0.92158473 -0.3847917 0.083559781
0.074660599 -0.47315297 -0.016785523 0.041832961 0.90408272 -0.4253051 0.060498022
0.084708124 -0.47493777 -0.013910287 -0.068415627 0.89290988 -0.44500694 0.06185285
0.097983673 -0.47325587 -0.019430513 -0.1370472 0.84248579 -0.52099496 0.068455629
0.10053805 -0.47202122 -0.018228579 -0.20853926 0.79369813 -0.5714497 0.072913915
-0.12683724 -0.46171257 -0.016020278 0.16547461 0.82699543 -0.53730506 0.10594075
-0.11522976 -0.46592006 -0.015846366 0.39050823 0.79065591 -0.47155765 0.11249766
-0.10397121 -0.46630356 -0.013872634 0.42273608 0.7869783 -0.44939893 0.11468481
-0.072932802 -0.46448687 -0.01492024 -0.059876692 0.92221648 -0.38201001 0.066876292
-0.065193713 -0.46332642 -0.013334622 -0.048928544 0.91186398 -0.40756598 0.068938576
-0.057794362 -0.46449769 -0.011046442 -0.0069632963 0.94090128 -0.33860931 0.077057958
-0.04960667 -0.46042871 -0.010932693 -0.012372875 0.92678106 -0.37539819 0.085303508
-0.036099728 -0.46174422 -0.015487216 0.045152992 0.96536458 -0.25696799 0.068453282
-0.024921697 -0.46218526 -0.013147312 0.057461768 0.96084213 -0.27107301 0.069284037
-0.015757602 -0.4643003 -0.015173363 0.09618713 0.97307897 -0.20944081 0.07960619
-0.0043991422 -0.46480301 -0.011931905 0.010429001 0.95966917 -0.28093836 0.08419466
0.0033401074 -0.46955055 -0.010981651 -0.029111704 0.95099717 -0.30782601 0.081108481
0.018415967 -0.46373916 -0.013259473 -0.0184066 0.97962898 -0.19997095 0.068158247
0.026003934 -0.46216348 -0.017178006 0.010151829 0.96267229 -0.27047911 0.070760205
0.034299634 -0.46184063 -0.014536494 -0.064104877 0.95120919 -0.30181384 0.075555548
0.046765853 -0.46384639 -0.014714951 -0.030737674 0.93691719 -0.34819731 0.069398686
0.057097472 -0.46494946 -0.013132009 -0.0057311701 0.93705928 -0.34912333 0.072756976
0.065306261 -0.46415591 -0.013068629 0.049271565 0.9042713 -0.42410585 0.075309791
0.072279207 -0.4655948 -0.014982124 0.040631622 0.91474313 -0.40198767 0.063594535
0.097755738 -0.46721113 -0.015791532 -0.302001 0.79635942 -0.52402961 0.095906563
0.10001047 -0.46261624 -0.016592702 -0.33305973 0.75834239 -0.56034636 0.10348918
0.11518588 -0.46521595 -0.01384765 -0.35028413 0.77973342 -0.5189575 0.13197689
0.12428403 -0.46221852 -0.01487121 -0.33085501 0.79154092 -0.51380724 0.11965522
-0.13687947 -0.45576617 -0.012626288 0.2504738 0.82997537 -0.49840114 0.13343129
-0.10587653 -0.45217642 -0.013918974 0.61701334 0.63149822 -0.46957907 0.13719939
-0.063290715 -0.45798898 -0.010710627 -0.045648653 0.89521694 -0.44328633 0.076848991
-0.052329928 -0.45652694 -0.010254689 -0.060108963 0.89966863 -0.43241552 0.081034429
-0.043627769 -0.45707864 -0.010447359 -0.003587534 0.90171254 -0.43232128 0.077409044
-0.029094638 -0.45954478 -0.010981651 0.0048719323 0.9399665 -0.34123197 0.082051672
-0.017681211 -0.45826218 -0.010587253 0.058916766 0.92127991 -0.38441131 0.086867981
0.0045068851 -0.45853469 -0.010909738 0.0016391075 0.95994759 -0.28017494 0.094460964
0.013620779 -0.45945078 -0.010981651 -0.023992689 0.94713771 -0.31992894 0.093461074
0.025007943 -0.45880815 -0.010919049 -0.033697195 0.92087597 -0.38839668 0.078739494
0.042130932 -0.45976669 -0.011073808 -0.0036208187 0.91668004 -0.39960554 0.074472323
0.056464568 -0.45682442 -0.010989213 -0.07302466 0.89506871 -0.43990842 0.081217341
0.064328462 -0.45830554 -0.011127047 -0.047080055 0.87604487 -0.47992596 0.076181881
0.10305384 -0.45677119 -0.016611842 -0.45531008 0.73238868 -0.50626034 0.14357033
0.13321708 -0.45812061 -0.013805749 -0.31083691 0.80040604 -0.51257259 0.16497034
0.1466355 -0.45195937 -0.015891176 -0.3906447 0.82592893 -0.406495 0.14023356
-0.16105917 -0.44251254 -0.018355209 0.72190267 0.5934813 -0.35586011 0.11304397
-0.15218212 -0.4489069 -0.01623809 0.5067966 0.70126104 -0.50138825 0.15802544
-0.11102673 -0.44131482 -0.017011747 0.84477806 0.49863362 -0.19420221 0.1488394
-0.10729858 -0.44906014 -0.015152778 0.81224519 0.52513736 -0.25394601 0.1329817
0.10918732 -0.4451561 -0.016030692 -0.80228055 0.52636689 -0.28157383 0.15319125
0.11121076 -0.44098115 -0.016946223 -0.83415723 0.51689583 -0.19235492 0.15906222
0.15350023 -0.44682208 -0.01370948 -0.56220919 0.74462438 -0.35979915 0.12518142
0.16028801 -0.44257855 -0.016169243 -0.67132652 0.68120742 -0.29202259 0.12649289
-0.16460723 -0.43771762 -0.018150659 0.79594803 0.49783003 -0.34442991 0.098621897
-0.11545942 -0.43201667 -0.019432146 0.87057209 0.49188283 -0.012467426 0.10935481
0.1651963 -0.43423566 -0.01192381 -0.81886965 0.42456385 -0.38626161 0.12577894
-0.17063355 -0.4224163 -0.012627732 0.7891224 0.50276059 -0.35287052 0.16671996
-0.1694368 -0.42779383 -0.016267173 0.78790593 0.47553191 -0.39124614 0.12121917
-0.12126432 -0.42287391 -0.014474317 0.77421612 0.63291556 -0.0027122572 0.11791801
-0.11901022 -0.42746207 -0.013825509 0.80511421 0.59291387 -0.015630867 0.10500248
0.11815477 -0.4275983 -0.017431939 -0.92205423 0.32897726 -0.203936 0.14805004
0.12271068 -0.42382407 -0.012406224 -0.858881 0.51099437 0.034758616 0.16674674
0.16873537 -0.42898887 -0.015086232 -0.86571735 0.34586519 -0.36181593 0.12726666
-0.17351986 -0.41346526 -0.015748708 0.83021677 0.43480781 -0.34882978 0.14930077
-0.15969555 -0.41166213 -0.016244264 0.37935165 0.85359293 -0.35703146 0.18334472
-0.13221194 -0.41816604 -0.010026417 0.46745718 0.88368183 -0.024296002 0.15250118
-0.12506716 -0.41771972 -0.016300796 0.63889027 0.76777375 0.048400987 0.14020078
0.12438196 -0.4151434 -0.018562423 -0.67096978 0.45131928 0.58831149 0.16696534
0.1344478 -0.41092372 -0.012614421 -0.56675303 0.81815827 0.096994974 0.17553395
0.16672963 -0.41696626 -0.018429993 -0.84859002 0.29612657 -0.43841073 0.16263117
0.17264318 -0.41304636 -0.012856126 -0.82602024 0.42072234 -0.37507766 0.14865009
-0.17523879 -0.40550485 -0.015083698 0.88973778 0.37280998 -0.26339951 0.10623606
-0.15485081 -0.40721297 -0.012315238 0.23516411 0.91372061 -0.33137977 0.15890697
-0.1455857 -0.40503368 -0.01566234 0.072180308 0.983751 -0.16439024 0.10778761
-0.13212103 -0.40668184 -0.015757311 0.41890982 0.90412921 -0.084053464 0.16621619
-0.12858668 -0.40760794 -0.017448341 0.54876429 0.833368 -0.06599538 0.18100426
0.12793478 -0.40889841 -0.017312223 -0.15970582 -0.021749234 0.98692507 0.16696377
0.1316352 -0.40649405 -0.016372919 -0.29083389 0.29748288 0.90935117 0.16662958
0.14592254 -0.40349025 -0.012919575 0.03616792 0.99047136 -0.13288487 0.11163189
0.15690836 -0.40957683 -0.014365252 -0.0035614886 0.9385612 -0.34509435 0.2287962
0.17480007 -0.40569517 -0.015879648 -0.84769648 0.43817839 -0.29901567 0.12656637
-0.1783237 -0.39163843 -0.017381681 0.9730916 0.21950577 -0.070070192 0.072362825
0.13263437 -0.39970291 -0.019424425 -0.20060435 0.31287012 0.92836964 0.12060779
0.17676273 -0.39710075 -0.017453065 -0.94765651 0.2677238 -0.17398581 0.036523532
-0.18018687 -0.38077086 -0.017427653 0.99738979 -0.01799874 0.069926307 0.089943357
-0.17954244 -0.38155317 -0.012584793 0.99901986 -0.0028924716 -0.044168249 0.061584711
0.17881823 -0.38406688 -0.014861377 -0.99651736 0.083347164 -0.0025254397 0.067819037
-0.18024649 -0.37790486 -0.013531278 0.999825 0.017933425 -0.0053219087 0.06448634
0.1794014 -0.37606496 -0.010291113 -0.99048901 0.042587031 -0.13083516 0.087707676
0.18049937 -0.37665138 -0.019528449 -0.99772203 0.051706955 -0.043324944 0.13288231
-0.18189466 -0.36567247 -0.013941363 0.99556351 0.01544745 -0.09281566 0.09365429
0.18187246 -0.36283982 -0.014556947 -0.99081355 0.081613436 -0.10783169 0.10926399
-0.17644653 -0.35171837 -0.01562097 0.91443855 -0.17714302 0.3638992 0.2265783
-0.16800028 -0.35775173 -0.018231217 0.85512358 -0.25607947 0.45076266 0.19767116
-0.15355642 -0.35338026 -0.016124822 0.160372 0.33227447 -0.92944849 0.23027453
-0.14769676 -0.35683566 -0.01753914 0.14158988 0.54454106 -0.82669669 0.19415124
-0.13598758 -0.35670349 -0.017687816 0.21365169 0.53040653 -0.82037908 0.094179884
-0.11734076 -0.35530126 -0.016963899 -0.16984972 0.53765732 -0.82587874 0.033391804
-0.10293901 -0.35387266 -0.015915979 -0.47375351 0.38964233 -0.78976989 0.064112477
-0.096010849 -0.35292 -0.01618435 -0.72061229 0.3073265 -0.6215049 0.07305371
0.095569625 -0.35519564 -0.018119518 0.73470724 0.35725906 -0.5766899 0.059743181
0.1033418 -0.35387906 -0.016010353 0.47588426 0.47832495 -0.73806471 0.057220913
0.11416343 -0.35261726 -0.015078736 0.24110666 0.50631911 -0.82795447 0.04654406
0.12582158 -0.35448709 -0.016412729 -0.16416259 0.54534841 -0.82197672 0.060565427
0.13570973 -0.35497347 -0.016684199 -0.15262012 0.4760122 -0.86609435 0.14085929
0.15869313 -0.35736868 -0.017884856 0.41639894 0.38072139 -0.825629 0.22301301
0.16311285 -0.35208964 -0.01552848 0.61778194 0.50374866 -0.60380691 0.26020259
0.17917487 -0.35482636 -0.01710357 -0.99181831 -0.089784376 0.09074831 0.12942837
0.18351267 -0.35627472 -0.016791334 -0.99650151 -0.073359072 -0.040039878 0.11021204
-0.18551442 -0.34427178 -0.01709066 0.98842961 0.08305157 0.12692252 0.088353515
-0.17731543 -0.34211999 -0.011226372 0.95333928 0.1407399 0.26708892 0.20231667
-0.16535681 -0.34353927 -0.011642573 -0.64969116 0.45209578 -0.61115527 0.2499589
-0.1558568 -0.34697232 -0.013032921 -0.41859037 0.58325446 -0.6961295 0.27169359
-0.14932245 -0.34376359 -0.01142906 0.17334013 0.28653228 -0.94225925 0.21831033
-0.13414314 -0.3467989 -0.012524437 0.20785744 0.36247572 -0.90851897 0.10871512
-0.12572056 -0.34310746 -0.010661412 -0.0071935165 0.41604096 -0.90931743 0.0022875422
-0.11674604 -0.34321347 -0.010532905 -0.15925337 0.39746827 -0.90369093 0.022445604
-0.096676871 -0.34487915 -0.013004245 -0.55816287 0.3498404 -0.75237358 0.064765446
0.09510231 -0.34424201 -0.014043167 0.61561912 0.3457709 -0.70813525 0.085621171
0.10816516 -0.34581947 -0.011583209 0.29363069 0.42274693 -0.85735989 0.056070685
0.11648723 -0.34593835 -0.011793833 0.17795493 0.43688416 -0.88173932 0.026937485
0.12377743 -0.34528172 -0.011622502 -0.00083108869 0.42472762 -0.90532082 0.0038600327
0.1331553 -0.34776056 -0.012948036 -0.19271575 0.48825738 -0.85115528 0.11073337
0.14699182 -0.3458733 -0.012352845 -0.2284116 0.55751365 -0.79812694 0.20690867
0.17711541 -0.34546262 -0.012758966 -0.9510808 -0.30757064 0.02907755 0.12673566
0.18487184 -0.34524176 -0.013691281 -0.99795145 -0.063975543 -0.00036949411 0.11168532
-0.18272024 -0.33703631 -0.018195033 0.9793551 0.008791185 0.2019562 0.13822967
-0.095440291 -0.33601388 -0.016331924 0.82264465 -0.24971126 0.51078373 0.079273388
0.095440209 -0.33479881 -0.016460691 -0.87314659 -0.19108854 0.4484418 0.090139851
0.18374752 -0.33091563 -0.012310393 -0.98038518 -0.10417708 0.16730842 0.13582866
-0.18551338 -0.32309657 -0.011538267 0.98220146 -0.077147633 0.17125581 0.10041197
-0.095820658 -0.32642862 -0.015385341 0.82176161 -0.15766865 0.54758424 0.092438176
0.096074164 -0.32566771 -0.015484933 -0.91143501 -0.108635 0.39684337 0.079945013
-0.18214667 -0.31567878 -0.011384666 0.99107558 -0.058520913 0.11976828 0.10657169
-0.09429916 -0.31197554 -0.011966486 0.86690092 -0.036911875 0.49711195 0.072704405
0.095059834 -0.31462583 -0.015219537 -0.90302205 -0.032979421 0.42832637 0.06745252
0.18279335 -0.31561837 -0.011402669 -0.99391508 -0.095317408 0.055203494 0.130283
-0.094951227 -0.30651322 -0.012814446 0.89305317 0.00072558952 0.44995055 0.078238674
0.096010759 -0.30518314 -0.014972486 -0.93199807 0.016901689 0.36206883 0.064106569
0.18085331 -0.30374783 -0.010206804 -0.9992488 -0.028128009 -0.026657784 0.13318576
-0.18439053 -0.29187348 -0.010957185 0.98383123 0.15756369 0.085145444 0.10929281
-0.094299152 -0.2924293 -0.012961241 0.90470719 0.020470187 0.42554194 0.08158762
0.094869643 -0.29284686 -0.014972998 -0.91882467 0.0073973979 0.39459664 0.057279315
-0.095440283 -0.28238779 -0.013507129 0.89811575 0.095366664 0.4292939 0.073608018
0.095059834 -0.28545067 -0.014982104 -0.90790373 0.015770467 0.41888192 0.064300895
0.18496075 -0.28757638 -0.011025166 -0.99967498 0.019590272 0.01631663 0.080076024
-0.18440995 -0.27308837 -0.014883588 0.97358847 -0.043354906 0.22415605 0.17314163
-0.095212057 -0.27370033 -0.014943187 0.90328085 0.0664744 0.42386895 0.082545012
0.094869643 -0.2760821 -0.014683828 -0.88555753 0.0546837 0.46129981 0.073273741
0.18431194 -0.27412176 -0.014538664 -0.98098099 -0.12457402 0.14885417 0.1034243
-0.18488693 -0.26624557 -0.017383201 0.98947686 -0.059109513 0.13206667 0.13106112
-0.095059909 -0.2657243 -0.01502461 0.91680408 0.13953842 0.37416479 0.076249443
0.095440209 -0.26723182 -0.01669433 -0.88989055 0.14148797 0.4336772 0.080098435
0.12198004 -0.26002496 -0.010065053 -0.020395199 0.3948544 0.91851729 0.0078316564
0.17543718 -0.26027724 -0.010038137 -0.90324867 0.064496167 0.42424303 0.21626896
0.18417192 -0.2658658 -0.015506591 -0.99632514 0.052202743 0.067904033 0.1490351
-0.17291823 -0.25654519 -0.011988044 0.83291548 0.18721756 0.52076989 0.18000522
-0.16465193 -0.25081348 -0.014974061 0.40240338 0.4729405 0.78383601 0.21233124
-0.15516056 -0.25473326 -0.012902196 0.034372233 0.38690385 0.92147923 0.26574996
-0.14510229 -0.25579205 -0.012327811 -0.082675874 0.18493356 0.97926724 0.2001451
-0.1351245 -0.25330099 -0.013626834 -0.2050422 0.3405582 0.91759348 0.14646117
-0.12546563 -0.25404641 -0.013221199 -0.14241187 0.45932484 0.87677789 0.073001951
-0.11281846 -0.25294003 -0.013813396 0.27626485 0.45245871 0.84791434 0.060162332
-0.10182881 -0.25112921 -0.014780203 0.41125193 0.42537019 0.8061837 0.071050376
-0.09429916 -0.2571224 -0.016925214 0.82080859 0.26550874 0.50574529 0.092458978
0.096796095 -0.25524589 -0.012589743 -0.67039061 0.34197047 0.65850788 0.084327675
0.10406727 -0.25955305 -0.010294852 -0.50758713 0.3772569 0.77461767 0.092937037
0.11314759 -0.2530503 -0.013754545 -0.23879017 0.46529102 0.85234004 0.045509771
0.12701212 -0.25081113 -0.014943176 0.069254495 0.51253331 0.85587001 0.042240039
0.13729009 -0.25865847 -0.010810949 0.11117929 0.43654853 0.89278471 0.10502452
0.1551078 -0.25632975 -0.012065803 -0.028606184 0.70118433 0.71240586 0.22056289
0.16385452 -0.25524595 -0.012650713 -0.54463691 0.39182884 0.74151254 0.23438153
0.170376 -0.25846729 -0.010976216 -0.78999484 0.16471243 0.59057432 0.212845
-0.18532979 -0.24511915 -0.017087111 0.96634728 0.17546165 0.18811193 0.15005651
-0.17069656 -0.24625535 -0.017373493 0.64663857 0.44319212 0.62083757 0.19792818
-0.16290368 -0.24170826 -0.019970518 0.4710958 0.39375499 0.78931975 0.20347945
-0.12112896 -0.24748427 -0.016715888 0.062875487 0.50241405 0.86233801 0.013556445
-0.11473145 -0.24576895 -0.017630702 0.19674371 0.54893321 0.81238186 0.038833972
-0.096031442 -0.24851082 -0.015941426 0.6119262 0.47477037 0.63256568 0.10142907
0.096581325 -0.24693741 -0.017804753 -0.72362447 0.35807681 0.5900411 0.077252053
0.10200354 -0.24648045 -0.01725506 -0.4915303 0.47996268 0.72665936 0.086008683
0.1226953 -0.24450302 -0.018302621 -0.0098782089 0.57697731 0.81670046 0.0028818117
0.14932127 -0.24462676 -0.018230058 -0.05955923 0.24007402 0.96892571 0.19827855
0.15321498 -0.24529429 -0.017873695 0.23955651 0.47707483 0.84558398 0.23572075
0.17729205 -0.24979989 -0.015529791 -0.81702888 0.18626179 0.54568332 0.20277932
0.18470502 -0.2432486 -0.017468307 -0.87268978 0.30633602 0.38022462 0.14002977
-0.18485999 -0.2322949 -0.017164085 0.93839514 0.2939035 0.1817562 0.11764312
0.1841016 -0.23110417 -0.012340599 -0.99535799 0.083372541 0.048077974 0.055378124
-0.18472791 -0.22596784 -0.015803546 0.98652768 0.13148831 0.097333744 0.062881321
0.18409678 -0.22251074 -0.014986289 -0.98500639 0.09847296 0.14165284 0.077780209
-0.18443544 -0.21222261 -0.011079516 0.99963796 0.022836415 -0.014228323 0.0079064118
-0.15506105 -0.21177541 -0.017574148 0.92229521 -0.37211931 0.10439745 0.16426693
0.15362121 -0.21535881 -0.015066374 -0.99134541 -0.13080466 -0.011158653 0.1339175
0.18396717 -0.21342745 -0.013766176 -0.99617976 0.078777775 0.037681408 0.022803726
-0.18443722 -0.20586693 -0.014818735 0.99991399 -0.0094672833 -0.0090768347 0.066490404
-0.15502873 -0.2078989 -0.017472371 0.97914851 -0.18084474 0.09253855 0.15877388
-0.060510233 -0.20018029 -0.019001482 0.038406905 0.96556973 -0.25729361 0.013344854
-0.052392043 -0.20037411 -0.015997 0.020749291 0.96674794 -0.25488782 0.021438919
-0.045008264 -0.20065026 -0.016834505 -0.12635021 0.96138805 -0.24447636 0.082180478
-0.034294996 -0.20086129 -0.016088683 -0.2068664 0.94431549 -0.25587973 0.14362922
-0.020186462 -0.20096964 -0.013666606 0.043788046 0.94960004 -0.31039068 0.11953795
-0.018374078 -0.20092934 -0.012533467 0.036376875 0.92233932 -0.38466483 0.11082336
0.0045527425 -0.20106173 -0.014888264 -0.13466287 0.92767924 -0.34824872 0.029966697
0.015189658 -0.20075844 -0.012979383 -0.12586959 0.94618827 -0.29813519 0.10645716
0.020930495 -0.20092717 -0.019262522 -0.095573999 0.97008902 -0.22314332 0.14354438
0.035044484 -0.20192546 -0.013439978 0.20473677 0.95775372 -0.20196714 0.15994084
0.043554332 -0.20029958 -0.015587133 0.0013271432 0.9757148 -0.21904065 0.076910026
0.1838773 -0.20555037 -0.015444142 -0.99999195 -0.0034735298 0.00202035 0.00020353882
-0.18436643 -0.19351813 -0.014393857 0.99987537 -0.0049457047 -0.014995701 0.00028675073
-0.15436028 -0.19404662 -0.016014325 0.98876005 0.08151301 -0.12533659 0.20202062
-0.14698654 -0.19329351 -0.013033253 -0.60121697 0.77200699 -0.20626043 0.19754919
-0.13941877 -0.1943323 -0.017158203 0.017752567 0.93288136 -0.35974601 0.17969665
-0.12628619 -0.19552796 -0.015029685 0.08750838 0.930318 -0.35616106 0.034702145
-0.11360636 -0.19673134 -0.01698488 0.092152141 0.95189232 -0.29224819 0.024877289
-0.10149047 -0.19745649 -0.011074711 0.078395456 0.91825873 -0.38814303 0.017449938
-0.099658832 -0.19758508 -0.011014605 0.079897508 0.91851926 -0.38721934 0.018750366
-0.08524251 -0.19876625 -0.015833519 0.076343358 0.96342212 -0.25688431 0.014233796
-0.074702412 -0.19936302 -0.016037932 0.042158745 0.9614647 -0.2716766 0.013602647
-0.069038212 -0.19970039 -0.016927633 0.061378177 0.95312059 -0.29630035 0.014155984
-0.029769013 -0.19453828 -0.01108432 -0.076156519 0.901591 -0.42583299 0.12436098
0.031180736 -0.19235535 -0.018665344 0.21611139 0.97219712 -0.090158865 0.19484232
0.059153855 -0.1994559 -0.010865421 -0.085524671 0.90823251 -0.40963304 0.039482981
0.061070595 -0.19972855 -0.019265804 -0.054324988 0.95289534 -0.29839435 0.027245015
0.074608207 -0.19865027 -0.012512052 -0.073403612 0.88232481 -0.46488139 0.031099912
0.09411829 -0.19778171 -0.017858656 -0.04217802 0.95540369 -0.29227531 0.022429941
0.10298419 -0.19698226 -0.013255282 -0.064237729 0.93828791 -0.33983719 0.023370069
0.1146833 -0.19586661 -0.013761768 -0.13736112 0.88313633 -0.44855556 0.030250575
0.13632017 -0.19394501 -0.015720688 -0.032800328 0.95175219 -0.30510962 0.14324465
0.14695054 -0.19251777 -0.012647168 -0.93620902 0.0069452007 -0.35137525 0.21125217
0.15215209 -0.19465399 -0.014954861 -0.99736005 0.03236505 -0.065003559 0.17337112
0.18423346 -0.19547144 -0.017317027 -0.99995667 0.00038024862 0.0093008801 0.00012626074
-0.18430367 -0.18732454 -0.018029623 0.99825627 -0.020755105 0.05525944 0.064022541
-0.15442605 -0.18564259 -0.010860225 0.98901069 0.075096525 -0.12735157 0.16640039
-0.027375568 -0.18141323 -0.015437791 -0.94493198 0.30283147 0.12408358 0.12711927
0.029821424 -0.18769798 -0.012828531 0.22916655 0.8799541 -0.41612908 0.22600542
0.030106047 -0.18774092 -0.019198531 0.96045822 0.25801542 0.10463201 0.19390742
0.15334684 -0.18436746 -0.013878133 -0.95279729 0.22460687 -0.2042768 0.12168991
0.18433458 -0.18575059 -0.012910705 -0.99968541 0.004994344 -0.024578176 0.0006511375
-0.18428843 -0.17550187 -0.014299488 0.99963152 -0.023011899 0.01439071 0.073447466
-0.15469459 -0.17336519 -0.015850075 0.9369508 0.1865284 -0.29551718 0.12478448
-0.025816955 -0.17295825 -0.019165197 -0.95777309 0.28647768 0.024520768 0.05369224
0.026730143 -0.17513451 -0.015546707 0.97222573 0.21960032 0.080950119 0.080257431
0.18428147 -0.17545898 -0.015580365 -0.99999362 -0.0018328468 -0.0030609136 0.00038172049
-0.18422313 -0.1660803 -0.018898781 0.9982127 -0.012779772 0.058379445 0.066941828
-0.15448412 -0.16262165 -0.014027778 0.97415388 0.081481256 -0.21067733 0.027573347
-0.023534777 -0.1637398 -0.017343832 -0.87474144 0.44739449 0.18618698 0.02781982
0.023593683 -0.16023941 -0.018122725 0.87428123 0.42005089 0.24328893 0.041244667
0.1537122 -0.16982459 -0.019897405 -0.99198586 0.10896007 -0.063966319 0.013055719
0.18425545 -0.16761649 -0.014207654 -0.99998134 -0.0044558984 -0.0041817306 0.00038001518
-0.18420631 -0.15481989 -0.016364848 0.99922359 0.0021605061 0.039338078 0.07050512
-0.021237632 -0.15457553 -0.015158162 -0.72993255 0.62196976 0.28346449 0.057400916
-0.014548428 -0.15151072 -0.013835929 -0.40137923 0.83264023 0.38158217 0.07068564
-0.0062109497 -0.15060793 -0.014857902 -0.19363903 0.8910464 0.41053662 0.05638345
0.014251725 -0.15194292 -0.010629833 0.45270962 0.8451674 0.28415847 0.067693666
0.022485677 -0.15647836 -0.016353553 0.72666144 0.62568527 0.28369182 0.059344772
0.15296346 -0.15860774 -0.010412203 -0.97973454 0.086108074 -0.18084703 0.026289597
0.18417673 -0.15430582 -0.01503986 -0.99998295 -0.0049610217 -0.0030827904 0.00042267112
-0.18413632 -0.14355363 -0.013083572 0.99993712 -0.0029594772 0.010817566 0.06695915
-0.15461683 -0.14498544 -0.016720701 0.99780381 -0.0055454131 -0.066007294 0.061957549
-0.0090709589 -0.14966744 -0.017669829 -0.37218088 0.83975023 0.39534923 0.068947472
0.013932703 -0.14970461 -0.017470106 0.36818001 0.843741 0.39056975 0.065710843
0.15360594 -0.14939237 -0.01974611 -0.99709976 -0.0057012681 -0.07589259 2.2832373e-06
0.18416141 -0.14431696 -0.015049045 -0.99995965 -0.005918086 0.0067556496 0.0002654072
-0.1841016 -0.13484111 -0.019624114 0.99878347 -0.0147486 0.047054186 0.1119329
-0.15431587 -0.13313164 -0.013571702 0.99692792 -0.006328037 -0.078069046 0
0.15286671 -0.1387298 -0.010784365 -0.99698973 -0.0076269591 -0.077158399 1.2385272e-05
0.18410371 -0.13448307 -0.019197077 -0.99991089 -0.0049685943 0.012389919 0.00024302093
-0.18406351 -0.12209763 -0.019963615 0.99911273 0.039032973 0.015814839 0.1254852
-0.15411349 -0.12349837 -0.011971427 0.99684221 -0.007767722 -0.079026438 6.1896782e-07
0.15280101 -0.12332277 -0.011623571 -0.99691689 -0.0069496776 -0.078156687 1.5820176e-05
0.18409455 -0.12456624 -0.014871741 -0.99993473 -0.0072723841 -0.008813275 0.00042853769
-0.18407173 -0.11477089 -0.016033813 0.99770319 -0.037998769 0.056075513 0.12948753
-0.15454599 -0.1109594 -0.018881928 0.99695319 -0.026100587 -0.073506303 0.063234009
0.15321997 -0.11609609 -0.017658919 -0.99684501 -0.006916895 -0.079070695 0
0.18406218 -0.11718023 -0.016520165 -0.99995404 -0.0030111845 -0.009105281 0.00048132244
-0.18402851 -0.10561947 -0.014904004 0.99993551 -0.010242358 -0.0049171257 0.00034990202
-0.15402523 -0.10376155 -0.013353899 0.99670303 -0.0090654707 -0.080628179 3.4543082e-06
0.15279356 -0.10373621 -0.013480332 -0.99669439 -0.0086727412 -0.080777541 6.522394e-06
0.18401688 -0.10611457 -0.014738149 -0.99994016 -0.0097457999 -0.0049625714 0.00050015317
-0.18397363 -0.098285615 -0.018326825 0.99993187 -0.0064766807 0.009712371 0.0003322711
-0.15391326 -0.091795668 -0.013113799 0.99662459 -0.0085490495 -0.081647418 0
0.15295015 -0.092168659 -0.016619295 -0.99663359 -0.0090598688 -0.081482105 0
0.18395478 -0.095332742 -0.015723668 -0.99998081 -0.0061048907 0.0010325991 0.00029363041
-0.18388686 -0.082851335 -0.010963631 0.99986202 -0.0096667306 -0.013509775 0.00052335329
0.15267521 -0.082618602 -0.014082531 -0.99654669 -0.010653375 -0.082347818 1.851349e-06
0.18391421 -0.083813623 -0.01385962 -0.99977064 -0.0079598418 -0.019884741 0.00054256857
-0.15376182 -0.074130498 -0.012923417 0.99636364 -0.010912149 -0.084501006 0
0.15285207 -0.073663354 -0.017416904 -0.9964447 -0.011818348 -0.083415657 1.1827897e-05
0.18385839 -0.073843122 -0.015452701 -0.99997842 -0.0056312112 0.0033826584 0.00032806437
-0.18380216 -0.063249916 -0.015081296 0.99997211 -0.0046244427 -0.0058648642 0.00043726881
-0.1540959 -0.068114623 -0.017516397 0.99638337 -0.01258257 -0.084035434 2.1987773e-06
0.15270698 -0.06565816 -0.016968215 -0.99638033 -0.013896603 -0.0838634 0
0.1838125 -0.06803178 -0.018026534 -0.99991572 -0.0088059846 0.0095427847 0.00034965324
-0.18375173 -0.052927703 -0.014393544 0.9999668 0.0047080163 -0.0066606356 0.00048917765
0.15225165 -0.055292215 -0.013649951 -0.99634403 -0.015058075 -0.084093623 9.7227103e-06
0.18376884 -0.05921166 -0.018778585 -0.99984103 -0.0085354671 0.015650792 0.00030634273
-0.18368997 -0.042730361 -0.019007254 0.99996942 -0.0016789497 0.0076461635 0.00034666885
-0.15343148 -0.045243036 -0.01438078 0.99625468 -0.016900182 -0.084799565 0
0.15188681 -0.047700971 -0.01084743 -0.99627072 -0.017035639 -0.084584206 1.9622206e-05
0.18372035 -0.047393303 -0.015128377 -0.99996287 -0.0085915811 -0.00064855866 0.00051881344
-0.18367302 -0.037493259 -0.01561438 0.99936777 -0.021724859 -0.028142035 0.0049218647
-0.15295464 -0.035579119 -0.010730756 0.99621445 -0.018219108 -0.084998831 1.2484736e-06
0.15177585 -0.035346583 -0.012015717 -0.99507338 -0.068929113 -0.071257569 0.019789338
0.18365964 -0.033229988 -0.012749035 -0.99726492 -0.031221956 -0.066991799 0.0076983492
-0.18358502 -0.020337718 -0.01061176 0.99191314 -0.034878884 -0.12203176 0.01275572
-0.15300268 -0.024373949 -0.013492858 0.88627839 -0.44962424 0.11112448 0.15911695
0.15155105 -0.025211329 -0.011482422 -0.98305488 -0.18328233 0.0032822208 0.060338642
0.18361305 -0.025238022 -0.013165924 -0.99557173 -0.044388153 -0.082865156 0.012972536
-0.18353374 -0.014493586 -0.017823137 0.99461389 -0.015839674 -0.10243202 0.010931391
-0.12726294 -0.018312678 -0.017606491 0.17365614 -0.9588713 0.22452052 0.12401661
-0.11762057 -0.014895172 -0.014137589 -0.038046028 0.95345241 -0.2991339 0.05930075
-0.037238985 -0.017399047 -0.015397402 -0.052708887 0.92740637 -0.37032315 0.11074755
-0.024637748 -0.01497188 -0.016222656 0.57816166 -0.79672951 0.17592964 0.11489271
0.026235729 -0.016275574 -0.015411726 -0.56982201 -0.79900491 0.19207793 0.11358828
0.033874873 -0.017177017 -0.013870957 0.10171634 0.93853152 -0.32986709 0.1068747
0.041373111 -0.012064281 -0.010828424 -0.038962971 0.94186884 -0.33371392 0.079005875
0.11593625 -0.013167582 -0.014961327 -0.011917169 0.95263946 -0.30386859 0.076738589
0.13334514 -0.013401936 -0.01420048 -0.37647608 -0.91966254 0.11174301 0.21766835
0.15174092 -0.012655111 -0.016962135 -0.96083426 -0.27632481 -0.021025347 0.095717296
0.18353452 -0.014581531 -0.017469281 -0.9964906 -0.037426412 -0.074871279 0.011681855
-0.18346846 -0.0047109243 -0.016476914 0.99591267 0.014713167 -0.089114711 0.011863667
-0.11225361 -0.0084323362 -0.0163654 0.051219709 -0.94461262 0.32416579 0.058298972
-0.10289089 -0.0031971405 -0.013134388 0.30277866 -0.85420638 0.42267776 0.1344537
-0.0925062 -0.0039789425 -0.011728947 0.13570002 -0.89600062 0.42281011 0.12590103
-0.076185517 -0.0060676648 -0.01332807 0.00045648377 0.91715449 -0.39853156 0.0020912481
-0.066465132 -0.0062975707 -0.016264526 -0.010802648 -0.91351467 0.40666226 0.076924719
-0.053747956 -0.0044608759 -0.016114356 0.57072127 0.76844376 -0.28943312 0.22795454
-0.047431249 -0.0059372904 -0.016647112 0.075170718 0.92402071 -0.37488008 0.18300743
0.022483528 -0.0043526213 -0.016631197 -0.89787161 -0.42053163 0.13030612 0.10183444
0.055904604 -0.0029145093 -0.013018752 -0.4045029 0.83418739 -0.37484512 0.1885028
0.06548994 -0.0070630293 -0.017874463 -0.060128544 0.92866743 -0.36600739 0.017009459
0.072955288 -0.0074853161 -0.016680196 -0.031573009 -0.91714513 0.39730084 0.001969469
0.083568491 -0.008350092 -0.017171741 -0.023092944 0.9203822 -0.39033744 0.0023966494
0.095225178 -0.0045983824 -0.013579343 -0.15550639 -0.92367756 0.3501963 0.094810732
0.10324404 -0.0036629084 -0.014315578 -0.79179943 -0.60961002 0.037806377 0.19945352
0.1121613 -0.0089832721 -0.018717756 -0.06840343 0.93547696 -0.3467043 0.073643215
0.13567284 -0.0051006023 -0.016742941 0.028470142 0.97906888 0.20152813 0.26998678
0.15153322 -0.0064043826 -0.016403468 -0.98224449 -0.1872527 0.011497085 0.1198542
0.18347009 -0.0048205536 -0.015063043 -0.99786794 -0.0041629444 -0.065132372 0.010432697
-0.022748247 0.0054497463 -0.017468246 0.98176199 -0.14842732 0.11879642 0.13497576
0.022984808 0.0049126069 -0.013260438 -0.97004104 -0.13246925 0.20364726 0.10832936
0.13494289 0.0033078105 -0.011024028 -0.85791892 -0.012196632 0.51364028 0.26775607
0.15118647 0.0054796343 -0.015909212 -0.98755735 -0.14795201 -0.053298131 0.15530761
0.18339601 0.0054292586 -0.015798163 -0.99893034 0.015544621 -0.043548491 0.0068879956
-0.1833359 0.013455178 -0.014890786 0.99948299 -0.0029462106 -0.032018762 0.0025409348
-0.15205254 0.017047543 -0.01432259 0.99417996 0.059702095 -0.089676313 0.19138959
-0.13302433 0.014014931 -0.012822924 0.72959524 -0.66963816 0.13883619 0.28794178
-0.024098225 0.015412638 -0.014031029 0.94776511 0.31766066 0.028860886 0.05432586
0.024005167 0.01575917 -0.018758271 -0.84951073 0.52236676 -0.073922709 0.078171149
0.13350147 0.011824113 -0.015717249 -0.81277448 -0.5260613 0.25031418 0.25092843
0.15092504 0.011847845 -0.014752703 -0.98996234 -0.079679862 -0.11672916 0.15845345
0.1833069 0.017510366 -0.015953345 -0.99975997 0.0016232554 -0.021847719 0.0024025564
-0.15203306 0.023615485 -0.016092267 0.83492237 0.5257501 -0.16276179 0.17944713
-0.12380015 0.026780849 -0.012623626 0.14179963 -0.93509716 0.32478634 0.11515139
-0.11507488 0.02681715 -0.012599262 0.25652558 -0.91301274 0.3171787 0.096915103
-0.10534815 0.025913587 -0.015029043 -0.14406739 -0.85673875 0.49522054 0.18312515
-0.094038069 0.025846636 -0.015296745 0.1296721 -0.9448182 0.30083826 0.16001225
-0.082982406 0.026370874 -0.014008016 0.088376895 -0.93618733 0.34020993 0.14171019
-0.07979811 0.027377341 -0.011430541 0.014169457 -0.96971011 0.24384725 0.16722821
-0.064966343 0.025587596 -0.016001981 -0.0013895143 -0.93314445 0.35949889 1.9410245e-06
-0.052787255 0.026418591 -0.01382675 -0.0058487104 -0.94809139 0.31794426 0.056715488
-0.034832641 0.025725693 -0.015552088 -0.44837528 -0.84169722 0.30084136 0.066091083
0.03445382 0.025677586 -0.015681125 0.39808333 -0.86508894 0.30520618 0.052807275
0.045536615 0.025456328 -0.016278431 0.14504321 -0.94426578 0.2955074 0.061318483
0.058037773 0.025899502 -0.015178108 0.079153478 -0.89126676 0.446518 0.17436156
0.066568218 0.026869636 -0.012710222 0.01430397 -0.91978937 0.39215142 0.076969065
0.074754804 0.026028397 -0.014896244 0.013728048 -0.9416163 0.33640802 0.093337037
0.085295796 0.024425611 -0.019030027 -0.026737625 -0.94107878 0.33712879 0.11468172
0.0978828 0.027018467 -0.012216747 -0.15992388 -0.88656491 0.43408188 0.19688886
0.10413846 0.025712064 -0.015564498 -0.036088653 -0.88442987 0.46527559 0.15881418
0.11484016 0.026100624 -0.01446636 -0.153861 -0.96123958 0.22879095 0.1011389
0.12236794 0.026519982 -0.013313971 -0.27890578 -0.94428432 0.17475325 0.11965509
0.13058317 0.024954811 -0.015034039 -0.18278664 -0.95236886 0.24409549 0.18235695
0.15073287 0.024284534 -0.016171474 -0.96904802 0.14105716 -0.20260514 0.20331722
0.18326533 0.022600958 -0.014792074 -0.99974525 0.003340788 -0.022320345 0.0021523922
-0.18314424 0.036449719 -0.017933287 0.99996889 -0.0072346828 0.0031518422 0.00033566364
-0.15180826 0.034060542 -0.016246093 0.92912638 0.26071739 -0.26220328 0.13315931
0.15042813 0.035420865 -0.015240647 -0.96635985 0.21894312 -0.13495365 0.1530616
0.18315725 0.034453988 -0.016920002 -0.99994946 -0.0095390789 0.0031736516 0.00038230361
-0.18305869 0.043344442 -0.015355631 0.99991137 -0.0042911153 -0.012605439 0.00041958809
-0.15168753 0.044151157 -0.016903998 0.98902154 0.034245431 -0.14374885 0.03304252
0.182996 0.048069187 -0.014165467 -0.99954236 -0.0090368446 -0.028869243 0.00054074405
-0.18296213 0.058290686 -0.019062947 0.99991113 -0.009282371 -0.0095718093 0.00031255325
-0.15129422 0.056050304 -0.015056078 0.99556935 -0.017851198 -0.092320077 1.3056923e-05
0.1829489 0.052573964 -0.013769043 -0.99961728 -0.01092423 -0.02541443 0.00054972654
-0.18284038 0.067207336 -0.015661966 0.99943548 -0.013613237 -0.030714931 0.00059134694
-0.15128411 0.063770488 -0.01643908 0.99541157 -0.017954005 -0.09398637 5.6114704e-06
0.14965804 0.06618534 -0.013195152 -0.99540675 -0.017597033 -0.094104961 0
0.18283714 0.066066243 -0.014639187 -0.99965489 -0.01269472 -0.023001952 0.00054498704
-0.18271723 0.075264841 -0.014601663 0.9997856 -0.011711105 -0.017074695 0.00047683413
-0.15089826 0.070278049 -0.013623691 0.99530178 -0.018356288 -0.095065199 1.6414462e-05
0.14998721 0.075925469 -0.018510962 -0.99435705 -0.072652735 -0.077302411 0.0051074182
0.15011699 0.077023603 -0.019947 -0.99498206 -0.060240559 -0.079885818 0.0056160404
0.18273878 0.075182326 -0.015831688 -0.99968857 -0.01802142 -0.017263018 0.00055314717
-0.18265921 0.081311747 -0.016473919 0.99969542 -0.017384231 -0.017515413 0.00042457128
-0.15061867 0.085644633 -0.013490018 0.99762088 -0.049112555 0.048378933 0.048907973
0.14919169 0.086271107 -0.011737015 -0.99727625 -0.048781801 -0.055320628 0.0051833149
0.18257575 0.086903073 -0.015509358 -0.99963725 -0.010822691 -0.024663659 0.00053566037
0.14973073 0.092952825 -0.018308047 -0.98831451 -0.13651061 0.067818224 0.071884044
0.18250859 0.096415453 -0.01631283 -0.99978578 -0.0075167068 -0.01928604 0.00039676519
-0.18227969 0.10480098 -0.011684352 0.99839139 -0.010269788 -0.055760141 0.00048540803
-0.15064135 0.10683233 -0.016488269 0.99375677 -0.054628938 0.09727937 0.11666846
0.14949337 0.10415384 -0.017441746 -0.9846704 -0.098288238 0.14409542 0.12162218
0.18240021 0.1054741 -0.016017597 -0.99981362 -0.01070145 -0.016066173 0.00029442998
-0.18217307 0.11231664 -0.011089203 0.99852532 -0.0046851989 -0.054085758 0.00052454806
-0.15060657 0.11022741 -0.01663015 0.98309219 -0.086929016 0.16116203 0.12069616
0.14911616 0.11241698 -0.014993949 -0.97309715 -0.082891986 0.21496718 0.12037012
0.18222027 0.11707205 -0.014512162 -0.99965006 -0.0093141161 -0.024762165 0.00025180206
-0.18206066 0.12508583 -0.013159219 0.99898672 -0.011684193 -0.043464001 0.00024206216
-0.15040711 0.12275285 -0.016251031 0.99082112 -0.067550197 0.11709171 0.14125714
0.14917034 0.1232062 -0.016822811 -0.99043286 0.023508867 0.13597801 0.15212637
0.18216318 0.12491401 -0.016247958 -0.99958909 -0.0092049064 -0.027146455 0.00025862543
-0.18212165 0.13262413 -0.017851532 0.99914813 -0.013587484 -0.03896632 0.00020899228
-0.15050071 0.13793425 -0.018796835 0.9961015 0.084795967 -0.024318611 0.15062022
0.18204737 0.13683122 -0.016799096 -0.99931467 -0.0093389517 -0.035817258 0.00020236344
-0.18182755 0.14536117 -0.013637439 0.99889499 -0.0057982882 -0.046638124 0.00027692158
0.14856304 0.14143522 -0.013184062 -0.9992314 0.016805625 0.035416089 0.065942459
0.18186234 0.14512412 -0.014433722 -0.99924856 -0.0071903458 -0.038085833 0.00022112687
-0.18166934 0.15769748 -0.012417031 0.99825239 -0.0036499491 -0.058980986 0.0004761857
-0.14957729 0.15798295 -0.013525143 0.99441332 0.012714728 0.10478809 0.083910182
0.14852041 0.15482664 -0.014980505 -0.99115217 0.070933126 0.11218655 0.1064786
0.18184401 0.15404218 -0.015429487 -0.99924302 -0.0059477128 -0.038444873 0.00023159567
-0.18178421 0.16482976 -0.014732454 0.99922591 -0.0027072569 -0.039244868 0.00016146988
0.14802648 0.16406173 -0.014319867 -0.99443054 0.026235601 0.10207704 0.10842616
0.18171708 0.16576661 -0.013199094 -0.99873358 -0.0064880429 -0.049891558 0.00035699224
-0.18179189 0.1753258 -0.015350835 0.99774379 -0.066850789 0.0061927331 0.010058971
-0.14882416 0.17439389 -0.012956586 0.98799682 -0.1354204 0.074321575 0.076850235
0.1817797 0.17400613 -0.015647668 -0.99945974 -0.024574209 -0.021827301 0.0055402541
-0.18176268 0.18608874 -0.015595203 0.98439914 -0.12281533 0.12599531 0.0635392
-0.14850304 0.18469706 -0.013860415 0.98471755 -0.14150411 -0.10152806 0.18239442
0.14717679 0.18724746 -0.014404975 -0.97793138 0.16864264 -0.12332875 0.20398782
0.18168609 0.18358693 -0.012924309 -0.99492288 -0.09941785 0.015635941 0.021741588
-0.18168309 0.19300121 -0.013760552 0.98569828 -0.11765184 0.12065168 0.059690107
-0.14303552 0.19311541 -0.01581434 -0.068577193 -0.76618189 0.63895434 0.18247901
-0.13571772 0.1919125 -0.015255634 0.29633629 -0.82003528 0.48961917 0.15867275
-0.12232453 0.19319972 -0.011553241 -0.087359905 -0.88384718 0.45954576 0.12815668
-0.11596411 0.19603124 -0.015754398 0.080778211 -0.87615657 0.47521004 0.15478207
-0.10127777 0.19365469 -0.0154531 0.014427494 -0.83222729 0.55424684 0.20194924
-0.094592459 0.19255447 -0.013729502 -0.14709026 -0.85421878 0.49867296 0.17715073
-0.08573772 0.1935724 -0.010488397 -0.19249113 -0.76819098 0.61059791 0.15938881
-0.073285878 0.19198062 -0.015927732 0.013927424 -0.80643171 0.59116316 0.084938064
-0.063850008 0.19336392 -0.01578336 -0.040022772 -0.79523557 0.6049782 0.096094891
-0.058160271 0.19288632 -0.012448642 -0.0087720081 -0.82565457 0.56410772 0.10755184
-0.048003018 0.19109589 -0.018564465 -0.02478664 -0.72302753 0.69037443 0.089605786
-0.031488065 0.19212291 -0.015014889 -0.022157177 -0.81034642 0.58553195 0.093273439
