# .PCD v0.7 - Point Cloud Data file format
VERSION 0.7
FIELDS x y z normal_x normal_y normal_z curvature
SIZE 4 4 4 4 4 4 4
TYPE F F F F F F F
COUNT 1 1 1 1 1 1 1
WIDTH 576
HEIGHT 1
VIEWPOINT 0 0 0 1 0 0 0
POINTS 576
DATA ascii
0.31371439 -0.12224784 -0.093723513 0.16015717 0.80113959 0.5766499 0.15832888
0.32152382 -0.12224784 -0.096399099 -0.2506265 -0.15178043 0.95611143 0.20189701
0.33298033 -0.12224784 -0.093664683 0.069293253 0.11259566 0.99122185 0.21596462
0.35419524 -0.12224784 -0.094563179 -0.26850581 0.25006905 0.93025267 0.23584464
0.36359122 -0.12224784 -0.09422645 -0.29514441 0.2783421 0.9140107 0.23682144
0.37590438 -0.12359641 -0.095013246 -0.41088217 -0.0022949215 -0.91168559 0.18497433
0.38473183 -0.12042417 -0.099699408 -0.30558765 -0.052308179 -0.95072603 0.10743899
0.42708445 -0.12474765 -0.0961086 -0.50369352 0.15551962 0.84976852 0.031876031
0.43354571 -0.12385204 -0.09234336 -0.60720563 0.25329167 0.75309002 0.046638098
-0.38409898 -0.11648405 -0.090928122 -0.049806569 -0.018921008 0.99857968 0.11030374
-0.37388715 -0.11205105 -0.091457032 -0.0098204874 0.1016898 0.99476767 0.10472757
-0.36205268 -0.11586871 -0.091728553 -0.068202458 0.33291143 0.9404884 0.13083163
-0.34814826 -0.11550355 -0.09236642 -0.013071043 0.41791636 0.90839148 0.12680961
-0.33266219 -0.11473936 -0.09307684 0.078070037 0.55730861 0.82662708 0.098491907
-0.32400304 -0.1161804 -0.093474075 0.13908494 0.50600064 0.8512454 0.1291222
-0.31509024 -0.11636163 -0.093882948 0.15245369 0.38070342 0.91204315 0.10135133
-0.30515838 -0.11701471 -0.094338574 -0.013110875 0.18657537 0.98235321 0.091915071
-0.28349471 -0.11845948 -0.095332392 0.070788018 0.38333863 0.92089111 0.15594666
-0.27273056 -0.11575321 -0.095826209 0.1059407 0.3579618 0.92770684 0.065316446
-0.26440087 -0.11638851 -0.096208327 0.015233441 0.37636819 0.92634499 0.06864956
-0.2544395 -0.11661488 -0.0966653 0.040300325 0.22101754 0.97443682 0.092137367
-0.24421531 -0.11790051 -0.097134337 0.15163477 0.00025128049 0.98843658 0.1518991
-0.23562813 -0.11440982 -0.097528271 0.00015166274 0.38653848 0.92227328 0.11434906
-0.22434992 -0.11644628 -0.098045662 -0.013844488 0.39387816 0.91905838 0.095379777
-0.20466721 -0.11617237 -0.098948598 0.17679693 0.35544538 0.91782427 0.15462874
-0.19526878 -0.11585641 -0.099573225 0.36977306 0.15189426 0.91662204 0.141212
-0.18473271 -0.11719653 -0.09986309 0.28170398 0.068536714 0.9570505 0.063861892
0.21580499 -0.1131753 -0.0924806 -0.78246808 -0.62265372 0.0067865713 0.26850849
0.37721941 -0.11501948 -0.09412951 -0.32963407 -0.27030823 -0.90458548 0.19254184
0.38364884 -0.11097971 -0.099725485 0.27723408 0.13704275 0.95097876 0.1393045
0.42832911 -0.11725807 -0.096611135 -0.42101651 0.20264021 0.88412791 0.027837813
0.43670842 -0.11498958 -0.092548043 -0.72578299 0.14412147 0.67265743 0.081337132
-0.37640381 -0.10656255 -0.091099031 0.0035402498 0.012438255 0.99991637 0.13036093
-0.36243066 -0.10523459 -0.091711223 0.1335355 0.21724094 0.96694088 0.09571784
-0.34120578 -0.10864078 -0.09268491 0.052558336 0.38394845 0.92185748 0.074223004
-0.33049303 -0.1005953 -0.09317635 0.021730155 0.16642405 0.98581475 0.045949675
-0.32322586 -0.10811436 -0.093509741 0.089718811 0.37434012 0.92294091 0.089374818
-0.31588641 -0.10426884 -0.093846433 0.083509468 0.21419506 0.97321463 0.052739855
-0.2946288 -0.10823575 -0.09482161 -0.01758107 0.2872552 0.95769274 0.057204742
-0.2835606 -0.10610382 -0.095329367 0.0038571907 0.34742582 0.93769962 0.070266575
-0.27300045 -0.10570368 -0.095813818 0.0309857 0.28039303 0.95938504 0.060923405
-0.2666949 -0.10051441 -0.096103087 0.0071276571 0.16308481 0.98658627 0.037377931
-0.24773601 -0.10424994 -0.096972823 0.025836606 0.2878783 0.95731837 0.057955384
-0.23029284 -0.10694423 -0.097773023 -0.046535861 0.32328281 0.94515741 0.056692287
-0.22648787 -0.10811019 -0.097947583 -0.0065617892 0.32197469 0.94672561 0.055128142
-0.21339047 -0.10702051 -0.09854842 0.030326255 0.25599763 0.96620166 0.096016154
-0.20669073 -0.10466107 -0.098855771 0.1133576 0.18998457 0.97522104 0.12188742
-0.1988204 -0.10545174 -0.095019482 0.28904834 0.085304365 0.95350629 0.16938177
-0.18717402 -0.10763305 -0.0997511 0.2845206 0.037278373 0.95794493 0.083845302
0.21611644 -0.10513163 -0.096041702 -0.32436806 -0.040848587 0.94504857 0.23664674
0.37815291 -0.10391726 -0.097583666 0.078290515 0.053932447 0.9954707 0.16187716
0.38222545 -0.10669093 -0.099759728 0.23824872 0.048822518 0.96997625 0.15979823
0.42649072 -0.10524508 -0.099571131 -0.26249796 0.10647689 0.95903987 0.011376063
0.43327922 -0.10643958 -0.096152 -0.51563096 0.13823824 0.84558553 0.073002651
0.44726497 -0.10223314 -0.09023574 -0.76138711 0.25269878 0.59702015 0.086890794
-0.38004315 -0.099412352 -0.091861174 0.0054351147 0.034029163 0.9994061 0.11523922
-0.37659234 -0.090974368 -0.091720529 0.076264538 0.031779692 0.99658108 0.1519018
-0.3640182 -0.093894601 -0.091638386 0.38947055 0.082187235 0.91736466 0.11366262
-0.35476434 -0.095892586 -0.092062913 0.11297831 0.079339974 0.99042475 0.026184229
-0.33283156 -0.09419027 -0.093069077 0.05454557 0.029599903 0.9980725 0.003221639
-0.3292304 -0.09671317 -0.093234263 0.040013283 0.052870795 0.99779946 0.0071574394
-0.31516755 -0.096520774 -0.093879409 0.028576234 0.059949927 0.9977923 0.01160598
-0.29230401 -0.094583571 -0.094928265 0.048959322 0.058614068 0.99707937 0.010498995
-0.28236225 -0.093720384 -0.095384344 0.047357153 0.015229121 0.99876195 0.0011138174
-0.27689859 -0.097612128 -0.095634997 0.07000789 0.086318411 0.99380487 0.014028235
-0.26291242 -0.091285199 -0.096276604 0.045838881 -3.1461827e-06 0.99894881 0
-0.25853527 -0.098260209 -0.096477412 0.065106772 0.11433858 0.99130613 0.020628346
-0.24861863 -0.094454557 -0.096932337 0.041220576 0.022482667 0.99889702 0.0021819407
-0.23332304 -0.094683826 -0.097634017 0.047249019 0.041064505 0.99803865 0.0029284593
-0.22726469 -0.097264647 -0.097911932 0.043625616 0.11423482 0.99249542 0.014069285
-0.21835467 -0.091302603 -0.098320678 -0.068536565 0.0250916 0.99733305 0.04563966
-0.2047499 -0.096095212 -0.098944806 0.034575917 0.0037632731 0.99939495 0.092365906
-0.19875833 -0.097720698 -0.096164696 0.21878991 0.11084542 0.96945566 0.13312845
-0.18397923 -0.094451576 -0.099897668 0.23934501 0.033331525 0.97036237 0.065002799
0.3775081 -0.095601931 -0.097549587 -0.036074646 -0.041796289 0.99847472 0.15792525
0.38229263 -0.093098193 -0.099758118 0.10070769 0.0054999115 0.99490082 0.12297335
0.42956576 -0.098207891 -0.098872364 -0.26316664 0.11666518 0.95767045 0.009403632
0.43514925 -0.094289899 -0.096953571 -0.43405768 0.17949907 0.88282156 0.066786923
0.44043148 -0.095707715 -0.094375454 -0.6416049 0.20861515 0.73812121 0.080885954
-0.38126767 -0.084724829 -0.09157946 0.072170123 0.076034196 0.99448991 0.11348345
-0.37704688 -0.082412161 -0.091745824 0.10119224 -0.033175588 0.99431354 0.089478329
-0.36612886 -0.08529669 -0.091541566 0.25830638 0.079512119 0.9627853 0.13868049
-0.34670585 -0.087419838 -0.092432588 0.064502634 0.0024429902 0.99791461 0.00099135051
-0.33749771 -0.085973121 -0.092855006 0.045841932 -2.2971224e-06 0.99894869 0
-0.32626361 -0.085364081 -0.093370371 0.045812245 -7.0367804e-07 0.99895006 0
-0.31098869 -0.087663874 -0.094071105 0.045799907 -8.319812e-06 0.9989506 7.1432169e-07
-0.3047199 -0.083090641 -0.09435869 0.045820441 -2.1594755e-07 0.99894971 1.8841694e-06
-0.2644501 -0.089358747 -0.096206062 0.045833953 -2.8079694e-06 0.99894905 0
-0.25175062 -0.083145529 -0.096788645 0.045808468 8.7468934e-06 0.99895024 4.1448652e-06
-0.24960738 -0.089453653 -0.096886978 0.045808073 1.0793064e-05 0.99895024 0
-0.23158476 -0.083628237 -0.097713754 0.045836654 4.899729e-06 0.99894893 0
-0.22370782 -0.083419092 -0.098075114 0.011363288 0.0017961194 0.9999339 0.001818783
-0.21115723 -0.084510006 -0.098650873 -0.049649432 0.079451159 0.99560153 0.084525414
-0.19721203 -0.083924606 -0.094139457 0.22860162 0.099576078 0.96841413 0.14585023
0.21590549 -0.083425537 -0.093629695 -0.98605305 0.080540858 0.14564559 0.23470458
0.37495935 -0.085482888 -0.09973637 -0.17996106 0.042676762 0.9827475 0.14992395
0.43350229 -0.085555404 -0.098836958 -0.22949411 0.081288315 0.96990961 0.009434551
0.44542998 -0.08116208 -0.094564423 -0.6519497 0.13529849 0.74609369 0.090330899
0.45049644 -0.08124572 -0.092593737 -0.67874593 0.20645234 0.70475626 0.096178658
-0.38586682 -0.070633262 -0.090521425 0.047498446 -0.021938134 0.9986304 0.076118253
-0.37178433 -0.073848687 -0.091282114 0.16080271 0.07260485 0.98431247 0.098014623
-0.36144742 -0.077440709 -0.091756321 0.23562843 -0.079989508 0.96854579 0.082928292
-0.35328633 -0.077474169 -0.092130713 0.067595363 -0.0026148455 0.99770933 0.0047081811
-0.34889662 -0.072508059 -0.092332087 0.067503147 0.002836949 0.99771506 0.0033689821
-0.3338328 -0.073115863 -0.093023144 0.045842186 9.4255984e-06 0.99894875 0
-0.3233234 -0.073062144 -0.093505256 0.045834299 6.2072886e-06 0.99894911 0
-0.31434041 -0.076421842 -0.093917355 0.04580877 9.2176424e-07 0.99895018 0
-0.28525072 -0.075861968 -0.095251828 0.045834806 4.0387026e-06 0.99894899 0
-0.27662864 -0.070279337 -0.095647372 0.045837115 7.2132639e-06 0.99894893 0
-0.26613951 -0.078063786 -0.096128561 0.045816276 -5.6343379e-06 0.99894989 2.2949985e-06
-0.25079995 -0.073894233 -0.09683226 0.045817714 -6.2587515e-06 0.99894989 5.6793151e-06
-0.23701429 -0.074184403 -0.097464681 0.045812868 5.2635855e-06 0.99895 5.157475e-07
-0.22214292 -0.073358312 -0.098146901 0.002322162 0.015807588 0.99987233 0.018087389
-0.20656997 -0.07040745 -0.098861307 0.031922132 0.097399324 0.99473333 0.085950114
-0.19854391 -0.078235313 -0.097646654 0.16494633 0.055793405 0.98472321 0.10377928
-0.18905336 -0.078304701 -0.099664882 0.24973448 0.0067579295 0.96829075 0.070569113
0.3779577 -0.074379131 -0.093892112 -0.47962764 -0.044138014 0.87636131 0.20498528
0.38208365 -0.073345125 -0.099763148 0.10106736 -0.038273461 0.99414319 0.12599963
0.4357715 -0.078747988 -0.098875754 -0.29915375 0.12027276 0.94659466 0.04690339
0.44683236 -0.075106248 -0.095049426 -0.65909517 0.15031502 0.73688465 0.088962264
0.45845145 -0.073335722 -0.09044949 -0.78884155 0.30700997 0.53242266 0.13622808
-0.3835476 -0.066188604 -0.091054961 0.019577203 -0.023368301 0.99953526 0.084006399
-0.3755489 -0.064737782 -0.091422513 0.09821371 -0.039087556 0.9943974 0.087614328
-0.36395112 -0.067865796 -0.091641463 0.148378 0.0085039269 0.9888941 0.05768957
-0.35319933 -0.065636411 -0.092134707 0.17053509 -0.030011043 0.98489445 0.028462058
-0.34629723 -0.062432557 -0.092451334 0.044047985 2.4952953e-06 0.9990294 1.3131465e-05
-0.33795613 -0.069707319 -0.092833981 0.045784052 -6.7881519e-06 0.99895138 4.7763742e-06
-0.31147677 -0.064867303 -0.094048724 0.045811456 -1.7618621e-07 0.99895012 2.0801476e-06
-0.29136193 -0.061459679 -0.094971493 0.045821227 2.5889374e-06 0.99894959 1.1974723e-06
-0.28633845 -0.065829933 -0.095201947 0.045863029 -1.5930456e-06 0.99894774 0
-0.27619541 -0.06567432 -0.09566725 0.045851458 9.1338843e-06 0.99894828 0
-0.26216769 -0.067672558 -0.096310772 0.04582867 5.0350144e-07 0.99894935 2.2926527e-06
-0.25091788 -0.066400051 -0.096826851 0.045808937 -7.4122217e-06 0.99895024 0
-0.24574661 -0.063969858 -0.097064078 0.04581916 5.5122122e-08 0.99894977 0
-0.23265626 -0.062003922 -0.097664602 0.045845043 1.6781353e-06 0.99894857 0
-0.22235844 -0.064981014 -0.098137021 0.019963166 0.025315203 0.99948019 0.017936165
-0.214617 -0.06214216 -0.098492153 0.0050919671 0.001848236 0.99998534 0.034859098
-0.20029831 -0.06670548 -0.099149019 0.14736982 0.0081945313 0.98904759 0.11768233
-0.19894208 -0.067120805 -0.097034618 0.15864216 -0.00088078144 0.9873358 0.11828937
-0.18571423 -0.065290049 -0.099818066 0.18125884 0.03130383 0.9829371 0.046314515
0.2161366 -0.062945932 -0.096271962 -0.4419913 0.097975746 0.89165252 0.21284416
0.37787992 -0.06621024 -0.097341947 -0.16797009 0.024561325 0.98548609 0.14643617
0.38227063 -0.065178387 -0.09975864 -0.019708874 0.010278913 0.99975294 0.14122291
0.4393056 -0.062846333 -0.099406779 -0.35222811 0.13609292 0.92596662 0.044919241
0.44760552 -0.067421272 -0.095819101 -0.604406 0.25919795 0.75333256 0.088489585
0.454377 -0.062508121 -0.093849339 -0.75034171 0.23534368 0.61773843 0.13674106
-0.38428131 -0.055481732 -0.090886168 0.018647218 -0.091240995 0.99565423 0.080057032
-0.37764752 -0.051706783 -0.090989158 0.086035386 -0.080990911 0.99299461 0.094240099
-0.36191341 -0.058176532 -0.091734946 0.1226972 -0.032249659 0.99191999 0.038928602
-0.35182476 -0.057224266 -0.092197761 0.14137618 0.0062887259 0.98993605 0.026581714
-0.34258965 -0.056872226 -0.092621416 0.045761909 1.2264649e-05 0.99895239 5.9300246e-06
-0.33269092 -0.053485185 -0.093075521 0.045873661 1.5576571e-06 0.9989472 0
-0.32419193 -0.052156467 -0.09346541 0.045824882 -4.0089626e-06 0.99894947 4.6024506e-06
-0.2963981 -0.054672316 -0.09474045 0.045805432 -2.0696314e-06 0.99895036 4.1795947e-06
-0.28341627 -0.054026831 -0.095335998 0.045830999 6.5268512e-07 0.99894923 5.7233035e-07
-0.27710056 -0.054724503 -0.095625721 0.04585008 -3.3946951e-06 0.99894834 2.4877966e-06
-0.24573769 -0.055270512 -0.097064495 0.045810867 -2.1094922e-06 0.99895012 0
-0.23723847 -0.059566323 -0.097454399 0.045806471 -4.6143538e-07 0.99895036 6.422928e-06
-0.21373545 -0.056861628 -0.098532595 0.0068413462 -0.023203162 0.99970734 0.060153205
-0.2022436 -0.054285124 -0.099059783 0.14753884 -0.045417581 0.98801297 0.11424892
-0.19772127 -0.053491957 -0.096395679 0.42832953 0.0063424362 0.90360034 0.1783497
-0.18705177 -0.054449406 -0.09975671 0.18670513 -0.062047612 0.98045462 0.069162093
0.37665474 -0.053972986 -0.097830124 -0.083805241 0.0005838392 0.99648196 0.18842673
0.38340679 -0.055108137 -0.099731304 0.16704147 0.11321323 0.97942835 0.1888448
0.44721687 -0.053983346 -0.097638637 -0.57706338 0.14740178 0.80328733 0.10399156
0.45371962 -0.054966696 -0.09507595 -0.69703698 0.14613165 0.70198643 0.12554012
-0.38346013 -0.048214834 -0.091075085 -0.010585454 -0.087761335 0.99608529 0.098775834
-0.37637836 -0.043061085 -0.091708615 0.10418136 -0.068113536 0.99222314 0.1063791
-0.36669719 -0.044870622 -0.091515489 0.1659551 -0.095223635 0.98152506 0.092646509
-0.35404372 -0.044934161 -0.092095964 0.13710712 -0.021124711 0.99033093 0.030684661
-0.34895679 -0.04316549 -0.092329323 0.081274465 -0.0084655322 0.99665582 0.0037632673
-0.3338238 -0.044754837 -0.093023553 0.045832306 -7.8355032e-07 0.99894923 0
-0.32656276 -0.044925641 -0.093356654 0.045795437 9.4781644e-06 0.99895084 3.5286433e-07
-0.28693786 -0.043744907 -0.095174447 0.045802824 -9.5430505e-06 0.99895048 0
-0.27104819 -0.046058349 -0.095903382 0.045785375 4.0657565e-06 0.99895132 8.0495001e-06
-0.26465631 -0.044551697 -0.096196599 0.04580982 -1.737925e-06 0.99895018 4.1403255e-06
-0.25548583 -0.043753855 -0.096617296 0.045801185 3.1112685e-07 0.9989506 6.2900149e-06
-0.24062446 -0.042100802 -0.097299069 0.045832787 3.0490395e-07 0.99894917 0
-0.23148774 -0.045549769 -0.097718209 0.045844804 3.3892809e-06 0.99894851 0
-0.22692434 -0.045495339 -0.097927555 0.045828931 -4.3257114e-06 0.99894929 2.1698336e-06
-0.21619637 -0.046831366 -0.098419704 -0.061266292 -0.069618039 0.99569058 0.057326749
-0.20754106 -0.042877007 -0.09881676 0.042417318 -0.043949015 0.99813288 0.08787702
-0.19031706 -0.042362329 -0.099606909 0.23431049 -0.055803981 0.97055888 0.096452877
-0.18308406 -0.046843804 -0.09993872 0.18838032 -0.042294841 0.98118502 0.064874887
0.21613716 -0.045243263 -0.096278325 0.17293602 -0.01864443 0.98475653 0.28018516
0.37635219 -0.044649705 -0.095892087 -0.20755416 -0.017006831 0.97807568 0.19384401
0.38233948 -0.041097581 -0.099756986 0.2451123 0.087502062 0.96553785 0.16691026
0.44739565 -0.044859156 -0.098682724 -0.44903308 0.060323875 0.89147651 0.057502769
0.45394272 -0.047067963 -0.095999584 -0.65434748 0.19782837 0.72985846 0.10067049
0.46533027 -0.045379553 -0.091851048 -0.83823639 0.096423052 0.53671449 0.13118204
-0.38173994 -0.035722956 -0.091470815 0.031318977 -0.042484812 0.99860615 0.11057458
-0.37340185 -0.034712393 -0.091207914 0.12462772 -0.08410842 0.9886322 0.13670358
-0.36841854 -0.039042268 -0.091436528 0.20471033 -0.022779943 0.97855747 0.1175306
-0.34854633 -0.038760748 -0.092348158 0.074925371 -0.0025603231 0.99718583 0.0033395693
-0.33323932 -0.034394156 -0.093050361 0.045847364 1.7668522e-06 0.99894851 0
-0.326554 -0.037004992 -0.093357049 0.045803677 1.0867143e-05 0.99895042 2.8435938e-06
-0.31122968 -0.037103347 -0.094060056 0.045823887 2.591376e-06 0.99894947 0
-0.30303109 -0.030030869 -0.094436169 0.045826022 -8.8037481e-08 0.99894941 0
-0.29895839 -0.037053585 -0.094622999 0.045831271 1.811506e-06 0.99894923 0
-0.28584069 -0.032528993 -0.095224775 0.045839522 2.1594562e-06 0.99894881 0
-0.26362109 -0.033956964 -0.096244097 0.045835514 -9.825996e-08 0.99894905 0
-0.25637242 -0.033925973 -0.096576624 0.045838751 3.1035349e-06 0.99894881 0
-0.24194856 -0.032782096 -0.097238317 0.045837346 -3.6199301e-06 0.99894887 5.4618872e-06
-0.23256387 -0.031787466 -0.097668849 0.045801859 -2.7975793e-06 0.9989506 3.2061773e-06
-0.22756687 -0.038042866 -0.097898081 0.040811457 -0.001363211 0.99916595 8.4501611e-05
-0.21514256 -0.035324529 -0.098468043 -0.062593907 -0.014013061 0.99794066 0.066577539
-0.20427482 -0.037306309 -0.098966599 0.048714899 -0.072100617 0.996207 0.10722428
-0.19856034 -0.035107706 -0.098078191 0.17044996 -0.068998195 0.98294771 0.13074771
-0.18488492 -0.033286441 -0.099856108 0.38376933 0.0043465341 0.9234187 0.11042013
0.21600918 -0.034242108 -0.094815053 -0.99763674 -0.025655726 -0.063739426 0.2347441
0.38020307 -0.035806257 -0.099808402 0.074093133 0.071479373 0.99468631 0.14633037
0.44580573 -0.039745599 -0.099842861 -0.30077738 0.091392279 0.94930524 0.0048100254
0.45453325 -0.037354276 -0.097029291 -0.63490611 0.074023023 0.76903504 0.091478728
-0.37505943 -0.026420739 -0.091257498 0.10223592 -0.060593836 0.99291301 0.10137563
-0.36579347 -0.022992481 -0.091556951 0.25761366 0.0030086979 0.96624327 0.10893678
-0.35312533 -0.028764324 -0.092138089 0.18212101 0.028983254 0.98284888 0.039316285
-0.33534557 -0.02970225 -0.092953742 0.045827013 2.8527443e-06 0.99894941 0
-0.31378251 -0.024227638 -0.09394294 0.045807652 4.062762e-07 0.9989503 5.892392e-06
-0.30439824 -0.021476215 -0.09437345 0.045820866 1.2133522e-07 0.99894965 0
-0.29771566 -0.025546478 -0.094680011 0.045815621 -9.3985238e-07 0.99894994 6.3761036e-06
-0.28971884 -0.026782423 -0.095046863 0.045835841 -5.4119249e-07 0.99894899 1.1961748e-06
-0.27297217 -0.02447832 -0.095815115 0.045815036 6.9475369e-08 0.99894994 3.1927198e-07
-0.25391966 -0.026377816 -0.09668915 0.045816075 -3.7688733e-06 0.99894994 0
-0.24823663 -0.028066304 -0.09694986 0.045840379 6.2769237e-07 0.99894875 0
-0.23392881 -0.025794854 -0.097606219 0.045855809 8.0452874e-06 0.99894804 4.2785514e-06
-0.2257034 -0.027107993 -0.097983569 -0.00023335803 0.0037216274 0.99999309 0.010645336
-0.21617889 -0.027282499 -0.098420501 -0.091941558 -0.027054226 0.99539685 0.065585569
-0.20340924 -0.02386269 -0.099006303 0.1000515 -0.064493366 0.99288988 0.16357146
-0.19822949 -0.02786145 -0.099243931 0.18455938 0.03325719 0.98225844 0.1319669
-0.18212838 -0.02037251 -0.099982567 0.26701298 0.0026511315 0.96368927 0.064049274
0.21588081 -0.024855902 -0.093347415 -0.98927975 -0.0013636798 -0.14602678 0.21478233
0.37833428 -0.02434927 -0.097459793 0.073761322 0.0033334987 0.99727035 0.14746457
0.38074428 -0.028808061 -0.099795371 0.041984804 -0.016328197 0.99898475 0.12522528
0.45312655 -0.023903128 -0.098728158 -0.4480446 0.1307416 0.88439959 0.047789387
0.46535468 -0.020222703 -0.094805852 -0.70468259 0.13137841 0.69725329 0.09101925
-0.38406944 -0.014586415 -0.09093491 -0.073110275 -5.801244e-05 0.99732387 0.13850318
-0.37750736 -0.013299891 -0.091574378 0.038564079 0.022507621 0.99900258 0.1245334
-0.3637037 -0.012413342 -0.091652818 0.26590958 0.0043996256 0.96398795 0.11614386
-0.33516228 -0.015399356 -0.092962153 0.045802265 2.0655573e-07 0.99895054 2.949452e-06
-0.32316941 -0.013814325 -0.093512319 0.045820288 -2.843328e-07 0.99894971 9.5277915e-07
-0.30779037 -0.012887385 -0.094217837 0.045788314 -6.9994976e-06 0.99895114 0
-0.29643348 -0.012062751 -0.094738826 0.045763727 4.4207522e-06 0.99895227 1.0660951e-05
-0.28858903 -0.012305757 -0.095098689 0.045830298 -3.1617066e-07 0.99894923 2.8603654e-06
-0.27668762 -0.014648273 -0.095644668 0.045842193 -2.4394437e-06 0.99894869 5.0169518e-07
-0.26614451 -0.017236784 -0.09612833 0.045808922 -2.280583e-06 0.99895024 1.3559592e-06
-0.25517479 -0.015835274 -0.096631572 0.045837019 -1.1518508e-06 0.99894899 2.3132275e-06
-0.24519362 -0.017594222 -0.097089447 0.045815066 -1.5033942e-06 0.99894994 0
-0.23556922 -0.013447029 -0.097530983 0.045845691 -2.1861389e-07 0.99894857 0
-0.22510427 -0.017376229 -0.098011054 -0.038518675 -0.029810181 0.99881315 0.013034218
-0.20555583 -0.016015163 -0.098907836 0.078237452 0.0010526229 0.99693418 0.14249028
-0.19678867 -0.016501913 -0.09723746 0.47627366 -0.10298342 0.87324554 0.15604368
-0.18661363 -0.014816059 -0.099776804 0.38315147 0.038850673 0.92286807 0.093234867
0.21580505 -0.011097953 -0.092481449 -0.99371314 0.055056512 0.097483501 0.2274989
0.37557256 -0.010272127 -0.099919841 -0.05849386 -0.028835122 0.99787128 0.14719018
0.45675063 -0.014584898 -0.098260768 -0.55027127 0.14649265 0.8220349 0.068891034
0.46291673 -0.015230834 -0.096068986 -0.60645956 0.17712237 0.77513522 0.079001904
-0.38373885 -0.004502628 -0.091010965 0.016346628 0.079437897 0.99670577 0.12351733
-0.37713578 -0.0047244923 -0.091563754 0.10633157 0.09199398 0.99006599 0.1618163
-0.36593357 -0.003354803 -0.091550522 0.25676233 0.083067156 0.96289819 0.11590294
-0.35870701 -0.0027031996 -0.091882035 0.21475162 0.0076173823 0.97663897 0.069014296
-0.34375435 -0.0097472221 -0.092567988 0.045828778 -3.2764311e-07 0.99894935 2.1878886e-06
-0.33411449 -0.004261611 -0.093010217 0.045826521 7.9627597e-08 0.99894941 0
-0.32579732 -0.0039405134 -0.093391776 0.045825925 1.210757e-07 0.99894947 0
-0.31458554 -0.0068956711 -0.093906105 0.045860648 5.7716557e-06 0.99894786 0
-0.30566031 -0.0023774672 -0.094315551 0.045837644 5.4090162e-07 0.99894893 1.1445311e-06
-0.29152116 -0.0027314983 -0.094964176 0.045791984 -3.551082e-06 0.99895102 2.9432415e-06
-0.27399057 -0.0019358875 -0.095768392 0.045785237 3.9895476e-06 0.99895132 7.9499896e-06
-0.26501957 -0.0046565835 -0.09617994 0.045814201 -8.7583464e-07 0.99894994 1.6765631e-06
-0.25596023 -0.0079683596 -0.096595533 0.045793246 -3.3587005e-06 0.99895096 3.9340985e-06
-0.24515371 -0.0039533461 -0.09709128 0.045815635 -6.4581081e-07 0.99894989 7.5888529e-06
-0.23277244 -0.0038121073 -0.097659275 0.04586963 3.5920136e-06 0.99894738 0
-0.2243676 -0.0044999025 -0.09804485 -0.059055306 0.01618108 0.99812353 0.021625413
-0.20892741 -0.0063738599 -0.098753162 0.019729361 0.021725502 0.9995693 0.099585615
-0.19878203 -0.0056713801 -0.094384223 0.21158475 0.1394532 0.9673596 0.16260345
0.2161949 -0.0069512241 -0.096938372 -0.91579187 0.068358116 0.39579344 0.23455311
0.37747383 -0.0061129024 -0.095756441 -0.055696826 -0.11803809 0.99144596 0.18276362
0.3832072 -0.0050795153 -0.099736102 0.13770941 -0.028790664 0.99005413 0.12542266
0.46626335 -0.0047910255 -0.095819294 -0.78184152 0.0079933899 0.62342596 0.11713587
0.47394612 -0.0098095071 -0.092376947 -0.82846004 0.097643256 0.55147046 0.11780273
-0.38305724 0.0033697207 -0.09116777 0.039847728 0.017844424 0.99904644 0.12894756
-0.37182558 0.0037882808 -0.091280222 0.3952893 0.0031023221 0.91855139 0.16278344
-0.36194897 0.0075659957 -0.091733314 0.18424585 -0.0053520161 0.98286557 0.050249878
-0.35521954 0.0092005776 -0.092042029 0.19221023 0.017660096 0.98119479 0.044887815
-0.34593615 0.0030366152 -0.092467897 0.045847692 1.4766653e-06 0.99894845 0
-0.33296487 0.0046863561 -0.09306296 0.045822807 7.5814306e-08 0.99894959 1.4364384e-06
-0.32142743 0.0047853217 -0.093592241 0.045808196 2.2828997e-06 0.9989503 9.9544413e-06
-0.3042478 0.0077905343 -0.094380356 0.04584191 -1.2080853e-06 0.99894869 3.1903457e-07
-0.29927206 0.0058849044 -0.094608605 0.045850575 -1.5354219e-06 0.99894828 0
-0.2783024 0.0069757588 -0.095570594 0.045801345 3.3133409e-07 0.99895054 0
-0.26158556 0.003869303 -0.096337482 0.045822162 -5.1700425e-07 0.99894965 2.1328005e-06
-0.25817645 0.00785561 -0.096493877 0.045827478 -4.3894121e-07 0.99894935 0
-0.24570099 0.0063628182 -0.097066179 0.045846432 -9.4101364e-07 0.99894851 0
-0.23759027 0.0055276286 -0.097438261 0.045798928 3.2435305e-06 0.99895066 2.9670866e-06
-0.22077708 0.0028536953 -0.09820956 -0.016741816 0.099583283 0.99488837 0.027354222
-0.20662181 0.0040549561 -0.09885893 0.047935959 0.04796616 0.99769807 0.14000028
-0.19752909 0.0062065399 -0.09707544 0.23423547 0.04887474 0.97095054 0.14878498
-0.18476415 0.0080731101 -0.099861652 0.17448717 0.076127343 0.98171222 0.050767794
0.37690395 0.0015945714 -0.097184993 0.0063191387 0.032076988 0.99946541 0.17533351
0.38125414 0.0053699296 -0.099783108 0.19766013 -0.014042472 0.98017001 0.12729239
0.45695853 0.0096566053 -0.098610565 -0.48909134 -0.071469538 0.86929965 0.047765981
0.46413767 0.0050317016 -0.096538506 -0.69941461 -0.095087335 0.70836258 0.070719935
0.47482038 0.0047337408 -0.092541486 -0.91224205 -0.06005884 0.40522501 0.10168801
-0.38166773 0.012449034 -0.091487423 0.12659651 -0.038456831 0.99120855 0.14925611
-0.37483588 0.01429325 -0.091142118 0.28470144 -0.058635164 0.95682126 0.15351765
-0.36624408 0.01991724 -0.091536269 0.24275377 -0.0026139668 0.97008443 0.077819526
-0.35317451 0.012218102 -0.092135839 0.16078758 0.0025241761 0.9869858 0.029524017
-0.33202642 0.011928203 -0.093106009 0.045811873 -3.7970793e-07 0.99895006 0
-0.32505497 0.016544443 -0.093425825 0.04581929 6.2069847e-07 0.99894971 1.6639959e-06
-0.31478542 0.015257284 -0.093896933 0.045826431 2.7131741e-06 0.99894941 3.3879292e-06
-0.30361813 0.016764136 -0.094409242 0.045809783 1.4563786e-06 0.99895018 5.8572687e-06
-0.29071772 0.017928999 -0.095001042 0.045809899 2.2570471e-06 0.99895018 8.6616519e-06
-0.28996977 0.011370014 -0.095035352 0.045821462 -4.2511672e-07 0.99894965 3.0304925e-06
-0.27585348 0.018466575 -0.095682934 0.045806278 -1.6932613e-06 0.9989503 3.077557e-06
-0.2665571 0.016546052 -0.096109405 0.045845903 2.6049386e-06 0.99894857 0
-0.25446853 0.019654941 -0.096663967 0.045832895 -9.1233693e-07 0.99894917 0
-0.24343826 0.010791536 -0.09716998 0.045797791 -5.2294757e-07 0.99895072 0
-0.23506536 0.015629414 -0.097554088 0.045850452 4.7982758e-07 0.99894834 0
-0.224538 0.013025789 -0.098037027 0.044683672 0.004866722 0.99898934 0.0012283602
-0.21336022 0.015396476 -0.098549813 -0.036852092 -0.017272849 0.99917144 0.081866145
-0.20200635 0.015360218 -0.099070668 0.11932492 -0.074346952 0.99006766 0.14745058
-0.19479614 0.01380569 -0.098582864 0.27126151 -0.024007693 0.96220624 0.11528825
0.21587338 0.015322499 -0.093262404 -0.99276352 0.081460632 0.088231161 0.17865419
0.37825647 0.015608554 -0.096194863 0.088466778 0.042597439 0.99516791 0.13907751
0.38515574 0.013791651 -0.099689215 0.23230933 0.020281782 0.97243053 0.13403763
0.46220964 0.016291654 -0.096259333 -0.71755344 -0.1574426 0.67847538 0.078492507
0.47159815 0.015930681 -0.093037754 -0.84210581 -0.13184129 0.52294904 0.090534925
-0.37647527 0.024483366 -0.091066919 0.12773593 -0.036772385 0.99112624 0.094940923
-0.36066034 0.020231046 -0.091792427 0.24347995 -0.016929256 0.96975821 0.064230546
-0.35674542 0.025843944 -0.091972023 0.20089532 -0.029574962 0.97916627 0.043302234
-0.34456468 0.023551747 -0.092530817 0.045828059 -4.6654171e-07 0.99894941 2.594456e-06
-0.33759844 0.021773592 -0.092850387 0.045820504 -2.6020518e-06 0.99894977 2.1362364e-06
-0.32372704 0.02274536 -0.093486734 0.045846924 -8.5857579e-07 0.99894845 0
-0.30876577 0.022524443 -0.094173089 0.045824021 -6.2069269e-08 0.99894953 4.8213146e-06
-0.29937637 0.023817278 -0.094603822 0.045855254 -1.2712223e-06 0.9989481 0
-0.2844899 0.029805746 -0.095286742 0.045823306 1.6732398e-06 0.99894959 3.55509e-07
-0.27583984 0.026688643 -0.09568356 0.04580541 6.6798384e-07 0.99895042 3.9866532e-06
-0.26419172 0.02218549 -0.096217915 0.045834783 1.4127384e-06 0.99894905 0
-0.25433132 0.026227295 -0.09667027 0.045867059 6.7505488e-07 0.99894756 0
-0.24475385 0.022686908 -0.097109623 0.045868948 -2.7900154e-07 0.99894744 0
-0.23353638 0.024269437 -0.097624227 0.045820445 3.4680909e-06 0.99894971 7.6972083e-06
-0.22502406 0.026236642 -0.098014735 0.055840284 -0.0098772049 0.99839085 0.0013973333
-0.20489183 0.029546291 -0.098938301 0.0062181056 -0.059101779 0.9982326 0.15999335
-0.19530842 0.025884375 -0.098549426 0.2758908 0.0038446872 0.96118128 0.13918041
0.37869057 0.023968298 -0.097400509 0.1194027 0.079594247 0.98965031 0.18031135
0.38273618 0.024933003 -0.099747449 0.22534616 0.05223858 0.97287732 0.16699003
0.44973117 0.028466035 -0.09952952 -0.26497325 -0.081553824 0.96080083 0.0050454354
0.45024079 0.021950146 -0.099902108 -0.22973411 -0.076417744 0.9702487 0.0031786463
-0.38332558 0.038441811 -0.091106042 0.024293423 0.023320122 0.99943286 0.13064709
-0.3739754 0.032639805 -0.091181599 0.26791871 0.06819284 0.96102518 0.12670366
-0.36518633 0.032035761 -0.091584802 0.30075371 0.013633472 0.95360434 0.11043902
-0.35336512 0.03268297 -0.0921271 0.19451509 -0.021502459 0.98066378 0.033901349
-0.3427234 0.037123013 -0.092615284 0.045871343 -5.6535991e-06 0.99894738 0
-0.33419892 0.034713872 -0.093006343 0.045857731 3.3144252e-07 0.99894798 0
-0.32493687 0.032266289 -0.093431234 0.045821633 2.277875e-09 0.99894965 0
-0.31709537 0.033084352 -0.093790971 0.045781434 2.9982191e-06 0.99895149 9.6209506e-06
-0.30694181 0.036209613 -0.094256759 0.045853887 -1.9706665e-06 0.99894822 0
-0.29422373 0.033096086 -0.094840199 0.045858581 -5.0878366e-06 0.99894792 2.8419751e-07
-0.28675517 0.035875216 -0.095182829 0.045846265 2.4856206e-06 0.99894851 1.2157466e-07
-0.27202085 0.036159508 -0.095858753 0.045799024 -1.9715837e-07 0.99895066 4.901272e-06
-0.2653583 0.035420381 -0.096164405 0.045852724 -3.3028778e-06 0.99894822 0
-0.25401303 0.034133304 -0.096684866 0.045813937 4.6438811e-07 0.99894994 6.7495293e-06
-0.24742143 0.035946909 -0.096987255 0.045839477 -8.7481305e-07 0.99894881 0
-0.23960727 0.038787205 -0.097345725 0.045822144 1.5123049e-06 0.99894959 0
-0.22750701 0.036434583 -0.09790083 0.045834694 5.2212687e-07 0.99894905 4.62854e-06
-0.21580586 0.039057665 -0.098437615 -0.019051304 -0.0030339719 0.99981385 0.052331004
-0.20924677 0.038300924 -0.098738514 -0.056815144 0.069158696 0.99598652 0.13433787
-0.19673377 0.035494201 -0.097602151 0.24828726 0.0088714408 0.96864575 0.14240544
-0.18362772 0.032936197 -0.099913776 0.27518627 0.0073160492 0.96136308 0.083171181
0.21642523 0.035536833 -0.099571884 -0.20212683 0.18213078 0.96227497 0.17708707
0.37932524 0.036723793 -0.099829525 0.081333861 0.0065876665 0.99666518 0.14627407
0.45462987 0.030896774 -0.097635701 -0.59785491 -0.13573536 0.79002875 0.083419643
0.46540129 0.032214325 -0.093741305 -0.77661324 -0.16732427 0.60735047 0.093098588
-0.38373023 0.046357706 -0.09101294 -0.033857752 0.083454281 0.99593627 0.12854253
-0.37504718 0.04583694 -0.091393501 0.16951194 0.051869787 0.98416215 0.12184285
-0.36693597 0.045077745 -0.091504529 0.21210058 0.029510314 0.97680217 0.11735767
-0.35699761 0.046520304 -0.091960452 0.19912514 0.0033127905 0.97996843 0.059872158
-0.34790742 0.046102814 -0.092377469 0.0611743 -0.0082408339 0.99809301 0.0016173898
-0.33428597 0.043417942 -0.093002349 0.04589783 -7.3434535e-06 0.99894613 0
-0.31244782 0.047147334 -0.094004177 0.045836546 -3.158448e-07 0.99894893 1.0359764e-06
-0.30335569 0.043304663 -0.094421268 0.045833975 4.4317903e-06 0.99894905 1.8719385e-07
-0.28255022 0.045174479 -0.095375724 0.04584793 3.5652856e-06 0.99894845 0
-0.27257481 0.044400755 -0.095833339 0.045821298 9.0280645e-07 0.99894971 3.1150719e-07
-0.26982579 0.048505142 -0.095959455 0.045858715 1.8877373e-06 0.99894792 0
-0.25560957 0.044360839 -0.096611619 0.045850836 1.4004606e-06 0.99894828 0
-0.24442478 0.043562938 -0.097124726 0.0458351 7.0705772e-07 0.99894905 6.5773935e-07
-0.23354429 0.042742409 -0.09762387 0.045821462 1.7018832e-06 0.99894959 0
-0.22520068 0.046240229 -0.098006636 0.039987039 -0.0053555472 0.99918586 0.0016899287
-0.21441713 0.042990603 -0.098501325 -0.064022213 0.046241313 0.99687654 0.090991907
-0.20444264 0.047237858 -0.09895891 0.058515899 0.060917385 0.99642605 0.090496533
-0.19800803 0.045926187 -0.097373828 0.32936889 0.077882275 0.94098383 0.17207742
-0.1875715 0.04230006 -0.099732861 0.19583428 0.011644295 0.98056793 0.077570222
0.21598603 0.043224059 -0.094550632 -0.99275768 -0.072774589 -0.09558221 0.20910642
0.37750629 0.045056392 -0.09632194 -0.074925847 0.046766624 0.99609184 0.19077136
0.44654715 0.04793074 -0.098623574 -0.4577015 -0.17290337 0.87213176 0.079222701
0.4621422 0.042083234 -0.093792014 -0.76333165 -0.11815363 0.63510972 0.096178792
-0.3836261 0.05600851 -0.091036901 0.036785729 0.0626105 0.99735993 0.10266504
-0.37584162 0.055158481 -0.091517136 0.1023356 0.052388661 0.99336946 0.15184711
-0.36813951 0.054436613 -0.09144932 0.1803111 0.04818707 0.98242855 0.10884341
-0.35571226 0.053862464 -0.092019416 0.13702197 0.019543504 0.99037522 0.030798554
-0.34549171 0.055849064 -0.092488289 0.045806322 -1.1077608e-06 0.99895036 1.9150982e-06
-0.33405802 0.054904126 -0.093012802 0.045843955 -7.0829269e-06 0.99894863 3.6224003e-07
-0.32794929 0.058563471 -0.093293048 0.045811396 -3.0938278e-07 0.99895012 1.3550796e-07
-0.31512782 0.056376211 -0.093881235 0.045821469 2.9276137e-06 0.99894965 5.020384e-07
-0.30409703 0.055187434 -0.094387271 0.0457987 -4.3437863e-06 0.99895072 0
-0.29014212 0.056170978 -0.095027447 0.045807336 -2.0686177e-06 0.99895024 6.5399813e-06
-0.28469166 0.051493373 -0.095277488 0.04581612 1.5814112e-06 0.99894989 7.0559536e-06
-0.27714747 0.052820802 -0.095623575 0.045806166 1.9569432e-06 0.99895036 2.0703271e-06
-0.26429281 0.05739576 -0.096213281 0.045826595 3.117897e-06 0.99894947 4.4826794e-07
-0.24791603 0.058638923 -0.096964568 0.045835 -1.039928e-06 0.99894905 1.3199363e-07
-0.23454554 0.056176454 -0.097577929 0.04583846 5.7245188e-07 0.99894887 0
-0.22733235 0.057813406 -0.097908832 0.033480342 6.094361e-05 0.99943936 0.00047612836
-0.21078937 0.053314414 -0.098667741 -0.037863173 -0.00081681262 0.99928266 0.10536924
-0.209562 0.052625433 -0.098724052 -0.037867758 -0.00081595127 0.99928242 0.10537589
-0.1977367 0.055517673 -0.096577957 0.17710331 -0.040161904 0.98337245 0.11019368
-0.18536769 0.055533953 -0.099833965 0.30945718 0.033031255 0.95033956 0.10047508
0.21633555 0.054834358 -0.098546579 -0.14853418 -0.15228067 0.97711211 0.18307851
0.37473124 0.056128524 -0.099940091 -0.0891807 0.032430362 0.99548739 0.12299946
0.38038948 0.059833393 -0.099803925 0.061390895 0.013736455 0.99801934 0.16001981
0.4554379 0.05655124 -0.094248578 -0.69318581 -0.29443642 0.65787584 0.1292084
0.46327478 0.055619739 -0.091201924 -0.72018993 -0.29462838 0.62810874 0.1594505
-0.38785282 0.065478221 -0.090064533 -0.028984062 -0.069598161 0.997154 0.089122169
-0.3772828 0.063370928 -0.091606885 0.0021709732 -0.072445355 0.99737 0.11357033
-0.35623667 0.06593921 -0.091995358 0.16703275 -0.0066211638 0.98592913 0.051573675
-0.34363633 0.067693889 -0.092573404 0.045860529 2.6451858e-06 0.99894786 1.5340147e-06
-0.33387697 0.064546615 -0.09302111 0.045832939 1.5820653e-07 0.99894911 3.9255301e-06
-0.3254869 0.06295941 -0.093405999 0.04582439 -1.6672184e-06 0.99894953 2.0949983e-06
-0.31635898 0.062774718 -0.093824744 0.045816921 6.3569232e-06 0.99894983 4.5779002e-06
-0.30129629 0.061735827 -0.094515748 0.045856003 -2.8146775e-07 0.9989481 0
-0.2951071 0.066594027 -0.094799675 0.045844834 -8.2397837e-06 0.99894857 0
-0.28173369 0.069052711 -0.095413178 0.045826674 2.4340645e-08 0.99894941 0
-0.27572283 0.068139806 -0.095688924 0.045787595 -3.4255902e-06 0.9989512 6.5039762e-06
-0.26406291 0.064784355 -0.096223831 0.045857232 8.4318333e-07 0.99894804 5.1654166e-07
-0.25865826 0.064265996 -0.096471764 0.045831032 3.5888561e-06 0.99894923 0
-0.2478331 0.063389421 -0.096968368 0.045806695 1.7858033e-06 0.9989503 3.6405977e-06
-0.23231235 0.068086267 -0.097680382 0.045821499 -1.7929264e-06 0.99894965 7.1048254e-07
-0.22705589 0.064349771 -0.09792152 0.058355164 0.0056676483 0.99827981 0.00055367849
-0.21428472 0.064155862 -0.098507404 -0.035045486 -0.017807052 0.99922705 0.064544059
-0.20504153 0.063968018 -0.098931432 0.047844727 -0.027727289 0.99846983 0.083580017
-0.19392309 0.060604624 -0.099441484 0.32051894 0.0017414198 0.94724053 0.10955421
-0.18609792 0.064214572 -0.09980046 0.25846207 -0.020825064 0.96579689 0.090041615
0.2159223 0.067326486 -0.093821727 -0.99770975 0.047117617 -0.048529614 0.17112626
0.3797566 0.066913456 -0.099819146 0.082325198 -0.071035475 0.99407065 0.16285871
0.38424134 0.068077743 -0.099711217 0.20255752 -0.020194639 0.97906214 0.16947812
0.4396708 0.06021006 -0.099577926 -0.41548797 -0.15748356 0.89586192 0.087991029
0.44557032 0.064560004 -0.096956573 -0.533252 -0.18450323 0.82559121 0.12272966
0.45414457 0.063443631 -0.093844272 -0.73698115 -0.20723078 0.64336157 0.14152789
-0.38292778 0.073558807 -0.09119755 0.026674956 -0.00089988229 0.99964368 0.091585144
-0.37521788 0.074406728 -0.091265365 0.062686116 -0.020385275 0.99782509 0.13266064
-0.36618698 0.074531786 -0.091538899 0.23511572 0.037643109 0.9712382 0.089669585
-0.35624292 0.075340234 -0.091995068 0.20140579 -0.0098634716 0.97945821 0.044272494
-0.32728004 0.07265193 -0.093323752 0.045830045 6.7365299e-06 0.99894929 0
-0.29270703 0.078664832 -0.09490978 0.045836724 9.359639e-07 0.99894887 1.4091921e-07
-0.28548673 0.073416479 -0.09524101 0.045837931 -1.1258231e-06 0.99894893 0
-0.26245695 0.071685731 -0.096297503 0.04582997 -2.9275796e-07 0.99894923 1.4876952e-06
-0.24646415 0.075545326 -0.097031176 0.045833789 1.987497e-07 0.99894911 1.1126044e-06
-0.23155791 0.076343931 -0.09771499 0.045837771 -5.3775298e-06 0.99894887 0
-0.2266663 0.073989749 -0.097939387 0.012213174 -0.012852371 0.99984282 0.0083229821
-0.21168546 0.078888595 -0.098626643 -0.026540505 -0.010340742 0.99959421 0.078821279
-0.20428549 0.077086799 -0.098966114 0.041406959 0.0028402926 0.9991383 0.098947681
-0.19572802 0.073604971 -0.098952323 0.27846715 -0.053956263 0.95892906 0.10854314
-0.18649119 0.076435462 -0.099782422 0.3543143 0.05282113 0.93363339 0.12043159
0.21596387 0.075297311 -0.094297111 -0.99581093 0.076573119 0.049970634 0.17806678
0.37805015 0.072370693 -0.099529907 0.01097918 -0.00066302862 0.99993956 0.17490445
0.38435131 0.074090362 -0.099708572 0.22121449 0.0037022738 0.97521812 0.15981206
0.44620669 0.075429954 -0.095233642 -0.65796453 -0.094732828 0.74706656 0.10219243
0.45550722 0.076713346 -0.091450609 -0.73569065 -0.20703605 0.64489955 0.13194716
-0.38534015 0.088789299 -0.090642579 -0.19272603 0.10693914 0.97540796 0.13941856
-0.37532136 0.083333097 -0.09148325 0.097334452 0.02698414 0.9948858 0.14696439
-0.35522637 0.083759241 -0.092041709 0.16674848 0.023467138 0.98572016 0.036742695
-0.32571894 0.08847335 -0.09339536 0.045847088 2.0204682e-06 0.99894851 2.1190506e-06
-0.31444845 0.086842299 -0.093912393 0.045832518 6.0938469e-06 0.99894917 7.8581951e-07
-0.30647194 0.086964771 -0.094278321 0.045805153 1.7561913e-06 0.99895036 8.103143e-06
-0.29295498 0.086718194 -0.094898403 0.045857064 4.7034114e-06 0.99894798 0
-0.2844592 0.086348332 -0.09528815 0.045830421 2.7874071e-06 0.99894923 0
-0.27533689 0.08365833 -0.095706634 0.045816325 -3.9555966e-06 0.99894989 0
-0.26425272 0.085713059 -0.096215121 0.045833997 1.6651373e-06 0.99894905 9.2912137e-07
-0.24299006 0.08329875 -0.097190551 0.045837402 1.8957107e-06 0.99894893 1.2969688e-06
-0.23324001 0.081486963 -0.097637825 0.045851074 -2.2080544e-06 0.99894828 0
-0.21500191 0.084042273 -0.098474503 -0.072608531 0.039936658 0.99656069 0.078764774
-0.19826731 0.083204441 -0.097273231 0.34655035 0.12250558 0.92999738 0.19394529
-0.18412916 0.087413155 -0.099890791 0.21076408 0.022826269 0.97727036 0.071059488
0.21611443 0.08146514 -0.096018657 -0.98249853 0.11803278 -0.14410044 0.20711847
0.37583718 0.083724365 -0.098259866 -0.041981384 -0.10471345 0.99361598 0.17756623
0.43673998 0.085251063 -0.097629346 -0.49767789 -0.22029465 0.83892006 0.057270173
0.4440425 0.085783437 -0.094288774 -0.60361135 -0.20292887 0.77102089 0.079116613
0.45232826 0.089573935 -0.090397216 -0.76953441 -0.31064644 0.55795658 0.15887356
-0.38349259 0.099674508 -0.091067612 0.069954731 -0.024598723 0.99724686 0.11235569
-0.37287158 0.095035687 -0.09123224 0.21338171 0.010846131 0.97690868 0.14414813
-0.36469126 0.090700313 -0.091607511 0.19132189 0.079368256 0.97831321 0.1117657
-0.35382247 0.095704399 -0.092106111 0.076300554 -0.031978462 0.9965719 0.0071606101
-0.3411625 0.093260124 -0.092686892 0.044887777 -0.0040339767 0.99898386 7.5692282e-05
-0.33678812 0.09642677 -0.092887565 0.038184695 -0.079918616 0.99606979 0.011585072
-0.32720953 0.093199082 -0.093326978 0.045888245 -0.013292685 0.99885809 0.00029354874
-0.31637841 0.098764867 -0.093823858 0.046349037 -0.13498232 0.98976338 0.021855269
-0.30727223 0.094380677 -0.094241604 0.047642142 -0.011092811 0.9988029 0.00022502491
-0.27498597 0.096350066 -0.095722735 0.033439673 -0.091990158 0.99519819 0.013516018
-0.2628397 0.097613014 -0.096279934 0.030889614 -0.10983243 0.99346995 0.017432857
-0.25498798 0.09498772 -0.09664014 0.022983592 -0.065381259 0.99759567 0.0075677671
-0.23415144 0.095200777 -0.097596012 0.04360532 -0.016423911 0.99891388 0.0004447345
-0.22464374 0.098010801 -0.098032176 -0.0059856004 -0.098740511 0.99509519 0.029650804
-0.21278736 0.092700705 -0.098576084 -0.067290731 -0.037385933 0.99703276 0.11346722
-0.20367327 0.095317744 -0.098994195 0.13330431 0.049456086 0.98984039 0.15118547
-0.19847499 0.093822382 -0.096084952 0.19638421 0.068419963 0.97813696 0.14405119
-0.1877861 0.096492887 -0.099723019 0.35913697 -0.023673518 0.93298459 0.11436033
0.37821758 0.097549871 -0.096623361 0.0094364639 -0.10636536 0.99428236 0.16528389
0.38390517 0.094054677 -0.099719308 0.15201163 -0.075668722 0.98547792 0.12288836
0.43445307 0.093606979 -0.097380482 -0.42026198 -0.21247034 0.88217705 0.059853412
0.44467011 0.096181206 -0.092266798 -0.71689856 -0.29273078 0.63274413 0.12648748
-0.38387105 0.10587633 -0.090980545 0.028033277 -0.034794047 0.99900126 0.15844148
-0.37578619 0.10260566 -0.091127336 0.093187571 -0.12477034 0.98779982 0.13106041
-0.36746588 0.10038099 -0.091480225 0.18959372 -0.057859913 0.9801563 0.099296235
-0.35682458 0.102213 -0.091968395 0.13289224 -0.1586556 0.97834963 0.046175152
-0.34015501 0.10036732 -0.092733108 0.0519627 -0.20796014 0.97675598 0.044616282
-0.33372158 0.10480563 -0.09302824 0.01952846 -0.29517928 0.95524228 0.055127122
-0.32697865 0.10276222 -0.093337573 0.021032874 -0.2335615 0.97211444 0.036259435
-0.31461218 0.10980204 -0.093904883 0.018858394 -0.30124328 0.9533608 0.045095421
-0.30313367 0.10251573 -0.09443146 0.024282474 -0.23945963 0.97060257 0.038382933
-0.29737842 0.10118797 -0.094695479 -0.004461397 -0.17515774 0.98453027 0.025921686
-0.28621754 0.10443953 -0.09520749 0.075428076 -0.28647777 0.95511311 0.051781982
-0.27932209 0.10030283 -0.095523812 0.055816997 -0.13784371 0.98887992 0.016785316
-0.25651503 0.10472798 -0.096570089 0.090067536 -0.26645967 0.95962864 0.058608189
-0.24605218 0.10606055 -0.097050071 0.036624033 -0.20392363 0.97830153 0.032184366
-0.22156036 0.1065115 -0.098173626 0.041750602 -0.28737378 0.95690817 0.073356852
-0.21680829 0.10506729 -0.09839163 -0.055525828 -0.24737015 0.96732867 0.095074773
-0.20587482 0.1041648 -0.098893195 0.12354814 -0.19117793 0.9737488 0.13463065
-0.19638266 0.10546172 -0.096996322 0.27113226 -0.13907418 0.95244187 0.16656023
0.21566898 0.10178789 -0.090925656 -0.98712516 0.15019602 -0.055000227 0.15774162
0.37830386 0.1028542 -0.095028318 -0.94571221 -0.10646693 -0.30707234 0.23283735
0.38104528 0.1004692 -0.099788129 0.034579642 -0.090709589 0.99527687 0.11618544
0.42642426 0.10288313 -0.099907368 -0.2234906 -0.090822205 0.97046548 0.011056767
0.43492866 0.10272115 -0.09588664 -0.57089049 -0.16752702 0.80375284 0.056195643
-0.38228774 0.11278691 -0.091344781 0.0089627989 -0.11344629 0.99350369 0.12153987
-0.37344313 0.11137747 -0.091206022 0.05976706 -0.15488441 0.98612309 0.15901127
-0.3696861 0.11844209 -0.091378368 -0.041014887 -0.20660843 0.97756374 0.15072122
-0.35854626 0.11597874 -0.091889411 -0.045012839 -0.3650488 0.92989957 0.10527324
-0.3434034 0.1155769 -0.092584088 0.02432134 -0.45311844 0.89111853 0.092459455
-0.33397529 0.11585356 -0.093016602 0.00049433246 -0.40862563 0.9127019 0.079175189
-0.32457185 0.11654883 -0.093447983 0.058886286 -0.076391257 0.99533749 0.13104926
-0.29464501 0.11355765 -0.094820872 0.11444145 -0.36349496 0.9245401 0.064207248
-0.28914434 0.11681363 -0.095073223 0.10830512 -0.55616343 0.82398552 0.067969136
-0.2717582 0.11706699 -0.095870808 0.1667932 -0.16807213 0.97156155 0.10763686
-0.26416123 0.11698697 -0.096219316 0.10280401 -0.0059012538 0.9946841 0.10332277
-0.25917399 0.11216674 -0.096448109 0.046763901 -0.38664722 0.92104131 0.072667286
-0.24591966 0.11259392 -0.09705615 0.034761097 -0.41969812 0.90699786 0.072143994
-0.2164104 0.1146881 -0.098409891 0.042105 -0.41703022 0.90791672 0.099036299
-0.20722881 0.11625101 -0.098831087 0.31679583 -0.33148363 0.8886838 0.19125788
-0.19467604 0.11302657 -0.096312799 0.28949609 -0.27989319 0.91534239 0.1413226
0.21608651 0.11628841 -0.095699072 -0.74512303 -0.086192258 0.66133392 0.21696831
0.37696373 0.11585288 -0.097523414 0.21467276 -0.10570548 0.97094899 0.15053022
0.42868561 0.1118454 -0.097408235 -0.33348578 -0.1400039 0.93230152 0.013737634
0.43508202 0.11630318 -0.09339162 -0.70589107 -0.26185969 0.65813929 0.073194973
-0.38236633 0.1244561 -0.091326714 0.032993864 -0.02393825 0.99916887 0.11947969
-0.37573481 0.12692031 -0.091013983 -0.20812717 -0.040113028 0.97727901 0.16664138
-0.36678839 0.12130938 -0.091511302 -0.018326018 -0.18098515 0.98331505 0.15103525
-0.35997334 0.12110437 -0.09182395 -0.040225271 -0.14383486 0.98878384 0.17655884
-0.34534845 0.12027049 -0.09249486 0.0094075846 -0.18125662 0.98339081 0.14447765
-0.33592585 0.12171737 -0.091938578 0.14552253 -0.17004676 0.97463185 0.18335889
-0.32384109 0.12224783 -0.09180364 0.25140399 -0.077820972 0.96474868 0.18390107
-0.31514069 0.1211447 -0.092226192 0.035692289 0.12731767 0.99121958 0.11950747
-0.28586337 0.12224783 -0.092090465 0.21777919 0.1838765 0.95852065 0.24389735
-0.27469453 0.12224783 -0.094125398 0.12404044 0.15319262 0.98038054 0.14215592
-0.26111418 0.12224783 -0.0912017 -0.20952363 0.10602158 0.97203869 0.19394875
-0.25235727 0.12218926 -0.095133878 0.017621161 0.040677495 0.999017 0.15327728
-0.24371499 0.12221026 -0.096338362 0.016564634 -0.020389635 0.99965489 0.14493528
-0.2249494 0.12161153 -0.095566243 -0.08769764 -0.030249814 0.99568778 0.11376867
-0.21359886 0.12224783 -0.097895481 0.083357103 -0.086753599 0.99273622 0.18360558
-0.20911679 0.12224783 -0.092061296 0.3648687 -0.15259854 0.91846853 0.25606409
-0.1980139 0.12200317 -0.095836923 0.43540683 -0.28659207 0.85339665 0.1765611
-0.18361031 0.1212963 -0.09964513 0.36265281 -0.17465109 0.91541243 0.10539912
0.21547042 0.12357863 -0.094393753 -0.86331141 0.045527451 0.50261384 0.20044765
0.22779879 0.12224783 -0.095528014 0.010818077 -0.22591659 0.97408658 0.19828212
0.23168546 0.12224783 -0.093968041 0.10621498 -0.29762426 0.9487561 0.16239928
0.24294628 0.12224783 -0.092272505 0.17801049 -0.43553099 0.88239735 0.17351665
0.25910065 0.12224783 -0.098135702 0.13431904 0.13247624 0.98204297 0.13213469
0.26174277 0.12224783 -0.097270496 -0.029731944 0.11598127 0.99280626 0.15992963
0.27486172 0.12224784 -0.093932301 -0.32335645 -0.23344897 0.91702902 0.17970417
