# .PCD v0.7 - Point Cloud Data file format
VERSION 0.7
FIELDS x y z normal_x normal_y normal_z curvature
SIZE 4 4 4 4 4 4 4
TYPE F F F F F F F
COUNT 1 1 1 1 1 1 1
WIDTH 574
HEIGHT 1
VIEWPOINT 0 0 0 1 0 0 0
POINTS 574
DATA ascii
0.046091564 -0.40738207 0.034331106 0.0032764191 0.18073899 -0.98352569 0.00024393352
0.057925176 -0.40791735 0.034018047 -0.023564173 0.17158699 -0.98488712 0.00017975645
0.075162992 -0.40265697 0.034126826 -0.042970881 0.16731207 -0.98496705 5.1807729e-06
0.086615682 -0.40392414 0.033391397 -0.045104071 0.16863412 -0.98464626 6.9621433e-06
0.092797317 -0.40266937 0.033323281 -0.044766966 0.16864179 -0.98466027 4.4674116e-06
0.10214695 -0.40657043 0.032236692 -0.045861837 0.17589606 -0.98333985 8.399722e-05
0.11507037 -0.40346625 0.032175884 -0.047320172 0.1759394 -0.98326296 8.8246743e-05
0.12645261 -0.40218145 0.031876523 -0.046219975 0.17604217 -0.98329693 9.4028997e-05
0.13100502 -0.40743768 0.030778108 -0.052597988 0.19694497 -0.97900259 0.00030501181
0.14364639 -0.40299594 0.030956976 -0.055689566 0.1868317 -0.98081225 0.00021111725
0.15639499 -0.40319654 0.03034357 -0.094261512 0.18795569 -0.97764385 0.00069018715
0.16192561 -0.40180165 0.030059127 -0.11389449 0.18873595 -0.97540087 0.00061941921
-0.042471576 -0.39138839 0.031861216 0.23468208 0.2648907 -0.93528455 0.011163468
-0.031934321 -0.39899862 0.031836115 0.15152755 0.24043731 -0.95876449 0.0020206147
-0.02901016 -0.39308074 0.033417009 0.11714697 0.22054756 -0.96831578 0.0012572492
-0.013494708 -0.39603356 0.033806577 0.068133779 0.19821911 -0.97778678 0.00022564325
-0.0081006354 -0.39267287 0.034724388 0.055143185 0.19058201 -0.98012131 3.9855688e-05
0.0052174693 -0.39641386 0.034685239 0.046952128 0.18993245 -0.98067379 1.4506239e-05
0.013810623 -0.39584422 0.035132084 0.04467966 0.18856472 -0.98104382 6.6833741e-06
0.024717119 -0.39424193 0.035904065 0.039593868 0.18627964 -0.98169869 6.9506141e-06
0.035095658 -0.39677808 0.035886195 0.022201786 0.18294163 -0.98287302 0.00014266034
0.042934865 -0.39626494 0.036343943 0.013198023 0.18053369 -0.98348022 0.00016819456
0.057826258 -0.39660639 0.035941005 -0.028051052 0.17695168 -0.98381978 0.00017434868
0.064623103 -0.39387333 0.036095653 -0.037734415 0.16954184 -0.98480034 6.6406908e-05
0.074939534 -0.39167672 0.035999354 -0.044658493 0.16664322 -0.98500544 0
0.08384674 -0.39393565 0.035211395 -0.044759292 0.16703503 -0.98493451 4.9342857e-06
0.090585768 -0.39597118 0.034559872 -0.044756386 0.16705562 -0.98493111 2.9988962e-07
0.10464917 -0.39519608 0.034052189 -0.044766508 0.1670043 -0.98493934 5.1381253e-06
0.115486 -0.3958298 0.03345222 -0.04577342 0.1694712 -0.98447156 1.7656244e-05
0.12748596 -0.39140734 0.033656973 -0.044758484 0.16706699 -0.98492908 0
0.13412546 -0.39493752 0.032756466 -0.049293369 0.16908377 -0.98436826 3.5143366e-05
0.14660573 -0.39161971 0.032752033 -0.069544926 0.16397993 -0.98400921 0.0002020495
0.15710545 -0.39873332 0.031068297 -0.094769157 0.17551254 -0.97990519 0.00046960122
0.164257 -0.39744702 0.030384935 -0.11980204 0.18254976 -0.97587043 0.00050493586
-0.054335132 -0.38374212 0.031342756 0.40251806 0.2897827 -0.86833471 0.016785569
-0.045490462 -0.3828187 0.033433519 0.2114718 0.24168867 -0.94703025 0.0031914697
-0.035036262 -0.38633919 0.034357511 0.15035596 0.22908247 -0.96172464 0.0030934901
-0.028213039 -0.38553745 0.035063505 0.10019772 0.20867476 -0.97283882 0.0010081767
-0.014969602 -0.38120049 0.036568291 0.058050662 0.18634319 -0.98076826 0.00012016896
-0.0054941792 -0.38420591 0.036476668 0.050254397 0.18496364 -0.98145962 2.1723097e-05
0.0041854726 -0.3847917 0.036826305 0.045905899 0.1819558 -0.98223454 1.3943454e-05
0.01285285 -0.3861483 0.036937859 0.044325136 0.18409105 -0.98190922 7.0886226e-06
0.024277367 -0.38295349 0.0380743 0.03579599 0.18045916 -0.98293084 4.7292739e-05
0.047745373 -0.38532448 0.038312703 -0.008567784 0.17983675 -0.98365915 0.00026360439
0.055561509 -0.38386703 0.038204677 -0.031255744 0.16742328 -0.98538953 0.00010253885
0.062992319 -0.38561028 0.037571281 -0.041015659 0.16603805 -0.98526597 2.3618659e-05
0.076781735 -0.3869651 0.03671477 -0.044673689 0.1656647 -0.98516977 4.6525133e-06
0.085064389 -0.38697904 0.036335967 -0.04461449 0.16627899 -0.98506892 0
0.094864666 -0.38442549 0.036323674 -0.04464652 0.16637146 -0.98505193 2.3937944e-06
0.10590589 -0.38212425 0.036212217 -0.044693675 0.16673681 -0.98498797 1.3713167e-06
0.11926411 -0.38463968 0.035178497 -0.044775706 0.16709951 -0.98492283 0
0.1259612 -0.38699916 0.034473944 -0.044761986 0.16704302 -0.98493302 1.982814e-06
0.14244935 -0.384215 0.034196854 -0.059600458 0.16280487 -0.98485649 0.00012159729
0.16832316 -0.3827588 0.031963233 -0.12044414 0.14648946 -0.98185229 9.7961383e-05
0.17425579 -0.382671 0.03121572 -0.13264978 0.15355106 -0.97919667 0.00017255395
-0.064682893 -0.37266779 0.031692922 0.49495813 0.33652014 -0.80110592 0.017982356
-0.05556668 -0.37330908 0.033768967 0.35872716 0.30941203 -0.88066965 0.018702623
-0.044325989 -0.37341678 0.036005352 0.17716204 0.21575692 -0.9602409 0.003610386
-0.039400369 -0.37495643 0.03649763 0.13644639 0.21336021 -0.96739846 0.0022214989
-0.024781704 -0.37505451 0.037218526 0.062525868 0.18628728 -0.98050368 0.00016821107
-0.016144022 -0.37283817 0.038069516 0.052708741 0.17701644 -0.98279554 2.8178716e-05
-0.006557012 -0.37610897 0.037971064 0.04879133 0.17908499 -0.98262304 1.2514181e-05
0.0039429595 -0.37607598 0.038472671 0.046318538 0.17918752 -0.98272401 1.4664043e-05
0.018382758 -0.37431708 0.03946881 0.040050279 0.17660558 -0.98346651 3.2404423e-05
0.025059955 -0.37862775 0.038949393 0.032625493 0.17912371 -0.98328543 7.8876627e-05
0.032531805 -0.37789702 0.039432585 0.024483064 0.17715456 -0.98387843 0.00012643634
0.045391023 -0.37840623 0.039593127 -0.0029696929 0.17053221 -0.98534763 0.0002292109
0.053624541 -0.3761197 0.039606739 -0.026634118 0.16324735 -0.98622561 0.00015545543
0.069322012 -0.37148583 0.039679259 -0.042151611 0.1581572 -0.98651379 2.7211081e-05
0.077262335 -0.37433457 0.038835201 -0.042685926 0.16271868 -0.98574871 1.7674311e-05
0.08459571 -0.37415382 0.03853257 -0.044009499 0.16348305 -0.98556399 1.4046215e-05
0.099446014 -0.3761932 0.037511759 -0.044408333 0.16616213 -0.985098 2.848778e-06
0.11253428 -0.37368029 0.03734317 -0.044563584 0.1666963 -0.98500067 0
0.12692274 -0.37533414 0.036408775 -0.0479507 0.16569802 -0.98501015 1.8045543e-05
0.13440755 -0.37580916 0.035988048 -0.053933784 0.16614573 -0.98462516 7.2578674e-05
0.1439514 -0.37535194 0.035631865 -0.074385114 0.16062678 -0.98420829 0.00021611038
0.15565141 -0.37462905 0.034860339 -0.096684396 0.15034176 -0.983895 0.00024971692
0.16285494 -0.37403759 0.033963215 -0.11228745 0.14656045 -0.98280805 0.00016077637
0.17347637 -0.37647524 0.032203212 -0.12715834 0.14384951 -0.98139596 3.6189591e-05
0.18209754 -0.37250844 0.031666961 -0.13524061 0.14560771 -0.98005533 6.3624524e-05
0.19300663 -0.37213683 0.03031178 -0.1561915 0.15284407 -0.97582936 0.00031021121
-0.07045988 -0.36285076 0.031010168 0.53694111 0.3591733 -0.76334053 0.019742882
-0.065108724 -0.36192679 0.034442659 0.41218475 0.29761147 -0.86112207 0.018085733
-0.059669796 -0.36815298 0.03419175 0.4089039 0.28052965 -0.86838973 0.018207969
-0.042371608 -0.36486834 0.038015213 0.12421472 0.18700169 -0.97447473 0.0013677247
-0.036788341 -0.36362293 0.038570363 0.097012378 0.18364865 -0.9781931 0.00058515201
-0.027009964 -0.36821926 0.038295846 0.069326796 0.18191153 -0.98086804 0.00030562459
-0.013718684 -0.36465663 0.039598748 0.049361262 0.17244937 -0.9837808 1.3599314e-05
-0.0096569378 -0.36557478 0.039654043 0.049167179 0.1728297 -0.9837237 1.1660697e-05
0.084947199 -0.36667237 0.039785534 -0.041863106 0.15805537 -0.9865424 2.7224494e-05
0.090360023 -0.36678249 0.039520849 -0.043772701 0.16047573 -0.98606873 2.3793466e-05
0.10498995 -0.36400738 0.03932666 -0.042967699 0.15761696 -0.98656505 2.3549346e-05
0.11478066 -0.36836231 0.038143076 -0.044420138 0.16440387 -0.98539245 6.9339494e-06
0.12600079 -0.3661868 0.038002163 -0.046811469 0.16504686 -0.98517424 1.0103505e-05
0.13401221 -0.3652336 0.037799753 -0.058122855 0.16081154 -0.98527223 0.00012493056
0.14762995 -0.36487389 0.037241891 -0.09095744 0.1557284 -0.9836033 0.00024122607
0.15329261 -0.36516926 0.0365569 -0.095701993 0.15398146 -0.98342812 0.00023752915
0.16569284 -0.36289775 0.035192996 -0.12699182 0.14414141 -0.98137468 2.5598989e-05
0.17664678 -0.36547196 0.033373386 -0.13083982 0.14103983 -0.98131984 8.5846104e-06
0.18495619 -0.36520377 0.032347213 -0.13312665 0.14078692 -0.98104858 1.4277158e-05
0.19393027 -0.36612001 0.031028435 -0.1456742 0.14467332 -0.97869736 0.00013783571
-0.072956927 -0.35288814 0.033999018 0.53331721 0.31760269 -0.78402883 0.017431442
-0.0631091 -0.35324496 0.036624487 0.31038865 0.23484989 -0.921143 0.0082879178
-0.052224506 -0.35812724 0.037713062 0.2033046 0.20452796 -0.9575153 0.0062481211
-0.047524523 -0.35704604 0.03883405 0.15917137 0.18944764 -0.96890354 0.0030068734
0.12189734 -0.35786378 0.039600324 -0.044213094 0.15787557 -0.98646873 3.0174642e-05
0.13442603 -0.3579157 0.039022155 -0.06238265 0.15473638 -0.98598433 0.00014689979
0.14604799 -0.35156903 0.03946884 -0.090094589 0.14856304 -0.98479033 0.00026124509
0.15577607 -0.35387614 0.037857346 -0.10932032 0.14392708 -0.98353142 0.00019651132
0.16242072 -0.35599077 0.03664276 -0.11772393 0.14588474 -0.98227221 0.00013007468
0.17543952 -0.35500512 0.035030685 -0.1307915 0.14145131 -0.98126709 3.5822079e-06
0.1867708 -0.35419026 0.033676744 -0.13654797 0.13953964 -0.98075652 2.3092649e-05
0.19148409 -0.35722232 0.032619543 -0.1391658 0.14015503 -0.98030066 5.2076051e-05
0.20466763 -0.35754216 0.030662294 -0.16059664 0.14885537 -0.9757309 0.0002032553
-0.081411272 -0.34242928 0.030672295 0.75704199 0.17441498 -0.62965614 0.1466022
-0.076071426 -0.34618649 0.033231832 0.61052173 0.24912672 -0.75179726 0.084556654
-0.064571515 -0.34527642 0.038007967 0.30127752 0.22735614 -0.92603511 0.0084930602
-0.055011626 -0.34510398 0.039891422 0.20600656 0.2028251 -0.95730001 0.0053845234
0.14950433 -0.34717017 0.039687634 -0.096049018 0.14182968 -0.98522025 0.0002595172
0.15572135 -0.3444694 0.0392306 -0.11180698 0.13632059 -0.98433524 0.00015398441
0.16579758 -0.34742451 0.037425268 -0.12742589 0.13808605 -0.98218888 2.6782918e-05
0.17407091 -0.34653872 0.036423851 -0.13087274 0.13808115 -0.98173618 5.4731877e-06
0.18261392 -0.34750158 0.035183392 -0.13353218 0.13873906 -0.98128521 9.3709405e-06
0.20589812 -0.34538192 0.032248098 -0.16151065 0.13799217 -0.97717577 0.00015741936
0.21766257 -0.34105742 0.030743051 -0.23678169 0.13846129 -0.9616459 0.0010558246
-0.08408989 -0.33520639 0.032090295 0.75080884 0.20383878 -0.62828004 0.19640006
-0.076178178 -0.33631331 0.037646718 0.44504267 0.25618842 -0.85808188 0.059173167
0.15839124 -0.33838272 0.03974966 -0.12018945 0.13240021 -0.98388243 5.0731665e-05
0.16628832 -0.33632898 0.038969204 -0.12601084 0.13376658 -0.98296881 3.391517e-05
0.17573829 -0.33590177 0.037741661 -0.13094698 0.13490315 -0.98216808 1.6860351e-05
0.18409613 -0.33466613 0.036813274 -0.13273968 0.13384145 -0.98207259 1.5412194e-05
0.19833685 -0.33433327 0.034869216 -0.15213825 0.13468237 -0.97913975 0.00016132885
0.20424278 -0.33688733 0.03368571 -0.1591419 0.13444605 -0.97805834 0.00016746714
0.21359919 -0.33622432 0.032233346 -0.19840206 0.13203552 -0.97118646 0.00061811932
0.22096387 -0.3319627 0.031498343 -0.28427491 0.12478307 -0.95058775 0.0042023216
-0.085996725 -0.32562369 0.035700034 0.67138398 0.33158943 -0.66279101 0.14272524
0.17381242 -0.32366687 0.039669029 -0.12773311 0.12789574 -0.98352778 1.3591634e-05
0.18455251 -0.32315931 0.038353886 -0.12967762 0.12865444 -0.98317438 1.4586975e-05
0.19606218 -0.32257748 0.036834627 -0.14702527 0.13064282 -0.98046726 0.00013879985
0.20613734 -0.32747287 0.034740187 -0.17677666 0.1258423 -0.97617298 0.00049706281
0.21644866 -0.32430845 0.033499166 -0.23318948 0.12024242 -0.96496862 0.0014840572
0.22482434 -0.32255131 0.03150655 -0.3247388 0.1101454 -0.93936825 0.0089734299
-0.094567575 -0.31519207 0.032681428 0.66459554 0.52131724 -0.53529525 0.14890286
-0.089226231 -0.31384644 0.039639343 0.45383802 0.29160404 -0.84202027 0.021417024
0.18514124 -0.31536534 0.039241932 -0.12952317 0.12620981 -0.98351151 1.1772657e-05
0.19470376 -0.31465757 0.038078744 -0.14192317 0.12677488 -0.98172605 9.6313335e-05
0.2058671 -0.31470445 0.036547724 -0.17897896 0.12256486 -0.97618872 0.00049728568
0.22298788 -0.31394261 0.03309229 -0.32280579 0.092548847 -0.94192946 0.010091115
0.23135611 -0.31562424 0.030298816 -0.44701955 0.085035063 -0.89047319 0.01505817
-0.098234229 -0.30178499 0.036303364 0.67460865 0.33254972 -0.65902495 0.01932947
0.1877819 -0.30808881 0.039783504 -0.13035403 0.12352311 -0.98374283 1.2607978e-05
0.19427732 -0.30752876 0.039003048 -0.13699867 0.12395549 -0.98278505 2.668352e-05
0.20544168 -0.30468741 0.037890524 -0.17856902 0.12243417 -0.97628015 0.00047673972
0.21506898 -0.30485776 0.036336597 -0.23611644 0.10170767 -0.96638739 0.0024485122
0.22591954 -0.30330902 0.0334385 -0.4255347 0.05634895 -0.90318602 0.014333959
0.23190215 -0.30493504 0.031391364 -0.49428827 0.052741941 -0.86769658 0.018246586
-0.10484059 -0.29460424 0.034449462 0.77293038 0.32267863 -0.54631233 0.05153406
0.19915497 -0.29837132 0.039481513 -0.15986592 0.12055875 -0.9797492 0.00037788425
0.21682873 -0.29855621 0.036582962 -0.28312325 0.10106281 -0.95374393 0.0064088297
0.2262769 -0.29702288 0.034069769 -0.44738781 0.054809563 -0.89265901 0.01854394
0.23501092 -0.29329818 0.031536836 -0.55684364 0.024013454 -0.83027011 0.017876422
-0.11075215 -0.28593105 0.032405473 0.81525052 0.30716264 -0.49093547 0.024861787
0.20931095 -0.28304034 0.039926622 -0.21656217 0.10119598 -0.97100991 0.0012497844
0.21201602 -0.28577006 0.038965784 -0.23751722 0.10300151 -0.96590698 0.0024060861
0.22424102 -0.28540939 0.035681337 -0.41749063 0.071635559 -0.90585315 0.018242339
0.2345797 -0.28248709 0.031346329 -0.65356499 0.0054744007 -0.75685072 0.022414828
-0.11427013 -0.27459913 0.034636259 0.75795162 0.43455806 -0.48648584 0.041681428
0.21558626 -0.27660349 0.038775835 -0.2981818 0.082715265 -0.95091844 0.0049947859
0.22521944 -0.27657697 0.036159366 -0.4762831 0.0083921356 -0.87925196 0.01953892
0.23243394 -0.27365577 0.03401133 -0.54037249 0.01035185 -0.84136224 0.022121599
-0.11725859 -0.26526105 0.036337949 0.53589314 0.60303146 -0.59090734 0.11278204
0.21657266 -0.26384038 0.0395898 -0.34379148 0.092893928 -0.93444002 0.011008259
0.22507432 -0.26360378 0.037416339 -0.47116554 0.074799739 -0.87886745 0.017046001
0.23132709 -0.26412815 0.034496106 -0.62637669 0.0015098362 -0.77951902 0.080953903
-0.16377674 -0.25166526 0.038287707 0.1513879 0.98531091 0.079019435 0.10223364
-0.1551706 -0.25333005 0.03766958 0.041516401 0.99900943 0.016017677 0.090826057
-0.14459169 -0.25180739 0.036618203 -0.10501474 0.9850831 0.13631983 0.11962912
-0.13609302 -0.25480264 0.037564289 0.28888723 0.50917339 0.81073219 0.20690139
-0.12510884 -0.25385189 0.035070308 0.68417585 0.72931689 -0.00062454154 0.22482881
0.22470701 -0.2559644 0.038174652 -0.49734649 0.0076200948 -0.8675186 0.065253943
-0.16191202 -0.24529813 0.038723961 0.091576673 0.99312162 0.072960608 0.10189394
-0.15230414 -0.24643852 0.036154233 -0.088563941 0.99005133 0.10933828 0.092109866
-0.1449804 -0.2460731 0.036658723 -0.042908702 0.88030106 0.47247115 0.13540643
-0.13753377 -0.24496177 0.03681739 -0.055450257 0.87417591 0.48243314 0.18086745
-0.12353375 -0.2479039 0.035633329 0.82783943 0.53827697 -0.15792298 0.27565518
0.22738011 -0.2420779 0.038095102 -0.76490289 0.09013956 -0.63780749 0.12891111
-0.12733307 -0.23376954 0.035627786 0.94604558 -0.12233947 -0.30005124 0.16797613
0.22897218 -0.23569895 0.036445372 -0.78297204 0.10313416 -0.61344773 0.14336133
0.23145956 -0.23483805 0.032811005 -0.83232379 0.10213143 -0.54479927 0.16272648
-0.13000439 -0.22465827 0.031173436 0.98418319 0.13108368 -0.11916573 0.058966789
-0.12995622 -0.22610427 0.036361784 0.96016937 -0.0068924697 -0.27933365 0.11535478
-0.13341282 -0.21262389 0.032974783 0.95495278 0.28020567 -0.097724274 0.0075832917
0.22741002 -0.2133743 0.037483484 -0.68731654 0.010109379 -0.72628778 0.021382269
0.23105267 -0.21559215 0.033468932 -0.81190902 -0.0043908516 -0.58376741 0.069414198
-0.13531606 -0.20465387 0.034309607 0.95339012 0.27327624 -0.12793481 0.0092781661
0.22883776 -0.2025049 0.036009669 -0.74439073 -0.078393385 -0.66312659 0.037006874
0.23172617 -0.20799375 0.033006143 -0.84770542 -0.11181226 -0.5185495 0.061156638
-0.13827448 -0.19496284 0.034054622 0.95363295 0.26996598 -0.13305098 0.0092396336
0.22754738 -0.19358486 0.037524562 -0.79512477 -0.092162527 -0.59940183 0.04456215
0.23041964 -0.19805697 0.034273073 -0.82635367 -0.12117565 -0.54996008 0.040146858
-0.14039308 -0.18604553 0.035436414 0.95470762 0.25618967 -0.15132804 0.0087890085
-0.13955344 -0.18928677 0.035484418 0.95453215 0.26392299 -0.13861105 0.0087415846
0.22714366 -0.18847772 0.037956249 -0.81840503 6.3574065e-05 -0.5746417 0.054091483
0.2312905 -0.1893084 0.031233186 -0.90692276 -0.19736636 -0.37220636 0.023088062
-0.14422309 -0.17274319 0.033542529 0.96334606 0.23638667 -0.12682889 0.0086867949
0.22739366 -0.17648771 0.035354257 -0.92440194 0.12919505 -0.35887295 0.093383893
-0.1458618 -0.16711672 0.034809951 0.96088296 0.24346361 -0.13202056 0.0086092995
0.22610907 -0.16439347 0.036456294 -0.97707373 0.038208678 -0.20944454 0.1643914
-0.14933382 -0.15370665 0.03290917 0.95090699 0.29143089 -0.10413415 0.0096123992
0.21905674 -0.15190335 0.038681641 -0.93347096 -0.31859228 -0.16471504 0.24633552
0.22300696 -0.15449785 0.037028644 -0.99042481 0.05520729 0.12653475 0.24685557
0.23321882 -0.15744957 0.037869692 -0.59376353 0.80144513 0.071627624 0.20276365
-0.1529389 -0.14136356 0.035685509 0.95260072 0.27823055 -0.12304338 0.0098476401
0.21954148 -0.14408934 0.038432702 -0.79755461 -0.59385431 -0.10603619 0.2021897
0.2231245 -0.14762887 0.035639651 -0.93278015 -0.34064233 0.11783019 0.21204461
0.23970659 -0.14226276 0.035593357 -0.36311463 0.87408179 0.32269001 0.13267577
0.24346209 -0.14567283 0.036944345 -0.39874929 0.89041603 0.2194501 0.10508794
0.25565833 -0.14526841 0.039122876 -0.59778136 0.80131608 -0.023450926 0.085594058
-0.15414532 -0.13673796 0.035127271 0.94867933 0.29261774 -0.11992653 0.0096383654
0.21818309 -0.13515484 0.035241183 -0.85990202 -0.44110042 -0.2569024 0.1179328
0.24554831 -0.13861421 0.039151091 -0.33116558 0.90667737 0.26127678 0.10479148
0.25437388 -0.13385834 0.03748202 -0.63635886 0.77139276 -0.00079761818 0.10170528
-0.15738347 -0.12492331 0.035434227 0.94525003 0.27277434 -0.17915529 0.011328641
0.21619515 -0.12699573 0.035643727 -0.94079614 -0.29951221 -0.15872964 0.036788221
-0.16075379 -0.11173949 0.033100817 0.95078188 0.28800651 -0.11430674 0.014348152
-0.15929438 -0.11781274 0.035199307 0.94934422 0.25897336 -0.17798395 0.013325237
0.21270914 -0.11483476 0.038103025 -0.93941718 -0.25004977 -0.2344579 0.0093677528
-0.16292146 -0.10463182 0.035739612 0.95314908 0.24721943 -0.17432562 0.014544631
0.20940986 -0.10158575 0.03378246 -0.95826292 -0.24431984 -0.1484586 0.010929081
0.21088521 -0.10746896 0.032776151 -0.95570928 -0.26251119 -0.13306998 0.011068507
-0.16530301 -0.095908277 0.035863776 0.96060693 0.25566024 -0.1089593 0.011318223
0.20745486 -0.095410138 0.030308016 -0.95907104 -0.27038658 -0.084105395 0.010391968
-0.16877501 -0.083131045 0.035867423 0.95825893 0.2456345 -0.14629941 0.011628825
0.20541337 -0.085604578 0.039276537 -0.93985313 -0.24563609 -0.23735848 0.010329537
-0.17102626 -0.07449913 0.034833569 0.95063233 0.26610854 -0.15963846 0.016072426
0.20261842 -0.075724475 0.034747805 -0.96020639 -0.2555446 -0.11269737 0.010373987
-0.17314117 -0.065874897 0.032324303 0.96186244 0.26283464 -0.075753331 0.010889217
0.1984477 -0.060363788 0.033505417 -0.96328712 -0.25251648 -0.091177762 0.010031888
-0.17665286 -0.053778596 0.0348203 0.96283829 0.24351673 -0.11679927 0.010585142
0.19693525 -0.053131226 0.037917048 -0.94897324 -0.22027497 -0.22567385 0.013423999
-0.17992407 -0.040718663 0.033971462 0.96307451 0.24884303 -0.1027841 0.01251802
0.19352014 -0.041293602 0.034727782 -0.95304853 -0.24653922 -0.17583236 0.012449981
-0.18197781 -0.033913895 0.03791438 0.9576332 0.23856859 -0.16131856 0.015682425
0.19183385 -0.035164427 0.033984311 -0.9604404 -0.25105685 -0.12051839 0.01379951
0.18862599 -0.023763383 0.031813186 -0.96806872 -0.23925309 -0.074838541 0.012091797
0.19068912 -0.02957282 0.03766707 -0.94985241 -0.25088266 -0.1866504 0.016120203
-0.18593042 -0.016806478 0.033509653 0.96510655 0.24967021 -0.078957006 0.012257375
0.18650684 -0.014523411 0.035413384 -0.95935607 -0.25708821 -0.11636802 0.01386968
-0.19020361 -0.0012708839 0.037596568 0.95374286 0.25349116 -0.16160689 0.011662731
-0.18871552 -0.0062758364 0.034961917 0.96502352 0.21825762 -0.14523506 0.010042164
0.18445744 -0.0064310338 0.036392443 -0.95973015 -0.25940034 -0.10784096 0.011502503
-0.19154286 0.0049748323 0.034760721 0.95600575 0.27040949 -0.1137175 0.0096776932
0.18189262 0.0027343631 0.034814697 -0.96146256 -0.25690824 -0.09791825 0.0074183238
-0.19345126 0.012814255 0.033816211 0.96912307 0.23933755 -0.059312575 0.0069291163
0.17836362 0.015462376 0.032984316 -0.96174145 -0.26097915 -0.083326444 0.010721062
-0.19727445 0.027467718 0.034021061 0.96483004 0.24793471 -0.087358028 0.0088644885
0.17606084 0.025222985 0.036021639 -0.96643138 -0.22292368 -0.12773176 0.011863847
-0.19835058 0.032094266 0.032767721 0.96553504 0.24994518 -0.072591677 0.0080137243
0.17424439 0.031159431 0.033291213 -0.96852648 -0.23771031 -0.07382524 0.0090350145
-0.20145662 0.042569689 0.038768604 0.94756943 0.28815264 -0.13813128 0.012048253
0.16973461 0.047611348 0.032580316 -0.96246511 -0.26633865 -0.052197374 0.0069929687
0.17119177 0.041565057 0.030002309 -0.96943098 -0.2451175 -0.010997949 0.0043502892
-0.20435737 0.056075703 0.031930458 0.96712095 0.25355119 -0.019719653 0.0056800456
0.16840893 0.053075559 0.03518324 -0.94905984 -0.29475486 -0.11137716 0.012162979
-0.20717075 0.065980203 0.035975337 0.9672755 0.24583077 -0.062811829 0.0086990781
0.16611363 0.061723895 0.036989272 -0.94886965 -0.27299505 -0.15849324 0.01503235
-0.21015881 0.079063132 0.030978601 0.97085762 0.2394805 -0.0091952374 0.0057194959
-0.20973806 0.076764211 0.033734586 0.96423113 0.25532007 -0.071204126 0.0094645908
0.16158924 0.076401673 0.032673523 -0.95732611 -0.28744942 -0.029991757 0.0076637343
-0.21127772 0.082907371 0.032793235 0.97282749 0.23010185 -0.025686439 0.0069315233
0.15873529 0.087181047 0.035006568 -0.96566164 -0.24942249 -0.072705083 0.010488319
-0.21470577 0.096455574 0.036493093 0.9732253 0.21059433 -0.09210097 0.0092807012
0.15609315 0.096304797 0.034322232 -0.96433383 -0.25212905 -0.080568209 0.010398404
-0.2166833 0.10562833 0.034269098 0.97838831 0.20115201 -0.047897581 0.0062505589
0.15350717 0.10551839 0.034595937 -0.96141565 -0.25925565 -0.092013292 0.010642615
-0.21834986 0.11424927 0.031702518 0.9784897 0.20408519 -0.030118899 0.0070614307
0.14972332 0.11849428 0.031820312 -0.96071792 -0.27303147 -0.049748808 0.0098187253
0.15091035 0.11568987 0.036980052 -0.95424819 -0.27663201 -0.11351224 0.011027748
-0.22040151 0.12388658 0.035736669 0.97610617 0.20368047 -0.075703286 0.009860103
0.14904235 0.12191272 0.035569355 -0.95811164 -0.27043962 -0.094257474 0.0090097757
-0.22299963 0.13346985 0.039065287 0.96568328 0.242826 -0.092147969 0.012783579
0.14579237 0.13324678 0.034996703 -0.96194082 -0.26457527 -0.068336055 0.0082562529
-0.22494429 0.1450159 0.03283269 0.97040379 0.24042469 0.022639491 0.0041475035
0.14216918 0.14587121 0.034317158 -0.96067369 -0.26948011 -0.066981792 0.0097342022
-0.22754085 0.15622817 0.035588365 0.97612518 0.21643957 -0.01826359 0.004711064
0.13910836 0.15730678 0.03659974 -0.96402067 -0.25414613 -0.077935167 0.0096843308
0.14108869 0.15033893 0.036720317 -0.96353513 -0.25741383 -0.073062614 0.0093430327
-0.22933829 0.1651735 0.035050068 0.97171164 0.22900766 -0.057722978 0.0076633934
0.13726032 0.16380812 0.03648337 -0.95826846 -0.27699777 -0.070666566 0.0071039437
-0.23130509 0.17665558 0.031534284 0.95275229 0.28187129 -0.11318815 0.040815681
0.13373764 0.17570801 0.033607047 -0.95665795 -0.28933245 -0.033049442 0.0068599731
-0.23421274 0.18695974 0.037169661 0.9428162 0.25379002 -0.21607463 0.021009212
0.13121201 0.1848183 0.036909737 -0.95436233 -0.27617428 -0.11366748 0.012079061
-0.23608115 0.19431214 0.038037732 0.93835741 0.27162698 -0.21378528 0.014184444
0.12802076 0.1944277 0.033105135 -0.95058411 -0.31031597 -0.0096813859 0.005057137
-0.23843551 0.20631298 0.03051265 0.96719933 0.21250394 -0.1391675 0.098344944
-0.240962 0.21564972 0.035112195 0.96078575 0.22735918 -0.15874092 0.035193224
-0.23977031 0.21000087 0.039319869 0.94746923 0.21140996 -0.24001658 0.014854259
0.11968743 0.21901691 0.032415271 -0.95057881 -0.31033936 0.0094518084 0.0059680254
-0.24256457 0.22152805 0.036907971 0.95203596 0.18396762 -0.24450651 0.017598359
0.1187705 0.22258849 0.033882655 -0.95540571 -0.29473433 -0.018207517 0.0087941792
-0.24612924 0.23506388 0.03496556 0.9702161 0.16602129 -0.17640205 0.0078366743
0.1148321 0.23610261 0.035491686 -0.95944685 -0.28106508 -0.021545116 0.0085346242
-0.24774556 0.24308091 0.031017011 0.98087108 0.12193172 -0.15173861 0.010468079
0.11340061 0.24192636 0.039190684 -0.96286035 -0.26124942 -0.068181857 0.012346377
-0.24868137 0.25361297 0.036740683 0.98168033 0.10391677 -0.15970317 0.0038104921
0.10699475 0.25812891 0.031558309 -0.9619019 -0.25352341 -0.10232556 0.01776191
-0.25054061 0.26542497 0.031391986 0.98404354 0.10245926 -0.14546648 0.002802168
-0.24973042 0.26241493 0.037596215 0.98411119 0.1248709 -0.1262238 0.00071131083
0.10470884 0.2665953 0.035139281 -0.95962226 -0.24918979 -0.13049725 0.016950652
-0.25135189 0.27419952 0.035619922 0.98516542 0.12413054 -0.11849394 0.00045841688
0.10069425 0.27858257 0.033684429 -0.94823939 -0.23562121 -0.21289606 0.028850559
-0.25269726 0.2824057 0.032151498 0.98586315 0.12920925 -0.10667133 0.00019138177
0.099171907 0.28389999 0.033250026 -0.95153034 -0.22250248 -0.21232669 0.03476702
-0.25475436 0.29420662 0.030237151 0.98826563 0.12280995 -0.090821847 5.1465355e-05
0.096139833 0.29468259 0.034502979 -0.94719052 -0.29006991 -0.13671014 0.057896517
-0.25559092 0.30522352 0.036096133 0.98771238 0.11470192 -0.10614937 0.00043169907
0.093522578 0.30402106 0.037513644 -0.93538314 -0.26969174 -0.22874612 0.015928145
-0.25694472 0.31601241 0.035159133 0.98792976 0.10397965 -0.11481719 0.0014653542
0.089541756 0.31839296 0.034558672 -0.91935676 -0.32972959 -0.21461941 0.024741277
0.090723351 0.31408131 0.03563131 -0.9277752 -0.3172901 -0.19636713 0.029019376
-0.25850955 0.32898059 0.030823288 0.99022865 0.10246843 -0.094591133 0.00047466479
0.087190926 0.32671618 0.032687079 -0.90452164 -0.37585139 -0.20143561 0.024536751
-0.25898618 0.33676249 0.036396135 0.98607093 0.067409672 -0.15205285 0.0068923342
0.083403662 0.33592001 0.035758629 -0.91206032 -0.36884347 -0.17916608 0.0054095509
-0.26008397 0.34811473 0.035866935 0.97543186 -0.12126093 -0.18392533 0.046855085
-0.25981429 0.34369507 0.034000397 0.993626 0.0043979529 -0.11264126 0.017957883
0.079989247 0.34380096 0.037068918 -0.90810132 -0.38387564 -0.16730648 0.0034664653
0.080526412 0.34364843 0.030745015 -0.89828789 -0.40059134 -0.18056937 0.00459769
-0.26062125 0.35621181 0.03399035 0.95516753 -0.19853267 -0.21963573 0.069103278
0.076505803 0.35320795 0.030716412 -0.90478456 -0.39982992 -0.14663196 0.0025461907
-0.26058307 0.36353171 0.037656225 0.91799396 -0.31006899 -0.24727377 0.11152166
-0.25723112 0.36767998 0.033575881 0.90931952 -0.30404565 -0.28406718 0.12364745
-0.23905213 0.36900055 0.037373319 0.46885303 -0.87405872 -0.12727225 0.18640704
0.071488552 0.36443791 0.034679934 -0.91906303 -0.3810761 -0.10051949 0.00012196654
-0.25661302 0.37407017 0.03573247 0.85280621 -0.43455812 -0.2896218 0.16240777
-0.24507678 0.37435862 0.036647353 0.57228303 -0.77886146 -0.25664574 0.20538378
-0.23409863 0.37646699 0.033555526 0.17278583 -0.9176001 -0.35798746 0.1873381
-0.22740912 0.37177539 0.033138059 0.38809356 -0.89501381 -0.21984936 0.11577309
-0.21741034 0.3750425 0.035714779 0.52317095 -0.82893437 -0.19788907 0.15219456
-0.20835878 0.37954539 0.033604588 0.83067954 -0.55443531 0.050723664 0.17776947
0.068304755 0.37303081 0.031822264 -0.91840237 -0.38421735 -0.094414778 9.0319409e-05
-0.22579709 0.38137043 0.032647371 0.44419509 -0.78200781 -0.43721226 0.21262731
-0.21226804 0.38604283 0.036322702 0.9196474 -0.26235989 0.29226008 0.18076816
0.064567834 0.38100204 0.035960108 -0.91578668 -0.38648564 -0.10937846 0.00059553492
-0.25286278 0.39459971 0.03493439 0.92354566 -0.30643976 -0.23056026 0.091953442
-0.2128147 0.39586839 0.034093451 0.97987956 0.055560689 0.19170044 0.17455451
0.057365727 0.3991577 0.032159727 -0.91304612 -0.39835033 -0.087542757 0.00023365705
-0.24618325 0.40752572 0.039294362 0.74157584 -0.66238248 -0.10637057 0.10097919
-0.21449575 0.40415069 0.03089327 0.98486179 0.17332403 -0.002475118 0.15268841
0.054517467 0.40529335 0.033652913 -0.91059148 -0.40221271 -0.095121719 0.00063097849
-0.23627946 0.41654396 0.036573872 0.65955406 -0.74630255 -0.089560322 0.11803649
-0.21828435 0.41603512 0.034485914 0.80319303 -0.59442747 -0.039204344 0.18192813
0.049070947 0.41721952 0.035099212 -0.90650648 -0.41066331 -0.097987652 0.00088834204
0.050569467 0.41358173 0.037297647 -0.90715176 -0.40160146 -0.12566561 0.0034232428
-0.22701487 0.4246116 0.035394575 0.61263674 -0.78665894 -0.076445661 0.094475411
-0.0135802 0.42907071 0.036229525 -0.29737648 -0.83714151 0.4590874 0.17898768
0.046568893 0.42268717 0.035843864 -0.88224894 -0.46101928 -0.095383361 0.012225864
-0.21255957 0.43133092 0.035913847 0.64342487 -0.76257658 -0.066943616 0.05375037
-0.20492622 0.43320358 0.034542404 0.59580421 -0.80078626 -0.061308555 0.022461422
-0.1973342 0.43782395 0.035792727 0.52272034 -0.85165757 -0.037983883 0.0068834908
-0.017966365 0.43316835 0.03206658 -0.63322365 -0.67422861 0.38005733 0.20227984
-0.005178486 0.43302751 0.033962641 -0.024247279 -0.9133839 0.40637657 0.17882125
0.005753634 0.43556073 0.038597811 0.19215979 -0.9712193 0.1407399 0.11855125
0.01382498 0.43800244 0.035213873 0.17979845 -0.98184693 -0.060408212 0.15425122
0.023798708 0.43908626 0.031699605 -0.36665761 -0.90688801 -0.20764491 0.15718867
0.038626887 0.43883979 0.034749135 -0.70905727 -0.67883956 -0.19082592 0.080349229
0.042295583 0.43246213 0.03174841 -0.75120997 -0.63490969 -0.18048051 0.066866398
-0.19299668 0.44094095 0.034763873 0.51732135 -0.85425049 -0.051330768 0.007439272
-0.18422511 0.44696987 0.033280596 0.46280354 -0.88548797 -0.04151972 0.0081288042
-0.17924592 0.44853044 0.038451705 0.39603311 -0.91655177 -0.055592623 0.0091939773
-0.020644704 0.4453764 0.0355918 -0.77139807 -0.33539084 0.5407939 0.12061118
-0.019799586 0.44272026 0.036385179 -0.77691138 -0.32790038 0.537485 0.13115296
-0.009950811 0.44238928 0.033454966 -0.48549256 -0.46845973 0.73813438 0.24685617
0.005291908 0.44348925 0.035307031 0.063567743 -0.74508482 0.66393358 0.22931084
0.013609092 0.44470906 0.035736807 0.033380393 -0.98174727 -0.18723801 0.24785902
0.023653455 0.44507632 0.036735862 -0.49813536 -0.85131603 -0.16468845 0.15683557
0.033286281 0.44546705 0.035081461 -0.51793236 -0.84064841 -0.15829207 0.12373286
-0.17336892 0.45169449 0.032210514 0.35551932 -0.9332388 -0.051684845 0.0088664005
-0.16393538 0.45365492 0.03443794 0.26791728 -0.96287656 -0.033001453 0.0055754534
-0.15461424 0.45546225 0.037148558 0.25736251 -0.96454227 -0.05850438 0.0069676121
-0.14552701 0.45943579 0.031106556 0.27283856 -0.96095502 -0.046092875 0.0051704464
-0.13877967 0.4593271 0.0386329 0.26254484 -0.96136159 -0.08278922 0.010115979
-0.023873523 0.45926511 0.038521465 -0.82443631 -0.48325059 0.29457361 0.17986336
0.026810873 0.45356596 0.039378308 -0.64227086 -0.74179125 -0.19296084 0.13223538
-0.13129276 0.46175814 0.036964174 0.25536954 -0.96490121 -0.061254773 0.00916903
-0.12890425 0.46338427 0.033091675 0.25353992 -0.96650976 -0.039703384 0.0061125681
-0.11507589 0.46627843 0.036277056 0.28083611 -0.95834911 -0.05194262 0.0076053315
-0.026144521 0.46508849 0.034295566 -0.64741933 -0.71602118 0.26107827 0.17289016
0.01360401 0.46628028 0.036957584 -0.66352069 -0.72254062 -0.19410144 0.10409664
-0.10245453 0.47017846 0.034242548 0.24623927 -0.9684909 -0.037304502 0.0060224594
-0.094248027 0.47200575 0.035701972 0.23048349 -0.97176689 -0.050462324 0.0075499858
-0.084294572 0.47586021 0.03103894 0.16795608 -0.98468179 -0.046825584 0.0087346621
-0.077945687 0.47595322 0.037332665 0.12049826 -0.99125451 -0.053803075 0.0084012737
-0.06648659 0.47620335 0.036189049 0.054979019 -0.99707657 -0.053062633 0.010039149
-0.056992449 0.47614783 0.034567423 -0.0011457329 -0.99960244 -0.028172147 0.0087840529
-0.033899318 0.47584328 0.034888681 -0.29366091 -0.95584691 -0.010953087 0.088084988
-0.02727077 0.47743204 0.03497285 -0.26165521 -0.96508664 0.01201189 0.087206081
-0.016095884 0.47776923 0.035051238 -0.21378092 -0.96748728 -0.13515198 0.12325963
-0.0074656568 0.47605601 0.036785614 -0.20041649 -0.97510487 -0.09488786 0.10721314
0.004969792 0.47278309 0.034312982 -0.46339139 -0.86872739 -0.17487445 0.11136037
-0.031707052 0.48038977 0.035617977 -0.27767906 -0.95935255 -0.050367646 0.083610825
0.017352412 -0.37039334 0.040106505 0.040319916 0.1750612 -0.98373157 3.3104927e-05
0.031446259 -0.37145072 0.040565677 0.018666003 0.16814932 -0.9855848 0.00017344345
0.045719191 -0.37027904 0.040884145 -0.0096330773 0.16193388 -0.98675454 0.00023281942
0.051367149 -0.37365341 0.040127646 -0.021756096 0.16385642 -0.9862442 0.00019627855
-0.0029016016 -0.36034748 0.040885221 0.047622066 0.16975042 -0.98433578 8.5016418e-06
0.0018240449 -0.36493671 0.040324692 0.04664246 0.17245121 -0.98391318 1.2597985e-05
0.014364831 -0.36353791 0.041128017 0.042451076 0.16959448 -0.98459923 1.8572508e-05
0.025484422 -0.3640238 0.041548155 0.027350999 0.16608886 -0.98573142 0.00011955528
0.037562203 -0.36193296 0.042363029 0.0036153875 0.1583232 -0.98738074 0.00023652172
0.043086313 -0.36384106 0.041902497 -0.0049472065 0.15837766 -0.98736632 0.00025393502
0.054185558 -0.36663523 0.041080181 -0.028621813 0.15321364 -0.98777848 0.00012041248
0.068163842 -0.36307016 0.041054443 -0.040732067 0.15152079 -0.98761439 3.0820669e-05
0.074351035 -0.36487889 0.040552437 -0.041809626 0.15445837 -0.98711425 3.4116147e-05
0.087022521 -0.36254716 0.040381983 -0.042389728 0.15653245 -0.9867627 3.0356949e-05
-0.032049134 -0.35407785 0.040448673 0.062733144 0.17004956 -0.9834367 9.8200071e-05
-0.025441714 -0.35398692 0.04080933 0.057664379 0.17099343 -0.98358327 6.1187442e-05
-0.015250136 -0.35548618 0.041083869 0.049773298 0.16859335 -0.98442823 4.1162457e-06
-0.0057583731 -0.35845202 0.041061688 0.048039511 0.16967866 -0.98432785 1.2550281e-05
0.0065072658 -0.3572295 0.041836921 0.044153485 0.16707376 -0.98495525 7.2786283e-06
0.016263448 -0.35794535 0.042157486 0.038336366 0.1666313 -0.98527378 5.1537729e-05
0.024668913 -0.35609812 0.042833995 0.031456821 0.16320859 -0.98608989 7.9513811e-05
0.03393409 -0.35583201 0.043230295 0.0036151041 0.15486792 -0.98792851 0.00025392053
0.043605961 -0.35502213 0.043139853 -0.012612948 0.14652522 -0.98912656 0.00018866287
0.056747757 -0.35667455 0.042402275 -0.035458345 0.14742371 -0.98843765 3.6041041e-05
0.063317381 -0.35322884 0.042642526 -0.037974667 0.14353573 -0.98891622 1.0657942e-05
0.073879652 -0.35764003 0.041610207 -0.038657855 0.14809366 -0.98821747 3.0683983e-05
0.083273128 -0.35824847 0.04116464 -0.040561479 0.15196759 -0.98755282 3.0967502e-05
0.095330499 -0.35805818 0.04073121 -0.043305837 0.15187383 -0.98745078 2.5931498e-05
0.10132192 -0.35634208 0.040746983 -0.041706294 0.15279958 -0.98737675 3.2189411e-05
0.12716678 -0.35101855 0.040518701 -0.051577397 0.15412165 -0.98670483 8.7735047e-05
-0.043799501 -0.34607053 0.041202966 0.10315033 0.17725722 -0.97874409 0.0005901425
-0.035295248 -0.34179392 0.042377271 0.074446835 0.17089127 -0.98247331 0.00034314932
-0.026882503 -0.34395766 0.042445645 0.060618274 0.16986842 -0.98360062 8.8172717e-05
-0.015055549 -0.34478596 0.042918503 0.048985194 0.16666611 -0.98479581 4.2335055e-06
-0.0077106943 -0.34754515 0.042827707 0.04684566 0.16632944 -0.98495686 4.0056839e-06
0.0052435291 -0.34594724 0.043683324 0.043353826 0.16450308 -0.98542333 0
0.01566132 -0.34858719 0.043698456 0.034182303 0.16186939 -0.98622 7.5160169e-05
0.025621533 -0.34507716 0.044676013 0.0181012 0.15590379 -0.98760635 0.00015081013
0.032939218 -0.34431058 0.045041792 0.0040395372 0.15212959 -0.9883523 0.00025383622
0.043876387 -0.34487098 0.044576634 -0.018387996 0.14606504 -0.98910409 0.00016515177
0.056148686 -0.3465336 0.043870822 -0.037086755 0.14233574 -0.9891234 7.2819103e-06
0.072672635 -0.34290972 0.043758817 -0.037784457 0.14242132 -0.98908472 1.1869929e-06
0.086429141 -0.34292191 0.043235257 -0.038680773 0.14265749 -0.989016 4.4689887e-06
0.093111157 -0.34689522 0.042410616 -0.039315324 0.14458658 -0.98871082 8.4662515e-06
0.10427555 -0.34413847 0.042373884 -0.039113123 0.14475697 -0.98869389 6.8059821e-06
0.12424783 -0.34595421 0.041352164 -0.044679169 0.14867447 -0.98787636 4.1155839e-05
0.13755769 -0.34412217 0.041104939 -0.079701342 0.14245816 -0.98658681 0.00025549589
-0.064248756 -0.33465892 0.040297024 0.25725481 0.22570641 -0.93961513 0.0089589758
-0.055528697 -0.33668566 0.04154475 0.16573383 0.20540421 -0.96454209 0.0029125656
-0.044214938 -0.333799 0.043277457 0.090880841 0.1762449 -0.98014206 0.00043189601
-0.035959583 -0.33497539 0.043505926 0.068739034 0.16970067 -0.98309547 0.00020654943
-0.025476301 -0.33851641 0.04344647 0.051494457 0.16680335 -0.98464459 1.0549013e-05
-0.01380201 -0.33481246 0.044684097 0.046666216 0.16261585 -0.98558527 5.5431856e-06
-0.0081779668 -0.33562231 0.044818208 0.046065327 0.16234961 -0.98565745 1.0314128e-05
0.0060437745 -0.33736309 0.045147564 0.042155944 0.16159658 -0.98595607 7.0454912e-06
0.017492674 -0.33596891 0.045838133 0.027070226 0.15626867 -0.98734361 0.00010960521
0.02518093 -0.33460677 0.046371248 0.011905619 0.15096334 -0.98846763 0.00017395189
0.036370393 -0.33707684 0.045974478 -0.012787948 0.14765465 -0.98895633 0.00016204883
0.049043857 -0.33380264 0.04595796 -0.032582834 0.14209506 -0.98931664 2.6527563e-05
0.056949966 -0.33772409 0.045097016 -0.036908314 0.1414817 -0.98925263 2.530918e-06
0.063034609 -0.33606586 0.045103084 -0.037550259 0.14113167 -0.9892785 2.2124584e-06
0.072863646 -0.33641672 0.044680305 -0.037644759 0.14127873 -0.98925382 0
0.08838886 -0.33022273 0.044974566 -0.037917059 0.14125516 -0.98924679 3.7649747e-06
0.096459426 -0.33262685 0.044318963 -0.038022403 0.14128038 -0.98923916 0
0.10605324 -0.3354443 0.043546207 -0.038165774 0.14250937 -0.98905742 4.589996e-06
0.11809679 -0.3350316 0.043144215 -0.041836619 0.14199893 -0.98898226 1.527858e-05
0.12588373 -0.33447656 0.042925905 -0.048490852 0.14045379 -0.98889911 6.9833404e-05
0.13462093 -0.3356545 0.04242425 -0.070420049 0.13798487 -0.98792768 0.00019663954
0.1438151 -0.33648896 0.041769508 -0.088482305 0.13439533 -0.98696953 0.00021438842
0.15351687 -0.33666703 0.040571462 -0.11047485 0.13326168 -0.98490435 0.00013287712
-0.073922262 -0.32371885 0.040721208 0.29758719 0.25723422 -0.91938698 0.0095594851
-0.064669073 -0.3240799 0.042415794 0.21779069 0.22357461 -0.9500429 0.0077811484
-0.050977822 -0.32490522 0.044423059 0.10703599 0.17063008 -0.97950423 0.00064708694
-0.043345775 -0.32421818 0.044946123 0.07941024 0.15993917 -0.98392761 0.00025406256
-0.03745975 -0.32600549 0.044957522 0.073378511 0.1618758 -0.98407912 0.00025405741
-0.022386078 -0.32470673 0.045953378 0.04910443 0.15819809 -0.98618567 1.7162172e-05
-0.016895067 -0.32548124 0.046114266 0.046627685 0.15847841 -0.98626083 1.4057297e-05
-0.0039635617 -0.32576326 0.046641976 0.043877315 0.15774694 -0.9865042 9.4549005e-06
0.0070131812 -0.32739991 0.046817169 0.037193052 0.15609142 -0.98704207 4.6776484e-05
0.014710925 -0.32854998 0.046939649 0.028184777 0.15239085 -0.98791832 0.00010608458
0.025358459 -0.32522902 0.047912668 0.010823992 0.14879015 -0.98880953 0.00019060544
0.032631263 -0.32167485 0.048313998 -0.011373877 0.13607092 -0.99063379 0.00016511408
0.042986657 -0.32347459 0.047664039 -0.024513897 0.1390309 -0.98998463 9.2329392e-05
0.055703115 -0.32596377 0.046825942 -0.036601081 0.13832892 -0.98970979 4.4647204e-06
0.066395819 -0.32308269 0.046832703 -0.036623243 0.13727318 -0.98985595 1.0366244e-05
0.074309088 -0.32336548 0.04649229 -0.036912758 0.1382823 -0.98970479 9.3821309e-06
0.084165879 -0.32517552 0.045858447 -0.037448749 0.1397592 -0.9894771 5.0456347e-06
0.098084748 -0.32428551 0.045447439 -0.037798036 0.1403465 -0.98938072 0
0.10570395 -0.32690191 0.044778977 -0.03805327 0.14118832 -0.98925114 2.3386683e-06
0.11397359 -0.32422644 0.044842657 -0.038650483 0.14064988 -0.98930466 2.3764622e-07
0.12613416 -0.32040685 0.044922084 -0.053862918 0.13563868 -0.9892931 0.00014368497
0.13517201 -0.32830068 0.04345154 -0.068705201 0.13521844 -0.9884308 0.00020929544
0.14501032 -0.32548085 0.042967558 -0.09388838 0.12642068 -0.98752356 0.00020073599
0.15791057 -0.32324204 0.04168665 -0.11783237 0.12655035 -0.98493683 3.8135404e-05
0.16115087 -0.32546949 0.041011252 -0.11877394 0.1263959 -0.98484355 4.361786e-05
0.17135571 -0.32073534 0.040335234 -0.12528053 0.12603629 -0.98408318 1.2319968e-05
-0.085146166 -0.31217512 0.041408274 0.42656139 0.3119112 -0.84897399 0.020681482
-0.07379505 -0.31842858 0.04183121 0.27417183 0.24259672 -0.93057865 0.0093000177
-0.065891236 -0.31659544 0.043612204 0.16555893 0.2075683 -0.96410877 0.0022857976
-0.0574518 -0.31683585 0.045107082 0.11320106 0.16290697 -0.98012596 0.00048970478
-0.047567811 -0.31653187 0.045861129 0.092223197 0.15951878 -0.98287779 0.00039429034
-0.030506402 -0.31998587 0.046282455 0.052350905 0.15481386 -0.98655564 1.8793462e-05
-0.022064932 -0.313447 0.047691297 0.049864136 0.15136023 -0.98722017 1.4341064e-05
-0.01307586 -0.31390083 0.048109796 0.046936251 0.15065795 -0.9874711 1.5605521e-05
-0.0013722181 -0.31087607 0.049037769 0.038777534 0.15020046 -0.98789477 2.6800222e-05
0.0037756702 -0.31379434 0.048813291 0.037491519 0.15090208 -0.98783755 2.8058879e-05
0.018403715 -0.31703189 0.048928116 0.013417835 0.14151084 -0.98984581 0.00013748989
0.025341524 -0.31607831 0.049262095 -0.00029962728 0.137877 -0.99044931 0.00017647889
0.034234922 -0.31624073 0.048986848 -0.015497344 0.13489076 -0.99073929 0.00014027824
0.045902073 -0.31487823 0.048767231 -0.031548847 0.13347133 -0.99055034 3.290044e-05
0.054480754 -0.31405136 0.04856015 -0.03587871 0.13388547 -0.99034715 1.3979437e-05
0.064207427 -0.31226221 0.048459861 -0.035514187 0.13255121 -0.99053973 1.7132405e-05
0.086457707 -0.31357414 0.047427125 -0.036820564 0.13646522 -0.98996031 5.8405863e-06
0.094523713 -0.31440559 0.046996307 -0.036554355 0.13612927 -0.99001646 5.9907388e-06
0.1055248 -0.31762493 0.046110887 -0.037444003 0.13868725 -0.98962808 9.3703926e-07
0.11878154 -0.31306294 0.046249866 -0.046330597 0.13706581 -0.98947787 6.614923e-05
0.12388143 -0.31285921 0.046084106 -0.048228242 0.13755582 -0.98931921 7.8071091e-05
0.13522114 -0.3135123 0.045485888 -0.077723876 0.13133773 -0.98828608 0.00022359579
0.14514358 -0.31420389 0.044322252 -0.098290734 0.12526992 -0.98724174 0.00014945379
0.15450624 -0.31518355 0.043097317 -0.11135087 0.12329855 -0.98610264 5.2672112e-05
0.16348316 -0.31616563 0.041872144 -0.12197927 0.12235099 -0.98496258 1.0190612e-05
0.17256498 -0.31530377 0.040856633 -0.12456517 0.12305243 -0.98455143 2.3702642e-06
-0.092015833 -0.3052209 0.041772887 0.50221747 0.34299195 -0.79380995 0.025798365
-0.086493798 -0.30082092 0.043387961 0.33739224 0.26134303 -0.90435958 0.022890108
-0.075781241 -0.30343124 0.044177745 0.20620534 0.20837341 -0.95606476 0.0046693538
-0.06562075 -0.30643392 0.045491774 0.13723136 0.17958595 -0.97412342 0.0010835342
-0.043145258 -0.30614483 0.047610804 0.071406461 0.15082704 -0.98597789 0.00014405424
-0.034857966 -0.3005074 0.048879087 0.056193117 0.14810956 -0.98737323 7.4735626e-06
-0.01520659 -0.30429664 0.049452957 0.047829594 0.14807193 -0.98781931 8.7875278e-06
-0.0048649758 -0.30778223 0.049355932 0.042024333 0.15019776 -0.98776239 1.305238e-05
0.0087724486 -0.30973423 0.049621765 0.025592973 0.14221911 -0.98950428 8.0422898e-05
0.039381344 -0.30854565 0.049765624 -0.026309809 0.12862933 -0.99134368 3.6640846e-05
0.056433324 -0.30475533 0.049677324 -0.03339773 0.1251962 -0.9915697 1.1568764e-05
0.061972074 -0.30599576 0.049349189 -0.034456357 0.12683642 -0.99132502 1.2177483e-05
0.075503267 -0.30756909 0.048696835 -0.035488691 0.13192406 -0.99062431 1.4585964e-05
0.0941329 -0.30754411 0.047991421 -0.035606574 0.13428713 -0.99030256 1.0529475e-05
0.10512421 -0.30623463 0.047753215 -0.037123181 0.13596237 -0.99001825 3.7563998e-06
0.11287866 -0.30627969 0.047446772 -0.039183054 0.1349279 -0.99008036 1.5231893e-05
0.12564065 -0.3041946 0.047252119 -0.060115051 0.12895624 -0.9898265 0.00015514498
0.13446158 -0.30714986 0.046387315 -0.07909435 0.12897231 -0.98848885 0.00022570005
0.14374764 -0.30347389 0.045789022 -0.095801875 0.12298907 -0.98777306 0.00013058206
0.15302946 -0.30190349 0.044896178 -0.11195851 0.1201514 -0.9864223 3.245367e-05
0.1637378 -0.30347013 0.043408561 -0.1209851 0.12089512 -0.9852649 2.6964217e-06
0.17572357 -0.3073315 0.041447073 -0.12544945 0.12230239 -0.98453265 0
0.18359391 -0.30062157 0.041238822 -0.1271762 0.12070389 -0.9845084 4.6714053e-06
-0.095436499 -0.29465628 0.042880215 0.51487255 0.33847979 -0.78761512 0.037098855
-0.084729791 -0.29518384 0.044653028 0.22721857 0.25586787 -0.93962938 0.010492467
-0.067583703 -0.29460853 0.047260992 0.11933596 0.16872302 -0.97841275 0.00045764109
-0.05665347 -0.29527584 0.048459955 0.089789465 0.16130167 -0.98281211 0.00035649815
-0.043448698 -0.29499054 0.049216226 0.066048928 0.15026847 -0.98643643 5.9590402e-05
-0.035373934 -0.29743072 0.049316466 0.056232795 0.14797337 -0.98739135 5.6834151e-06
0.076179005 -0.29787898 0.049875993 -0.03384329 0.12654337 -0.99138361 1.2195204e-05
0.086633831 -0.29976153 0.049305722 -0.03462676 0.12859602 -0.99109238 1.1523764e-05
0.094473049 -0.29684347 0.04940185 -0.034850314 0.12788995 -0.99117589 1.5310106e-05
0.10436391 -0.29337883 0.049496863 -0.035358965 0.12790348 -0.9911561 1.1843781e-05
0.11528146 -0.29668123 0.048696395 -0.044895153 0.12922315 -0.99059868 5.8200261e-05
0.12480968 -0.29818889 0.048140883 -0.060459759 0.12993182 -0.98967791 0.00015612473
0.13644302 -0.29658243 0.047479227 -0.089821152 0.12319972 -0.98830861 0.00016490801
0.1460093 -0.29235214 0.046876363 -0.10793152 0.11739762 -0.98720235 3.6733752e-05
0.15530534 -0.29870939 0.045018572 -0.11779366 0.11984871 -0.9857794 5.3655954e-06
0.1637525 -0.29512852 0.044436924 -0.12113712 0.11961041 -0.985403 4.3349455e-06
0.17390543 -0.29562008 0.043104369 -0.12455196 0.12027451 -0.98489636 2.9431776e-06
0.18795964 -0.29965633 0.040787712 -0.13211295 0.12054786 -0.98387718 2.5891459e-05
0.19626775 -0.29093248 0.040765125 -0.14813626 0.1158911 -0.98215324 0.00028196842
-0.10075992 -0.28239471 0.045677483 0.56301802 0.31070182 -0.76581663 0.024703948
-0.096708953 -0.28476238 0.045016866 0.41110498 0.29531267 -0.86242855 0.026096145
-0.086306937 -0.28656855 0.046173774 0.2176719 0.21637529 -0.95173556 0.010394196
-0.070204094 -0.28239471 0.048979484 0.10472216 0.16822933 -0.98016948 0.00033960442
-0.067295358 -0.28556085 0.048943266 0.10277665 0.16856256 -0.98031813 0.00029967172
-0.047314562 -0.28913099 0.049858946 0.070277467 0.15068865 -0.98608017 7.2445568e-05
0.10593718 -0.28895798 0.049980145 -0.037028834 0.12534791 -0.99142158 2.6984977e-05
0.12318829 -0.28744778 0.049597517 -0.057238664 0.12097429 -0.99100393 0.00012013435
