# .PCD v0.7 - Point Cloud Data file format
VERSION 0.7
FIELDS x y z normal_x normal_y normal_z curvature
SIZE 4 4 4 4 4 4 4
TYPE F F F F F F F
COUNT 1 1 1 1 1 1 1
WIDTH 570
HEIGHT 1
VIEWPOINT 0 0 0 1 0 0 0
POINTS 570
DATA ascii
-0.18163216 -0.19337378 -0.019688517 -0.0055510979 0.99863833 0.051872633 0.0038286273
-0.1747985 -0.19313535 -0.01552325 -0.025574194 0.99965483 -0.0060237097 0.0028052197
-0.16620918 -0.19318147 -0.015246118 -0.036486924 0.99925476 -0.012600123 0.004177351
-0.15582663 -0.19276881 -0.016079502 -0.017633937 0.99983215 0.0049623926 0.0053759608
-0.14312202 -0.19238678 -0.018592713 -0.0040611108 0.99991405 0.012466087 0.003753358
-0.13472925 -0.19276135 -0.013328061 -0.0011876975 0.99949753 -0.031673472 0.0029767356
-0.12651587 -0.19282125 -0.013339761 -0.021127572 0.99958861 -0.019399174 0.0027014345
-0.11871459 -0.19214223 -0.017710909 -0.0041503049 0.99952656 0.030486206 0.0038314774
-0.10486166 -0.19242501 -0.013945755 -0.021219542 0.99972481 -0.0099992556 0.0025441474
-0.090641022 -0.19195217 -0.015990255 -0.00559616 0.99995077 -0.0081941504 0.0019400733
-0.073372073 -0.19212031 -0.01206218 -0.0032426752 0.99947113 -0.032356422 0.0023679403
-0.066904128 -0.19205129 -0.011781952 -0.0086255595 0.99928421 -0.036834002 0.0021993229
-0.052585863 -0.19152647 -0.015733331 -0.0024643783 0.99996412 0.0081060361 0.0021713828
-0.045884557 -0.19144979 -0.015415424 -0.013516929 0.99972987 0.018906277 0.0029917255
-0.032506935 -0.19173685 -0.011046933 -0.0097735077 0.99911851 -0.040825639 0.0016084395
-0.015139152 -0.1910678 -0.018170798 -0.013706709 0.99896413 0.043390673 0.0015975478
-0.0068085389 -0.19110914 -0.015855964 -0.0145317 0.99979377 0.014185462 0.00127942
0.0052705975 -0.19095778 -0.015778564 -0.019751037 0.99980283 -0.0020270115 0.0013007366
0.014933084 -0.19092138 -0.014402572 -0.0080749476 0.9999187 -0.0098762866 0.0013478172
0.024094785 -0.19072154 -0.015663624 -0.0086385515 0.99995422 0.0041087209 0.00082792726
0.047480278 -0.19065709 -0.011966802 -0.0041995668 0.99982953 -0.017977618 0.0010719473
0.052606001 -0.19054796 -0.012630835 -0.0062238062 0.99997014 -0.0045808754 0.0010416359
0.071868785 -0.19014153 -0.019342992 0.00042363099 0.99842203 0.056154359 0.001467509
0.083750278 -0.19013596 -0.01728976 0.010740384 0.99931562 0.035396598 0.0016864585
0.091948733 -0.19014128 -0.015099694 -0.0081385542 0.99991417 0.010267556 0.00097486074
0.11598543 -0.19059139 -0.01479838 0.022945482 0.99927789 0.030283403 0.0017556745
0.12348787 -0.19087639 -0.019533902 0.038014065 0.99793988 0.051681265 0.0020694472
0.14763129 -0.19173081 -0.019234031 0.032300491 0.99866271 0.040364996 0.001675008
0.15068643 -0.1919595 -0.011591581 0.027356783 0.99958473 -0.0090566305 0.0018818727
0.16454972 -0.19234109 -0.012372355 0.040717017 0.9991551 -0.005587216 0.0020639501
0.17962037 -0.19275513 -0.013276782 -0.024104401 0.99691194 0.074735932 0.027177813
0.18175739 -0.19276226 -0.017381638 -0.18530023 0.96232194 0.1989983 0.060770903
0.19294691 -0.19317031 -0.01228188 -0.1168282 0.97344726 0.19685447 0.053466439
0.20645511 -0.19377348 -0.015420632 -0.10371005 0.96047091 0.25834072 0.075353384
0.21435718 -0.19333957 -0.0153237 -0.094371572 0.9596824 0.26477095 0.090802237
0.2268879 -0.19397908 -0.014006332 -0.088402562 0.97936946 0.1817154 0.11183257
0.23437978 -0.19457988 -0.012286497 -0.080648951 0.9797563 0.18323021 0.12779939
0.24707833 -0.19223423 -0.012037553 -0.05634135 0.91865158 0.39103061 0.17142567
0.25673395 -0.19385566 -0.01217788 0.051615961 0.94862008 0.312179 0.15251125
0.26426601 -0.19335544 -0.012169209 -0.1067393 0.9441179 0.31184626 0.14692697
0.27615643 -0.19510244 -0.01254568 0.086735956 0.97507405 0.20422417 0.13189536
0.2824688 -0.195755 -0.013266925 0.05857572 0.97559935 0.21160048 0.10913298
0.29682472 -0.19322732 -0.015669767 0.10450372 0.9288758 0.35534295 0.13572498
0.30170915 -0.19300441 -0.014127329 0.049851555 0.9701401 0.23736662 0.10918162
0.31240949 -0.19231938 -0.012904028 0.19885796 0.93130374 0.3051703 0.11497789
0.32530326 -0.19156143 -0.014791504 0.090159021 0.96567649 0.24359861 0.083181545
0.33267015 -0.19126816 -0.019936422 0.09509021 0.98252946 0.15998046 0.078568541
0.34295219 -0.19028485 -0.012811797 0.0089367507 0.99995708 -0.0024362835 0.028141947
-0.45043832 -0.18394116 -0.010535312 0.78868365 0.61477768 0.0051419884 0.10755048
-0.44591808 -0.18504842 -0.017220881 0.70609653 0.70806229 -0.0086903786 0.11046902
-0.43450806 -0.18743974 -0.01253371 0.40559351 0.91397363 -0.012092858 0.057282366
-0.42385769 -0.18890193 -0.016873628 0.15184009 0.98814851 -0.022520378 0.0019500895
-0.36202234 -0.18719995 -0.01765579 -0.25924852 0.77598178 0.57501513 0.17424965
-0.35354885 -0.18673162 -0.012568343 -0.14762938 0.81277704 0.56355929 0.17545067
-0.3451905 -0.18543385 -0.015348748 -0.13665979 0.740031 0.65854239 0.19503258
-0.33669537 -0.18253414 -0.015057271 -0.086656079 0.64646327 0.75800782 0.20044369
-0.32521638 -0.18497372 -0.015726019 0.037078369 0.89165097 0.45120263 0.1874482
-0.31295204 -0.18571602 -0.014417082 -0.006278133 0.94453984 0.32833678 0.15158515
-0.3026894 -0.18530266 -0.014092638 -0.08952482 0.92877114 0.3596797 0.16736877
-0.29506955 -0.1852935 -0.015504288 -0.070782542 0.90297908 0.42381442 0.15897848
-0.2849803 -0.18447703 -0.014545538 0.010013399 0.86853218 0.49553162 0.18548125
-0.27539906 -0.18400206 -0.013420424 0.16999924 0.91104758 0.37562284 0.17937869
-0.26892531 -0.1846761 -0.014276319 0.19527175 0.87120759 0.45040676 0.19447079
-0.25876391 -0.18658833 -0.019259032 0.26085216 0.86191022 0.43481824 0.14412525
0.2098113 -0.18730567 -0.018262956 -0.17938727 0.92602873 0.33210084 0.14634401
0.21529117 -0.18380895 -0.016934579 -0.20637992 0.88116789 0.42538273 0.19495828
0.22714004 -0.18676239 -0.014229845 -0.21129923 0.93899566 0.27136642 0.1606507
0.23464115 -0.18567754 -0.013465298 -0.20547475 0.92099893 0.33096987 0.19149421
0.24401294 -0.18807204 -0.013938397 -0.14424519 0.92772841 0.34425741 0.19713363
0.25461507 -0.18611877 -0.011954227 0.088113241 0.78578913 0.61218578 0.19546282
0.26597893 -0.18756872 -0.011868078 0.053405691 0.9540233 0.29493603 0.15498345
0.27470043 -0.18560508 -0.012267916 0.092279352 0.96557963 0.2431879 0.15767774
0.28571606 -0.18302582 -0.012143871 0.13414033 0.78190577 0.60879356 0.19284344
0.29057887 -0.18631308 -0.012575494 0.061655484 0.93118936 0.3592838 0.15421425
0.30617163 -0.18848819 -0.01639297 0.118951 0.91917259 0.37546289 0.15541257
0.31164259 -0.18579715 -0.019640984 0.23600221 0.85509664 0.4616414 0.17739986
0.34848806 -0.18989527 -0.013014709 -0.053874288 0.99837905 -0.018352574 0.0047653597
0.35655823 -0.189537 -0.01504003 -0.067030504 0.99774921 -0.0018446892 0.0034851434
0.36461878 -0.18890733 -0.014731121 -0.063791282 0.99793357 -0.007700867 0.0036613366
0.37510163 -0.18843882 -0.017359404 -0.064969167 0.99735558 -0.03257158 0.002536336
0.38377699 -0.18732515 -0.012043317 -0.099243358 0.99175447 -0.081079356 0.0018581016
0.39284962 -0.18667608 -0.015041737 -0.097583711 0.99452281 -0.037439391 0.0012777135
0.41521764 -0.18399416 -0.015215385 -0.10046396 0.99493998 -0.0012558937 0.0021556919
0.42782551 -0.18307108 -0.01369135 -0.086579278 0.99624485 -0.00046723045 0.0026278601
0.43494755 -0.18245149 -0.016127482 -0.10698921 0.99303257 0.049391389 0.0022398948
0.44322458 -0.18177074 -0.017912611 -0.10554872 0.99265039 0.059199482 0.0018821621
0.45447642 -0.18036988 -0.015704807 -0.10630298 0.99295318 0.0523801 0.0015072203
-0.45295882 -0.17290522 -0.014640116 0.96118468 0.26231185 -0.085536361 0.10832997
-0.36398569 -0.17866695 -0.019330364 0.52894539 -0.57657611 -0.62271732 0.18201397
-0.35595131 -0.17520151 -0.0131415 0.32159394 -0.44000438 -0.83843517 0.19524121
-0.34471497 -0.17436963 -0.012785194 0.24762389 -0.2053656 -0.9468407 0.16703543
-0.33743918 -0.17500806 -0.011489928 -0.077128462 0.19019622 0.97871178 0.19162528
-0.28091761 -0.17937607 -0.01001201 0.034212925 0.72243673 0.69059008 0.24084301
-0.27459276 -0.17395486 -0.012464436 0.24078275 0.16031863 0.9572469 0.20612201
-0.26647949 -0.17654598 -0.016243469 0.26049724 0.48931384 0.83229393 0.22889002
-0.25904465 -0.17270043 -0.019005772 0.62422377 0.2207491 0.74940944 0.14876725
0.20719431 -0.17901166 -0.019478107 -0.37272996 0.35955194 0.85545003 0.21355203
0.21299472 -0.17128873 -0.01732007 -0.40695214 -0.013552448 0.91334891 0.12018626
0.22547907 -0.17754564 -0.012276351 -0.30697131 0.73872936 0.60003954 0.23686115
0.23569857 -0.17469046 -0.012163366 -0.31429845 0.095232859 0.94453537 0.21974118
0.24498148 -0.17496735 -0.012060735 -0.23082678 -0.0085658617 0.97295713 0.2411056
0.26352566 -0.17393751 -0.011872883 -0.092375234 -0.037609298 -0.99501371 0.19407773
0.27636769 -0.17226769 -0.011863148 -0.09225706 0.029823815 -0.99528849 0.19069242
0.28709954 -0.174739 -0.011998625 0.15997382 0.21199985 0.96408737 0.22091024
0.29585671 -0.17594908 -0.016276432 0.30191791 0.53621376 0.78823882 0.21291645
0.30395931 -0.17614976 -0.015542609 -0.35494316 -0.4927429 -0.79449338 0.18037084
0.46601558 -0.17912073 -0.013843387 -0.14385566 0.98939681 0.019988665 0.014329419
0.47391832 -0.17819586 -0.015731992 -0.33292678 0.94009072 0.073411271 0.055398952
0.48629585 -0.17807867 -0.014253614 -0.71540731 0.69810706 0.028961778 0.10762428
0.49851489 -0.17115539 -0.015160183 -0.94895041 0.31346232 0.03513521 0.090363026
-0.45361048 -0.16521585 -0.014777144 0.98938555 0.1362315 -0.050568726 0.071194001
-0.44863141 -0.16529351 -0.015229868 0.9893409 0.14061455 0.037844408 0.055185962
-0.36461532 -0.16854319 -0.019867385 0.66730773 -0.16901749 -0.72535056 0.098337397
-0.35741699 -0.1634001 -0.013844888 0.52303892 -0.00970631 -0.8522535 0.082687117
-0.34665555 -0.16504873 -0.015087729 0.43749145 0.10738639 -0.8927874 0.085984081
-0.33641458 -0.16626216 -0.010600409 0.28262442 0.11420414 -0.95240796 0.087485738
-0.28264686 -0.16493426 -0.010279119 0.14362881 -0.23870559 0.96041167 0.11535452
-0.27462187 -0.1613816 -0.012102848 0.42961639 -0.0071947244 0.90298289 0.02502045
-0.26346582 -0.1633115 -0.015895419 0.57629383 0.0058977674 0.81722134 0.022338888
0.21245819 -0.1608679 -0.018999793 -0.42119235 -0.074059099 0.90394264 0.048338473
0.22407591 -0.16368732 -0.011852162 -0.36486211 -0.064912833 0.92879605 0.0228543
0.23658678 -0.16267157 -0.012153546 -0.34742016 -0.24405189 0.90539384 0.1826022
0.24519975 -0.16680168 -0.012058322 -0.48905605 -0.046392489 0.87101781 0.24057516
0.26562637 -0.1687617 -0.011866188 -0.054039545 0.069758609 -0.99609911 0.18463895
0.27299571 -0.16738795 -0.011864102 -0.12097388 0.14361285 -0.98221213 0.17506148
0.28540221 -0.16462003 -0.011943332 -0.30128238 0.070550963 -0.95092142 0.063836426
0.29666677 -0.16326015 -0.014614369 -0.46604192 0.0034900049 -0.88475573 0.042550951
0.30461678 -0.16471915 -0.015611741 -0.53887886 -0.017212646 -0.84220737 0.065143362
0.48987901 -0.16072929 -0.015153651 -0.98678356 0.15494303 0.047441605 0.075629517
0.49018431 -0.16268142 -0.011791624 -0.96728194 0.25301594 -0.018674226 0.086644553
-0.45442975 -0.15644506 -0.014713163 0.99399275 0.10932031 0.0052510607 0.047879562
-0.44776034 -0.15644547 -0.015234903 0.99212027 0.080551721 0.095962442 0.026475662
-0.36158246 -0.15506874 -0.01728062 0.63913125 -0.11870025 -0.75988257 0.10185064
-0.3527337 -0.15698242 -0.012428658 0.46707162 -0.084959336 -0.88012838 0.069832981
-0.3472445 -0.15430592 -0.017790856 0.47358972 -0.21621691 -0.85379332 0.09271948
-0.33615208 -0.15197238 -0.010483496 0.28791082 -0.24105082 -0.92682362 0.099502496
-0.27558827 -0.15216801 -0.011769013 0.44834781 0.20037554 0.8711108 0.077122755
-0.2658394 -0.15609078 -0.016477946 0.54205298 0.12902161 0.83038068 0.05132192
-0.25876239 -0.156864 -0.019260386 0.64892179 0.072217822 0.75742 0.028483862
-0.17804947 -0.15117428 -0.019544326 0.31881404 0.89570242 -0.30995938 0.13230267
-0.16525345 -0.1525 -0.014454752 0.26972207 0.81331217 -0.51553208 0.13846268
-0.15507931 -0.1538458 -0.012224506 0.10279118 0.94768167 -0.30221418 0.065672204
-0.14720327 -0.15412912 -0.013564696 0.13535491 0.96659642 -0.21764722 0.056255899
-0.13515075 -0.15427136 -0.016308041 0.11432522 0.97621202 -0.18422796 0.045970716
-0.1196265 -0.15423501 -0.016631166 0.0047963448 0.99855459 -0.053532597 4.658027e-05
-0.08417251 -0.15442804 -0.013663438 0.011046008 0.99943924 -0.031608708 3.9678027e-05
-0.075491704 -0.15462101 -0.015779471 -0.022014581 0.99973154 0.0072298218 0.015360166
-0.064499386 -0.15478195 -0.014482923 -0.021535018 0.99356729 0.11117707 0.056208704
-0.055767033 -0.15494634 -0.015194687 0.043069147 0.98656219 0.1576076 0.067581467
-0.049214169 -0.15508552 -0.016482046 0.02308278 0.97773272 0.20858094 0.068103231
-0.035723429 -0.15529241 -0.015337918 0.095762074 0.98697203 0.12928955 0.050825551
-0.026287504 -0.1554033 -0.012926036 0.017109996 0.99963367 -0.020970237 0
-0.011158427 -0.15578711 -0.018877566 0.017108148 0.99963361 -0.020971797 1.0712935e-05
-0.0053123264 -0.15586518 -0.017829554 0.01710866 0.99963367 -0.020972002 7.1311151e-06
0.0039525582 -0.15596141 -0.014858265 0.017109105 0.99963373 -0.020970773 0
0.014945851 -0.15614687 -0.014728636 -0.053401139 0.99855936 0.0052365507 0.040824693
0.022219373 -0.15630147 -0.016164863 -0.24362934 0.96601814 0.086334266 0.1268366
0.044694938 -0.15674207 -0.01882964 0.44025165 0.89214373 0.10128231 0.23353837
0.054949321 -0.15682629 -0.01447822 0.10585181 0.99315387 0.049404267 0.22933507
0.063274287 -0.15695308 -0.013730682 0.24845538 0.95529336 0.16026407 0.2109551
0.071981005 -0.15710589 -0.01520278 0.023559039 0.9984948 0.049528576 0.059936285
0.086916387 -0.15628894 -0.015054839 -0.04660444 0.99887913 -0.0082733892 0.0002812919
0.10408815 -0.15533024 -0.013614796 -0.051697053 0.99862266 -0.0089579476 0.00023889827
0.11475584 -0.15475808 -0.014252053 -0.046974074 0.99837822 0.032162197 0.01046251
0.12604809 -0.15414971 -0.014747677 -0.051403552 0.9982602 0.0288848 0.01128482
0.13861968 -0.15349244 -0.016609393 -0.043820493 0.99871838 -0.025324553 8.1368846e-05
0.14394568 -0.15319322 -0.016042389 -0.041190404 0.99875659 -0.028082717 9.8971264e-05
0.15391737 -0.15267701 -0.013397163 -0.039108306 0.99869472 -0.032852631 8.3433712e-05
0.16803136 -0.15237904 -0.013639128 -0.16162272 0.98563421 -0.049023032 0.048714586
0.17394947 -0.152551 -0.019493591 -0.14340752 0.98587358 -0.086530343 0.12267569
0.18515491 -0.15211524 -0.015813205 0.074022055 0.93678451 -0.34198773 0.24176179
0.20786734 -0.1526632 -0.019165598 -0.36948392 -0.11821248 0.9216873 0.17904311
0.21509118 -0.15676741 -0.016585644 -0.39475441 -0.017579015 0.9186185 0.042123929
0.22705062 -0.15365574 -0.012258977 -0.31625924 -0.0045032031 0.9486621 0.023570193
0.24604534 -0.15390609 -0.012048975 -0.21300803 0.091273196 0.9727779 0.23908897
0.25348225 -0.15640691 -0.011966753 -0.10791561 0.013191653 -0.99407256 0.19502458
0.26061574 -0.15011795 -0.011887886 -0.14516476 -0.012632185 -0.98932689 0.19260158
0.27567175 -0.15235728 -0.011863345 -0.079562835 0.026937701 -0.9964658 0.14967673
0.28744024 -0.15293515 -0.012252449 -0.3204602 -0.0039243526 -0.94725376 0.027096566
0.29340389 -0.15473199 -0.015110567 -0.45694724 0.011679809 -0.88941711 0.040278424
0.4886615 -0.15321209 -0.013710481 -0.99801224 0.025205318 -0.057759993 0.045484796
-0.45253214 -0.14654453 -0.014107864 0.99856865 0.048039049 0.023514904 0.029037278
-0.36454612 -0.14566034 -0.019808333 0.66802096 -0.065472715 -0.74125665 0.11668397
-0.35723913 -0.14718215 -0.014297812 0.54176211 -0.038366206 -0.83965576 0.098620407
-0.34696883 -0.14717329 -0.015017646 0.4350976 -0.11274254 -0.89329684 0.1092959
-0.33687386 -0.14613234 -0.01080501 0.2277126 -0.14840101 -0.96235347 0.12449168
-0.27405 -0.14179572 -0.013331164 0.43370605 0.052450009 0.89952654 0.15435876
-0.2661145 -0.14604819 -0.01634096 0.49978098 0.10705376 0.85951054 0.087113313
-0.20118664 -0.14199117 -0.018228352 0.77487195 0.57899213 -0.2536563 0.18340884
-0.19173278 -0.14851423 -0.017249933 0.33907121 0.90545291 -0.25531512 0.15416841
-0.18608749 -0.14923398 -0.015844468 0.2619229 0.93129015 -0.25317013 0.16365165
0.18514442 -0.14538355 -0.013755187 -0.61172253 0.77924877 -0.13626046 0.23429304
0.20810154 -0.14444134 -0.019056849 -0.25261346 0.32691878 0.9106648 0.17555162
0.21640263 -0.14474683 -0.015720384 -0.42196533 0.18087667 0.88838553 0.062030125
0.22347665 -0.14317188 -0.012245434 -0.37905627 0.16641422 0.91028714 0.040179603
0.23417197 -0.14646654 -0.012180245 -0.2357877 0.16550998 0.95760673 0.18467361
0.25346115 -0.14435512 -0.011966986 -0.067818217 0.22647725 0.97165263 0.18731546
0.26604334 -0.14253339 -0.01186607 0.068541341 0.18482532 0.98037833 0.18858117
0.27031323 -0.1449821 -0.011864861 -0.13715322 -0.16454679 -0.97678733 0.18306892
0.28682226 -0.14617291 -0.011825873 -0.31327337 -0.082962327 -0.94603223 0.033869982
0.29436794 -0.14456534 -0.0146788 -0.41308761 -0.014470364 -0.91057634 0.052565552
0.30533811 -0.14314614 -0.015847269 -0.49914396 -0.031827401 -0.86593437 0.060144205
0.3111065 -0.14435409 -0.019317355 -0.52724671 -0.0050285058 -0.84969741 0.078134902
0.48671263 -0.14100312 -0.018098382 -0.996961 -0.068307623 0.037455674 0.020254124
-0.45368505 -0.13284053 -0.016522391 0.99615383 -0.024307361 -0.084182546 0.04561533
-0.35455263 -0.13692988 -0.012740349 0.40697712 0.072222486 -0.91057867 0.11994112
-0.34367335 -0.13030852 -0.010876078 0.24229392 0.07208769 -0.96752113 0.10176919
-0.33369473 -0.13827445 -0.015320797 -0.02536081 -0.040019318 0.99887699 0.21893811
-0.32183278 -0.13846013 -0.018435527 -0.11790378 0.5216648 -0.84496421 0.2292849
-0.31948489 -0.13849142 -0.017988421 -0.16340853 0.71194464 -0.6829586 0.2117511
-0.30747229 -0.13838862 -0.015155347 0.037385076 0.69045091 -0.72241253 0.23600604
-0.29330218 -0.13828847 -0.014216661 0.1032036 0.10276087 -0.98933768 0.2304716
-0.28198469 -0.13381296 -0.010472013 0.20730357 -0.083799236 0.97468096 0.099349782
-0.27725732 -0.13639015 -0.014953707 0.2464371 -0.049651366 0.96788609 0.19981007
-0.25969386 -0.132801 -0.018420111 0.52147239 -0.18384227 0.83322781 0.10243983
-0.2002171 -0.13682716 -0.017970119 0.85685021 0.40692475 -0.31657541 0.19089828
-0.19414802 -0.13402261 -0.016354039 0.76949632 0.10032979 -0.63072127 0.1912435
-0.18447725 -0.13327831 -0.015514421 0.6324966 0.14695229 -0.76049531 0.19956711
-0.17508546 -0.13531172 -0.01127 0.21157084 0.055729095 -0.97577256 0.14519526
0.034675695 -0.13336805 -0.014401844 -0.85718173 0.089295521 0.50721365 0.17424236
0.04227991 -0.1327213 -0.017889682 -0.90328747 0.11217718 0.41411099 0.23857425
0.05142023 -0.13186494 -0.016566029 -0.96944726 -0.04602411 0.24094364 0.28956395
0.18505307 -0.13442768 -0.014186631 -0.97672981 0.12360433 -0.17527367 0.17030522
0.20727414 -0.13443667 -0.019441038 -0.2634505 0.17504193 0.94865918 0.18458949
0.21588364 -0.13459885 -0.016427085 -0.41372779 0.12428179 0.90187764 0.078715973
0.22446898 -0.13801467 -0.012339829 -0.36907941 0.19331878 0.90906996 0.055581093
0.23422451 -0.13660313 -0.012179662 -0.16673049 0.30901089 0.9363296 0.1630221
0.24513473 -0.13473162 -0.012059042 -0.094812497 0.32607356 0.94057775 0.20305169
0.25206316 -0.13455051 -0.011982441 0.031237202 0.39788485 0.91690344 0.18989943
0.26419097 -0.13464819 -0.011872642 0.086733937 0.37666461 0.92228037 0.15783861
0.28639022 -0.13406208 -0.012538083 -0.27694368 -0.30070153 -0.91262305 0.09840294
0.29497355 -0.13660367 -0.01459826 -0.38284039 -0.18222417 -0.90566415 0.091334827
0.30484742 -0.13510443 -0.015929466 -0.4115141 -0.028432276 -0.91095978 0.085442752
0.310985 -0.13710892 -0.019244006 -0.56628859 -0.035623655 -0.8234368 0.11035005
0.48642117 -0.13115779 -0.017366823 -0.99791259 -0.035821006 0.053733874 0.01950936
0.49011523 -0.13021518 -0.010986445 -0.99829108 -0.018111704 -0.055560444 0.022937994
-0.45312548 -0.12282242 -0.018440872 0.99314201 -0.000927307 -0.11691078 0.056329627
-0.44822183 -0.12215277 -0.016647981 0.99774235 0.022620894 -0.063232571 0.058042482
-0.36184013 -0.12729883 -0.017500412 0.53079844 0.06160396 -0.84525615 0.10070528
-0.35725278 -0.12782113 -0.013907412 0.46777126 0.054643895 -0.88215876 0.085582674
-0.34704044 -0.12293376 -0.01145306 0.29632786 -0.019355582 -0.95489013 0.11451041
-0.28231364 -0.12077373 -0.010376187 0.24134317 0.010202703 0.97038621 0.11261179
-0.26294929 -0.1254853 -0.01643119 0.47018176 -0.077458277 0.87916398 0.10497079
-0.25801492 -0.12771668 -0.019934686 0.61314136 -0.14636722 0.7762953 0.084260516
-0.19422802 -0.12729461 -0.016375214 0.65724462 -0.029553337 -0.75309771 0.15676075
-0.18032673 -0.12714016 -0.012399091 0.35133693 -0.073637813 -0.93334872 0.11646514
-0.17639688 -0.12758821 -0.011628127 0.30854988 -0.023503991 -0.95091772 0.11618429
0.03322098 -0.12222605 -0.016451638 0.82562578 0.30535877 -0.4744451 0.15119681
0.18429127 -0.12364022 -0.017783519 -0.99991888 0.012629166 -0.0016410534 0.1380274
0.21649709 -0.12431711 -0.016748047 -0.3236059 0.066129692 0.94387829 0.096288316
0.22531681 -0.12339693 -0.014466572 -0.18887419 0.32311732 0.92731971 0.17185315
0.23473518 -0.12511988 -0.01283547 -0.18163197 0.40789929 0.89477813 0.15320471
0.24395922 -0.12175931 -0.014285174 -0.10949627 0.46230972 0.87993199 0.17600368
0.25613466 -0.12263852 -0.014975321 0.044519842 0.39836738 0.91614485 0.19548981
0.26105198 -0.12334669 -0.013791055 -0.067154378 0.43351007 0.89864302 0.19186226
0.27405328 -0.12451845 -0.012945148 0.12861006 0.32770708 0.93598479 0.14990704
0.28390816 -0.12627043 -0.013469893 -0.14733644 -0.21424441 -0.96560413 0.11813846
0.29351792 -0.12418572 -0.01433976 -0.18464564 -0.12085073 -0.97534668 0.13392077
0.30378118 -0.12640379 -0.015284096 -0.42936695 0.0095706498 -0.90307945 0.10817724
0.31056243 -0.12623452 -0.018988943 -0.53805047 -0.058458876 -0.84088302 0.1252103
0.48953021 -0.12148827 -0.014562683 -0.99994528 0.0021653832 -0.010236411 0.024353305
0.49172488 -0.12704882 -0.011235575 -0.99866843 -0.023718843 -0.045811698 0.022747265
-0.45368099 -0.1145486 -0.015734777 0.98588639 0.06718228 -0.15334478 0.046595681
-0.44792613 -0.11310432 -0.013095546 0.99657571 0.079142898 -0.023944134 0.03389531
-0.36175096 -0.11498665 -0.01742433 0.4817757 -0.066302121 -0.87378269 0.095405191
-0.35532218 -0.11543779 -0.013302335 0.39237177 -0.062535465 -0.91767842 0.1084028
-0.34192705 -0.11838777 -0.010576832 0.1953239 0.00040542279 -0.98073864 0.10901058
-0.33945459 -0.11753961 -0.010153145 0.16879021 -0.031731322 -0.9851411 0.11849906
-0.2824769 -0.11539597 -0.010328625 0.11012968 0.088067651 0.99000788 0.13364212
-0.27396688 -0.11396921 -0.012807665 0.32857901 0.066799931 0.94211125 0.1153532
-0.26657245 -0.11836727 -0.01496172 0.40999186 0.021489566 0.91183609 0.094741084
-0.20589174 -0.11396275 -0.019481305 0.69837117 0.079921402 -0.7112596 0.06037442
-0.18849272 -0.11467628 -0.01484788 0.42302439 -0.046828493 -0.90490741 0.094078057
-0.17623675 -0.11705221 -0.011584649 0.32677481 -0.0085647972 -0.94506341 0.033257686
0.038621545 -0.1150818 -0.01001356 -0.90599799 -0.016631439 0.42295516 0.25223881
0.064972714 -0.11362067 -0.013997098 -0.92168313 0.37166065 0.1112144 0.23048398
0.18430591 -0.11302532 -0.017714374 -0.9956044 0.064888127 0.067538522 0.16358207
0.21218657 -0.11457003 -0.017160056 -0.033274919 -0.047565613 0.99831372 0.15779325
0.22422455 -0.11703093 -0.012485419 -0.18573484 0.19911017 0.96221501 0.14290141
0.23902649 -0.11389331 -0.012126574 -0.15343502 0.28481093 0.94622427 0.16519271
0.24126603 -0.11783744 -0.012101813 -0.09602116 0.34695199 0.93295461 0.13966106
0.25549865 -0.11345541 -0.011944458 0.04288207 0.25628591 0.96564937 0.14381786
0.26408029 -0.11940418 -0.011866625 0.004520026 0.32444459 0.94589388 0.14176014
0.27961856 -0.11375956 -0.011862228 -0.18855204 -0.048319317 -0.98087382 0.15502967
0.2853103 -0.11174388 -0.01206794 -0.022153432 0.070445694 -0.99726963 0.15602624
0.29333177 -0.11549336 -0.012997123 -0.15830003 -0.088924192 -0.98337871 0.15106876
0.3066901 -0.11187445 -0.016651379 -0.38981211 0.068844393 -0.9183175 0.14497451
0.49094713 -0.11617306 -0.016266959 -0.9984116 0.019592252 0.052825052 0.018519063
-0.45097426 -0.10586678 -0.014776019 0.98139119 0.19119397 -0.017782785 0.036846153
-0.44927824 -0.10883556 -0.012740769 0.98276669 0.17705129 -0.053127196 0.034347672
-0.36362517 -0.10451653 -0.01710555 0.59161288 0.026179824 -0.80579698 0.079851344
-0.35387835 -0.10608479 -0.012597298 0.40287763 -0.028493412 -0.91481018 0.10109868
-0.34781668 -0.10742104 -0.015426864 0.27980298 -0.062690817 -0.95800841 0.16485859
-0.33932614 -0.1036984 -0.010131138 0.13728385 0.14202769 -0.98029649 0.1266748
-0.32215887 -0.10663339 -0.015498761 0.046223868 0.14532077 -0.98830426 0.17848806
-0.31341451 -0.1066446 -0.013694118 0.056265291 0.027203172 0.99804521 0.19392151
-0.30513144 -0.10665505 -0.011232166 0.092788897 -0.10828058 -0.98978049 0.17262548
-0.29324818 -0.10667167 -0.014840079 0.010422337 0.096038848 0.99532306 0.18565768
-0.28589287 -0.10668132 -0.014283565 0.11964115 0.071486235 0.99024016 0.2027728
-0.27491695 -0.10636419 -0.012530906 0.24274997 -0.015767887 0.96996075 0.16064669
-0.26364306 -0.10580637 -0.014784025 0.43714169 0.018644735 0.89919949 0.14294814
-0.25908807 -0.10729289 -0.016371319 0.52455443 0.021165216 0.8511138 0.11653293
-0.24484868 -0.10672992 -0.01709177 0.71887076 -0.01024098 0.69506842 0.089375384
-0.20254377 -0.10252519 -0.018589726 0.68277609 -0.028067611 -0.73008847 0.17664623
-0.19222336 -0.10708851 -0.015841365 0.44187459 -0.021597445 -0.89681679 0.10575838
-0.18635044 -0.1045913 -0.014277385 0.30550054 -0.089208759 -0.94800377 0.075659268
-0.17385344 -0.10539643 -0.013310608 0.47950611 0.0057677273 -0.87751955 0.089177147
0.039610408 -0.10568026 -0.010773384 -0.91563439 0.22688212 0.33187085 0.23155785
0.066093177 -0.10740904 -0.011073568 -0.96249735 0.20991521 0.17185585 0.23681192
0.18472476 -0.10652944 -0.015194726 -0.98037666 0.17967489 0.08110851 0.16384402
0.19362102 -0.10657611 -0.01303745 -0.95129585 0.21010676 -0.22559114 0.20518889
0.20560406 -0.10659144 -0.016451977 0.012862508 0.26463225 -0.96426368 0.22378737
0.21309347 -0.1066008 -0.015438088 -0.087307639 0.13716346 -0.9866932 0.16446544
0.22380006 -0.10644205 -0.012483068 -0.2481795 -0.12923278 0.96005511 0.12273065
0.23234224 -0.10662514 -0.016809706 -0.13150327 -0.20807493 0.96923256 0.15566291
0.24337797 -0.10644896 -0.012078463 -0.02950353 -0.022079132 0.99932081 0.13951732
0.25322121 -0.10357127 -0.012802443 -0.05285025 0.14267081 -0.98835814 0.11603279
0.26585126 -0.10679493 -0.014651051 0.0080029406 -0.088137254 0.99607617 0.14771727
0.27527577 -0.10562744 -0.013240756 0.023594489 0.26200029 -0.96477932 0.17703074
0.28512251 -0.10674161 -0.013480145 -0.075482219 0.21229494 -0.97428602 0.16120261
0.29609054 -0.10495709 -0.013230413 -0.19446191 0.15853478 -0.96801412 0.12314086
0.30449644 -0.10579371 -0.015019556 -0.38060045 0.12551078 -0.91618252 0.11079495
0.31467929 -0.1078187 -0.014050319 -0.5299409 0.084354341 -0.84382874 0.095955156
0.4926075 -0.10657579 -0.014502838 -0.99253184 0.046051744 0.11295953 0.016450133
-0.45641318 -0.096051238 -0.017649679 0.93882394 0.33650187 -0.0733217 0.054959029
-0.36086249 -0.096211389 -0.016666567 0.46635938 0.14582208 -0.87249345 0.061524432
-0.34449768 -0.097187549 -0.011017336 0.25544146 0.16766262 -0.95217592 0.095534757
-0.33945921 -0.091177762 -0.010153941 0.19025338 0.17781286 -0.96549797 0.081090868
-0.28029227 -0.095892191 -0.010965024 0.19145858 -0.18928644 0.96307546 0.13009416
-0.27246609 -0.095304705 -0.013244857 0.34285319 -0.17676267 0.92260861 0.12870745
-0.20379505 -0.09716364 -0.018922947 0.78334558 -0.0029472935 -0.62157959 0.15205243
-0.19844864 -0.098145083 -0.017499179 0.61069137 -0.011962705 -0.79177833 0.16005345
-0.18501601 -0.09347225 -0.013922019 0.56578994 -0.083707422 -0.82028943 0.16036917
-0.17789276 -0.093233325 -0.01202508 0.59934008 0.0090090642 -0.80044383 0.14180768
0.064373203 -0.096070625 -0.015561338 -0.98516482 -0.032131765 0.16857554 0.21520352
0.18468641 -0.097197592 -0.015917843 -0.98489034 0.015869157 0.17245071 0.18164389
0.2093108 -0.095556855 -0.018495355 -0.15206651 0.091873668 -0.98409086 0.17847316
0.21358517 -0.094534427 -0.016510639 -0.092245646 -0.14629143 0.98493123 0.10372935
0.22193326 -0.095003605 -0.012634372 -0.25049922 -0.16219424 0.95443338 0.085740313
0.25617227 -0.09337078 -0.011937012 -0.092064001 0.20708705 -0.97398108 0.082647659
0.27002096 -0.093596429 -0.011864944 -0.080827005 -0.26246846 0.96154934 0.087815002
0.28125882 -0.09711571 -0.011861763 -0.03347085 0.16611674 -0.98553789 0.087221548
0.291159 -0.093163133 -0.01266435 -0.13230285 0.14777638 -0.98013169 0.064025126
0.30497578 -0.092884354 -0.01575998 -0.36095157 0.1573631 -0.91921204 0.070538163
0.49335304 -0.092566803 -0.014761503 -0.99682939 0.079566367 0.00065563282 0.021305569
-0.46277437 -0.084265724 -0.014724097 0.89533645 0.44517928 -0.013711607 0.024926683
-0.45908988 -0.087837338 -0.012830906 0.90875769 0.41731504 -0.0027638911 0.027288526
-0.35251558 -0.085084602 -0.012391282 0.40701309 0.11929298 -0.905599 0.032263763
-0.34546185 -0.087765716 -0.01118255 0.31526721 0.19815566 -0.92808449 0.06736102
-0.28281966 -0.088027924 -0.010228772 0.1510139 -0.094647348 0.98399019 0.049230356
-0.27419195 -0.084931873 -0.012742092 0.2600514 -0.097608939 0.96064854 0.057489239
-0.26279101 -0.085940748 -0.016506011 0.45756334 -0.11803854 0.88130736 0.066219144
-0.20343268 -0.086297892 -0.018826444 0.51925671 -0.10162656 -0.84855431 0.17107224
-0.19529247 -0.082607195 -0.016658679 0.42152143 0.03063147 -0.90630096 0.17524347
-0.18516511 -0.082978293 -0.013961722 0.61752039 0.014028419 -0.78642982 0.15701635
-0.17426345 -0.080491677 -0.011058574 0.69328773 0.084242262 -0.71572018 0.11928429
0.038065854 -0.084422894 -0.014029048 -0.69332081 -0.019471943 0.720366 0.25189549
0.063342035 -0.086727455 -0.018251896 -0.85950416 -0.21290857 0.46467474 0.2080224
0.20718306 -0.082316414 -0.019483324 -0.15265113 0.039602254 0.9874863 0.15796193
0.21288475 -0.086988762 -0.016835865 -0.27686113 -0.026396997 0.96054727 0.064661682
0.22548932 -0.083106108 -0.012276239 -0.16734527 -0.062314473 0.98392707 0.016555682
0.23549564 -0.08168868 -0.01216561 -0.083266847 -0.075396091 0.993671 0.012669903
0.24495694 -0.085782409 -0.012061007 -0.015694851 -0.10824422 0.99400038 0.023498408
0.25461054 -0.085212968 -0.011954279 -0.028394649 -0.13739108 0.99010986 0.026328174
0.26513922 -0.086858951 -0.011874658 0.020803101 0.24969119 -0.96810192 0.057940222
0.27525938 -0.084867492 -0.011863462 -0.011733185 -0.12830639 0.99166518 0.03676166
0.28623486 -0.086261958 -0.012046562 -0.16126809 0.085028999 -0.9832409 0.022331946
0.29126406 -0.081519216 -0.012680436 -0.18660526 0.076164782 -0.97947812 0.017254585
0.30616713 -0.085891806 -0.016335702 -0.38928738 0.021042913 -0.92087591 0.022165375
0.31026196 -0.080730043 -0.018807547 -0.48602778 -0.011782545 -0.87386394 0.019673828
0.49403584 -0.083390638 -0.010325434 -0.99351764 0.083384797 -0.077264152 0.019141024
-0.46792287 -0.074465558 -0.011313106 0.93487191 0.35453656 -0.01784076 0.015756799
-0.36368325 -0.075006649 -0.019072393 0.6170162 -0.010154393 -0.78688496 0.017692901
-0.35543799 -0.074396841 -0.013321205 0.40965587 0.038733535 -0.91141742 0.0078642908
-0.3437891 -0.075250402 -0.010895913 0.23424427 0.0086715641 -0.97213912 0.0060759233
-0.281735 -0.076363511 -0.010544753 0.20548451 0.012429695 0.97858143 0.0061678095
-0.27393568 -0.074016094 -0.01281676 0.33655167 -0.0036990412 0.94165766 0.0061500194
-0.26474941 -0.073996909 -0.015714373 0.449662 -0.026467355 0.89280653 0.0053075794
-0.19394033 -0.074509554 -0.0162986 0.46918559 0.026428655 -0.88270408 0.13462166
-0.18650253 -0.073897816 -0.014317888 0.5856818 0.039635163 -0.8095715 0.14928634
-0.1740678 -0.072130017 -0.015930379 0.72855175 0.12930197 -0.67267632 0.15119949
0.036906593 -0.074060455 -0.016472569 -0.61227721 -0.28247494 0.73846096 0.21669766
0.063492797 -0.073050879 -0.017858533 -0.8975774 0.10195433 0.42890558 0.19805646
0.18497157 -0.074406937 -0.014571421 -0.98568743 -0.01728962 0.16769397 0.14847291
0.20712242 -0.07361111 -0.019511487 -0.18885748 -0.040910821 0.98115194 0.10042476
0.21655072 -0.074717261 -0.015133641 -0.35496277 0.013184318 0.93478745 0.0051680706
0.22098514 -0.075718962 -0.01307461 -0.24932054 -0.014804812 0.96830779 0.0070375595
0.23459132 -0.079182126 -0.012175607 -0.11096387 -0.024646016 0.99351883 0.0047319527
0.24770553 -0.076653853 -0.012030618 -0.014281943 -0.006963077 0.9998737 9.0130641e-05
0.25154588 -0.076154292 -0.01198816 -0.010096908 -0.0064008832 0.99992853 5.8949234e-05
0.26511618 -0.078894027 -0.011866332 0.0005290705 -0.022105692 0.99975544 0.0005439829
0.27036861 -0.073865503 -0.011864845 0.01316386 -0.00023612539 0.99991328 0.0002025444
0.2824764 -0.075474471 -0.011861418 -0.10547432 -0.0023302895 -0.99441928 0.003930632
0.29482928 -0.074292675 -0.013226477 -0.24054094 0.029070331 -0.97020364 0.0049745212
0.49358839 -0.076622866 -0.017500125 -0.99807924 0.037532222 0.049286101 0.019052278
-0.47136313 -0.064419925 -0.017286759 0.96203089 0.27124482 -0.030378647 0.027240599
-0.46845436 -0.065250851 -0.015971633 0.95351785 0.29614702 -0.055683766 0.023654625
-0.36301014 -0.068939015 -0.018498309 0.59394139 0.0068243816 -0.80447936 0.017231839
-0.35803124 -0.067415379 -0.014251805 0.46795473 -0.0022135207 -0.88374972 0.010984974
-0.34560996 -0.064627051 -0.011207929 0.22448581 -0.0082823737 -0.97444218 0.0040700026
-0.28340793 -0.066592127 -0.010057407 0.17073596 0.0054685585 0.98530167 0.0030484952
-0.26473865 -0.065742567 -0.01549592 0.45479339 0.0057739965 0.89057821 0.0063205287
-0.25987345 -0.060508572 -0.018258126 0.5167377 0.016863864 0.85597759 0.0093860412
-0.19503541 -0.066474929 -0.016590223 0.51505399 0.11305998 -0.84966868 0.10285433
-0.18010716 -0.060943827 -0.012614778 0.44054571 0.063909829 -0.89545238 0.072944194
-0.17498523 -0.065962389 -0.01196195 0.53367877 0.010272704 -0.84562486 0.11688095
0.037035678 -0.063287348 -0.016200472 -0.34746426 -0.12985502 0.92865831 0.28195947
0.063978508 -0.06460312 -0.016591182 -0.94862264 -0.021265594 0.31569439 0.24048172
0.1858549 -0.067829467 -0.010400756 -0.99764669 -0.046063662 0.050786115 0.11086053
0.21682747 -0.069423899 -0.015005152 -0.3218416 0.0048184968 0.94678128 0.0058720536
0.22518569 -0.06370645 -0.012279596 -0.18834466 -0.019094707 0.98191732 0.0057429243
0.23152795 -0.060601108 -0.012209477 -0.10572013 -0.011617876 0.99432802 0.003845853
0.24532728 -0.065220252 -0.012056912 -0.02499033 -0.0028110631 0.99968374 0.00049374148
0.25830364 -0.064401999 -0.011913448 -0.0049659992 0.00066764979 0.99998748 1.7548507e-05
0.26123139 -0.064571843 -0.01188108 -0.0031217379 0.0004355181 0.99999505 1.964675e-05
0.28790507 -0.06501919 -0.012165979 -0.13194425 0.01081505 -0.99119812 0.0044437204
0.29423624 -0.065878212 -0.013135655 -0.21693154 0.0050977096 -0.97617352 0.0041333782
0.30834505 -0.066962749 -0.017650416 -0.44103232 0.015770007 -0.8973527 0.010134135
0.310054 -0.06952174 -0.018682009 -0.45154661 0.0070919087 -0.89221936 0.010179068
0.49537969 -0.066290013 -0.01144367 -0.99982262 0.018606177 -0.0029340801 0.022556692
-0.47332144 -0.054928523 -0.015491788 0.97834492 0.20421192 -0.03374308 0.016654976
-0.36322188 -0.05346439 -0.018678896 0.56360966 -0.025500774 -0.82564753 0.01957125
-0.3563768 -0.052394681 -0.01305294 0.45347819 -0.0069267587 -0.89124042 0.014160734
-0.34559119 -0.055188965 -0.011204717 0.26893824 0.0071857711 -0.96313065 0.0076838257
-0.33892792 -0.054370254 -0.010062899 0.18396656 0.0072713345 -0.98290557 0.0037413805
-0.27464068 -0.057760768 -0.012611379 0.29846823 0.0062174434 0.95439929 0.0076704868
-0.26448938 -0.05668354 -0.01562807 0.44918969 0.02452293 0.89309978 0.0065278579
-0.19116452 -0.056969017 -0.015559395 0.50255609 0.048740361 -0.86316961 0.045741599
-0.1827902 -0.054624721 -0.013329279 0.45104891 0.0014150875 -0.8924982 0.043198168
-0.17718798 -0.058046494 -0.011837386 0.40369463 -0.018964481 -0.91469723 0.049334172
0.038194627 -0.05617965 -0.013757583 -0.75905049 -0.078578979 0.64627218 0.21425354
0.063470595 -0.055565011 -0.017916445 -0.94986677 -0.069063425 0.30493164 0.19893096
0.20997813 -0.058696907 -0.018185493 -0.17432173 0.0066738394 0.98466611 0.089674786
0.21587861 -0.052898347 -0.015445736 -0.34026742 0.024743678 0.9400031 0.0025959231
0.22479275 -0.055762853 -0.012611212 -0.21913196 0.01412986 0.97559285 0.0071233972
0.23411639 -0.051425647 -0.012180858 -0.10418795 0.0053083869 0.99454349 0.0033277557
0.24838011 -0.058624625 -0.012023161 -0.011158522 0.00052224111 0.99993753 1.0458368e-05
0.25281608 -0.052830059 -0.011974118 -0.010872857 0.00014732053 0.99994093 1.0590654e-05
0.26403049 -0.05488025 -0.011871278 -0.00041985445 -0.001136489 0.99999928 1.5357718e-05
0.2862522 -0.055814136 -0.01198539 -0.11632652 0.0013595718 -0.99321014 0.0036248339
0.29448664 -0.052857164 -0.013173997 -0.24864264 -0.02159261 -0.96835458 0.0061288695
0.30615956 -0.054467857 -0.016331125 -0.42820799 -0.014223151 -0.90356833 0.0087984344
0.49556404 -0.055703927 -0.015132882 -0.99616504 -0.015335315 0.086139604 0.016894503
-0.47504711 -0.044095669 -0.014594431 0.97518182 0.22130224 0.0067672562 0.013907652
-0.36291283 -0.048810996 -0.018415309 0.57373154 -0.011458105 -0.81896329 0.018982438
-0.35616693 -0.044641774 -0.013636749 0.39223692 -0.048600312 -0.91857946 0.0079309456
-0.34834179 -0.04393886 -0.011676062 0.32820866 -0.022001855 -0.94434899 0.0085961344
-0.28188518 -0.044223942 -0.010501001 0.24021666 0.004405607 0.97070926 0.0057992656
-0.27900863 -0.042400111 -0.01133897 0.24626227 0.00083383895 0.96920294 0.0053851046
-0.26557297 -0.045987621 -0.015533061 0.45369464 -0.0021352903 0.89115471 0.0068648933
-0.19407032 -0.044885103 -0.016333215 0.5690006 0.031064497 -0.82175016 0.063330956
-0.18583336 -0.044414442 -0.014139682 0.42842549 0.0033143254 -0.90357107 0.034107544
-0.178987 -0.04360076 -0.012316476 0.35865358 -0.00014415372 -0.93347073 0.02397261
0.063499354 -0.049949124 -0.017841421 -0.92442501 -0.28909108 0.24872628 0.21555448
0.18561298 -0.049656454 -0.011542897 -0.99175429 0.06511911 0.11037615 0.11761965
0.20838225 -0.042340621 -0.018926512 -0.12815276 0.066598713 0.98951578 0.12621169
0.2146569 -0.043099929 -0.016013008 -0.35578686 0.0013788599 0.93456608 0.0054271235
0.22737005 -0.043501299 -0.012255445 -0.17182238 -0.013668941 0.98503309 0.0072016278
0.23337805 -0.049767595 -0.012189021 -0.10500446 0.0094694886 0.99442667 0.0038003214
0.25736341 -0.042924728 -0.011923842 -0.0064047016 8.1183651e-05 0.99997956 1.0976535e-05
0.26871186 -0.046674859 -0.011865315 0.012160252 -0.0035906038 0.99991959 0.00016679525
0.27286828 -0.045810983 -0.011864139 0.026036704 -0.0056277388 0.99964511 0.00038299992
0.28434148 -0.041749049 -0.012040052 -0.10084948 -0.00012787506 -0.99490166 0.0037303483
0.301328 -0.045632262 -0.014221809 -0.32271135 -0.028723771 -0.94606143 0.0077968962
0.31059444 -0.046310239 -0.019008271 -0.47510359 0.013679833 -0.87982351 0.012331918
0.49492642 -0.043688338 -0.015932553 -0.98654568 -0.063817784 0.15051518 0.030332675
-0.48093086 -0.031687468 -0.013275387 0.97059715 0.23538148 0.050365858 0.010711876
-0.47767979 -0.03319589 -0.014359704 0.9709276 0.23366323 0.051972155 0.01072353
-0.35646456 -0.033444367 -0.01352793 0.409576 -0.013131846 -0.91218144 0.0066762618
-0.33931911 -0.03832636 -0.01012993 0.18177871 0.011063349 -0.9832772 0.0031199162
-0.27671707 -0.03314282 -0.012006514 0.27274114 -0.01855881 0.96190846 0.0060340022
-0.20602591 -0.031272508 -0.019517034 0.91491592 0.10550386 -0.38961241 0.093095288
-0.19238792 -0.033236817 -0.015885187 0.5955891 0.090210453 -0.79820776 0.075309657
-0.18560104 -0.034312218 -0.014077846 0.4152607 0.057301559 -0.90789592 0.037301391
-0.17394547 -0.038946144 -0.010974385 0.2959618 -0.0093867164 -0.95515364 0.0086999647
0.032662831 -0.033356763 -0.016177472 -0.61346418 0.42528567 0.66542757 0.14974806
0.047810797 -0.031998381 -0.013777771 -0.19928989 0.65139186 0.73210126 0.19714509
0.053649884 -0.032595288 -0.011911627 -0.65975279 -0.74438667 -0.10302821 0.20817046
0.062644079 -0.033732146 -0.012573878 -0.71197635 -0.67451996 0.19522451 0.14607339
0.18393812 -0.034504086 -0.019450938 -0.9836303 -0.017697185 0.1793272 0.1083422
0.2161433 -0.03699369 -0.015322831 -0.33652994 0.0068230815 0.94164801 0.0067730304
0.22626275 -0.034152113 -0.012299404 -0.21260267 0.01572557 0.97701216 0.0069018272
0.23287003 -0.037042622 -0.012194638 -0.092824116 0.0058261808 0.99566543 0.0032567696
0.25566754 -0.033821467 -0.011942592 -0.0072732419 -0.00046996021 0.99997342 1.0414219e-05
0.26606491 -0.033926364 -0.011866064 0.001960658 0.00081166998 0.99999774 8.1985927e-05
0.2744163 -0.033227846 -0.0118637 0.034318995 -0.0046875961 0.9993999 0.00051897549
0.28439972 -0.036006939 -0.011860874 -0.097769462 0.0073603531 -0.99518186 0.0035554857
0.29143551 -0.037051916 -0.012706695 -0.19302675 -0.0065475344 -0.98117167 0.0064119976
0.30596232 -0.037113763 -0.016212074 -0.39890012 0.0062809181 -0.91697288 0.0067122895
0.31119841 -0.036756709 -0.019372849 -0.4791916 -0.0049074995 -0.87769657 0.01215395
0.48885351 -0.033506624 -0.018266223 -0.96441621 -0.098558672 0.24533159 0.032277104
0.49498376 -0.03488639 -0.015186794 -0.97242498 -0.097137757 0.21202338 0.033007588
-0.48174524 -0.025039025 -0.015536342 0.95647985 0.29166558 -0.0087976949 0.024814557
-0.4772841 -0.025441432 -0.017053584 0.96312165 0.26529732 0.04487785 0.018029576
-0.36379665 -0.021495052 -0.019169128 0.62674409 0.0041752621 -0.77921402 0.016455175
-0.34543738 -0.025467271 -0.011178357 0.29959142 -0.011677643 -0.95399612 0.006856849
-0.28156671 -0.022183267 -0.010593773 0.22257 -0.020945771 0.97469169 0.0044666473
-0.26118332 -0.026876386 -0.017076522 0.4651114 -0.016672594 0.88509512 0.0085684611
-0.25880674 -0.026130039 -0.019220382 0.53825253 -0.0034967603 0.84277636 0.013126241
-0.20248811 -0.027221322 -0.018574905 0.76314962 0.059698217 -0.64345849 0.097200304
-0.1969054 -0.023743834 -0.017088309 0.67804617 0.089351609 -0.72956812 0.086122438
-0.17357658 -0.02639034 -0.010877781 0.28026292 0.011531901 -0.95985401 0.006658454
0.18464419 -0.025189441 -0.016117167 -0.99040151 -0.094972 0.10042503 0.10235434
0.21893567 -0.021303438 -0.014026245 -0.26005402 0.00015067765 0.96559405 0.0058736107
0.22271563 -0.020077607 -0.012306903 -0.25480792 0.0071108439 0.96696556 0.0057674134
0.23770675 -0.024688758 -0.012141164 -0.058969248 -0.0014838059 0.99825871 0.001549029
0.24222022 -0.026734147 -0.012091264 -0.032876268 -0.0036074098 0.99945295 0.00078152207
0.25825703 -0.028716452 -0.011913963 -0.003739418 0.0010167393 0.99999255 1.7103572e-05
0.26461571 -0.024615273 -0.011866474 0.00083446805 -0.00072426797 0.99999934 7.6745717e-05
0.27344096 -0.023522958 -0.011863976 0.037098169 0.0016318248 0.99931031 0.00070427119
0.28756616 -0.022594944 -0.012120973 -0.11219649 0.021099884 -0.99346203 0.0033650424
0.29609603 -0.025680786 -0.013420488 -0.27235231 0.00054175011 -0.96219748 0.0067344992
0.3030684 -0.022240657 -0.015042447 -0.31855178 0.0025145167 -0.94790214 0.0061022611
0.48573869 -0.020412067 -0.017988861 -0.96116012 -0.036461927 0.27357197 0.044867087
0.49807033 -0.021202048 -0.010712879 -0.98689204 0.005917442 0.16127361 0.0645805
-0.48402792 -0.013983363 -0.015302827 0.97535229 0.20781256 0.074173994 0.023632636
-0.47963154 -0.016113598 -0.011600073 0.96241713 0.2586852 0.082675815 0.013954884
-0.36233997 -0.013666622 -0.0179267 0.52873129 0.0216894 -0.84851211 0.014943438
-0.35533547 -0.013448538 -0.013921521 0.38507238 0.025345607 -0.92253828 0.0067050336
-0.34481195 -0.014850873 -0.011071187 0.26959732 0.0067045344 -0.96294981 0.0065356623
-0.28033257 -0.016003057 -0.010953295 0.22248846 0.01207861 0.97486049 0.0061481404
-0.27118325 -0.013489719 -0.013618563 0.39003852 0.0051720873 0.92078406 0.0057638162
-0.26338848 -0.016601125 -0.016142219 0.42517969 0.030848386 0.90458316 0.0049569621
-0.20495349 -0.01510255 -0.019231442 0.95878923 0.10321098 -0.26470894 0.089501441
-0.19466612 -0.015127133 -0.016492818 0.76996213 0.047342412 -0.63633096 0.10910666
-0.18563782 -0.015906103 -0.014089569 0.37718993 -0.00463012 -0.92612433 0.023457002
-0.17406376 -0.019968078 -0.011008278 0.29555929 0.027352059 -0.95493281 0.0075911507
-0.13287938 -0.016133582 -0.0133968 0.19328301 -0.1501542 -0.96958512 0.083671592
-0.12607232 -0.014753208 -0.013259674 0.37404442 -0.19409308 -0.90687305 0.10988003
0.18405305 -0.012219269 -0.018908279 -0.98293054 0.015094629 0.1833567 0.11516022
0.21505408 -0.013298318 -0.015828582 -0.29857469 0.0099445228 0.95433444 0.0053493246
0.23644248 -0.013618355 -0.012155142 -0.055299476 0.006850373 0.99844635 0.0014194855
0.24475503 -0.013395187 -0.01206324 -0.033266585 -0.0022594333 0.99944395 0.00081572984
0.26279378 -0.016984452 -0.01186699 -0.0042843218 6.9943206e-05 0.99999082 1.4395963e-05
0.27901369 -0.013762735 -0.011862399 -0.044851705 0.0016470555 -0.99899232 0.00069732609
0.28465146 -0.014758481 -0.011990949 -0.087952942 -0.00066751719 -0.99612445 0.0026251888
0.2971026 -0.013954443 -0.013574653 -0.2466561 0.0007305693 -0.9691028 0.005675124
0.30108231 -0.01086393 -0.014184179 -0.32424387 -0.023137217 -0.94569051 0.0059827371
0.31058842 -0.016928457 -0.019004628 -0.49546924 -0.020816889 -0.86837602 0.0096688205
0.48256221 -0.017696492 -0.019157499 -0.95629489 -0.055239689 0.28713873 0.041903377
0.49530092 -0.014883803 -0.015772182 -0.94645154 0.037015166 0.32071677 0.05567668
-0.49034065 -0.0027566797 -0.013025247 0.99637979 0.057627909 0.062500641 0.037737008
-0.48599625 -0.0045493981 -0.015898181 0.99664491 0.080142111 0.01661733 0.038663346
-0.36118853 -0.0031079799 -0.016944647 0.52482283 0.0082102111 -0.85117191 0.016333593
-0.3532691 -0.0019692481 -0.012945026 0.37356231 0.020613939 -0.92737597 0.0095054414
-0.34508935 -0.0032462627 -0.011118715 0.2968654 0.0036413686 -0.95491242 0.0068839295
-0.28195137 -0.0074732117 -0.010481721 0.17931139 -0.0041309451 0.98378366 0.0030103801
-0.2784799 -0.0036651324 -0.011492984 0.27007142 0.0057758442 0.96282297 0.0058586933
-0.26234439 -0.0066942587 -0.016523391 0.45757768 0.022026811 0.88889682 0.0057564336
-0.20322505 -0.0082896277 -0.018771023 0.90128607 -0.075334214 -0.42662412 0.10932189
-0.19362578 -0.0030281437 -0.01621742 0.64271772 -0.12087875 -0.75650656 0.12867199
-0.18574591 -0.0034759825 -0.014119931 0.45819277 -0.038906317 -0.88800097 0.089338101
-0.17679915 -0.0036152294 -0.011738476 0.25713608 1.9380348e-05 -0.96637517 0
-0.13568208 -0.0009094486 -0.011600673 0.14216365 0.021600597 -0.98960739 0.085677996
-0.12556997 -0.0040934039 -0.014565056 0.45668522 -0.082096815 -0.88583219 0.10031487
-0.073549934 -0.0015975967 -0.01525195 0.91593057 0.40133384 0.0015031324 0.096055724
0.18395096 -0.0093740504 -0.019390244 -0.98053318 0.030201854 0.19401658 0.12306984
0.2078968 -0.0017591231 -0.019151922 -0.25510758 0.085292883 0.96314341 0.10402452
0.21619299 -0.0043026493 -0.01529976 -0.30350056 -0.0015317672 0.95283002 0.0064534787
0.22410017 -0.0059036119 -0.012291597 -0.20490217 0.012455715 0.9787032 0.0070707272
0.23814867 -0.0033466555 -0.012136279 -0.060418449 0.0056348629 0.9981572 0.0015921012
0.24429053 -0.005754862 -0.012068374 -0.033225209 -0.0048096571 0.99943632 0.00079216203
0.25144351 -0.0037119985 -0.011989292 -0.009406928 -0.00019109057 0.99995571 4.4075582e-06
0.26161423 -0.0026748776 -0.011882576 -0.0032317222 0.00077036303 0.99999446 2.0729971e-05
0.28308609 -0.0035609156 -0.011861246 -0.073548555 -0.0086167892 -0.99725443 0.0014816186
0.2926515 -0.0037790239 -0.012892935 -0.18823062 -0.005374447 -0.98211014 0.0052354326
0.48657998 -0.0054271817 -0.018078877 -0.93368512 0.01355592 0.35783839 0.048437711
0.49627516 -0.0048816809 -0.016117256 -0.92878133 0.030269438 0.36938998 0.058847178
-0.49018657 0.002587233 -0.011688937 0.99579644 -0.041978955 0.081407622 0.032427344
-0.48698854 0.0057781762 -0.014304004 0.99541301 -0.060742322 0.073914319 0.031000104
