# .PCD v0.7 - Point Cloud Data file format
VERSION 0.7
FIELDS x y z normal_x normal_y normal_z curvature
SIZE 4 4 4 4 4 4 4
TYPE F F F F F F F
COUNT 1 1 1 1 1 1 1
WIDTH 575
HEIGHT 1
VIEWPOINT 0 0 0 1 0 0 0
POINTS 575
DATA ascii
-0.095883138 -0.27697363 0.025152797 0.023254482 0.2558139 -0.96644634 0.017635491
-0.088186666 -0.27663428 0.025561303 0.05181149 0.25713742 -0.96498495 0.018046629
-0.07777074 -0.27861598 0.025839172 0.11926378 0.26184037 -0.95771384 0.015913611
-0.067226566 -0.2746799 0.026660856 0.072927326 0.18311128 -0.98038352 0.0089964047
-0.05181706 -0.27408504 0.02730329 0.018078176 0.16824108 -0.98558009 0.0062101223
-0.047080692 -0.27459732 0.027469749 -0.028782509 0.20285557 -0.97878551 0.013242213
-0.032217346 -0.27640986 0.027844951 -0.018150941 0.36075199 -0.93248516 0.031743728
-0.024998058 -0.27663413 0.028025137 0.0069958423 0.43147457 -0.90209794 0.028823454
-0.01551487 -0.27659905 0.028209101 -0.0012186496 0.46644872 -0.88454735 0.031038359
-0.0056470009 -0.27154323 0.02901281 -0.015147454 0.3917335 -0.91995406 0.022221524
0.0072368854 -0.27764392 0.028202372 0.040790033 0.49107602 -0.87016118 0.032766987
0.018107086 -0.27435583 0.028431259 -0.028495876 0.40158287 -0.91537923 0.031367619
0.026080089 -0.27431273 0.028212762 0.033739328 0.43494612 -0.8998242 0.037050996
0.030107886 -0.27695405 0.027848572 0.083551392 0.39875478 -0.91324353 0.042247288
0.04404201 -0.27189451 0.027856529 0.024718711 0.24497022 -0.96921539 0.023541387
0.054896668 -0.27666593 0.026928548 -0.039684676 0.12235823 -0.9916923 0.00019909395
0.065585911 -0.27456188 0.026728585 -0.072506763 0.14281875 -0.98708946 0.005250161
0.078868121 -0.2742371 0.026256651 -0.076985642 0.18272728 -0.98014486 0.0088186217
0.088459179 -0.27985519 0.025193086 -0.079163201 0.26998442 -0.95960492 0.014019731
0.096378081 -0.27582094 0.025243809 -0.015973443 0.22514726 -0.97419375 0.013682197
0.10220349 -0.27702215 0.024822678 0.0092199799 0.21785493 -0.9759376 0.016594358
0.12910871 -0.27346277 0.023863522 -0.079267666 0.10536513 -0.99126929 0.00015703608
0.14787072 -0.27397901 0.021494253 -0.20878282 0.11182557 -0.9715476 0.0021867887
-0.15269856 -0.26295412 0.021717152 0.27023306 0.10982112 -0.95651102 0.0074988552
-0.1453338 -0.26692298 0.022749487 0.18666412 0.10082586 -0.97723621 0.0027624152
-0.13803382 -0.26588097 0.023797253 0.11182321 0.11473048 -0.98708278 0.00063975836
-0.12303011 -0.26302585 0.025061212 0.075897984 0.11240265 -0.99075991 0.00028006409
-0.1055003 -0.26479366 0.025921568 0.058341429 0.14441308 -0.98779613 0.0016631844
-0.093458712 -0.26429823 0.026610306 0.054101124 0.18379737 -0.98147422 0.0062435041
-0.086516678 -0.26382321 0.02701151 0.059597686 0.19613273 -0.97876459 0.0075508193
-0.077211015 -0.26683828 0.027139395 0.064069495 0.18539658 -0.98057288 0.0061744405
-0.065449409 -0.26546067 0.027729686 0.058262438 0.17924225 -0.98207825 0.0020796615
-0.046237018 -0.26462504 0.028514966 0.032896858 0.23855303 -0.97057205 0.0098603824
-0.034874253 -0.26368687 0.029103497 0.049155001 0.296857 -0.95365596 0.010650254
-0.029715966 -0.26072553 0.029852565 0.035247918 0.24012372 -0.97010213 0.0037160094
-0.014606861 -0.26456624 0.029659521 0.031700879 0.33962455 -0.94002676 0.016456774
-0.0048725833 -0.26845631 0.029353119 -0.0025537789 0.35344857 -0.93545043 0.019598207
0.0030730155 -0.26902494 0.029359072 0.01823475 0.37360585 -0.92740828 0.021997606
0.039925192 -0.26999697 0.028221883 -0.016616045 0.24638528 -0.96902955 0.015223835
0.043863676 -0.26412076 0.028651256 -0.055372234 0.2111039 -0.97589403 0.0040660049
0.051198833 -0.26439875 0.028355917 -0.05554558 0.17637898 -0.98275387 0.0029419907
0.065248035 -0.26810122 0.027444808 -0.055180367 0.15564488 -0.98627067 0.0015024663
0.077421382 -0.26205224 0.027647419 -0.058617491 0.151079 -0.98678225 0.0010933592
0.085291326 -0.26575804 0.026859403 -0.052157793 0.18217805 -0.98188114 0.0063129105
0.094825394 -0.2653037 0.026429167 -0.061965864 0.13174474 -0.98934501 0.00065538083
0.1053884 -0.26410928 0.025993161 -0.057369955 0.11975764 -0.99114418 0.00022805472
0.11292013 -0.26542163 0.025382552 -0.057155516 0.11440402 -0.99178869 0.00012088662
0.13649175 -0.26547062 0.023954198 -0.11499924 0.10313047 -0.98799753 0.00050841033
0.14713238 -0.2650792 0.022574753 -0.24082437 0.085997343 -0.96675134 0.0038387058
0.15042543 -0.26558691 0.021888148 -0.24882193 0.091686688 -0.96419978 0.0042627645
-0.14280319 -0.25461665 0.024465615 0.16694236 0.1130716 -0.97946161 0.0018771399
-0.13621823 -0.25395861 0.025227174 0.10343568 0.12074196 -0.98728031 0.000976004
-0.12906502 -0.25121012 0.025976479 0.097926319 0.14719863 -0.98424745 0.0016522947
-0.11086406 -0.25686932 0.026441418 0.067883998 0.14858437 -0.98656696 0.0016803487
-0.10385566 -0.25263014 0.027333729 0.093295425 0.2343569 -0.96766359 0.0053756796
-0.097089916 -0.25571826 0.027391205 0.086706646 0.19311643 -0.97733718 0.0035191539
-0.07438653 -0.25590277 0.028703969 0.084852092 0.27265888 -0.95836174 0.0064758984
-0.055176575 -0.25808027 0.029220166 0.054348931 0.28462583 -0.95709687 0.0071859593
0.056690849 -0.25678384 0.029383577 -0.071686529 0.25173786 -0.96513683 0.006013094
0.062421124 -0.25510198 0.029424027 -0.074693091 0.27437824 -0.95871663 0.0070716515
0.076572776 -0.25477412 0.02876717 -0.073256865 0.24167687 -0.96758759 0.0062891501
0.080139816 -0.25120664 0.029189527 -0.076748528 0.27622515 -0.95802367 0.0070626643
0.097013898 -0.25459859 0.027445024 -0.082362488 0.18781428 -0.97874516 0.0035836056
0.10597067 -0.25484514 0.026940737 -0.061390664 0.16928549 -0.98365319 0.002039698
0.11463469 -0.25256768 0.026683122 -0.085860342 0.18267338 -0.97941744 0.0029978438
0.12526917 -0.25240284 0.02607682 -0.089219905 0.18869132 -0.97797513 0.0024383985
0.14576614 -0.25440112 0.023966722 -0.21185024 0.11341766 -0.97069871 0.0031108309
0.15494837 -0.25357547 0.022166284 -0.3379339 0.07582166 -0.93811071 0.010712687
0.16308343 -0.255808 0.020125434 -0.41736406 0.079737842 -0.90523428 0.0097564356
-0.16498333 -0.24155208 0.020839676 0.48835912 0.074041724 -0.86949593 0.017538564
-0.15396687 -0.2470082 0.023077976 0.29494223 0.13014619 -0.94661027 0.008241415
-0.14554961 -0.24529892 0.025001654 0.20414449 0.13950561 -0.9689495 0.0055420846
-0.1382229 -0.24310227 0.026213376 0.19077872 0.19999617 -0.96104378 0.0067520542
-0.12478043 -0.24707246 0.026697416 0.1146917 0.22702318 -0.96711236 0.004307454
-0.11644697 -0.24782687 0.027101131 0.098919988 0.23458195 -0.96705014 0.0037677779
-0.10534523 -0.24593678 0.028306846 0.094181165 0.3067109 -0.94713163 0.0052283816
-0.093450554 -0.24370126 0.029694306 0.1235329 0.35114399 -0.92813659 0.0047404845
-0.082826383 -0.24717256 0.029745847 0.087433584 0.35966703 -0.92897522 0.0051335674
0.078915983 -0.24909391 0.029667504 -0.10535654 0.31079203 -0.94462073 0.0068686465
0.089082122 -0.24760517 0.029206159 -0.11107622 0.29884425 -0.94781548 0.0077330535
0.098718867 -0.24327604 0.029303174 -0.1124241 0.3335416 -0.93600792 0.0060623088
0.10416798 -0.24536282 0.028504502 -0.10813816 0.30434579 -0.94640362 0.0057411939
0.11251894 -0.24459149 0.02793682 -0.10715587 0.2666156 -0.95782763 0.0038235437
0.12610938 -0.24522161 0.026814463 -0.10687029 0.2096418 -0.97192025 0.0044710138
0.13516368 -0.24425791 0.026318302 -0.14008488 0.17962743 -0.97370958 0.0042862087
0.14221549 -0.24277604 0.025845055 -0.16285855 0.18961287 -0.96825826 0.0051916204
0.15001887 -0.24962565 0.02362955 -0.25879997 0.13492808 -0.95646065 0.0062555475
0.16384859 -0.24434865 0.020933831 -0.4261432 0.064696014 -0.90233946 0.015997302
-0.16482994 -0.23693004 0.021292238 0.46436203 0.067782417 -0.88304776 0.017684061
-0.15453997 -0.23229137 0.024452232 0.38193491 0.13534746 -0.91422468 0.012636771
-0.14419354 -0.233421 0.026602384 0.26960567 0.23939568 -0.9327392 0.0077466127
-0.13477524 -0.23512983 0.027806764 0.19419117 0.29041955 -0.93698788 0.0068399091
-0.12482601 -0.23585108 0.028784774 0.13941208 0.30691457 -0.94147104 0.0052083
0.1086833 -0.2393 0.029341577 -0.14538887 0.33757827 -0.93000162 0.0058753691
0.12700765 -0.2380296 0.028078359 -0.12872063 0.30839664 -0.94250864 0.0074903429
0.13551116 -0.2381576 0.026983785 -0.14331427 0.23206359 -0.96208501 0.0054637021
0.15477593 -0.23245655 0.024347363 -0.36700368 0.16362806 -0.91571516 0.012258418
0.16357592 -0.23502243 0.021727625 -0.49054262 0.1008006 -0.86556751 0.014569547
-0.16400327 -0.22526407 0.022165515 0.52698737 0.054484587 -0.8481248 0.020301497
-0.15903921 -0.22757009 0.023811979 0.46037847 0.15479 -0.87412351 0.019567095
-0.14298978 -0.22826564 0.028267596 0.28747821 0.27354139 -0.91789508 0.0078362878
-0.13869461 -0.22857456 0.029236533 0.25417891 0.29474339 -0.92115122 0.0073825549
0.13945475 -0.22799315 0.029179491 -0.27070972 0.27385718 -0.92288595 0.0099195736
0.14822978 -0.22945669 0.026622247 -0.3019357 0.18960278 -0.93428344 0.010466984
0.16413707 -0.22025843 0.022546994 -0.56215364 0.085766338 -0.82257366 0.013580931
-0.16421586 -0.21353303 0.022542099 0.59997863 0.10391137 -0.79323888 0.013522612
-0.15780221 -0.21454929 0.025651928 0.48721325 0.15475412 -0.85946167 0.012942095
0.15927529 -0.21364784 0.024766643 -0.51610321 0.16974789 -0.83953744 0.013364498
0.16403407 -0.21369855 0.022714384 -0.58954918 0.1460851 -0.79441226 0.013182041
-0.1557503 -0.20820932 0.029459495 0.53317368 0.25592268 -0.80636811 0.0096272426
0.15721382 -0.204009 0.029632438 -0.5509184 0.24400337 -0.79809225 0.01001818
0.1637163 -0.20609055 0.023700492 -0.66012454 0.1453252 -0.73696417 0.008630068
-0.16529961 -0.19074455 0.025236348 0.73471665 0.14510126 -0.66267413 0.0069993008
0.16608237 -0.19469211 0.023684878 -0.71917588 0.09693715 -0.68803287 0.0084808758
-0.16659519 -0.18358533 0.02439804 0.77212495 0.12911935 -0.62221473 0.0066418918
0.16527076 -0.18630409 0.026773864 -0.74411786 0.11683567 -0.65775222 0.0040864288
0.17057028 -0.18664926 0.02026761 -0.77016824 0.076959327 -0.63318092 0.0043115281
-0.16660397 -0.17356111 0.025706673 0.82229835 0.085416868 -0.56260937 0.0055822376
0.16639614 -0.17534879 0.025546938 -0.78449434 0.061629433 -0.61706603 0.0034118069
-0.17140907 -0.16488743 0.020737264 0.83776188 0.05363556 -0.54339516 0.0031064758
-0.16635936 -0.1648268 0.026145896 0.83716029 0.080505081 -0.54100049 0.0045268154
0.16523628 -0.16068116 0.028517328 -0.84477061 0.052139625 -0.53258252 0.0042331051
0.17075615 -0.16405128 0.021211766 -0.82489318 0.042199645 -0.56371123 0.003722796
-0.17130223 -0.15501159 0.021298099 0.85690421 0.086746976 -0.50812411 0.0074637993
-0.16564628 -0.15135358 0.028390728 0.87456107 0.12182966 -0.46936178 0.023748199
0.16794357 -0.15032005 0.02464439 -0.86867815 0.05753468 -0.49202433 0.023788981
0.17060404 -0.15498221 0.02177101 -0.83810753 0.019491151 -0.54515678 0.0041494598
-0.17022739 -0.14514518 0.022650896 0.85972595 0.1492586 -0.48845997 0.04204154
-0.16681166 -0.14595556 0.026441202 0.88625103 0.10034911 -0.45220485 0.039732914
0.16722283 -0.14470008 0.025999874 -0.88854849 0.07390333 -0.45279109 0.037649598
0.17207424 -0.1418851 0.021195304 -0.87303567 0.11049132 -0.47497413 0.048999775
-0.17175905 -0.1356584 0.021851825 0.89609683 0.16189496 -0.41328016 0.087149277
0.16689742 -0.13601916 0.02691712 -0.89083266 0.18873648 -0.41327438 0.083430119
0.17157678 -0.13213629 0.022069808 -0.88798875 0.17229268 -0.42636988 0.091415182
-0.1735774 -0.12588502 0.020831797 0.90318638 0.20655279 -0.37628484 0.10959941
-0.16710183 -0.1242741 0.027294591 0.880283 0.077487402 -0.46807858 0.16978292
0.16898677 -0.1239045 0.024714012 -0.87859249 0.12096123 -0.46199954 0.13306628
0.1712196 -0.12592043 0.022660146 -0.88190818 0.15208919 -0.44621375 0.12102259
-0.17026548 -0.11920525 0.023880342 0.89189398 -0.0066604861 -0.4521955 0.1329274
0.1669267 -0.11639217 0.02792581 -0.88949579 0.05225756 -0.45394537 0.16618516
0.17298725 -0.11642352 0.021668367 -0.88029581 0.026139127 -0.47370461 0.15211675
-0.17490014 -0.10408604 0.020793922 0.84599161 -0.23129757 -0.48041609 0.12483108
-0.16748209 -0.10737208 0.027939631 0.80386484 -0.13543238 -0.57918859 0.12314548
-0.17536196 -0.093817651 0.020908089 0.82694405 -0.063118815 -0.55873024 0.051185556
-0.16820446 -0.095366806 0.027361423 0.82850301 -0.065449603 -0.55614662 0.040317036
0.16834056 -0.097718507 0.026774695 -0.81314582 -0.068112165 -0.57806104 0.064382426
0.17397013 -0.099867605 0.021657381 -0.81598794 -0.11919515 -0.56564671 0.091154136
-0.17123449 -0.08209838 0.024896644 0.81541187 0.044681739 -0.57715428 0.0032089325
0.17299506 -0.085575014 0.02315479 -0.81715822 0.044746328 -0.57467389 0.0026400683
-0.175372 -0.075059168 0.021799039 0.80894387 0.030279059 -0.58710563 0.00208856
-0.16760285 -0.076197729 0.029630562 0.82217157 0.038688902 -0.56792361 0.0037277176
0.16812451 -0.077111006 0.028495122 -0.82614481 0.033250783 -0.56247586 0.0050458857
0.17450453 -0.074541725 0.022448257 -0.81549114 0.036400232 -0.57762367 0.0030678618
-0.17732929 -0.06562452 0.020649038 0.81298077 0.022974364 -0.58183724 0.0020988069
0.16794831 -0.065352753 0.029565154 -0.81310046 0.030747406 -0.58131087 0.0046041254
0.17461492 -0.065506637 0.022810474 -0.8122822 0.032392319 -0.5823645 0.0035176282
-0.174766 -0.050530449 0.023484189 0.81048536 0.023029912 -0.58530605 0.0024026984
0.16877928 -0.054227009 0.028912129 -0.80525821 0.047248423 -0.5910387 0.0031469811
0.1753127 -0.057343043 0.022615319 -0.8091709 0.028506177 -0.58688152 0.0035691818
-0.17511243 -0.045943052 0.023427835 0.81110215 0.027093409 -0.5842768 0.0023232605
-0.1751128 -0.033985328 0.024018154 0.81119239 0.043847457 -0.58313316 0.0022290442
-0.16936171 -0.030837245 0.029687606 0.81912613 0.021163609 -0.57322294 0.003350371
0.17697726 -0.035577882 0.022286449 -0.80748135 0.019434249 -0.58957291 0.0038047109
-0.17666012 -0.026112333 0.023113543 0.81065524 0.034530692 -0.58450466 0.0036552192
-0.17478068 -0.017855702 0.025093993 0.81646061 0.03715558 -0.57620442 0.0038792971
0.17400572 -0.018097127 0.025621589 -0.81696504 0.030409718 -0.57588476 0.0039985734
-0.1810396 -0.0042339312 0.02027579 0.84525877 0.052559976 -0.531766 0.007370072
-0.173112 -0.0049089026 0.02714381 0.79866982 0.037385266 -0.60060722 0.0030178386
0.17482929 -0.0037941111 0.025634751 -0.81697232 0.031445082 -0.57581896 0.0048409444
-0.18110961 0.0065333722 0.020760553 0.83283818 0.041047826 -0.55199254 0.0076848096
-0.17313768 0.0071602603 0.027701057 0.79968822 0.032716766 -0.59952343 0.0044865478
0.17416513 0.0025155651 0.026504802 -0.81497747 0.037022695 -0.57830876 0.0038390704
0.18060151 0.00352633 0.02118504 -0.84138048 0.029383764 -0.53964388 0.0071156118
-0.18007427 0.018741857 0.022446008 0.81185806 0.0057247719 -0.58382684 0.0060176994
-0.17742908 0.01697549 0.024575854 0.80300814 0.02456272 -0.59546161 0.0054198834
-0.17440449 0.023867533 0.027460065 0.7995711 0.011170186 -0.60046762 0.0037173254
0.17774922 0.027378609 0.024717223 -0.81610906 0.031049035 -0.57706314 0.0037849869
0.18088913 0.026586993 0.022054972 -0.83702946 0.042057954 -0.54553908 0.0068921256
-0.17919403 0.031462833 0.023806306 0.81093526 0.022451699 -0.58470488 0.0041091978
0.17426634 0.034581512 0.028002238 -0.81567818 0.037195258 -0.57730901 0.0039463649
0.18213916 0.036949161 0.021071356 -0.84475088 0.023157381 -0.53465849 0.0068231947
-0.17593284 0.043773323 0.027156955 0.80916172 0.040494636 -0.58618897 0.0038296171
0.1780277 0.045346729 0.025369778 -0.81750536 0.034599926 -0.57488072 0.003846541
0.18241058 0.045578487 0.021108229 -0.85957885 0.011580698 -0.51087189 0.0084397858
-0.18289194 0.056677308 0.021119047 0.85026735 0.023824116 -0.52581149 0.0077785784
-0.17579572 0.058490105 0.027998624 0.81307185 0.025057832 -0.58162385 0.0045543774
0.17730537 0.054534435 0.026430782 -0.81859821 0.017098097 -0.57411194 0.0037984268
-0.18181753 0.066270314 0.023074456 0.84650713 0.0037275036 -0.53236413 0.0072422009
-0.17850408 0.067683622 0.02605395 0.83020282 0.010560659 -0.55736136 0.0066420487
0.1772906 0.065427937 0.026925402 -0.82491189 0.0048222654 -0.5652408 0.0044533275
0.18059753 0.068522543 0.02416712 -0.82748157 0.021367554 -0.5610863 0.0039927368
-0.18265402 0.072245955 0.022055201 0.84487569 0.021865197 -0.53451562 0.0069764159
-0.17855608 0.071739905 0.026086126 0.83165973 0.019754274 -0.55493408 0.0058996375
0.17680769 0.075137272 0.027546978 -0.82196593 0.024626208 -0.569004 0.0035473807
-0.1826399 0.08712595 0.022068277 0.84102732 0.0039492967 -0.54097825 0.0074781869
-0.17498681 0.080004781 0.029307852 0.82324469 -0.0099982796 -0.56759864 0.0054394011
0.17762277 0.08582069 0.027049402 -0.82337999 0.007797943 -0.56743699 0.0052921032
0.18218111 0.084065408 0.022819512 -0.83333021 0.032513369 -0.55181849 0.0055888835
-0.18232098 0.098241106 0.022794347 0.83706516 0.0083666127 -0.54703927 0.0080924677
-0.17483112 0.098903924 0.029799562 0.806853 0.0050539933 -0.59073061 0.0039688242
0.17671402 0.096193545 0.028026277 -0.81927979 0.0083774626 -0.57333285 0.0044102129
0.18212456 0.098219424 0.022497002 -0.83678633 0.012799642 -0.54737991 0.0063183364
-0.18098469 0.10476691 0.024626169 0.83775496 0.028130174 -0.54532129 0.0062944102
-0.17709485 0.10787061 0.028025411 0.82242137 0.0075394395 -0.56882876 0.0049247597
0.17628689 0.10513999 0.028562572 -0.80285114 -0.00141925 -0.59617782 0.0036657804
0.18174443 0.10617863 0.023718791 -0.84406757 0.005602723 -0.53620756 0.010429652
-0.18225765 0.11155055 0.022932282 0.82938665 0.02273736 -0.5582121 0.0066317222
0.17853284 0.11765984 0.026871007 -0.80033636 -0.0026669947 -0.59954536 0.005025785
0.18136467 0.11818886 0.024449164 -0.81517935 0.016541209 -0.57897234 0.0061160764
-0.17716826 0.12870225 0.028356981 0.79820323 -0.0019189145 -0.6023851 0.0032610821
0.17644721 0.12650682 0.028829657 -0.80085611 -0.0043360675 -0.59884107 0.0045984387
-0.1828749 0.1370374 0.021703316 0.86203212 0.01669457 -0.50657868 0.0091585824
-0.17856701 0.13430281 0.027261896 0.80644274 -0.016715331 -0.59107578 0.0043516275
0.17915121 0.13919702 0.026747972 -0.82074177 0.015618374 -0.57108581 0.0064999857
0.18164887 0.13587269 0.023934036 -0.85245645 -0.0030205203 -0.52278948 0.0086500766
-0.17754786 0.14034905 0.028251626 0.79595613 -0.0068700816 -0.60531527 0.003639817
0.17654346 0.14525035 0.029102061 -0.79905665 0.0028358384 -0.60124892 0.0041833329
0.18316016 0.14676291 0.020886716 -0.85848451 0.0071851932 -0.51278919 0.0079345349
-0.1826409 0.15348287 0.022188591 0.85462737 0.0061286436 -0.51920569 0.0071802191
0.17590605 0.15030481 0.029745206 -0.78742832 0.0087716971 -0.61634392 0.0038341815
0.18222614 0.15594129 0.022781873 -0.84555435 0.0084825661 -0.53382194 0.00753689
-0.17750984 0.16490695 0.028749492 0.8162806 0.014501957 -0.57747358 0.004122159
0.17843992 0.16119501 0.027775511 -0.81511277 -0.00027579692 -0.57930225 0.0058483575
0.18291183 0.16569057 0.021402856 -0.83552039 0.0058203135 -0.54942864 0.0064553441
-0.18072486 0.17550159 0.026078654 0.82991147 0.02880759 -0.55715084 0.006915696
-0.17998645 0.17316473 0.026779104 0.834288 0.018128 -0.5510307 0.0072941021
0.18146849 0.17346816 0.024326658 -0.83607417 0.011062779 -0.54850495 0.0064894063
-0.18252543 0.18058532 0.022442177 0.85676694 0.034270257 -0.51456386 0.0098665543
0.17697801 0.18333876 0.029450426 -0.81187034 0.0035999622 -0.5838266 0.0046438989
0.18183851 0.1884249 0.02358968 -0.8548519 0.026090197 -0.51821572 0.0081297066
-0.18129437 0.19339836 0.02494058 0.85037374 0.016105762 -0.52593267 0.0087750359
-0.17847113 0.19388787 0.028472969 0.82105154 0.016391892 -0.57061857 0.0054786401
0.17680182 0.19042681 0.029735994 -0.81814784 0.0079861721 -0.57495242 0.0040307106
0.18290411 0.19411702 0.021439567 -0.88093591 0.014985074 -0.47299835 0.0086989906
-0.18160392 0.20392863 0.024322553 0.85103577 0.017013811 -0.52483201 0.0089464188
0.17958052 0.20045243 0.027539659 -0.82727736 -0.0040914947 -0.56177872 0.0048109703
0.18142833 0.20380272 0.024430374 -0.8359924 -0.0052275336 -0.54871619 0.0062189349
-0.18203659 0.21431261 0.023455523 0.85715193 0.032524422 -0.51403576 0.0094743604
0.17784433 0.21525605 0.029311074 -0.81833839 -0.010191146 -0.57464641 0.0043079606
0.18238719 0.21588461 0.022500819 -0.84794968 -0.01768727 -0.52978158 0.007417263
-0.18364157 0.2255218 0.020219054 0.89266771 -0.04112396 -0.44883537 0.0094776936
-0.17840301 0.22162284 0.029056858 0.82266867 -0.0036795342 -0.56850916 0.0050937147
-0.18083121 0.23754451 0.025909752 0.83584446 -0.0094852438 -0.54888445 0.0055363053
-0.1788388 0.23516187 0.028777342 0.82980186 9.4402134e-07 -0.55805814 0.0052942806
0.18211062 0.23455602 0.023073813 -0.85670984 0.030666759 -0.51488626 0.0090515176
-0.18316622 0.24976084 0.021198073 0.87327796 0.0032239421 -0.48721164 0.0050910548
0.17901295 0.24798009 0.028927412 -0.82513738 0.034702186 -0.5638653 0.0062786904
0.18118615 0.24416965 0.024950013 -0.84554529 -0.011155508 -0.53378713 0.0065842285
0.17917722 0.25088796 0.028841404 -0.83075398 0.022313589 -0.5561924 0.0065514548
0.18349129 0.25750387 0.02029952 -0.88733834 0.023721891 -0.4605085 0.0066432576
-0.18175818 0.26446679 0.024056708 0.84522814 0.014143935 -0.53421843 0.0063309381
0.17843167 0.26897022 0.029821591 -0.82830161 -0.010386339 -0.56018621 0.0052290186
0.18115991 0.26381159 0.02501761 -0.84000868 -0.010513467 -0.54247111 0.0066579026
-0.1831509 0.27522251 0.021314664 0.8661086 0.00016667506 -0.49985576 0.00617421
-0.17886597 0.27559739 0.029621113 0.81335503 -0.0058350042 -0.58173847 0.0055985027
0.17934343 0.27859908 0.028640058 -0.83997613 0.0098335836 -0.54253435 0.0055244653
-0.18137838 0.2818433 0.024887983 0.82095951 -0.04008225 -0.56957787 0.0070473668
0.17918183 0.28521651 0.028893597 -0.82133043 -0.0066559655 -0.57041383 0.0068151825
-0.17970669 0.29103935 0.028086284 0.80631375 -0.0095844595 -0.59141034 0.0069757975
0.18295728 0.29679927 0.021661928 -0.86877429 -0.017785287 -0.4948889 0.0073835934
0.17917877 0.30368215 0.028754065 -0.81365377 -0.021751743 -0.58094275 0.0073845163
0.18185796 0.30401492 0.023684278 -0.84581703 -0.021170853 -0.53305292 0.0088709332
-0.18235715 0.31675437 0.022901064 0.86484909 0.00049509126 -0.50203156 0.011291993
-0.17978349 0.31324553 0.027766265 0.83117455 0.027632056 -0.55532455 0.010351453
0.17931402 0.3115879 0.028436106 -0.81269473 1.6331721e-06 -0.58268958 0.0081670946
0.18283293 0.31489199 0.021763284 -0.86120105 0.028500753 -0.50746471 0.0091929445
-0.18312371 0.3255941 0.021471046 0.88198429 -0.0015630316 -0.47127613 0.0118345
-0.17913513 0.32929689 0.029039957 0.78853792 -0.042374317 -0.61352462 0.012148183
0.18063122 0.32899475 0.025977781 -0.81136066 0.0035580294 -0.584535 0.00931862
-0.18131322 0.33090204 0.024925943 0.85757178 -0.0028620963 -0.51435643 0.0092316382
0.17929794 0.33953226 0.028537419 -0.79496747 -0.017912667 -0.6063875 0.0096360985
0.18137482 0.33788675 0.024477892 -0.84119529 -0.0099525042 -0.54063988 0.011219314
-0.18109021 0.34443551 0.025163222 0.82287955 -0.051376786 -0.5658884 0.011491473
0.18211043 0.34427547 0.02288839 -0.8484993 -0.027815448 -0.52846491 0.011513865
0.17871881 0.35684115 0.027593035 -0.78687721 -0.070442766 -0.61307585 0.012546171
0.18062669 0.35397959 0.024460163 -0.84586203 -0.062269505 -0.5297547 0.01019292
-0.18207714 0.36063454 0.020250168 0.90471822 -0.096760079 -0.41487643 0.0086706467
0.18053612 0.36853552 0.02112551 -0.87084895 -0.14946133 -0.46827716 0.010067429
-0.18018043 0.37550265 0.020048974 0.89686882 -0.19272341 -0.39810047 0.0050960532
-0.17754115 0.37458614 0.025990164 0.8434974 -0.17168288 -0.50895691 0.013091859
0.17763944 0.37500441 0.025488334 -0.86176187 -0.12911609 -0.49060744 0.010727718
-0.1767412 0.38577268 0.023283219 0.88134968 -0.21610107 -0.42014635 0.0088479351
0.17638433 0.38152146 0.026289875 -0.84403431 -0.16220748 -0.51117009 0.012401012
-0.17336601 0.39566511 0.023535358 0.86687529 -0.24471095 -0.43433151 0.013992767
0.17438398 0.39309525 0.023864919 -0.86951822 -0.24986693 -0.42603347 0.010831737
-0.17054588 0.40286303 0.021957725 0.88242221 -0.27279124 -0.38329625 0.012511135
-0.16708358 0.4068861 0.025202369 0.84394336 -0.29803076 -0.44602379 0.029537724
0.16681613 0.40706539 0.025297012 -0.85288531 -0.3331463 -0.40199524 0.01496758
-0.16605631 0.4146775 0.027895976 0.80791605 -0.41254365 -0.42080799 0.045559246
0.1651627 0.41579407 0.025602691 -0.75952822 -0.55446661 -0.34012306 0.058522042
-0.1624693 0.42661944 0.024405101 0.66854054 -0.72531182 -0.16424488 0.066413008
-0.15719312 0.42539141 0.027432844 0.66430283 -0.7323696 -0.14945419 0.074774206
-0.14443126 0.42622083 0.025031332 0.51571184 -0.8320477 -0.20429854 0.083502352
0.14212625 0.42596617 0.024363326 -0.55322587 -0.80816519 -0.20201498 0.064582475
0.15775494 0.42234823 0.026218683 -0.6556319 -0.7060436 -0.26767382 0.060461208
0.16183582 0.42647958 0.020757312 -0.61706239 -0.74436122 -0.25526533 0.059489463
-0.15363607 0.43257862 0.022629958 0.57515848 -0.80816299 -0.12674925 0.064816602
-0.14452295 0.43326059 0.023232378 0.49542797 -0.86687666 -0.055460706 0.062147379
-0.13465898 0.43432951 0.023909396 0.49616778 -0.86752653 -0.034859326 0.060647361
-0.12725762 0.43675375 0.023897322 0.54978818 -0.8342734 -0.041482069 0.069437496
0.12777235 0.43563899 0.023522587 -0.59736049 -0.80166489 -0.02222253 0.052892935
0.13541014 0.43566319 0.022971088 -0.54794717 -0.82849288 -0.11555737 0.054208241
0.14520608 0.43239951 0.025061702 -0.56595689 -0.80196762 -0.19115645 0.064434022
0.15574065 0.43310103 0.02248577 -0.5934819 -0.77758771 -0.20769379 0.056933422
-0.14204013 0.44311151 0.024772055 0.47964579 -0.87745553 0.0034281544 0.05636679
-0.12321433 0.444518 0.021593485 0.52230442 -0.85103452 0.054205671 0.045965094
-0.073179409 0.44468161 0.023785444 -0.44859955 -0.89314193 0.032494262 0.20889561
-0.067777477 0.44763345 0.028465098 0.21994478 -0.96677834 -0.13024573 0.19350877
0.068166301 0.44277066 0.026671378 -0.37596387 -0.80387813 -0.46090251 0.18793321
0.072671786 0.44596475 0.02577417 -0.12722091 -0.98290473 -0.13309094 0.21359068
0.12353532 0.44648826 0.025283417 -0.56693631 -0.82375592 0.0030639241 0.034108508
0.13620238 0.44526476 0.028344184 -0.58174348 -0.81227869 -0.042163875 0.049118552
-0.12231938 0.45133939 0.024675673 0.4669908 -0.88069803 0.079313844 0.032252163
-0.11645308 0.45298249 0.026581123 0.42514333 -0.90281773 0.064600743 0.037526388
-0.10068414 0.45634815 0.02668437 0.25518873 -0.96569937 0.047994662 0.011754573
-0.096040353 0.45595393 0.026774134 0.12300374 -0.99217361 0.021483472 0.054632697
-0.089589298 0.45871532 0.028376305 -0.04250038 -0.99909586 0.0010572415 0.10170434
0.07310576 0.45034879 0.025453703 -0.13822477 -0.97204548 -0.18979301 0.17614475
0.089254878 0.45401573 0.024747267 0.041590311 -0.9974286 0.058364786 0.10645605
0.093989007 0.45497933 0.025154853 -0.025688497 -0.9996081 0.011127364 0.067394517
0.10499651 0.45499012 0.027415618 -0.28366029 -0.95884001 -0.012752982 0.025713518
0.11650057 0.45296112 0.025585294 -0.40087453 -0.91561246 0.030876683 0.034246631
-0.082709596 0.46125627 0.021855127 -0.04841933 -0.99680018 -0.06359978 0.12891175
-0.071089 0.4632256 0.029153828 0.32148835 -0.94579697 0.045971632 0.15533724
-0.062913083 0.46471769 0.024836721 0.37254837 -0.92253989 -0.10063769 0.15941289
-0.054634769 0.46533868 0.02938202 0.51250833 -0.85005611 0.12140752 0.11127918
-0.045188516 0.46693233 0.024708176 0.21083152 -0.9772796 -0.021786589 0.036048319
-0.025439959 0.46827197 0.023302572 0.05093028 -0.99868697 0.0055191945 0.0045921155
-0.014342706 0.46836153 0.025914451 0.0095201638 -0.99971431 0.021924131 0.0056064525
-0.0068145893 0.4686358 0.026373342 0.01371459 -0.99925274 0.036138557 0.0085679386
0.0028356002 0.46885243 0.023989197 -0.00015726945 -0.99986571 0.016387248 0.007878256
0.014172743 0.4687365 0.022156626 -0.02973566 -0.99934763 -0.020495428 0.0017693142
0.02435568 0.46814024 0.025209192 -0.040065855 -0.99837255 0.040582348 0.0061193416
0.038725413 0.46765137 0.025273444 -0.078220278 -0.99650252 0.029399812 0.0072756652
0.043390334 0.46722412 0.023774542 -0.095903404 -0.99523562 0.017566279 0.0070329723
0.051871207 0.46620715 0.023200734 -0.30258214 -0.95152277 -0.055212133 0.060602196
0.064161569 0.46448147 0.025582831 -0.37797159 -0.92331582 -0.068009838 0.11264139
0.077570044 0.4622632 0.021888653 -0.16996989 -0.98096389 -0.093914814 0.12196393
0.084212154 0.46079466 0.026253616 0.11429879 -0.97858995 0.17116494 0.11587457
-0.006335598 -0.26174575 0.030517422 0.025696333 0.29213086 -0.95603311 0.0053011342
0.016342841 -0.26118892 0.030264545 -0.028472485 0.29223034 -0.95592403 0.0046957857
-0.057649869 -0.25058293 0.03104444 0.055147588 0.35285538 -0.93405133 0.0061546192
-0.043749262 -0.2533513 0.030988595 0.050246079 0.35591966 -0.93316478 0.0075011807
-0.032750737 -0.25566661 0.031096881 0.048732214 0.32982495 -0.94278347 0.0072871917
-0.028379319 -0.2550768 0.031573545 0.056620818 0.33656809 -0.93995529 0.0061888336
-0.013463758 -0.25520036 0.032294977 0.027466582 0.34801045 -0.93708819 0.0065881079
-0.0067459294 -0.25061268 0.035077497 0.018429529 0.40300134 -0.91501379 0.0048311045
0.0022283399 -0.25990048 0.03102749 -0.028015707 0.32310963 -0.94594669 0.005658424
0.013983232 -0.25555077 0.031951971 -0.016355967 0.34818152 -0.93728447 0.0049244212
0.023938287 -0.25454062 0.032116149 -0.049573526 0.35227725 -0.93458194 0.0046959571
0.031955253 -0.25588793 0.030663546 -0.057690281 0.30737588 -0.9498378 0.0067981379
0.041938394 -0.25374985 0.030943561 -0.051652614 0.3470158 -0.93643588 0.0065352744
0.056161247 -0.2509062 0.031007519 -0.090367697 0.34410265 -0.93457311 0.0065056272
-0.081953906 -0.24332345 0.032076199 0.11858711 0.3758195 -0.91907388 0.0047027771
-0.074919075 -0.24112767 0.034603223 0.098824263 0.39416644 -0.91371036 0.0044405228
-0.058062147 -0.24830976 0.032392867 0.071782701 0.35229963 -0.93313026 0.0067051714
-0.045211781 -0.24502544 0.035933077 0.072100282 0.44508225 -0.89258242 0.0024660963
-0.023087647 -0.24668491 0.036325909 0.045597203 0.44994864 -0.89188969 0.0014290194
-0.013847847 -0.2463326 0.036999762 0.025434239 0.42361596 -0.90548474 0.0030291374
-0.002616853 -0.24558216 0.038142316 -0.00019599182 0.42852893 -0.90352809 0.0030399356
0.0054719131 -0.24697942 0.037172865 -0.025187166 0.43635955 -0.89941978 0.0026159524
0.015729388 -0.24498565 0.037632991 -0.034905653 0.46117774 -0.88662094 0.0013976966
0.028921714 -0.24384454 0.037893943 -0.052872751 0.45141205 -0.89074779 0.0025424049
0.035719544 -0.2431695 0.038026702 -0.054695912 0.44794664 -0.89238572 0.0026209236
0.047133476 -0.24735735 0.034257725 -0.074880645 0.41246185 -0.90789217 0.0052016457
0.055038113 -0.24589841 0.034218613 -0.09462487 0.41352749 -0.90556127 0.0042230003
0.076312453 -0.24423118 0.032563787 -0.10054878 0.37671247 -0.92085707 0.0057888697
0.092539579 -0.24240115 0.030618258 -0.12118781 0.35717344 -0.92614287 0.0062842909
-0.10787645 -0.23186769 0.033840407 0.12352492 0.40472201 -0.90605837 0.0031128475
-0.098215736 -0.23735458 0.032544255 0.13428509 0.35717049 -0.92433584 0.0046320623
-0.087378897 -0.23243946 0.037493415 0.14148287 0.43923342 -0.88716215 0.001708972
-0.070747711 -0.23665363 0.03806771 0.12769103 0.47578108 -0.87024552 0.00074099563
-0.065470219 -0.23569781 0.039279133 0.10863829 0.47321314 -0.87422377 0.00069756067
-0.055055276 -0.23679964 0.039829791 0.096920885 0.47401726 -0.8751651 0.00069355505
-0.046370737 -0.23890114 0.039560642 0.085943505 0.46306649 -0.88214689 0.0012404763
0.082934946 -0.23382306 0.037524197 -0.15186974 0.45141551 -0.87929499 0.0010622608
0.095989376 -0.23579583 0.03385482 -0.13896137 0.42139423 -0.89616776 0.0032933513
0.10656272 -0.23403315 0.032819428 -0.13917395 0.40369633 -0.90424544 0.0037627893
0.11104009 -0.23284012 0.032589979 -0.14431128 0.39858466 -0.9057067 0.0035165253
0.1253037 -0.23026343 0.031015066 -0.15604141 0.38094395 -0.91133577 0.0042815758
-0.12825334 -0.22111028 0.035849728 0.20864822 0.40538463 -0.89001638 0.0023618257
-0.11446009 -0.22419727 0.036968268 0.16734032 0.43484503 -0.8848204 0.0015625246
-0.10649469 -0.22704962 0.036895812 0.14257956 0.43129396 -0.89087403 0.001627675
-0.096490666 -0.2268284 0.038968075 0.14278962 0.45505807 -0.87893873 0.00097240863
0.10632867 -0.22570738 0.0376807 -0.15457816 0.45199895 -0.87852293 0.0010870495
0.11598979 -0.22623402 0.03545212 -0.1476483 0.4112905 -0.89946657 0.0036750836
0.12550977 -0.22258331 0.035538133 -0.18357255 0.41332939 -0.89188564 0.0030924859
0.13422468 -0.22660425 0.031186339 -0.20174427 0.35838097 -0.91151655 0.0084271682
0.1405198 -0.22444922 0.030699385 -0.29888949 0.29140121 -0.90870816 0.0084477859
-0.14255621 -0.21768266 0.03349454 0.31897086 0.35263887 -0.87971783 0.0070997584
-0.1330947 -0.2145261 0.037908431 0.27247694 0.41956386 -0.86586511 0.0038716483
-0.12852573 -0.21822006 0.037434742 0.20880248 0.42100355 -0.88269895 0.0022185447
0.13267078 -0.21448885 0.038018413 -0.27273265 0.42925015 -0.86102337 0.0045729601
0.1479284 -0.214535 0.032945164 -0.40313289 0.29016542 -0.86792159 0.0096181259
-0.15054092 -0.20206614 0.036577415 0.48292115 0.32258582 -0.81407958 0.011645528
-0.14519288 -0.2062891 0.038170245 0.41755012 0.35497153 -0.83644915 0.0074528214
0.14607015 -0.20715991 0.036869705 -0.44659549 0.33001614 -0.83165008 0.0073411851
-0.153745 -0.19586453 0.035669271 0.58078474 0.29991424 -0.75679624 0.011864953
0.15546601 -0.19105205 0.035798177 -0.60841054 0.23663871 -0.75752145 0.0083001526
-0.16200045 -0.1801783 0.033276394 0.77267134 0.16633338 -0.61262733 0.0073941918
-0.15656352 -0.18374594 0.038250055 0.69932926 0.27072901 -0.66154695 0.01210891
0.1560567 -0.18826452 0.03640157 -0.6083234 0.26312751 -0.74880344 0.0089198677
0.16228649 -0.18373454 0.03122819 -0.71875352 0.14762096 -0.67941254 0.0063673249
-0.16079798 -0.17252043 0.037743419 0.78906536 0.19278887 -0.58327377 0.012414313
-0.16295291 -0.16327623 0.034364052 0.85065627 0.1125292 -0.51353776 0.0059947772
0.16274893 -0.16331322 0.034649491 -0.85431844 0.1232241 -0.50493145 0.0072381375
-0.16229995 -0.15881978 0.036619313 0.85416651 0.14951119 -0.4980422 0.016405869
0.16365819 -0.14385708 0.033561371 -0.91437227 0.1437014 -0.3785148 0.068080813
-0.17418194 -0.13140513 0.037041984 0.70680535 0.56041771 -0.43169224 0.18058461
-0.16288121 -0.13375099 0.035487693 0.89014989 0.18742853 -0.41533566 0.10215602
-0.15878054 -0.13117918 0.03685401 0.90654099 0.17633736 -0.38352126 0.093727946
0.16242392 -0.13324369 0.038309287 -0.9058463 0.25213528 -0.34039721 0.13230428
-0.18570043 -0.12479894 0.037682213 0.49966007 0.86287469 -0.07607314 0.1256495
-0.17676257 -0.12775016 0.037357375 0.73373932 0.64239138 -0.22126901 0.21713053
-0.16261914 -0.12835267 0.038083818 0.90958643 0.14821813 -0.38818032 0.13864833
0.1590775 -0.12371483 0.036108978 -0.95240563 -0.052799623 -0.30022594 0.16725034
0.1639484 -0.1243751 0.035024695 -0.98046428 -0.03478156 -0.19359753 0.15992393
0.17746726 -0.12363441 0.036550611 -0.47889963 0.87680846 0.043153413 0.19740617
0.18822078 -0.12336772 0.038067512 -0.42579687 0.90422595 -0.032748159 0.10287116
-0.20246431 -0.11006519 0.037298266 0.65173572 0.75771821 -0.033221424 0.13475296
-0.19176027 -0.11464235 0.036748841 0.49022293 0.85278863 0.18009154 0.12477459
-0.17639853 -0.11561656 0.037031639 0.31976932 0.87214136 0.37029314 0.22144319
-0.16220777 -0.11956859 0.036312994 0.88301885 -0.067761905 -0.46442008 0.18068838
0.15924799 -0.11866429 0.038811769 -0.94901055 -0.15085129 -0.27680814 0.18482921
0.16548501 -0.11627035 0.037846051 -0.9858399 -0.11541121 -0.12165487 0.25783357
0.17435566 -0.11600101 0.036633942 -0.23527579 0.96810657 0.086110182 0.26077661
0.18460286 -0.11424349 0.037509155 -0.26754338 0.9419623 0.20279929 0.17638907
0.19392882 -0.11500811 0.03727999 -0.41482648 0.89377594 0.17053916 0.10297983
0.20202795 -0.11216258 0.037612177 -0.45179984 0.88744324 -0.091222458 0.15108158
-0.20269212 -0.10823511 0.038092934 0.56921476 0.81377816 -0.11730139 0.13193958
-0.19534363 -0.10941271 0.037206307 0.33715868 0.90058643 0.27435032 0.13057251
-0.18967654 -0.10987718 0.037781045 0.32851258 0.87727165 0.34996289 0.15422779
-0.16382045 -0.10167706 0.03247375 0.85499597 -0.18045622 -0.48622766 0.094348729
0.16269891 -0.10717285 0.034681689 -0.91385198 -0.12486096 -0.38637334 0.067387052
0.1938709 -0.10804019 0.037050784 -0.17945996 0.9576962 0.22497112 0.11306797
0.2017042 -0.10845359 0.037627548 -0.45182934 0.88743103 -0.091194354 0.1510742
-0.1624864 -0.093083963 0.035636496 0.87314701 -0.054973487 -0.48434722 0.018599387
0.16193335 -0.095393658 0.036524523 -0.85748845 -0.065576017 -0.51030695 0.038476679
-0.16271265 -0.084892966 0.036640417 0.86124194 0.028815432 -0.50737774 0.005990041
0.16459282 -0.085386336 0.032120198 -0.8504287 0.032492563 -0.52508593 0.0065335715
0.16483834 -0.074069992 0.032991271 -0.83382851 0.018581731 -0.55171078 0.0053904704
-0.1655001 -0.065852001 0.032553688 0.83316493 0.040519368 -0.55153817 0.0049296357
0.16180682 -0.066514134 0.038900629 -0.87376136 0.024702895 -0.48572719 0.0062334831
-0.16472581 -0.055914868 0.035243046 0.84272301 0.030907115 -0.53745937 0.004539704
0.16306388 -0.055461235 0.036789864 -0.83019638 0.039778244 -0.55605012 0.0057563344
-0.16286412 -0.044880666 0.037899435 0.88439381 0.044747211 -0.46459153 0.0050656362
0.16443482 -0.04383976 0.034611214 -0.83121449 0.036774546 -0.55473429 0.0055981092
-0.1646923 -0.034024306 0.035549492 0.8461132 0.014309744 -0.53281122 0.0047635473
0.16510591 -0.033592835 0.034249283 -0.83663821 0.014052028 -0.54757559 0.0058753262
-0.1665259 -0.025737621 0.033689301 0.82955456 0.021862766 -0.55799752 0.0049271132
0.16504081 -0.020303521 0.035713792 -0.83975857 0.032693777 -0.54197484 0.0054866252
0.16323879 -0.014321019 0.038882688 -0.87586057 0.050293807 -0.47993627 0.0059325295
-0.16461948 -0.0042550224 0.036748849 0.82630777 0.025237903 -0.56265312 0.0055032419
0.16566336 -0.0067092348 0.035092279 -0.83927763 0.039636396 -0.54225641 0.0064541856
-0.16694103 0.0050492696 0.034849059 0.81744546 -0.0038093468 -0.57599348 0.0067171166
0.16867156 0.0022138357 0.032425892 -0.8279978 0.034416195 -0.55967414 0.0057331929
-0.17018756 0.015776755 0.031342208 0.80457765 0.023067053 -0.59339935 0.0053650164
-0.16646762 0.015101494 0.035499603 0.82160509 0.010611682 -0.56995833 0.0072464035
0.16562514 0.01361799 0.036563914 -0.83558351 0.017724738 -0.54907739 0.0052736863
-0.1649286 0.025457647 0.037482981 0.83799893 0.018125359 -0.54537076 0.0063483738
0.16670115 0.024404725 0.035619408 -0.82254094 0.035487365 -0.56759751 0.0057456056
0.1706508 0.028730296 0.031261969 -0.80194974 0.032846395 -0.59648788 0.0036678487
-0.16514604 0.039346077 0.037954569 0.83264071 0.037440304 -0.55254656 0.0060287453
0.16789982 0.036588356 0.034934267 -0.82484883 0.041174594 -0.56385201 0.0065689241
-0.17115326 0.048236389 0.031778913 0.81759965 0.05102659 -0.57352155 0.0048030359
-0.1653997 0.045244556 0.038607832 0.84455264 0.060537484 -0.53203952 0.0060777725
0.16948342 0.04162949 0.033436675 -0.81484807 0.044592947 -0.5779568 0.0046438049
0.17198572 0.048283406 0.03059678 -0.81369299 0.034343269 -0.58027953 0.0039633848
-0.1677506 0.051407132 0.037528962 0.82941443 0.056364905 -0.55578297 0.006600223
0.16753069 0.055165559 0.03739344 -0.85627198 0.034813751 -0.51535058 0.0078647975
0.17278089 0.056248818 0.030321063 -0.81915194 0.029146347 -0.57283556 0.0044119414
-0.17085508 0.064005338 0.032901999 0.82348168 0.040146261 -0.56592065 0.0059434874
-0.1676743 0.061769102 0.037545711 0.84456527 0.044365056 -0.53361148 0.0081026722
0.16790852 0.063003749 0.036652464 -0.85662711 0.03500279 -0.51474732 0.0073044058
0.17194213 0.066869661 0.031635061 -0.81810635 0.013258716 -0.57491404 0.0043572783
-0.17100604 0.074181236 0.032923348 0.83006269 0.010830192 -0.55756485 0.0076898248
-0.16885251 0.076707304 0.035401613 0.8316505 -0.0055692401 -0.55527139 0.0066706119
0.17337175 0.076135673 0.030516546 -0.81998366 0.027353266 -0.57173294 0.0030069964
-0.17149216 0.082272723 0.032491487 0.83195353 -0.009200912 -0.55476898 0.0071778288
-0.16736922 0.084708974 0.036898728 0.84939927 -0.0061285929 -0.52771509 0.0077575091
0.16878657 0.088301964 0.035541505 -0.81351978 0.020495085 -0.58117598 0.0041280789
-0.17088175 0.091636717 0.033334479 0.81804627 -0.0076216152 -0.57510203 0.0051055728
-0.16789313 0.098978862 0.036585011 0.83503026 -0.00020920779 -0.55020404 0.0058556865
0.1675857 0.095198162 0.036520738 -0.80900103 0.014882289 -0.58761871 0.0042789308
-0.17246473 0.10417471 0.031949893 0.81872147 0.010598936 -0.5740931 0.0038000292
-0.16514076 0.10300198 0.03995961 0.84441662 -0.011718722 -0.5355587 0.0065424489
0.16567762 0.10737696 0.038860288 -0.8267616 -0.014217786 -0.56237274 0.0066490872
-0.17354622 0.11460294 0.031215636 0.80371964 0.014075738 -0.5948416 0.0032692037
-0.16866222 0.11878192 0.036305416 0.81114566 -0.0030645069 -0.58483613 0.0041843466
-0.17227474 0.12516823 0.032551996 0.79385477 -0.0020204487 -0.60810405 0.0028496317
0.16693467 0.12762605 0.037626334 -0.80832988 -0.009169749 -0.58865851 0.005098626
-0.17002967 0.13776848 0.035020456 0.81121618 0.0038778987 -0.58473355 0.0033574998
-0.16814817 0.13273238 0.037302289 0.82695061 -0.007811483 -0.56222022 0.0046598488
0.16742843 0.1333724 0.037511513 -0.80473948 -0.011532214 -0.59351617 0.0049262606
0.17124565 0.13733914 0.033626895 -0.79637802 -0.0052209846 -0.60477674 0.0040176963
-0.17197409 0.14393398 0.033159383 0.80880761 0.0058564828 -0.58804417 0.0031377901
-0.16668953 0.14655745 0.038660143 0.83746171 -0.0030949034 -0.54648709 0.0049985717
0.16824877 0.14696953 0.037201524 -0.82430291 0.0048921625 -0.56612784 0.0065107029
0.17259018 0.14478025 0.032536361 -0.78447568 -0.0053765429 -0.6201362 0.0031519698
-0.17378974 0.15168235 0.031718377 0.79440719 0.016651966 -0.60715717 0.0026932952
-0.16728461 0.15921676 0.038893037 0.82638532 0.0056161848 -0.56307691 0.0054960623
0.16831858 0.15514207 0.037230678 -0.81544977 0.020695342 -0.57845777 0.0065576639
0.17513967 0.1580026 0.030550731 -0.78846318 0.00094908837 -0.61508119 0.0033575217
-0.17077139 0.16721603 0.034702368 0.80598933 0.024627639 -0.59141749 0.0035586762
-0.16722812 0.16372111 0.038946487 0.81945813 0.0113146 -0.57302737 0.0061379145
0.16746148 0.16644908 0.038415276 -0.83058292 0.015554706 -0.5566777 0.0048461589
0.17399058 0.16430838 0.031682365 -0.80261773 0.016223248 -0.59627306 0.0032061576
-0.17283343 0.1710006 0.032935869 0.812792 0.016564213 -0.58231848 0.0036606051
-0.16934049 0.17660274 0.036407538 0.80398738 -0.0054146615 -0.5946216 0.0044036973
0.16696492 0.17017961 0.039230939 -0.82756197 0.016749382 -0.56112444 0.0048954524
0.17333367 0.17511569 0.032470409 -0.79305005 0.014194341 -0.60899109 0.0031884648
-0.17329237 0.18789765 0.03286434 0.81147987 0.02450512 -0.58386642 0.0042053205
-0.16812271 0.1844448 0.038185641 0.81107235 0.012782023 -0.5848062 0.0050891722
0.17494173 0.18438436 0.031241311 -0.80534035 0.014935376 -0.59262443 0.0034211047
-0.17246194 0.19286807 0.033690248 0.80049634 0.021826537 -0.59894007 0.0029216313
0.16739032 0.1954959 0.039278653 -0.82102841 0.0085191894 -0.57082385 0.0038388344
-0.16806991 0.20595227 0.038688228 0.80885547 0.020110009 -0.58766353 0.0035221612
0.16900533 0.20229015 0.03704676 -0.8015151 0.00022529668 -0.59797454 0.0025298374
0.17409459 0.20656508 0.032419123 -0.80539316 -0.019848799 -0.5924086 0.0017725683
-0.1763929 0.21584997 0.030692007 0.81490451 0.00288456 -0.57958806 0.0048984801
0.16930915 0.21695183 0.036924813 -0.80072993 -0.018780181 -0.5987311 0.0021942966
0.17287068 0.21186368 0.033596657 -0.80562305 -0.017281594 -0.59217638 0.0017025019
-0.17349279 0.22687127 0.033452183 0.78848958 0.011224508 -0.61494571 0.0021400542
-0.16955152 0.22345302 0.036887553 0.80288655 0.0075703189 -0.59608376 0.0029159
0.16732335 0.22112596 0.039797746 -0.79496396 -0.0088275848 -0.60659242 0.0020855393
-0.17506726 0.23342198 0.032199282 0.81286842 -0.0082049463 -0.58238965 0.0038605228
0.16890897 0.23507454 0.037881449 -0.79198331 0.0076162643 -0.61049521 0.00207487
0.17288893 0.2346887 0.034027897 -0.80256194 0.012519971 -0.59643745 0.0022371318
-0.1726073 0.24590887 0.034602039 0.80594838 0.013549251 -0.59183067 0.0027259428
0.16792433 0.24204101 0.039240755 -0.7960481 0.023505451 -0.60477662 0.0020216131
0.17418028 0.24838139 0.033163309 -0.80151248 0.022297254 -0.59756219 0.0026609914
-0.17452867 0.25560093 0.033106372 0.81451434 0.011630969 -0.58002675 0.0031878732
-0.16929214 0.25001845 0.037593663 0.80323601 0.020808376 -0.59529722 0.0020186454
0.16900024 0.25397724 0.03804088 -0.80077285 0.025044298 -0.5984444 0.0029650035
0.1749773 0.25777569 0.03264818 -0.79797441 0.024710223 -0.60218459 0.002849261
-0.17564893 0.26464716 0.032298967 0.80949914 -0.00046564086 -0.58712083 0.003282537
0.16943346 0.2616356 0.03758733 -0.79545981 0.015677257 -0.60580355 0.0029575564
0.1719318 0.26836371 0.035496693 -0.80032867 -0.0032873556 -0.59955251 0.0030798011
-0.17481805 0.27564505 0.033160068 0.80844408 -0.010139388 -0.58848566 0.0038904184
-0.16768949 0.27691013 0.038789578 0.80775601 -0.031931132 -0.5886516 0.0047703255
0.1674335 0.27523804 0.039315108 -0.7994405 -0.012685175 -0.60061121 0.0033898433
-0.1778463 0.28003424 0.030560881 0.8183046 -0.030015701 -0.57400054 0.0054148897
-0.16710642 0.28409111 0.038846388 0.80030537 -0.034842137 -0.59857941 0.0040827212
0.17260584 0.28527892 0.03502842 -0.79533052 -0.012820655 -0.60604036 0.003486631
-0.17711161 0.2975294 0.031394064 0.78360796 -0.028787043 -0.62058836 0.0059400219
-0.16599645 0.29304293 0.039682928 0.79294997 -0.049875196 -0.60724193 0.0052793808
0.16816792 0.29666263 0.037704617 -0.77512854 -0.029678352 -0.63110602 0.0036189351
0.17502467 0.29573339 0.032945763 -0.79461837 -0.018311322 -0.60683298 0.0049855574
-0.17023677 0.30772114 0.036107659 0.76665825 -0.0055878651 -0.64203107 0.0043614185
-0.16611592 0.30208635 0.039019741 0.76193511 -0.037598897 -0.64656115 0.0041117892
0.16610469 0.30632442 0.038833614 -0.77174926 -0.049487639 -0.63399851 0.0041552093
0.17553443 0.30616331 0.03236879 -0.79805887 -0.011916921 -0.60246164 0.0074950107
-0.17516619 0.31099969 0.032686755 0.77689236 0.015160838 -0.62945092 0.0061729816
0.16788501 0.31545958 0.037473056 -0.75216514 -0.019946652 -0.65867275 0.0037231462
0.17300171 0.31518292 0.034042206 -0.75643748 -0.023130054 -0.6536569 0.0040986831
-0.17130165 0.32855856 0.0354877 0.73476946 -0.012834989 -0.67819548 0.0042377468
-0.16645187 0.32147753 0.038609777 0.73343325 -0.035714071 -0.67882264 0.0039849416
0.16912447 0.32451609 0.036798414 -0.72837025 -0.021553036 -0.68484461 0.0043218615
0.17301677 0.32533976 0.03419628 -0.74127442 -0.013583791 -0.67106462 0.005132277
-0.17442012 0.33625802 0.033360124 0.73315483 -0.018901745 -0.67979902 0.0055055991
0.16661815 0.33642524 0.038597606 -0.7083528 -0.043348785 -0.70452625 0.0043226238
0.1729193 0.33389902 0.034411326 -0.72650474 -0.010144923 -0.68708652 0.0042786649
-0.17295371 0.34331495 0.034592047 0.7101022 -0.037293196 -0.70311028 0.0055159628
-0.16825309 0.3474232 0.03773237 0.70244014 -0.034563642 -0.71090299 0.0049406639
0.16821747 0.34417999 0.037637152 -0.71346408 -0.040756848 -0.69950539 0.0047245291
0.17766365 0.34644425 0.031393014 -0.74754405 -0.037461206 -0.66315496 0.0085169571
-0.17509937 0.35812259 0.032831401 0.74254638 -0.060222767 -0.66708177 0.0081982948
0.16710044 0.35468271 0.038263075 -0.6898036 -0.060881142 -0.72143221 0.0061607659
0.17124847 0.3560015 0.035495613 -0.71450239 -0.044806637 -0.69819671 0.0057893996
-0.17498356 0.36170432 0.032354098 0.75201517 -0.054796357 -0.65686423 0.010218078
-0.16905354 0.36799762 0.036700036 0.70155114 -0.056485601 -0.71037698 0.006486
0.16693607 0.3648169 0.038099512 -0.6870454 -0.066750273 -0.72354203 0.0067698904
0.17272404 0.36649948 0.03393748 -0.70428783 -0.089215539 -0.70428622 0.0092376461
-0.17042443 0.37549415 0.035127167 0.69530523 -0.073391244 -0.71495759 0.0070170094
-0.16800003 0.37407258 0.037095249 0.69329387 -0.067287736 -0.71750671 0.0065141879
