# .PCD v0.7 - Point Cloud Data file format
VERSION 0.7
FIELDS x y z normal_x normal_y normal_z curvature
SIZE 4 4 4 4 4 4 4
TYPE F F F F F F F
COUNT 1 1 1 1 1 1 1
WIDTH 574
HEIGHT 1
VIEWPOINT 0 0 0 1 0 0 0
POINTS 574
DATA ascii
-0.13291433 0.45123646 0.080278069 0.57215506 -0.73686546 -0.36009431 0.095169991
-0.11356305 0.45531622 0.085402839 0.29713911 -0.8158493 -0.49608293 0.023337327
-0.10517687 0.4577654 0.085548013 0.22970046 -0.85731268 -0.46070886 0.023833262
-0.095221132 0.45875978 0.087459229 0.19482224 -0.86197239 -0.46802559 0.012931598
0.10564929 0.4575702 0.085638732 -0.22789532 -0.84647453 -0.48119083 0.011707166
0.11001533 0.45367977 0.089239329 -0.25350127 -0.78735328 -0.56197149 0.0015452291
0.12205513 0.45475608 0.082117036 -0.38736844 -0.80976611 -0.44070914 0.048643447
0.13115501 0.45237276 0.080044389 -0.48331526 -0.74178618 -0.46492982 0.035689127
-0.092304483 0.4629935 0.082340807 0.22139227 -0.88631099 -0.4067409 0.033813838
-0.084706664 0.46358851 0.083761953 0.17323463 -0.88448876 -0.43320832 0.021662857
-0.076841809 0.46459177 0.084943041 0.1357042 -0.88908708 -0.43715957 0.019374186
-0.06528236 0.46573558 0.085447632 0.13975479 -0.87233758 -0.46850368 0.016551059
-0.044257492 0.46679145 0.086751014 0.060804803 -0.86234611 -0.50265479 0.0041921469
-0.035824053 0.465675 0.089647219 0.060553554 -0.84067112 -0.53815001 0.0017066236
0.019383283 0.46861738 0.086314335 -0.03849072 -0.906766 -0.41987377 0.014553717
0.024143072 0.4686693 0.085898109 -0.01966268 -0.91220033 -0.40927237 0.015605485
0.041183002 0.46600541 0.088491306 -0.060997557 -0.88045824 -0.4701837 0.0023180412
0.055051267 0.46586123 0.086720161 -0.086456113 -0.88452893 -0.45840365 0.0037370217
0.064579107 0.46611908 0.084959075 -0.12832348 -0.88850331 -0.44056204 0.0085287178
0.072631627 0.46564957 0.084119208 -0.11392526 -0.91838372 -0.37893566 0.028414363
0.083305523 0.46495569 0.082467914 -0.1615703 -0.90267599 -0.39883715 0.014778325
-0.032806337 0.47104138 0.08065927 0.068347014 -0.92507219 -0.3735908 0.055813197
-0.029924609 0.47106856 0.080994293 0.027377199 -0.91738194 -0.39706528 0.044509061
-0.015689272 0.47169149 0.080887318 -0.028438892 -0.93589491 -0.35112947 0.051678378
-0.0043266788 0.47151825 0.082040288 -0.01828607 -0.93001986 -0.36705405 0.04422652
0.0066346424 0.47048998 0.083840892 -0.071227431 -0.92072242 -0.3836624 0.028467638
0.017303133 0.47141197 0.081295788 -0.023010181 -0.91996014 -0.39133593 0.02536702
0.034881789 0.47073439 0.080907196 -0.032016259 -0.91689795 -0.39783552 0.01675576
0.040474076 0.47032773 0.08077462 -0.035450429 -0.91593879 -0.39974925 0.016480746
-0.060679279 -0.19260211 0.091307618 0.073752798 0.47959644 -0.87438422 0.00024052282
-0.054800209 -0.19253948 0.091910496 0.068524748 0.48019785 -0.87447953 0.00022540227
-0.04702979 -0.19479904 0.091193169 0.055003718 0.4829374 -0.87392569 0.00027158429
-0.034293719 -0.19166748 0.093377866 0.039538097 0.48281327 -0.87483031 0.00022668345
-0.023719698 -0.19445172 0.092426866 0.040261049 0.4836517 -0.87433404 0.00025176976
-0.0132298 -0.19228463 0.094004609 0.0287575 0.47832152 -0.87771374 0.00022617288
-0.0020801995 -0.19450279 0.093375809 0.00069981965 0.48298582 -0.87562788 0.00031449628
0.0084184958 -0.19141591 0.094667122 -0.018973911 0.47893676 -0.87764436 0.00029100859
0.017376628 -0.19346593 0.093212366 -0.037099466 0.4830831 -0.87478822 0.00018357998
0.021646827 -0.19626081 0.091590971 -0.042000934 0.488251 -0.871692 0.00021402433
0.042934723 -0.19418433 0.091694459 -0.051443957 0.48388362 -0.87361902 0.0002133636
0.059496839 -0.19416249 0.090627044 -0.072415702 0.48111671 -0.87366045 0.00019584128
0.068558626 -0.19213101 0.09078256 -0.081136495 0.4819347 -0.87244248 0.00021562664
-0.096462086 -0.18170559 0.093469076 0.12593035 0.44759008 -0.8853274 0.000402704
-0.083189525 -0.18496437 0.093014859 0.092941962 0.46703243 -0.87934202 0.00018605609
-0.072089829 -0.18906945 0.092000261 0.082762174 0.46872976 -0.87945598 0.0001125808
-0.063723311 -0.18514781 0.094811849 0.075558268 0.4614028 -0.8839674 9.3762785e-05
-0.056070309 -0.18459874 0.095834956 0.06999699 0.46198457 -0.88412136 0.00010805929
-0.045463715 -0.18194798 0.097868279 0.054092024 0.46059084 -0.88596284 7.6605051e-05
-0.033802349 -0.18558641 0.096519411 0.043497454 0.46375883 -0.88489306 8.1059588e-05
-0.024026291 -0.18322307 0.098171823 0.036812875 0.4615733 -0.88633794 4.3512213e-05
-0.014379086 -0.18369302 0.098351143 0.028191505 0.46289283 -0.88596582 0.00012238022
-0.0020373114 -0.18963242 0.095868692 0.0026779033 0.4722369 -0.88146758 0.00024609029
0.0067678913 -0.18838613 0.096291564 -0.021108247 0.46823451 -0.88335204 0.0002037274
0.013748523 -0.18285118 0.098808348 -0.025028357 0.4615542 -0.88675886 0.00012566386
0.025719859 -0.18487364 0.097252078 -0.039280321 0.46276161 -0.88561207 4.0206414e-05
0.035722297 -0.18462704 0.096924335 -0.045180779 0.46257856 -0.88542634 4.1580995e-05
0.043766979 -0.18749122 0.095089823 -0.053495992 0.46889913 -0.88163018 8.6614935e-05
0.050766401 -0.18763244 0.094716147 -0.056219295 0.46826482 -0.88179785 0.00010927554
0.066167936 -0.18597071 0.094154954 -0.082325049 0.46738061 -0.88021469 0.00013932963
0.071131483 -0.18608078 0.093616806 -0.08173956 0.46665326 -0.88065511 0.00010608324
0.085357852 -0.18304551 0.09378244 -0.097700417 0.45982414 -0.88261902 0.00011513113
0.09680897 -0.18227187 0.093144223 -0.1173913 0.4555572 -0.88243234 0.00034863671
0.10581672 -0.18220496 0.091593944 -0.16451468 0.44333905 -0.88112736 0.00042827544
-0.12296519 -0.17262483 0.092604786 0.19754106 0.43342015 -0.87927496 0.00022437632
-0.11561862 -0.17710523 0.091967575 0.19083215 0.43785748 -0.87855786 6.5692228e-05
-0.1069326 -0.17847547 0.093201697 0.15908627 0.43818146 -0.8846969 0.00032029775
-0.098478526 -0.17578989 0.09634009 0.12940775 0.44351783 -0.88687408 0.00046057862
-0.082258426 -0.17630406 0.09753871 0.09291181 0.45061064 -0.8878724 8.9193061e-05
-0.069430903 -0.17711282 0.098353401 0.080100283 0.45500907 -0.88687694 1.1012408e-05
-0.05846265 -0.17819235 0.098868303 0.068251245 0.45549291 -0.88761926 6.8035195e-05
-0.046824031 -0.1797739 0.098929949 0.05319792 0.46007723 -0.8862837 7.292597e-05
0.023621855 -0.17985968 0.099919215 -0.038269363 0.46056998 -0.88679802 3.2522152e-05
0.067560405 -0.17855686 0.097798958 -0.079958014 0.45748779 -0.88561368 3.0195753e-05
0.085850134 -0.17488965 0.097952783 -0.10140833 0.45447502 -0.88496828 0.00020466765
0.094541408 -0.17637007 0.096409768 -0.121356 0.45257914 -0.88342792 0.00034068027
0.10343557 -0.17599639 0.095205039 -0.16478218 0.44360569 -0.88094306 0.00032070032
0.11810732 -0.17719567 0.091373891 -0.19212392 0.43647465 -0.8789643 0.00011280094
0.12912717 -0.17299619 0.091095969 -0.20148025 0.44412136 -0.8730188 0.00085334748
-0.14579828 -0.16318552 0.092187673 0.52615041 0.29268992 -0.79843503 0.028945597
-0.13671298 -0.16601032 0.092720851 0.3750203 0.39105666 -0.84049654 0.016463881
-0.12596935 -0.16281769 0.096814126 0.21649377 0.4371627 -0.8729372 0.00073796156
-0.1133898 -0.16547035 0.098253876 0.18700612 0.43537366 -0.88061261 0.00018373429
-0.10542339 -0.16911647 0.098186523 0.16282015 0.44234753 -0.88194007 0.00036397908
0.10714042 -0.16663489 0.099041447 -0.17269091 0.44258896 -0.87993908 0.00034185004
0.11341299 -0.16876803 0.096598059 -0.18014805 0.43862388 -0.88042933 0.00024484057
0.1256147 -0.16611588 0.095306352 -0.19723372 0.44240984 -0.8748557 0.00064580014
0.13473457 -0.16759583 0.091779254 -0.33100906 0.42261499 -0.84369993 0.016686056
0.1439029 -0.16369772 0.092846587 -0.48064417 0.36598116 -0.7968933 0.027416525
-0.15284613 -0.1526688 0.092631474 0.61062169 0.28633797 -0.73834389 0.051062152
-0.14234197 -0.1539728 0.096919879 0.48213422 0.4068628 -0.77589256 0.026291776
-0.13409893 -0.15614744 0.098174214 0.31130865 0.42781004 -0.84856671 0.0088404408
-0.12709555 -0.15670845 0.0996975 0.24693373 0.41784403 -0.87431693 0.0032605054
0.13649051 -0.15668368 0.097619176 -0.38824245 0.41628477 -0.82217681 0.019806623
0.14470696 -0.1565702 0.096894383 -0.49927011 0.36062616 -0.78783131 0.02314467
0.15303563 -0.15527849 0.092453294 -0.60314888 0.30219793 -0.73816526 0.039995294
-0.15269263 -0.1445947 0.093235046 0.6820904 0.28081599 -0.67519993 0.039327614
-0.14958245 -0.14098629 0.096723825 0.66197985 0.2916283 -0.69046044 0.029703626
0.15210719 -0.14541587 0.094969928 -0.68240136 0.28370291 -0.67367727 0.0298781
-0.15283565 -0.13351998 0.095474139 0.78063732 0.20719637 -0.58963972 0.021661412
0.14819507 -0.13495621 0.099008322 -0.66352069 0.23362619 -0.71074545 0.027765673
0.15308875 -0.13811648 0.093486629 -0.78080571 0.16641328 -0.60220349 0.01424747
-0.15279916 -0.12524232 0.096118577 0.83622569 0.089018263 -0.54111212 0.0069380626
0.15412953 -0.12502056 0.094072342 -0.820041 0.11293088 -0.56105202 0.0093861874
-0.15480144 -0.11408883 0.094799615 0.86779404 0.070976093 -0.4918291 0.0015317855
0.15435515 -0.11396964 0.095577404 -0.8467328 0.07868956 -0.52616686 0.0049846838
-0.15485352 -0.10524204 0.096128412 0.87196922 0.057503231 -0.4861719 0.001031034
0.15591487 -0.10161631 0.09474282 -0.88313395 0.049463913 -0.46650594 0.00040443538
-0.15630762 -0.092630923 0.094696216 0.88084984 0.048485108 -0.4709062 0.00091229659
0.155698 -0.096867159 0.095681578 -0.88423961 0.046397101 -0.4647232 0.00037752787
-0.15419272 -0.088300608 0.099080399 0.88337308 0.046083417 -0.46639931 0.00087331777
0.15562581 -0.085172884 0.096515633 -0.8887369 0.040161982 -0.45665488 0.00040481598
-0.15683256 -0.076629661 0.094475009 0.89429259 0.03070578 -0.44642794 0.00017384785
0.15682605 -0.074498966 0.094588391 -0.89707315 0.027719185 -0.44101185 0.00020177095
-0.15776633 -0.06674359 0.093003653 0.89748293 0.026427535 -0.44025671 0.00014753742
0.15629929 -0.063964017 0.096167468 -0.89493209 0.030005453 -0.44519243 6.8950358e-05
-0.15783656 -0.05477196 0.093393445 0.89938223 0.031625435 -0.43601769 0.00015578495
0.15578832 -0.0539346 0.097673841 -0.89449221 0.032005616 -0.44593647 7.0975402e-05
-0.15656748 -0.047400706 0.096351534 0.89646184 0.030396417 -0.44207719 0.00010890698
0.15697807 -0.046832517 0.095587 -0.89621711 0.02896909 -0.44266886 6.0750634e-05
-0.16044654 -0.031012157 0.090266667 0.90057176 0.036407672 -0.43317994 0.00013178684
-0.15666339 -0.035446234 0.097204335 0.89272803 0.035604093 -0.44918692 8.1314414e-05
0.15778607 -0.031315167 0.095400341 -0.89428556 0.038927596 -0.44580039 6.1507628e-05
-0.15649834 -0.024602998 0.098511457 0.89195591 0.039145291 -0.45042464 0.0001041966
0.15794095 -0.025968963 0.095587656 -0.89416051 0.039833281 -0.44597125 4.8141792e-05
-0.16091198 -0.016508922 0.090709433 0.90222234 0.023221701 -0.43064561 0.0010444974
-0.15725188 -0.014785223 0.097954765 0.89464021 0.030410787 -0.44575116 0.00088778156
0.15746403 -0.016775999 0.097361118 -0.8946141 0.039886471 -0.44505572 0.00010330432
0.1602954 -0.01687156 0.091865569 -0.89765853 0.041544735 -0.43872908 0.00015673524
-0.15881157 -0.0097416192 0.09540695 0.89746988 0.0176768 -0.44072133 0.0011334558
0.1582889 -0.003002448 0.097055376 -0.89478475 0.038299751 -0.44485196 0.0016125077
0.16123462 -0.0059903688 0.091084108 -0.90359378 0.028928442 -0.42741248 0.0019975111
-0.16165633 0.0034295768 0.091163315 0.90614378 0.015597546 -0.42268214 0.0044433414
-0.15913527 0.0065608723 0.096328184 0.89707524 0.017320415 -0.4415383 0.0047143418
0.15842497 0.0088920929 0.097920768 -0.89583361 0.01185334 -0.44423154 0.0032309957
0.16134056 0.0041249823 0.091839001 -0.90985781 0.030610602 -0.41378951 0.0045909407
-0.16102208 0.012190275 0.0947605 0.90358829 0.019285174 -0.42796767 0.0060364334
-0.15706605 0.016967975 0.096267678 0.89877146 0.02832783 -0.43750137 0.0073026074
0.15719824 0.013513325 0.095946237 -0.89636415 0.027157389 -0.4424859 0.0040783291
0.16127612 0.016276458 0.096229471 -0.89942354 0.024198186 -0.43640786 0.0050173951
-0.16230778 0.025151633 0.095703416 0.9023726 0.023414178 -0.4303202 0.0084741795
-0.15720193 0.023363724 0.094077289 0.90276366 0.025108498 -0.42940363 0.0089263553
0.15588912 0.027326167 0.097141787 -0.89537364 0.032368749 -0.44413769 0.0061024399
0.16247189 0.026244383 0.095634103 -0.9010036 0.026849771 -0.43297973 0.006287239
-0.16170463 0.032541186 0.094076321 0.90367275 0.027086621 -0.42736608 0.0082179448
-0.15718675 0.035227314 0.097243689 0.89860231 0.044468861 -0.43650478 0.0083002383
0.15698428 0.035466351 0.096951306 -0.89583975 0.037110321 -0.44282505 0.0056412979
0.16168278 0.033620667 0.094705708 -0.89733213 0.035503823 -0.4399257 0.0056948559
-0.16166927 0.04518941 0.094885945 0.9113214 0.056383438 -0.40781635 0.0074923504
0.15825887 0.046351276 0.097271226 -0.89788139 0.046704452 -0.43775302 0.0047156862
0.16256559 0.04358596 0.094142564 -0.90070254 0.026198037 -0.43364567 0.0044772602
-0.16193761 0.054209352 0.093760654 0.91306019 0.020669959 -0.40730062 0.0056121782
0.15991156 0.054080408 0.097930163 -0.90005988 0.035947017 -0.4342812 0.0041779885
0.16161633 0.058347762 0.094413005 -0.90425456 0.025022794 -0.42626005 0.0021584169
0.15933536 0.062495314 0.099171638 -0.8996197 0.01634049 -0.43636853 0.0018814057
0.16247734 0.06643112 0.092652835 -0.90672404 -0.00045933409 -0.42172414 0.0006787164
-0.16221154 0.072767816 0.093318008 0.90437263 0.02253521 -0.42614821 0.0010212604
0.16242281 0.076965809 0.092927173 -0.90345144 0.004899886 -0.42866239 6.3610227e-05
-0.16244869 0.085703522 0.092962854 0.90142828 0.0033773873 -0.4329153 6.6832617e-05
0.16316345 0.084698118 0.09140414 -0.91721833 0.010662997 -0.398242 0.0052743549
-0.16280653 0.094975971 0.092344604 0.90038913 0.0042114258 -0.43506497 8.2536812e-05
-0.15919423 0.090429828 0.099656135 0.89923322 0.0021801169 -0.43746406 5.8438487e-05
0.16177064 0.091640271 0.09457738 -0.90062582 0.0013767497 -0.43459323 7.9742087e-05
-0.16072001 0.10928503 0.096863963 0.8970685 0.0031014148 -0.44188058 8.2348815e-05
0.16186111 0.10370316 0.094357759 -0.89751953 0.0010718198 -0.44097349 7.8913763e-05
-0.15942074 0.11384272 0.099287495 0.8937723 0.0018914643 -0.44851702 9.5608339e-05
0.15915318 0.114184 0.099778913 -0.89373618 0.0014402689 -0.44859076 0.00010898239
0.16142662 0.1162257 0.09540236 -0.89652818 0.0053292667 -0.44295466 0.00014040319
-0.16187666 0.12538075 0.0945592 0.8937279 0.008340559 -0.44853184 0.00010121949
-0.1594802 0.12466583 0.099317811 0.89270335 0.0029462874 -0.45063502 8.8101326e-05
0.15979856 0.12426792 0.098733157 -0.89301628 0.0053681647 -0.44999227 9.9030702e-05
0.16341858 0.12655099 0.091309309 -0.91605526 -0.0040114401 -0.40103191 0.0097158235
-0.1621414 0.13489798 0.094158627 0.89638925 0.0056207464 -0.44323212 0.00039552015
-0.15933241 0.13069001 0.099663943 0.89025617 0.0013225144 -0.45545816 0.00011041858
0.16209227 0.1341465 0.094240904 -0.90731579 -0.0062100096 -0.42040396 0.0058944272
-0.16198005 0.14397849 0.094652809 0.89086783 0.0051106163 -0.45423386 0.00011937808
-0.15927467 0.1435837 0.099934116 0.88899016 0.00053867575 -0.45792601 0.00011331467
0.1595974 0.1463403 0.099381894 -0.88804626 0.0066113882 -0.45970657 8.4937914e-05
0.16226792 0.14415477 0.094041206 -0.91826123 -0.0060683866 -0.39592871 0.0096980287
-0.16200954 0.15463924 0.094706573 0.89264935 0.0020919025 -0.45074692 0.00042056886
0.16216485 0.15447553 0.094440617 -0.89920872 0.0060017509 -0.43747875 0.0028867277
-0.16243632 0.1663572 0.093964107 0.90744489 -0.018160472 -0.41977835 0.0067959377
0.15994439 0.16873392 0.098963112 -0.88303852 -0.016445249 -0.46901229 0.00078268792
0.16260819 0.16472018 0.093615703 -0.9163242 0.016948216 -0.40007842 0.010416167
-0.16317646 0.17330243 0.092538975 0.91324222 -0.023543626 -0.4067364 0.010210265
0.15964773 0.17554761 0.099566892 -0.87799042 -0.02912049 -0.47779158 0.0014756237
0.16134639 0.17519185 0.096377432 -0.89601004 -0.017463965 -0.44369027 0.0052743568
-0.16034302 0.18033354 0.098435447 0.88034457 -0.01672354 -0.47403976 0.0018028257
-0.15981677 0.18552725 0.099412307 0.88288164 -0.02148265 -0.46910393 0.0024988689
0.1597324 0.18614486 0.099565953 -0.87526923 -0.020312013 -0.48320931 0.0017784258
0.1615825 0.18777519 0.096050441 -0.89862072 -0.01143627 -0.43857723 0.0096066818
-0.1635233 0.19504955 0.0939992 0.9099434 -0.05183823 -0.41148004 0.014038613
-0.15838961 0.1940107 0.094940342 0.89788038 -0.010337065 -0.44011825 0.0071659107
0.15761442 0.1954893 0.094849668 -0.88770515 -0.011341445 -0.46027279 0.0054443483
0.1609582 0.19352075 0.095087864 -0.889117 -0.017692184 -0.45733786 0.0051973294
-0.1597895 0.20252913 0.098907292 0.89044124 -0.0040424201 -0.4550803 0.0047571841
0.16273452 0.20527409 0.093111798 -0.93737918 -0.036800813 -0.34636107 0.039871279
-0.16246255 0.21480739 0.093338616 0.92065597 -0.049013466 -0.38728562 0.039216563
-0.15959029 0.21227169 0.098998822 0.89625961 -0.012899074 -0.44334215 0.0045038559
0.16385934 0.21452461 0.090624265 -0.94032192 -0.0056919488 -0.34023866 0.054977667
-0.16204482 0.22507973 0.093821831 0.92248642 -0.074525125 -0.37876761 0.052033577
-0.15917355 0.22562279 0.099359415 0.90545708 -0.032416042 -0.42319822 0.011551662
0.15985401 0.22385795 0.09813647 -0.9032113 -0.036901139 -0.42760694 0.020998588
0.16205356 0.22567683 0.093771502 -0.9444418 -0.080644451 -0.31863171 0.084702179
-0.16217098 0.23653901 0.093292683 0.95688814 -0.062759243 -0.28359562 0.082001895
0.15779713 0.23769912 0.09794277 -0.91451204 -0.017014826 -0.40420064 0.03105519
0.16287656 0.23216675 0.091920078 -0.94113427 -0.028946137 -0.33679125 0.077977099
-0.1621872 0.244582 0.094325863 0.9510026 -0.044422742 -0.30597493 0.07270626
-0.15735029 0.24606295 0.096020684 0.95054525 -0.027592106 -0.30935791 0.07283657
0.15768555 0.24371144 0.094960801 -0.95830137 0.079293691 -0.27453783 0.10064729
0.16204733 0.24657151 0.093274705 -0.91664732 -0.057596035 -0.39552563 0.039736927
-0.16179253 0.25249693 0.094127715 0.94665337 0.0054105041 -0.32220826 0.057999395
-0.15884431 0.25496104 0.093964025 0.94733715 0.053677253 -0.31570721 0.058522191
0.15895456 0.25256395 0.096507937 -0.92645043 -0.01036767 -0.37627396 0.029219689
0.16159998 0.25611138 0.093314186 -0.92949361 -0.0094747646 -0.36871648 0.055430677
-0.15848573 0.26154101 0.099113554 0.92366719 0.014511302 -0.3829208 0.0239805
0.16200627 0.26701966 0.091644742 -0.9571324 -0.012520485 -0.2893801 0.10072776
-0.16127445 0.2763094 0.092377655 0.92625988 -0.025847355 -0.3759982 0.060690224
-0.15836728 0.27777189 0.098074839 0.92434502 -0.0062635816 -0.38150623 0.026882151
0.15883376 0.27302533 0.097515203 -0.93822891 -0.024046879 -0.34517854 0.038238175
0.16138849 0.27318537 0.092395201 -0.95216554 -0.018683592 -0.30501086 0.081937805
-0.16039404 0.2826733 0.093637556 0.94967306 -0.0045412285 -0.31320989 0.064687446
-0.15786533 0.28274 0.098687977 0.8944295 -0.019767622 -0.44677189 0.0006418741
0.15962669 0.2844961 0.095028415 -0.95662826 -0.0099218925 -0.29114252 0.067504808
0.1602807 0.28101224 0.09399464 -0.9575938 -0.045385234 -0.28452474 0.068720214
-0.16091144 0.29542542 0.091601096 0.93822873 -0.006876024 -0.34594736 0.064439937
-0.15856773 0.29572386 0.096263312 0.94006729 -0.049704153 -0.33734715 0.045014914
0.15942241 0.2971065 0.09444584 -0.94530034 -0.11266745 -0.30612621 0.057877902
-0.16042547 0.30549267 0.091771461 0.94001174 -0.034644205 -0.33937845 0.05755033
-0.1591965 0.30417725 0.094341852 0.94772422 -0.052454576 -0.31474957 0.052485771
0.15659681 0.30066881 0.09981522 -0.91446292 -0.053796608 -0.40107787 0.0085367374
-0.15727943 0.31496802 0.096548371 0.9285832 -0.078872241 -0.36264646 0.019968862
0.15676314 0.31829652 0.096989229 -0.92116159 -0.038565136 -0.38726488 0.015218712
0.16050032 0.31387445 0.090213649 -0.93601424 -0.052823748 -0.34797558 0.075065106
-0.1559453 0.32503375 0.097447157 0.91173935 -0.062457167 -0.40599316 0.0080522588
0.15875122 0.32448143 0.092172317 -0.92566484 -0.063709326 -0.37294188 0.027678287
-0.15682726 0.33596858 0.094127387 0.9406544 -0.049457569 -0.33574283 0.042715017
0.15648592 0.33282867 0.095189959 -0.9252125 -0.10970383 -0.36324504 0.02536015
-0.15566331 0.34443593 0.095025025 0.90836614 -0.10692363 -0.40427494 0.017749993
0.15633696 0.34653252 0.093156181 -0.92221361 -0.075603478 -0.37921801 0.024299832
-0.15517299 0.35298717 0.093795203 0.91349679 -0.11898714 -0.38905749 0.017669355
0.15377089 0.35188749 0.096778668 -0.89451182 -0.085291982 -0.43883234 0.0047294814
-0.15371129 0.36430642 0.093597308 0.94675034 -0.095546506 -0.3074649 0.031830985
0.15331838 0.36407921 0.094408914 -0.9174639 -0.11185981 -0.3817687 0.01917658
-0.15107587 0.37610707 0.095090292 0.93925887 -0.047334284 -0.33992976 0.015710022
-0.14776593 0.37688628 0.097381122 0.91358727 -0.058177106 -0.40245953 0.0024361534
0.14728749 0.37665164 0.098551795 -0.91755188 -0.067530915 -0.39183959 0.0042476049
0.15192373 0.37440029 0.095143773 -0.93427092 -0.074290738 -0.34873876 0.015760038
-0.15231374 0.38482556 0.09328258 0.92621297 -0.039603319 -0.37491477 0.0076071448
-0.1481446 0.38155535 0.096585535 0.92000431 -0.053986963 -0.388172 0.0022119679
0.14845096 0.38409996 0.09500666 -0.93736559 -0.056405909 -0.34375009 0.015294743
0.15146665 0.38388759 0.09577591 -0.92285997 -0.056280248 -0.38100132 0.0046493588
-0.15298457 0.3965793 0.092629693 0.91375929 -0.061996147 -0.40149784 0.0044536581
0.15291221 0.39455709 0.093116164 -0.94781959 -0.052577108 -0.31444171 0.021453179
-0.15138687 0.40239966 0.094976343 0.90426803 -0.1374138 -0.4042483 0.0082001593
-0.14912856 0.40851375 0.097948253 0.87598884 -0.19192421 -0.4425028 0.010578586
0.14902988 0.40681422 0.098770611 -0.89254785 -0.15055631 -0.42507777 0.011853521
0.15211745 0.40510339 0.092711031 -0.93497443 -0.10625169 -0.33842772 0.025879104
-0.14963935 0.41061509 0.096114352 0.8894248 -0.1937132 -0.41400328 0.012288876
0.14877543 0.41339636 0.096593127 -0.86392909 -0.21695088 -0.4544875 0.019908139
-0.1439712 0.42717367 0.094157159 0.75821501 -0.47238523 -0.44940203 0.020395178
-0.13893338 0.42881316 0.099387914 0.64442307 -0.50940764 -0.57028306 0.010940778
0.13925156 0.42350018 0.097271308 -0.64731592 -0.51146704 -0.56514031 0.011423515
0.14323185 0.42644504 0.095801786 -0.6464904 -0.50896585 -0.56833428 0.010880334
-0.13404778 0.43413141 0.09803953 0.57299036 -0.57697046 -0.5820542 0.0098016765
0.1353693 0.43250033 0.099317506 -0.58976972 -0.54046023 -0.60006195 0.0079051731
-0.12904921 0.44188988 0.093367472 0.4658044 -0.66725093 -0.58120775 0.0064040883
-0.11057648 0.44610131 0.098832823 0.28455466 -0.7522006 -0.5943256 0.0012529118
-0.098509893 0.44932759 0.099529117 0.22306798 -0.77176481 -0.59549958 0.00060664589
0.099866383 0.44940844 0.098931961 -0.23205481 -0.77314717 -0.59024918 0.00068455253
0.10554911 0.44896367 0.097484618 -0.25080702 -0.75603032 -0.60457748 0.0010641534
0.11909766 0.4431687 0.098201603 -0.4006339 -0.69409031 -0.59810632 0.0057822219
0.12230247 0.44326788 0.096113242 -0.39612785 -0.68861926 -0.60736001 0.0052614734
-0.094596006 0.45212492 0.0970852 0.21222672 -0.78387892 -0.58351833 0.00036223308
-0.082866423 0.45617959 0.095306814 0.17357156 -0.80448014 -0.56805336 0.00041192499
-0.074417271 0.45854568 0.094740361 0.14845505 -0.80861884 -0.56929487 0.00050452939
-0.064026974 0.45908937 0.095968693 0.097356774 -0.81755823 -0.56755632 0.00036086445
-0.056786783 0.45896107 0.097244546 0.088463075 -0.81354493 -0.57473385 0.00026223325
-0.024316479 0.45996219 0.099057555 0.037698928 -0.83446556 -0.5497691 0.00024856682
0.021068471 0.45994934 0.099168152 -0.032008849 -0.83446938 -0.55012387 0.00024532381
0.085198224 0.4541344 0.097462535 -0.1759596 -0.79894739 -0.57508367 0.00054386229
0.090209156 0.45406538 0.095882304 -0.18843448 -0.80140913 -0.56765831 0.00060521526
0.10530702 0.4528017 0.092407435 -0.23677175 -0.77593833 -0.58468699 0.00060081988
0.11125616 0.45029086 0.093045257 -0.2794483 -0.75215518 -0.59680086 0.0014474518
-0.070107877 0.46023342 0.093393587 0.12715557 -0.81743628 -0.561809 0.00054461788
-0.063102111 0.46032301 0.094358698 0.094153531 -0.81760436 -0.56803012 0.00031491407
-0.046993889 0.46306825 0.092233017 0.066516906 -0.8401233 -0.53830135 0.00078791095
-0.033454005 0.4628621 0.094200514 0.048074543 -0.83486688 -0.54834855 0.00014024379
-0.025856482 0.46108422 0.097316138 0.037711982 -0.83419734 -0.55017519 0.00021133678
-0.012685684 0.46264505 0.095589072 0.020633979 -0.83722079 -0.54647559 3.1638137e-06
-0.0059190486 0.46428984 0.093584664 0.0040047374 -0.84164029 -0.54002374 0.00016158987
0.0068590096 0.46277168 0.095745064 -0.0065934048 -0.83862287 -0.54467261 0.00017493693
0.017371885 0.46178877 0.096564457 -0.023662675 -0.83911377 -0.54344094 0.00027276867
0.023520786 0.4608655 0.097712725 -0.034231625 -0.83633542 -0.54714835 0.0002751112
0.031643286 0.46028385 0.098329782 -0.053750765 -0.83299929 -0.55065703 0.00027494095
0.044121906 0.46178859 0.094523638 -0.063602701 -0.84251601 -0.53490311 0.00020025513
0.055551298 0.46232867 0.092307985 -0.079948872 -0.84037364 -0.53607851 0.00050934945
0.060032099 0.4627969 0.091050625 -0.092326984 -0.83931541 -0.53574747 0.00051429769
0.071618497 0.46157742 0.091246873 -0.12347297 -0.8327294 -0.53973705 0.00062699203
-0.056279659 -0.17019078 0.10315912 0.066764176 0.45364618 -0.88867754 4.8724018e-05
-0.042075828 -0.17363423 0.10229222 0.049594417 0.4558844 -0.88865626 3.5095247e-05
-0.030816374 -0.17361431 0.102796 0.041932542 0.45678547 -0.88858801 6.3423645e-06
-0.022671873 -0.17422317 0.10285019 0.036013395 0.45585302 -0.88932621 0
-0.011657291 -0.17628929 0.10225754 0.023836106 0.45681146 -0.8892442 9.3783681e-05
-0.002848478 -0.17845674 0.10154767 0.0028602604 0.45803931 -0.88892734 0.00021776148
0.0040758825 -0.17470293 0.10341188 -0.0060650883 0.45563397 -0.89014649 0.00019275997
0.018736845 -0.17742074 0.10137871 -0.036759257 0.4576517 -0.88837141 5.8126047e-06
0.026460398 -0.17880876 0.10032938 -0.039037514 0.45785993 -0.88816684 9.522767e-06
0.035515662 -0.17329645 0.10274564 -0.045268781 0.45537126 -0.88914996 3.5650948e-05
0.048533618 -0.17370112 0.1019862 -0.059056155 0.45690033 -0.88755536 5.8181999e-05
0.062899791 -0.1747735 0.10018015 -0.073979996 0.45641619 -0.88668555 4.0360392e-05
-0.10844135 -0.16100211 0.10156056 0.18410271 0.43345636 -0.88216883 0.00021193326
-0.086375274 -0.16683324 0.10208783 0.1107839 0.44629046 -0.88800436 0.00024568746
-0.075100511 -0.16850403 0.10222539 0.083757296 0.45307258 -0.88753027 1.0428154e-05
-0.051944982 -0.16727078 0.10506799 0.060752202 0.45150745 -0.8901968 6.5676199e-05
-0.042369578 -0.16229977 0.10811837 0.048640631 0.44588643 -0.89376688 7.8759702e-05
-0.035311017 -0.16276 0.10817812 0.044137068 0.44888297 -0.8924998 4.5286513e-05
-0.024023002 -0.16332452 0.10838113 0.035815995 0.44822982 -0.89320058 4.1245261e-05
-0.016562086 -0.16468255 0.10800518 0.029265683 0.44961143 -0.89274466 5.4249969e-05
-0.0076236548 -0.16382095 0.10882241 0.026360497 0.44646069 -0.8944149 8.7211236e-05
0.004094474 -0.16429195 0.10873644 -0.008358147 0.44981217 -0.89308405 0.00019467389
0.012346225 -0.16567257 0.10767423 -0.02174359 0.44984967 -0.89283955 9.5092117e-05
0.022511845 -0.16124633 0.10951716 -0.036598109 0.44990149 -0.89232796 4.6342218e-05
0.033735666 -0.16482015 0.10718415 -0.043005962 0.45204273 -0.89095896 3.3486045e-05
0.045940697 -0.16487961 0.1066362 -0.055551108 0.45149988 -0.89054024 9.278729e-05
0.05303935 -0.1677265 0.10472666 -0.063463427 0.45759895 -0.88689101 5.6482735e-05
0.061033338 -0.16370271 0.10600477 -0.071752779 0.4514899 -0.88938648 7.0705697e-05
0.075457335 -0.16438244 0.10433298 -0.084507585 0.45407 -0.88694918 5.2777585e-05
0.085290879 -0.16319576 0.10407259 -0.10299679 0.45063281 -0.8867479 0.00026714714
0.095962912 -0.16329406 0.10298402 -0.13588755 0.43855688 -0.88837069 0.00034252412
0.10324256 -0.16261224 0.10190042 -0.15473962 0.43765178 -0.88572943 0.00037076633
-0.13017705 -0.15002167 0.10163081 0.29366913 0.43122667 -0.85311311 0.0092064468
-0.1258931 -0.15582311 0.10034907 0.24692854 0.4178347 -0.87432283 0.0032588183
-0.11544496 -0.15611713 0.10251196 0.19951144 0.43066448 -0.8801837 9.7941163e-05
-0.10516907 -0.15566748 0.10495143 0.1715112 0.42996538 -0.88640487 0.0002569911
-0.03701641 -0.15928459 0.10989662 0.045788083 0.44421175 -0.89475101 7.9046658e-05
0.038746368 -0.15952805 0.10969846 -0.043656051 0.44263944 -0.89563632 0.00011124773
0.058079675 -0.15706292 0.10968108 -0.069846749 0.44029731 -0.89513117 0.00013897635
0.073179007 -0.15849715 0.10759091 -0.081505984 0.44284996 -0.89288342 0.00010461744
0.084247023 -0.15672499 0.10752441 -0.099413611 0.44457263 -0.89020896 0.00015309472
0.093474656 -0.15291071 0.10868189 -0.12788655 0.43282554 -0.89236045 0.00028036913
0.10622469 -0.15116093 0.10698044 -0.16379936 0.42504275 -0.8902294 0.00024189761
0.11813203 -0.1540354 0.10298124 -0.1794357 0.431344 -0.88416356 0.00035268831
0.12424198 -0.15213521 0.10262483 -0.22189106 0.4201158 -0.87992442 0.0039575822
0.14299354 -0.15157789 0.1002432 -0.47891948 0.36068851 -0.80033731 0.02554296
-0.15013024 -0.14081372 0.10070457 0.61792612 0.31747353 -0.71928984 0.030613562
-0.1438482 -0.14426978 0.10314562 0.51002628 0.34698975 -0.78706509 0.025303213
-0.13004929 -0.14889476 0.10221125 0.29366854 0.43121475 -0.85311937 0.009210255
-0.12593037 -0.14508328 0.10534132 0.24908404 0.41227096 -0.87635022 0.00476623
0.11447944 -0.14661597 0.10747894 -0.1720303 0.42589644 -0.88826668 0.00042605438
0.12622754 -0.14634445 0.10477748 -0.23419005 0.41085768 -0.88110781 0.0046040886
0.13842721 -0.14606817 0.10243858 -0.42103139 0.37610137 -0.82539707 0.024977125
0.14362939 -0.14357825 0.103611 -0.50557393 0.35241094 -0.78752875 0.029633798
-0.1501046 -0.13534667 0.10252101 0.64156353 0.25979713 -0.72173512 0.029467762
-0.14515421 -0.13537331 0.10527029 0.56981832 0.29347929 -0.76757866 0.02925602
-0.13646755 -0.13489006 0.10720715 0.36577138 0.36480504 -0.85622931 0.013653889
0.12431885 -0.13933572 0.10891042 -0.22918384 0.39644718 -0.88899064 0.0047813337
0.13388285 -0.13339756 0.1091238 -0.34623376 0.36780298 -0.86304295 0.017132556
0.14588536 -0.13532738 0.10449161 -0.62002027 0.26801077 -0.7373907 0.028843231
0.15111683 -0.1342708 0.10121996 -0.68711203 0.21536297 -0.69389898 0.024765389
-0.15050502 -0.12951343 0.1018808 0.69495481 0.20907825 -0.68798548 0.028305382
-0.14709724 -0.12394699 0.10562292 0.69203156 0.20397203 -0.69245046 0.029124215
0.14779328 -0.12584008 0.10540301 -0.67938918 0.2321838 -0.69607544 0.02769326
-0.15095828 -0.11519516 0.10115573 0.81026906 0.087821387 -0.57944059 0.0090132328
-0.14674596 -0.11404822 0.10755933 0.71875429 0.15619051 -0.6774931 0.022448814
0.14767575 -0.11690214 0.10670391 -0.73937947 0.18451573 -0.6475122 0.01892806
0.1507441 -0.11158305 0.10209852 -0.81011569 0.1208979 -0.57366902 0.012568149
-0.15129797 -0.1077055 0.10177814 0.82214004 0.09053202 -0.56204063 0.0080161318
-0.14862145 -0.10621663 0.1065667 0.78405035 0.10254121 -0.61216867 0.014365456
0.15136498 -0.10561989 0.10199837 -0.84544802 0.082777686 -0.52760357 0.0057985121
-0.15115803 -0.093316816 0.10383599 0.85479188 0.080113016 -0.51275027 0.0057920371
-0.14883648 -0.097332045 0.10745817 0.81098515 0.12218826 -0.57216543 0.013151255
0.1527382 -0.094344065 0.10103408 -0.87508023 0.054511629 -0.4808982 0.00085865607
-0.15234469 -0.083533242 0.10267644 0.87760186 0.04730463 -0.47705051 0.0010864385
-0.14989561 -0.081775397 0.10703397 0.87389374 0.051343668 -0.4833979 0.001126578
0.1525666 -0.086187266 0.10205835 -0.87790191 0.048457671 -0.47638234 0.00070723274
-0.1509573 -0.074153744 0.10589519 0.87916672 0.043987215 -0.47447979 0.0010092799
-0.14914428 -0.078647748 0.10860239 0.8711406 0.049806174 -0.48850128 0.001259467
0.14936736 -0.07794556 0.10828264 -0.8745203 0.049456604 -0.48246068 0.0010839883
0.15068495 -0.075841323 0.10621156 -0.87918633 0.047033243 -0.47415122 0.00075588276
-0.15383443 -0.066532724 0.10115746 0.89046943 0.029973535 -0.45405483 9.0548332e-05
0.14980069 -0.069169089 0.10859136 -0.88308704 0.039766822 -0.46752095 0.000267739
0.15257359 -0.065424889 0.10376266 -0.88771307 0.03269358 -0.4592348 0.00010983245
-0.15310448 -0.055766691 0.10315169 0.88965333 0.030492237 -0.45561743 5.0371684e-05
-0.14983626 -0.055449151 0.10949112 0.88175827 0.034710102 -0.47042274 0.00039262575
0.14995097 -0.058038071 0.10911465 -0.88472271 0.034223821 -0.46485966 0.00014037018
0.15368664 -0.051532622 0.1021348 -0.89097446 0.032125942 -0.45291561 4.7240195e-05
-0.15181912 -0.045778807 0.10622523 0.88760573 0.030655837 -0.45958266 4.8004465e-05
0.15173738 -0.042674769 0.10656827 -0.88751674 0.0302181 -0.45978358 5.8504807e-05
-0.15266943 -0.035077758 0.10505335 0.88606775 0.035418052 -0.46220082 6.0370825e-05
0.1530281 -0.036461368 0.10426002 -0.88798702 0.031456843 -0.45879135 2.3806495e-05
-0.15389469 -0.024737252 0.10354877 0.88689631 0.038124409 -0.4603928 2.1948696e-05
0.15346977 -0.024669273 0.10437867 -0.88665777 0.038102586 -0.46085382 4.579754e-05
-0.1529147 -0.017303396 0.10613428 0.88726735 0.040097721 -0.45950919 2.2868799e-05
0.15457933 -0.015362041 0.10308491 -0.8892163 0.032160349 -0.45635515 0.00027926909
-0.15294376 -0.004943477 0.1072184 0.89055717 0.0093016205 -0.45477623 0.0015819528
0.15579249 -0.0037835902 0.10180803 -0.89463323 0.03636482 -0.445319 0.0012694306
-0.15350954 0.0087408004 0.10739759 0.88817298 0.0211084 -0.45902419 0.004166245
0.15341213 0.004795114 0.10721262 -0.88942003 0.024585223 -0.45642921 0.0028182564
-0.15340711 0.015384606 0.10473049 0.88671553 0.028857565 -0.46141401 0.0053630229
0.15532254 0.016853744 0.10488984 -0.88565546 0.019043453 -0.46395218 0.0050721937
-0.1557699 0.025034642 0.10428578 0.89657313 0.033902273 -0.44159624 0.0074331709
-0.1498349 0.02216858 0.10806964 0.88819271 0.024469586 -0.45881915 0.006941516
0.15324955 0.023382951 0.10456214 -0.88308418 0.022168593 -0.46869069 0.0055825487
-0.16006185 0.030272273 0.10081068 0.89971727 0.033252072 -0.43520463 0.0075509162
-0.15436034 0.033199828 0.10684379 0.8864693 0.038803268 -0.4611578 0.0072276443
0.15533303 0.035510466 0.10475921 -0.8789891 0.043885518 -0.47481814 0.0055971295
-0.15838952 0.044307157 0.10298973 0.89696914 0.05681983 -0.43842664 0.007817965
0.1553112 0.0447377 0.10643882 -0.88458025 0.040637869 -0.46461418 0.0055392538
0.16010083 0.042690121 0.10102611 -0.89712572 0.036935721 -0.44022852 0.0052800057
-0.15790358 0.051687863 0.10214064 0.90025514 0.027949823 -0.43446457 0.0056527006
0.15659706 0.053577837 0.10486528 -0.8906678 0.031654615 -0.45355141 0.004121094
-0.15683939 0.064408451 0.10424081 0.90156192 0.0231074 -0.43203267 0.0019102566
0.15660986 0.065713078 0.10464869 -0.89782035 0.0069404845 -0.44030714 0.0015451679
-0.15583923 0.074501552 0.10626223 0.89590514 -0.0057898713 -0.44420764 0.00012673133
0.15698123 0.072591737 0.10396887 -0.90077651 0.0026505743 -0.43427488 0.00038619756
-0.15500608 0.087986462 0.1080714 0.892272 -0.0039692917 -0.45148081 7.1307666e-05
0.15622339 0.086620644 0.1056187 -0.89318967 -0.0018100732 -0.44967642 4.6524146e-05
-0.15559921 0.098221749 0.10657875 0.89305556 -0.0020965857 -0.44994155 0.00010547362
0.15608509 0.095324188 0.10569924 -0.89266247 -0.0020071936 -0.45072135 8.2860592e-05
-0.15579574 0.10518182 0.10598046 0.89216906 -0.0012182205 -0.45169991 9.8872923e-05
0.15661262 0.10535113 0.10446525 -0.89248347 -0.0027098022 -0.45107192 9.4046882e-05
-0.15646175 0.11612064 0.10474658 0.89017296 -0.0013522014 -0.4556208 8.9616849e-05
0.15600681 0.11614121 0.10553161 -0.8891235 -0.00038219997 -0.45766717 9.8960831e-05
-0.15641601 0.12593479 0.10491204 0.88610411 -0.0018657639 -0.46348256 7.5156349e-05
0.15548071 0.1239336 0.10658907 -0.88752508 -8.7229186e-05 -0.46075943 5.4997789e-05
-0.15564661 0.13577767 0.10643864 0.88470793 -0.00044929891 -0.4661456 9.2753471e-05
0.15651041 0.13517791 0.10485855 -0.88636237 -0.00056610501 -0.4629918 7.6021955e-05
-0.15642548 0.14286235 0.10511151 0.88470823 -0.0013382825 -0.46614328 9.152948e-05
0.15832074 0.14399227 0.10167586 -0.88476932 0.0029434888 -0.46602002 0.00010885396
-0.1567667 0.15607323 0.10437204 0.8833071 -0.00036867915 -0.46879461 0.00016543068
0.15697591 0.15749474 0.10396878 -0.88156033 0.0024094183 -0.47206515 0.00016091362
-0.15583137 0.16499485 0.1059965 0.87487096 -0.016041737 -0.48409039 0.00055806467
0.1568343 0.16513784 0.10427056 -0.87984478 -0.0032453472 -0.47525001 0.0001960825
-0.1572354 0.1743159 0.10370266 0.87227637 -0.021218698 -0.4885526 0.0015104514
0.15593801 0.17213467 0.10590616 -0.8739326 -0.027219871 -0.48528442 0.0015365609
-0.15556248 0.18669032 0.10429764 0.86327523 -0.015819436 -0.50448549 0.003446274
0.15559682 0.18709809 0.10662174 -0.86431456 -0.01759995 -0.50264353 0.0029074037
-0.15616693 0.19575639 0.10440504 0.86808133 -0.0032567335 -0.49641132 0.0029530802
0.15556839 0.19398259 0.10531193 -0.8653003 -0.012314025 -0.50110245 0.0028165246
-0.1582465 0.20157738 0.10160413 0.88212782 0.0073249149 -0.4709532 0.0024835507
0.15777342 0.20642973 0.10229904 -0.87274063 -0.0082074152 -0.48811513 0.0024613289
-0.15550677 0.21544898 0.10599163 0.86449635 -0.017764388 -0.50232512 0.0018836962
0.15756437 0.21368806 0.10247225 -0.86888015 -0.015510433 -0.49477953 0.0025048102
-0.1578929 0.22386861 0.10163792 0.87402022 -0.033285491 -0.48474815 0.0021661376
0.1565098 0.22633868 0.10397009 -0.85924846 -0.030156966 -0.51066887 0.002423743
-0.1542148 0.2368764 0.10525398 0.86658782 -0.025493689 -0.49837297 0.002570139
-0.14976598 0.23525319 0.10930972 0.85905868 -0.021332493 -0.51143247 0.0027027372
0.14976269 0.23424897 0.1093383 -0.86042601 -0.024716401 -0.50897568 0.0033004417
0.15455069 0.23601133 0.10540323 -0.85824245 -0.017950511 -0.51293063 0.0030262736
-0.15463786 0.24450962 0.10531134 0.86811358 -0.015120732 -0.49613532 0.0029759577
-0.14937645 0.24329925 0.1098119 0.86302537 -0.011199667 -0.50503641 0.0030427501
0.15443732 0.24475342 0.10494304 -0.86556691 -0.0059374981 -0.50075811 0.002776654
-0.15384056 0.25294918 0.1073831 0.87627804 -0.0069612172 -0.4817555 0.0021207174
0.15640345 0.25450939 0.10318451 -0.88251382 -0.0030232621 -0.47027668 0.002138884
-0.15558465 0.2637578 0.10423523 0.87909919 0.0042210901 -0.47662014 0.0017365119
0.15530549 0.26711151 0.10464611 -0.87898821 -0.0036383513 -0.47682953 0.00089817861
-0.15363924 0.27556151 0.10743634 0.87675595 -0.018522896 -0.48057872 0.00067517877
0.15474947 0.27511063 0.10526755 -0.87792635 -0.023088515 -0.47823867 0.00028511425
-0.15346566 0.28501922 0.10720675 0.8742851 -0.032644317 -0.48431373 0.00037332746
0.15366666 0.28566551 0.10685266 -0.8758629 -0.04083012 -0.48082966 0.00047158333
-0.15421657 0.29539096 0.10498893 0.87858355 -0.044616502 -0.47550005 0.00049594697
0.1543085 0.29431474 0.10488971 -0.87602174 -0.044185586 -0.48024321 0.00039638719
-0.15336229 0.30738255 0.10528389 0.87165529 -0.063185319 -0.4860296 0.00069334876
0.15293589 0.3040936 0.10663854 -0.87168133 -0.056765657 -0.48677444 0.00053706742
-0.15272759 0.31401253 0.1054869 0.87137783 -0.068193421 -0.48585007 0.00060958369
0.15256797 0.31197453 0.10604902 -0.86621362 -0.070867263 -0.49462298 0.00099083269
0.15182063 0.32555935 0.10576735 -0.86880261 -0.066596255 -0.49065983 0.0012291612
-0.15190221 0.33686176 0.10396298 0.8666572 -0.079916678 -0.49246174 0.0021000153
0.14901245 0.33501577 0.10964685 -0.87275845 -0.073725604 -0.48255283 0.0028004861
0.15402056 0.33292827 0.10015604 -0.8803823 -0.090038009 -0.46563944 0.0016955105
-0.15072724 0.34100375 0.1055201 0.86890334 -0.073606461 -0.48947835 0.0030552454
0.14913799 0.3453252 0.1072828 -0.8788839 -0.073665954 -0.47131345 0.0032743046
0.15187939 0.34554762 0.10209835 -0.87373507 -0.096711352 -0.47669062 0.0022888763
-0.15098341 0.35229138 0.10202486 0.88699931 -0.093320951 -0.45224255 0.0040003881
-0.14810231 0.35681516 0.10610972 0.89008027 -0.077380024 -0.4491877 0.0047760592
0.14874431 0.35629031 0.10510338 -0.8903293 -0.089223467 -0.44648963 0.0036682289
0.15037596 0.35127783 0.10346124 -0.88582367 -0.084517151 -0.45626023 0.0033318326
-0.15068056 0.36073479 0.10036008 0.89243633 -0.086844765 -0.44273627 0.0038376155
-0.14694807 0.36589161 0.10561663 0.89983761 -0.057875708 -0.43236864 0.0045833564
0.1463487 0.36544782 0.10523541 -0.90484768 -0.057781756 -0.42179599 0.0044188481
0.15061158 0.36240172 0.10004906 -0.89404172 -0.085584924 -0.43973246 0.0050835591
-0.14756292 0.37448326 0.10368697 0.9149152 -0.040776573 -0.40158123 0.00337012
0.14787942 0.37671608 0.10522267 -0.91519892 -0.057806294 -0.39883488 0.0044000247
0.15035786 0.37825805 0.1012264 -0.91796416 -0.061871737 -0.39180824 0.0036714983
-0.14886284 0.38624901 0.10376129 0.91089821 -0.060610838 -0.40815535 0.0021001634
0.14743383 0.38828713 0.10677287 -0.91527706 -0.059129417 -0.39846143 0.0040557855
-0.1473611 0.39516515 0.10526846 0.89265758 -0.12487431 -0.43309221 0.0076369182
0.14811459 0.39529723 0.10366569 -0.910716 -0.086412884 -0.40389252 0.0065478734
-0.1471882 0.40529707 0.10275588 0.87314832 -0.16046488 -0.46028584 0.010528401
0.14587958 0.40645754 0.10531218 -0.85391289 -0.20810829 -0.47699445 0.015712569
-0.14433444 0.41182765 0.10545078 0.80864662 -0.29833308 -0.50703835 0.012074083
-0.13657604 0.41897354 0.10643458 0.66214329 -0.49720308 -0.56067407 0.017721044
0.14302473 0.41540661 0.10604406 -0.75515324 -0.35926342 -0.54833686 0.012775133
-0.14372326 0.42248616 0.10083505 0.73231572 -0.42151281 -0.53482759 0.013965217
-0.13823114 0.42363238 0.10351288 0.63029462 -0.48809776 -0.60372949 0.015423229
0.12576157 0.42963147 0.109115 -0.53066486 -0.66345978 -0.52746177 0.022608232
0.14239587 0.42442229 0.10159212 -0.66329104 -0.48981568 -0.56579638 0.013656576
-0.12724163 0.43191534 0.10574102 0.4768115 -0.65388727 -0.58743703 0.011639063
-0.11725987 0.43565527 0.10847054 0.40329602 -0.71910763 -0.56589454 0.024433242
0.11768003 0.43822575 0.10512332 -0.42875999 -0.71984005 -0.54588932 0.017544378
0.12699637 0.43057626 0.1073525 -0.51915401 -0.6671657 -0.53419942 0.018613691
0.13006708 0.43162608 0.10413273 -0.52660596 -0.63160986 -0.568995 0.014752894
-0.12113044 0.44024158 0.10051602 0.39391282 -0.68833727 -0.60911775 0.0044861301
-0.1119583 0.44096661 0.10466591 0.30861893 -0.74580228 -0.59036702 0.0021598949
-0.10124342 0.44767651 0.10076666 0.23607428 -0.76832545 -0.59493268 0.00075472106
-0.09493988 0.44554099 0.10590943 0.22948617 -0.77834022 -0.5843994 0.004395314
-0.073742792 0.44910607 0.10844508 0.14633936 -0.77355295 -0.61660409 0.0013901105
0.068883672 0.44920897 0.1092613 -0.13260646 -0.78066325 -0.61072129 0.005825772
0.086001374 0.44708115 0.10705493 -0.18585527 -0.76405352 -0.61780256 0.00061763969
0.097047813 0.44409651 0.10709421 -0.21875511 -0.7934677 -0.56793952 0.010061901
0.10379085 0.44448176 0.1040868 -0.26748851 -0.74141335 -0.61543161 0.0013810603
0.11842721 0.44049323 0.10193335 -0.38749078 -0.69922054 -0.60078424 0.0056319684
-0.071336851 0.45465556 0.10113364 0.14116798 -0.79735988 -0.58676136 0.00055098132
-0.061434496 0.45351979 0.10429292 0.10028896 -0.7969113 -0.59571344 0.00049515208
-0.052757829 0.45608005 0.10198998 0.07827203 -0.80365437 -0.58992642 0.00039297951
-0.047813334 0.45516327 0.10401744 0.079998121 -0.80160081 -0.59248322 0.00045113222
-0.031733289 0.45463035 0.1068446 0.056995049 -0.80682075 -0.58804059 0.00040436661
-0.026257483 0.4563652 0.10444704 0.051138408 -0.81675231 -0.57471776 0.00056610606
-0.015967453 0.45584428 0.10552438 0.022480235 -0.81808341 -0.57466012 0.00032601896
-0.0020961792 0.45681772 0.10471209 0.0025981017 -0.8234235 -0.56742144 0.00020955206
0.016340472 0.45529443 0.10634612 -0.032796137 -0.81920278 -0.57256544 0.00047749432
0.030356051 0.45850515 0.10109308 -0.050795324 -0.82096648 -0.56871241 0.00027309626
0.046796154 0.4566389 0.10198826 -0.072776288 -0.8169257 -0.57213271 0.00061403634
0.059752658 0.45284349 0.10551688 -0.10009526 -0.79828 -0.59391075 0.00052525784
0.065917343 0.45130506 0.10674322 -0.11722597 -0.79159391 -0.59969753 0.00071129942
0.076685809 0.45357731 0.10111544 -0.1499171 -0.79921609 -0.58204675 0.00065872853
0.082655974 0.45137495 0.10227759 -0.16711065 -0.79278171 -0.58614951 0.0007212839
-0.077400379 -0.15003593 0.11160669 0.093630478 0.42962199 -0.8981415 0.00020641257
-0.061144922 -0.15478842 0.11058852 0.070119224 0.4387534 -0.89586759 0.00010138919
-0.055837646 -0.15346338 0.11175794 0.066501774 0.43487379 -0.89803255 0.00013256956
-0.044010881 -0.15619607 0.1111934 0.051230546 0.44015878 -0.89645731 0.00011890379
-0.036947116 -0.15320157 0.11303296 0.045350939 0.43709746 -0.89827013 9.2493137e-05
-0.023765035 -0.15399209 0.11318532 0.035712454 0.43613514 -0.89917231 8.9002133e-05
-0.013151822 -0.15539439 0.11291352 0.024907932 0.4387427 -0.89826745 0.000120421
-0.0054500587 -0.15303206 0.11444876 0.0069915694 0.4392105 -0.89835691 0.00021121393
0.0047287359 -0.15915383 0.11134001 -0.0077746133 0.44346225 -0.89625937 0.00020229131
0.023221642 -0.1576307 0.11133946 -0.034645233 0.43803924 -0.89828807 0.0001014798
0.037326884 -0.15475534 0.11221664 -0.042430773 0.43303338 -0.9003787 0.00012023019
0.049906466 -0.15296319 0.11255985 -0.05937336 0.43431768 -0.89880085 0.00014690774
0.053226784 -0.15327927 0.11208676 -0.061374862 0.43371174 -0.89895892 0.00015420037
0.066222787 -0.15243383 0.11135817 -0.073957369 0.43726748 -0.89628536 0.00010825888
0.078771248 -0.15188538 0.11052452 -0.093997985 0.43802935 -0.8940329 0.00015529264
-0.11324608 -0.14129648 0.11034494 0.18350063 0.41781461 -0.88980818 0.00034501764
-0.10467456 -0.14357612 0.11105128 0.17265451 0.4213396 -0.89031637 0.00030511327
-0.085376859 -0.14414972 0.11374176 0.10858092 0.423484 -0.89937288 0.00032426152
-0.072617322 -0.14215195 0.11567631 0.078049958 0.41783828 -0.90516263 0.00017718344
-0.062851891 -0.14209433 0.11650737 0.065417506 0.41860315 -0.90581018 7.8858036e-05
-0.051014241 -0.1448559 0.11627951 0.059174553 0.42181522 -0.90474868 0.00011746924
-0.044659846 -0.14688888 0.11573484 0.05451332 0.42414129 -0.90395379 0.00012138001
-0.035266709 -0.14590286 0.11654942 0.04297021 0.42202413 -0.90556562 6.9667367e-05
-0.023818079 -0.14354038 0.11803314 0.036071863 0.41780621 -0.90781981 7.4196301e-05
-0.010663667 -0.14168301 0.11934988 0.023991043 0.41726455 -0.90846837 0.00012493864
-0.0054093241 -0.14488837 0.11815479 0.010255906 0.41799536 -0.9083913 0.00021170697
0.0036968053 -0.1458497 0.1178017 -0.0072786459 0.42231074 -0.9064219 0.00017223322
0.027427007 -0.1478561 0.1160003 -0.036185991 0.42387331 -0.90499836 8.1475686e-05
0.040326886 -0.14070296 0.11863033 -0.045024507 0.41609833 -0.90820432 9.4719449e-05
0.055552691 -0.14929986 0.11392181 -0.064432032 0.4292739 -0.90087312 0.00015806161
0.075162873 -0.14243034 0.11534479 -0.084273905 0.42135367 -0.90297228 8.6532847e-05
0.11077168 -0.14185497 0.11060413 -0.17071843 0.4168101 -0.89281833 0.00032855099
-0.14114982 -0.13027842 0.11073787 0.47323221 0.30985263 -0.82464695 0.019953886
-0.1224247 -0.13646613 0.11062878 0.21014778 0.41084746 -0.88715404 0.001896486
-0.1113403 -0.13520135 0.1133258 0.18216592 0.41346055 -0.89211321 0.00038766142
-0.10382838 -0.13499017 0.11492542 0.17520933 0.40733951 -0.89631253 0.00021973703
-0.09515027 -0.13372086 0.11721043 0.14069362 0.4077884 -0.90217173 0.00028873654
-0.085309543 -0.1376608 0.11659891 0.11565477 0.40906227 -0.90514755 0.00030923265
-0.073408991 -0.13610335 0.1182498 0.076724969 0.4054437 -0.91089451 4.2375403e-05
-0.064050727 -0.13670497 0.11875965 0.068494394 0.40706787 -0.91082621 2.2585216e-05
-0.054600138 -0.13987459 0.11815676 0.060927093 0.41314724 -0.90862387 8.0736303e-05
-0.040961593 -0.13926725 0.11923473 0.048635423 0.41162318 -0.91005546 0.00010997236
-0.037447579 -0.13906062 0.11946289 0.044748321 0.41467652 -0.90886796 9.0521877e-05
0.051833834 -0.13848872 0.11898968 -0.062098596 0.41382027 -0.90823817 9.3258641e-05
0.06634295 -0.13350724 0.11996555 -0.074197978 0.40871045 -0.90964299 3.8460377e-05
0.076311581 -0.13519102 0.11840827 -0.080566242 0.41228276 -0.90748656 5.6010216e-05
0.085118391 -0.13449879 0.11802042 -0.11405042 0.41412008 -0.90304881 0.00022066406
