# .PCD v0.7 - Point Cloud Data file format
VERSION 0.7
FIELDS x y z
SIZE 4 4 4
TYPE F F F
COUNT 1 1 1
WIDTH 1529
HEIGHT 1
VIEWPOINT 0 0 0 1 0 0 0
POINTS 1529
DATA ascii
-879.77332 919.65466 145.37234
-315.23352 1922.4463 -295.31985
-843.50037 838.37585 125.35564
-483.29199 -1753.5803 -387.29456
-268.23547 324.82172 -450.87494
924.38733 -1645.0164 -545.68793
678.35876 959.64343 -278.49405
544.4295 -750.96796 -435.11453
789.58276 46.557854 -513.87714
605.2561 310.16245 -443.42191
-922.65497 -1050.8275 167.75095
-489.09808 593.1637 -155.85773
663.32782 -1977.386 34.24324
-773.66077 737.01135 5.9238853
-847.42169 119.64687 -166.0789
857.31653 376.96857 -102.7464
244.27631 1864.5077 307.75861
-889.0202 1053.4987 -423.66705
86.113396 2306.6326 -147.72632
-698.28259 96.50827 449.48602
-802.80383 -565.63232 114.37456
16.555317 2011.1191 -170.54047
-884.54279 -393.08401 303.79523
357.72791 1594.2092 -427.34607
-91.966896 2213.0793 -373.24634
609.91882 963.63489 -277.32837
331.67108 579.78601 -155.4489
210.97856 1277.5621 378.72028
-796.00677 1886.504 -504.54181
-899.09552 -274.88669 416.6076
323.63052 191.01201 687.84827
-905.7865 1852.8556 -296.53949
-902.08093 1717.551 -179.05984
828.92859 831.03674 -519.18597
143.9174 670.57166 -72.440079
-764.8515 1562.5959 308.34967
-655.05133 1650.5698 -17.758156
-915.18451 1386.0275 -367.74768
-630.45056 -1371.5781 271.52548
-144.72113 753.04626 -46.430927
835.71063 -1169.7428 -35.126621
-287.10779 -21.465738 674.62439
-150.20956 -201.47157 -171.55081
-862.04688 -1720.1401 41.635147
292.15686 514.32507 -341.50629
-815.16089 1326.842 -259.25269
603.8548 -2097.1914 -63.154129
169.60922 -326.23938 -287.91379
-853.91156 615.13605 15.9269
-563.87341 -1813.0786 27.155506
480.78577 -1343.853 -231.01689
573.77557 -1772.3334 188.61365
783.11139 -1193.281 105.22248
-672.64423 1492.3846 386.95303
-112.53333 479.42603 685.22528
-547.48279 1299.511 471.85339
-483.29199 -1578.8567 -346.76013
824.23633 247.31471 -170.83868
-834.07349 1268.6649 -173.52248
-754.81604 1069.9116 339.67389
697.32562 678.11932 -522.94183
-809.55835 -808.56067 307.44666
-806.28198 1349.868 -476.92874
438.48212 -635.15833 363.85373
724.07269 -1102.7386 58.049202
-122.49347 1802.484 176.4366
-316.55298 529.37799 672.27454
392.29117 249.19994 -80.979881
409.2836 -308.98029 -439.33423
-431.74023 348.06824 234.92676
-825.57581 502.16907 -511.30426
656.21234 356.36548 -443.52026
-434.41846 1719.1602 -427.34601
423.06027 -1313.3923 281.37671
381.10037 1760.0754 297.28757
460.84134 -1814.0271 178.0912
-788.28235 -694.51917 -515.86377
-869.55994 826.96423 -152.97878
573.54095 -567.05615 -41.277931
440.2001 -1586.0966 235.84039
197.5649 1977.396 271.85715
-540.59137 1019.7186 270.17532
-528.91736 311.17236 -520.48254
-920.604 -978.42419 105.82581
663.35504 1936.4358 137.41275
-464.81793 1549.0254 334.30899
892.43799 -1050.0615 -181.62781
455.43509 -1763.144 194.97801
-617.06006 -815.29199 333.25085
788.06824 471.55975 -442.81229
-442.40851 1829.1647 -389.76007
-512.89386 -1090.0034 -100.42209
-885.85907 889.49365 95.058151
-770.24017 1116.707 -111.83788
-205.56474 428.8902 227.72501
-420.0531 -590.11133 -521.33875
-916.1756 496.18018 -387.56207
850.15546 69.241508 -260.58728
-523.97522 -1535.4591 244.47949
-293.83478 1210.4794 -427.34604
-813.42578 -562.08344 -156.36388
888.33008 1571.8318 58.394115
96.519218 723.75238 72.737228
-341.06827 990.34424 582.02197
-266.06778 500.70871 -256.85098
59.61837 -1025.5669 326.897
-937.85846 1593.3954 -517.97272
819.31458 -1942.9032 -23.711231
498.77124 -1065.408 277.04388
755.1236 2162.2141 -13.216831
339.4079 1910.1565 291.59155
713.21704 1911.2455 129.43185
878.31213 1475.3483 -520.91534
-542.23077 1137.9753 -168.31767
467.81897 -2037.9139 73.051727
-120.16487 854.77667 -531.00787
879.69659 -301.62537 -498.12024
-173.48352 936.29462 -458.87827
-864.86975 1060.4343 -211.93353
-168.57275 2275.8247 -147.48523
718.479 -1336.3252 -122.29285
400.64355 1378.2827 455.79758
-92.613785 98.218559 -520.58582
806.57068 -110.68949 265.48117
895.31458 -1805.4489 -379.48871
-80.515228 -1971.0642 115.61145
518.12341 732.59424 -87.380692
868.76172 1450.6257 -135.12315
689.05811 -1901.5411 -52.521931
476.18967 337.56409 -113.47112
-509.77429 2081.6582 212.07742
-161.85614 187.07245 -520.51904
940.05701 1081.9473 -243.81601
462.35577 2231.5947 -100.56013
-383.81622 738.75092 633.96948
800.40332 -1537.757 -452.85486
699.63055 -1854.9369 -34.865589
119.05435 -883.78381 -436.44955
-474.00754 1944.8833 -272.60385
803.90967 -38.834217 265.30273
-514.81512 1867.6477 299.95648
898.59216 -441.3764 -38.705956
-826.32715 -269.52133 219.84596
-721.67859 -1302.8555 278.93436
912.90045 -412.43436 -344.83279
623.32782 904.31226 113.60768
603.95312 435.22351 170.87888
67.698677 -836.80743 376.2688
-210.9346 1825.3656 -393.60648
607.3316 956.61938 -319.00436
140.27444 1311.3394 483.54425
906.72607 598.50659 -425.95877
719.9447 826.43494 -445.35345
-348.83771 331.57175 -451.62811
949.10168 -1015.8057 9.2123699
733.72906 -1892.4626 -49.371376
-770.28314 -296.85809 -61.447124
-904.86224 -732.26501 -357.37332
184.63658 2097.4214 214.86929
-764.09943 -529.49402 -438.57114
-143.95381 -2058.447 74.191231
429.5954 926.35901 45.954243
133.96907 -543.82361 551.56384
451.89996 -1367.2886 -504.289
-562.76477 -2011.4203 6.8846788
155.11304 -588.71643 -263.21045
120.56797 2244.334 -84.318474
912.53076 -1238.5023 -251.26553
177.08981 -7.2129793 -273.48758
833.71411 1046.6528 244.26959
-148.77246 621.88562 -97.75441
-694.48627 613.14954 -108.42443
-584.43481 -391.18677 564.78998
819.57373 1171.1278 290.25485
808.04565 945.99908 -266.12173
-551.24561 443.14935 -455.1246
-238.40625 -2162.2639 -487.90991
707.42596 -1103.3645 -199.02916
853.08997 -413.5498 249.48825
810.92932 -1415.141 -689.21509
-811.12292 -411.4794 -378.9892
458.64417 661.49774 -125.82616
-723.95343 -321.31976 -518.01495
705.92358 1818.7881 -400.27982
-26.882435 -2296.9187 -494.77917
-544.16113 2182.0544 -361.71872
845.84326 310.67053 166.88873
-946.56042 1468.6323 171.65648
-531.67358 -1584.272 -16.566475
-736.99988 715.73456 341.3497
483.29199 -1107.4927 -436.66101
-601.26007 -162.00984 -296.06378
-796.85535 -441.93292 -337.50378
801.94031 180.97424 -440.78473
-838.30566 -499.35007 239.04027
-650.83838 753.41962 -461.14908
-839.6806 429.15384 -224.75368
-490.04688 -1485.5898 -80.7295
-516.68433 1003.4846 205.28615
-1.0396434 1816.2562 132.38802
-572.13123 330.42914 125.97866
-806.28198 1538.8483 -309.63403
645.15771 1820.1733 -399.18396
-518.03021 -1236.9351 -28.199469
-822.38788 1759.7054 183.94359
977.00214 -1199.3655 96.793022
-910.23499 -1871.573 -120.31682
-808.33392 1391.4663 -127.91128
-102.78883 -2144.428 -487.53607
-133.97513 869.19678 618.67786
-685.20056 567.76331 440.57294
-707.08191 1244.8451 -536.22736
850.23828 605.47211 -50.801422
207.27357 -743.13275 -521.63611
-530.44348 379.17484 666.05884
-280.8371 310.45004 689.61194
278.11569 -2070.5503 -488.27487
648.32465 96.658257 -518.64331
-668.53992 2157.877 -347.48013
-841.41101 222.98541 -172.17819
543.86438 -1806.3284 -265.59753
331.79761 2094.3447 39.122971
639.89679 -263.59192 -286.04169
884.13373 -1626.1001 34.011417
877.34406 1396.7617 -361.24402
-681.30286 620.06055 -107.93354
755.61084 1592.296 308.38757
-128.83932 1169.5243 -428.50177
-385.97424 -779.87708 351.25827
177.65327 207.01073 -359.28363
721.71698 -1191.1932 -230.01416
-316.45453 -532.29156 291.37637
13.536437 1443.2737 436.36548
-619.36926 285.66229 574.37695
-17.190536 -1463.5791 -500.5882
186.16963 491.5152 -522.18854
907.27179 221.41109 -436.68936
-80.028923 -271.09909 -520.9082
-478.62186 -429.31323 -521.08075
-797.50934 -1951.675 -30.112062
779.61658 292.43958 109.39304
-697.48859 -1965.5564 -51.12851
-513.42157 2009.0177 251.67273
-431.36414 -2118.4211 -490.9707
486.85938 -1074.7668 -185.42709
-779.09766 1544.8812 -190.82101
-738.99396 848.95032 335.39697
-878.96576 443.99261 -374.38525
-917.51593 -1814.3003 -439.22391
-714.91724 124.74284 415.81021
-248.43326 988.45166 295.41907
-642.31012 -1824.8846 168.83658
-686.17297 -217.78345 511.63297
-299.82724 -221.87764 629.3183
753.52405 -316.15506 378.72113
405.21167 -284.09991 -178.69757
-842.33368 -1956.7993 -258.17871
894.0426 1197.8354 48.299923
-714.75781 1485.2837 -540.14874
584.05579 -727.3139 -435.28149
160.44832 -244.20862 -217.26485
-80.070198 -668.47998 493.36459
651.12317 -1106.766 27.587456
23.693293 951.94348 598.57959
-372.94357 -452.72711 -521.12183
-802.08087 -695.12878 -312.2962
859.34259 156.8213 -506.54773
-818.08301 564.2218 229.99075
-976.89844 1712.303 9.3185854
-861.47534 -1686.1268 -503.99435
-691.85718 -19.10058 -291.90588
-194.2382 2029.771 279.98108
499.93262 -871.42358 379.08002
105.30744 1067.7722 -488.13623
548.58081 937.61523 100.78299
-905.09332 -1415.1936 19.844637
277.07672 -1509.2754 251.70378
-281.96344 -534.92035 290.16162
871.58386 759.76593 -443.3186
284.27716 2199.0134 102.56706
800.13794 1556.1777 46.448792
-837.79346 -792.66833 -512.17444
-552.22089 368.30246 263.12415
-865.86462 1270.1964 1.6385775
-281.79257 439.47974 151.76311
-899.62982 -324.83295 11.491879
823.09045 1218.5875 292.2515
856.737 -798.39966 -265.07333
862.18353 615.87305 -316.5614
779.22577 -462.53458 -91.151596
-184.78336 317.48456 -420.32462
-336.24548 836.0415 -530.05182
507.28851 644.41022 -525.1803
-299.28217 -689.21332 -521.53015
-47.164825 -1452.0303 -501.03473
344.82263 -81.257446 662.37854
-483.29199 -1062.4357 -435.67957
619.13892 -211.27142 -292.2056
561.62671 133.60693 -182.30774
436.2392 -566.72107 -32.099243
130.69739 -1535.8206 248.25662
-302.16406 343.03784 155.73927
-122.86646 1780.6125 -427.34604
-267.40244 -1227.4095 293.40701
376.76776 496.9093 284.19186
-249.25107 2300.0684 -208.41275
-262.86273 505.7811 -332.47562
-131.52663 358.29065 -520.54669
569.28662 676.86554 -525.25537
-639.84637 -979.05188 321.44153
843.2605 -894.43542 -512.1944
-762.98529 491.58069 -458.14127
-755.05621 -1346.5481 -129.48915
-905.71356 923.71222 61.200905
590.99646 2190.2075 -313.89752
-844.28369 1820.8575 -517.35907
-389.44748 313.99915 -520.49561
-501.90399 -1807.1355 -406.82309
-763.1377 -343.62296 6.2126455
564.6767 -372.55225 -213.58
-911.12915 823.16455 -386.27533
-931.11725 1704.4371 -483.46524
313.71899 837.4325 -452.98526
-868.13489 -601.75586 -437.41864
-673.76984 -200.47008 -187.74345
-431.05542 -232.6153 -295.93381
-777.94019 912.48303 -534.69281
-816.81909 1149.2004 -71.176064
931.59692 1433.4113 81.435013
-648.16211 -1897.3806 69.295853
127.95016 -366.99933 602.26855
-906.77661 -252.21326 -442.00043
769.97198 -1658.5645 32.831688
-263.84125 -1719.9357 -490.56522
-643.95142 2165.5918 101.66931
663.70996 1034.2711 -115.12241
61.079994 65.499687 -444.85864
104.85409 -1162.1195 301.27121
148.6221 989.16327 587.41309
-559.62311 1819.5598 -286.45267
715.81421 -1366.1649 10.808917
-744.02618 -826.52771 -415.58145
-303.96619 189.95038 -188.45593
817.61243 -424.42786 -437.36328
503.80093 1285.2208 379.19974
446.78772 763.73114 -527.80786
390.22516 2099.637 52.455429
95.23291 1691.6538 -427.34607
-590.02808 -1600.6442 230.0368
-517.87366 -1180.1655 -50.70319
835.1308 -200.68047 -157.24101
-483.29199 -1664.5781 -340.62589
-433.36911 2234.8091 -84.638222
619.698 2068.6528 -25.601435
-428.4873 2084.5762 14.51332
-185.67709 867.22607 -531.63861
325.96548 1465.075 426.86072
-857.23743 1727.114 -35.865116
-407.11768 -239.77625 -520.86487
-213.37318 -348.74988 600.99371
-499.08771 857.59137 591.65125
28.05657 -1038.0088 -517.17603
285.23212 1120.1831 -457.40857
-888.46362 -1109.9899 -91.837257
-594.11389 2053.7422 216.71155
-245.18532 -195.64352 -520.82739
-693.6687 83.033722 460.59067
-930.92584 -298.1777 420.00626
-341.67783 909.11743 604.21777
-223.24332 -702.60089 471.47449
197.76707 573.73871 -451.3291
813.0174 1550.1262 -657.88037
-734.05237 1592.6953 75.792511
249.84161 848.36377 -14.84075
-38.732948 1368.4396 -427.34845
-613.77545 -54.524372 -196.55756
804.05133 188.98277 269.13669
-184.1757 -448.94666 -453.83218
854.89197 -937.46008 -331.14157
223.39346 -435.61194 -438.48029
-940.22192 -1073.2611 -306.28625
595.54559 436.4834 159.01474
-394.24744 -566.46075 -437.73608
-833.32214 331.2785 -218.04149
-61.334435 2168.1177 147.10884
420.90961 -2219.8845 -95.346855
187.73029 484.36105 -236.04074
-815.16095 1381.2869 -263.41956
-770.62598 383.01715 142.70927
-838.79205 -1974.9307 -366.41656
-872.1073 -1176.8429 -271.35403
815.16095 1479.1415 -421.48538
248.08212 -1689.3774 217.89172
-712.40259 -1443.8201 -556.75757
794.85229 -423.73569 -305.63297
759.45532 1509.1121 -503.17212
-309.41205 1554.2622 396.9202
862.6637 914.06696 -527.09479
-91.661629 -548.82776 -521.28149
-872.79596 -520.98157 161.42757
835.19604 -85.67926 -231.1178
6.5815687 -1834.6415 176.32457
-845.99689 818.11523 160.05455
-125.86247 321.21661 692.86725
607.27917 -275.98785 81.347641
-503.12271 -1065.8816 -135.80876
-21.198151 -733.26044 462.41251
559.73901 -213.28458 -179.49951
115.32317 -589.25134 -271.0983
724.55188 573.17126 -520.224
-478.96701 1793.0176 216.85194
584.59283 -321.91986 134.74132
-877.79437 18.13736 -90.044548
928.56287 977.58051 36.864922
-571.25745 1821.3186 -423.91199
884.01892 1299.1654 -511.6879
943.70288 1844.3606 -89.266922
-542.16241 -1284.0509 284.25943
-506.61893 381.19287 333.34003
-509.02405 -172.8316 637.57074
-708.30731 -1111.7631 -223.15146
-356.30121 344.58847 -89.763725
621.98163 -1269.4077 84.649994
235.13882 -2162.3127 -67.934326
-866.21436 -701.03491 153.95073
843.56726 -729.63965 210.86823
-686.12128 -1804.4072 -293.25494
-741.79602 435.08368 -517.46399
792.54095 -660.41284 242.63683
693.41553 359.39319 -443.25784
600.42145 119.3089 628.0423
769.23938 2151.7278 -49.311802
849.44312 1848.2274 141.13107
-759.17017 -1556.7935 -420.19235
836.02924 -426.14636 -167.49782
931.68396 1431.1139 81.810699
274.72418 2200.1091 101.34774
-891.43323 -1251.1162 -666.76587
162.58958 817.95618 -455.20239
-707.31482 -1700.578 -396.4046
-331.0029 -889.75964 -521.65765
428.02478 -1383.6816 271.51736
-919.86157 1554.201 187.79916
720.92932 245.84216 396.00537
187.69699 268.68271 -196.90144
809.02197 -907.17017 263.14871
886.38574 -1176.6903 -271.99112
855.11877 -1118.3409 -585.98865
-790.6626 -1900.3008 121.64797
-765.17059 815.95251 319.29782
547.02313 -449.38861 -437.90277
40.598167 512.59564 -522.59302
-137.37721 -519.85516 -345.48636
462.35205 -1844.8923 167.71425
777.70709 -1511.7585 -182.95538
248.35968 -1972.9785 113.54361
-800.82861 -308.68335 51.896008
909.74365 207.13492 -416.38232
288.93317 -2164.9844 -70.47937
799.55701 1459.8184 -685.85236
541.11493 1986.3635 109.47511
-687.33887 2091.0813 155.79562
-483.98871 -1043.9935 296.54327
-715.12061 1353.0291 -112.17957
594.55432 871.72656 541.50159
426.4975 1553.1266 -427.34607
-476.96429 -2106.0955 4.2782435
562.63672 1005.3674 -210.26813
758.5827 799.41687 54.701225
532.50916 -439.13129 -438.00226
-215.46478 386.71915 -451.4906
489.24051 1900.2501 290.41998
-889.44623 1339.8508 -209.59866
-872.14819 -1187.6305 -27.084541
358.7594 1174.7366 -425.4314
-477.18176 1713.0909 -427.34607
806.28198 1298.4327 -264.41113
-712.97705 1176.9312 -408.77271
-185.04106 -362.67346 -520.99719
839.1123 -1099.9574 30.394836
-185.38904 -2208.5378 -80.253357
86.311935 -2292.3313 -173.58713
375.90991 -1697.3462 -491.43213
-137.5768 2204.0398 -376.50659
628.9527 -1061.6365 281.49551
-891.8714 464.16904 -467.76437
387.7876 -348.92505 -192.87737
-592.78186 -2112.9861 -63.412918
-901.97961 -1044.3798 81.748581
760.02844 -74.639641 -516.95245
-312.58859 1479.8828 -427.34604
-801.7995 544.61145 57.735527
437.85776 -1876.1469 -495.96039
248.9594 1078.9517 558.21295
-656.32684 -202.5564 -185.46391
601.74341 -500.73169 -437.42697
24.295523 316.83063 -520.52875
662.8371 -2085.0818 -59.126575
-740.24786 -238.97034 -517.54865
833.89935 -181.65453 -179.98662
-190.88617 -338.73209 604.63831
545.74188 -1880.4688 -6.2817845
-321.73639 659.88605 -457.46149
547.94208 1973.8182 162.53377
621.41681 -1864.3074 48.755821
256.76321 -829.80182 -521.76715
86.632355 -235.02473 631.5686
225.84676 36.037327 680.83093
-937.48602 -1476.4167 -84.684158
537.41467 631.43372 629.90222
-783.1673 -1213.4778 270.73267
289.80206 309.57251 30.159147
164.49045 -446.06851 -330.64542
-930.21765 -977.43707 -165.50238
-568.50256 1781.2706 -160.88847
-185.97449 -778.20123 -433.78998
816.1925 578.37646 99.069679
221.56151 -1302.5225 283.88983
386.35309 2163.8013 142.04761
-753.28552 712.74908 317.34033
706.95471 -1671.7073 -479.974
884.48676 -505.44687 -490.2724
-588.63354 374.87668 251.9955
917.9574 -1720.6536 -367.51422
514.23804 -528.44342 248.41296
491.61395 -476.54111 405.81396
866.39642 169.325 132.95447
806.28198 1424.5829 -353.16812
-914.61108 -1211.3442 -222.10426
781.72766 1264.0657 -0.76807451
-839.67761 245.63071 -508.1666
-13.767806 3.6698208 680.52484
815.16101 1404.3745 -435.65454
879.61304 1104.7729 -536.7785
942.78149 1029.0118 -124.64246
918.14343 1765.0166 116.87138
-940.10724 -1116.0981 -529.73541
-837.76831 -784.20447 104.74713
-619.64905 -48.873226 -446.89868
895.13538 1422.2057 -413.81897
720.64679 919.65625 361.97522
806.20966 90.609695 226.81972
-834.836 683.68951 -149.50069
-599.38971 -586.92474 -520.37769
-387.87015 914.84668 14.257455
70.911964 1583.1301 -427.34601
813.43695 1182.1967 296.79501
-791.2052 -694.04108 329.5665
-519.84979 486.51572 288.6861
237.59787 -2094.7839 -488.03986
365.13321 -333.68994 -280.0426
-826.11859 755.96997 -258.15063
147.26059 -2252.5981 -296.67365
-866.85938 1121.2128 -558.90344
554.17126 2085.1255 15.897362
598.71619 -1336.5317 276.57828
442.23871 -1679.4766 -492.12067
841.5246 -1805.2131 -300.75806
-865.4906 -1721.2097 54.794815
694.7196 626.38263 -521.87054
-706.67188 1101.6062 -223.5834
-14.428552 -263.46686 -77.331917
-835.51245 -958.84619 229.01233
-494.4848 1016.9736 269.89777
891.96753 895.19153 -86.976501
478.02594 1474.2405 -427.34604
412.60767 53.965317 -198.56012
815.16101 -1237.1704 -388.20926
-296.50266 -754.84521 -521.65125
244.20828 1003.3553 -525.87848
-822.75317 -1780.0886 14.491465
-229.05122 -679.12305 349.50043
543.04028 1269.9915 386.98929
-131.90581 -531.82281 -521.25391
-550.19568 1163.0901 -133.86111
330.4906 -308.31369 205.39703
-707.36755 1167.5687 -88.602646
-472.87015 -1755.9844 -489.13458
-173.47884 347.02234 692.1225
-107.85197 363.189 -180.28528
120.26144 586.53363 -452.4855
-779.46436 -1893.7728 -34.571819
-204.2869 -2073.0742 -487.93192
31.33065 -2.1334076 -444.19125
-730.85889 50.502811 394.7334
206.69844 471.16476 410.05298
-682.21149 925.3952 429.83875
260.83798 -2196.9414 -79.598427
599.47821 -942.14783 -213.94571
717.44916 1582.5593 -442.84015
-43.732834 -1974.6794 113.91203
-643.99268 -101.08451 -193.4782
386.82776 819 -451.75397
-916.35101 -1596.4067 43.928844
-760.06653 1728.3889 -202.27222
936.27405 -1109.5643 -294.15546
816.8526 -1935.7778 48.025227
-563.73651 1215.9088 -84.481895
-116.16284 63.770073 -135.15848
72.415573 -1542.8489 247.12714
-655.0896 -757.27515 334.85132
806.28198 1356.5355 -417.28162
250.24533 841.66327 -20.550726
-939.17505 -1200.4003 -47.723454
-743.29138 1398.1388 -127.53491
699.55737 1814.1118 279.24414
823.26196 -342.80573 -511.80908
-618.33252 -2179.9377 -498.22134
23.802145 577.61353 670.68817
-334.78851 -1460.7698 -500.65924
-825.14398 -8.1776695 -212.75479
137.23251 -28.445538 -520.67096
-824.41461 -83.820045 -447.41638
-799.25989 280.086 -327.97678
607.909 -72.415878 -519.48419
-207.25435 1954.8127 -262.55127
-483.13458 -856.9483 335.18094
-776.48254 1749.6082 -271.59955
-766.48761 -1192.6226 -639.9715
-787.81427 1097.0183 1.862088
593.81317 -1762.8403 190.96771
865.54614 -1550.8979 78.370865
207.95705 233.2428 691.96362
560.23773 1658.9177 360.98795
-883.05054 1224.4362 -223.39787
-121.76047 2006.7648 262.60037
-75.150993 -684.7644 343.73349
-688.89972 998.88635 -144.71194
-915.52814 -348.18744 -381.35587
-711.34113 1543.7837 -25.722389
748.43817 -2040.1725 -493.90793
-692.99573 -2097.7834 -496.37302
-711.08948 1506.316 -570.33252
790.78052 -1728.5684 -365.02161
-899.61426 -463.84088 13.255596
680.49414 1815.1292 -488.46933
508.69843 -248.65169 54.828823
-874.92139 -1595.9563 -54.583199
530.84247 -591.41821 -436.74707
589.7807 -1159.0602 296.88757
456.65237 -2239.594 -166.03073
875.5658 891.42462 -293.94666
536.14929 330.5304 -129.63968
792.57629 -1966.1665 -495.52081
-690.45508 -448.7049 -440.00217
742.81097 92.967049 370.78683
-806.28198 -1353.1836 -387.35779
615.06213 -1446.9133 86.35321
-939.92041 -1579.5947 -587.48022
-587.78406 482.61383 605.49438
-10.753182 1507.8936 340.14108
-888.70593 1318.4589 -251.84067
-303.13556 223.12166 -285.84003
507.3504 184.40005 678.28613
-779.27075 343.1543 57.282249
-903.27747 -1061.6637 -160.49905
175.53645 -808.98779 -521.74414
245.14052 504.77335 -449.16071
448.21588 -673.02545 468.4931
0.26369256 -26.98321 -520.67938
587.57324 1821.4373 -424.62741
507.81647 -346.91455 584.56287
-417.45224 -2215.3901 -429.13293
-851.59882 -138.21487 -446.49408
765.45056 -77.752579 -516.45471
-416.14987 -33.805267 -446.27094
-939.03235 -1224.098 -631.13086
807.71155 -486.63348 -513.51489
-125.0517 -718.91614 -521.59735
328.30231 1432.2715 -427.34604
-496.31943 -1439.8158 262.13828
-272.3555 1585.4802 -427.34601
-884.97125 1309.1061 -516.80469
630.01721 -423.92874 381.9635
817.70587 994.88245 -184.84073
-373.01346 -771.47546 -521.67633
-383.76593 -795.57489 -432.03976
834.2865 -1836.2239 -11.552836
-770.22473 -520.94476 259.71149
-510.98508 489.935 297.51816
-603.80908 -1805.8701 -491.09888
571.67255 1063.4226 532.7063
389.06281 497.53696 480.31976
-601.29712 936.94916 88.985603
-656.7901 -890.07239 359.84937
-123.44499 621.07739 662.57623
707.96729 -1508.1802 -77.628288
719.18707 1361.0127 -539.90222
-769.9671 1815.8818 -428.79578
277.69012 -1728.5856 208.05862
378.29449 -2018.9291 -490.04593
720.78619 953.68677 379.60425
748.97253 -254.52007 -225.50488
475.36581 -1558.6134 -184.42418
-529.05359 -1614.2615 -34.271458
-873.51703 471.85809 53.727371
-642.0517 832.70001 -460.46237
774.04187 817.69769 -54.932846
940.13049 1716.302 -329.61542
780.58521 154.53775 175.65834
-782.26477 198.22307 196.02948
-44.623249 493.45837 -522.23438
621.77673 1227.4622 4.5580401
-32.115562 -503.00226 -264.83392
848.22894 -146.04305 -264.59314
698.15735 -1906.6592 -46.050842
-198.42888 -511.08575 218.0594
-903.04956 -1230.7566 -240.3866
476.25974 -418.00681 386.46759
-736.79333 -2036.8303 -300.35184
-307.30176 426.34409 686.3017
-168.02589 995.84656 329.7948
497.03275 753.60791 -527.56732
109.02006 2055.6675 -58.314217
-798.94458 -1804.7456 -51.1367
-806.73602 1809.9329 -261.75613
503.76727 -1119.2999 287.03848
-546.87354 779.5285 -460.1282
815.16095 -1333.3015 -484.82358
819.87598 -1805.0463 -309.211
-483.29199 -1056.0898 -304.48178
-196.19641 1373.9915 363.30112
210.24796 479.21472 398.53735
-49.801556 -500.43698 -438.40497
3.6328509 -469.91336 -213.79509
-484.90155 1972.1666 -244.98164
151.58466 2057.1589 -54.55759
874.13348 -285.32565 -151.56946
-248.28683 -2284.6052 -201.21252
-727.52789 -976.57111 317.51129
778.5174 -22.521551 -254.64761
-902.95862 -1698.7445 82.49614
806.28198 1424.8768 -485.34973
546.44971 -746.11243 412.54684
210.75797 -230.10287 -520.86481
100.40345 -2236.3862 -91.329651
-773.26025 458.75317 119.05935
918.27393 557.90369 -366.82831
-366.89581 449.78522 153.28848
-807.60602 -11.530102 204.81252
-905.92493 -1737.7677 -90.627396
92.051849 -1556.063 245.00352
560.20538 -1505.739 34.248547
-859.75348 589.86615 -509.22134
-776.36951 561.25018 288.11887
-687.82544 1928.6307 213.43987
822.92017 -1436.4539 22.528582
-55.39048 262.90366 -520.51636
839.53174 -643.38184 -511.35724
-133.11203 -870.17712 355.05481
939.84186 -1624.2764 -119.85359
-274.31247 -1511.2225 -498.69986
327.98117 199.68771 -520.4967
-815.16101 -1436.3459 -240.65366
-193.51151 -2100.8994 -487.82623
873.61121 488.12714 20.066933
694.86395 1895.1647 247.29242
-708.20209 1185.4962 -520.68658
453.73047 936.7782 -450.63779
-933.52197 1861.7617 -124.83986
-618.44598 222.25288 -519.00696
-899.62451 1225.038 -642.89758
856.46338 -809.01849 192.90526
204.47171 -1982.0391 -490.88626
311.60275 -2038.2797 41.905117
481.47549 -2144.7261 -382.96524
381.17233 -312.25403 212.28214
-167.01474 -1604.8983 -495.06128
-403.84161 453.75397 679.13348
-668.75586 1811.4448 -253.73132
759.25409 1420.4817 -535.26294
-175.66353 1881.0876 -337.19199
32.422916 -530.72949 163.46317
431.43985 973.63623 106.90378
233.78487 -1282.0526 -507.63797
-540.08002 -803.66266 -521.34204
-787.53674 114.7525 188.65556
869.36786 -594.98932 -207.07803
889.52533 -356.9115 109.80022
-977.08875 -1763.212 -103.22617
104.41581 -185.46289 643.90027
-609.63226 -2173.9277 -251.03047
-773.77271 -1406.0625 262.91156
-824.32971 1830.3137 174.09575
622.83612 -1310.2772 279.84195
-836.46326 2029.2783 19.034103
-690.89276 1035.0756 -72.638611
940.22473 1099.4224 -366.0621
-453.23926 -1042.3212 299.15613
-895.72009 1506.21 220.81799
-140.42137 -442.87747 -439.29889
-912.98969 -24.0098 -341.10571
619.82349 2211.8267 -127.06262
-533.89117 2038.5658 155.53299
-798.14148 85.069542 -512.97919
856.60822 -680.85181 -269.55316
-756.99219 131.84796 -237.57193
-458.10312 -1697.5095 -491.41583
-407.86929 -2254.6201 -494.64441
-892.42053 -855.7868 -175.76376
-899.4538 -1625.8969 170.48691
667.40778 690.15088 -523.74744
-768.45239 484.65042 151.39601
-817.38519 73.396889 -381.23773
-106.33765 -1905.2249 146.18391
-42.611679 365.42447 -151.92046
-606.65088 -495.5791 108.30739
-277.75058 -2249.7007 -489.62384
-487.95294 794.6333 -528.5368
739.7193 -1345.3925 -129.58066
266.98453 -240.41946 -440.53149
706.06274 1272.3905 -33.551071
757.58179 -1844.8005 145.93445
-688.84021 483.13409 438.62628
-851.42017 -1540.6327 85.565735
-712.63538 -1181.9113 -469.76373
-719.32593 1816.1035 -446.8689
194.09573 -588.81628 -297.40762
-533.50409 -1336.5883 26.246975
369.02087 20.723658 -199.75558
14.093168 2086.0581 227.14725
830.04755 -1.2302866 -263.57806
246.10092 1290.0833 -357.83942
-198.95078 736.15491 -458.23877
832.98267 -1555.2665 83.03344
-947.08264 -1300.0435 100.64586
332.94431 108.38087 -297.49094
-63.257641 -807.04865 -433.23642
936.69794 -1394.088 -597.54407
-71.976715 314.43033 -520.52319
603.39246 2181.5308 -334.20825
568.30896 292.96463 -231.17903
813.1333 -1511.0665 239.30554
905.12378 917.57764 -384.68564
825.54822 60.379829 -395.16653
928.59424 -992.15118 80.26442
795.68243 -664.5827 88.410736
859.54175 -1102.9463 -97.046234
940.1554 1110.1511 -458.17068
71.044716 1554.2073 332.14429
-933.48425 -325.60345 297.98993
-358.65271 -2178.7556 -75.452271
852.68726 1319.6235 -521.16644
-847.18286 1119.1732 -558.57916
-834.82391 -394.46994 189.07571
-694.97241 571.20966 -194.73997
897.20166 1308.912 -517.50037
695.01068 -460.07324 496.98737
-676.00281 1877.0908 218.33752
-730.58081 271.12836 377.63953
895.98621 -524.97339 10.699486
681.7879 -939.73462 -226.98868
163.25906 439.64453 -521.31836
-725.89929 970.03156 356.30005
207.8046 1866.7365 -351.72159
17.630123 -2064.5249 56.455132
910.10638 -1774.1138 59.993179
410.11212 955.24335 -552.52826
-621.65643 -550.22565 303.89575
-707.15369 -940.00757 -408.37854
-303.61041 96.794693 -447.48178
-815.16101 1283.3339 -404.59628
429.09784 1245.7234 497.81491
-448.73486 525.46423 -522.80945
734.05762 1004.3901 -133.66794
-718.09991 -733.89795 -434.6676
859.05676 -1722.6405 -404.25012
265.36139 386.50336 327.63388
886.71838 -677.46002 -487.48877
-681.74097 1087.3833 332.41565
-317.95969 -889.84253 -436.72043
484.04288 -1214.7035 -286.13568
490.93292 -2165.0337 -367.77011
-695.35706 583.10083 424.19705
-559.24084 -1217.2458 292.18146
680.03656 -486.62439 508.8092
902.43878 -748.86731 -438.07977
767.21356 1443.0652 71.099396
-211.14609 459.82025 686.27686
-54.222595 -774.85071 443.27686
42.278858 1821.724 114.80089
-918.82996 1479.532 -374.03171
228.17126 557.52875 670.81061
800.35223 816.27258 220.71344
-4.5869317 2226.3574 83.917511
940.22522 1650.1978 -492.4234
-298.76239 -913.82678 374.1109
0.35662556 133.20711 -520.5694
3.9467885 2251.0491 -39.964241
-828.72406 511.57404 -245.90723
176.87425 1586.625 326.59241
496.09839 -1897.009 -495.41058
487.61389 -45.503872 662.24048
-901.26123 -727.09644 -448.79248
453.47412 -423.52603 382.33234
-807.65369 -277.22159 -443.7215
-932.26318 1585.0419 -433.69598
483.29199 -1573.0994 -490.53439
-307.31976 601.21484 -524.26886
-453.22092 1704.3726 307.37769
-150.89622 -1821.3639 181.58011
668.98175 1969.83 -471.39749
291.94373 74.99353 -207.9581
871.63055 957.75739 -381.2944
426.2088 2078.2117 -1.5199509
-583.19128 924.53882 55.813034
306.18109 188.02707 -520.50647
-873.24066 -979.13074 -147.1996
478.38641 1619.2917 321.61096
268.32602 1534.4299 335.73889
878.20929 838.44092 -278.32715
809.03314 1929.8273 114.82171
455.27179 -2130.239 -334.34238
-718.8587 1957.8855 169.24889
-548.78601 1350.1775 -169.95667
-930.41571 1237.2921 -123.39566
351.1636 1355.7487 366.55688
721.28064 -1246.1193 -498.34808
123.7269 -520.29608 -437.76971
-782.46033 -1331.8724 -131.98106
78.798187 -2190.8701 -402.40991
-536.4718 -2215.2935 -189.38324
-64.580658 1081.1709 -480.28622
-800.87305 -828.00934 -406.99451
763.76715 -587.35217 -436.53815
722.69446 309.12744 -153.84375
310.12158 2109.1694 76.469986
707.96796 1431.9575 1.4233612
742.21411 220.51286 -231.68123
-363.0332 -764.04071 433.90106
706.66504 -1687.6516 -336.19897
-915.23218 1423.4578 -265.41827
492.77637 -1382.6097 -69.882378
435.32648 877.26642 2.2392435
-804.93872 -1810.4712 162.83701
-476.38354 -1679.6045 215.93173
711.18103 1629.5602 -213.58533
-254.13191 -173.93805 -200.5741
-597.39655 -2123.2341 -25.434704
796.90991 -79.884377 89.864807
903.56793 657.53473 -434.32352
652.91321 -1241.1436 98.912239
-209.26498 550.68817 -454.60089
15.329728 -366.67615 -111.21223
-266.72101 -1505.6222 252.36188
806.28198 -1298.4768 -463.21069
233.36276 -941.14868 364.52805
791.237 969.65967 276.26508
-616.81091 1919.2097 252.18872
-753.93311 -813.14685 -428.31134
2.9359391 -2197.4995 -318.58823
-897.6062 1560.36 -377.36761
872.52203 1124.6361 229.99908
50.84309 1746.6622 -427.34628
261.05252 -782.17615 432.92688
-373.18198 772.78705 -74.851097
-302.983 -494.77615 194.84474
-814.10339 59.407013 260.47275
-625.02594 -1094.891 281.91489
-815.16089 1485.3521 -200.98264
-477.00452 2231.5173 -113.13657
-901.05127 1749.3665 -378.09457
-704.6228 644.57544 411.47479
-81.075119 240.47858 -447.98715
-940.10596 -1595.8453 -98.236748
-231.49486 -495.18335 -438.78485
763.70978 -522.60376 -84.078857
-797.30676 -1280.7723 14.230974
-177.91405 935.24786 602.22107
728.41687 1464.8234 11.9779
825.52905 166.83311 235.67908
-565.31036 -672.21204 456.97455
529.89673 -2021.6233 82.672073
481.12317 -539.7019 64.351173
-353.18365 913.25488 15.128389
862.2655 -1019.3628 -271.30231
-657.20624 1183.1543 361.31073
845.11987 1763.0051 164.4579
-874.22205 -533.40375 -179.79703
-664.33545 409.60904 -518.60608
-519.50861 520.56274 -241.26407
-915.52002 -18.460419 -364.32977
-839.3385 189.78278 202.66725
-794.80109 -267.01837 -84.882835
580.62091 435.89124 148.10789
680.29193 191.7123 473.34961
799.28662 2096.6265 28.275318
-695.92645 1137.3008 394.52597
858.03198 777.27393 -15.041972
-586.8656 -1444.3855 68.168213
-878.65649 1451.8801 -343.89581
-76.913116 769.36499 -457.4884
627.37085 -1701.1118 205.58513
637.71417 -1897.1647 -66.161057
-646.04919 1945.7592 251.84192
-709.03223 1165.3733 -179.3759
-841.33057 -866.55353 252.49081
102.61526 -526.8479 174.27159
-897.12842 -489.0553 -19.368912
-402.98596 200.5127 -295.91721
-231.96239 -1997.1183 101.94854
-819.39014 229.65573 -381.51559
261.61349 941.341 -454.58563
906.45447 -684.22662 -353.81879
-437.8414 857.43628 -531.13629
-166.76295 -644.08435 -436.16486
532.38043 -1968.5331 -497.27399
483.29199 -1311.772 -411.44339
164.28116 1683.2725 310.0809
-573.57288 1454.0365 420.72455
937.80042 -1418.8843 176.09485
-502.99863 -194.92592 -298.75198
399.48816 871.64478 -5.3536644
-510.59332 -949.80255 342.00302
-383.89264 5.893528 673.78882
857.27533 -403.22156 281.9437
544.80774 -1137.5939 299.09195
-456.1496 -1139.3264 299.57211
510.41776 -16.764362 -299.03442
741.90582 -535.71558 -57.574081
876.51416 -1697.8773 126.03291
906.26031 -1478.2959 -387.66989
41.271988 1261.0056 -427.34769
-790.02405 -249.8685 -444.22412
-777.26575 805.86462 2.9211307
-638.14404 -24.421879 -296.42444
-590.02856 2041.7841 -93.290642
-499.98993 -1100.788 269.64743
-179.58269 1080.9913 558.89941
-760.7583 1203.3767 337.96857
515.75427 2053.0198 199.19208
607.58435 -283.56812 -438.70059
320.95483 492.49536 283.67377
940.19934 -1119.001 -502.01981
-102.88078 1101.5605 364.23364
170.80545 175.19327 -520.52649
199.3866 427.01672 689.65405
166.68532 1034.9817 360.97775
-183.56148 2055.1252 260.16788
-73.535568 -267.34747 -441.25513
-858.18982 194.90622 151.90407
892.58899 1320.9603 -195.03395
289.42783 -553.41949 25.615372
763.60889 -266.0051 -54.121609
-483.29199 -1078.4297 -282.6499
897.74982 -187.26013 -14.666119
-806.37439 754.14417 242.67191
801.79248 -2003.5775 -124.87292
853.02026 1539.3357 -3.7075486
876.9967 -112.3046 138.83621
-617.60272 -2179.4517 -146.83153
-599.15039 1732.2653 342.16132
-863.24304 -1036.811 191.95779
485.40179 -470.06885 164.0641
-171.21869 306.21869 -326.56439
483.29199 -1295.9917 -447.97794
-845.80249 -1759.6233 -0.47643495
-395.02466 314.18994 -451.70398
129.32338 435.46225 690.03027
722.01135 950.87946 201.51775
-791.96191 12.778993 -273.34106
-919.41711 1341.0562 205.04044
221.81876 -39.407707 -218.40411
-710.38599 -429.37759 467.95947
-661.16718 577.3172 -458.87503
-486.62192 769.33911 -459.73383
268.93994 937.04828 599.45911
842.50739 1896.8383 122.35413
-85.882561 -1239.8687 -509.30042
-393.40436 2224.1018 75.449097
809.76306 1747.5154 194.08032
-575.04321 1588.0065 -96.940186
704.60791 960.4668 -417.68869
710.00378 1442.5708 -66.068054
-287.29572 -378.3429 590.49292
-842.39075 414.48212 -285.55579
895.87958 1455.5734 -683.39111
214.19017 281.31287 -520.50214
871.95685 250.56828 -60.68166
219.33176 -4.6747894 -286.09042
934.51526 1637.2319 -330.24176
-352.65637 1390.0399 452.37415
-806.28198 1405.2278 -222.64252
-876.88843 9.6399918 122.67852
-309.88062 1404.0344 448.36981
-411.47107 -1918.1868 137.53653
-111.51151 -1543.2438 -497.47137
444.24307 -2112.8076 -0.19168103
-914.76477 -1100.5009 199.93758
-3.2444358 1453.1483 -427.34631
724.37903 -940.98688 -210.20837
267.7121 -992.93909 -518.90393
-103.66875 -2112.0718 -36.559433
-868.76575 -151.46732 -446.33383
819.79523 465.76001 -511.2243
497.04547 1466.1945 -427.34604
765.54651 -1347.1432 -535.12384
-851.50146 425.57629 -118.7515
-901.93463 774.28949 -435.7702
635.56128 -286.21637 -188.78336
874.33148 276.34448 86.517677
573.88177 -2072.0422 -38.121056
889.57031 945.05383 -461.41211
865.85846 -384.74277 365.47327
-182.87323 -844.19507 409.31207
-246.79575 1833.8948 76.139984
149.63338 213.7823 -216.78583
-619.85223 1238.5703 367.98389
709.54016 -1617.327 -310.5347
-911.67017 -1876.4382 -259.96982
966.63672 -1795.104 -115.98424
647.04926 173.85043 -518.54773
168.94934 -274.22397 -440.56696
42.826641 -1960.5004 -491.59113
-123.36161 2239.1479 -343.20221
-753.71088 2165.6562 -44.1852
-102.72017 -876.50061 398.68069
850.36169 850.57629 158.58496
362.46869 1576.048 390.13647
-637.48315 540.77203 -244.67036
822.43988 1877.1895 -491.80139
747.94928 727.04242 -523.07794
483.29199 -1491.3204 -428.17014
234.67264 -2272.4233 -125.32851
-33.218369 1190.6517 -427.3493
-599.21655 420.86478 -519.91547
-518.68213 24.769016 -520.6084
-331.62524 1031.2847 570.24622
-851.18274 -1281.3806 -515.66608
-207.22147 964.37048 249.11839
900.2157 -285.76849 -456.2572
943.7926 -1556.2889 59.696976
872.0426 364.362 -270.1156
68.46402 -2197.541 -363.6181
234.79799 -632.2323 503.95404
833.6543 248.77884 -201.46039
262.9523 980.35388 138.87685
655.03632 -1401.829 118.19977
667.67023 601.21283 471.05035
-219.36954 -2148.7957 -63.642891
-624.14856 321.09323 56.514187
940.17377 -1116.7395 -508.10529
-326.55106 -230.42001 -520.85931
-442.73013 -485.43738 172.77321
886.60181 1599.2881 -365.08081
-878.57886 365.65295 -275.65131
942.91992 -1041.2592 -59.856098
469.28928 360.34555 673.18457
-97.398087 1136.026 542.25116
845.57172 -1761.4135 -122.77328
-705.94678 1702.073 -453.8075
-404.20132 -1778.2764 -488.27396
918.23309 596.68213 -350.73737
-103.69209 1148.8452 370.12064
-865.18561 -1239.826 -487.74545
766.68872 -959.02081 282.40161
-823.35706 742.59082 -244.52086
-830.21912 818.09485 -295.90088
-867.07446 550.6095 88.415741
73.305817 1467.4377 -427.34607
-163.82478 -106.79128 -237.61996
777.29083 1887.4255 140.02432
789.20142 311.31836 242.81845
80.413895 -393.77142 597.65771
806.28198 -1454.9296 -247.06544
-733.0603 631.82324 -107.36423
449.21738 -256.23862 613.55737
-838.96588 -548.60486 -218.93031
476.00827 -520.99023 -521.21698
902.22888 1388.1578 -231.52521
896.35596 -86.126854 12.063412
-662.30493 -870.15698 -423.50543
-238.33592 745.03937 -458.45126
-273.42554 275.41998 -248.15762
889.85571 -1095.3822 171.30728
141.10477 991.45898 340.92526
777.22064 -1808.6833 124.95277
-963.01794 -261.43698 322.20676
400.79749 722.14502 635.81982
644.27448 -1802.2856 44.499695
-929.96527 954.84662 -277.96628
896.0946 -893.55408 -308.04279
-756.04102 -649.58167 309.97662
511.37592 2215.5967 62.735031
-619.98657 2167.3279 -362.74323
484.98596 -1173.8335 -152.42484
799.26727 -636.85938 101.52507
-840.30518 -1268.8705 116.35975
865.65155 1325.3851 -141.01114
426.94971 -1559.787 241.39206
-466.28772 -2207.4043 -88.091911
737.7226 -394.96378 -8.8335648
861.34442 1965.3979 -265.03333
-508.71454 799.81158 -459.7258
-799.85626 432.27625 -93.433243
18.693907 -600.26276 304.67508
-585.27954 -705.9259 -520.81799
-732.57263 617.44012 -160.81467
-912.38898 659.36975 -310.52643
-868.20392 1660.1576 -573.9657
-882.29211 1977.7642 -81.577454
766.87329 469.38904 154.40395
-778.63458 -1460.9493 -516.52869
-697.10962 551.50073 -256.21515
-815.16095 1332.8483 -295.56525
631.97961 1395.2461 360.6077
755.44952 2178.7205 -232.14117
29.307125 -1812.7467 -497.53378
-756.22894 -330.97742 -442.51907
-578.79883 1789.1387 -185.47879
812.54785 582.82874 -285.29486
481.7869 -1304.1627 -239.14836
-905.42004 -1842.8717 -15.969909
-329.5199 1699.4043 -427.34601
-737.25494 1739.0017 -425.77994
-858.41638 -286.55563 -214.7879
721.64655 1667.4622 315.56152
733.47302 1195.2097 -41.120312
620.2121 -377.83609 -438.1264
-815.81104 78.876549 -450.61966
-768.67212 -291.95554 351.23322
700.82593 -1231.4067 288.38486
-815.15466 -486.6026 -389.91754
183.21191 -60.054962 -426.96497
-750.67419 1043.2129 -303.91119
-644.10596 756.03033 -65.876663
331.46613 -1028.4576 312.44867
-85.944206 -167.29607 -442.68127
638.98767 -887.48291 -434.36096
601.20972 -1061.9019 283.62128
272.21024 -1479.3429 -499.94272
783.8421 1188.901 -40.779247
-874.91254 1599.0793 -365.953
842.71277 821.90723 -229.89435
-910.37524 1703.8829 -509.41858
-725.81873 964.79248 356.40842
-448.6611 344.98318 -452.64554
711.80042 -1804.8269 -406.94824
-758.11865 -1770.6658 91.808807
790.66785 307.10529 245.90024
-882.64362 1976.02 -137.32185
595.92816 -820.18933 370.04083
-249.05455 -961.21637 -520.14276
191.62788 1761.099 339.11639
263.25458 1800.8636 182.30807
896.32996 1515.3918 -193.68292
-247.97693 323.84668 -8.5622444
-444.61929 2003.4021 -189.98438
569.73303 -2074.813 27.021652
680.09729 -1814.4854 -84.389282
-889.35327 52.937271 61.695084
705.02844 -1022.3305 294.84113
632.6001 -1945.8201 -111.37391
231.82004 -785.22925 -521.70703
223.33301 -570.65619 -50.040535
734.04773 1741.8818 -412.82202
-909.85034 274.17072 -413.83392
757.82825 -1804.9939 -415.52603
656.90222 958.70752 -410.25708
-172.35028 1135.6763 541.51617
318.37543 757.99731 -452.46082
911.63843 -1243.2767 -355.41953
254.23474 -1406.2708 268.95605
155.93484 -2072.2729 62.886421
-698.57898 -99.692886 -518.01892
-685.98254 275.797 -105.30773
-805.45764 -1186.396 96.877342
-102.2775 -1002.6024 -518.54724
-584.06616 378.38962 266.38098
-445.77319 1788.1287 -427.34604
-176.0773 1447.3247 350.67157
-771.83997 313.61188 148.99039
-747.69849 -636.4054 -436.6366
354.27585 60.530273 -443.00378
712.31958 1261.5452 -525.14185
-715.42218 1665.8385 -119.84844
-195.3629 1398.4681 -427.34601
865.92297 223.99202 -271.4166
740.19324 -1181.7788 -631.23645
877.97571 -513.36426 -164.3633
-755.73431 1281.9861 -163.39519
-398.44196 1299.3295 377.03
-843.46631 503.86172 -284.08508
6.2174644 125.0554 -520.57452
911.43762 -907.74915 -198.98502
-795.61304 -504.96524 233.84146
-520.24829 -1168.7563 -50.809082
-167.81198 -2027.3815 -488.9505
660.8606 387.90967 56.319016
-590.48431 924.49908 -459.69202
800.33783 -88.389862 290.53546
398.45233 -5.0632863 -520.6377
-48.20546 -1265.6111 -508.30148
-67.688622 -555.66394 547.42572
496.28647 790.79291 -449.51273
-67.307312 382.62009 -520.70142
-823.24402 -1467.749 -513.20337
707.33276 1599.4885 -108.82978
-827.73907 10.821228 -190.76773
-912.59888 449.73389 -316.78485
-56.440624 1817.8738 322.34393
186.26213 -257.51178 -520.89197
146.67253 -2076.3052 52.282238
-410.52509 1395.9136 449.46655
270.79724 1733.7513 346.47299
-644.29846 1966.1963 220.12346
742.94128 -89.347816 5.272954
-872.79846 1042.9548 -376.58923
-371.07535 2149.072 -377.70886
-712.01843 -1488.1261 -538.57953
-431.81476 1638.8003 -427.34607
616.61877 569.88959 550.71832
650.45886 -2159.4802 -173.59531
20.091413 -401.52383 595.92407
-737.02686 -1475.4133 -156.0553
-640.00354 1969.2881 136.53439
-915.06812 1400.5613 -354.9917
801.17584 -511.13782 100.55931
-675.77612 1312.8933 418.04077
-870.57385 1830.0179 -493.75714
638.9079 1496.7235 23.293474
-867.06647 -1035.7643 181.49829
897.91498 -430.89081 -45.890347
343.64337 1001.5459 -526.93219
-888.76953 107.94075 27.54586
-728.30267 -1025.9242 -391.19305
869.29071 -855.56293 95.495926
697.14252 -158.86974 482.01541
-552.09497 1539.2595 336.19751
-908.66064 -571.99408 -411.14642
912.62378 1338.2582 -137.54309
-891.66394 -63.653534 -30.632963
-629.45648 -677.03857 335.14706
825.82043 1598.4438 -368.60458
743.67145 -1468.9392 -152.09209
-618.98517 718.86823 -90.107544
-831.25317 -108.21394 -178.88492
-635.79193 -854.41815 -420.61618
-870.02747 -75.002228 -131.93871
-162.85994 2213.7925 88.849945
785.96155 1194.8276 -363.40967
-594.14478 -796.76105 337.92435
711.07739 -1223.366 -143.62556
-537.56909 1005.7034 -239.15219
484.19998 -858.1264 364.48639
462.08777 -311.77652 76.211006
-79.523735 895.70178 277.66003
581.55676 1626.5698 -93.759048
483.29199 -1402.8848 -348.97668
805.18457 1513.0515 -163.80498
115.74194 -762.2688 388.31909
773.07263 1810.9899 -519.51794
-195.15793 -356.05826 -520.98877
727.83313 -530.22577 75.848038
-574.03003 -934.01971 -520.68964
876.97894 -1054.4763 -168.8089
-636.07556 -2190.5278 -470.06509
-342.75421 959.2384 59.051037
-856.74994 -273.78531 -425.20111
711.26196 -1537.3799 -506.03436
880.09448 -343.28436 -134.51637
2.8550642 644.70319 -525.21014
888.19861 -1397.6855 -216.50833
-691.92975 1070.8291 406.72
877.77667 893.15735 126.39584
-850.59698 -1714.9751 -438.72098
673.7276 274.84811 475.73929
-678.29895 1285.1238 79.397194
445.33655 835.86597 -530.04034
-904.91034 -845.32037 -376.28366
72.757812 -157.94695 -82.149651
148.03078 -929.45001 341.7804
808.9823 1753.6085 -284.59665
620.75977 -823.76514 -424.96826
-486.38101 -935.63721 -441.23682
-579.60431 -562.52777 311.44553
840.61017 -487.01804 -220.0471
492.86139 -935.67639 -420.88239
777.62512 381.58441 302.9646
-469.30487 838.21326 -36.216518
721.12946 -939.92456 -394.5625
826.383 681.63477 -214.80273
607.638 -968.88794 -163.23892
490.50763 314.94394 -172.95596
179.30316 -547.64282 546.69458
802.05115 -278.86716 58.900101
-571.17889 -2198.0686 -398.22397
151.48639 515.15875 -177.41292
912.31549 915.15833 18.393394
780.68579 283.22498 -61.832581
-826.45862 1094.4835 -11.901277
-946.42572 1614.1527 20.659805
478.45462 -1853.9189 -496.54614
807.70972 1742.1296 -231.2818
411.25952 -2250.5825 -216.43286
-79.600151 216.61244 -143.04045
711.10669 1792.688 -220.91345
905.51733 -534.9751 -444.23428
-306.42752 1028.8413 342.01086
-780.45673 335.69986 79.233871
-852.06207 762.23291 -249.38991
-617.31384 1184.9247 359.77911
-107.26214 -743.40991 -434.80243
122.0562 2055.6143 251.40831
-712.39075 -227.08012 -517.98584
50.116928 707.02844 -526.53503
-442.47528 1047.2614 558.62085
-470.93637 -1733.8491 -211.87694
-740.19135 1388.1698 360.64105
154.18448 644.01672 -89.211716
473.46805 126.31638 -442.7511
-887.70819 -591.14526 -107.30632
-859.29962 -497.63293 -228.93878
-815.16095 1496.5387 -314.65985
-97.181046 -1700.1262 217.02136
-65.667351 -1681.5079 -492.08725
618.7641 1688.0787 -74.706619
-792.31165 -561.3255 -311.25421
-804.82922 -43.15855 -448.11035
56.564953 -241.76347 -441.2486
172.99126 79.492264 -520.59204
-709.81134 958.80121 -331.51779
571.09521 -1924.429 -499.34302
757.64667 2175.4575 -236.59985
-424.16339 -251.27989 -294.8959
-773.38715 -1209.5425 -13.687525
865.54102 1349.2748 -686.72339
621.97546 838.8075 512.87512
-691.78003 -386.82538 502.93762
503.349 -112.11702 -440.63013
187.88509 -547.73047 266.58563
86.509689 -571.00397 -521.32306
846.91931 -1343.5193 124.53735
488.99225 958.98206 -551.867
-472.54745 -1670.4072 -280.10654
385.86215 -1194.5303 295.40472
-529.27563 -656.18073 467.75397
-794.93011 -904.44318 277.27826
-903.97119 889.47559 -331.65509
884.8999 1289.3486 -672.31586
799.68134 1814.8245 165.35648
-870.10065 1325.8599 259.70328
874.47058 972.31018 148.50528
-180.6488 128.13808 -385.80817
-336.6734 -1341.2021 -505.31989
-616.06641 -2040.6968 63.920898
11.766377 1653.7655 -427.34796
64.924614 1275.3008 496.4136
-853.44684 -211.48035 -271.23697
658.67419 -612.85309 366.15543
847.51575 -1725.5378 -269.04065
722.60016 1878.9978 140.15408
-652.38928 2040.7024 -96.015289
915.20331 1355.7487 -338.86987
471.2753 -934.71722 352.86584
-353.25146 1300.9224 483.20786
-134.60825 2053.3901 270.10107
606.84113 -2011.5999 -65.529549
886.67584 503.91711 -480.60297
940.23645 -1083.9559 -260.06131
869.28833 203.86629 -440.48956
621.39862 -352.21274 303.35794
877.79022 1412.8916 -288.98035
-849.30774 -1721.1794 -251.36804
96.312317 -1921.9131 138.71495
726.04919 -1782.7454 -143.53455
-377.62329 512.22614 -522.56464
-771.99829 -1645.9133 41.94265
61.196129 -2249.6113 -98.67823
-708.63367 -1889.6422 141.65945
553.17822 -1874.9166 -78.584229
659.59656 -1920.4027 -62.997452
712.19177 -1323.4492 -563.07263
517.20441 -126.34578 -520.74194
346.12387 -823.21606 -521.75189
775.23328 284.46283 136.48085
9.2210178 992.00555 587.24341
-893.37659 1715.6702 -172.97995
147.0054 -186.50507 -441.50766
-367.38879 318.05237 -160.27687
680.98206 -1905.4095 19.144829
-429.57657 -185.92592 -443.85443
-920.25842 1334.3291 -241.69858
647.26642 114.28134 547.98718
457.03876 1836.2332 -382.60391
-144.97295 -881.43628 351.35773
-557.31232 2198.5569 87.136223
-814.79181 -33.318745 -109.84898
348.41418 689.14771 -110.89435
370.55508 320.3248 119.3486
792.98645 -401.03195 22.964132
-890.73822 -16.78874 -299.90231
-878.75854 -1337.6699 -285.01013
-869.93024 1417.6335 24.030376
848.86249 383.90082 -131.87779
564.92377 627.82349 -524.28564
771.18884 231.8978 316.55212
346.86731 474.03323 218.10905
-99.935715 416.36035 691.64209
757.82568 -2073.9504 -464.58325
-878.27136 1434.2784 -363.64337
806.28198 1456.7886 -202.86935
884.98828 1355.7599 -425.74988
-17.459253 1361.5929 365.15396
-306.10269 729.73962 -92.642555
21.773029 431.80402 -521.24188
41.98497 798.68042 191.28055
253.16881 -946.71484 -520.70758
725.40338 -908.1626 337.93796
-504.29767 2046.8613 -80.499634
-774.3183 53.801971 32.661636
-913.32794 372.82687 -382.65778
856.02063 758.55731 -22.120125
87.703461 823.55951 628.40576
193.67238 -2211.7817 -302.38116
818.9209 769.92029 -443.79056
-863.94824 679.15491 -83.329308
32.661991 368.84781 693.01392
-126.40173 -2293.2051 -182.24622
871.31165 589.8407 23.942947
-153.36484 1934.9709 -282.63934
-923.11194 1316.3008 -220.08125
934.03503 -340.33282 407.4436
485.54068 -395.01813 197.47849
-366.45483 -566.4422 -54.288078
-707.10211 1304.2676 -39.807529
-926.77802 1621.5623 -288.33621
451.37241 660.86353 -525.53442
462.1788 -675.02087 442.53073
