# .PCD v0.7 - Point Cloud Data file format
VERSION 0.7
FIELDS x y z normal_x normal_y normal_z curvature
SIZE 4 4 4 4 4 4 4
TYPE F F F F F F F
COUNT 1 1 1 1 1 1 1
WIDTH 576
HEIGHT 1
VIEWPOINT 0 0 0 1 0 0 0
POINTS 576
DATA ascii
-0.16939658 0.32943425 0.0094082784 0.93067002 -0.11506781 -0.34729338 0.0081851343
0.16181514 0.3254101 0.0044230837 -0.96449888 -0.11439905 -0.23802266 0.0021571435
-0.17018476 0.33717149 0.0025821782 0.96085662 -0.12105288 -0.24920043 0.0039182967
-0.16975173 0.33348542 0.0060975174 0.95155555 -0.12251785 -0.28201318 0.0041690958
0.15960398 0.33490816 0.0085974131 -0.93805748 -0.1377611 -0.31791511 0.0073691439
-0.16894697 0.34371185 0.0043390938 0.95441031 -0.12733616 -0.26997507 0.0039062325
0.15913706 0.34317145 0.0064922567 -0.9415583 -0.1351905 -0.30853119 0.0069364477
-0.16823395 0.35294265 0.0025175523 0.95955205 -0.13497286 -0.24706727 0.0027416009
0.15831549 0.35362399 0.0045008417 -0.95737153 -0.12199295 -0.2618348 0.0039724032
-0.16643871 0.36475062 0.0034150716 0.95679158 -0.13200085 -0.2590861 0.0035960635
0.15693007 0.36571026 0.0035952933 -0.96032828 -0.12109772 -0.25120699 0.0029600833
-0.16467103 0.37496361 0.0050578215 0.95104837 -0.12271088 -0.28363529 0.0054541146
-0.16292673 0.38751626 0.0042741811 0.95597637 -0.14560625 -0.25477046 0.0028143886
0.15443641 0.38372144 0.0033136467 -0.95996594 -0.13296653 -0.24654691 0.0026945912
-0.16153869 0.39709419 0.0038377899 0.94096094 -0.16300482 -0.29668489 0.0056843637
0.15158384 0.39463353 0.0082094241 -0.93829489 -0.1636202 -0.30468196 0.0066209924
-0.16072886 0.40521684 0.001454614 0.95499831 -0.17505212 -0.23944736 0.0021537959
-0.15943277 0.40517369 0.0076516294 0.92350978 -0.18289195 -0.33716488 0.0081542749
0.1498525 0.40281296 0.0097985771 -0.93908066 -0.1774987 -0.29431573 0.016595541
0.15117753 0.40244517 0.004745781 -0.94052374 -0.17624733 -0.29043427 0.0069130901
-0.15811107 0.41472951 0.0042027035 0.93478942 -0.21202719 -0.28497925 0.0053163841
0.1481521 0.41608885 0.0055299499 -0.93661857 -0.20825323 -0.28173819 0.0092167128
-0.15587665 0.42486444 0.0041359076 0.93106067 -0.25227344 -0.26359838 0.0045594992
0.14533651 0.42598903 0.00786475 -0.91932499 -0.25560454 -0.29917863 0.010843657
-0.15308249 0.43378145 0.0067429864 0.89672577 -0.31445637 -0.31144831 0.0085534723
0.14374556 0.4344424 0.0056763734 -0.91196263 -0.31497017 -0.26290286 0.0079138391
-0.14858575 0.4465735 0.0050851433 0.82608867 -0.47690251 -0.30023593 0.011670168
0.13821372 0.44926518 0.0034342236 -0.79671133 -0.542777 -0.26578987 0.012850256
0.14075904 0.44257903 0.0060383542 -0.85541075 -0.42524064 -0.29570746 0.012096568
-0.14303647 0.45435661 0.006046115 0.68905205 -0.65142184 -0.31757981 0.020739527
-0.13949375 0.45890471 0.0015226774 0.62662488 -0.73915136 -0.24697468 0.019490993
0.1343631 0.45415097 0.0048294775 -0.71314645 -0.64218485 -0.28110638 0.013788965
-0.13275865 0.46285015 0.00084873312 0.48736167 -0.84976321 -0.20095029 0.015670989
-0.12261459 0.46642083 0.0044075325 0.32464492 -0.92005032 -0.2193471 0.0067825103
-0.11757429 0.46761146 0.0043652384 0.28123778 -0.92949635 -0.2386249 0.0066695418
-0.030507956 0.46878648 0.00491742 -0.13608883 -0.99034286 -0.026475342 0.023726735
-0.023519132 0.46590859 0.0046569048 -0.12596141 -0.99198854 0.009611913 0.025282048
-0.01540379 0.46511546 0.0083740326 -0.094105259 -0.99555957 0.0022948445 0.028719332
-0.0050044241 0.46564934 0.0051454669 -0.023001496 -0.99661964 0.078868106 0.024955725
0.0069465204 0.46618724 0.0028045727 0.11990331 -0.99273121 0.010385424 0.027131844
0.013497034 0.46544456 0.0070426939 0.12510306 -0.99205762 0.013071503 0.028344391
0.099048316 0.46976936 0.0092368294 -0.20506909 -0.9475615 -0.24509957 0.01530316
0.10463969 0.46850571 0.0043891366 -0.26177585 -0.94961357 -0.17235845 0.0054998705
0.11492939 0.46547523 0.004547108 -0.37923273 -0.90071499 -0.21188436 0.010113729
0.12291823 0.46204132 0.0074078012 -0.46461764 -0.84618795 -0.26095295 0.015677394
-0.10625251 0.47035545 0.0052855317 0.20887755 -0.95671934 -0.20262854 0.0065149586
-0.093419738 0.47226357 0.0053314692 0.12976362 -0.97381794 -0.18665498 0.0061998023
-0.083358824 0.47352067 0.0049877791 0.13236475 -0.97432035 -0.1821523 0.0067482805
-0.077398747 0.47413445 0.0048744674 0.092721932 -0.98304731 -0.15817946 0.0051859287
-0.068056449 0.47504401 0.0047167293 0.086366676 -0.98589849 -0.14333561 0.003871538
-0.053951763 0.47592396 0.0079066688 -0.0028677108 -0.99194169 -0.12666304 0.012485533
-0.044760965 0.47653571 0.0043383678 -0.080341615 -0.99079049 -0.10899211 0.016407052
-0.03264172 0.47592789 0.0048019215 -0.13462082 -0.98988324 -0.044814911 0.023144327
0.023264507 0.47523403 0.0055787093 0.15041125 -0.9885425 -0.012655083 0.021704482
0.033589527 0.47674435 0.0054616323 0.13020171 -0.98911166 -0.068597727 0.017690066
0.049532846 0.47601271 0.0054624658 -0.057757512 -0.98972732 -0.13078229 0.0044333236
0.05490084 0.47537881 0.0061607435 -0.067596301 -0.98822433 -0.13727096 0.0056915251
0.064319052 0.47448969 0.0050691138 -0.081680052 -0.98946577 -0.11952332 0.0035077664
0.0714719 0.47393379 0.0019740581 -0.11135646 -0.98650926 -0.11999685 0.0025054242
0.085667729 0.4719902 0.0066248565 -0.13935934 -0.98226106 -0.12546821 0.0044454471
0.09485285 0.47069246 0.0052987658 -0.20581006 -0.96711576 -0.14942984 0.0047632577
-0.081097648 -0.47040665 0.010567494 0.11780979 0.94205874 -0.31407976 0.10130597
-0.077288821 -0.47085562 0.01136189 0.070178822 0.94473028 -0.32024932 0.093189493
0.066381037 -0.47496307 0.01136189 -0.070665024 0.92238694 -0.37974846 0.087252878
-0.076898076 -0.4685995 0.011361891 0.070178784 0.94473028 -0.32024932 0.093189493
0.069475845 -0.46861804 0.01136189 -0.09191177 0.93792397 -0.33444127 0.098113686
-0.037063457 -0.41318566 0.010558544 0.069440968 0.30235514 -0.95066255 0.0037604894
-0.024250999 -0.41048437 0.012742477 0.017104473 0.32831523 -0.9444133 0.004402014
-0.016824659 -0.41308391 0.011333166 0.015172293 0.31629854 -0.94853836 0.0027882189
-0.003479681 -0.41107309 0.01011945 9.2190283e-05 0.29328111 -0.9560262 0.0019599162
0.0033325381 -0.41213858 0.010844373 -0.0076361746 0.29576319 -0.95523077 0.0021239456
0.012398789 -0.41471145 0.010786068 -0.018660907 0.31411713 -0.94920081 0.001631382
0.024257265 -0.41238523 0.011266759 -0.040739246 0.31545743 -0.9480648 0.0033932021
0.031255301 -0.41129154 0.01108923 -0.062557064 0.32861701 -0.94238931 0.0030929646
-0.064918175 -0.40392077 0.010483876 0.14198333 0.29495031 -0.9449048 0.0031115902
-0.055289876 -0.40329766 0.011580491 0.11214285 0.30560443 -0.94553161 0.0046211635
-0.045196861 -0.40433902 0.01236609 0.088380128 0.33377954 -0.93849885 0.0053189076
-0.034582462 -0.40517387 0.012969372 0.052583162 0.32466373 -0.94436669 0.0065743891
-0.022713171 -0.40645564 0.014193051 -0.00092673831 0.32357621 -0.94620174 0.0057389182
-0.012879077 -0.40424559 0.012372917 -0.0013054723 0.29463059 -0.95561028 0.0043610125
-0.004702602 -0.40623647 0.010991829 -0.016324921 0.28880242 -0.95724958 0.0029440862
0.0041553504 -0.40322587 0.012919918 -0.0043155518 0.26406386 -0.96449554 0.0046804957
0.017110333 -0.40595293 0.013241043 -0.032410014 0.28732282 -0.95728528 0.005761236
0.021614825 -0.40131411 0.01360953 -0.025721136 0.29089645 -0.95640874 0.0073864842
0.035848275 -0.40344372 0.012218906 -0.069212846 0.27705508 -0.95835799 0.0058562327
0.047118314 -0.40471786 0.011341487 -0.11383978 0.28804365 -0.95082664 0.0035582189
0.054487444 -0.40415013 0.010690372 -0.14081605 0.27504757 -0.95106238 0.0034200223
-0.080466047 -0.39074367 0.010277261 0.17639838 0.25613868 -0.9504087 0.0013692415
-0.074150525 -0.39317062 0.010912296 0.19149274 0.26575395 -0.94483089 0.0041489014
-0.063713677 -0.39616957 0.013178187 0.16018011 0.29877916 -0.94078344 0.0067177485
-0.055074487 -0.39533082 0.013724791 0.11102191 0.27369538 -0.95538735 0.0097585497
-0.045772124 -0.39642623 0.014995699 0.088410415 0.29878455 -0.95021647 0.011269007
-0.034121133 -0.39490181 0.016262218 0.037442636 0.30206132 -0.95255286 0.011034315
-0.024470735 -0.39434212 0.015317792 -0.010166908 0.25816754 -0.96604669 0.012249606
-0.014075825 -0.39447555 0.01555569 -0.038937721 0.24551535 -0.96861041 0.008344112
-0.006365858 -0.39620855 0.013773655 -0.014605548 0.24934363 -0.96830493 0.0055256048
0.0044184364 -0.39585197 0.014406883 -0.0013053591 0.26959321 -0.96297342 0.0076224944
0.015971821 -0.39801747 0.014630912 0.0054444647 0.28891107 -0.95734048 0.0074346149
0.025014807 -0.39444053 0.015122169 -0.047438428 0.29567099 -0.95411128 0.010468748
0.034756098 -0.3953208 0.014213253 -0.069015235 0.29825142 -0.95198894 0.010709031
0.045071054 -0.39490154 0.014954433 -0.11065344 0.30419573 -0.94616109 0.0097526973
0.053530175 -0.39437214 0.013152329 -0.14808792 0.28358993 -0.94744217 0.0075500831
0.063125692 -0.39358544 0.011841074 -0.17082351 0.25891781 -0.95067394 0.0033556502
-0.094021738 -0.38053203 0.010388742 0.17284617 0.22699749 -0.95843428 0.00051530899
-0.085058622 -0.38503683 0.010929477 0.18674661 0.24559607 -0.95121413 0.0016064624
-0.075425752 -0.3875064 0.012284331 0.1943799 0.26692858 -0.94390976 0.0040679951
-0.066309243 -0.38390434 0.016197115 0.18964103 0.26632842 -0.94504261 0.01008182
-0.057319671 -0.38415709 0.016495977 0.1317085 0.27993527 -0.95094115 0.014792883
-0.044610508 -0.38455135 0.014816311 0.076867841 0.25338635 -0.96430629 0.01985015
-0.035095006 -0.38670415 0.014813928 0.02557618 0.25606805 -0.96632034 0.018343093
-0.02855633 -0.3871029 0.015054419 -0.015862126 0.2549817 -0.96681577 0.015226236
-0.014465148 -0.38441372 0.018182172 -0.045149632 0.22356351 -0.97364306 0.01109383
-0.0069298521 -0.38514808 0.016569735 -0.034251478 0.22913951 -0.97279084 0.011657261
0.0053041689 -0.38362193 0.017898407 0.00093870721 0.22496143 -0.97436726 0.011165584
0.01398624 -0.38448918 0.015717559 0.025933668 0.24718431 -0.96862143 0.014902558
0.024104957 -0.38551819 0.015150446 -0.005595217 0.26873177 -0.96319878 0.019586155
0.033742402 -0.38527068 0.014718332 -0.065940052 0.26325446 -0.96247029 0.019479861
0.046300948 -0.38688335 0.016505996 -0.12465889 0.27662647 -0.95285779 0.014028262
0.054354634 -0.3844417 0.014522883 -0.14305077 0.25173128 -0.95716661 0.013723502
0.066744275 -0.3855564 0.012575747 -0.19495392 0.26556361 -0.94417638 0.0038919572
0.075719237 -0.38436565 0.011103802 -0.18571879 0.24040304 -0.95274079 0.0019645309
0.08342316 -0.38262469 0.01018388 -0.16753002 0.22814338 -0.95910597 0.0004593406
-0.096048743 -0.37366813 0.011304442 0.17538048 0.21738704 -0.96020031 0.00082352513
-0.083608985 -0.37448424 0.013600196 0.2074551 0.22842978 -0.95120043 0.0046209386
-0.075717472 -0.37514073 0.015417864 0.21482375 0.24217078 -0.94615221 0.0085861608
-0.064650089 -0.37508965 0.015274252 0.14036034 0.23717706 -0.96127307 0.017589811
-0.055526145 -0.37083051 0.016969264 0.12765691 0.24035491 -0.96225429 0.028643787
-0.044671595 -0.37312424 0.017025575 0.068611316 0.25763398 -0.96380347 0.028394312
-0.035352547 -0.37380427 0.017312031 0.03691056 0.242586 -0.96942747 0.029684817
-0.024263773 -0.37639228 0.017251216 -0.052138716 0.22937623 -0.9719404 0.023162939
-0.014122076 -0.37238494 0.018141156 -0.043613862 0.19174895 -0.98047441 0.018819928
-0.0046345186 -0.37560239 0.017769262 0.0099512003 0.18924706 -0.98187912 0.016197829
0.0020062549 -0.37506962 0.018466914 0.015395675 0.2126008 -0.97701788 0.018991007
0.013293792 -0.37630177 0.017298859 0.050167587 0.26528871 -0.96286303 0.020129014
0.026259562 -0.37883154 0.01637271 -0.015046338 0.27349481 -0.96175581 0.023406418
0.036915466 -0.37641731 0.016329696 -0.084044255 0.27953705 -0.95644951 0.028945448
0.043321293 -0.37681681 0.015973736 -0.11372077 0.27619714 -0.95434934 0.024025254
0.055073459 -0.37674624 0.014973769 -0.16276415 0.26179263 -0.95130038 0.015165226
0.066662185 -0.37467688 0.01575252 -0.19461252 0.23951998 -0.95118666 0.0092239957
0.07463035 -0.37555006 0.013288891 -0.19423641 0.22510305 -0.9547779 0.0032950477
0.084294401 -0.37456182 0.011751725 -0.176147 0.22014932 -0.95943028 0.0011504246
0.09307687 -0.3721939 0.010325232 -0.16117312 0.21225941 -0.96383047 0.0003502281
-0.11420816 -0.36234918 0.010951922 0.1471011 0.19442721 -0.96982443 0.00018090312
-0.10416321 -0.36325732 0.01204031 0.15782014 0.1969675 -0.96762419 0.00023972048
-0.095032431 -0.36458075 0.013805164 0.19044378 0.19318302 -0.96250272 0.0019856638
-0.08596921 -0.36429945 0.015412997 0.20476961 0.20344177 -0.95743454 0.0046358495
-0.074855074 -0.36637327 0.017391581 0.21915945 0.19808573 -0.95536965 0.01191558
-0.064687535 -0.36840293 0.01792033 0.17228515 0.24360517 -0.95444971 0.024170361
-0.05374229 -0.36706573 0.01775413 0.11108593 0.23821715 -0.96483809 0.037277624
-0.041879281 -0.36632442 0.018422741 0.031775381 0.23342745 -0.97185487 0.038646922
-0.032829214 -0.36329743 0.019371137 -0.01634193 0.17552623 -0.98433912 0.035225421
-0.021809988 -0.36676371 0.019054148 -0.058073949 0.21337409 -0.97524303 0.025276504
-0.016957685 -0.36573812 0.019316154 -0.054476295 0.21331091 -0.97546434 0.024245828
-0.0050684838 -0.36957741 0.018790048 -0.021139625 0.19093591 -0.98137486 0.017604919
0.0058487146 -0.3651987 0.019442353 0.045585066 0.2159823 -0.97533256 0.024456043
0.0138471 -0.36584771 0.019200038 0.042670611 0.25122449 -0.96698785 0.030602157
0.025403624 -0.36325702 0.019295732 0.0082279099 0.20726718 -0.97824979 0.04321567
0.035609283 -0.36437848 0.018653745 -0.063314132 0.2412141 -0.96840435 0.040142018
0.043576151 -0.3644236 0.018296057 -0.12690902 0.24497214 -0.9611882 0.039806537
0.055454493 -0.36595258 0.017124427 -0.21139795 0.25258499 -0.94419897 0.023538159
0.065194175 -0.36419073 0.017470514 -0.20818001 0.23514093 -0.9494049 0.017513728
0.072816104 -0.36546552 0.015848245 -0.17792305 0.21142554 -0.96106321 0.0071301018
0.08685156 -0.36571139 0.013273786 -0.1794856 0.20921126 -0.96125728 0.0013022879
0.095608719 -0.36488068 0.011571819 -0.1548271 0.20253578 -0.96695805 0.00026534605
0.10351978 -0.36652374 0.010219647 -0.14042452 0.20349593 -0.96895325 0.00019119738
-0.1346633 -0.3512736 0.010123226 0.18017484 0.17149325 -0.96856958 0.0012461448
-0.12613039 -0.35558408 0.010675817 0.15502913 0.18055406 -0.97127038 0.00017089599
-0.11421823 -0.35507926 0.012429451 0.15365136 0.18564723 -0.9705289 0.00016766012
-0.10393538 -0.3547878 0.014047883 0.15290318 0.18524013 -0.97072488 0.0001648762
-0.096946724 -0.35398087 0.015852267 0.18660875 0.18083335 -0.96564817 0.001443372
-0.085795335 -0.35406169 0.017588293 0.20355467 0.17916371 -0.96253091 0.0050942996
-0.074950896 -0.35641941 0.018340105 0.23297411 0.19964765 -0.95176876 0.019626142
-0.066982374 -0.35768405 0.018551119 0.17612052 0.20737407 -0.96227729 0.030028004
-0.059504312 -0.35329762 0.019985868 0.15441664 0.19096413 -0.96937519 0.039255291
-0.040176868 -0.35886642 0.019878566 0.02349725 0.21131863 -0.97713476 0.039197061
0.03966184 -0.35985127 0.019346956 -0.096619308 0.21778791 -0.9712019 0.042755734
0.047092028 -0.35663724 0.019650189 -0.15315364 0.21352993 -0.96485698 0.04198423
0.054475587 -0.35583523 0.019163169 -0.16390851 0.22538072 -0.96038407 0.036276419
0.068703823 -0.35270956 0.018491471 -0.23178697 0.20579347 -0.95074904 0.017425602
0.075232342 -0.35675165 0.017247388 -0.19139856 0.19058454 -0.96283132 0.0056495829
0.086693816 -0.35687891 0.015417473 -0.19140047 0.19711012 -0.9615162 0.001513505
0.096059442 -0.35610029 0.013393771 -0.15916948 0.19331898 -0.96813887 0.0003139475
0.10308736 -0.35560486 0.012571296 -0.14985549 0.19218539 -0.96984953 0.00022451591
0.11376353 -0.35634595 0.010957655 -0.1445417 0.18385917 -0.97226721 0.00013630163
0.1228892 -0.3516219 0.010457019 -0.17272055 0.17806184 -0.96874225 0.00096236507
-0.14458987 -0.34210688 0.010245931 0.28828281 0.17597763 -0.94123584 0.0092731509
-0.1350445 -0.34275758 0.011425455 0.18070485 0.16869886 -0.96896154 0.0011874167
-0.12466369 -0.34485531 0.012726588 0.15193641 0.16852309 -0.97391754 0.00011392316
-0.11554947 -0.34365419 0.014248244 0.15523964 0.16996835 -0.97314513 8.2462975e-05
-0.10483756 -0.34669015 0.015316012 0.15450378 0.1761024 -0.97217107 0.00014025324
-0.094356306 -0.34416068 0.017884174 0.19057229 0.16715354 -0.96733749 0.0017758368
-0.08525072 -0.34651527 0.018738568 0.24594179 0.1850021 -0.95146561 0.0091077145
-0.077837273 -0.34254083 0.019973123 0.23707028 0.18581168 -0.95355737 0.017534232
0.068337664 -0.34323278 0.019882115 -0.2476023 0.14790681 -0.9575054 0.019588996
0.076127671 -0.34626326 0.018815201 -0.21746254 0.17302378 -0.96061063 0.0085969698
0.085103422 -0.34525153 0.017702069 -0.18875282 0.17677043 -0.96598375 0.0020008495
0.096078694 -0.34494969 0.015507753 -0.16174899 0.17645393 -0.97092807 0.00027251666
0.10479737 -0.34346652 0.014470894 -0.15427625 0.17290597 -0.97278076 9.9467703e-05
0.11396227 -0.34518585 0.012875407 -0.15204832 0.17151624 -0.97337741 0.00012818094
0.12635387 -0.34402251 0.011116047 -0.193644 0.17010854 -0.96621174 0.0016666736
-0.15278947 -0.33198327 0.010301012 0.44236612 0.17424358 -0.87974507 0.021537963
-0.14373444 -0.33651438 0.010874167 0.268426 0.16789834 -0.94855553 0.0088890186
-0.13342318 -0.33456177 0.012993002 0.16334453 0.15865631 -0.97372824 0.00018245175
-0.12549166 -0.33699402 0.013853875 0.15547651 0.16436002 -0.97407025 6.5748682e-05
-0.1153015 -0.33568674 0.015576502 0.15760002 0.16523214 -0.97358131 9.2289025e-05
-0.105178 -0.33544022 0.01742004 0.15809804 0.16658324 -0.9732703 0.00011951465
-0.094605945 -0.33652779 0.019066289 0.18865447 0.173894 -0.9665249 0.0014911436
-0.087851867 -0.33903205 0.019614082 0.22312534 0.16385916 -0.96091896 0.0071197082
0.086055778 -0.33593506 0.019042589 -0.18327378 0.16105776 -0.9697789 0.0015084391
0.095718913 -0.33559582 0.017334515 -0.16681083 0.16809766 -0.9715541 0.00024233523
0.10550458 -0.33554456 0.015661202 -0.15775348 0.16080995 -0.97429669 6.0288763e-05
0.11370604 -0.33441895 0.014644342 -0.15661816 0.15997417 -0.9746173 6.2267965e-05
0.12572558 -0.33589301 0.012513909 -0.18190798 0.15645114 -0.97078967 0.0013745649
0.1331161 -0.33663738 0.011260916 -0.23907606 0.17818366 -0.954512 0.0048386171
-0.1565221 -0.32214633 0.010853022 0.56924671 0.12918073 -0.8119548 0.095996246
-0.14491278 -0.32352942 0.012996794 0.26959634 0.13646784 -0.95325458 0.041512992
-0.13516909 -0.32581335 0.014109699 0.16346286 0.15297271 -0.97461748 0.00018577227
-0.12476639 -0.32402188 0.016084945 0.16181718 0.14855477 -0.97557509 6.5372275e-05
-0.11549255 -0.32524577 0.017326875 0.15782993 0.14912088 -0.97614175 6.955475e-05
-0.1073392 -0.32434741 0.018880947 0.15921329 0.14922138 -0.97590166 8.9039386e-05
-0.099753439 -0.3283118 0.019613583 0.17736039 0.16435781 -0.97032458 0.00083233108
0.094801016 -0.32632416 0.01925092 -0.16876215 0.15090029 -0.97403717 0.00017591304
0.10461867 -0.32467386 0.017656233 -0.1606102 0.151416 -0.97533458 7.7815472e-05
0.11501469 -0.32426888 0.016111787 -0.1591675 0.15108514 -0.97562236 6.6539498e-05
0.12239635 -0.32615 0.014619702 -0.16277008 0.15243301 -0.97481799 9.4176023e-05
0.13442773 -0.32741129 0.012300948 -0.2666111 0.15158743 -0.95180875 0.0072767539
0.14286652 -0.32267439 0.011990922 -0.45255294 0.17164961 -0.87506127 0.026063871
-0.15340912 -0.3102982 0.013508471 0.57369941 0.027503278 -0.81860405 0.17144293
-0.14164881 -0.31549749 0.014685159 0.31860694 0.067371234 -0.94548965 0.075012743
-0.133696 -0.31533346 0.015975453 0.16523209 0.14129876 -0.97608042 8.1902384e-05
-0.12591854 -0.31675506 0.017028496 0.16251859 0.14523667 -0.97595805 7.0486509e-05
-0.11472731 -0.31516054 0.019053387 0.1571724 0.14022841 -0.97756469 8.6863998e-05
0.098361492 -0.31873029 0.01985554 -0.16142181 0.14256927 -0.97653317 0.00018159836
0.10578164 -0.31688142 0.018759726 -0.15876505 0.14480528 -0.97663969 9.4863914e-05
0.11541831 -0.31526521 0.017436804 -0.16020881 0.13941507 -0.97718811 6.2159612e-05
0.12643044 -0.31447557 0.015736056 -0.20811185 0.073828444 -0.97531468 0.064067714
0.13518305 -0.31350079 0.014525272 -0.22801828 0.043801673 -0.97267109 0.099941768
0.14416094 -0.31514859 0.012737946 -0.49365309 0.094870374 -0.86446875 0.088972338
0.15027332 -0.31298733 0.010581153 -0.76174194 0.094175033 -0.64099932 0.12619261
-0.16158415 -0.30217218 0.010835245 0.82274199 0.21260518 -0.52715713 0.17380381
-0.15864889 -0.30502856 0.012459313 0.74813724 0.029270219 -0.66289812 0.16496663
-0.14339599 -0.30490893 0.015713381 0.35936415 0.16402268 -0.91866958 0.14295001
-0.13626005 -0.3063184 0.01672438 0.30350396 0.082105353 -0.94928604 0.10472871
-0.12452069 -0.3045609 0.018886073 0.16083747 0.12909767 -0.9785015 3.3062923e-05
-0.11526269 -0.30823618 0.019900421 0.1563348 0.13381037 -0.97859812 7.8872057e-05
0.10849661 -0.30627656 0.01974546 -0.15696797 0.13247094 -0.978679 7.9259058e-05
0.11588887 -0.30676985 0.018487895 -0.25353986 0.1086339 -0.96120566 0.087270319
0.12527795 -0.30581576 0.017060606 -0.22523545 0.027551636 -0.97391468 0.14281495
0.13350648 -0.30554336 0.015785271 -0.28475317 0.078437887 -0.9553864 0.13327706
0.14387244 -0.3011319 0.014832379 -0.40429297 0.12422503 -0.9061541 0.1596608
0.15152995 -0.3038151 0.011149826 -0.70590734 0.17291279 -0.68687415 0.15408531
-0.16188101 -0.2960552 0.011716197 0.76749963 0.13894059 -0.62581134 0.1500181
-0.15449922 -0.29639727 0.015155886 0.58513319 0.2073126 -0.7839902 0.15553546
-0.14464487 -0.29421535 0.01692019 0.40201551 0.18990014 -0.89572394 0.1731994
-0.13611698 -0.29491684 0.018210523 0.31316647 0.08665143 -0.94573689 0.13416599
-0.12665676 -0.2971372 0.019487161 0.18129534 0.11246293 -0.97697705 0.069940403
0.11745794 -0.29466489 0.019780278 -0.17138182 0.13931873 -0.97530437 0.050680071
0.12561591 -0.29570067 0.018301219 -0.26077297 0.26594448 -0.92804682 0.161443
0.13465577 -0.2942858 0.0170167 -0.3073284 0.19560704 -0.93128246 0.16542819
0.14511561 -0.29662767 0.01505324 -0.52492869 0.12771757 -0.84150946 0.12787735
0.15211478 -0.2953718 0.012185896 -0.74995536 -0.0072453646 -0.66144878 0.14489754
-0.160265 -0.28763169 0.014629071 0.66122067 0.29323617 -0.69050688 0.14469373
-0.15533035 -0.28500944 0.016510401 0.56255525 0.21264881 -0.79894435 0.15467523
-0.14396459 -0.28528458 0.018088594 0.35191494 0.168107 -0.92081261 0.14151213
-0.13581601 -0.28634116 0.019360134 0.25961465 0.1329239 -0.95652044 0.090319283
0.12738797 -0.2869693 0.01912839 -0.28985459 0.19717133 -0.93654042 0.11864597
0.134367 -0.28631908 0.01807042 -0.3866013 0.21767856 -0.89618939 0.14708312
0.14321591 -0.28701559 0.016985012 -0.47923601 0.14255965 -0.86603093 0.13553001
0.15251023 -0.28388423 0.013794653 -0.76695114 0.13142154 -0.62810373 0.14633314
-0.16338813 -0.27318349 0.013878118 0.73250687 0.17109959 -0.65890712 0.082203306
-0.1541557 -0.27445254 0.017863873 0.42380872 0.12949201 -0.89644742 0.062866151
-0.14559844 -0.2765989 0.019004544 0.29251158 0.21399854 -0.93200946 0.12900093
0.13627915 -0.27627096 0.019043328 -0.39679393 0.14859265 -0.9058007 0.11590298
0.14296718 -0.27429089 0.017971063 -0.54300857 0.14606591 -0.82692593 0.16464041
0.15440963 -0.27501097 0.013445715 -0.80474478 0.15705405 -0.57246828 0.15408002
-0.16369464 -0.26451346 0.014988647 0.61488968 0.10018399 -0.7822237 0.021580299
-0.15337415 -0.26731637 0.018967245 0.35701242 0.11980204 -0.92638528 0.015063299
0.13876489 -0.26841974 0.019642364 -0.43672124 0.17910759 -0.88158667 0.13733618
0.14737928 -0.26502937 0.018572409 -0.48339286 0.21891364 -0.84758967 0.072003268
0.15486342 -0.26453325 0.014406078 -0.70180994 0.23624749 -0.67204905 0.085932963
-0.16506901 -0.25454915 0.015151188 0.64386606 0.14035487 -0.75215501 0.021655422
-0.1554369 -0.25664705 0.019416982 0.45694551 0.12374701 -0.88084477 0.022572737
0.15083888 -0.25519931 0.018650185 -0.50266254 0.12094448 -0.85598058 0.024540026
-0.16707186 -0.24568994 0.014079745 0.69844955 0.1064724 -0.70769471 0.029988924
-0.15956613 -0.24636753 0.019759154 0.48237982 0.11253213 -0.86870366 0.024486165
0.15502802 -0.24295226 0.017130731 -0.6264562 0.10981169 -0.77168256 0.024897533
0.16002195 -0.24149811 0.011820074 -0.78413206 0.10403907 -0.61181098 0.026983345
-0.170746 -0.23881604 0.010092689 0.82039618 0.084216855 -0.56555945 0.033800043
-0.16593172 -0.23451248 0.016693264 0.67117095 0.068688564 -0.7381134 0.034660358
0.15587223 -0.23960876 0.016941711 -0.65772313 0.090794533 -0.74776775 0.02851616
0.16100089 -0.23223147 0.011382312 -0.83164155 0.076971874 -0.54995233 0.033400171
-0.16583546 -0.22720397 0.017623277 0.65989769 0.076295346 -0.74747175 0.031354919
0.15592381 -0.22668946 0.018196002 -0.6429103 0.10383531 -0.75887066 0.028177593
0.16090271 -0.22379662 0.012500906 -0.79267365 0.093969084 -0.60236055 0.027325952
-0.17128778 -0.21399343 0.0119569 0.81397724 0.079358689 -0.57545048 0.033975713
-0.16899422 -0.21299259 0.015584347 0.72861654 0.078830078 -0.68037027 0.029589092
0.15827855 -0.21422665 0.017290549 -0.71942353 0.051231604 -0.69267964 0.029486606
0.16132379 -0.21449149 0.01292381 -0.80226743 0.059300594 -0.59401214 0.01657737
-0.17231576 -0.20066647 0.011606064 0.86126822 0.056615684 -0.50498676 0.024524268
-0.16722468 -0.20620747 0.018339261 0.69799727 0.06522686 -0.71312362 0.028407229
0.15768598 -0.20092446 0.018995531 -0.66502136 0.081055082 -0.74241275 0.025343841
0.16129561 -0.20210277 0.014203601 -0.79955536 0.067567289 -0.59677953 0.026889902
-0.17231777 -0.19444254 0.012197712 0.85389018 0.084796183 -0.51349884 0.022642005
-0.16815312 -0.19379821 0.018403331 0.65857124 0.067104965 -0.74952036 0.025039202
0.15875147 -0.19533367 0.018390037 -0.69721764 0.048192561 -0.71523762 0.030601492
0.16317728 -0.19458003 0.011847444 -0.85821903 0.051460389 -0.5106976 0.014358503
-0.17220472 -0.18506689 0.013173141 0.82122147 0.028670419 -0.56988877 0.024124449
0.15901314 -0.18620205 0.018693142 -0.68953913 0.013096102 -0.72412997 0.030033944
0.16320086 -0.18307635 0.012788218 -0.84123093 0.060457665 -0.53728509 0.027595198
-0.17320101 -0.17205034 0.012446822 0.83526516 0.024106871 -0.54931873 0.03077836
-0.16943273 -0.17428663 0.017935207 0.73521978 0.059885688 -0.67517823 0.036294825
0.15930992 -0.17429394 0.018902559 -0.70052224 -0.0018147976 -0.71362823 0.035436902
0.16043296 -0.17715289 0.017320523 -0.71833634 0.016142618 -0.69550872 0.038143013
-0.17227428 -0.16460475 0.013728271 0.80417669 0.045803215 -0.592623 0.035646513
-0.16853157 -0.1692304 0.019286189 0.72509521 0.08782433 -0.68302548 0.043620765
0.15938476 -0.16709369 0.017971419 -0.7152099 0.023436502 -0.69851661 0.039504018
0.16340305 -0.16577807 0.013590554 -0.8127144 0.0065251114 -0.58262575 0.037672002
-0.17228569 -0.15672211 0.01499159 0.81514329 0.065393969 -0.57555622 0.038272336
-0.16929567 -0.15749864 0.019088544 0.77785873 0.083297595 -0.62289423 0.037431382
0.16391119 -0.15618543 0.013475269 -0.86293679 0.047062177 -0.50311559 0.022464959
-0.17297727 -0.14540823 0.014800552 0.87191874 0.06384033 -0.48547107 0.015243284
-0.16942346 -0.14518714 0.019613232 0.80907112 0.073138967 -0.5831421 0.026972832
0.15966666 -0.14923294 0.019891316 -0.74524379 0.083057486 -0.66159886 0.041787144
0.1649825 -0.14343666 0.012655648 -0.89945751 0.049906339 -0.43414915 0.015735207
-0.17328203 -0.13533925 0.014608891 0.90883476 0.058084242 -0.4130927 0.01526195
-0.16988197 -0.13159692 0.019811882 0.90296173 0.19613449 -0.38234976 0.043195657
0.16520143 -0.13556914 0.013129639 -0.94865179 0.075428009 -0.30719757 0.019103393
-0.17492981 -0.12266153 0.013458845 0.96010125 0.12932773 -0.2479516 0.045728218
0.16340894 -0.12714605 0.01600283 -0.95938754 0.085026599 -0.26897225 0.035415012
-0.1713638 -0.11265977 0.01897498 0.95650584 0.019139774 -0.29108453 0.071893334
0.16366312 -0.11508512 0.016546683 -0.96027303 -0.0026816386 -0.27904943 0.056272775
-0.17604367 -0.10476202 0.013280354 0.94439423 -0.0054999725 -0.32876951 0.044973183
0.16430721 -0.10056987 0.016746227 -0.96685499 -0.10067565 -0.23463988 0.12155495
-0.17533718 -0.095457189 0.013991451 0.943766 -0.086822301 -0.31901026 0.041171078
0.16484752 -0.094982438 0.016420932 -0.92260659 -0.15157865 -0.35471243 0.10138615
-0.17486259 -0.082485691 0.015440036 0.90014374 -0.051852841 -0.43249562 0.028046357
0.16624305 -0.08636339 0.014124453 -0.90795934 -0.02486011 -0.41832012 0.032124367
-0.17567684 -0.07523419 0.01582622 0.87311369 0.037982456 -0.48603478 0.0087081091
0.16722049 -0.073520668 0.013191322 -0.89753431 0.050933555 -0.43799311 0.010749918
-0.17663029 -0.063532539 0.014569743 0.90003395 0.033113517 -0.43456006 0.0093077458
0.16622141 -0.063788079 0.016245302 -0.85740101 0.049440142 -0.51226866 0.0096489843
-0.17819144 -0.050236523 0.011945775 0.92586935 0.034496345 -0.37626585 0.0086372802
0.16750994 -0.055755146 0.01480943 -0.87029642 0.030376522 -0.49159071 0.010325831
-0.1769 -0.044207059 0.015794095 0.86563593 0.001729858 -0.50067097 0.010630936
0.16814055 -0.045457073 0.015340229 -0.87515104 0.027223052 -0.48308334 0.0098435497
-0.17545867 -0.036644332 0.018040232 0.85727167 0.018749351 -0.51452285 0.0099864108
0.16810696 -0.033701126 0.013734682 -0.90699947 0.0047090529 -0.42110544 0.013698287
-0.17683989 -0.026844565 0.016210435 0.85229623 0.021535276 -0.52261591 0.01084222
0.16836803 -0.02521717 0.014256609 -0.90205503 0.027473986 -0.43074581 0.014004771
-0.1774547 -0.013843098 0.014576655 0.86908537 0.016024007 -0.49440253 0.0135329
0.16908832 -0.015733035 0.013368333 -0.8872534 0.0081682829 -0.46120995 0.010575756
-0.17766315 -0.0058190408 0.015830781 0.87486994 0.011958664 -0.48421034 0.012711977
0.16769738 -0.0034627421 0.017010553 -0.85822833 0.037485771 -0.51189744 0.011968644
-0.18080395 0.00517574 0.01186363 0.91346693 0.0032775644 -0.40689981 0.018143736
-0.177846 0.0027416619 0.015982272 0.87806165 0.014010311 -0.47834247 0.01459334
0.16791639 0.0074410252 0.017002244 -0.87016964 0.0032096149 -0.49274176 0.012991433
-0.18096285 0.015282523 0.012076266 0.91551268 -0.026796224 -0.40139568 0.014793375
-0.1768146 0.011611741 0.017460564 0.86342227 0.001977721 -0.50447804 0.012921722
0.16724326 0.013752375 0.017837442 -0.85977519 -0.0042356709 -0.51065522 0.013058497
0.1713137 0.016419906 0.012508872 -0.93024671 0.013834769 -0.36667389 0.012633875
-0.17689328 0.022702375 0.017896613 0.87046713 -0.0092344787 -0.49214 0.013174721
0.17152774 0.021057688 0.0119928 -0.91714382 -0.0031537239 -0.39854398 0.013861599
-0.17793518 0.036302634 0.015383103 0.88943279 -0.0027373158 -0.45705789 0.010485648
0.16854978 0.036095276 0.01426369 -0.90280813 0.00031646789 -0.43004352 0.012643718
-0.17735292 0.046427682 0.016074914 0.88526404 -0.0063568819 -0.46504521 0.0097468691
0.16843916 0.04510833 0.015271081 -0.89377958 -0.00025056576 -0.44850641 0.010372009
-0.17766191 0.053423434 0.015811052 0.89118427 -0.0075950981 -0.45357785 0.0099522145
0.16819699 0.057992339 0.016364463 -0.89833027 0.019315278 -0.43889585 0.0097474866
-0.17796095 0.064963751 0.014446554 0.89887458 -0.0082999887 -0.4381274 0.011332816
0.16781959 0.064930625 0.016705014 -0.89445251 -0.0098463222 -0.44705462 0.0080596833
0.16813682 0.074762382 0.016142976 -0.88413459 -0.0076016891 -0.46717048 0.011343969
-0.17761521 0.083762422 0.016127929 0.89166617 0.026615515 -0.4519105 0.0097974883
0.16830955 0.084024705 0.015815243 -0.89642429 -0.0072345734 -0.44313782 0.011200199
-0.17776118 0.096800201 0.015555853 0.88966238 -0.0062231957 -0.4565765 0.011095872
0.16838272 0.092621505 0.015708258 -0.89230388 0.0019568228 -0.45143107 0.013542438
-0.17749655 0.10566672 0.015885698 0.88380581 0.014800283 -0.46761975 0.011383425
0.16844791 0.10649422 0.015466454 -0.88438839 0.0088339057 -0.4666681 0.011480173
-0.17762862 0.11447866 0.015625311 0.89696294 -0.0045335279 -0.44208243 0.0099129789
0.16833752 0.11169954 0.015606624 -0.89034945 0.00094028353 -0.45527682 0.010546353
-0.17783554 0.12739448 0.013811871 0.8978681 0.00067628641 -0.44026414 0.010132207
0.16754864 0.12493888 0.017563162 -0.87808877 -0.0027803532 -0.47848976 0.013193517
-0.17784329 0.1332102 0.013338998 0.90769923 -0.03358452 -0.41827524 0.011656767
0.16755974 0.13857844 0.016700042 -0.88111961 -0.010690993 -0.4727726 0.010832286
-0.17779887 0.14733174 0.012660725 0.9215278 -0.0070459177 -0.38824838 0.010136063
0.16760191 0.14190823 0.016380748 -0.88636577 -0.011196611 -0.46285027 0.01109085
-0.17670608 0.15658085 0.016213542 0.89583552 -0.022602133 -0.44381061 0.0095282681
0.16768804 0.15428999 0.015211714 -0.9203518 -0.031600457 -0.38981277 0.01043273
-0.17757282 0.16404043 0.01179762 0.93152446 -0.020942982 -0.36307523 0.0092637036
0.16756652 0.1632923 0.014883538 -0.89148873 -0.025889223 -0.45230243 0.014424678
-0.17567889 0.17637946 0.015957465 0.90047204 -0.022184921 -0.43434778 0.0091471057
0.16623963 0.1786842 0.018784149 -0.87970084 -0.016079377 -0.47525558 0.012548444
0.1700743 0.1760952 0.011837649 -0.93935961 -0.012492334 -0.34270608 0.009613594
-0.17628135 0.19201525 0.01770068 0.90020734 -0.0027118232 -0.43545303 0.010657598
0.1673433 0.19404991 0.013620007 -0.93376625 -0.00011666846 -0.35788354 0.009460819
-0.17575453 0.20545954 0.016237831 0.92079723 -0.025698859 -0.38919398 0.0070983823
0.16751178 0.20524411 0.012248533 -0.93694288 -0.010907743 -0.34931219 0.0097413529
-0.17546995 0.21537431 0.0163895 0.91711938 -0.011917914 -0.39843434 0.0070637725
0.16690494 0.21345854 0.013959994 -0.92573309 -0.022442129 -0.37751114 0.00754765
-0.17544189 0.22252283 0.015955737 0.92832327 -0.044131842 -0.36914545 0.015049166
0.16594797 0.22654487 0.014610905 -0.96035302 -0.070966177 -0.26960316 0.038935654
-0.17411622 0.23568743 0.017663855 0.93667179 -0.046341892 -0.34712887 0.026231458
0.16590679 0.23583943 0.014469457 -0.96988475 -0.075822361 -0.23146155 0.046901487
-0.17442656 0.24327752 0.015809946 0.94442332 -0.042744681 -0.32594082 0.041578617
0.16506387 0.24489653 0.015518756 -0.96537328 -0.018479936 -0.26021713 0.048917659
-0.17380433 0.25531307 0.015607447 0.94204438 -0.048904076 -0.3319048 0.032682613
0.1643177 0.25247395 0.016216587 -0.95097244 -0.013642416 -0.30897456 0.033229977
-0.17452669 0.26734358 0.01169464 0.97313672 -0.028013607 -0.22851704 0.054898713
0.16391382 0.2671501 0.015204725 -0.94350636 -0.01549692 -0.33099189 0.019778453
-0.17266968 0.27429861 0.015555536 0.90690649 -0.045327462 -0.41888675 0.014950777
0.16296542 0.27619123 0.01630725 -0.89580977 -0.074951418 -0.43807217 0.0069325059
-0.17180569 0.28722942 0.014864778 0.88704741 -0.069163479 -0.45646837 0.0059590251
0.16281717 0.28402752 0.014793552 -0.89166021 -0.078898296 -0.44577688 0.0084352558
-0.17185667 0.29030499 0.014350329 0.90095216 -0.088174991 -0.42486513 0.0068180449
0.1614219 0.29491535 0.015975785 -0.89811748 -0.093684278 -0.42966068 0.0091562867
-0.17132141 0.30181488 0.012810359 0.91966599 -0.080560684 -0.38434952 0.0067240954
-0.16982818 0.30606821 0.016087385 0.89585888 -0.090202205 -0.43508676 0.0067983051
0.15920524 0.30694267 0.018736415 -0.87715709 -0.10187538 -0.4692727 0.0083383871
0.16125338 0.30692327 0.013357314 -0.91890633 -0.078295678 -0.38662782 0.0095910002
-0.17038561 0.31674242 0.010894774 0.93645501 -0.11851929 -0.33015931 0.006866544
-0.16885863 0.31531507 0.016108062 0.89506501 -0.11622076 -0.43052453 0.0069569657
0.15898758 0.31732854 0.016924104 -0.88915944 -0.09120965 -0.44841528 0.0076923324
0.16034172 0.31795782 0.012755997 -0.90271527 -0.091235049 -0.42045388 0.010038723
-0.16666009 0.32855386 0.017447954 0.90204996 -0.1194623 -0.41477063 0.0066355057
0.15881976 0.32509598 0.014929943 -0.89511341 -0.10280676 -0.43382347 0.0085127112
-0.16599226 0.33664054 0.016868662 0.8772375 -0.11540388 -0.46597877 0.012561132
0.156238 0.33477676 0.018227428 -0.86700451 -0.12115093 -0.48334846 0.0099908896
-0.16584018 0.34812069 0.013196399 0.91273415 -0.12884234 -0.3877061 0.01133868
0.15565732 0.34569538 0.016280834 -0.89585549 -0.12940584 -0.42508474 0.0097267907
-0.16523372 0.35683823 0.011895281 0.92780405 -0.13903014 -0.34619406 0.0079039121
0.15626347 0.35326746 0.012239279 -0.92776597 -0.12348419 -0.35213915 0.008236696
-0.16308048 0.36423218 0.015096692 0.89393914 -0.11674598 -0.43271592 0.012484107
0.1530811 0.36537418 0.016530896 -0.9078269 -0.11055939 -0.4045082 0.012469329
-0.1608531 0.37178761 0.018344209 0.87597924 -0.12518905 -0.46581984 0.011136471
0.15203458 0.37323484 0.016356973 -0.89637405 -0.13492414 -0.42226651 0.01400109
-0.16041954 0.388661 0.01327814 0.90580463 -0.13920178 -0.40017602 0.010685081
0.14944148 0.38166332 0.019626301 -0.83105278 -0.13462986 -0.53965372 0.020359362
0.15172115 0.38709345 0.011888516 -0.90260261 -0.14771447 -0.4043377 0.012779735
-0.16063899 0.3922689 0.010518583 0.91634089 -0.15800504 -0.36790463 0.010046911
-0.15845369 0.39500168 0.015826432 0.87003565 -0.13343628 -0.47458684 0.014411323
0.14920428 0.39382759 0.016061032 -0.90678549 -0.1245387 -0.40277806 0.023480859
-0.15702334 0.402224 0.016137226 0.8543272 -0.19848439 -0.48034251 0.015266744
0.14917499 0.40312159 0.01194941 -0.91880792 -0.17423624 -0.35416615 0.022647588
-0.15422857 0.4158096 0.015754007 0.86380172 -0.2043393 -0.46053448 0.013111935
0.14499125 0.41217721 0.017298002 -0.89030933 -0.1572255 -0.42735168 0.036620207
-0.1525474 0.42291221 0.015841633 0.84884953 -0.21206415 -0.48423478 0.011968723
0.14322451 0.42471623 0.01495109 -0.89982021 -0.25033194 -0.35729191 0.02674127
-0.15213877 0.43256801 0.011242447 0.87632573 -0.30133933 -0.37582961 0.01431506
-0.14912388 0.43495774 0.017015139 0.82278401 -0.29150659 -0.48790407 0.015776791
0.1386719 0.4360829 0.018464852 -0.80726677 -0.39857423 -0.43526876 0.036774311
0.14210567 0.43588307 0.011186091 -0.87184775 -0.35410473 -0.3383657 0.024962166
-0.14716317 0.44422689 0.014759051 0.78074008 -0.44787773 -0.43571839 0.019343238
0.13770771 0.44264641 0.016397133 -0.78202116 -0.45951065 -0.42106152 0.04531166
-0.14402972 0.45118213 0.012408235 0.72311181 -0.559771 -0.40467995 0.024396589
-0.13707589 0.4564923 0.016083445 0.59315127 -0.64794034 -0.47785443 0.026704561
0.12873247 0.45681226 0.01403227 -0.62776881 -0.69314897 -0.35419032 0.040020965
0.13348372 0.45202658 0.013121953 -0.73146725 -0.5811767 -0.35663626 0.032489907
-0.13406008 0.46005863 0.014308253 0.52996033 -0.71383929 -0.4577941 0.029350737
-0.12338535 0.4644706 0.014299439 0.35517746 -0.83721495 -0.41583663 0.019660627
-0.11502679 0.46691704 0.015088806 0.25088021 -0.88531077 -0.39151499 0.025704766
-0.10197581 0.46864569 0.017671213 0.21003693 -0.90705764 -0.36487105 0.024318967
-0.097680733 0.46898711 0.018325556 0.18313091 -0.90922463 -0.37386331 0.025513995
-0.02268113 0.46754515 0.010655764 -0.10906424 -0.98929584 -0.096946992 0.045637812
-0.0081450613 0.46643889 0.01050434 -0.048486535 -0.99757516 0.049928229 0.025219074
0.0037489277 0.46541446 0.010424914 0.088092111 -0.99578851 -0.025396535 0.042795274
0.015222804 0.46716496 0.010619722 0.15336561 -0.98726183 -0.042345289 0.038781125
0.087439306 0.46963966 0.017001491 -0.1770819 -0.94851017 -0.26262233 0.038258031
0.095798545 0.46868557 0.015937468 -0.19205904 -0.91895288 -0.34444001 0.033389214
0.10594415 0.46701914 0.013997924 -0.29939741 -0.90022933 -0.31614605 0.031328537
0.11663582 0.46310127 0.015950667 -0.39261538 -0.85392112 -0.34157276 0.028780514
0.1230099 0.46117187 0.012074358 -0.46389535 -0.83017433 -0.30921125 0.022871295
-0.084286593 0.47283402 0.012009476 0.14172256 -0.94895655 -0.28177324 0.014125124
-0.079582557 0.47148871 0.018040948 0.12367507 -0.93043345 -0.3449609 0.02081226
-0.065010794 0.47398853 0.015643971 0.082092702 -0.93853647 -0.33527619 0.020968661
-0.057717856 0.47444522 0.015625142 0.046463292 -0.94910675 -0.31150869 0.021558415
-0.044132356 0.47539961 0.016528724 -0.037941616 -0.95449066 -0.29581729 0.038151916
-0.031118628 0.47604007 0.011973944 -0.077283531 -0.99112839 -0.10812866 0.037653271
-0.025908843 0.47441697 0.014880449 -0.090557225 -0.98137826 -0.16939919 0.047841974
-0.014366444 0.47442383 0.012007114 -0.092679463 -0.99548304 0.020592187 0.03374682
-0.0041932976 0.47687984 0.013281763 -0.011151321 -0.99914896 0.039712258 0.030994004
0.0039863554 0.47293383 0.011548372 0.090778582 -0.99448156 0.052590344 0.028811192
0.017386809 0.47519898 0.012306918 0.15462083 -0.9879536 0.0063210004 0.026993683
0.024461756 0.47560099 0.013211967 0.09409941 -0.9917894 -0.086597309 0.030661905
0.03577774 0.47564965 0.01497702 0.07172928 -0.97685289 -0.20152733 0.02697547
0.043981671 0.47523797 0.014638384 -0.036204033 -0.96053708 -0.27578589 0.017079338
0.055928383 0.47378469 0.016150689 -0.10292776 -0.91726685 -0.38474333 0.027483832
0.066308945 0.47354409 0.013384809 -0.097388312 -0.94612974 -0.30879444 0.015307569
0.072620377 0.47273451 0.013578484 -0.12278975 -0.92435956 -0.36122307 0.018806679
0.08473248 0.47117436 0.013474643 -0.14370237 -0.9345839 -0.32542685 0.018938476
0.097233012 0.47005463 0.010276165 -0.20505178 -0.9475643 -0.24510345 0.015307078
-0.022847436 -0.39021114 0.020062033 -0.02357075 0.25238699 -0.96733922 0.012460736
-0.052973129 -0.3827208 0.021513026 0.10648236 0.24589612 -0.96342963 0.018880632
-0.041990388 -0.38545156 0.021421542 0.070893876 0.26656693 -0.96120554 0.018612191
-0.034738973 -0.38416994 0.022408545 0.01318242 0.26254776 -0.96482897 0.020981349
-0.024560638 -0.38574827 0.021554684 -0.040635251 0.24547365 -0.96855116 0.016401649
-0.017767591 -0.38449594 0.02009574 -0.040190443 0.23019025 -0.97231543 0.013530279
0.014562806 -0.38456798 0.021891767 0.044863645 0.25531095 -0.96581757 0.017654702
0.024830053 -0.38482651 0.022185976 0.00092492549 0.24727921 -0.96894383 0.018324403
0.037544355 -0.38466683 0.021251664 -0.086073026 0.26760158 -0.95967746 0.01953366
-0.066959068 -0.37178087 0.020390635 0.16812597 0.23707753 -0.95683223 0.021033442
-0.0554174 -0.37533048 0.02331819 0.12479178 0.26613212 -0.95582467 0.026036739
-0.048806082 -0.37606618 0.02393586 0.10390917 0.26726416 -0.95800459 0.028433116
-0.036635716 -0.37239951 0.025961887 0.0099279406 0.25987852 -0.96559024 0.032589544
-0.025139531 -0.3729316 0.025606923 -0.059851818 0.22474988 -0.9725765 0.026411118
-0.016397385 -0.37381694 0.022042302 -0.061651759 0.20920826 -0.97592568 0.020487517
0.0028912618 -0.37467524 0.0202395 0.023504799 0.22024126 -0.97516215 0.019062011
0.013975081 -0.37351811 0.024726877 0.056563873 0.24169104 -0.96870327 0.025971988
0.024281636 -0.37741852 0.024659211 0.019451689 0.27929628 -0.96000797 0.026399519
0.038145259 -0.37416291 0.02462529 -0.089121871 0.27044627 -0.95860112 0.030708218
0.044252452 -0.37081534 0.025245028 -0.13307916 0.28505179 -0.94922888 0.032083765
0.053623792 -0.37419462 0.021276245 -0.17493416 0.25467429 -0.95107257 0.020742634
-0.071588963 -0.36277094 0.021252835 0.22652088 0.21688886 -0.94955122 0.018892054
-0.063678361 -0.36048383 0.025228539 0.18658479 0.21717277 -0.95813471 0.031980775
-0.057041001 -0.36600095 0.025613958 0.1194473 0.22578712 -0.96682596 0.041059442
-0.046450596 -0.36590412 0.027274391 0.085238852 0.25530639 -0.96309555 0.040014192
-0.037792601 -0.36463979 0.028267156 -0.00039263451 0.22589859 -0.97415078 0.039200928
-0.02240645 -0.36590898 0.026418999 -0.077509664 0.20791982 -0.97507 0.026731167
-0.011697873 -0.36540142 0.02226772 -0.055046652 0.19166544 -0.9799155 0.020836301
-0.0054083648 -0.36565995 0.020488754 0.0081699248 0.18263225 -0.98314732 0.022992264
0.0025572421 -0.36494175 0.021699514 0.046944387 0.19407341 -0.97986317 0.02192631
0.015679102 -0.36286044 0.028334269 0.07014633 0.20944841 -0.97530037 0.032738831
0.02673189 -0.3652035 0.028215956 0.015424198 0.23619166 -0.97158408 0.042125519
0.036083579 -0.36489028 0.027660411 -0.072234608 0.25194943 -0.96504074 0.042618066
0.043025382 -0.36417255 0.027287826 -0.15883149 0.23211981 -0.95963168 0.041113336
0.055114027 -0.36518595 0.02333645 -0.19086617 0.22158585 -0.95627916 0.031984631
0.061248042 -0.3615098 0.022090144 -0.20454004 0.23216736 -0.95092672 0.020880911
-0.073367484 -0.3542636 0.022568908 0.25515217 0.21423744 -0.94286782 0.022094911
-0.062946893 -0.35272861 0.027602971 0.1888954 0.22536291 -0.95578772 0.035539143
-0.054502644 -0.35289991 0.02034536 0.13851979 0.18793835 -0.97236389 0.045176178
-0.043064196 -0.35532075 0.020443261 0.029063152 0.23815563 -0.970792 0.042961091
-0.035284951 -0.35606304 0.025521055 -0.023023294 0.1997117 -0.97958422 0.043707065
-0.024759596 -0.35537586 0.023971878 -0.093524106 0.19687112 -0.97595847 0.037905503
-0.016274411 -0.35609484 0.022442358 -0.057749309 0.18876323 -0.98032314 0.027232585
-0.0058880253 -0.35372937 0.022354245 -0.022920266 0.19085869 -0.98134989 0.026289636
0.0040135626 -0.35612604 0.023008615 0.092386663 0.18644071 -0.97811276 0.024344137
0.0139995 -0.35697663 0.022572361 0.071908131 0.18137114 -0.98078215 0.034492295
0.027245693 -0.35520181 0.020637855 0.021660112 0.21207777 -0.97701269 0.048520107
0.035125256 -0.35676914 0.024036888 -0.086575478 0.23828509 -0.96732879 0.05035511
0.04743306 -0.35559547 0.029046627 -0.14680864 0.23103528 -0.96180558 0.049657673
0.057184923 -0.35330433 0.025861699 -0.21702513 0.20129448 -0.95518613 0.037202675
0.065764584 -0.35288277 0.02212083 -0.25903347 0.21955088 -0.94058442 0.021919807
-0.072329886 -0.34449449 0.024250656 0.23225303 0.17797795 -0.95623338 0.027714042
-0.066190176 -0.34435174 0.022734962 0.17851141 0.16607562 -0.96982092 0.03570807
-0.055286117 -0.34451458 0.021383939 0.13057916 0.15608358 -0.9790746 0.046705399
-0.043686662 -0.34282732 0.02200458 0.061731257 0.15837871 -0.98544681 0.057835639
-0.037768248 -0.34411344 0.022063574 0.0048953681 0.17700264 -0.98419815 0.055534519
-0.025185043 -0.3440527 0.022492828 -0.079075195 0.16012423 -0.98392445 0.050265741
-0.016256215 -0.34414035 0.024516078 -0.079676293 0.17732124 -0.9809224 0.033022843
-0.0058273771 -0.34709063 0.023117488 0.0002397316 0.18285814 -0.98313922 0.024272008
0.0046151592 -0.34450731 0.024928855 0.09729027 0.19766816 -0.97542912 0.031882133
0.017087029 -0.34430566 0.02244713 0.044330802 0.17348512 -0.9838382 0.053630963
0.028158396 -0.34289092 0.022217873 -0.019160431 0.18324511 -0.98288053 0.057195
0.034521252 -0.3435328 0.021909321 -0.074468896 0.15974061 -0.98434615 0.062789924
0.046044901 -0.34591895 0.021190763 -0.14550327 0.18156345 -0.97255516 0.046253391
0.055758335 -0.34288177 0.020874403 -0.18548483 0.17155421 -0.96755594 0.03655633
0.064289525 -0.34268209 0.024490643 -0.24747154 0.17190039 -0.95352405 0.026418651
0.07161054 -0.34496462 0.021040954 -0.23645058 0.18478578 -0.95391059 0.015274123
-0.091413774 -0.33018786 0.020467602 0.18094644 0.1713285 -0.96845496 0.0032222257
-0.083100699 -0.33630592 0.020522773 0.21337418 0.17877261 -0.96047473 0.015265691
-0.075245053 -0.3361792 0.023218617 0.23547058 0.16320826 -0.9580797 0.029183723
-0.06687431 -0.33382168 0.023587426 0.21440519 0.15379642 -0.96456057 0.036511015
-0.055347972 -0.33531877 0.022580735 0.14511323 0.18010052 -0.97288537 0.058381718
-0.042812902 -0.33236519 0.023347497 0.049615841 0.13874619 -0.9890843 0.063591652
-0.034735557 -0.33701637 0.023032201 -0.014838248 0.17806683 -0.98390651 0.063277088
-0.022930652 -0.33546957 0.02352125 -0.079162017 0.17741649 -0.98094684 0.051368464
-0.013955817 -0.33709753 0.02519089 -0.10020642 0.1600364 -0.98201168 0.036880974
-0.0074530938 -0.33490071 0.023935914 -0.019231996 0.11216776 -0.99350315 0.034348793
0.0054042824 -0.33657941 0.026350003 0.08542189 0.12636051 -0.98829961 0.036957007
0.014003128 -0.33357611 0.023734095 0.10562243 0.095263019 -0.9898327 0.050408676
0.026009498 -0.33572274 0.023173509 0.050767776 0.16776817 -0.98451847 0.061604418
0.034768887 -0.33670229 0.022765104 -0.051307026 0.19842331 -0.97877252 0.060876459
0.056594286 -0.33476385 0.022994976 -0.19572414 0.14325018 -0.97013992 0.042695872
0.06563241 -0.33318889 0.025340317 -0.27912343 0.14431185 -0.94934934 0.023944847
0.073198996 -0.33348942 0.021987656 -0.22152215 0.16425371 -0.96122247 0.016363744
0.081036963 -0.33279103 0.02022812 -0.18355763 0.16164774 -0.96962708 0.0057052299
-0.10293227 -0.32203245 0.020205075 0.17907238 0.14893827 -0.97249705 0.00088024017
-0.093439676 -0.32537445 0.020899402 0.19862215 0.16883902 -0.96542358 0.0033130425
