# .PCD v0.7 - Point Cloud Data file format
VERSION 0.7
FIELDS x y z normal_x normal_y normal_z curvature
SIZE 4 4 4 4 4 4 4
TYPE F F F F F F F
COUNT 1 1 1 1 1 1 1
WIDTH 576
HEIGHT 1
VIEWPOINT 0 0 0 1 0 0 0
POINTS 576
DATA ascii
-0.13863501 0.024171319 0.069137469 0.71523649 -0.016136996 -0.69869626 0
0.14826463 0.024919862 0.067620076 -0.71249658 0.03713784 -0.70069212 0.0006772232
0.15416741 0.021728273 0.061547142 -0.71618629 0.035801694 -0.69699019 0.00064462482
-0.14408419 0.03557162 0.06329643 0.71588743 -0.018164957 -0.69797939 0
-0.1376944 0.032139897 0.069916725 0.71541649 -0.017686184 -0.69847447 3.3519864e-06
0.1465722 0.032155104 0.069425963 -0.70550144 0.070705041 -0.70517266 0.00089470617
0.15738454 0.03656105 0.061516769 -0.72381091 0.046345949 -0.68844014 0.0020981561
-0.14153549 0.043148108 0.065728292 0.71592957 -0.015147321 -0.69800818 0.00013288351
-0.13742983 0.040695738 0.069990352 0.71518749 -0.013581214 -0.69880068 0.00012979365
0.15620062 0.042704031 0.063609719 -0.72204578 0.037821524 -0.69081056 0.0027402544
-0.14437056 0.053195637 0.062500559 0.71176934 -0.045523275 -0.7009365 0.00068104186
-0.13748863 0.059392385 0.069280587 0.70687211 -0.069909975 -0.70387805 0.00078554876
0.15452902 0.056187857 0.066031739 -0.71127188 -0.064534761 -0.69994825 0.0047687283
-0.14531237 0.066568859 0.063152462 0.70837009 -0.090239733 -0.70004904 0.00086177909
0.14887145 0.064842165 0.066389084 -0.7117188 -0.14066906 -0.68823576 0.0028615016
0.15143031 0.06646584 0.063305184 -0.70940101 -0.14729051 -0.68924278 0.0023389363
-0.14306633 0.078590743 0.060162287 0.7091015 -0.12216972 -0.69444197 0.00048845855
-0.13724095 0.07464911 0.067394286 0.70749956 -0.12473007 -0.6956197 0.00068051065
0.14712302 0.076581128 0.066154525 -0.70082498 -0.16634052 -0.69366795 0.0023888471
0.15258497 0.073085837 0.060927957 -0.71036845 -0.16582705 -0.68401611 0.0020256168
-0.14153837 0.084859595 0.060648799 0.69927001 -0.14280607 -0.70044827 0.00038327457
-0.13460416 0.086278513 0.067511618 0.69117916 -0.15687306 -0.70545185 0.00051796361
0.14515795 0.082730182 0.067456655 -0.69104725 -0.16185266 -0.70445538 0.0021443353
-0.13349998 0.094766781 0.06718155 0.68531066 -0.15638903 -0.71126068 0.00045444883
0.144967 0.096607164 0.065492198 -0.70097166 -0.080178149 -0.70866799 0.0040255236
0.15011968 0.092688702 0.06115602 -0.71037066 -0.084393516 -0.69874966 0.0034371207
-0.13526689 0.10551551 0.063158616 0.72214812 -0.074877881 -0.68767399 0.0078715207
-0.12941705 0.10993677 0.066984825 0.71439439 -0.010214048 -0.69966871 0.011932197
0.13865876 0.1043148 0.069169581 -0.74066991 0.018066997 -0.67162615 0.012148914
0.14473674 0.10387776 0.064033732 -0.72646481 -0.020027636 -0.68691188 0.011404877
-0.13222289 0.11545612 0.063052684 0.73973644 0.046918686 -0.67125911 0.011120724
-0.12688959 0.11020553 0.06905324 0.72183907 0.031107932 -0.69136143 0.016096357
-0.065082699 0.11947584 0.067498036 -0.6087752 -0.77427036 -0.17291109 0.12597421
-0.0551291 0.11926573 0.066774085 -0.13795844 -0.82233495 -0.55202597 0.070898831
-0.047393735 0.11914585 0.065596014 -0.061862018 -0.77626961 -0.62735844 0.058996279
-0.025349505 0.11834328 0.068773314 0.026125584 -0.66945374 -0.74239421 0.097781062
-0.017018666 0.11826555 0.066776372 -0.081380218 -0.60601693 -0.79127795 0.09363436
-0.0078465911 0.11798975 0.067274362 -0.08686734 -0.62185293 -0.7783013 0.092718042
0.0025630991 0.11785416 0.065324247 0.061068673 -0.63107389 -0.77331513 0.073867127
0.024684917 0.11723109 0.065927997 0.0011237299 -0.64526373 -0.76395911 0.094860882
0.035371486 0.11698093 0.065499261 -0.13965721 -0.58089936 -0.8019051 0.079801254
0.042129114 0.11665417 0.06761758 -0.033369657 -0.70565653 -0.70776784 0.072733432
0.055969425 0.11626644 0.06796585 -0.12903197 -0.74280351 -0.65695786 0.096485555
0.065091424 0.11622027 0.065227188 0.1792271 -0.62245607 -0.76185703 0.068948902
0.073699251 0.11593814 0.066024788 0.3494719 -0.85227805 -0.38921916 0.094529256
0.14334927 0.11799013 0.064473249 -0.71846056 0.17277695 -0.67376739 0.012661258
-0.13312933 0.12659319 0.067292318 0.74064255 0.13625467 -0.65793872 0.010006619
-0.12960899 0.12518227 0.068781748 0.72544235 0.14266576 -0.6733349 0.0086697331
-0.070399426 0.12446294 0.067922577 -0.78433996 -0.49366823 -0.37563625 0.11775383
-0.069977351 0.12789886 0.064831033 -0.73778749 -0.32733119 -0.59035927 0.08989206
0.15488888 0.12636887 0.06511981 -0.72952539 0.20993619 -0.6509375 0.012853622
-0.070373647 0.13583392 0.066759668 -0.80127323 -0.12971652 -0.58406752 0.10584167
-0.069794029 0.13207495 0.064148732 -0.80493993 -0.17763543 -0.56614256 0.08826603
-0.0089027658 0.13944888 0.066260919 0.14269005 -0.16035852 -0.97669071 0.19374773
0.018157588 0.13960227 0.063942142 0.27803549 -0.022063276 -0.96031737 0.18343848
0.022575781 0.13988742 0.065871142 -0.045676004 -0.071263686 -0.9964112 0.18889876
0.031062182 0.13868798 0.066260919 -0.23362765 -0.13889454 -0.96235466 0.20551139
0.048737116 0.13808221 0.063435495 -0.22687772 -0.23977347 -0.94394666 0.12724641
0.084070846 0.13801888 0.065717936 -0.86686718 0.086964361 0.49089563 0.067621224
0.15345687 0.13719249 0.06636133 -0.69967967 0.15045135 -0.6984359 0.017794395
-0.14528027 0.14568582 0.060498528 0.71743029 0.12410989 -0.6854856 0.017058065
-0.13648981 0.1428223 0.068930537 0.72470146 0.088269435 -0.68338597 0.013450095
-0.042802654 0.14491308 0.06041982 0.0013422547 -0.55746651 -0.83019829 0.24461177
-0.03318391 0.1462713 0.065916404 -0.26898134 -0.83594728 -0.47837341 0.23135157
-0.025377147 0.14523596 0.066260919 0.19220233 -0.51874542 -0.83304358 0.23271555
-0.014943644 0.1451416 0.066260919 0.32437783 0.016283445 -0.94578737 0.24637321
-0.0049376893 0.14825551 0.062771074 -0.17468689 -0.98431981 0.024475927 0.20361491
0.0050542993 0.14566338 0.063942142 -0.063185215 -0.99662429 -0.052417986 0.23266159
0.021661146 0.14319453 0.062494915 0.0037392934 0.088827856 -0.99603999 0.20932062
0.03312175 0.14679538 0.066260919 0.36337891 -0.85823292 0.36248049 0.24229568
0.052265484 0.14539401 0.065003894 -0.55499452 -0.36967814 -0.74519736 0.24722545
0.06682694 0.14812568 0.060273852 0.39799878 -0.48789418 -0.77688885 0.18293478
0.15826494 0.1430344 0.061656378 -0.68489981 0.13225281 -0.71653426 0.014170034
-0.14119831 0.15447679 0.063676119 0.72151762 0.012506833 -0.69228321 0.006929059
-0.070771731 0.15127426 0.068629935 0.94347429 -0.038288299 0.32922691 0.18357015
-0.06423188 0.15544575 0.061413646 -0.66052651 -0.14350042 -0.73696154 0.19615774
-0.051450744 0.15623762 0.066357106 -0.25143281 -0.9126758 -0.32218701 0.2262098
-0.044372961 0.15333927 0.067055918 -0.095502049 -0.98081565 -0.16994101 0.20180663
-0.035222232 0.15469839 0.065160394 0.069179803 -0.94742584 -0.31240734 0.25789621
-0.015230544 0.15305772 0.066260919 0.01814221 -0.99799275 -0.060674783 0.22204027
-0.0076385094 0.15802798 0.060227916 -0.047206637 -0.26910168 -0.96195418 0.20936935
0.0033297185 0.15415259 0.063942142 -0.36724111 -0.38473007 -0.84682745 0.24582626
0.013887998 0.152908 0.063942142 0.24566296 -0.37108076 -0.89551592 0.22993354
0.022160262 0.15360625 0.063666463 0.11119307 -0.63337189 -0.76581734 0.24562994
0.033767208 0.15972081 0.066260919 -0.44849652 0.22299597 -0.86551923 0.24457593
0.045135729 0.15744364 0.065042049 0.28599408 -0.89117563 0.35215527 0.23450798
0.053089157 0.15570569 0.067055911 0.44369933 -0.85734767 0.26093262 0.25540742
0.063803837 0.1557342 0.064777955 0.062240344 -0.98385042 -0.16782285 0.23025747
0.074860148 0.15783307 0.060896523 0.64860326 -0.13431205 -0.74918228 0.15009126
0.085256979 0.1512686 0.068036839 -0.92815924 -0.016200304 0.37183049 0.15457755
0.11919521 0.15965173 0.064442366 -0.53289032 -0.55368721 -0.63988942 0.16346301
0.1557737 0.15346599 0.063751154 -0.67013651 -0.023746176 -0.74185789 0.00026700977
-0.14261609 0.16802143 0.061641954 0.66520452 -0.037588142 -0.74571455 0.0025278954
-0.13662304 0.16416806 0.067241751 0.63146472 -0.035815354 -0.77457702 0.021320313
-0.10592949 0.16723824 0.064851537 0.45569515 -0.60681975 -0.65123868 0.19737574
-0.070810184 0.16858417 0.069142364 0.90149665 0.068493716 0.42733181 0.19831721
-0.069642708 0.16657194 0.064216025 0.82406175 0.06566783 0.56268114 0.17534861
-0.05495419 0.16127685 0.060898874 -0.62304324 -0.40396559 -0.66979766 0.21429281
-0.041405011 0.16226077 0.067055918 0.89726949 -0.44121626 0.015352544 0.26543224
-0.035222109 0.16480525 0.064245991 0.069923282 -0.59816515 0.79831654 0.26747045
-0.0064110369 0.16492164 0.063903108 -0.33458361 -0.10971483 -0.93595755 0.24933998
0.0048618405 0.16481118 0.063942142 -0.19861631 0.068922274 -0.97765082 0.20562434
0.025643256 0.16035326 0.066260919 -0.18912265 -0.25358203 -0.94864577 0.22907571
0.034662571 0.16534336 0.066260919 -0.39188415 -0.0093393065 -0.91996717 0.24955218
0.044589985 0.16761073 0.066260919 0.30451807 -0.46814755 0.82952189 0.26657483
0.053981144 0.16683088 0.062881924 -0.73668814 0.011250808 -0.67613906 0.24916083
0.065247558 0.16700965 0.063564204 -0.4078818 -0.64194846 0.649257 0.1902605
0.12693104 0.16561201 0.061691873 -0.30990979 -0.2789962 -0.90890986 0.17071171
0.15447506 0.16567487 0.064492121 -0.59822392 -0.037967753 -0.80042893 0.076290682
-0.14285308 0.17545907 0.061987583 0.62411678 -0.071239427 -0.77807665 0.050073206
-0.11080428 0.17165691 0.067573242 0.61004096 -0.22961858 -0.75837022 0.16712306
-0.070483305 0.17177185 0.067839243 0.92652643 0.045404885 0.37347975 0.15939704
-0.046287205 0.17236054 0.066339642 0.40878093 -0.524158 0.74709874 0.19711494
-0.03479192 0.17483298 0.0664628 0.6585353 -0.71031475 0.24856408 0.22318169
-0.024932809 0.17793798 0.066260919 0.19524813 -0.42329067 0.88470513 0.23795031
-0.014273234 0.17391786 0.066260919 0.16693011 0.033423912 -0.98540205 0.2171354
-0.0016304324 0.17869061 0.063942142 -0.2787714 0.018939486 -0.96017075 0.21179694
0.0024557961 0.1787363 0.063942142 -0.2857728 0.018320581 -0.95812225 0.22691244
0.011368258 0.17631462 0.063942142 0.17787516 0.19232535 -0.96507585 0.22146532
0.028160408 0.1773988 0.066260919 -0.024787648 -0.02751736 -0.99931395 0.18897389
0.03452979 0.17522475 0.066260919 -0.27229622 -0.23691504 -0.93259108 0.2471659
0.048517007 0.17409392 0.064922579 -0.59406936 -0.80325687 0.043129068 0.2070808
0.086325102 0.17375201 0.068023339 -0.80632621 -0.016584052 0.59123862 0.19814079
0.11584206 0.17769089 0.066482373 0.035888668 -0.055512477 -0.99781281 0.20996912
0.13133138 0.17328043 0.064506836 -0.34156746 -0.043895803 -0.93883163 0.16404359
0.14989662 0.1736573 0.06824524 -0.62268132 0.10296736 -0.77567124 0.086611152
-0.1421614 0.18889521 0.06389837 0.53252172 0.054724213 -0.84464538 0.11300159
-0.13828766 0.18247516 0.063927718 0.53288871 -0.0353196 -0.8454479 0.096306853
-0.11635087 0.18690029 0.063591875 0.54178673 0.15260985 -0.82654542 0.16908151
-0.09977521 0.18359259 0.066004261 0.49300224 -0.24398652 -0.83511639 0.22175391
-0.070410863 0.18437691 0.067792058 0.8701176 -0.043477539 0.49092266 0.20779404
-0.032462195 0.18312448 0.064943992 0.29984197 -0.47021699 0.8300547 0.21890429
-0.027078044 0.18350585 0.066260919 0.074400812 -0.34573427 0.93537819 0.2286149
-0.017337508 0.18424594 0.066260919 -0.17014925 -0.38377485 0.9076156 0.21486285
-0.0058415169 0.185929 0.064607084 -0.10385145 0.25111973 -0.96236885 0.23812531
0.0089365421 0.18333137 0.063942142 -0.050065193 0.043734733 -0.99778801 0.2113916
0.013015568 0.18471336 0.063942142 0.044744618 -0.033707581 -0.9984296 0.19708708
0.02336398 0.18356144 0.064271197 0.012765217 0.11550477 -0.99322486 0.17223184
0.044031035 0.18793818 0.066260919 -0.089433752 0.095082805 -0.99144387 0.21407601
0.11645484 0.18752757 0.066735655 -0.93054485 -0.02319257 -0.36544272 0.15521926
0.14844309 0.1823401 0.068977311 -0.65817094 0.12233795 -0.74286234 0.12478516
0.15339246 0.18335898 0.064779483 -0.60925674 0.13890371 -0.78071243 0.14814515
-0.14276403 0.19132638 0.061286043 0.52840471 0.061629985 -0.84675276 0.11524864
-0.13735989 0.19147801 0.06624569 0.56533599 0.087960489 -0.82015741 0.11671038
-0.11720882 0.19555992 0.069502875 0.419126 -0.12944192 -0.89865357 0.16513406
-0.069689311 0.1945809 0.064979814 0.97258717 -0.22530633 0.05754327 0.1038647
-0.026344143 0.19237065 0.066260919 0.2733174 0.053174842 -0.96045303 0.23501335
-0.01609082 0.19612838 0.066260919 -0.050562177 0.05178519 -0.99737746 0.21868411
-0.0078853779 0.19429536 0.065467596 0.094427444 0.011016834 -0.99547076 0.22733873
0.0078881225 0.19354151 0.063942142 -0.080452867 0.12278659 -0.98916668 0.21050307
0.014457287 0.19702022 0.063942142 0.061269954 0.12044002 -0.9908281 0.19116607
0.02269531 0.1936129 0.064388528 0.11518198 0.010956886 -0.99328399 0.19645952
0.046020485 0.19250071 0.066260919 -0.061492469 -0.0039645932 -0.99809968 0.18882822
0.087166958 0.19613799 0.067083463 0.71634388 -0.13776506 -0.68401182 0.13323449
0.13895291 0.19851246 0.064578444 -0.16654322 -0.57398212 -0.80175287 0.17632437
0.15119427 0.19647115 0.065957248 -0.59388471 -0.27655849 -0.75552386 0.16592453
-0.14608677 0.2056613 0.069680996 0.57496381 0.045848597 -0.81689322 0.12138591
-0.12389734 0.20748141 0.064771265 0.29056919 -0.38738835 -0.87492847 0.20212193
-0.11799129 0.20123298 0.068027355 0.42679259 -0.21065609 -0.87947267 0.16908854
-0.070253819 0.20311007 0.067515306 -0.14833477 -0.43136913 -0.88989741 0.2114106
-0.069988146 0.20010436 0.066342518 0.93083268 -0.051958743 0.36173302 0.14398897
-0.033230837 0.20581807 0.062146701 -0.11584576 -0.41338027 -0.90315926 0.2020279
-0.018709702 0.20068713 0.066260919 -0.037652686 -0.011438094 -0.99922544 0.20987567
-0.0035574012 0.20943391 0.063942142 -0.103693 -0.074529827 -0.991813 0.18051891
0.0017992269 0.20978533 0.063942142 -0.12761706 -0.081029557 -0.98850799 0.17729543
0.023143729 0.20441711 0.061431859 0.11820654 0.18045071 -0.97645521 0.13227914
0.032729238 0.20572428 0.066260919 -0.0056820526 0.11784285 -0.99301594 0.15024886
0.04344818 0.20495786 0.066260919 -0.083569095 0.12988085 -0.98800164 0.19121307
0.053854898 0.20727502 0.062701419 -0.06252683 -0.50847012 -0.85880643 0.19637702
0.067661449 0.20998961 0.061406441 0.15793738 -0.56765556 -0.80797458 0.18697527
0.11811566 0.20696612 0.062516354 -0.96071845 -0.13708615 -0.24130379 0.20418127
0.1248343 0.20843805 0.066932753 -0.6269933 -0.677764 -0.38407722 0.22620633
0.14760558 0.20563386 0.068200491 -0.65086234 -0.23198079 -0.72288537 0.21680979
0.15492441 0.20306437 0.062466335 -0.36018777 -0.34786689 -0.86559427 0.22460774
0.16754907 0.20266719 0.068600513 -0.49262446 0.12549202 -0.86114627 0.16208126
0.17304361 0.20443776 0.065668918 -0.48980868 0.045918029 -0.87061983 0.11885997
0.18096545 0.20883431 0.061129328 -0.38761717 0.062813729 -0.91967785 0.1224639
-0.15814105 0.2181398 0.061150149 0.38462439 0.03152597 -0.9225347 0.20013726
-0.14611344 0.21542113 0.066233478 0.58257776 0.1287868 -0.80250674 0.19603455
-0.13461241 0.21847887 0.066713974 0.7361384 0.27080268 -0.62029517 0.19794405
-0.12018579 0.21976329 0.066013768 0.14124636 -0.97811055 -0.15280421 0.24848731
-0.10306095 0.21688738 0.066815563 0.70105457 -0.69951636 -0.13856213 0.15266035
-0.098296225 0.21147111 0.066179715 0.50243378 -0.59585118 -0.62651551 0.23799384
-0.070107833 0.21233265 0.067091674 -0.30500236 -0.34103459 -0.88919568 0.22270639
-0.055062659 0.21577677 0.060146831 -0.29905683 -0.38855615 -0.87154406 0.20155899
-0.046645261 0.21528776 0.06453754 0.017496467 -0.63640833 -0.77115387 0.20559224
-0.03381259 0.21450971 0.06339822 0.16543376 -0.25892237 -0.95162535 0.20821713
-0.024102751 0.21278825 0.066260919 0.065104373 -0.19350825 -0.97893614 0.19943953
-0.013115383 0.21741386 0.066260919 0.12686709 -0.24796216 -0.96042675 0.1578746
-0.005604615 0.21603966 0.064253241 -0.067152187 -0.19188696 -0.97911698 0.15937376
0.0079735368 0.21249929 0.063942142 -0.058779474 -0.18578474 -0.98083073 0.15993701
0.013580564 0.21413755 0.063942142 0.069252238 -0.099623062 -0.99261236 0.1319344
0.025205797 0.21490484 0.064428844 0.03940209 -0.15527789 -0.98708481 0.14251046
0.036722597 0.21377581 0.066260919 -0.21593262 -0.13642272 -0.96683085 0.15979132
0.04576759 0.21384697 0.066088662 -0.2124147 -0.26791254 -0.93973553 0.15882218
0.052949529 0.21795572 0.066353768 -0.2484749 -0.24509804 -0.93711638 0.17067891
0.068404451 0.21613359 0.062763184 0.095240228 -0.5298754 -0.84271073 0.19348967
0.078274198 0.21568449 0.060126007 0.57766527 -0.29267073 -0.76200169 0.18748772
0.088382035 0.21741459 0.067924574 0.70085931 -0.19142805 -0.68713278 0.086360112
0.1179713 0.21201542 0.06401249 -0.92476296 -0.3418777 -0.16713165 0.21247585
0.13228825 0.21021365 0.06974642 -0.49038115 -0.40509188 -0.77163905 0.24584602
0.14733541 0.21619925 0.062668055 0.094009325 -0.95478475 -0.28204307 0.23426425
0.15503368 0.2149312 0.067730263 -0.56770653 0.4651593 -0.67921734 0.22334862
0.16579567 0.21344012 0.065189883 -0.48607367 0.24500661 -0.83887076 0.18431412
0.17493522 0.21808486 0.064384133 -0.46371657 0.24182667 -0.85234195 0.11738069
-0.16298749 0.22606194 0.063082926 0.46127146 0.18062076 -0.86867994 0.12616031
-0.15356034 0.22668165 0.065757349 0.5759393 0.37293583 -0.72747022 0.14829606
-0.14204369 0.22701907 0.064260446 -0.65883291 -0.62365562 0.42070511 0.19883206
-0.12300638 0.22128259 0.063661881 0.046952274 -0.97625464 -0.21147659 0.21746747
-0.10017313 0.22399588 0.065004133 0.92132437 -0.34638125 -0.17658278 0.14869805
-0.070177071 0.22112641 0.067559965 -0.62698412 -0.12861361 -0.76834196 0.1720908
-0.046159558 0.22519827 0.06419269 -0.060739145 -0.15541519 -0.98598021 0.21234332
-0.034271311 0.22522645 0.064010143 0.23512751 -0.12149592 -0.96434104 0.1848897
-0.02308342 0.22807893 0.066260919 0.076554857 -0.13163945 -0.98833722 0.13397075
-0.012776839 0.22418639 0.066260919 0.097463749 -0.16232198 -0.98191255 0.14030308
-0.0041403081 0.22621946 0.062763326 -0.16639493 -0.058355369 -0.98433095 0.099774502
0.0057990532 0.22183372 0.063942142 0.01865831 -0.1108778 -0.9936589 0.11768252
0.025078798 0.2257589 0.064988665 -0.048794996 -0.2504743 -0.96689278 0.076881662
0.041462816 0.2267327 0.066260919 -0.065587252 -0.20218928 -0.97714782 0.11573808
0.052370716 0.2266053 0.064994015 -0.22698323 -0.11144438 -0.96750128 0.148766
0.067321002 0.22427104 0.064984806 0.26849329 -0.15305154 -0.95104504 0.21872744
0.073954955 0.22239579 0.060771897 0.40455779 -0.10973639 -0.90790474 0.17470968
0.088200562 0.22464149 0.065726615 0.69435263 -0.13859022 -0.7061637 0.069791719
0.1764484 0.22294864 0.065389171 -0.47145241 0.30935964 -0.82585061 0.13086821
0.18312694 0.22294059 0.061592981 -0.52942026 0.26972431 -0.80434018 0.15869942
-0.162644 0.23382029 0.063336536 0.48695174 0.20513436 -0.84899813 0.1197769
-0.15321267 0.23673737 0.067941949 0.52094775 0.23866518 -0.81954402 0.095247388
-0.10027537 0.23475109 0.064009257 0.96646124 -0.20711385 0.15184379 0.20093796
-0.069222875 0.23871608 0.063924231 0.54798269 -0.086316831 0.83202428 0.14229678
-0.046241894 0.23545864 0.06577079 -0.094172344 0.0014894495 -0.9955548 0.17679432
-0.034946077 0.23219424 0.064526521 0.1234369 -0.090131037 -0.98825079 0.16050689
-0.02933706 0.23744616 0.065970592 0.080534928 -0.033598669 -0.99618536 0.13112342
-0.010846237 0.23506153 0.066260919 -0.0015546724 -0.097171389 -0.9952665 0.093635365
-0.0065574623 0.23422022 0.064076349 -0.02943651 -0.061150014 -0.99769455 0.086762726
0.0062124752 0.23813874 0.063942142 -0.071910784 -0.034748491 -0.99680555 0.067133173
0.014270356 0.23759407 0.063942142 -0.033225533 -0.049738768 -0.99820948 0.065895148
0.027905714 0.23529911 0.065825023 -0.042101234 -0.16917615 -0.9846862 0.07215219
0.03622397 0.23603031 0.066260919 -0.094719388 -0.17370464 -0.98023206 0.11704008
0.046780717 0.23814227 0.062298745 -0.12614274 -0.1582682 -0.97930545 0.12343597
0.052597962 0.23404768 0.064614579 -0.16520266 -0.16201501 -0.97286135 0.15071376
0.067262232 0.23393628 0.065386139 0.18946065 0.13000657 -0.97324359 0.1226581
0.089079924 0.23837298 0.066667251 0.65705687 -0.12399995 -0.74357271 0.053455133
0.11951741 0.23672855 0.067098066 -0.92600495 -0.083991431 -0.36804929 0.15133013
0.17917824 0.23430622 0.063750491 -0.54291278 0.26649618 -0.79638278 0.12018684
0.18399356 0.23694301 0.061484709 -0.60189432 0.21020225 -0.77041435 0.12554823
-0.16384703 0.24426471 0.062464483 0.54681903 0.19500181 -0.81422561 0.10852054
-0.15427029 0.24759963 0.067042619 0.54863954 0.18225104 -0.81595296 0.077345677
-0.069831163 0.24990466 0.066696905 -0.41744614 0.092967913 -0.90393353 0.091945298
-0.023869818 0.24369453 0.062498938 0.068234228 0.013101073 -0.99758333 0.11673686
-0.014203439 0.24033207 0.065732963 0.032140721 -0.060999848 -0.99762017 0.090243228
-0.0069884518 0.24713418 0.063221067 0.0027269612 -0.15060428 -0.98859036 0.077970468
0.0070060198 0.24900579 0.062819056 -0.047518916 -0.066015542 -0.99668646 0.076589257
0.017068261 0.24627817 0.063123554 -0.035162117 -0.11094215 -0.99320471 0.073377594
0.021844028 0.24735668 0.063045263 -0.059363067 -0.1346155 -0.98911804 0.070790276
0.036211573 0.24761921 0.062382828 -0.10051041 -0.018120488 -0.99477094 0.11451001
0.043219678 0.24818158 0.061362796 -0.12554994 -0.0070967162 -0.99206191 0.1311589
0.089374542 0.24575001 0.066429414 0.56121641 -0.042982589 -0.82655221 0.06545271
0.11991771 0.24327224 0.064537354 -0.94425589 0.097942933 -0.31430548 0.18386264
0.12018035 0.2474793 0.064853109 -0.70436847 -0.074239217 -0.70594162 0.22793745
0.16910735 0.24003266 0.069011524 -0.45856175 0.18760425 -0.86863452 0.071437843
0.17536795 0.24557364 0.066009425 -0.53593886 0.11482433 -0.83641189 0.051861648
0.18046838 0.24412103 0.063536353 -0.61051613 0.10316322 -0.78525627 0.049180698
-0.16209814 0.25597197 0.062958717 0.57201433 0.019300593 -0.82001644 0.044908371
-0.15147999 0.25946915 0.067824766 0.40341437 -0.019141052 -0.91481715 0.0060532261
-0.14712821 0.2564671 0.069602393 0.39009663 -0.02702387 -0.92037725 0.0064422283
-0.10051356 0.25827289 0.064724021 0.184769 -0.37842095 -0.90700501 0.24774721
-0.069217406 0.2506738 0.064144179 0.32786903 -0.15064789 0.93263447 0.094546311
-0.024637131 0.25118566 0.061131686 -0.063877545 0.046853956 -0.99685735 0.096805453
-0.018262906 0.2548033 0.061775148 -0.084125124 -0.028970834 -0.99603391 0.082002014
0.013156997 0.2525411 0.062155273 -0.03780036 -0.048987024 -0.99808383 0.076561317
0.023691399 0.25012922 0.062538713 -0.096880302 -0.094426483 -0.99080664 0.080567129
0.041569259 0.25744972 0.061062545 0.030870719 0.04651653 -0.99844038 0.090210706
0.089119256 0.25435841 0.063647777 0.50682968 -0.083209634 -0.85802084 0.058100373
0.090239063 0.25693548 0.067815214 0.48735276 -0.092600532 -0.8682813 0.052987125
0.12049001 0.25242874 0.065474518 -0.4822278 0.032536276 -0.87544143 0.21640009
0.16954623 0.2510505 0.068440281 -0.39480197 -0.032074761 -0.91820621 0.0016970841
0.17773648 0.25682753 0.064432047 -0.53074574 -0.029169191 -0.84702903 0.025007246
0.18526745 0.25710648 0.060781628 -0.64141542 0.0019042786 -0.76719135 0.059862446
-0.15650381 0.26699552 0.065354079 0.46058124 -0.043733805 -0.88653952 0.01654347
-0.14906882 0.26492521 0.068318076 0.37199789 -0.062149111 -0.92615068 0.00089943665
-0.10054159 0.2614969 0.063903943 0.1032114 -0.11000776 -0.9885574 0.2335532
-0.070226118 0.26363224 0.068628401 -0.40427941 -0.024289031 -0.91431296 0.062937349
-0.069357857 0.26692271 0.065061852 -0.40583059 -0.039421484 -0.91309768 0.056923017
-0.021561675 0.26519972 0.060045831 -0.092206419 0.019460887 -0.99554974 0.085456498
-0.0021418561 0.26355875 0.060248986 0.023896845 0.02329346 -0.99944311 0.080356941
0.0028919629 0.26376683 0.060187906 0.011952375 0.067314222 -0.99766016 0.078598514
0.013735853 0.26128542 0.060582384 -0.048432223 0.041077372 -0.99798149 0.084070742
0.022242177 0.26426324 0.060007595 -0.055357188 0.099720798 -0.99347442 0.086340532
0.034305919 0.26232627 0.060298562 -0.021405319 0.1207891 -0.99244738 0.082165875
0.040165909 0.2617178 0.060380213 0.011588474 0.065600835 -0.99777871 0.082094766
0.089727655 0.26161751 0.064744994 0.52282339 -0.045659859 -0.85121727 0.055118382
0.09075284 0.26445985 0.067614272 0.49785104 -0.049923707 -0.86582452 0.052685291
0.12124108 0.26446065 0.066356927 -0.21794592 0.11019922 -0.96971941 0.20802194
0.16526422 0.26967943 0.068719894 -0.34159449 -0.0579683 -0.93805808 0.00038819498
0.17804267 0.26512644 0.063846782 -0.49761799 -0.010824868 -0.8673287 0.01897919
0.18400012 0.26698247 0.061125595 -0.62920213 0.030714501 -0.77663457 0.069700465
-0.16292977 0.27833995 0.061925493 0.52965629 -0.063331999 -0.84584475 0.059569012
-0.15303396 0.27563843 0.066110097 0.44930863 -0.048469584 -0.89206076 0.015258824
-0.14997569 0.27908316 0.066995926 0.38219798 -0.062070839 -0.92199343 0.0065301149
-0.10064926 0.27354178 0.061430395 -0.57054824 -0.23164803 -0.78791744 0.23611844
-0.052226231 0.27725482 0.063231401 -0.069611691 -0.1787547 -0.98142797 0.029617358
-0.042361774 0.27842191 0.063223705 -0.097852729 -0.094268985 -0.99072617 0.054541674
-0.034183607 0.27681035 0.063316561 -0.11006191 -0.063460819 -0.99189669 0.064102978
-0.024716815 0.27809608 0.0633028 -0.015554285 0.027893143 -0.99948984 0.071221694
-0.0082204035 0.27586544 0.063450858 -0.010989494 0.017916817 -0.99977922 0.075765103
0.0014430042 0.27642745 0.063465685 -0.02018871 -0.023846189 -0.99951184 0.07118398
0.027547028 0.27502093 0.063443184 -0.024385083 0.10544509 -0.99412608 0.073572971
0.055820856 0.27908105 0.063038573 0.083413556 -0.077295788 -0.99351269 0.054464329
0.073708914 0.27437994 0.063166894 0.094047531 -0.12244618 -0.98800915 0.033049803
0.081602432 0.27282721 0.063195929 0.14288208 -0.11347378 -0.98321337 0.047294214
0.12216194 0.27946076 0.061693978 -0.15686557 -0.0104579 -0.98756462 0.19119851
0.16679226 0.27769247 0.067876272 -0.33373985 -0.052967262 -0.94117588 0.00053038186
0.17760232 0.27232167 0.063752323 -0.4745757 -0.034491032 -0.8795386 0.026355615
0.18255779 0.27671367 0.061644748 -0.69929588 0.07481388 -0.71090662 0.067232907
-0.14274827 0.28771028 0.068966597 0.31071872 -0.080083184 -0.94712228 0.00022277137
-0.10076687 0.2838195 0.06443426 0.036566939 -0.22488546 -0.97369874 0.218905
-0.072243437 0.28146151 0.069740288 -0.27748036 -0.12742287 -0.95224369 0.066185728
-0.0505905 0.28765059 0.062837541 -0.091872714 -0.18132122 -0.97912306 0.026899515
-0.043031596 0.28885603 0.062819675 -0.03885613 -0.1824384 -0.98244917 0.025636563
-0.033954084 0.28170824 0.063128963 -0.075276673 -0.037259374 -0.99646634 0.066848248
-0.022579467 0.28557032 0.063023254 -0.038402058 -0.063792594 -0.99722409 0.067740515
-0.018745137 0.28843641 0.062927432 -0.025555657 -0.1008695 -0.99457145 0.045870174
-0.0051021473 0.28575328 0.063082136 -0.016445233 -0.018439863 -0.99969476 0.064185351
0.0078772847 0.28349215 0.063218102 0.03023134 -0.0014919164 -0.99954182 0.073498629
0.017158208 0.28533965 0.063034818 0.009264621 -0.031240778 -0.99946892 0.060549207
0.025168631 0.28460857 0.062967747 -0.0053219832 0.00039288792 -0.99998575 0.073413603
0.045526106 0.28329679 0.062884904 -0.012597225 0.03516411 -0.99930221 0.07511951
0.055336028 0.28592679 0.062679961 0.020182485 -0.14514157 -0.989205 0.038364492
0.064344518 0.28582102 0.062625021 -0.0082262792 -0.20267907 -0.97921067 0.038703021
0.079976261 0.28121847 0.062763281 0.10327678 -0.12189167 -0.98715568 0.040338702
0.086236522 0.28829965 0.062346894 0.33181855 -0.12865803 -0.93452847 0.037054829
0.092745997 0.28300121 0.065860406 0.34683943 -0.12542292 -0.9295007 0.062182598
0.12274834 0.28859559 0.068380021 -0.13840283 -0.048933532 -0.98916638 0.13873912
0.17640918 0.28856269 0.063907102 -0.46471235 -0.051634151 -0.88395494 0.039326344
-0.16217268 0.29616922 0.061271533 0.54246831 -0.10601783 -0.8333596 0.073785521
-0.15779948 0.29543483 0.062940665 0.48451275 -0.14434832 -0.86279249 0.053201377
-0.14408162 0.29578054 0.067717724 0.30371764 -0.091618359 -0.94834679 0.00031041511
-0.13983174 0.29592925 0.068950117 0.29918027 -0.090955436 -0.94985175 0.00032173385
-0.070663601 0.29058278 0.063874766 -0.3359423 -0.12375496 -0.93371707 0.044136457
-0.06528312 0.29674724 0.062175497 -0.29917744 -0.17329308 -0.93832952 0.03309305
-0.053840388 0.29597795 0.062416337 -0.14610286 -0.14511353 -0.97856832 0.022459835
-0.045463886 0.29762501 0.062440604 -0.048661456 -0.14197594 -0.98867333 0.022294242
-0.037022524 0.29532272 0.062593505 -0.019654132 -0.17263702 -0.98478943 0.027059475
-0.005556142 0.29552042 0.062704593 0.013286826 -0.14774382 -0.98893642 0.023858277
0.0030107582 0.29757991 0.062657654 0.0057345801 -0.14192164 -0.98986131 0.016375322
0.014704344 0.29358512 0.062769979 0.044562291 -0.095195033 -0.99446076 0.040007904
0.025027145 0.29251319 0.062610969 -0.01944242 -0.10913058 -0.99383724 0.049813174
0.033043038 0.2965194 0.062304251 -0.0097196018 -0.18508229 -0.98267502 0.020644762
0.04543528 0.29525977 0.062253136 -0.018329937 -0.1910629 -0.98140663 0.01596427
0.058165316 0.29596794 0.062130157 -0.057389665 -0.19748603 -0.97862434 0.016100049
0.068332024 0.29443461 0.062142901 0.070312031 -0.15803328 -0.98492724 0.019831695
0.075269774 0.29416758 0.062110398 0.10520983 -0.18113409 -0.97781456 0.023742888
0.085812673 0.29895526 0.061786473 0.33588743 -0.15014257 -0.92985845 0.031944331
0.094837546 0.2966103 0.067194566 0.37378147 -0.16092025 -0.9134506 0.039636981
0.15840788 0.29439965 0.06929744 -0.29077521 -0.075902544 -0.95377594 0.00024254795
0.17645164 0.29417953 0.063651122 -0.45934606 -0.058370385 -0.88633746 0.04079257
0.18399489 0.29523066 0.060740393 -0.46307054 -0.020668821 -0.88608044 0.05238457
-0.16023251 0.30141354 0.061589159 0.5338006 -0.15603176 -0.83109027 0.067603543
-0.15993921 0.30303615 0.061542828 0.51963741 -0.1153436 -0.84656531 0.059949264
-0.14285536 0.3031463 0.067363404 0.29350856 -0.092649005 -0.95145619 0.00025695606
-0.073258661 0.3097102 0.065804817 -0.29023883 -0.15571538 -0.94420022 0.045011014
-0.055728655 0.3060641 0.061857052 -0.12005082 -0.12726064 -0.9845773 0.020949742
-0.044527799 0.30644131 0.062033836 -0.070791379 -0.120662 -0.99016625 0.017888423
-0.032240782 0.30720326 0.062154382 -0.018246122 -0.11338162 -0.993384 0.010581335
-0.026244974 0.30257607 0.062355053 0.013694796 -0.12483071 -0.99208355 0.013198434
-0.010184214 0.30133131 0.062463533 -0.0188527 -0.10768988 -0.9940058 0.012342597
-0.0025607636 0.30905873 0.062194943 -0.0022724671 -0.07924705 -0.9968524 0.0052418928
0.0048328037 0.30740851 0.062286329 -0.014834571 -0.10728523 -0.99411756 0.011128305
0.013436851 0.30484998 0.062358987 -0.0062412987 -0.10019519 -0.99494821 0.0085450802
0.023432575 0.30919045 0.062010184 -0.022700092 -0.078619391 -0.99664623 0.0051634861
0.035651937 0.30586243 0.061899953 -0.0028857868 -0.11448961 -0.99342024 0.010411897
0.042142399 0.30225962 0.061910905 -0.017194005 -0.14750025 -0.98891252 0.013335462
0.06936869 0.30315205 0.061675116 0.06884753 -0.11825678 -0.99059337 0.016918566
0.070432201 0.30327696 0.06166137 0.068844639 -0.11826093 -0.99059314 0.016917847
0.081531182 0.30035418 0.061741292 0.23290838 -0.14812347 -0.96115202 0.022925694
0.093442373 0.30937171 0.062859379 0.43713066 -0.15357231 -0.88618976 0.018116049
0.16428708 0.30432308 0.066604838 -0.30031848 -0.087949187 -0.94977558 0.00086039433
0.17184487 0.30908003 0.064132623 -0.38425937 -0.060749821 -0.9212243 0.015572452
0.18129796 0.30454367 0.060977779 -0.45185846 0.0097247232 -0.89203662 0.053565431
-0.15640686 0.31482711 0.061723601 0.48983371 -0.083912268 -0.86776811 0.052624159
-0.14201622 0.31202269 0.066734985 0.28737819 -0.096806787 -0.95291251 0.00042841202
-0.13424087 0.31520039 0.068620153 0.25995493 -0.10252935 -0.96016204 0.00050681428
-0.128637 0.31692332 0.069980063 0.16526389 -0.11163901 -0.97991049 0.021560675
-0.074209794 0.31706244 0.06618949 -0.25180608 -0.16138226 -0.95422715 0.051205941
-0.064177833 0.31482774 0.061251681 -0.30500489 -0.12066445 -0.94467568 0.026156072
-0.053533405 0.31626183 0.06136357 -0.11660706 -0.073313735 -0.99046856 0.013345215
-0.045635238 0.31133705 0.06175901 -0.075954936 -0.10255594 -0.99182308 0.011336027
-0.033625774 0.31693104 0.061677836 0.012324167 -0.048468128 -0.99874866 7.2864345e-06
-0.028824732 0.31505179 0.061830103 0.010487891 -0.045878734 -0.99889201 7.9267829e-06
-0.014015807 0.3193056 0.061757434 0.0069157048 -0.043700688 -0.99902076 1.0309129e-05
-0.0047887485 0.31270716 0.062046144 0.0028242518 -0.038887374 -0.99923962 6.4589276e-06
0.0064324504 0.31499183 0.062000558 -0.0044089374 -0.037894767 -0.99927205 1.7599172e-05
0.014300087 0.31595802 0.061930459 -0.0090767536 -0.036900207 -0.99927771 2.045132e-05
0.026466064 0.31185994 0.061850425 -0.014288903 -0.038964536 -0.99913841 9.2546388e-06
0.031372298 0.31465542 0.061649684 -0.017246228 -0.038513042 -0.99910921 1.1877731e-06
0.045237705 0.31484422 0.061374433 -0.014957224 -0.042236932 -0.99899572 1.1053203e-05
0.056360614 0.31964141 0.060977668 -0.013888933 -0.044889662 -0.99889541 1.4037691e-05
0.061584737 0.31055915 0.061335873 -0.017700637 -0.086152747 -0.99612468 0.0065716268
0.072684631 0.31726307 0.060906909 0.027857844 -0.04679567 -0.9985159 0.0010047074
0.081603497 0.31514925 0.060958717 0.17299987 -0.05756662 -0.9832381 0.015842196
0.095032416 0.31269807 0.064057663 0.36199299 -0.10522218 -0.92622316 0.023740614
0.12439622 0.31549734 0.068490148 -0.091140181 -0.16500427 -0.98207283 0.16429889
0.14993663 0.31210935 0.06983164 -0.19656529 -0.10535236 -0.97481436 0.0037296074
0.1648261 0.31400621 0.065652922 -0.32100904 -0.125862 -0.93867564 0.0069907103
0.17615366 0.3143838 0.062074143 -0.40759596 -0.14358348 -0.90180343 0.036610264
-0.15542756 0.32436863 0.061175842 0.45346498 -0.18639097 -0.87156636 0.0701923
-0.1437342 0.32762277 0.06469851 0.33761057 -0.23662698 -0.91105801 0.036705483
-0.13308567 0.32276675 0.06816794 0.25031912 -0.13643749 -0.95850146 0.0041428725
-0.12728618 0.32447168 0.069405079 0.11247878 -0.1345692 -0.98449975 0.035065789
-0.1010831 0.32156628 0.068811029 -0.0077284775 -0.23020963 -0.97311038 0.16266291
-0.074482821 0.32564139 0.064253449 -0.18864904 -0.21889389 -0.95733857 0.07584171
-0.051224127 0.32542732 0.060925938 -0.036183942 -0.064840473 -0.99723941 0.0025379481
-0.044769619 0.32255992 0.061188728 0.015948867 -0.05064084 -0.99858952 6.22269e-06
-0.033127911 0.32882726 0.061065979 0.015400261 -0.050476678 -0.99860644 0
-0.025581867 0.32567692 0.061359931 0.011827231 -0.047770053 -0.99878836 9.2912287e-06
-0.0059903651 0.32479152 0.061576605 0.0071922988 -0.042593118 -0.99906665 8.4462608e-06
0.00025983714 0.32303095 0.06166793 0.0020622609 -0.040786847 -0.99916577 2.4341745e-05
0.012353031 0.32257092 0.061717656 -0.0082977638 -0.038477566 -0.99922502 3.0835545e-05
0.034539379 0.32613277 0.061153758 -0.018402705 -0.03780118 -0.99911577 4.4423123e-06
0.041677751 0.32080609 0.061217472 -0.017454047 -0.040442191 -0.99902946 6.4404644e-06
0.067274302 0.32532287 0.060551468 0.00047266416 -0.047628943 -0.99886501 0.00056463189
0.089136355 0.32925436 0.060162485 0.2825368 -0.044150222 -0.95823991 0.021538412
0.095827483 0.32325596 0.0627428 0.37380439 -0.098306045 -0.92228317 0.018182514
0.15402338 0.32494873 0.067392439 -0.20677133 -0.18907578 -0.95994574 0.017233873
0.16889761 0.32719433 0.063596904 -0.38731748 -0.21567003 -0.89636582 0.062101383
-0.15323777 0.33859318 0.060628787 0.38448191 -0.16119468 -0.90894997 0.14033782
-0.14331596 0.33031735 0.064584643 0.34817272 -0.22994162 -0.90879178 0.041602172
-0.13726839 0.33595717 0.065652609 0.27127331 -0.33672324 -0.90168077 0.067231961
-0.1217562 0.33679682 0.06926091 0.11883163 -0.25796691 -0.95881808 0.068873808
-0.11835925 0.33781949 0.069951296 0.076959386 -0.24134727 -0.96738243 0.086870722
-0.10114554 0.33120748 0.068525068 0.072536886 -0.19065873 -0.97897273 0.14636101
-0.066509336 0.33716971 0.060045265 -0.24614471 -0.083919927 -0.96559328 0.017904764
-0.056409612 0.3342984 0.060372204 -0.077159233 -0.084356397 -0.99344373 0.0097748907
-0.046356134 0.33697164 0.060409084 0.02004426 -0.040648915 -0.99897242 0.00015035547
-0.034174118 0.33553636 0.060697634 0.013735803 -0.042881478 -0.99898577 0.0001151194
-0.026757836 0.33501589 0.060854871 0.016951211 -0.046059191 -0.99879491 5.5616638e-05
-0.015019253 0.33262801 0.061185334 0.011170122 -0.046241842 -0.99886781 1.7514405e-05
0.0050526438 0.33150187 0.061360054 -0.0019246924 -0.039298423 -0.99922562 2.9884119e-05
0.013171827 0.33442819 0.061242294 -0.006138091 -0.037319012 -0.99928451 2.0932766e-05
0.023197763 0.33422393 0.06106662 -0.015567327 -0.035370965 -0.99925297 2.3244818e-05
0.043262463 0.33469662 0.06066075 -0.018205002 -0.029240042 -0.99940658 0.00010592641
0.059213515 0.33680385 0.060272507 -0.01630087 -0.026876764 -0.99950576 0.0001551398
0.063618734 0.33561051 0.060232524 -0.019050453 -0.029148297 -0.99939358 0.00015225209
0.073484004 0.33311599 0.060136244 0.029645586 -0.043836426 -0.99859875 0.0020976111
0.10023689 0.33504021 0.063832089 0.16763841 -0.067635484 -0.98352575 0.071673743
0.1253649 0.33168775 0.062127791 -0.38036016 -0.15329994 -0.91204453 0.19793305
0.14409849 0.33807117 0.068714604 -0.08712662 -0.30812329 -0.94734848 0.13778713
0.15677997 0.33414263 0.065942764 -0.25251314 -0.26474389 -0.93067068 0.10273255
0.16424328 0.33581683 0.064011671 -0.37318826 -0.19029753 -0.90802932 0.12296184
0.17312041 0.33856297 0.061269011 -0.3467153 -0.11218815 -0.93123704 0.1104765
-0.1501704 0.34165677 0.061369095 0.39206716 -0.21413283 -0.89466774 0.14098565
-0.14683951 0.34490684 0.061927021 0.24693771 -0.24621192 -0.93723077 0.13543308
-0.12424463 0.34468961 0.067727186 0.15576239 -0.32832479 -0.93163347 0.10897032
-0.11524198 0.34747931 0.069405928 0.11851606 -0.20027477 -0.97254503 0.12427509
-0.10122181 0.34282997 0.067727491 0.23020072 -0.15670075 -0.96044391 0.16632618
-0.077203453 0.34493569 0.065131031 -0.18716462 -0.08176823 -0.97891951 0.061425056
-0.046223916 0.34119317 0.060191181 0.018628543 -0.038794436 -0.99907357 0.00015643256
-0.033138324 0.34875321 0.060026318 0.014754712 -0.024378009 -0.99959385 0.00022550891
-0.024907164 0.34709206 0.060257345 0.01686403 -0.024663901 -0.9995535 0.00018528991
-0.016953608 0.34732676 0.060384613 0.017362462 -0.024501706 -0.99954909 0.00017221336
-0.0064779385 0.34692791 0.060589164 0.011142152 -0.028610382 -0.99952853 0.00014371965
0.004713682 0.34511718 0.060833834 0.0062116422 -0.030369464 -0.99951941 9.3174829e-05
0.016166773 0.34320599 0.060862392 -0.0069878236 -0.032939415 -0.99943298 5.6130149e-05
0.055435058 0.34098282 0.060187303 -0.016765548 -0.020503903 -0.99964917 0.00017117966
0.10302699 0.34367612 0.066228114 0.1937834 -0.10536809 -0.97536939 0.06215848
0.12622605 0.34657347 0.06934385 -0.17914137 0.083455071 -0.98027736 0.15293813
0.13471077 0.34658283 0.066714711 -0.15869947 0.025899606 -0.98698717 0.14082569
0.14899193 0.34442964 0.064042702 -0.097277097 -0.14589185 -0.98450631 0.13001481
0.15387839 0.34284401 0.063411631 -0.15011296 -0.1733253 -0.97335732 0.14201018
0.16386187 0.34306192 0.06189635 -0.28991023 0.047013503 -0.95589846 0.15816541
-0.14364386 0.35355157 0.061760515 0.25126538 -0.0090034232 -0.96787632 0.12189562
-0.13527614 0.35788727 0.063195124 0.18135834 -0.0051056836 -0.98340386 0.14575231
-0.12592758 0.35093749 0.065872654 0.15211269 -0.35798076 -0.92125541 0.15082715
-0.10262952 0.35513321 0.066087581 0.13302107 -0.030331085 -0.99064904 0.11690223
-0.075844966 0.35576358 0.060291782 -0.19323839 0.0071634548 -0.98112565 0.044384453
-0.018267568 0.35210264 0.060112424 0.014881711 -0.021341598 -0.99966151 0.00020405103
0.0042276834 0.35350025 0.060461972 0.0055815484 -0.022034157 -0.99974161 8.7311731e-05
0.014378987 0.35625166 0.060443021 -0.0027832282 -0.020398198 -0.99978805 5.8909092e-05
0.035439294 0.35302311 0.060195792 -0.011204322 -0.013401315 -0.99984741 0.00013315261
0.057585754 0.35742885 0.060416713 -0.0144136 -0.0036234944 -0.99988949 8.7625805e-05
0.10572082 0.35390019 0.067917369 0.18526468 0.0080861729 -0.98265535 0.061760247
0.12660772 0.35422102 0.069602139 -0.18916917 0.019935872 -0.98174214 0.13067921
0.14316127 0.35982034 0.066186666 -0.12318338 0.064488299 -0.99028641 0.090466224
0.15302475 0.35550889 0.064532064 -0.15778096 0.056301311 -0.9858678 0.085677944
0.16425705 0.35904676 0.061380751 -0.20505871 0.08025153 -0.97545409 0.07356856
0.17049557 0.35325786 0.060386159 -0.24964836 0.12439904 -0.96031272 0.089483209
-0.14153388 0.36479777 0.060931258 0.22184488 0.040132001 -0.9742558 0.079593822
-0.12401062 0.36418122 0.064955503 0.26122189 0.037002098 -0.96456933 0.077689305
-0.11592648 0.36327463 0.066879071 0.12945552 0.028495165 -0.99117571 0.095656268
-0.10738254 0.36298794 0.068160713 0.22439383 -0.033074096 -0.97393709 0.098947793
-0.085807465 0.36969894 0.06998802 -0.18461233 -0.0539588 -0.98132908 0.038266011
-0.077502258 0.36429799 0.062376823 -0.23197481 0.0094954222 -0.97267544 0.039120924
-0.040973872 0.36413234 0.060087875 0.021079037 -0.0066527459 -0.99975568 9.989614e-05
-0.035369515 0.36390257 0.060277116 0.016558832 -0.0067270901 -0.99984032 9.1710732e-05
-0.026082197 0.36538041 0.060410038 0.016562726 -0.00078001333 -0.99986255 5.6847577e-05
-0.017594224 0.36274293 0.060417492 0.013521276 -0.0055118259 -0.99989337 0.00010080047
-0.0054045068 0.3691881 0.060326122 0.0041369894 -0.0081733856 -0.99995804 4.6210007e-05
0.013718909 0.36154303 0.060336135 -0.0028707965 -0.016938917 -0.99985236 4.2588701e-05
0.025133876 0.362854 0.060335897 -0.0094752731 -0.010294355 -0.99990207 9.1606627e-05
0.0357395 0.36499777 0.060335763 -0.0053568385 -0.0044685821 -0.99997568 7.0119044e-05
0.044703305 0.363812 0.060371988 -0.005208387 -0.0038045091 -0.9999792 7.0173679e-05
0.053766433 0.36340612 0.060398996 -0.010006385 -0.00068523025 -0.99994963 7.8024597e-05
0.063274622 0.36788234 0.06012319 -0.020432215 -0.0014588173 -0.99979019 7.3864467e-05
0.10561759 0.36174053 0.065683663 0.26541865 -0.14316723 -0.9534443 0.01667087
0.11259821 0.36592603 0.069648057 0.15143232 -0.18160647 -0.97164154 0.020114787
0.12625137 0.36388293 0.068164863 -0.14998686 0.063170724 -0.98666787 0.097277261
0.13367003 0.36525196 0.066991456 -0.17254986 0.01786935 -0.98483872 0.070390038
0.15531905 0.36769217 0.062340122 -0.20490152 -0.047065455 -0.97765028 0.005569045
0.16604596 0.36389759 0.060384404 -0.21686229 -0.054543339 -0.97467732 0.0077822418
-0.1351577 0.37452212 0.061078098 0.20485005 -0.032359544 -0.97825831 0.012775637
-0.10883112 0.37571651 0.066142932 0.19465151 -0.01114356 -0.98080915 0.030212367
-0.094453663 0.3756969 0.06791877 -0.026560415 -0.063530356 -0.99762642 0.038534388
-0.08373104 0.37224948 0.068016768 -0.21687774 -0.083807774 -0.97259468 0.021149652
-0.078782246 0.37845838 0.062653676 -0.21982861 -0.066479668 -0.97327065 0.016003294
-0.024107 0.37645212 0.060277995 0.011081131 -0.0080334432 -0.99990636 6.3601801e-05
-0.01405532 0.37566751 0.060287919 0.0045345416 -0.010447594 -0.99993515 5.7695845e-05
-0.0075567821 0.37124377 0.060315486 0.0045030839 -0.0082934704 -0.99995542 4.3627027e-05
0.022574436 0.3729651 0.060233235 -0.0013191272 -0.0093263872 -0.99995565 9.2189121e-06
0.036363676 0.37307274 0.060239404 -0.0027033999 -0.0054389033 -0.99998152 5.1646195e-05
0.046476103 0.37250656 0.060270913 -0.0041582352 -0.0046739765 -0.99998045 5.9440772e-05
0.054402433 0.37345386 0.060278755 -0.013486004 -0.0068766451 -0.99988544 8.7878179e-05
0.060906611 0.37733981 0.060117573 -0.017208386 -0.010016426 -0.99980181 0.00011047543
0.10723309 0.37647921 0.064859137 0.19114973 -0.15529494 -0.96919823 0.013468893
0.11193594 0.37352833 0.068594076 0.17242207 -0.1964045 -0.96524394 0.015377724
0.12492733 0.37761819 0.066322863 -0.0045168344 -0.17603798 -0.98437303 0.010271299
0.137954 0.3759954 0.064860001 -0.16756289 -0.11646713 -0.97895765 0.00064199208
0.1478222 0.37565431 0.063043766 -0.20038517 -0.12146886 -0.97215796 0.0002916017
0.15574898 0.37640944 0.061194669 -0.21973169 -0.12328839 -0.96773857 0.00018184414
0.16107923 0.37017706 0.060723528 -0.22334653 -0.062694922 -0.97272068 0.0048450688
-0.12048015 0.38801759 0.06234464 0.17962033 -0.13796254 -0.97401375 0.00039289164
-0.11640182 0.38801527 0.063227639 0.16548279 -0.1436387 -0.97569627 0.00021410383
-0.10768142 0.38476568 0.064962432 0.075208105 -0.14033464 -0.98724359 0.0054770224
-0.095917046 0.38195258 0.06681706 -0.0093184737 -0.13590372 -0.99067819 0.013643431
-0.083980858 0.38544711 0.066508092 -0.18145606 -0.10848045 -0.97739744 0.010181756
-0.078946084 0.38388988 0.062026449 -0.19836845 -0.087890752 -0.97617882 0.013004959
-0.037376676 0.38143647 0.060008571 0.023882089 -0.014365405 -0.99961156 0.00011577084
-0.01595076 0.38412133 0.060186908 0.0055518784 -0.024028996 -0.99969584 7.9134006e-05
-0.0022029213 0.38595083 0.060165837 -0.00092223618 -0.022483924 -0.9997468 9.7815675e-05
0.010900262 0.38568187 0.060137909 -0.002805002 -0.020137278 -0.99979329 7.8333338e-05
0.024881525 0.38395274 0.060139265 -0.00055455673 -0.017825669 -0.99984097 4.5504919e-05
0.030545302 0.38902164 0.06009369 -0.0018705225 -0.030436203 -0.99953496 0.00013377469
0.043440551 0.38817573 0.060094606 -0.0023489113 -0.026536474 -0.99964511 0.00012502456
0.053522017 0.38468534 0.060140468 -0.013451892 -0.023681398 -0.99962902 0.00010712666
0.10675743 0.38909131 0.061204407 0.16224501 -0.1301643 -0.97812772 0.010358223
0.13561398 0.38501912 0.063946903 -0.10740574 -0.1274869 -0.98600763 0.0031727378
0.1471857 0.38360134 0.062140495 -0.19574681 -0.12564147 -0.97257257 0.00017969047
0.15485436 0.38364732 0.060549781 -0.21372591 -0.1286429 -0.96838641 0.00014135808
-0.12202347 0.39858955 0.060507867 0.18474197 -0.14283313 -0.97235239 0.00030972055
-0.11913142 0.39378852 0.061782781 0.17722753 -0.13974813 -0.97419751 0.00032596145
-0.10382739 0.39487326 0.063935369 0.073504619 -0.11269008 -0.99090767 0.0051906686
-0.095225655 0.39554396 0.064820923 0.023190239 -0.1380087 -0.99015951 0.0073676324
-0.081721403 0.39667746 0.064044356 -0.14650211 -0.1295559 -0.98068976 0.0069484096
-0.024036461 0.39117321 0.060102284 0.011979528 -0.033773534 -0.99935776 0.00010779443
-0.012198192 0.39543504 0.060050115 0.0073173242 -0.040550567 -0.99915069 0.0001253738
-0.0030002696 0.39659825 0.060038701 0.0014009441 -0.04095754 -0.99915999 0.00022361449
0.003288853 0.39391679 0.060070731 -0.00013266284 -0.039485909 -0.99922007 0.00018231326
0.012171401 0.39143023 0.060085837 -0.002245161 -0.032784112 -0.99945992 0.00016216279
0.035143912 0.39294457 0.060058318 -0.002271639 -0.040117875 -0.99919236 0.00015769058
0.056750074 0.39326367 0.060048744 -0.016972614 -0.041898079 -0.99897778 0.00018018144
0.11520705 0.39560664 0.064953975 0.11433826 -0.11742346 -0.98647785 0.0097437892
0.13615845 0.39726299 0.062188275 -0.14834249 -0.14329708 -0.97849905 0.00033413956
0.14739975 0.39009291 0.061209854 -0.18607362 -0.13302091 -0.97348964 0.00021062886
-0.10540088 0.4084861 0.061792511 0.10526793 -0.14875387 -0.98325527 0.0016872009
-0.097659886 0.40777072 0.062781528 0.022843655 -0.15627994 -0.98744863 0.0068670055
-0.082891904 0.40507662 0.064094812 -0.11406277 -0.13836274 -0.98379141 0.0050134948
0.11740015 0.4041152 0.063412622 0.078400694 -0.098228976 -0.99207079 0.0076031298
0.12566249 0.40648904 0.062048793 -0.011811589 -0.10007469 -0.99490976 0.007775567
0.13558862 0.40586036 0.060943961 -0.094273359 -0.13564849 -0.98626155 0.0036100631
0.14060351 0.40758309 0.060023904 -0.15314533 -0.14698493 -0.9772113 0.00033384981
-0.10194078 0.41392499 0.061303504 0.03965354 -0.15020442 -0.98785943 0.00576468
-0.094111554 0.41227049 0.062454097 -0.055403907 -0.17720143 -0.98261392 0.0088609206
-0.087638497 0.41487575 0.062762909 -0.096456409 -0.15496171 -0.98320043 0.0056826784
0.11506359 0.41364104 0.06128329 0.088528037 -0.081019633 -0.99277318 0.0058473609
0.12418991 0.41627049 0.060704086 -0.0094793579 -0.11322192 -0.99352455 0.0080296611
0.13194597 0.41187236 0.06044773 -0.080020301 -0.14637041 -0.98598802 0.0043897908
-0.094022751 0.42284849 0.060752906 -0.031811625 -0.16892639 -0.98511517 0.0058039231
