# .PCD v0.7 - Point Cloud Data file format
VERSION 0.7
FIELDS x y z
SIZE 4 4 4
TYPE F F F
COUNT 1 1 1
WIDTH 1540
HEIGHT 1
VIEWPOINT 0 0 0 1 0 0 0
POINTS 1540
DATA ascii
902.0036 1878.1387 120.77522
-404.95401 81.325897 -178.5928
668.45215 357.27521 151.92456
527.66754 490.74091 -447.245
-403.22858 -2140.9897 -415.90097
466.70496 -76.299187 -127.74948
-392.81647 -2304.499 -129.26572
778.60803 483.71646 -134.35107
-404.95401 179.11656 58.645889
1061.6816 375.92175 105.35265
79.985199 -997.54602 -460.82867
1066.5001 926.38513 82.021591
1092.015 907.27209 -424.56989
-574.29272 -875.49792 233.4485
795.9776 -1482.9725 14.511284
604.00891 372.00305 590.56689
-418.30835 -1484.4802 240.70276
341.00967 -133.79988 -452.31354
811.87305 2038.8715 -32.200916
-662.87695 1130.4879 -251.4082
258.07245 1996.9387 -339.50964
34.689568 1848.4502 -363.78915
300.289 95.703384 -240.00261
313.3183 -721.70605 -458.99783
608.00336 1134.6323 241.6821
1087.2986 -1237.4869 89.428772
806.43976 -1051.5333 -199.45984
1102.0411 -516.26526 -84.90789
536.46582 1734.7573 -378.47546
-147.57396 412.77383 -447.245
-160.27753 48.42141 -256.15698
20.822971 19.812948 -38.701408
-90.855797 -1079.3586 307.0174
976.96332 -1389.989 -188.29935
841.2359 1199.0549 -463.65753
341.94522 1229.0273 -419.37106
-76.88591 1849.8105 303.7955
645.12622 -668.40424 428.80536
35.022507 -1148.4559 -460.96338
-665.5625 -1756.9419 -138.52914
-28.069611 270.58191 295.20386
-638.60217 1356.5375 -69.164482
-492.19739 -72.887741 320.46967
1031.4785 1091.928 161.06952
-391.93555 342.56497 68.470657
69.911697 -2176.5842 -462.54523
-160.05377 -1689.047 -463.33234
884.62561 513.09119 327.39218
523.29736 -855.53931 394.78717
521.07928 843.89264 -115.42567
-627.4762 -521.29541 -355.24716
87.436546 -1101.7642 -414.83362
529.02008 722.01202 -445.34171
187.80284 -847.82629 285.53366
874.78619 -965.40393 280.79785
320.21545 2245.7334 -166.07513
-207.13702 807.82513 -131.06573
838.98859 -1102.0685 211.95663
-152.86473 -850.83923 -460.46228
762.0874 -543.03949 -99.197601
-387.00912 -1777.6403 -166.23187
573.86896 361.98798 178.66072
523.80139 583.01843 -256.15698
433.07706 2148.1775 125.4247
658.22839 -524.9187 482.08945
-278.97467 -831.44897 362.90961
356.98206 -916.42371 78.248001
-243.67468 -1578.4031 -462.68188
964.2583 468.80478 -426.98169
601.62177 -30.725582 -134.60599
-176.3119 -1191.2727 -85.37381
-193.40126 180.689 -448.76508
68.142509 90.658737 31.426441
-648.9726 -1799.7635 -315.32208
-335.04236 -437.11545 -455.77084
97.328865 740.3938 583.29456
-551.42828 -573.27289 266.57593
836.87347 -2258.7532 -53.110931
877.73059 1424.3452 -237.08572
809.95654 -1819.0369 -45.910976
1090.8522 1299.8651 -346.09094
778.60803 444.94919 -123.25826
1002.3651 -89.462143 220.99043
925.64819 1818.1835 131.37021
5.3128281 626.04773 -256.15698
-313.98865 87.420982 505.18823
472.642 -357.19623 569.93628
474.3111 1075.6901 -176.67574
-363.94843 1019.9203 -551.16296
-598.52417 156.155 193.43994
74.676331 580.70105 -447.245
-105.08597 -1262.6539 290.47388
190.53728 1434.4221 370.95242
-404.95398 193.7005 -121.44209
-257.53693 1845.4023 292.70828
78.760559 -1070.5327 78.247459
630.72345 -1115.4659 293.61243
773.5791 515.60168 -447.23798
797.49622 -1081.421 7.243412
-354.56802 863.48083 -212.98529
972.56421 1682.2224 117.12011
577.03308 113.63474 -449.52509
-314.07718 -2217.5837 -429.58301
-187.12065 382.21411 293.55908
669.04065 -2261.0684 49.377087
945.72363 182.67094 262.33313
-413.58966 -45.362556 396.55139
331.60513 -75.539932 -256.15698
139.61415 328.25909 616.17297
-94.334755 1190.0679 423.60248
922.54492 762.42596 -284.94296
-567.70154 1448.2537 142.06573
607.78381 -2380.4336 -30.684891
676.82764 717.95251 527.51678
131.73888 -1132.7631 -283.92059
577.88379 1316.3989 -414.64432
-588.4942 -1318.1787 193.95435
-305.1189 1160.1392 328.08371
-404.95401 162.3399 -227.51031
504.71671 -174.24504 -256.15698
91.798035 551.88599 -447.245
-681.80334 -699.92908 -71.217255
-547.86072 1383.1887 -432.10614
575.88074 1718.8113 316.88452
-492.38568 -431.73352 337.56055
-145.8112 1846.2828 -363.24084
1084.7953 1352.0648 -138.08337
984.04004 -679.08215 256.08704
317.04913 -859.14832 260.00183
-404.95401 124.55452 -79.293777
10.394199 2167.9175 158.99733
285.27344 -1790.6086 -464.20929
-426.71027 943.51233 -114.70874
367.62152 -1092.6901 -460.88559
113.66491 -192.98358 623.18176
-507.40164 1743.4739 180.6658
-442.51392 125.12773 350.56256
-63.408558 -149.73755 615.93433
-482.69116 -337.00455 331.74698
929.56488 506.18103 271.28162
-510.82629 -779.06586 163.69379
356.46759 990.82538 515.82916
-7.6161194 476.88708 -82.51223
689.36017 -1125.0973 70.940773
778.60803 1092.4954 6.3228302
1102.7579 -943.87311 39.207726
126.90455 319.41705 -98.355682
-332.15063 507.34055 -447.245
712.22998 2075.7114 154.82484
-223.30367 2121.438 92.010284
-134.80742 -1020.926 311.78943
-272.43402 -1754.291 -463.36273
801.06079 -2268.7769 -20.82375
1055.5236 -1320.1038 -74.021606
600.9306 -422.02643 -77.913803
-586.83014 -1687.3353 130.79977
-439.33704 -1029.1348 -88.289886
-20.924469 803.80853 -130.46143
63.354889 -829.63477 407.33228
-197.80571 -605.39581 -457.67877
-556.07581 1131.042 214.7263
1016.6541 1259.6958 -559.32214
1101.759 -982.85193 45.231461
795.97809 69.533798 10.515575
-171.8381 403.88214 -73.396461
820.49121 1165.0806 -66.258736
746.11737 744.58344 433.82126
509.22162 176.09393 148.37915
-150.42064 788.51062 -256.15698
-579.27643 424.59232 -400.49866
-271.20016 821.40271 -440.03415
573.45032 1187.0964 413.91132
988.01001 -427.00067 232.44891
393.16736 -1239.6053 248.18315
-404.95401 249.43568 -89.998299
737.10358 1227.4833 299.33887
-335.36588 -1389.2565 -461.65436
-430.83942 -1026.0283 -167.27248
1033.676 -541.77899 327.49164
789.69879 -72.668747 -256.15698
174.69614 -2099.3977 148.08505
437.6261 283.57248 -59.383102
-479.9577 -1273.417 -164.43484
323.49866 -1109.4214 311.90039
663.16199 1255.267 291.49057
898.81848 -823.84418 309.96756
-530.20551 -978.65582 -173.63574
-537.44153 -339.33707 262.86707
-661.85901 1244.0315 -513.68231
692.41156 837.63074 -132.37859
820.88208 -2230.4473 1.176136
718.38635 -2357.5603 -184.76256
486.81946 130.84665 79.131516
-400.52557 1416.5199 -200.27156
983.93109 -36.135136 239.92789
795.52039 -962.09668 297.16516
985.91534 -1457.7219 -577.24817
-350.19492 -438.4664 -256.15698
7.3030329 -2403.436 -186.82848
497.07053 461.4278 -447.245
1011.7622 285.41602 202.13327
123.751 -270.41638 -219.87904
-657.18567 800.20764 -375.05725
123.75099 -169.12024 -143.51254
782.44775 -73.109711 -128.22934
176.5881 -86.336868 -451.78659
723.98987 -1049.6799 -388.18188
-189.4334 -2196.6016 91.06089
-607.61945 314.03009 -345.08618
-222.76424 -972.17938 306.53424
-360.48273 1589.8373 296.61029
315.9209 1952.6674 -347.76001
857.17004 -1434.2332 -116.62621
-57.110714 1352.4801 -413.09253
822.37006 -996.953 268.06183
-230.91403 1257.9052 306.57098
734.7804 1140.6635 276.15643
850.953 -2043.5656 -199.73087
260.68506 -2054.3457 -464.47989
-553.38348 -1762.4869 144.33479
820.55035 -1586.5204 -55.939835
106.56445 353.72723 -70.331833
175.34077 2207.7319 -29.675446
459.99182 -1332.1952 286.46887
102.83631 -996.99524 78.247757
809.65186 1550.2832 -399.32306
495.78662 269.82416 609.84277
-343.2869 951.3623 -256.15698
654.70801 -1046.208 34.518932
619.00867 -1311.394 270.44244
449.90018 886.76666 -256.15698
-529.92731 273.20889 -432.36676
-517.9801 883.28809 -17.858423
-677.30377 -973.94531 -173.9416
539.62091 -561.93427 -141.66968
-518.57703 -1704.1152 -90.510788
-29.486429 950.89587 29.600355
634.52332 -1591.9447 240.86621
334.24066 -235.40875 607.43597
588.65442 -1693.6831 212.51987
830.04993 -2110.7217 -267.50372
-636.63556 -120.60408 -254.04431
-658.94482 1365.6 -138.8472
-659.73657 -1616.6686 -136.03481
860.49103 612.34869 347.21753
-189.88976 372.53708 238.5078
183.09183 845.01965 -256.15698
42.475388 1800.4674 312.05386
680.18066 -1128.2465 -230.96001
282.29968 -201.87526 -453.07764
286.85941 870.12451 -50.352512
-104.80548 -817.60559 407.01767
-659.92297 -155.20984 83.382027
50.484238 -718.36584 -458.95996
717.69196 965.73907 -432.42618
791.84003 1013.4081 366.90735
-656.36438 731.87018 -53.270287
1056.4557 175.30302 135.75089
211.99736 2035.8442 -331.44778
913.64526 -837.86438 300.2775
36.888062 372.60355 -447.245
-153.24545 287.47659 599.92969
441.29224 -1169.5258 -73.079689
-329.44904 -1154.1504 10.003731
-170.42543 858.69519 -438.26031
447.74146 -1089.0714 309.55005
-80.295792 -402.26123 -80.381638
64.812775 152.92754 -449.07971
853.18518 1140.0757 -486.38702
-254.76164 2060.2134 215.07355
-424.74026 -2271.9155 -58.602409
-388.46008 -213.78403 454.47095
1109.9225 -1081.542 -108.1874
531.65149 -439.4198 -455.79694
898.65137 -1041.2714 -127.89978
120.99541 1259.5864 436.14087
1086.4874 -1561.3252 -551.66382
84.895103 1532.8962 -403.26288
150.67334 -2296.4165 64.021774
-389.05823 -1118.1829 -460.87561
-91.69339 880.40796 -40.173328
47.07225 912.81628 -8.0933914
745.29205 -707.26538 342.92633
966.6272 286.55124 249.91924
-373.92938 -1762.5386 -407.76804
353.3486 1093.4612 184.49635
144.76439 633.5072 -447.245
619.255 -365.91858 533.67383
-282.73267 -1054.8444 78.244156
691.33209 628.0885 -447.245
-466.63538 -2230.7678 -110.55942
928.02954 1374.3829 -96.194717
1033.6719 -1414.1052 9.7729092
-414.22388 -1437.9006 23.660122
867.11658 943.54932 301.01987
-617.65283 1191.3395 127.13078
723.91058 431.35782 -447.245
-256.90488 -837.00769 301.94141
802.05182 766.30524 380.14691
1090.0251 -199.71587 -133.74641
760.30859 2076.5034 31.240425
1075.4282 -375.008 114.9792
1068.8066 -906.57294 -333.67789
277.38943 -415.06696 -455.52084
572.40497 -575.24146 112.34317
53.538471 -1794.0654 224.53912
164.10043 -394.31885 561.95422
110.63839 2017.7283 -337.07697
-591.3537 767.04413 -218.30235
248.2814 1336.6396 409.15594
-114.40662 -940.36719 311.34467
1002.351 -1399.8904 -385.31454
-539.79657 1358.5624 186.3683
155.46277 -470.47766 -456.14899
591.92047 -502.90686 494.72739
325.88647 -469.32025 -72.008797
-589.24377 -1610.1682 -119.64285
-628.02881 328.58676 135.98148
-490.07306 -1362.8979 -27.694754
-306.09314 1532.7513 -402.05878
828.99292 12.379829 -253.01442
785.14038 -1858.9839 -337.40991
-95.449005 -469.29205 -456.13556
727.86182 551.39282 466.58331
449.28271 1801.0319 -369.85327
300.289 320.34717 175.1017
524.00336 837.60522 -256.15698
235.52795 527.57251 -256.15698
-407.93042 801.84998 -429.29974
522.15845 -2298.0161 44.973736
-182.32336 -509.7507 489.32971
-250.37 1284.1169 -415.89771
-491.2153 -1916.1409 -307.81711
1094.3257 -462.50592 30.589054
-674.58868 -508.51871 -122.48647
839.26062 1241.6942 316.49457
-276.31146 -200.49084 -256.15698
674.19714 -1136.458 -205.81155
-587.604 947.80798 -237.51807
209.35051 -2284.0427 70.789566
1086.5876 1135.6497 -549.04407
-263.23029 -874.83008 301.88739
-284.87939 2103.9609 -178.57088
114.09916 1039.1279 507.35751
-48.444511 1934.6991 -351.89093
-240.7193 -2361.998 -34.168026
800.97705 1446.6462 294.27798
858.94836 896.789 -4.7030892
893.0871 188.74124 329.66586
341.49701 1243.6184 430.88605
-373.35419 1263.2886 -15.778136
825.53979 -6.379097 420.04248
311.92694 -205.90523 -453.12433
457.78442 311.94058 431.19901
244.3094 -1117.7081 -355.5578
-404.95398 -479.7395 -180.31219
658.55609 1464.8647 -406.54919
686.26306 -839.98364 142.7236
219.2009 413.52808 -74.600883
972.9646 -1734.3899 157.11292
991.50952 1573.5887 -171.72934
79.679367 1542.0325 331.22324
884.20471 6.4027691 339.78156
1038.0165 -1555.2217 127.21306
-405.29166 -165.05283 417.48038
660.12152 -1202.4589 52.430515
595.16425 -930.14441 360.9646
956.53296 -1900.3986 -171.63953
491.79459 -271.85553 -453.89661
347.47018 430.15387 610.15375
127.50169 2191.1904 30.862289
27.59618 -2392.9915 -393.45447
-371.98712 444.64182 416.93716
753.61383 1784.886 -371.79974
-227.41803 -442.23627 -455.82892
593.82983 -1174.4138 -147.70538
-275.17111 -1110.7224 -48.90781
262.80896 -1411.5825 -462.32712
888.58099 -50.782684 351.12598
712.15564 2092.511 124.69481
934.6933 -991.21875 -278.25317
-157.67598 907.10181 515.8219
583.61139 1030.7346 455.84058
-636.24219 162.93025 126.45264
121.65605 -1922.6265 -464.3988
380.99948 81.943436 -256.15698
-479.95886 999.12836 45.174881
-85.588112 -148.34033 -256.15698
-227.78687 -2106.1941 -464.34976
778.43188 478.57086 -447.23538
-504.61719 -2146.3198 -43.426357
256.02274 599.5564 597.6618
-407.39984 -518.64233 -456.52179
-568.21027 1192.1588 41.760674
-356.49432 1817.0901 -368.2634
-221.60519 -1106.3414 -184.49554
549.97052 -1466.9244 273.64758
-100.51982 786.00165 564.97644
970.96558 -1170.5483 -448.80716
-64.402771 418.02298 -75.162148
46.984215 1142.1199 284.48105
952.19952 381.51474 262.69913
841.82202 -329.37991 425.33209
349.48407 1078.5067 167.905
-475.28867 1078.1006 58.183311
765.29865 1014.8339 378.03714
-508.95734 -984.62402 223.5685
-595.97241 -1474.2114 -368.29871
656.72144 -1219.7742 273.6394
963.70056 -326.55762 273.19275
-441.79276 1297.0156 273.8826
-374.15729 -1506.5894 -66.504852
1052.7943 973.49884 119.33063
-361.6803 -824.36224 129.87703
1011.644 -1751.5183 -201.9077
525.02301 1411.0339 359.63873
772.64655 382.09796 292.89514
694.85956 -418.12573 504.5712
-541.78497 -926.45935 -264.47995
-118.37121 -1129.2419 -174.1866
778.60803 1000.7761 -53.251526
554.95154 1679.6364 -387.03082
-665.31445 -1025.9998 108.63174
1072.4447 -1511.312 48.437786
-471.23676 -435.539 350.67798
-287.17789 2072.9678 162.49667
873.71497 1544.6901 256.88138
-557.66901 -30.584612 229.71791
-613.66681 524.69385 -334.74103
715.26166 539.81366 -256.15698
-635.85217 -719.51068 158.58453
830.44299 -626.39825 -457.7406
-495.18042 -1288.201 -418.47638
-77.850662 1316.2366 -414.89825
556.43121 2147.5786 -265.82773
580.65247 -1118.2134 -398.82016
1068.8506 48.758659 -231.11823
1001.6452 772.04156 -198.63435
-152.29819 -2444.5869 -113.56879
109.98505 388.6344 344.93134
-142.34251 -2167.885 -463.5033
-270.77634 1148.4709 -53.722023
-667.97601 -1404.4856 -98.513596
951.49377 -70.660988 278.86063
504.42282 -1589.958 259.22064
293.82819 422.17163 -256.15698
-42.080498 -1684.3401 -463.56628
871.16077 -674.17065 360.07727
915.37018 -1387.561 -361.45944
-395.80493 165.01291 131.42046
769.0415 1123.6577 -103.61415
504.42957 1968.7874 283.33975
-480.73233 71.648796 311.92267
-182.00064 -323.71146 -454.48453
225.10693 -2303.1838 -447.42944
416.28033 -2394.3713 -292.25797
-377.49268 -854.75281 291.25125
950.22046 1742.4564 -221.42194
1028.7529 -516.78656 201.76711
-181.68716 1157.4808 369.32001
778.51624 338.9859 52.037472
557.63574 -1899.0366 182.73245
818.59613 -1251.8353 260.28372
-667.97601 -1369.8667 -152.6472
-661.62427 1370.9114 -205.48378
790.56854 -1032.0928 -374.67151
249.53064 2186.4529 157.43896
1017.4985 -1665.5541 -201.33203
679.68652 -27.552235 -135.0834
639.61584 -1343.1205 -461.56119
396.65869 -1291.7721 -461.41156
-341.63187 1216.7394 240.2209
740.91699 1941.9969 -345.51627
668.82971 500.26685 -447.245
771.06726 -767.00391 -459.49475
524.83319 1236.0637 417.04047
-135.41098 1107.9939 -425.44324
542.55859 -1206.3872 -72.461884
170.28287 -477.41214 -456.2276
-653.29211 1167.6292 41.68576
-512.18304 -975.69708 3.4362297
-25.94927 957.40192 36.040405
-87.528954 1488.6124 -406.02448
1093.1975 -275.85919 -119.55635
930.80243 -679.82092 -453.15268
-321.3248 2068.719 -213.55722
-358.35901 1262.8715 -80.926903
316.46939 1506.2474 -405.15518
954.62665 -1645.4751 -64.045464
460.20544 -266.44543 -99.140244
855.84448 -849.81378 311.63333
931.18628 -281.7496 312.40179
-635.06152 501.97577 99.512527
778.60803 365.16257 -229.84196
132.66988 -1598.6793 -463.51175
209.01575 1141.6876 282.01016
-384.75531 -1652.1372 44.850281
68.224991 -1277.3757 113.34635
-425.30017 -568.63586 392.9267
596.47455 339.0061 -70.63974
211.04538 -1155.707 -195.26215
799.27563 782.2337 -294.55246
313.14136 -2094.7302 -464.27408
-154.47214 -846.08936 252.07251
112.85324 137.48526 623.0575
879.02203 -1079.2178 107.88513
319.29819 227.19534 620.25372
-66.563553 1146.1628 -423.63879
-479.78479 807.89276 -441.49481
-404.95401 259.60052 104.03878
-438.19516 1380.4907 -441.60718
238.42902 2135.8027 253.1246
578.66077 292.38638 419.83704
-132.4034 1124.5403 444.53101
-659.51782 909.77759 -509.13834
-632.13751 1184.2385 -75.591293
-650.64728 -1290.3466 -131.20627
971.46973 1734.7063 19.346912
252.18153 -1796.4847 225.89169
-460.07181 614.05878 324.69821
-371.22647 1226.2465 0.69996119
-58.798462 1077.2124 -174.84161
993.95892 -1494.7803 -76.116173
316.92188 -516.38422 -225.25845
-469.06247 -281.06836 346.04132
-359.13196 -1392.946 -464.74405
-613.05273 -219.8376 -371.51453
-404.95404 341.04993 179.25922
124.04839 -1125.4419 -315.17999
131.59883 1203.1562 361.32904
1046.3752 474.8797 125.88268
-578.69641 -636.93176 233.71841
-393.98676 -1001.1555 -460.73221
458.54315 -959.69385 -460.82727
1050.2383 1287.0917 -372.27948
719.18518 816.07874 476.05649
699.1969 -1142.3578 -132.24597
-501.36478 -1612.3329 -603.31964
-244.81569 3.3046193 -57.23457
-31.556557 1148.3688 320.19992
46.727909 85.254372 26.076839
654.09265 -740.98822 211.6925
-672.31128 -215.61591 -59.526257
448.79712 1359.4336 -412.72495
815.91669 1562.6725 285.90967
448.94824 -312.67035 587.54102
-275.51736 -55.563812 -256.15698
1073.7236 -503.50003 -256.29504
411.40103 -1132.7909 -254.46057
332.22784 -147.70874 -117.00546
882.09863 -1029.2272 19.348907
-55.027946 -1194.9445 -175.94379
301.03104 888.97162 556.20776
856.90759 485.12656 -446.24673
1014.1108 929.32788 181.97791
158.31064 1992.4314 283.57883
-246.10342 -262.65274 -453.7923
681.75586 -517.73621 -223.22847
470.38318 304.4472 -17.409939
322.26184 -1455.9996 -462.55853
-687.25824 -860.37024 -50.036903
931.57312 133.63228 278.84604
731.52649 1216.1066 -419.17825
644.15649 -498.02228 494.00012
491.22867 -1712.2224 -463.63727
-401.69214 -2199.2834 38.5728
503.34344 2205.6267 -110.16786
832.68713 -194.32932 428.79083
-266.52914 808.84143 501.7966
1026.0032 706.51123 155.91611
1030.9984 -34.960041 -375.28705
158.79608 -1252.0088 -38.270996
87.992111 283.5097 369.09949
401.85327 -845.75128 408.11078
967.94714 1308.0183 -243.23726
192.01062 1734.0177 -379.31842
995.59113 568.13049 -413.21802
415.47961 -492.36148 -69.998177
9.4443874 -1009.9013 342.04395
704.88892 -1157.8497 -54.335281
9.3411026 -1012.7612 349.97168
-153.20454 -917.34656 358.48151
-404.95401 -324.94092 -106.85851
-670.16809 -376.61353 19.112444
478.60809 1256.1415 352.05923
-378.2442 -809.69641 350.45963
-28.240215 -554.29132 -159.85657
241.99498 -1458.0343 276.35535
665.24207 952.60266 31.289742
-202.89363 799.11444 -129.75522
234.35413 928.14526 -434.76254
60.001801 400.44812 397.78192
409.28079 -2332.4138 -440.44159
301.13443 443.94244 -78.39856
-350.60944 -530.85236 -71.803078
615.2879 1333.9507 369.6969
236.03021 -1699.022 243.5889
717.40485 1132.4272 229.0778
-36.614571 -563.53894 500.78757
400.22485 843.81146 -115.64531
-651.73981 562.36145 -140.40712
-361.08582 1217.4911 -21.981222
557.52124 1153.6205 -43.367874
-186.1964 134.60533 -256.15698
-608.49866 -1485.3093 -80.782066
1078.6178 841.0036 -75.651428
731.75403 -1548.7175 242.15747
1079.5559 571.43665 -12.316514
641.47534 506.97876 -447.245
-167.99178 -316.02643 556.06238
1043.5854 -1585.2532 58.09037
1029.54 -1140.4724 -414.55066
720.61725 -2361.3164 -169.90466
86.871323 -533.56799 -456.86411
71.974785 763.48657 -256.15698
571.35132 -993.99072 44.211536
-228.40436 33.826897 -450.42993
400.52945 -792.86713 417.50455
132.35153 934.4231 13.29447
300.289 178.25092 23.650398
-663.74414 47.631927 16.890097
92.97171 -1310.7115 289.40378
884.46661 1898.4846 -254.49989
649.26898 -609.62415 456.23035
-25.784386 771.23993 575.52948
-261.75449 835.60907 -135.2458
-657.79755 912.2644 -521.22162
542.1676 622.82147 -256.15698
559.55328 1065.478 -188.97809
0.11724329 175.3195 619.02771
778.60803 393.36612 -232.18613
632.198 2138.2012 30.692493
710.06323 -2205.0251 82.559242
616.60522 400.46277 397.8656
972.62292 1660.8396 -190.3414
400.36102 -98.260223 -256.15698
192.83241 -1561.2096 -463.39072
1104.9968 -876.53088 24.619963
206.91507 768.59149 -125.16307
345.12253 -1174.3096 -96.321075
762.23712 64.871819 481.88812
728.11932 -2088.9333 125.88503
702.19403 2099.6899 68.364403
879.30157 -1505.7186 -595.73651
957.68677 -1829.7881 -49.565826
881.9826 -1873.8989 -106.25246
750.05493 -1576.373 237.61908
-318.56473 -614.01532 429.74216
-241.83987 -2176.2144 98.187103
713.00275 961.40027 446.70856
755.60797 -198.01109 -256.15698
-314.2977 140.11308 93.313095
-133.07692 -649.47058 -458.17874
-431.23074 -2043.1312 113.76508
1092.015 1309.7135 -373.59787
628.83575 -155.61755 -256.15698
815.38184 -2030.3372 -456.6145
936.70953 -1704.7133 -582.93237
833.11798 -813.67267 141.70421
205.96152 1433.7317 371.43518
-537.927 -1647.5308 -597.82849
-30.38385 1836.1462 -365.30322
-569.68213 1293.3298 -208.21042
205.79927 381.01382 -447.24496
718.42401 902.75378 -435.76483
659.91211 -488.47366 484.67108
-369.97894 871.97498 -292.91006
555.38281 -1270.2815 289.77267
-434.1297 1041.7468 -485.09912
-160.76201 1160.7723 -28.987389
127.77137 872.48596 559.89777
-568.70654 1207.8091 -88.202484
518.55841 -1139.809 -359.6727
928.58325 -1440.9379 234.56818
170.59869 -584.323 -457.43976
-222.00037 -1141.2401 4.1890144
839.64917 -1035.6709 -185.30367
12.944099 -767.07739 434.65436
495.46722 -1260.4395 -461.20001
713.82166 326.02051 25.967751
-265.3555 -2293.8831 -264.75616
-644.91266 -1181.5173 137.76697
-223.60661 1084.4493 -426.4382
29.156342 838.03229 -131.29135
787.74731 -1753.2988 -505.94339
419.5448 -1709.0674 -463.73505
-587.604 1007.3601 -382.66068
683.2605 629.70239 532.80682
862.7868 -1894.6429 -147.78867
186.48418 -508.7023 531.70227
-532.62195 1012.861 -71.275452
-639.09827 415.30356 -219.9118
942.526 300.38272 274.06223
921.31158 763.34729 -302.50974
-595.14978 -1823.9635 57.091854
278.46643 -867.65674 405.69666
601.89795 2123.9128 141.64099
446.78268 1299.0548 399.35132
18.525234 -553.25195 -161.66705
778.99597 -178.73709 492.71912
-419.14172 1986.6348 19.305365
1057.9022 877.54303 -296.35587
422.28659 -1146.7852 303.453
87.428093 -2401.7468 -20.337992
49.747986 1262.6096 333.46323
251.16235 -1205.9709 -200.9747
-526.02716 -1263.7423 -346.07806
-354.56799 904.47223 -64.837601
759.26874 -940.3634 323.32935
-292.53006 970.67212 -432.16663
495.98099 260.51422 610.28882
-540.19714 -1907.3978 97.76931
689.15387 1487.3015 313.43552
1081.0439 1241.9895 -188.69125
-299.21088 -2057.8274 136.78534
-284.65109 405.21988 -73.563484
1084.0105 126.98907 -122.32544
935.29547 -165.4769 -445.23325
252.12985 -2416.0503 -374.41785
1059.4979 -1624.959 -117.4852
-208.67369 361.72955 587.09277
347.45312 257.09674 272.34793
775.50055 -2292.7727 -241.01347
-638.08252 0.22781944 -270.98718
-121.5591 418.08224 598.77112
-65.202209 -992.65662 78.247726
-536.01562 412.70001 242.62482
-263.1991 -2063.2839 -464.45374
-430.9538 1391.7152 -421.04111
101.19538 -497.07062 -456.45044
1075.0366 1399.2678 -156.61363
954.42065 1032.595 -64.40992
572.4671 -1150.1813 -37.830368
87.826782 -2173.928 119.58768
483.59143 1598.0159 323.01624
-345.30289 -1056.2335 78.242119
801.987 -1843.0168 -458.54501
350.30896 -2083.4465 -464.47168
-263.22723 282.94662 365.88095
454.8855 1061.0476 484.01917
-365.81726 -561.1676 417.35718
1045.2371 -1841.0771 -486.29034
40.439201 2100.1338 256.78769
828.99304 71.325546 -216.51611
-239.90887 -1116.4115 277.4328
823.31287 -1267.7876 -360.10333
-203.05432 448.48615 582.20233
423.76257 -2447.366 -177.45267
-114.23494 205.55205 -186.37985
679.6571 281.74786 359.02884
627.84473 -2294.3442 -428.47903
-234.92531 -1449.1879 -462.07529
856.25623 -818.22522 329.97153
-594.94849 -269.8515 206.56122
1092.015 -1384.5789 -157.86238
123.75101 -55.079369 -145.04144
111.4976 2247.0627 -160.58217
-528.68103 -994.44562 59.281757
979.77283 -25.612061 231.73622
-425.48984 1765.1292 -371.85818
-309.31641 510.07181 -86.655815
1024.2253 1247.3458 -185.2766
-130.27313 1775.7871 -372.35541
14.652555 961.28064 517.3681
-335.06207 -1620.7852 231.60275
1048.2922 -141.97005 172.53221
-203.20428 1202.8164 397.25555
776.55762 356.08655 399.46368
-230.70836 -1871.8728 -463.92908
577.6991 1360.9489 -412.33493
453.26898 1249.7783 260.11786
-754.67413 -508.7587 232.48502
336.31201 817.01782 -132.44876
-354.56799 740.45752 -187.1554
844.32507 1937.0004 -287.03134
650.46606 1132.348 411.36337
-235.28047 512.43536 -86.951012
-661.82355 -1114.4304 112.85816
1070.2781 -248.62752 -257.65527
92.725441 1095.814 -426.19049
475.30273 -1540.7841 -462.86197
758.84967 1863.9214 275.47177
-394.28247 -1202.4242 262.68588
682.95953 -986.28271 316.21179
-374.08276 2029.1193 93.441032
-548.12097 -918.30457 -341.40393
1015.7437 1135.804 -181.90675
792.9342 1387.7805 -333.73328
767.84851 -2220.5173 -401.93387
-450.12772 1058.1116 -58.542873
300.28903 312.98215 88.118408
453.01416 1202.6733 56.350185
804.43573 -1369.719 -36.757404
-639.44458 1310.92 -276.07025
285.05695 -843.52289 413.9169
1084.9572 1179.7825 -338.68213
786.15637 -308.59323 480.44568
-587.604 -1519.0769 -349.44226
900.4281 -1798.5604 -18.237366
426.86078 575.05652 598.73053
-674.5705 -414.23761 -42.243793
654.57855 146.61633 -449.15128
1021.426 -1202.6973 197.35733
1054.111 1172.5844 107.93766
-168.4559 13.820381 605.24341
1090.9248 32.323818 -21.783485
-148.71202 -1983.1487 162.10524
52.352001 1496.3857 333.09518
-487.35281 -2101.947 -303.78574
-466.51898 1787.7751 -325.21967
61.777462 -858.33899 397.33691
598.01624 2103.6482 -302.28775
-204.90562 -1214.5341 148.58961
-173.08644 1913.7074 288.08716
109.3214 471.25674 608.0174
690.98383 735.85767 -256.15698
128.15656 -2089.0344 151.07523
-644.93665 396.78998 77.257805
-504.6889 1866.5559 -58.444191
393.87781 316.65485 7.136095
-614.88672 540.52325 142.65575
95.738564 -313.37885 -92.078552
944.10571 -367.73636 286.15692
-138.17404 487.61288 -83.851532
722.57739 -2321.7178 -25.268656
-373.0455 1400.0271 -240.60837
-281.04889 -1088.8862 -154.16121
790.32843 935.46826 -520.40314
497.15314 309.84824 -163.44041
1091.6783 1031.1422 -538.76361
-667.97601 948.00934 -89.094376
817.44049 440.0098 395.78134
5.2103319 2232.7769 -121.41409
58.381252 -938.28076 -460.82361
-680.67352 -895.65601 26.876602
-178.87552 -526.12415 -456.77975
-126.55186 -963.65698 78.24707
894.8645 14.827497 339.88916
-493.24335 -695.09442 -454.9819
146.18867 -2071.7581 -464.45404
-318.94446 1206.881 73.160591
801.50629 -561.54327 412.06519
127.40822 1114.9602 -121.10214
1067.5869 -24.340843 122.93964
304.31885 412.11642 611.85822
-354.56799 701.86224 -249.30705
41.50082 2129.6653 249.44279
1082.3099 111.96358 -138.01299
-203.26126 -1117.047 293.49335
170.877 -1208.6472 62.81905
578.927 -142.49419 -117.79007
893.74426 1305.8497 -528.52618
345.78607 -351.46222 -454.79932
-654.23987 741.0553 -19.502701
-651.32635 -123.04665 107.26157
-186.71068 1153.7576 424.02957
-570.92761 992.17297 -586.85974
787.90118 186.93582 427.97308
-269.80966 1807.4487 297.00888
963.19843 617.81555 248.65532
-439.0433 1955.4506 110.73042
-534.64191 1285.1556 -172.76843
-148.22379 2168.8538 -198.7589
654.37512 -2271.3384 56.024979
148.20178 -320.19781 -454.4447
776.43311 497.2088 434.07745
96.477341 -942.04059 369.95819
823.89697 -2044.8606 -254.78911
788.19806 -37.156025 -256.15698
-345.40411 -1159.5459 81.095642
-571.74121 1118.677 202.76637
-187.18341 769.4325 548.37775
168.87444 2161.2632 -306.75037
-367.44888 -1310.489 -381.37488
515.43854 -397.36578 -80.992874
1036.795 433.76245 156.55884
412.31335 -1076.7922 314.43863
-577.33948 1267.6064 -553.91937
471.5144 -129.34286 617.38708
-635.82178 -451.41357 -321.75781
945.9278 848.96295 247.51888
380.89957 -1548.8677 -463.0369
638.77289 2135.3276 31.716953
873.12097 -804.36981 99.030609
804.09125 -2298.3093 -177.65807
347.36102 875.63489 -437.47144
29.176773 2151.9106 137.87405
-122.54132 98.673332 -256.15698
863.0882 86.096931 357.05652
741.71289 -781.09656 378.4743
-292.63257 1093.5353 184.57848
-208.76648 864.71985 -59.039505
-248.65222 1116.7689 210.35507
-140.61372 2007.8496 268.01367
251.43678 807.12354 -440.96646
454.68015 -1085.7266 313.66345
207.41605 539.20471 602.995
519.18542 -707.03455 282.11722
209.34276 -1201.6539 289.60397
-51.350243 795.6225 567.49316
-132.87793 -1216.1428 292.27393
215.53174 1166.8486 -16.769615
-557.19543 -1318.6068 -466.21136
778.60803 931.97107 -1.796524
800.77344 -1448.7706 9.5294676
48.940224 117.37776 621.83374
812.27563 1358.0947 -466.52786
75.857925 -1078.3242 -460.87024
408.58569 -1550.6088 264.64374
751.24792 876.66388 -43.879383
842.28723 1987.7786 12.105112
335.08597 1234.1646 443.94351
-358.35898 988.37964 -36.653259
-587.604 -1570.9542 -172.64153
946.27344 941.47424 -426.02966
-3.3894672 -2089.7727 148.74171
-513.40472 508.67886 -437.58664
656.69873 -1744.7175 199.81271
-651.66266 -494.74512 -257.25024
-653.93121 605.86749 -120.52399
-572.84827 -1512.4685 48.642128
902.79889 14.563193 317.99414
-66.236565 1264.9342 -417.56485
856.39465 -775.4339 -459.11319
-184.14111 855.02039 -85.299026
1019.0725 -1770.8167 86.341675
-600.60962 -458.23083 204.66911
399.40823 165.92921 132.82278
-569.37347 -1623.8611 162.94452
-305.69641 -963.5152 313.79913
571.71973 -1143.4187 -39.374626
-574.05707 488.50958 -409.22507
941.51898 -1987.9771 66.877457
-458.33722 153.24481 -447.59366
952.9082 1325.9948 200.3425
-374.30518 -961.65021 289.56995
999.41571 -1854.7014 -81.168442
310.8338 -1234.7861 -90.638184
-416.15936 762.61414 -243.37708
521.1344 357.07626 150.79588
18.763271 -801.31195 414.2948
550.39221 1580.8685 -397.81934
354.55798 -302.78207 -454.24652
-616.67578 790.01367 -139.36301
1085.4214 1260.3363 -193.18732
-570.50977 -427.01068 226.43546
734.4837 978.99121 57.497238
680.88721 -608.28369 -457.71155
738.28101 2039.6279 183.83168
1024.4628 -1635.6038 -600.39642
22.072517 -1381.7479 -461.99274
351.32336 232.62433 -153.76524
135.48804 -1069.1853 335.25562
577.32324 -835.95642 110.03513
-561.98242 -1712.2859 -443.62064
1100.1908 -583.47205 -127.26923
105.78078 606.32202 -256.15698
970.13519 908.83618 0.64957643
-235.49281 -2293.7202 27.909279
-40.195068 1087.8047 178.22066
123.75101 -163.0799 -195.87126
603.43469 607.52563 572.00397
524.56348 638.74072 -256.15698
10.074514 -464.74805 -456.08405
-146.34251 220.25246 -168.66991
300.289 217.63203 56.385536
-61.965435 -164.97559 -452.68494
-491.7868 1688.1637 223.72456
63.135696 -1072.9039 -460.86157
870.33704 -1961.2629 143.08946
478.36444 -1133.7968 304.77887
1067.6675 -913.10895 -337.83182
796.51434 -1823.4954 -468.10907
1106.8915 -715.80658 -89.576935
782.39905 979.62939 -472.77136
774.65326 236.96588 241.53915
-408.45563 -1009.7242 271.45453
393.25375 -172.75681 -256.15698
490.4234 302.66656 432.8215
976.39795 -913.26813 -190.35373
963.97693 -335.67877 273.10199
81.141838 1203.4453 361.2785
787.534 -557.88312 -153.60036
782.39905 -1360.5016 -358.27432
-490.24048 -2154.0342 -204.40898
432.44089 2228.6223 -128.38216
-553.29822 1710.4231 6.2748599
-213.99309 -870.45215 363.92279
300.289 242.45033 94.559097
-612.12457 -1377.5488 -333.23239
-662.84363 -1436.6454 -506.98108
1034.4076 -6.5007496 -363.93066
-475.9628 1492.2828 239.07228
427.45343 -464.92361 -256.15698
518.13098 270.00061 -86.672249
733.80353 -896.99481 334.79694
830.83661 -1481.7776 -464.37103
-557.65588 -1781.011 -369.45102
166.80014 -1716.4413 240.41524
-544.48334 -1325.8684 -69.64859
-449.79126 -1445.3318 27.596226
436.52063 1226.291 -419.53906
240.27652 1021.6747 104.85268
1002.0975 -735.00635 232.96072
-147.30614 -1530.3109 253.20206
-164.92068 -1041.5308 -460.84738
-404.95401 206.74318 61.616985
167.57002 666.08844 -447.245
-96.249313 -835.9632 -460.2937
674.69775 -72.415642 -128.33376
400.98328 805.98602 -256.15698
348.55545 714.39819 -256.15698
1059.843 -1025.0327 170.92274
410.69788 855.39252 -84.29187
483.11557 -474.22345 -456.19147
300.17062 -1172.245 299.2244
1042.4939 505.20819 101.28479
-424.50977 -1475.976 240.81551
932.49438 382.26068 -438.38272
-45.816433 2142.5422 -310.04343
-59.842148 373.47906 243.85179
639.3938 130.64713 -449.33228
-444.84274 -339.99063 -453.89142
1080.8568 556.11475 -48.1087
-270.3208 -1998.298 -464.32675
-239.49039 1183.2169 -421.18866
778.60803 857.74005 -117.21548
60.77932 -1132.4253 297.04065
720.31036 492.51013 489.63049
-207.05946 -719.71619 414.98462
1092.015 1116.4957 -19.922899
-313.80945 578.4447 466.349
-2.9217901 -896.0531 -460.82846
1051.2921 -761.99158 166.94632
-471.87958 -2206.0447 -65.696152
-636.54517 -917.10779 170.16142
-588.13873 -1300.2773 -107.11179
-88.691208 -1186.0365 294.32266
922.77557 1089.0441 -604.66589
1086.916 -1619.1782 -263.37131
-439.95441 1330.4078 -507.80389
-443.37839 1208.0732 -457.19907
782.95447 -1362.3553 -259.50504
-146.93188 841.97363 -439.15262
-360.41144 64.317245 5.3518867
-413.29779 576.85779 370.90851
210.69594 1201.948 53.805111
507.60364 585.70245 -447.245
308.31763 878.58673 -437.31342
275.13702 -498.88501 525.10913
-497.31021 1716.9873 207.64824
-587.604 911.65845 -203.22214
673.95782 -2395.4807 -145.3728
-134.31052 426.87656 -256.15698
-284.47498 -1184.3745 105.67813
-120.97961 1930.9568 287.53674
-72.512085 972.79785 499.2384
-385.86371 -909.12299 309.29898
338.3981 -117.01536 -121.62361
-287.48584 -1708.4171 217.19565
-365.93079 867.20166 -87.737221
-155.47617 -2237.4434 74.215401
-504.20551 -219.11137 313.49753
123.75101 311.37952 137.75323
-414.43649 772.94019 346.17609
84.496376 -541.237 -182.59467
-119.95371 539.25696 -447.245
828.99298 50.998608 -67.114296
123.751 111.38641 28.472616
-207.34271 -912.44025 -460.83054
23.998428 1539.889 336.28177
-187.23904 27.380173 602.42987
559.00006 15.889475 -450.63342
801.73541 -438.8418 -455.73981
1038.8433 -1791.0244 -247.1889
578.56354 -478.47675 -256.15698
749.92432 211.52789 202.60817
-356.12296 289.76422 -46.93322
778.60803 937.9707 -191.85397
-334.71677 -541.23254 434.60556
515.62585 -430.9556 -256.15698
-467.73856 576.91943 -444.06171
-56.816467 1474.9056 -406.83026
150.83246 1047.4839 -428.65063
300.289 81.827469 -135.20131
35.271683 -1118.579 -323.08014
-537.53973 -1876.4762 -113.77255
1013.3681 1286.1947 -373.99033
-90.865692 1235.6843 410.02875
-566.55164 1632.298 50.783165
-228.97525 1208.7446 -419.92163
2.8479614 355.16876 -239.47855
362.83975 631.06775 -447.245
582.68658 1254.9427 400.90488
960.7536 -964.59442 181.73695
886.6684 -2144.5396 14.919315
318.9646 1257.6798 351.7901
-662.87695 -1513.1167 -329.71243
-501.39337 -1099.9415 255.46257
-608.85168 -1773.7151 -545.62689
-429.09595 624.31964 341.9906
-646.4043 -897.10052 -327.70563
-80.833275 312.76953 -447.26694
269.51337 2000.9243 282.06793
-399.2959 -1058.4282 -343.23053
-8.1845036 -143.2489 -452.43655
467.29596 20.170448 -256.15698
697.56873 -482.84662 -456.28918
-74.157425 -823.15369 399.61581
909.60193 791.10089 -409.0907
-644.55206 -1319.1055 110.83762
-151.19023 -2427.2134 -74.691505
-438.08636 1661.7722 -383.02963
-253.37866 1132.2954 404.93689
-88.264076 -2378.2026 -4.5653062
727.5777 482.87701 -83.260109
-142.72975 -222.8912 -256.15698
336.9422 -2372.9927 -428.88916
545.89209 -2148.418 110.02042
728.12823 2088.8328 78.044182
-660.01758 -1344.6198 -443.86768
-244.87788 -1202.8879 273.46143
640.25 -2293.1189 41.504059
468.45496 546.40363 597.85022
353.32269 -1168.818 281.86899
946.41382 -1370.0681 -294.81888
-92.574585 -517.58716 501.52249
759.11633 -2179.7161 86.188499
377.36163 1712.2754 322.4256
-86.490837 718.39258 578.7171
-67.003113 -1983.1981 163.70659
-620.17474 277.62134 -307.64624
858.13538 -790.13873 327.09216
441.72498 1149.4996 326.66373
-667.97601 -1661.9702 -506.07236
496.42639 -1682.7681 244.09654
-479.79724 552.90338 307.32663
-12.192068 -17.02496 -451.00677
763.92682 -562.98651 -457.19214
430.82986 400.61365 398.72784
663.6076 -500.42474 -249.22075
-302.90015 1080.1853 -171.26003
915.8252 -1627.3654 56.327156
507.12421 -1133.2301 -200.28865
1075.5638 -1859.3199 -93.658371
115.11301 -2232.9263 -458.4256
1107.6381 -848.23438 -124.13514
99.269676 325.28839 -447.245
-282.94757 -1786.459 -463.47424
300.289 308.25723 -2.8339951
-682.62805 -714.33398 -84.326241
402.43671 -799.70117 415.02856
118.009 1132.5266 229.64615
675.46082 -145.32791 -117.3637
-354.56799 842.19269 -174.10477
999.73676 -1003.9287 231.77881
259.45856 -893.34705 397.00903
194.25955 1007.6556 -256.15698
-431.04639 1204.0544 311.9227
158.73039 -246.66753 608.65686
787.23645 1062.0374 11.014652
-51.2668 986.19397 65.488388
1045.4285 -1542.4233 -400.00122
350.68381 -1242.0211 -60.570538
-667.97601 -1318.7717 -255.08328
988.52832 -600.24542 -435.96762
-249.09163 -1285.0238 268.87781
-460.4054 962.91705 -444.72943
1092.015 -1363.1495 -300.85489
406.44354 -238.29288 603.27429
778.60803 330.74353 -80.937019
304.56082 282.86847 312.74304
-395.7424 -1118.6359 176.51668
976.17065 18.082039 247.23068
-101.04214 -259.77475 -256.15698
-659.95947 870.11987 -467.91748
419.81125 -559.46729 496.49353
439.90619 859.46252 -438.30688
-407.86859 -1611.9611 226.8864
617.55389 -2193.2375 -459.94788
-101.22046 -831.92755 291.93616
-647.60883 281.01944 80.159004
622.53784 -682.31586 164.41231
-417.30319 -281.59634 409.78445
1033.6561 -12.548418 -366.41626
6.8197231 268.55719 -447.76843
914.74268 1735.028 209.59291
-367.37418 2046.8689 48.581287
-247.30099 -830.073 -460.22687
1071.9749 641.1908 -160.3968
745.65295 329.28238 -197.29089
842.6615 -1300.1191 -442.40155
-363.08609 -1045.0785 282.3692
645.86584 -1471.3943 -462.203
-335.17792 592.42139 -98.656471
765.77295 -1109.7848 -194.70993
-493.53006 667.07874 290.65027
326.1398 1194.6389 362.81915
-237.41263 2018.946 -335.0741
-8.7795601 -1273.3983 -461.2876
-213.5094 1206.676 -420.11227
-522.08398 -1822.6809 -41.719231
-270.08606 2095.0903 103.4564
778.60803 1172.3121 153.76511
278.21735 -161.21495 624.56024
-538.78955 264.38232 242.20377
-290.67108 876.02094 467.52121
642.85828 642.09875 -447.245
-170.06657 1196.642 -420.802
-211.96703 439.6398 -256.15698
-139.6335 -1322.6904 286.02612
698.37189 1944.9426 -347.29709
415.63818 -864.65997 158.72346
792.16333 -1.6551714 -70.6623
470.02789 1569.3958 323.12469
148.94571 -1263.0225 -461.38489
208.76656 1992.5734 -339.17325
-577.42737 -253.11798 -423.30911
1084.3022 1195.2694 3.0695717
388.69189 -728.58728 449.29065
266.00107 1241.8823 214.98441
-302.09937 -1832.4098 -463.62781
547.11371 1091.5527 455.60919
-397.0069 -816.19434 143.47087
718.96143 -706.75964 263.61441
595.19861 301.69806 -22.937716
-88.514542 -844.12708 270.15775
645.81958 1752.2657 -375.4165
636.79236 221.55032 -167.10632
828.99304 -430.98651 -140.50008
342.33817 -617.00409 481.80917
652.53876 -320.14862 540.05341
-390.07861 383.10526 298.65247
1069.468 776.11963 -182.32759
418.13641 315.35217 4.5167713
-165.89355 -664.54694 -458.34973
407.17273 591.97522 -98.589355
1011.644 -1702.4094 -225.3067
-404.95398 127.94756 -122.49775
480.21619 61.064308 -256.15698
-215.27303 993.77045 475.22995
300.289 -304.43854 -147.23766
701.19305 863.03522 -256.15698
-506.20483 -2094.6382 -272.42178
441.23474 -112.73923 -122.26701
-2.573658 -797.02246 -459.85172
-556.09259 -2029.6235 -200.57932
330.77707 1425.4579 362.8819
875.05774 1059.1547 -603.67181
-139.68758 -1127.7125 297.64725
749.43176 -2081.188 127.18578
489.49548 951.17822 29.879765
-105.75275 -1174.1495 70.516678
33.614197 -360.43713 575.83453
123.74461 -1594.335 -463.46683
-379.05621 -1366.5842 -255.05415
340.61185 -566.61896 508.23389
-309.16177 -468.54211 466.01251
-180.04141 124.79642 69.872086
-404.95401 203.99042 162.61952
-358.81778 -1017.4796 78.24189
-538.51105 961.69269 30.092224
1077.0815 -1550.3086 -594.68811
-312.7995 1793.6377 294.08136
-87.716354 -617.80786 467.73444
-677.0459 -509.44843 -100.54126
607.95599 1140.9957 278.05606
193.52512 1048.4449 -428.58606
-367.41614 889.09912 -361.25452
-358.23901 -1074.9514 -460.85223
742.24158 2066.1223 121.6399
728.27789 309.31082 -121.07272
-279.95486 1552.7014 309.71991
-548.60266 -502.24222 327.96457
320.02045 -538.1571 510.19199
828.99298 8.1937714 -142.59737
1092.015 1237.9795 -71.345459
225.34357 -1579.8398 -463.52518
-338.85596 -2270.0435 0.69936895
625.24915 64.464241 5.4973946
426.07483 1369.6046 376.7674
508.36752 2086.1577 252.67369
-472.54401 1045.1688 -61.434677
608.20587 -1512.9896 -462.45807
-272.37927 385.7709 313.88855
-212.47423 -1205.6992 222.27051
-461.23828 -135.78369 360.92413
211.37271 -962.59375 373.4202
25.2591 1407.3965 -410.25369
-256.90405 -555.80109 458.05499
-186.20451 -523.43542 493.02145
439.5401 -1347.0414 -461.73572
597.61377 -2350.178 -9.6168528
470.69302 2139.115 235.57803
-487.49673 180.21527 -443.33179
-698.68884 -505.98431 232.485
-685.94092 -875.28357 -108.67538
264.03668 770.70715 578.82019
-363.45435 -862.78912 -460.58002
-636.1499 -123.94984 147.9895
1017.6758 1015.9417 -70.173218
649.56848 -893.91699 69.757736
849.80066 -1866.3123 -453.13306
696.97009 -1804.981 198.4117
-424.49341 -1639.373 -485.00858
976.25568 -754.14868 261.44214
635.73895 -2337.6846 9.2938995
262.2843 1134.3868 240.27948
-110.31481 -2090.2466 -464.91968
-494.03503 -1274.0885 -384.53748
-354.56799 1032.7002 -25.315844
746.87103 -303.65262 500.86215
455.83545 1225.9423 149.31703
189.84561 -592.86902 493.63727
-3.1969318 393.58762 416.91479
9.9079857 -872.02045 78.248001
667.2962 -1733.6824 205.94629
1071.1619 -1472.6163 -195.69482
10.372917 1999.3866 -341.77289
-270.85052 49.507992 -9.307291
572.91101 -1161.2847 276.15118
416.08932 898.97955 -21.789896
713.24219 367.3855 -70.046158
-352.69269 349.87149 109.92188
564.1582 -855.80426 110.90582
-419.20963 2003.7693 -154.14966
864.5636 1941.5398 107.79847
-49.233391 1513.5603 -404.85007
-294.64362 -184.27426 -452.90384
-124.22723 137.63461 610.30133
-340.34946 109.3933 473.61224
-154.0798 420.43304 -75.463089
-359.14682 -1855.3804 -230.32089
-492.08923 -1039.8512 17.40501
43.388985 205.62886 -186.28731
-136.69801 175.00174 146.70763
-303.4317 -2110.5469 118.44541
936.37354 -981.80518 -385.14661
984.39362 -1260.3538 -323.89557
-638.44305 -520.05988 287.78995
810.57764 -221.84192 457.31482
561.08069 1599.6722 320.53992
-25.284502 861.64746 -438.19614
165.19801 -1290.3195 -461.57617
612.71338 1912.0402 287.54242
591.10815 -1536.5685 -462.59735
-429.48938 852.02002 322.46329
296.07483 2164.6953 131.18829
-578.66235 -581.35675 232.73483
160.83316 1149.936 476.35257
-17.590054 -2363.1748 -424.06967
455.67813 80.651718 21.520836
-104.7453 -797.15259 413.95203
247.79506 1625.8079 -392.79456
987.62585 -1261.1891 -329.62479
1011.6439 1088.4783 -207.70032
-316.40601 -1882.5719 181.41908
-632.06207 -464.87268 170.44649
41.016083 690.90613 588.61005
-358.35895 -1369.723 -364.36798
959.51135 83.176498 263.47247
-116.70623 1198.5696 -420.85077
623.27625 -1244.1421 284.84546
-417.70764 -134.9606 399.99402
-79.836761 -864.85596 -460.62152
-671.07971 -222.68533 -5.1641512
-357.6727 1719.7 294.02563
537.32703 -234.34523 593.51617
826.0484 1602.3234 -393.59543
170.01305 -1472.3041 274.65399
137.83272 1020.418 -430.04462
-702.54272 -566.60016 281.83798
778.60803 998.37433 36.750633
1006.7348 287.52521 -397.56946
-484.38651 827.4325 -470.80304
524.96472 2025.5438 267.26642
18.027283 989.40002 501.64417
976.07739 -385.86493 259.70511
875.62219 -1475.99 40.244331
-37.36235 853.64978 553.2937
-330.08344 -976.82556 313.10071
-287.90326 -349.13016 507.55093
786.87659 -1374.4253 -463.36893
681.61139 402.89618 552.29578
608.12067 1458.0717 -407.20074
44.561333 -2371.8801 -319.97806
-651.64038 76.03405 -186.16257
1054.521 -197.77763 166.01041
652.1485 684.33313 -447.245
485.97488 1156.6023 367.26038
869.2937 1773.0859 239.47678
651.61975 -1133.51 -261.95981
1013.683 -1903.8713 -364.68115
-133.41214 678.65582 -256.15698
-380.89413 -285.74808 467.99747
150.79982 -1133.5023 -460.98279
932.41101 402.91113 270.25668
110.26849 1255.1095 290.59052
-281.19995 -83.187294 -256.15698
322.56915 2201.9617 168.93826
952.86365 -343.66656 273.91714
218.6507 -654.85608 472.24353
198.85686 -1685.3766 -463.94421
-417.59805 145.6599 387.31769
300.289 -321.16162 -107.82536
334.31946 -349.76886 574.56732
455.43768 571.78339 -447.245
-73.977585 116.5536 -256.15698
459.34613 998.41028 500.86218
790.06128 244.48825 433.98828
-318.36322 -816.06226 261.56708
198.52429 -397.13892 -455.31744
395.94708 -1161.7722 -133.53625
1096.2188 -287.90353 -97.444809
599.93359 1129.3638 -424.26331
578.75989 -837.12585 161.84021
681.78271 2055.4653 218.00168
-5.1373243 2111.3303 251.5681
621.72089 658.74939 561.59491
755.8645 -1058.6185 -281.78955
442.36545 -1210.6327 294.03995
789.18469 1883.0879 -355.65015
253.86392 2162.1516 243.79468
-662.87695 996.76892 -383.93033
-392.1167 1910.9072 -330.25891
-228.03375 1.955698 -450.79147
885.59161 -1561.4875 -489.39896
298.47638 -2369.5562 2.6733596
-190.20422 -181.30867 -452.87018
1014.3311 1416.5627 109.75691
-321.10754 -1500.8933 -462.17026
-305.11267 -541.32617 -182.43936
60.867481 284.62564 375.47815
182.28107 1181.1975 -421.7811
235.63461 1130.0114 225.04697
-634.38495 -106.10701 151.90897
30.423492 -27.119987 -256.15698
541.8855 858.91821 -74.746437
-508.47852 -234.31726 295.47943
-599.20959 -159.82848 199.78976
-571.1983 1609.6018 -97.37075
946.96973 799.39948 247.49115
743.66345 -2326.3953 -24.903971
442.08514 1248.7988 254.51898
-566.2934 1524.3033 -230.75212
904.02106 1901.035 48.512562
136.91168 970.32605 -432.61157
876.94507 -1006.4598 -277.34631
425.21436 -2389.8328 -295.1369
724.95508 665.71021 -256.15698
-358.35898 -1683.631 -51.410782
786.22052 -2116.0591 106.73844
400.47528 -135.98161 621.20502
-231.0842 502.04858 -256.15698
-312.17529 -293.36066 -454.14038
565.31451 -1125.0786 -191.8273
822.51245 1303.4883 -335.78101
-577.8667 19.800241 -417.25775
97.845566 119.83963 62.286087
-69.895103 -974.96606 -460.82935
1092.015 1101.8938 -513.40051
513.07727 1023.5905 473.32913
-155.00606 -1568.5044 -462.79892
782.39899 944.61066 -65.876732
355.85846 814.58734 -440.59821
-2.5295756 732.59882 583.78943
577.07941 -2183.3582 -462.4227
-223.2511 -1045.0961 313.4678
966.64026 -443.22968 260.03381
828.99292 77.09449 -122.44765
63.085129 501.77966 -256.15698
620.23712 524.24432 576.49091
-53.674942 -605.23901 475.79437
-567.18073 -1413.2909 201.54956
-211.74837 -493.72299 -256.15698
642.65637 1183.4686 -421.28818
814.80231 -714.0672 -458.80243
75.687195 -1525.0707 268.15598
784.03699 1368.6067 -294.62946
37.685047 -292.15884 597.75348
1090.8042 893.63196 -462.0134
-265.48871 827.12317 -133.9691
-50.507294 896.19995 -24.541317
-666.62305 -1617.4365 0.60490179
428.66373 1882.2434 300.44925
43.343437 1201.2465 52.394585
972.17444 -37.660881 -431.0864
198.19318 1098.306 485.78406
468.81323 1170.7681 438.70135
447.23718 -1034.53 331.62469
-397.52063 -905.95312 315.51819
810.06836 2025.0286 107.72829
870.02429 1382.9985 262.29297
-156.47672 642.14221 573.68109
1076.6482 505.47754 -133.51819
-474.33224 1908.4247 56.291512
-137.25696 -548.21326 -170.44328
239.12262 858.34912 564.19061
1010.4351 -318.67505 216.74496
388.05927 339.10046 -214.39212
115.49525 -903.11914 383.85159
571.92255 -1771.035 -463.70035
92.950294 -1462.0085 275.59973
75.010483 344.16107 -222.95116
984.70172 1127.9719 -601.4082
-492.31696 -1909.0483 -195.94891
682.07861 -560.76428 -148.58188
487.5766 537.96362 -90.462692
828.99292 -114.36038 -155.43741
987.19043 29.304276 234.82437
-69.090393 1151.0824 -48.471226
-601.2384 762.63879 -262.9097
-478.48767 171.01888 -444.70892
-578.03809 -501.28043 300.61804
-655.04657 -945.36597 -296.04578
1165.8625 -520.03894 263.61096
630.47974 399.93536 -447.24503
-78.141792 -1219.186 -69.220848
271.57825 1657.8767 -389.09882
463.43753 -214.02432 -107.02759
491.04697 540.13098 596.62622
-410.2326 -1671.3153 -474.35846
622.797 -741.198 409.72003
-204.02969 -2253.0562 66.88131
1067.0085 -1067.269 -341.01007
531.39062 23.579948 -256.15698
538.50812 -308.82895 -92.763199
72.370285 -2222.0874 -460.07898
796.3457 970.71936 -553.92059
824.02722 -673.98328 382.09903
-653.29395 878.64758 -251.46902
-566.63696 639.62744 -415.66241
-34.100029 -909.29358 -460.82788
-489.29675 166.20547 -443.29803
-376.44577 -2064.1785 130.17505
-61.102356 585.38379 -97.597687
72.469383 -880.96478 399.13016
599.23383 388.97653 590.30084
282.09534 1934.1392 293.06055
-275.19965 -1187.6663 114.70333
