# .PCD v0.7 - Point Cloud Data file format
VERSION 0.7
FIELDS x y z normal_x normal_y normal_z curvature
SIZE 4 4 4 4 4 4 4
TYPE F F F F F F F
COUNT 1 1 1 1 1 1 1
WIDTH 576
HEIGHT 1
VIEWPOINT 0 0 0 1 0 0 0
POINTS 576
DATA ascii
0.015779037 -0.1427415 0.10155094 -0.035418477 0.43725404 -0.89864039 8.4480183e-05
0.027942104 -0.1430863 0.10078666 -0.045346256 0.44234911 -0.89569581 1.6065187e-05
0.030367732 -0.14206035 0.10116035 -0.047446262 0.44328707 -0.89512312 1.2492153e-05
0.044222198 -0.14181191 0.10051256 -0.052644186 0.44438076 -0.89428985 2.1383228e-05
0.056413602 -0.14090869 0.10018833 -0.062976703 0.44379386 -0.89391327 2.5660887e-05
-0.11298818 -0.13130054 0.10025369 0.21507598 0.45480183 -0.86423236 0.0099668289
-0.103614 -0.13263252 0.10032707 0.10982849 0.4573766 -0.88246495 0.00085170392
-0.090759277 -0.13534267 0.10005527 0.086307354 0.45080224 -0.88844156 0.00023453738
-0.084544212 -0.1320301 0.10226204 0.075359479 0.44704786 -0.89133 1.7561468e-05
-0.075362183 -0.13565855 0.1012314 0.07580886 0.44553313 -0.89205003 0
-0.057261422 -0.13519925 0.1029492 0.063949898 0.44303206 -0.89422196 3.3446973e-05
-0.04432258 -0.13911897 0.10184216 0.05324959 0.44270435 -0.8950851 1.0361701e-05
-0.032711219 -0.13471194 0.10466009 0.046162758 0.43925008 -0.89717799 1.4538859e-05
-0.021424172 -0.13792366 0.10362437 0.038153999 0.43715695 -0.8985756 3.4227403e-05
-0.017447669 -0.13782591 0.10383581 0.037322298 0.43679667 -0.89878571 3.4780929e-05
-0.0077438578 -0.13135085 0.10733825 0.018713281 0.43465081 -0.90040457 0.00016601254
0.0012179906 -0.13301206 0.10681289 -0.0023531411 0.43000367 -0.90282404 0.00024551593
0.017150315 -0.13349034 0.1059243 -0.033491381 0.43640742 -0.89912564 5.4755885e-05
0.024556931 -0.13415895 0.10529749 -0.040074289 0.43829122 -0.89793921 3.0344027e-05
0.037446886 -0.13511449 0.10421028 -0.04888086 0.44023782 -0.8965497 2.4975947e-05
0.044579379 -0.13417113 0.10428109 -0.053129394 0.44266385 -0.89511234 2.7247586e-05
0.058057141 -0.13345319 0.10374954 -0.06573236 0.44381157 -0.89370608 2.6552947e-05
0.060584541 -0.13460307 0.10297232 -0.068702966 0.44321817 -0.89377713 2.0364807e-05
0.07497967 -0.13422567 0.10197148 -0.075593606 0.4456211 -0.89202434 9.942727e-06
0.084954724 -0.13452877 0.10097364 -0.076727085 0.44698632 -0.89124423 1.0698433e-05
0.093976356 -0.13357209 0.10066107 -0.087461106 0.4522481 -0.88759345 0.00022520116
0.10231365 -0.13160133 0.10094739 -0.10813019 0.46284693 -0.87981856 0.00063858333
-0.11782949 -0.12562987 0.10245973 0.32843047 0.44668463 -0.83222973 0.018729076
-0.10202149 -0.12886216 0.10234499 0.096698202 0.45403254 -0.88572228 0.00036581955
-0.085030653 -0.12384754 0.1062931 0.074155204 0.44871774 -0.89059162 1.140991e-06
-0.076299287 -0.12433087 0.10677627 0.07442303 0.448621 -0.89061797 1.3758113e-05
-0.064488992 -0.12350905 0.10815192 0.065621145 0.44826654 -0.89148808 4.1901589e-05
-0.058563251 -0.12518989 0.10780448 0.063374303 0.44723395 -0.89216906 3.2063759e-05
-0.044890136 -0.1244577 0.10907018 0.049341775 0.44393882 -0.89469761 2.2018057e-05
-0.032957613 -0.12625143 0.10873643 0.04218211 0.4420166 -0.89601451 2.7280383e-05
-0.027416728 -0.12630606 0.10893966 0.037767414 0.43953088 -0.89743316 2.7855709e-05
-0.0037078348 -0.12799054 0.10911448 0.0043468643 0.43447307 -0.90067434 0.00023227648
0.0054401774 -0.12723154 0.10940624 -0.0094572362 0.43663105 -0.89959091 0.00014871312
0.014689889 -0.12712803 0.10907289 -0.031078601 0.43687922 -0.89898312 5.1450417e-05
0.026141861 -0.12814508 0.10811177 -0.0375368 0.44091231 -0.89676493 1.5959404e-05
0.038366064 -0.12684304 0.10822924 -0.047494333 0.44210711 -0.89570397 3.4262113e-05
0.046109956 -0.1258453 0.108324 -0.052435145 0.44314811 -0.89491355 4.771127e-05
0.055839241 -0.12253983 0.10934153 -0.061504915 0.44552058 -0.89315647 4.5231831e-05
0.065958239 -0.12646061 0.10656828 -0.069190241 0.44734621 -0.89168048 3.3490443e-05
0.07481727 -0.12066716 0.10871401 -0.073077887 0.45008534 -0.88999033 2.5803898e-05
0.086493239 -0.12587361 0.1051697 -0.075740695 0.44936508 -0.89013165 1.2932673e-05
0.095235348 -0.12505573 0.10482393 -0.080285192 0.45278093 -0.88799977 0.00010762214
0.1049491 -0.12359642 0.10475561 -0.092457555 0.4617286 -0.88218945 0.00039162519
0.11679682 -0.12950093 0.10050095 -0.31070858 0.42835984 -0.84850931 0.014584191
0.12607978 -0.12090605 0.10335479 -0.483179 0.3904736 -0.78362513 0.036070876
-0.13385472 -0.11316206 0.10376728 0.73873848 0.27480498 -0.61542493 0.032324381
-0.12574291 -0.11299744 0.10798605 0.50270832 0.36719874 -0.78259146 0.027918154
-0.11470754 -0.11849941 0.10654107 0.25467268 0.4184981 -0.87178046 0.015426113
-0.10129997 -0.11863129 0.10753579 0.085276306 0.45380792 -0.8870098 0.00015905478
-0.085079484 -0.11835352 0.10901964 0.07350529 0.45110792 -0.88943732 1.3272374e-05
-0.078897178 -0.11820567 0.10959977 0.073056102 0.45172018 -0.88916349 2.1467227e-05
0.082095526 -0.11687484 0.1099973 -0.073882647 0.45329666 -0.88829243 1.6448383e-05
0.098922484 -0.11455227 0.1097737 -0.082073405 0.45263728 -0.88790953 6.8341491e-05
0.10457171 -0.11936464 0.10690893 -0.088470593 0.45592555 -0.88560987 0.00025512138
0.11373317 -0.11716782 0.10728636 -0.2529107 0.40433356 -0.87894857 0.015046674
0.12156204 -0.11597496 0.10723054 -0.37537938 0.39053634 -0.8405782 0.029164242
0.13432927 -0.11441226 0.10164146 -0.75727844 0.23246568 -0.61031878 0.02660848
-0.13278124 -0.10451838 0.10443071 0.80441856 0.20505875 -0.55754977 0.027910711
-0.12940258 -0.10645281 0.10623626 0.67146802 0.2741594 -0.6884529 0.034139257
0.12946427 -0.10049769 0.10239813 -0.82428968 0.16556117 -0.5414204 0.026584813
0.13329424 -0.10643037 0.10387872 -0.74691033 0.27523258 -0.60528672 0.024343144
-0.13217746 -0.091462471 0.10556078 0.86305648 0.097912394 -0.49552673 0.022993015
-0.12827745 -0.094578542 0.10558286 0.77186131 0.1907897 -0.60648948 0.045656539
0.12915766 -0.096751213 0.10323955 -0.79625118 0.17045963 -0.58045459 0.038260143
0.13296498 -0.094834432 0.10416281 -0.85534132 0.13470943 -0.50024456 0.026831241
-0.13283786 -0.08978726 0.10434571 0.8696937 0.10261994 -0.48280638 0.023532564
0.13334408 -0.084484808 0.10313188 -0.89977694 0.043798227 -0.43414643 0.014682264
-0.13122509 -0.077247374 0.10889714 0.88373131 0.086425483 -0.45994529 0.020282431
0.13248651 -0.075331211 0.10560997 -0.89611995 0.053164762 -0.44061616 0.015020447
-0.13207573 -0.064836115 0.10693951 0.92297345 0.0049667107 -0.38483155 0.0034993996
0.13268755 -0.064490996 0.10533132 -0.90766472 -0.016825553 -0.41935873 0.0059666797
-0.13303381 -0.053608797 0.1046726 0.93171787 0.002327749 -0.36317551 0.00015315536
0.13402635 -0.054606948 0.1020255 -0.92629093 -0.0020268124 -0.37680373 0.0013828221
-0.13356842 -0.044498764 0.10347415 0.92996049 0.0092773791 -0.36754245 0.00011792637
0.13265437 -0.046610959 0.10583524 -0.92289555 0.011580645 -0.38487622 0.0013779667
-0.13333648 -0.035934422 0.10428815 0.93068135 0.013079933 -0.3655968 0.00018864174
0.13294755 -0.032387666 0.10538818 -0.92627019 0.020331562 -0.37631136 0.0011287294
-0.1324179 -0.022167988 0.10702911 0.93137097 0.0072014323 -0.36400029 0.00010400957
0.13277946 -0.027010145 0.10592671 -0.9278267 0.020577937 -0.37244353 0.0010225957
-0.13354033 -0.016249191 0.10420987 0.93057036 0.0068223737 -0.36604938 8.1499718e-05
-0.13296439 -0.001876674 0.10593031 0.93297505 -0.0092169037 -0.35982296 0.0023015125
0.13310863 -0.0046128244 0.10555685 -0.92945164 -0.030619007 -0.36767122 0.0019580014
-0.13314688 0.0056514251 0.10556357 0.93178833 -0.011902163 -0.36280677 0.0035059892
0.13301699 0.0053351056 0.10582978 -0.92207515 -0.034696847 -0.38545245 0.0031341161
-0.13274564 0.013923995 0.10417302 0.9344793 -0.012862044 -0.35578525 0.0045836996
-0.12922952 0.015849972 0.10530934 0.93421584 -0.012230968 -0.35649854 0.0042928983
0.12842631 0.01624392 0.10892865 -0.92804694 -0.015929298 -0.37212253 0.0040617599
0.13294172 0.016203411 0.1049796 -0.92433655 -0.031124268 -0.38030675 0.0048492504
-0.13385122 0.023321543 0.10514051 0.92936295 -0.0010417113 -0.3691659 0.0046287137
0.12832296 0.02150977 0.10738727 -0.9306289 -0.015361491 -0.36564162 0.0042390032
0.13288502 0.025152884 0.10622474 -0.92634559 0.0010276819 -0.3766734 0.0046159974
-0.13346784 0.036175981 0.10449216 0.92832059 0.0222129 -0.37111646 0.0044358335
-0.1285511 0.034551267 0.10779236 0.93189222 0.015061949 -0.3624225 0.0044390368
0.1292266 0.034662083 0.10621926 -0.92712671 0.025078796 -0.37390777 0.0044052768
0.13338195 0.034994185 0.10276391 -0.92010832 0.036714476 -0.38993946 0.0050233854
-0.13283531 0.045284405 0.10654769 0.92380077 0.0045195986 -0.38284683 0.003573426
0.13213103 0.048441954 0.10809807 -0.92579401 0.020755177 -0.37745813 0.0024576006
-0.13319881 0.053717684 0.10536405 0.92786837 -0.0014557056 -0.37290496 0.001762001
-0.13342269 0.064895667 0.10417008 0.92490017 -0.012266909 -0.38001212 0.0001788214
0.13402131 0.068834014 0.10249475 -0.92279929 -0.023898087 -0.38453913 0.00025390682
-0.13291338 0.076230451 0.1048581 0.92742825 -0.017715225 -0.37358129 4.7374091e-05
0.13303246 0.07201764 0.1047236 -0.92324281 -0.02383968 -0.3834767 0.00037472363
-0.13215466 0.084738433 0.1062784 0.92711395 -0.019904902 -0.37425053 7.6087541e-05
0.13186571 0.084595561 0.10697522 -0.9250083 -0.030145913 -0.3787491 0.00052265706
-0.13170525 0.099547826 0.10663724 0.92731309 -0.024124203 -0.37350842 0.00033547526
0.13253716 0.091839597 0.1049883 -0.92327046 -0.025724603 -0.38328826 0.00042915196
-0.13227785 0.1029503 0.10515594 0.92824006 -0.021392612 -0.37136599 0.00041286755
0.13399041 0.10348544 0.10076201 -0.9192031 -0.019895542 -0.3932808 0.00026943084
-0.13088749 0.11916991 0.10757884 0.92683214 -0.042435985 -0.3730703 0.0012763034
0.13296092 0.11677825 0.10267064 -0.92464399 -0.0057266173 -0.38078964 0.00052214251
-0.13196532 0.1231879 0.10480558 0.92454207 -0.037028309 -0.37927687 0.0012774614
0.13188091 0.12431472 0.10497548 -0.92546123 -0.028582117 -0.37776262 0.0014997998
-0.13188031 0.13675135 0.10434087 0.92643762 -0.031567931 -0.37512246 0.0020923782
0.13200936 0.13686582 0.10398802 -0.93304557 -0.040639997 -0.3574554 0.0032278937
-0.1323458 0.14409366 0.10331951 0.92468411 -0.014788096 -0.38044775 0.0027201767
-0.12848842 0.1470266 0.10269616 0.92501086 -0.013682634 -0.37969404 0.0029154371
0.1282001 0.14704528 0.10334708 -0.93722439 -0.028004613 -0.3476007 0.0032873938
0.1325195 0.14598809 0.10471695 -0.93348008 -0.027897552 -0.35754251 0.0030237078
-0.13291943 0.15552787 0.10313964 0.93264985 -0.0013828082 -0.36078012 0.0033292018
-0.12792753 0.15411711 0.1070516 0.92679369 0.0018804274 -0.37556607 0.0021630148
0.12964869 0.15572086 0.1000468 -0.9398436 -0.0089859646 -0.34148684 0.0044105495
0.13267635 0.15688382 0.10214224 -0.93942553 -0.0047191409 -0.34272054 0.003702723
-0.12991807 0.16189592 0.10750972 0.92361903 0.0046859137 -0.38328302 0.00239455
0.12877288 0.16583684 0.10930693 -0.93141526 0.0071128015 -0.36388871 0.0033921679
0.13096716 0.16841233 0.10383236 -0.93324035 0.017587896 -0.35882187 0.0030066045
-0.13082993 0.17745785 0.10399703 0.92996824 0.0057857698 -0.36759439 0.0011224729
0.12849797 0.17176512 0.10885686 -0.92291129 0.0090437559 -0.3849065 0.0035014774
0.13159779 0.17884395 0.10235511 -0.93280232 0.0071160528 -0.36031821 0.0014112887
-0.13165417 0.18146268 0.10452344 0.92883706 0.0033330061 -0.37047344 0.0010593554
-0.12942848 0.18761094 0.10969681 0.8984428 -0.027006298 -0.43825918 0.0041392902
0.1294008 0.18916678 0.10969014 -0.90875894 -0.015635887 -0.41702852 0.0025571436
0.1303907 0.18280537 0.10715644 -0.92287368 0.0025613355 -0.38509417 0.0026283821
-0.13180038 0.1943932 0.10375762 0.9260568 -0.00089935045 -0.37738302 0.00067251473
0.1320387 0.19445495 0.1031528 -0.92460114 0.0026589402 -0.38092741 0.00057898002
-0.13056093 0.20770049 0.10621399 0.9026013 -0.01727397 -0.43013057 0.0029389644
0.12895215 0.20676121 0.1098739 -0.88574743 -0.015551803 -0.46390691 0.0049094833
-0.13101929 0.21813747 0.10452791 0.9010607 -0.022218155 -0.43312347 0.0025413381
-0.12992013 0.21101652 0.10766442 0.8913542 -0.018171499 -0.45294306 0.0045620142
0.12899126 0.21640341 0.10942837 -0.89449221 -0.025212202 -0.44637209 0.0036030172
0.13114455 0.2181167 0.10421273 -0.91728795 -0.023263328 -0.39754432 0.00031771502
-0.13070199 0.22335646 0.10505953 0.90966588 -0.030377218 -0.41422844 0.001096315
-0.1291188 0.22951677 0.10867981 0.85957646 -0.058351751 -0.50766456 0.010559937
0.12898532 0.22612807 0.10906602 -0.88551742 -0.050185692 -0.4618876 0.0048280759
0.13131659 0.22645245 0.10333199 -0.90877879 -0.044455744 -0.41490343 0.0021946619
-0.13049695 0.23520574 0.10424212 0.88717985 -0.065082036 -0.45681092 0.0048992201
0.12850414 0.2341958 0.10933311 -0.85856992 -0.080782786 -0.50629222 0.0091772722
0.13148099 0.23370838 0.102322 -0.9025231 -0.069906808 -0.42492941 0.0028806829
0.12904143 0.24344525 0.1060309 -0.87718695 -0.11269119 -0.4667373 0.0040676659
-0.12819964 0.25349954 0.10585348 0.82682782 -0.16966106 -0.53625643 0.016427988
0.1288521 0.25398472 0.1041894 -0.83356845 -0.1618719 -0.52816767 0.012449997
0.13030484 0.25309706 0.10091196 -0.87083513 -0.1396658 -0.4713169 0.0058840057
-0.12918265 0.26195207 0.10160774 0.81311023 -0.22377592 -0.53737891 0.023019303
0.12882043 0.26537046 0.10165624 -0.78133327 -0.23361744 -0.57874107 0.025087714
-0.12566166 0.27418616 0.10331284 0.65056384 -0.37428847 -0.66081381 0.027803035
-0.1151564 0.27466625 0.10903932 0.43260822 -0.48542026 -0.75974822 0.020454114
-0.10860564 0.27773386 0.10849546 0.34671625 -0.54294437 -0.7648524 0.015329425
0.10647708 0.27663627 0.10973255 -0.27215129 -0.55162865 -0.78844124 0.0068358607
0.11786176 0.27672774 0.10648189 -0.54711986 -0.42568699 -0.72072905 0.025543017
0.12521 0.27475449 0.10320517 -0.62815434 -0.37352461 -0.68256968 0.032953531
-0.11429504 0.28260499 0.10365437 0.42791948 -0.48931846 -0.75990289 0.021231325
-0.10378814 0.28602803 0.10328568 0.21042992 -0.58674377 -0.78195333 0.0032020372
-0.096237183 0.28491724 0.10552477 0.15223892 -0.60100019 -0.78461587 0.00019257952
-0.084259771 0.28539965 0.1071557 0.13169514 -0.60599738 -0.78448933 0.00010916032
-0.059256282 0.28816816 0.10893311 0.1074395 -0.60152537 -0.79159582 0.00021224318
-0.046866234 0.2893182 0.10965726 0.083452739 -0.60205758 -0.79407954 0.00023231807
0.066169128 0.28797764 0.1080985 -0.11908707 -0.60375249 -0.7882266 0.00017841894
0.077381894 0.28579435 0.1081918 -0.13059153 -0.60345274 -0.78663254 0.00013235054
0.085045248 0.2834999 0.10852821 -0.13502857 -0.60498112 -0.78470707 7.9007688e-05
0.097847678 0.28678569 0.10379319 -0.16403851 -0.594787 -0.78696877 0.00085305929
0.10446183 0.28869671 0.1011999 -0.20701483 -0.58792418 -0.78197825 0.0034413878
0.11481229 0.28503069 0.10170016 -0.41292056 -0.51438838 -0.75159919 0.021264469
-0.081806056 0.2920582 0.10259363 0.13550177 -0.60015678 -0.78832161 0.00013140502
-0.078952573 0.29290727 0.10262401 0.13435376 -0.59754652 -0.79049808 0.00015746574
-0.063706301 0.29128817 0.10592189 0.11210132 -0.60058802 -0.79166114 0.00017903172
-0.055418409 0.29517758 0.10457238 0.10283372 -0.58819544 -0.80215418 0.00016197037
-0.047027059 0.29210365 0.10760195 0.083554968 -0.59760666 -0.7974239 0.00021926028
-0.034528073 0.29610699 0.10564768 0.069793053 -0.58884692 -0.80522555 8.6421525e-05
-0.024023455 0.29772192 0.10545089 0.054375295 -0.58600843 -0.80847842 0.00010371499
-0.013207671 0.29355529 0.10911053 0.028285451 -0.59455216 -0.80355942 0.0003535483
-0.0031416423 0.29577264 0.10804953 0.0029451365 -0.59509724 -0.80364835 0.00036933078
0.0049690921 0.29665858 0.10731723 -0.0056954282 -0.5949263 -0.80376011 0.00037844066
0.015818544 0.29679659 0.10665161 -0.037674408 -0.5934152 -0.80401438 0.00035445616
0.024967104 0.29444814 0.10771859 -0.055995084 -0.59273374 -0.80344957 0.00017148112
0.035231218 0.29396769 0.10716128 -0.070066206 -0.593907 -0.8014769 0.0001672244
0.045149073 0.29365721 0.10661018 -0.081597142 -0.59474331 -0.79976392 0.00023273635
0.05517564 0.29571623 0.104187 -0.10024849 -0.59550512 -0.79707199 0.00026394185
0.064679213 0.29262832 0.10478628 -0.11276577 -0.59884852 -0.79288352 0.00025841291
0.0731664 0.29049575 0.10523866 -0.1232856 -0.60276681 -0.78833544 0.00021900458
0.085958146 0.2932511 0.1007411 -0.13907367 -0.60102546 -0.78703684 9.8826364e-05
-0.043654315 0.30219772 0.10046445 0.083533838 -0.58380365 -0.80758613 0.00014015434
-0.036286335 0.30035996 0.10239071 0.073425397 -0.58254325 -0.80947638 6.4459884e-05
-0.020404259 0.30067709 0.10365236 0.052516624 -0.58042347 -0.81261957 0.0001201549
-0.015668795 0.30385846 0.10159747 0.043165661 -0.58265758 -0.81157058 0.00016979207
-0.0075827837 0.30346364 0.1022945 0.024052249 -0.58223403 -0.81266546 0.00024421103
0.0047660102 0.30419058 0.10192122 -0.0058102333 -0.58159983 -0.81345427 0.00023513884
0.017311268 0.30308962 0.10206538 -0.049137279 -0.58208752 -0.81164014 0.00012507023
0.023835653 0.30342415 0.10142314 -0.059624705 -0.58108008 -0.81165934 8.8056433e-05
0.037653618 0.30076712 0.10198478 -0.073497266 -0.58286703 -0.80923671 5.6524343e-05
0.044371035 0.302131 0.10045707 -0.082152985 -0.58271772 -0.80851156 0.00011194987
-0.040186595 -0.12294745 0.11001936 0.047465656 0.44337219 -0.89507997 2.9804865e-05
-0.037508596 -0.12193214 0.11061642 0.047481906 0.44351459 -0.8950085 2.8799059e-05
-0.0040428499 -0.12190848 0.11201315 0.010387966 0.43233553 -0.90165293 0.0001592698
0.041750152 -0.12107547 0.11085107 -0.046801858 0.44303268 -0.89528298 2.3480792e-05
-0.074753612 -0.11688863 0.11059256 0.070557989 0.45206672 -0.88918912 3.8207047e-05
-0.062149327 -0.11325068 0.11352792 0.062232379 0.45354056 -0.8890602 4.8359263e-05
-0.056100555 -0.11367963 0.11377975 0.058934886 0.45298761 -0.88956666 6.1048893e-05
-0.045311373 -0.11491239 0.11374197 0.048092175 0.44800067 -0.89273882 6.2880288e-05
-0.037023667 -0.11786412 0.11259653 0.044628773 0.44564143 -0.8940984 3.9337392e-05
-0.025631353 -0.11482571 0.11459194 0.033494245 0.44094059 -0.89691114 2.8949267e-05
-0.016054127 -0.11383019 0.1155076 0.025734294 0.43824393 -0.89848763 6.8957874e-05
-0.0041793291 -0.11548789 0.11512684 0.0062171207 0.43723518 -0.89932573 0.0001395406
0.0064648432 -0.113997 0.11577896 -0.011790494 0.43578061 -0.89997572 6.6316832e-05
0.013580188 -0.11508176 0.11497463 -0.020878702 0.4371261 -0.89915782 0.00011058832
0.020205652 -0.11410477 0.11519129 -0.030560581 0.44052532 -0.89721984 4.3846143e-05
0.037690204 -0.11276007 0.11514623 -0.043164633 0.44617167 -0.89390582 2.1732114e-05
0.047088031 -0.115986 0.11313353 -0.050023537 0.44619811 -0.89353508 5.3524211e-05
0.05811552 -0.11296448 0.11400221 -0.061983671 0.44985557 -0.89094788 6.1626022e-05
0.063221365 -0.11915418 0.11041471 -0.0646348 0.45012429 -0.89062369 5.8405116e-05
0.078595065 -0.11241264 0.11259533 -0.073168345 0.45430145 -0.88783818 1.9208848e-05
0.087490812 -0.11307368 0.1115068 -0.074498311 0.45364538 -0.88806295 1.8056504e-05
0.094765514 -0.11228603 0.11131255 -0.077448539 0.45368484 -0.88779044 2.0434742e-05
0.11666514 -0.11062452 0.11031173 -0.2741625 0.42424703 -0.86304665 0.015108938
-0.12167106 -0.10443873 0.11293576 0.40240508 0.34751779 -0.84693652 0.022006266
-0.11455949 -0.10479796 0.11335824 0.33412802 0.38700595 -0.85940957 0.017195774
-0.10452744 -0.10288921 0.11520975 0.14144701 0.43989342 -0.8868407 0.0070351986
-0.095748186 -0.10467267 0.11523563 0.078444444 0.45368877 -0.88770092 3.3653334e-05
-0.082457915 -0.10801103 0.11459456 0.073671162 0.45474222 -0.88757092 2.1718939e-05
-0.075084396 -0.10326577 0.1176919 0.069510251 0.45098653 -0.88981992 4.460723e-05
-0.066081226 -0.10066317 0.11972731 0.061680928 0.44405109 -0.89387584 0.00013253599
-0.057551224 -0.10561749 0.11782429 0.057870355 0.45019931 -0.89105088 4.516399e-05
-0.047299247 -0.10673811 0.11783838 0.046443477 0.44664127 -0.89350682 4.285885e-05
-0.039415464 -0.10724278 0.11791098 0.039055444 0.44635203 -0.89400476 3.0162451e-05
-0.027492698 -0.10772909 0.11816317 0.032064348 0.44404599 -0.89543003 2.5984775e-05
-0.012161287 -0.10715267 0.11896592 0.021137092 0.43721223 -0.89910996 6.0662467e-05
0.019955743 -0.10697394 0.11886541 -0.02754613 0.43910187 -0.8980149 3.3927594e-05
0.028510347 -0.10409184 0.11999086 -0.032601241 0.43851605 -0.89813185 6.3402535e-05
0.037433092 -0.10684922 0.11819688 -0.040777437 0.44444424 -0.89487791 4.3504595e-05
0.056454942 -0.10538836 0.11802514 -0.056731559 0.44947883 -0.89148772 4.8301245e-05
0.063749008 -0.10459604 0.1178807 -0.060145617 0.44918007 -0.89141452 6.0275015e-05
0.073807001 -0.10420114 0.11730489 -0.071916945 0.45041707 -0.88991708 7.351175e-05
0.088080175 -0.10362964 0.11643678 -0.075791083 0.44751808 -0.89105731 9.0519032e-05
0.094108224 -0.10408539 0.11569504 -0.079974875 0.44698113 -0.89096123 7.5980839e-05
0.10025599 -0.1099737 0.11201571 -0.081834532 0.45380318 -0.88733637 5.4755797e-05
0.1258001 -0.10525686 0.11192816 -0.48372024 0.37566626 -0.79049957 0.041938066
-0.13223141 -0.092207804 0.11060685 0.79251033 0.16890961 -0.58600092 0.036904424
-0.12530296 -0.09404514 0.11677412 0.63135689 0.27361608 -0.72561884 0.043476284
-0.11306608 -0.096379049 0.11767343 0.34406316 0.36529243 -0.86497515 0.023120524
-0.10547099 -0.096855603 0.11825974 0.20675515 0.39483455 -0.89518595 0.010335309
0.074346446 -0.099518463 0.11969066 -0.076481365 0.44176996 -0.89386237 0.00019450631
0.095266305 -0.097272322 0.11919063 -0.077824861 0.43568686 -0.89672756 0.00026427626
0.10412648 -0.095854566 0.11896065 -0.17363524 0.41339648 -0.89384234 0.0080097541
0.11576661 -0.095376797 0.11792877 -0.34850442 0.39684582 -0.84915137 0.025684275
0.12849505 -0.092875794 0.11376791 -0.65425599 0.2110341 -0.72623253 0.04036868
0.13141474 -0.09869644 0.11141068 -0.67661166 0.22750084 -0.70031416 0.042186886
-0.13060305 -0.085924767 0.11398509 0.78339243 0.1597712 -0.60064095 0.035740148
-0.12883803 -0.084380679 0.11446282 0.74570227 0.19974829 -0.63563251 0.043545231
0.1283486 -0.084130824 0.11668669 -0.67653275 0.18726029 -0.71220577 0.040462587
0.13105416 -0.085220292 0.11356292 -0.74084961 0.18839863 -0.64470744 0.041549344
-0.13049051 -0.076399043 0.11190355 0.85717326 0.093231432 -0.50651932 0.024277473
-0.12778853 -0.077214397 0.1176743 0.77545172 0.17866358 -0.6056022 0.039534278
0.12739491 -0.075441569 0.11687093 -0.71196645 0.13692901 -0.68873376 0.042532831
0.13066047 -0.078769527 0.11035269 -0.86463815 0.043693185 -0.50049162 0.018461104
-0.13042355 -0.06703385 0.11125195 0.89599669 0.030707449 -0.44299763 0.012821567
-0.12772822 -0.06555818 0.11717161 0.82068098 0.053004708 -0.56892288 0.024662649
0.12651722 -0.063739493 0.11739098 -0.79328156 0.062805131 -0.60560715 0.031251937
-0.12601486 -0.057012308 0.119223 0.80881774 0.045078151 -0.58632916 0.027874358
0.12647498 -0.05504312 0.11666574 -0.82301861 0.046515059 -0.56610662 0.024309715
0.13072218 -0.058568154 0.11066005 -0.88999826 0.0041411277 -0.45594522 0.009442009
-0.12829849 -0.044445876 0.11647402 0.87014866 0.022085199 -0.49229419 0.016195504
0.12261039 -0.045183297 0.11981586 -0.80510551 0.086598553 -0.58677578 0.024511466
-0.13034359 -0.036508426 0.11182017 0.9273715 0.014306818 -0.37386808 0.00082724105
-0.12690067 -0.036528707 0.11979511 0.86584389 0.036756407 -0.49896228 0.018943759
0.12838194 -0.036588944 0.11636067 -0.90249711 0.04017549 -0.42881808 0.0048659751
-0.12821326 -0.022078022 0.1169142 0.89268565 0.013020587 -0.45049176 0.010606628
0.12806457 -0.026184015 0.11721089 -0.90605181 0.031226026 -0.42201301 0.0040395102
0.13003708 -0.022553273 0.11267434 -0.91315919 0.02001732 -0.40711141 0.0030875795
-0.13048989 -0.018247532 0.11167061 0.92751658 0.0073454306 -0.37370989 0.00065355602
-0.12874821 -0.01697655 0.11573021 0.91086859 0.019984353 -0.41221237 0.0048208488
0.12886132 -0.016823456 0.11546811 -0.91322774 0.03300726 -0.40611047 0.0038091619
-0.13114035 -0.0050234944 0.11030047 0.93278807 -0.016528217 -0.36004609 0.0017996032
-0.12810987 -0.0054861684 0.11736526 0.91457325 -0.019858662 -0.40393242 0.0053335349
0.12896675 -0.0036216655 0.11538851 -0.90894926 -0.026121989 -0.4160876 0.0065504564
0.13048463 -0.0051405826 0.11182773 -0.92601234 -0.03536769 -0.37583283 0.0026808844
-0.12837946 0.0042164656 0.11686557 0.91303366 -0.0067456258 -0.40782839 0.005260163
0.12824272 0.0067548803 0.11721921 -0.90644437 -0.040812228 -0.42034861 0.0076535293
0.13098203 0.005236547 0.11079831 -0.93067878 -0.050590478 -0.36232272 0.0022894633
-0.13237941 0.016780663 0.11004528 0.93341917 -0.0095782746 -0.35866007 0.0036691604
0.12380259 0.018705346 0.11800199 -0.87940001 -0.0088419179 -0.4760015 0.016297294
-0.13064288 0.026193881 0.11406749 0.92727917 -0.0038204002 -0.37435091 0.0051171826
-0.12714458 0.023475159 0.11324243 0.9225052 -0.0071289423 -0.38591871 0.0060907025
0.12753201 0.023281053 0.11582204 -0.91208953 -0.007395437 -0.40992442 0.005992169
-0.13123512 0.033457082 0.11232147 0.93378586 0.011904849 -0.35763428 0.0042867325
-0.12864465 0.03505706 0.11850603 0.90150404 0.010404164 -0.43264562 0.010331719
0.12726903 0.036410611 0.11531731 -0.91058105 0.031178607 -0.41215307 0.0055337949
-0.13040814 0.040506221 0.11127406 0.92941976 0.0024826776 -0.36901599 0.0033268579
-0.12676848 0.042664815 0.11749525 0.90948147 0.001525162 -0.41574165 0.005426907
0.12853537 0.04363662 0.11714315 -0.91875625 0.034815263 -0.39328709 0.0041445759
0.13010447 0.040401634 0.11510761 -0.91333556 0.033787638 -0.40580356 0.0048064892
-0.13001272 0.056799844 0.1125834 0.91989708 -0.0022120711 -0.39215362 0.002412762
-0.12928917 0.055576921 0.11430772 0.90827441 0.00012135039 -0.41837487 0.0037465931
0.12845552 0.052858539 0.11634751 -0.91987187 0.01826329 -0.39179346 0.0028096454
-0.1285961 0.066138074 0.11539678 0.9011119 -0.0038282052 -0.43356967 0.0043398459
0.12926508 0.069413722 0.11369002 -0.91943032 -0.033954658 -0.39178425 0.0014649137
-0.13005994 0.078408584 0.11143851 0.92792869 -0.018448086 -0.37230092 0.00012693668
-0.12833495 0.071809813 0.11572597 0.91297108 -0.0066015413 -0.40797079 0.0024875845
0.12847945 0.072373196 0.11534625 -0.91760904 -0.032620866 -0.39614338 0.0020959931
0.13025871 0.077060081 0.11103595 -0.92552459 -0.023483552 -0.37795871 0.00066552835
-0.12893628 0.083069324 0.11380178 0.92029482 -0.015597671 -0.3909145 0.001479311
-0.12950127 0.097244784 0.1118214 0.92668611 -0.019434607 -0.3753334 0.0004756327
0.12669237 0.094126306 0.11561567 -0.90284866 -0.023338338 -0.42932457 0.0060486579
-0.12647755 0.1065696 0.11714344 0.90081471 -0.030037409 -0.43316355 0.0080773793
0.12717333 0.10427199 0.11633775 -0.90027994 -0.021801719 -0.43476516 0.0066231973
-0.12693374 0.11458436 0.11572778 0.91846043 -0.030383177 -0.39434409 0.0021294972
0.12676729 0.11623538 0.11531681 -0.90547436 -0.007954807 -0.4243263 0.0066567669
-0.1253828 0.12480669 0.11686979 0.917826 -0.029192638 -0.39590806 0.0031050376
0.12673257 0.12482134 0.1154258 -0.91947049 -0.018286215 -0.39273348 0.0030977449
-0.12471134 0.13546167 0.11702945 0.90900117 -0.054257806 -0.41324678 0.0055022212
0.12555921 0.13509855 0.1177175 -0.89672798 -0.041340824 -0.44064721 0.012920273
-0.12644684 0.14447352 0.11517391 0.91029024 -0.019146858 -0.4135277 0.0058142492
0.12391054 0.14450721 0.11844026 -0.86560696 -0.039357293 -0.49917483 0.020254327
-0.12498897 0.15242565 0.11668779 0.88562924 -0.017270703 -0.46407175 0.013741014
0.12716797 0.15459879 0.11665229 -0.90831178 -0.018893039 -0.41786698 0.010147825
-0.1271487 0.16537397 0.11693689 0.88032669 0.0057519414 -0.47433308 0.013347672
0.12659551 0.16685249 0.11727689 -0.9180339 0.0028825293 -0.39649147 0.0048808688
-0.12741277 0.1766362 0.11492364 0.87847865 -0.033549387 -0.47660229 0.012901108
0.12659582 0.17335607 0.11614119 -0.91231078 0.0074870288 -0.40943018 0.0049182628
-0.12537235 0.18971305 0.11839889 0.82880229 -0.082643382 -0.55340475 0.015007942
0.12882082 0.18525375 0.11104807 -0.91266435 -0.021177821 -0.40816078 0.0023814579
-0.12735474 0.19128431 0.11371205 0.86217022 -0.052658498 -0.5038746 0.013590318
0.12619933 0.19628161 0.11568916 -0.84909827 -0.04486239 -0.52632636 0.012642657
-0.12665187 0.2014032 0.11448883 0.84127665 -0.03492317 -0.53947562 0.012287238
0.1258634 0.20490409 0.11586566 -0.83998269 -0.018736986 -0.54228967 0.012403121
-0.12568556 0.21658094 0.1157577 0.7881878 -0.049600448 -0.61343288 0.015051299
0.12808895 0.21684533 0.11114088 -0.87885141 -0.025609871 -0.47640771 0.0056523755
-0.1268418 0.22572368 0.11317101 0.82554227 -0.071833856 -0.55974978 0.015540409
0.12757 0.22262248 0.11191358 -0.86299372 -0.07063964 -0.50025189 0.0087844087
-0.12576807 0.23157611 0.11477762 0.79264611 -0.093669869 -0.60244352 0.015663221
0.12616423 0.23546582 0.11375109 -0.79686862 -0.11378852 -0.5933401 0.014779658
-0.12551649 0.2469728 0.11352804 0.75134319 -0.19227515 -0.63127941 0.016114492
0.12295483 0.24290571 0.11920724 -0.71153206 -0.14408618 -0.68772191 0.018947894
-0.12399592 0.25558978 0.11484894 0.65515161 -0.27547988 -0.70348209 0.02106262
0.11748201 0.2565977 0.11907136 -0.518498 -0.34120107 -0.7840547 0.020791842
0.12420032 0.25384977 0.11520038 -0.67719018 -0.25942829 -0.68855679 0.022565896
-0.12289082 0.2641834 0.1127451 0.64620531 -0.32603353 -0.69001508 0.022980738
-0.11725789 0.26907721 0.11214602 0.47971204 -0.45774269 -0.74856395 0.017069532
-0.10414732 0.2654219 0.11895853 0.2943272 -0.47034091 -0.83195609 0.010580812
-0.099960715 0.26818594 0.11824718 0.19509502 -0.50303876 -0.84195596 0.0033242933
0.085584603 0.26902401 0.11999071 -0.13699262 -0.52309322 -0.8411935 0.0043457337
0.098025776 0.26671132 0.11948076 -0.19741268 -0.47967473 -0.85495049 0.0051255235
0.10788333 0.26548231 0.11774608 -0.35130355 -0.46016434 -0.8153739 0.012627689
0.11584278 0.26375979 0.11571477 -0.52838147 -0.3781316 -0.76015103 0.022453379
-0.1048013 0.27157578 0.11446056 0.26070467 -0.532399 -0.80534732 0.00752278
-0.09318547 0.27362627 0.11497364 0.16014349 -0.55827951 -0.81405044 0.0014721042
-0.084072635 0.27535054 0.11526553 0.13420004 -0.58575028 -0.79930407 0.00057728577
-0.073068962 0.27326351 0.11877379 0.13294922 -0.54472625 -0.82800835 0.0030096364
-0.061449915 0.27596402 0.11779884 0.10894986 -0.57943863 -0.80770093 0.00086506043
-0.055024747 0.27669716 0.1183933 0.091118254 -0.5701642 -0.81646198 0.0014194112
-0.036703393 0.27725524 0.11924292 0.064970039 -0.57664514 -0.81440729 0.0012745031
0.056311864 0.27570644 0.11875006 -0.10218836 -0.57110679 -0.81449038 0.0017524542
0.065209106 0.27698141 0.11653718 -0.11593944 -0.58713448 -0.80114359 0.00080323074
0.072510004 0.27758181 0.11510687 -0.12672219 -0.5943802 -0.79413712 0.000330382
0.085529499 0.27409667 0.11593858 -0.14057131 -0.58766615 -0.79679871 0.00050966284
0.095370322 0.27495646 0.11356926 -0.15981553 -0.57776082 -0.80040693 0.00090736448
0.10303126 0.27291113 0.11387117 -0.24610426 -0.55683374 -0.79332769 0.0065913387
0.11594698 0.27110344 0.11129618 -0.48684618 -0.42837954 -0.76123047 0.022191457
-0.085867569 0.28066725 0.11057368 0.13699745 -0.59861869 -0.78923219 0.0002500129
-0.07711567 0.2814081 0.11154208 0.12680827 -0.60504478 -0.78602827 6.957203e-05
-0.069629811 0.28235966 0.11188976 0.11824059 -0.60539073 -0.7870968 8.2065468e-05
-0.056431085 0.28318417 0.11307609 0.10339877 -0.60445189 -0.78990287 0.00018149629
-0.045101918 0.28511956 0.11287484 0.079054683 -0.60110962 -0.7952469 0.00020350485
-0.026406398 0.28430289 0.11489129 0.058844823 -0.59489983 -0.80164289 0.00010118092
-0.015136878 0.28607309 0.11438885 0.04276504 -0.59307784 -0.80400854 0.00018624411
-0.0059887487 0.28785789 0.1135832 0.012374156 -0.59658664 -0.80245334 0.00034934276
0.0049877111 0.28709564 0.11418983 -0.010998324 -0.59936339 -0.80040145 0.00031380999
0.019892083 0.28707263 0.11341162 -0.049872078 -0.59621161 -0.8012768 0.0001825607
0.026542924 0.2829105 0.11583886 -0.055039715 -0.5952279 -0.80166984 0.00018468236
0.034919433 0.28738251 0.11201495 -0.064609401 -0.59857631 -0.79845607 8.8848887e-05
0.045306914 0.28470284 0.11316434 -0.085548595 -0.60127372 -0.79445034 0.00021251684
0.053571709 0.2834391 0.11333485 -0.094976068 -0.60125232 -0.79339474 0.00025635606
0.067370415 0.28384906 0.11106682 -0.11996094 -0.60499966 -0.78713709 0.00016134276
0.072344646 0.28190508 0.11186597 -0.12235687 -0.60224122 -0.78888178 0.00016030228
0.081414491 0.28224453 0.11007403 -0.13099085 -0.60365266 -0.78641272 0.00017661658
-0.020065753 0.29028341 0.11110069 0.049074132 -0.59246624 -0.8040992 0.00019850426
-0.012374685 0.29233447 0.1100308 0.028291127 -0.59451067 -0.80358988 0.00037530085
0.0069694966 0.29116669 0.11115403 -0.017486606 -0.5980137 -0.8012951 0.00040778751
0.015797514 0.2910715 0.11075696 -0.036098812 -0.5956822 -0.80240864 0.00037348692
-0.044509679 -0.10251983 0.12012528 0.040381949 0.43914884 -0.8975063 0.00010975101
-0.034422219 -0.10223314 0.12069769 0.033349738 0.43776017 -0.89847302 8.2475097e-05
-0.012274865 -0.10224916 0.12131597 0.019028913 0.43326309 -0.9010666 8.9087465e-05
-0.004770068 -0.10364809 0.1208241 0.0075031798 0.43452001 -0.90063095 0.00010874286
0.0061717615 -0.10164168 0.12175331 -0.011807794 0.43348974 -0.90108114 7.5543539e-05
0.035574231 -0.10338053 0.12005908 -0.036963932 0.43998927 -0.89724201 6.768071e-05
-0.11373322 -0.090973131 0.12029679 0.33515653 0.35032755 -0.87460881 0.021738384
-0.10155914 -0.091864228 0.12139495 0.11927882 0.39837077 -0.90943569 0.0034956527
-0.092214637 -0.092390895 0.1220049 0.083804011 0.41330266 -0.90672916 0.00067012192
-0.083061516 -0.091818608 0.12299199 0.076127984 0.40703207 -0.91023588 0.0010180685
-0.074357316 -0.093387172 0.12284385 0.068372846 0.42394009 -0.90310574 0.00054164004
-0.064685635 -0.095074818 0.12270765 0.058524393 0.43160519 -0.90016216 0.00031377428
-0.052570514 -0.09566544 0.12329276 0.047426898 0.43234119 -0.90046191 0.00016759544
-0.04225437 -0.095119834 0.12399729 0.036167908 0.43363371 -0.90036303 0.00016617388
-0.034478534 -0.093948051 0.12476835 0.029022727 0.42945683 -0.90262091 0.00014496228
-0.028007502 -0.094361357 0.12472468 0.029219434 0.42927334 -0.9027018 0.00012231442
-0.015492383 -0.096429974 0.12403121 0.021174494 0.42514062 -0.90487963 0.00014748966
-0.0076269512 -0.093941212 0.12541331 0.011058875 0.41837201 -0.90820849 0.00024434549
0.006507752 -0.096363008 0.12427805 -0.0075226291 0.42037109 -0.9073211 0.0002367587
0.016881587 -0.093366444 0.12546794 -0.01952704 0.42096385 -0.90686727 0.0002100853
0.027274758 -0.097239606 0.12336117 -0.028463231 0.43076158 -0.90201682 0.00012804937
0.036276553 -0.094488494 0.12444045 -0.034139015 0.42816275 -0.90305662 0.00018281133
0.043657426 -0.093837231 0.1245821 -0.043334611 0.42417192 -0.90454423 0.0002150887
0.057483729 -0.096396782 0.12257266 -0.052502252 0.43125647 -0.90070051 0.00018185528
0.067382485 -0.09668716 0.12167415 -0.068552122 0.43298039 -0.89879286 0.00034110658
0.077631235 -0.090949714 0.12384994 -0.06803479 0.41740468 -0.90617025 0.00058516051
0.084055036 -0.093920872 0.12183538 -0.074922264 0.42928189 -0.90005761 0.00045876889
0.10428064 -0.091459505 0.12125781 -0.1630716 0.39777762 -0.90287352 0.0046172608
-0.12404475 -0.084144682 0.12158738 0.50905567 0.25941479 -0.82071078 0.035319448
-0.11377628 -0.082281262 0.12433324 0.35707098 0.30359438 -0.88336331 0.024731152
-0.096963175 -0.084319994 0.12539808 0.086974874 0.38904694 -0.91710293 0.00074072735
-0.084879287 -0.08684954 0.12517363 0.08023224 0.39022169 -0.91721851 0.000711678
-0.07525216 -0.086315691 0.12621006 0.077965669 0.39264989 -0.91637731 0.00083068642
-0.065393277 -0.084285766 0.12780206 0.067760266 0.39280769 -0.91712081 0.00061942823
-0.056389205 -0.085737213 0.12786819 0.050976753 0.40116861 -0.91458464 0.00052755512
-0.041880317 -0.085886143 0.12842499 0.039259296 0.40239769 -0.91462272 0.00051668868
-0.036129799 -0.085973255 0.12854023 0.029225752 0.39710584 -0.91730738 0.00057051948
-0.027150571 -0.087688208 0.12792778 0.026875189 0.4016102 -0.91541624 0.00043076498
-0.013554119 -0.088402309 0.12792207 0.01662753 0.40060392 -0.91610044 0.00039958523
-0.0033369127 -0.087955616 0.12843491 0.01065923 0.39555773 -0.91837925 0.00040303954
0.0052497294 -0.087272592 0.12873 -0.0079570981 0.3999708 -0.91649336 0.00046066416
0.017019151 -0.087264657 0.12840816 -0.019325361 0.39905691 -0.91672254 0.00041753185
0.028053626 -0.086429499 0.12853608 -0.026302096 0.40000114 -0.91613716 0.00044747948
0.030415745 -0.085964419 0.12869237 -0.031076856 0.39314374 -0.91895169 0.00054354884
0.043944072 -0.085020065 0.12881091 -0.046858281 0.39634797 -0.91690379 0.00060971774
0.065632045 -0.085413679 0.12737897 -0.061594937 0.3873094 -0.91988993 0.00065475563
0.078943372 -0.082776487 0.12745583 -0.07810232 0.36258119 -0.92867386 0.001368432
0.084493481 -0.086121179 0.12556951 -0.072032869 0.37427491 -0.92451584 0.0014537789
0.10429212 -0.083487488 0.12505193 -0.17382415 0.37701029 -0.90975183 0.0057689613
0.11386708 -0.084417351 0.12335089 -0.36055207 0.34015131 -0.86850399 0.028720962
0.12481451 -0.084629409 0.12140165 -0.57826066 0.23283641 -0.78192186 0.034928828
-0.12525317 -0.071321681 0.12517449 0.64964426 0.15723039 -0.74380165 0.033065151
-0.11591604 -0.071722642 0.12792739 0.41188946 0.26409611 -0.87212402 0.027361576
-0.097549245 -0.077147104 0.12775558 0.10712101 0.33921838 -0.93458867 0.0012688119
-0.089110442 -0.074639335 0.12934747 0.082501039 0.31434467 -0.94571722 0.001188677
-0.069412902 -0.079979077 0.12920408 0.072336324 0.33901954 -0.93799424 0.0011496008
0.07987012 -0.078282006 0.12902069 -0.077109158 0.35472083 -0.93178719 0.0013322297
0.084836237 -0.075520493 0.12952773 -0.07535436 0.34184355 -0.93673086 0.0011758237
0.093336135 -0.078670658 0.12774266 -0.079992875 0.36022255 -0.92943043 0.0012142353
0.10316952 -0.078868039 0.1269742 -0.17197266 0.32931307 -0.92842782 0.0089492714
0.11553711 -0.072761714 0.12758982 -0.48539147 0.22198322 -0.8456468 0.034167748
0.12715451 -0.07509207 0.12203836 -0.68005705 0.15277362 -0.71706516 0.040074814
-0.12522957 -0.066180155 0.12549271 0.61971039 0.13826925 -0.7725547 0.037111599
0.11250758 -0.068319276 0.12954845 -0.3521722 0.22577873 -0.90829438 0.029983718
0.12503667 -0.062260468 0.12520726 -0.66501236 0.11111013 -0.73852092 0.037440993
-0.12483648 -0.054982848 0.1259001 0.73380291 0.087884896 -0.6736539 0.029911991
0.12457597 -0.05790519 0.12294558 -0.71344197 0.10037914 -0.69348723 0.031760558
-0.12541321 -0.044859249 0.12281717 0.80420744 0.049934644 -0.59224737 0.02534277
0.12574746 -0.045662172 0.12314853 -0.80453825 0.046631079 -0.5920673 0.022653166
-0.12481964 -0.034079488 0.12458631 0.78657252 0.063148558 -0.61426044 0.028746633
0.12514472 -0.034496047 0.12462525 -0.7775138 0.058137931 -0.62617266 0.026301121
-0.1254496 -0.024234382 0.12544091 0.79749 0.050705746 -0.60119754 0.028575946
0.12437737 -0.024868125 0.12535547 -0.80508673 0.060420755 -0.59007174 0.02790172
-0.12475394 -0.015753247 0.12711687 0.81183171 -0.013904007 -0.58372581 0.027016239
0.12492151 -0.014706063 0.12613517 -0.80714667 0.027564557 -0.58970714 0.027764294
-0.12466655 -0.0042043095 0.12509198 0.81613433 -0.012481833 -0.57772744 0.026571881
0.12433198 -0.004701525 0.12592252 -0.79996395 -0.060448676 -0.59699547 0.023968432
-0.12497896 0.0048668506 0.12496654 0.8335619 -0.029119432 -0.55165809 0.025388783
0.12525031 0.0048403055 0.12534316 -0.82821679 -0.02814539 -0.55970055 0.027804364
-0.12553503 0.014947399 0.12585129 0.82669991 -0.018625645 -0.56233484 0.026263097
0.12487885 0.015037024 0.12488744 -0.82624239 -0.022015799 -0.56288427 0.026148582
-0.12547565 0.024917386 0.12575981 0.83936679 -0.017108787 -0.5432961 0.024963554
0.12377432 0.023720298 0.12615724 -0.81455696 -0.030100368 -0.57930207 0.029496659
-0.12516405 0.035721101 0.12496126 0.81466156 0.0099193109 -0.57985187 0.030339045
0.12421864 0.035669688 0.12432678 -0.82499808 0.030285863 -0.56432337 0.030335348
-0.12514037 0.045459475 0.12430099 0.84106159 -0.018839361 -0.54061115 0.020247899
0.12432877 0.044611283 0.12618601 -0.78643781 0.0063265171 -0.61763698 0.033275038
-0.1246931 0.053002715 0.12490153 0.84982181 -0.012238787 -0.52692795 0.017342541
0.12398577 0.054347213 0.12439986 -0.82061118 -0.016111245 -0.5712598 0.027114648
-0.12545112 0.063978307 0.12317876 0.84862262 -0.026847554 -0.52831697 0.01550633
0.12448139 0.064332291 0.12634046 -0.82531136 -0.019665832 -0.56433541 0.022422897
-0.12508197 0.076216601 0.12361485 0.85832381 -0.015286965 -0.51288068 0.014089873
0.12484129 0.07490281 0.12441795 -0.80173862 -0.052619942 -0.5953539 0.031392805
-0.12497404 0.084648423 0.12410714 0.83381319 -0.032587707 -0.55108398 0.020053109
0.12382607 0.085042223 0.12372757 -0.80519909 0.033847589 -0.59203786 0.029448872
-0.12476342 0.095193982 0.12427834 0.85232025 0.0031755709 -0.52301061 0.018765347
0.12267043 0.094887435 0.12432262 -0.84866744 0.00068636407 -0.52892637 0.017394222
-0.1245709 0.10484825 0.12426043 0.82286477 -0.0039679948 -0.56822342 0.023577491
0.12330881 0.10590375 0.12474789 -0.82806051 0.0023997612 -0.56063366 0.029467262
-0.12483157 0.11362925 0.12568636 0.83669853 -0.039200723 -0.54625893 0.025228603
0.12374116 0.11482324 0.12314364 -0.8383621 -0.030487601 -0.54426044 0.026514383
-0.12508251 0.12368968 0.12412313 0.80649662 -0.012585072 -0.59110481 0.023548396
0.12509187 0.12368365 0.1241452 -0.81516087 -0.024413101 -0.57871991 0.03152743
-0.12403202 0.136021 0.12300995 0.80889839 -0.024191786 -0.58745056 0.031371523
0.1249264 0.1343812 0.12376321 -0.84292251 -0.065339029 -0.53405279 0.02772369
-0.12445039 0.14697579 0.12335549 0.83158273 0.014401116 -0.55521405 0.027025491
0.12389155 0.1450792 0.12563267 -0.84900814 -0.020823924 -0.52796936 0.025427321
-0.12444463 0.1531162 0.12395217 0.86205858 -0.011175944 -0.50668526 0.021999002
0.12421064 0.15802985 0.12254441 -0.86017203 -0.0091183437 -0.5099225 0.022803226
-0.12153014 0.16478546 0.12826248 0.7767626 -0.034396242 -0.62885356 0.028507557
0.12409218 0.1657894 0.12322924 -0.82894874 -0.0048480364 -0.55930358 0.027032226
-0.12267923 0.17532603 0.12490162 0.78101909 -0.041187137 -0.62314749 0.023379922
0.12293321 0.17432661 0.12451959 -0.7961421 -0.04242092 -0.60362101 0.023861475
-0.12228385 0.18575156 0.12483776 0.75683516 -0.093868397 -0.6468302 0.024529427
-0.11975606 0.18586496 0.12972847 0.67002767 -0.06009616 -0.73989964 0.037330769
0.1199005 0.18464732 0.12954263 -0.65190113 -0.0033444948 -0.75829667 0.034506306
0.12349749 0.18690206 0.12239662 -0.80254805 -0.042406477 -0.59507853 0.026602834
-0.12109737 0.19883275 0.12612671 0.71232045 -0.068861082 -0.69846809 0.026161263
0.11947519 0.19035909 0.12992565 -0.66755342 -0.066744141 -0.74156427 0.033437941
0.12282564 0.19714713 0.12286641 -0.77844077 -0.043371439 -0.62621784 0.024716187
-0.11771884 0.20707212 0.12890492 0.64863414 -0.070161857 -0.75785959 0.025124742
0.11635511 0.2062936 0.12936746 -0.56424111 -0.13261148 -0.81489027 0.028562585
0.12070094 0.20708364 0.1262576 -0.65491438 -0.11163299 -0.74741244 0.030347597
-0.122371 0.21156345 0.12237713 0.69753057 -0.084619045 -0.71154106 0.022991426
-0.1140765 0.2160604 0.12899217 0.55303568 -0.11126209 -0.82569504 0.033114258
0.12120465 0.21553425 0.12456373 -0.62154204 -0.1168706 -0.77461386 0.022862978
-0.12081464 0.22443566 0.12451601 0.65202522 -0.09713006 -0.75195003 0.027844716
-0.11699843 0.22199965 0.12752923 0.61376631 -0.10874449 -0.78196263 0.027647741
-0.10904936 0.22416277 0.12949713 0.38752335 -0.14833766 -0.90984702 0.019103704
0.11261339 0.2221743 0.12876168 -0.49148294 -0.13650075 -0.86012328 0.024235046
0.12221658 0.22579347 0.12194464 -0.67181188 -0.085729681 -0.73574406 0.019661454
-0.12277305 0.23178947 0.12034756 0.73837036 -0.10040753 -0.666879 0.022169556
-0.11282704 0.23539245 0.12665777 0.47299442 -0.16636607 -0.8652159 0.024087898
-0.10841595 0.23702767 0.1277471 0.38322586 -0.15221131 -0.91102672 0.020402685
-0.096999928 0.23624529 0.12984091 0.19166403 -0.16451627 -0.96757394 0.0023334934
0.093922094 0.2393997 0.12968111 -0.15520164 -0.2109793 -0.96509081 0.0023979989
0.10738758 0.23528135 0.12832256 -0.38413548 -0.14036664 -0.91254425 0.018460436
0.115509 0.23796375 0.12537362 -0.54977107 -0.12167168 -0.8264066 0.026527822
-0.1218064 0.24556413 0.12115976 0.63808024 -0.19581991 -0.74465305 0.023915606
-0.11389983 0.24404277 0.12464845 0.50438333 -0.21049955 -0.83742905 0.02204076
-0.10933564 0.24664932 0.1255329 0.36335072 -0.24761683 -0.89814371 0.015595213
-0.096017018 0.24756578 0.12804106 0.17454156 -0.29155099 -0.94049627 0.0047127777
-0.083775587 0.24582635 0.12996264 0.13466562 -0.24364518 -0.96046978 0.0024731806
-0.079245195 0.24900715 0.12987015 0.11648458 -0.26681247 -0.95668298 0.0045222766
0.089434355 0.24725153 0.1289393 -0.15607886 -0.26055977 -0.95275813 0.0027841006
0.098180547 0.24580301 0.12868157 -0.19739719 -0.25814256 -0.9457255 0.0039902003
0.10387637 0.24097621 0.1284752 -0.28908029 -0.21944311 -0.93181401 0.0080533233
0.11584706 0.24420148 0.12402678 -0.51119685 -0.20643795 -0.83430284 0.024715662
-0.11240652 0.25473157 0.12193561 0.4023973 -0.3294045 -0.85414815 0.015857017
-0.10457383 0.25332427 0.12517229 0.26400867 -0.32561773 -0.90789449 0.0070632137
-0.095879838 0.25299668 0.12689734 0.16904022 -0.32597989 -0.93014109 0.0052088927
-0.0853571 0.25674215 0.12717201 0.13632399 -0.37392879 -0.91738385 0.0057697026
-0.0771681 0.25657472 0.12853475 0.13056447 -0.36126804 -0.92327589 0.0050375541
0.064584039 0.25975281 0.12937261 -0.10768973 -0.39737079 -0.91131741 0.0072579565
0.07577762 0.25893646 0.12803772 -0.13684361 -0.41580194 -0.89910102 0.0070375861
0.081625752 0.25551063 0.12803498 -0.14289638 -0.37049645 -0.91777611 0.0055530895
0.09281379 0.25849777 0.12549245 -0.1749762 -0.37945899 -0.90851206 0.0046019019
0.10723017 0.25586092 0.12328155 -0.30643013 -0.35602328 -0.88280696 0.014115409
0.11770755 0.25224301 0.12128022 -0.52994317 -0.27927476 -0.80072826 0.022492385
-0.082996324 0.26583299 0.1224384 0.13982864 -0.48966172 -0.86062729 0.0043433276
-0.07302624 0.265037 0.12459546 0.13285184 -0.47511902 -0.8698346 0.0046189106
-0.064090967 0.26508018 0.12601005 0.12221434 -0.46371716 -0.87751359 0.0053243302
-0.049678862 0.26840997 0.12555693 0.099752426 -0.50233936 -0.85889733 0.0050470396
-0.036441356 0.26717156 0.12732869 0.079342671 -0.46700519 -0.88068771 0.0045478102
-0.029145202 0.26759514 0.12748526 0.057797696 -0.48469105 -0.87277371 0.0052757198
-0.01286028 0.26686379 0.12897873 0.040551882 -0.46198258 -0.88596147 0.006844183
-0.0031433068 0.26929 0.12792185 0.005277189 -0.48347586 -0.87534183 0.0060000131
0.0010104758 0.26838413 0.12867115 0.011133952 -0.48308522 -0.87550259 0.0067214705
0.015347123 0.2670016 0.12873815 -0.063390307 -0.43928111 -0.89611036 0.0065332418
0.024300901 0.26682797 0.12831008 -0.046315659 -0.4390085 -0.89728838 0.0072696926
0.034180444 0.267317 0.12737221 -0.070533551 -0.47748858 -0.87580234 0.0057091429
0.04549557 0.26744792 0.12653317 -0.068204731 -0.48431522 -0.87223095 0.004914429
0.065266773 0.26767424 0.12419707 -0.10523152 -0.51925665 -0.84811497 0.004571348
0.075026616 0.26704356 0.12298135 -0.12934007 -0.51532954 -0.84717572 0.0047178324
0.084570944 0.26530442 0.1225127 -0.13643585 -0.46924162 -0.87246639 0.0058802627
0.092952728 0.2620478 0.12322318 -0.17055024 -0.42830363 -0.88739431 0.0054903324
-0.060671814 0.27037507 0.12291393 0.1089355 -0.51723355 -0.84888315 0.0038684462
-0.054296691 0.2713449 0.12305857 0.098553948 -0.54821509 -0.83051026 0.0025417402
-0.041731149 0.27287295 0.12299904 0.071546219 -0.55910987 -0.82600075 0.0022931141
-0.034822565 0.27424479 0.12232969 0.063216522 -0.56153017 -0.8250379 0.0015689329
-0.023836194 0.27454478 0.12245969 0.055547863 -0.56320745 -0.82444638 0.0017338705
-0.01139534 0.27414006 0.12388885 0.031503584 -0.56292343 -0.82590842 0.0016207749
-0.0056353379 0.27453732 0.12391932 0.016864829 -0.56891608 -0.82222271 0.0011394714
0.0033578963 0.27555305 0.1231361 -0.0083093364 -0.56370658 -0.82593334 0.0018167545
0.016786078 0.27666852 0.12205464 -0.04491147 -0.56589675 -0.82325196 0.0016795872
