ply
format ascii 1.0
comment PCL generated
element vertex 243
property float x
property float y
property float z
element camera 1
property float view_px
property float view_py
property float view_pz
property float x_axisx
property float x_axisy
property float x_axisz
property float y_axisx
property float y_axisy
property float y_axisz
property float z_axisx
property float z_axisy
property float z_axisz
property float focal
property float scalex
property float scaley
property float centerx
property float centery
property int viewportx
property int viewporty
property float k1
property float k2
end_header
-0.094746962 -0.026276417 -0.36715746
-0.064587742 -0.026234753 -0.36840296
-0.014493093 -0.0212202 -0.36859655
0.040637262 -0.018632367 -0.37086439
0.078166462 -0.018614829 -0.37157345
-0.064942926 0.0037042536 -0.36327028
-0.012155108 0.0037352219 -0.36461353
0.040567324 0.0037732683 -0.36625576
0.078174166 0.0038248561 -0.36848831
-0.098867625 -0.074388109 -0.3184948
-0.060429111 -0.074480623 -0.31699514
-0.0064886808 -0.074541204 -0.31600904
0.039741464 -0.074810617 -0.31163406
0.086099654 -0.064312927 -0.3152051
-0.09670189 -0.057598196 -0.34407091
-0.066384956 -0.05768764 -0.34241152
-0.0095485002 -0.050843664 -0.34939718
0.040285423 -0.049850799 -0.34780216
0.088389158 -0.037190922 -0.34788036
-0.096076116 0.026230223 -0.35146141
-0.065906867 0.033770632 -0.34939289
-0.012792557 0.033769876 -0.34945583
0.040323608 0.033780403 -0.3501935
0.08734636 0.030761678 -0.35070848
-0.098174304 0.079644077 -0.32668257
-0.061906487 0.08104381 -0.32633162
-0.0091456473 0.078115925 -0.32652617
0.039938647 0.079677463 -0.32472467
0.084111124 0.077755719 -0.32428789
-0.099664629 0.11084166 -0.30908298
-0.060938045 0.11083503 -0.30930281
-0.02224765 0.11084405 -0.30900383
-0.10247964 -0.10068182 -0.27583933
-0.063253641 -0.10082702 -0.27383184
-0.008203879 -0.10100105 -0.27147579
0.039331354 -0.092107229 -0.28519106
0.086324133 -0.084281661 -0.28551388
0.10165721 0.095400035 -0.30724764
-0.10082968 0.13466674 -0.29532433
-0.061849147 0.13466519 -0.29539061
-0.0052540824 0.12874639 -0.2978425
0.039522368 0.12680627 -0.29781008
0.086290628 0.12697522 -0.29348326
-0.10279396 0.17509851 -0.27212667
-0.063361615 0.17508653 -0.27233124
-0.0081713572 0.17508322 -0.27238941
0.03911484 0.17515364 -0.2712636
0.081958354 0.17308028 -0.26808023
-0.098248199 -0.12804702 -0.23082352
-0.058146268 -0.12820777 -0.22892475
-0.0099665597 -0.12849745 -0.22550344
0.038318757 -0.12899548 -0.21962118
0.086932369 -0.12442071 -0.20960712
0.038834095 -0.11026443 -0.2528553
0.086653233 -0.1055724 -0.24459362
-0.10433111 0.20798871 -0.25397396
-0.064564645 0.2079916 -0.25393724
-0.0088896379 0.20800737 -0.25373125
0.038826033 0.20809194 -0.25263357
0.090664014 0.1966753 -0.24502087
-0.10208522 0.2458204 -0.23288965
-0.063544959 0.24006429 -0.23588657
-0.0096006468 0.24158445 -0.23525429
0.038537484 0.24171305 -0.2338748
0.084801957 0.23623094 -0.2272687
-0.099751577 0.28425515 -0.21222401
-0.05918169 0.28426719 -0.21210814
-0.010559626 0.28447288 -0.21026897
0.038165189 0.28455058 -0.20958614
0.078791961 0.28469291 -0.20831966
-0.09548676 -0.16708639 -0.16221046
-0.062332436 -0.16721427 -0.16093254
-0.012600787 -0.16760093 -0.15706921
0.028912388 -0.16822654 -0.15081835
-0.092665076 -0.14708573 -0.19886494
-0.060158402 -0.14732859 -0.19623518
-0.011280835 -0.14778534 -0.19129086
0.037788358 -0.1483824 -0.18482733
0.087216184 -0.14397261 -0.17282343
0.10338551 0.24525407 -0.19499111
-0.092699498 0.31028178 -0.19841814
-0.060037047 0.31030765 -0.1982069
-0.011106402 0.31057048 -0.19607306
0.037931584 0.31077531 -0.19440889
0.087186411 0.29557824 -0.18304873
-0.094367087 0.34601128 -0.17675543
-0.061350003 0.34598786 -0.17692423
-0.01186841 0.34606454 -0.17634821
0.037627965 0.3463082 -0.17459202
0.078936458 0.34674287 -0.17147255
-0.095958635 0.38214386 -0.15608025
-0.062661022 0.38221419 -0.15562534
-0.012666188 0.38220319 -0.15569639
0.03731076 0.38248539 -0.15386343
0.0790205 0.38310966 -0.14980841
-0.098157197 -0.18743989 -0.12752008
-0.064540505 -0.18770829 -0.12502956
-0.014053091 -0.18832466 -0.11930943
0.040976562 -0.18405446 -0.12010479
0.084298745 -0.17860544 -0.11538172
0.10434315 -0.15318942 -0.13279009
0.10450366 0.29436061 -0.122365
-0.097118765 0.40965146 -0.14100981
-0.063571751 0.40967751 -0.14084387
-0.013260826 0.40978411 -0.14020681
0.037065364 0.41015482 -0.13797426
0.079085648 0.41087705 -0.13360882
-0.099156782 0.45652261 -0.11453533
-0.065197185 0.45653206 -0.11447859
-0.014281191 0.45669454 -0.11359978
0.036653407 0.45711786 -0.11131907
0.077466577 0.45402777 -0.1095438
-0.1039093 -0.23040682 -0.052798271
-0.069190785 -0.2308158 -0.049478054
-0.016944133 -0.23147589 -0.044117451
-0.1010239 -0.20862171 -0.090280533
-0.066811904 -0.2088694 -0.088134766
-0.015465721 -0.20951584 -0.082537174
0.036067218 -0.21067736 -0.072477818
0.088131897 -0.20667309 -0.056682587
0.10511503 0.33317611 -0.08265543
-0.10123543 0.50445032 -0.087532997
-0.066870987 0.50450295 -0.087277412
-0.015328139 0.50468016 -0.086405754
0.036228288 0.50524861 -0.083625317
0.081000119 0.50047719 -0.081780434
-0.10342754 0.55381775 -0.059056282
-0.068607956 0.55381089 -0.059096336
-0.016391523 0.55388319 -0.058767796
0.035809897 0.55439389 -0.056476593
0.077642672 0.5515005 -0.053740025
-0.1071633 -0.25339541 -0.010527611
-0.07164444 -0.25350407 -0.0096979141
-0.0096410736 -0.25457105 -0.0015454292
0.038793534 -0.24198517 -0.017004013
0.07953956 -0.23447219 -0.019790649
0.10631616 -0.21851054 -0.0046396255
0.088251583 0.57663125 -0.03540802
-0.10603498 0.61439121 -0.025184631
-0.070713118 0.61446154 -0.024902821
-0.017745562 0.61479676 -0.023543358
0.035276573 0.615219 -0.02184248
0.077758349 0.61275727 -0.017356396
-0.1025078 0.66998529 0.0067167282
-0.05972442 0.66512764 0.0044779778
-0.0045310333 0.66471171 0.0048408508
0.043841548 0.6568926 0.0024085045
0.079604521 0.64836985 0.0040163994
-0.092351183 -0.2771185 0.032344818
-0.05629006 -0.27755851 0.0355196
-0.0020383522 -0.27831471 0.040977955
0.043290824 -0.27967539 0.050796509
0.07066071 -0.28060049 0.057473183
0.088807084 -0.25241902 0.0283041
0.01673742 0.67801023 0.014417648
0.043695211 0.67813402 0.014876842
0.082682841 0.67351514 0.019989967
-0.092622802 0.72024786 0.036265373
-0.056358993 0.72037256 0.036704063
-0.0019639656 0.72077829 0.038125038
0.043408442 0.72123218 0.039725304
0.077943213 0.71819949 0.041921616
-0.094467551 0.76446098 0.06289196
-0.057823151 0.7647469 0.063844204
-0.002791822 0.76508963 0.064986229
0.043125406 0.76489013 0.064321518
0.079839699 0.75567061 0.064186096
-0.095625684 -0.3021439 0.079607964
-0.058671847 -0.30213708 0.079562664
-0.0033872426 -0.30292079 0.084920406
0.042782046 -0.30434367 0.094648361
0.083048597 -0.29843006 0.096182346
0.10763067 -0.26533955 0.080740452
-0.096106842 0.79009444 0.086553097
-0.058814168 0.78871238 0.082065105
-0.003310293 0.78864169 0.081836224
0.042917665 0.78878182 0.082290649
0.079884037 0.77825886 0.078069687
-0.10005732 -0.34003711 0.14357328
-0.062334523 -0.34069556 0.1476984
-0.0098718926 -0.33465049 0.13958168
0.042244583 -0.33009559 0.14115381
0.080213092 -0.33223385 0.15504217
0.10845585 -0.29125109 0.13433743
-0.10490142 -0.38024646 0.21349144
-0.066143692 -0.38105714 0.21827745
-0.0076583996 -0.381915 0.2233429
0.0033670515 -0.35490772 0.17741585
0.041714296 -0.35648674 0.18718386
0.080387883 -0.35870993 0.20093584
0.10915101 -0.31675252 0.17948914
-0.10829248 -0.40841943 0.26243782
-0.068947658 -0.40981749 0.27033329
-0.0092082322 -0.41042131 0.27374363
0.041185439 -0.38359061 0.23323727
0.080575913 -0.38616124 0.24841595
0.10992165 -0.3437041 0.22954369
-0.092025414 -0.43915325 0.32116461
-0.061716273 -0.43988478 0.32512426
-0.010867864 -0.44037363 0.32777071
0.040581107 -0.41250333 0.28550291
0.08078438 -0.41542754 0.30201912
0.11072467 -0.37176642 0.28170109
-0.095348388 -0.46987304 0.37512255
-0.064477995 -0.47086963 0.38030005
-0.023041308 -0.47169659 0.38459778
0.039948855 -0.44262549 0.33995914
0.080994077 -0.44550017 0.35551929
0.11156545 -0.40104693 0.33631134
-0.098876387 -0.50209039 0.43241024
-0.067321733 -0.50305974 0.43725348
0.0080902427 -0.47251531 0.38885164
0.039289054 -0.47411987 0.39718866
0.081219956 -0.47741064 0.41428804
0.11249544 -0.43219391 0.39671612
-0.1027081 -0.53621459 0.49462938
-0.01453083 -0.50493276 0.44661093
0.03862248 -0.5066328 0.4551053
0.081440002 -0.5101102 0.47247982
0.11342457 -0.46426085 0.45706463
0.037900053 -0.54100335 0.51767015
0.081670441 -0.54418308 0.53296852
-0.059563413 -0.53716564 0.49920559
-0.0056245402 -0.53959692 0.51090288
0.11428465 -0.49639395 0.51292849
-0.10671148 -0.57189733 0.55963612
-0.062750816 -0.57376748 0.56831217
-0.0074567273 -0.5761013 0.57913971
0.037108723 -0.57754791 0.58585167
0.07066071 -0.57893759 0.59229898
-0.11093418 -0.60937643 0.62820435
-0.065996662 -0.61172616 0.63873053
-0.0093116313 -0.61376637 0.64786959
0.036321528 -0.61509573 0.65382481
0.093190745 -0.58193588 0.60620785
0.11568893 -0.53646153 0.60413885
0.082183376 -0.61788559 0.6663208
0.11722761 -0.57974774 0.7040801
-0.092876419 -0.65196806 0.71434164
-0.058143303 -0.65368241 0.72176456
-0.011469297 -0.65512246 0.72800016
0.035357174 -0.65743983 0.73803473
0.082508385 -0.6595397 0.74712753
0 0 0 1 0 0 0 1 0 0 0 1 0 0 0 0 0 243 1 0 0
