ply
format ascii 1.0
comment PCL generated
element vertex 147
property float x
property float y
property float z
element camera 1
property float view_px
property float view_py
property float view_pz
property float x_axisx
property float x_axisy
property float x_axisz
property float y_axisx
property float y_axisy
property float y_axisz
property float z_axisx
property float z_axisy
property float z_axisz
property float focal
property float scalex
property float scaley
property float centerx
property float centery
property int viewportx
property int viewporty
property float k1
property float k2
end_header
-0.097008288 -0.58293742 -0.51507378
0.027454287 -0.57161474 -0.50335121
-0.01927723 -0.47083923 -0.62623596
0.089416936 -0.46554977 -0.5605545
0.20451152 -0.45022985 -0.49512863
-0.012176946 -0.29913902 -0.64601898
0.091743439 -0.28856966 -0.58210182
0.21572885 -0.28485385 -0.50382423
-0.0076029599 -0.096575208 -0.65451431
0.091724522 -0.099108048 -0.59238815
0.22630328 -0.094609417 -0.50946426
-0.0077613294 0.088194765 -0.65309715
0.091119014 0.089329951 -0.59182739
0.22798648 0.087173074 -0.51013947
-0.0080795139 0.2735208 -0.65024376
0.091439396 0.27415046 -0.58739662
0.22538187 0.269723 -0.50747108
-0.015474275 0.46299854 -0.64219093
0.090656377 0.45815763 -0.57476234
0.21218224 0.44243914 -0.50015831
-0.054810688 0.59491551 -0.56790352
0.080456473 0.57311612 -0.54108429
-0.20728403 -0.59771222 -0.3212204
-0.12447485 -0.59061843 -0.38347244
0.17566425 -0.54943311 -0.47627831
0.29559606 -0.47326639 -0.43834686
0.45655912 -0.46750277 -0.34817696
0.31575263 -0.29271293 -0.44604111
0.47033778 -0.28627083 -0.35262871
0.32627916 -0.10276341 -0.44625282
0.47087035 -0.097037025 -0.35688019
0.56859946 -0.056919917 -0.29707146
0.32886037 0.090476923 -0.44716644
0.46937019 0.088127844 -0.35856628
0.5684365 0.082711868 -0.2979908
0.32598644 0.27818528 -0.44399261
0.47095671 0.27169421 -0.35250092
0.30326536 0.46435943 -0.43995667
0.45145407 0.45525128 -0.34587288
-0.2072016 0.62319636 -0.3433075
-0.12427691 0.62204409 -0.38553047
0.17563507 0.58047217 -0.47249031
0.2769374 0.5757705 -0.41458321
0.42294085 0.57478303 -0.32378769
-0.25443906 -0.60088384 -0.19058037
-0.13601029 -0.59694594 -0.20615578
0.48925918 -0.57154256 -0.27680206
0.66690487 -0.57600802 -0.17073631
0.76249528 -0.57940555 -0.11022186
0.54202509 -0.49656719 -0.28378868
0.65715456 -0.47082147 -0.22813034
0.80407822 -0.46871674 -0.14854813
0.55270517 -0.36961514 -0.29390907
0.65559816 -0.28876734 -0.23767281
0.80617571 -0.28888318 -0.14783287
0.65852535 -0.10045646 -0.23991585
0.80526364 -0.098567657 -0.14635658
0.66164321 0.09189117 -0.23823738
0.79916072 0.08902996 -0.14887428
0.6556496 0.27352124 -0.23781013
0.79837126 0.27420098 -0.14388657
0.54062867 0.48976162 -0.28159332
0.66011637 0.45994797 -0.21549797
0.79583061 0.45033446 -0.13243103
-0.25035387 0.62644184 -0.1931324
-0.13801286 0.62723798 -0.20487022
0.52261162 0.57708436 -0.25493431
0.65372384 0.57735318 -0.17845726
0.76662344 0.56829178 -0.11761856
-0.40107149 -0.60881084 0.009147644
-0.27831426 -0.60522014 -0.045726776
-0.15379998 -0.60455477 -0.039464951
0.79123139 -0.58124262 -0.10276413
-0.42929834 -0.50368214 0.047088623
0.86838579 -0.46988988 -0.09611702
0.88697755 -0.28377479 -0.080774307
0.88801134 -0.091644734 -0.071289062
0.88298881 0.092449687 -0.069858551
0.87068981 0.26892263 -0.080661774
0.85491598 0.4610405 -0.079685211
-0.41139668 0.62805897 0.020212173
-0.28605708 0.6298005 -0.012012482
-0.14995289 0.6364699 -0.010578156
0.73077893 0.60444868 -0.092815399
0.81636745 0.57250142 -0.076066971
-0.4466722 -0.60922766 0.13430405
-0.27982053 -0.61162508 0.1441803
-0.15880832 -0.60847807 0.12006569
-0.57623464 -0.50510561 0.26132965
-0.45101333 -0.50619191 0.18136978
-0.36105621 -0.49808779 0.2233448
-0.50982916 0.50684774 0.20689774
-0.56709522 0.62729704 0.22924232
-0.45923769 0.6268248 0.18812561
-0.27973923 0.63247895 0.16851425
-0.16351041 0.64115238 0.15446281
-0.61826104 -0.60192251 0.38345146
-0.45758516 -0.61352676 0.3311348
-0.27424687 -0.61694193 0.34386063
-0.17087889 -0.6136241 0.33171654
-0.62387484 -0.45971912 0.4003334
-0.48290706 -0.46068728 0.41527367
-0.32731515 -0.4422375 0.39367676
-0.61480916 -0.2917029 0.40239143
-0.5418064 -0.29905909 0.44049454
-0.2914184 -0.30940455 0.35714722
-0.60224783 -0.099871174 0.39528656
-0.54889947 -0.095854521 0.43682289
-0.61999685 0.090627737 0.38920593
-0.53797489 0.10571989 0.43733597
-0.61805397 0.27360788 0.38320541
-0.53578854 0.21254653 0.42891693
-0.62055129 0.44948804 0.37203026
-0.50033802 0.47454694 0.41316795
-0.62020171 0.59955698 0.39599991
-0.48510987 0.62477821 0.37222481
-0.26402578 0.63636601 0.34588623
-0.17203724 0.64303136 0.34056854
-0.62205714 -0.58659762 0.46136284
-0.44681072 -0.60094732 0.53495598
-0.29207972 -0.60770267 0.54134178
-0.6802609 -0.4952136 0.4616909
-0.41443861 -0.43013245 0.49064827
-0.29883927 -0.44286534 0.54879951
-0.69913584 -0.28566253 0.45851135
-0.47043997 -0.30438739 0.49425125
-0.67701435 -0.098019041 0.47223091
-0.50925267 -0.099410981 0.48583794
-0.69829893 0.014601953 0.45579147
-0.47209299 0.098581314 0.49281883
-0.56631637 0.31523907 0.46102715
-0.48115069 0.21947576 0.49548531
-0.26742208 0.33299872 0.62074661
-0.43419749 0.46139514 0.52432632
-0.34331012 0.45382595 0.58544922
-0.57860917 0.57217157 0.46547508
-0.45468414 0.59720582 0.51828194
-0.29819024 0.61772978 0.56685257
-0.18033582 0.64171308 0.58119202
-0.27447352 -0.59035254 0.67588234
-0.37828583 -0.55291653 0.64843941
-0.25145355 -0.5001927 0.74079323
-0.22562101 -0.32244918 0.74146652
-0.22503468 0.28892505 0.73075485
-0.3782084 0.49018282 0.64802361
-0.26948458 0.47354391 0.71294975
-0.24151713 0.59234202 0.67923737
0 0 0 1 0 0 0 1 0 0 0 1 0 0 0 0 0 147 1 0 0
