ply
format ascii 1.0
comment PCL generated
element vertex 630
property float x
property float y
property float z
element camera 1
property float view_px
property float view_py
property float view_pz
property float x_axisx
property float x_axisy
property float x_axisz
property float y_axisx
property float y_axisy
property float y_axisz
property float z_axisx
property float z_axisy
property float z_axisz
property float focal
property float scalex
property float scaley
property float centerx
property float centery
property int viewportx
property int viewporty
property float k1
property float k2
end_header
-0.56875765 -0.48439184 -0.35182428
-0.56875759 -0.41983196 -0.35182428
-0.56868678 -0.35523704 -0.35213137
-0.56895596 -0.29080322 -0.35096645
-0.56899142 -0.22624041 -0.35081244
-0.56869018 -0.16158764 -0.35211706
-0.56874442 -0.097041897 -0.35188198
-0.57756084 -0.028188294 -0.35100698
-0.57958311 0.021311028 -0.35156107
-0.57927191 0.075073592 -0.35287189
-0.57916957 0.13958454 -0.35329342
-0.57913661 0.20409831 -0.35342264
-0.57915121 0.26862672 -0.35335732
-0.57912689 0.33313695 -0.35345507
-0.58730859 0.40041497 -0.35299015
-0.58961064 0.4619838 -0.35456514
-0.58990318 0.50520718 -0.35335636
-0.50160742 -0.5785017 -0.31168652
-0.47257733 -0.58234018 -0.29250765
-0.58307773 -0.54047722 -0.32772875
-0.52320939 -0.5482592 -0.33290434
-0.46021342 -0.53707051 -0.29968166
-0.60074776 -0.48089528 -0.30794668
-0.5187422 -0.48749888 -0.33346605
-0.46004862 -0.4821164 -0.30056143
-0.59964889 -0.42559132 -0.31255102
-0.51893294 -0.4226501 -0.33256292
-0.46018237 -0.4274334 -0.29985571
-0.59801942 -0.35928631 -0.31937981
-0.51915741 -0.35777599 -0.33151245
-0.4603107 -0.36175969 -0.29917383
-0.59622878 -0.29323006 -0.32688332
-0.51933235 -0.29283342 -0.33068657
-0.46055788 -0.29611722 -0.2978611
-0.62768537 -0.20911136 -0.28732157
-0.59306002 -0.2270795 -0.34016132
-0.51938587 -0.22780614 -0.330441
-0.46064752 -0.23035122 -0.2973814
-0.62635744 -0.16479753 -0.29271221
-0.59140605 -0.16186102 -0.34709215
-0.5195176 -0.16278948 -0.32981157
-0.46075451 -0.16456798 -0.2968154
-0.62450969 -0.098646343 -0.30021381
-0.59114313 -0.097158596 -0.34819412
-0.51958591 -0.09773349 -0.32948828
-0.46081102 -0.098749287 -0.2965169
-0.62326556 -0.032859851 -0.30526352
-0.59090918 -0.054048978 -0.3491745
-0.51962817 -0.032661788 -0.3292923
-0.46088105 -0.032916233 -0.29614496
-0.6220718 0.021781715 -0.31011009
-0.51973957 0.02157631 -0.32875252
-0.46103626 0.021962142 -0.29532146
-0.62085485 0.076229304 -0.31505013
-0.51988703 0.075840369 -0.32805395
-0.46128833 0.076889515 -0.29398584
-0.61961538 0.14136089 -0.32008123
-0.52005267 0.14098977 -0.32725525
-0.4614712 0.14283405 -0.29301596
-0.61729431 0.2059297 -0.32950401
-0.52016836 0.20615475 -0.32672358
-0.46151519 0.20876706 -0.29278421
-0.6162132 0.27056509 -0.33389235
-0.52028149 0.27134657 -0.32617855
-0.46658641 0.26895797 -0.29503393
-0.63540399 0.33421633 -0.30956364
-0.61361539 0.35582274 -0.34443808
-0.5203495 0.33653688 -0.32585859
-0.47160977 0.34002513 -0.29753542
-0.64757782 0.40609804 -0.29568005
-0.61316687 0.37714633 -0.34625959
-0.52065724 0.40190428 -0.32440948
-0.47183526 0.40600729 -0.29636335
-0.64631218 0.4601568 -0.30066252
-0.52337998 0.46491313 -0.32556915
-0.47209984 0.46110043 -0.29498911
-0.64696842 0.49348697 -0.29807854
-0.57123679 0.52911031 -0.34090853
-0.51473045 0.51799667 -0.31374931
-0.47249657 0.50538903 -0.29292727
-0.45429206 -0.58633846 -0.27253246
-0.64045775 -0.53772855 -0.2354722
-0.60695148 -0.56239617 -0.28195047
-0.43059683 -0.54045492 -0.28137589
-0.39064497 -0.54531336 -0.25514698
-0.34961435 -0.53840411 -0.23171425
-0.63625371 -0.47894436 -0.2525382
-0.43034244 -0.47402883 -0.28281164
-0.39007604 -0.47792736 -0.25869322
-0.34932297 -0.48196608 -0.23370647
-0.63386655 -0.41073757 -0.26222897
-0.43040133 -0.41894877 -0.28247929
-0.3875367 -0.41418698 -0.25725174
-0.34918356 -0.41455033 -0.23465967
-0.63226908 -0.3544417 -0.26871443
-0.43048519 -0.36387467 -0.28200579
-0.39302671 -0.36020771 -0.26008177
-0.34928638 -0.34736437 -0.23395681
-0.63010627 -0.29815865 -0.27749395
-0.43076098 -0.29786009 -0.28044844
-0.39030924 -0.30017951 -0.2572732
-0.34945062 -0.29140893 -0.23283386
-0.65032101 -0.23840263 -0.25017691
-0.43083239 -0.23168589 -0.28004408
-0.39043862 -0.23350117 -0.25646496
-0.34959522 -0.23539768 -0.23184586
-0.66275853 -0.16786847 -0.23592091
-0.43093878 -0.16550383 -0.27944374
-0.39056137 -0.16678169 -0.25570965
-0.34965852 -0.16809174 -0.23141241
-0.66037905 -0.10033562 -0.24528837
-0.43104517 -0.099293701 -0.2788434
-0.39066154 -0.10002511 -0.2550869
-0.34975928 -0.1007754 -0.23072386
-0.6587913 -0.033273686 -0.2515378
-0.43112475 -0.033052452 -0.27839375
-0.3932451 -0.036017779 -0.25635195
-0.34976998 -0.033421196 -0.2306509
-0.65719968 0.022388903 -0.25780344
-0.43119317 0.022161933 -0.27800703
-0.38786823 0.017663693 -0.25265932
-0.34993264 0.022721497 -0.22953796
-0.65549213 0.077782422 -0.26452541
-0.43137616 0.077412307 -0.27697372
-0.39095762 0.078144491 -0.25325251
-0.35005575 0.078898996 -0.22869635
-0.65363133 0.1439603 -0.27185011
-0.43160635 0.14376944 -0.27567291
-0.3912369 0.14507064 -0.25152683
-0.3502554 0.14637502 -0.22733116
-0.68811041 0.23650694 -0.22468662
-0.6517244 0.20979077 -0.27935648
-0.43167537 0.21011272 -0.27528334
-0.39128649 0.21196574 -0.2512145
-0.35033038 0.21384454 -0.22681904
-0.68680787 0.26977071 -0.2296629
-0.65050668 0.27555385 -0.28415108
-0.43978512 0.28044957 -0.27923679
-0.39135104 0.27888757 -0.25082445
-0.35036525 0.2700727 -0.22658062
-0.68591404 0.32551244 -0.233078
-0.44189 0.34221035 -0.27979422
-0.39147702 0.33472121 -0.25005007
-0.35042003 0.32632285 -0.22620583
-0.68450803 0.39207754 -0.23845005
-0.44202763 0.39750066 -0.27904129
-0.39161736 0.3906011 -0.24917889
-0.3505626 0.39391926 -0.22523212
-0.68373686 0.45878783 -0.24139643
-0.44229418 0.45294157 -0.27755928
-0.39194271 0.45785591 -0.24716282
-0.68535841 0.5046196 -0.23520136
-0.6606797 0.52539158 -0.24410486
-0.4493584 0.51522928 -0.27517223
-0.392517 0.51431704 -0.24359417
-0.64723295 -0.57663411 -0.20796871
-0.33144855 -0.57800585 -0.20084095
-0.67802554 -0.53707242 -0.17582321
-0.32515308 -0.54847443 -0.2134161
-0.26584288 -0.54026258 -0.1791997
-0.67445964 -0.48909941 -0.18986034
-0.318174 -0.48499075 -0.21501637
-0.26808584 -0.48706454 -0.18446302
-0.67033529 -0.41851228 -0.2060957
-0.31807575 -0.41717032 -0.21574783
-0.26531404 -0.4216083 -0.18372583
-0.66880125 -0.34990019 -0.21213436
-0.3181743 -0.34955391 -0.21501064
-0.26533046 -0.35318223 -0.18359041
-0.70472217 -0.26382053 -0.16121817
-0.6665867 -0.29256669 -0.2208519
-0.31825247 -0.29317847 -0.21443987
-0.26233822 -0.29146251 -0.18123722
-0.70386428 -0.22911066 -0.16449594
-0.31840694 -0.23682472 -0.21329451
-0.26813418 -0.23621026 -0.18406677
-0.70025384 -0.17098442 -0.17828941
-0.31844926 -0.16908443 -0.21297979
-0.26545772 -0.17072678 -0.18250513
-0.69845086 -0.10217776 -0.18517923
-0.31848243 -0.1013292 -0.21273327
-0.26550314 -0.10227269 -0.18210936
-0.69678265 -0.033745401 -0.19155216
-0.31854582 -0.033561841 -0.21226025
-0.26826745 -0.036653429 -0.18292522
-0.6946885 0.023063825 -0.19955397
-0.31868511 0.022933079 -0.21122932
-0.2626586 0.018398093 -0.1784482
-0.69271737 0.079548538 -0.20708513
-0.31881484 0.079467453 -0.21026325
-0.26584631 0.080425814 -0.17912436
-0.69068128 0.14702804 -0.21486473
-0.31896433 0.14735302 -0.20915365
-0.26595706 0.14902304 -0.17817354
-0.68942422 0.20311743 -0.21966648
-0.31903502 0.2152452 -0.20862913
-0.26910323 0.21096833 -0.17917347
-0.72634161 0.26438734 -0.16629171
-0.31911343 0.27185643 -0.20804214
-0.26347879 0.26645133 -0.17491865
-0.72446501 0.33242902 -0.17325687
-0.31920591 0.32850072 -0.20735216
-0.26622599 0.33214042 -0.17582846
-0.72315949 0.40044287 -0.17810202
-0.31933764 0.39653045 -0.20637894
-0.26637185 0.40093783 -0.1745801
-0.72250116 0.45720178 -0.18054581
-0.33010772 0.46385726 -0.21004772
-0.27952495 0.46417671 -0.1797328
-0.72430837 0.49259499 -0.17383814
-0.33070028 0.52116489 -0.20574856
-0.27796507 0.51549786 -0.17372417
-0.24520549 -0.56300896 -0.15924644
-0.20395198 -0.54080069 -0.13854647
-0.14928707 -0.53339094 -0.10852575
-0.19746035 -0.48032096 -0.14155293
-0.14529103 -0.47862488 -0.10975599
-0.20325294 -0.42393428 -0.14599419
-0.14518806 -0.41997766 -0.11115456
-0.20049024 -0.35768911 -0.14457607
-0.14516032 -0.3615033 -0.11154127
-0.70592725 -0.29874849 -0.15661335
-0.20051166 -0.28836557 -0.14434147
-0.14519083 -0.29143369 -0.11113167
-0.20055023 -0.23060484 -0.14393377
-0.14519742 -0.23301069 -0.1110363
-0.20057154 -0.17281966 -0.14369583
-0.14521933 -0.17459501 -0.11074209
-0.2005738 -0.10345652 -0.14366007
-0.14524972 -0.10448126 -0.1103406
-0.20336604 -0.03698425 -0.14479733
-0.14528522 -0.034349471 -0.10983229
-0.19756117 0.018772375 -0.1404767
-0.14536387 0.02411616 -0.10875988
-0.20082387 0.081600457 -0.14098692
-0.14538908 0.082603678 -0.10842562
-0.20093182 0.15109162 -0.13980389
-0.14548069 0.15284887 -0.10718441
-0.20099291 0.20901714 -0.13914061
-0.14554408 0.21141757 -0.10632133
-0.20107076 0.26698774 -0.13829231
-0.14784107 0.26519197 -0.10693073
-0.20116481 0.33659267 -0.13728714
-0.15694222 0.3396731 -0.11062002
-0.20442322 0.39939812 -0.13778925
-0.15702367 0.39825279 -0.10956144
-0.24514616 0.46047893 -0.15979719
-0.1987538 0.45614347 -0.13203764
-0.15719038 0.45705181 -0.1073966
-0.25148144 0.52470779 -0.15436935
-0.20215723 0.523902 -0.12649679
-0.1574679 0.51617551 -0.10379076
-0.18166554 -0.57493269 -0.094708443
-0.11953966 -0.54511631 -0.086034775
-0.077690981 -0.54593223 -0.058767796
-0.042673498 -0.53672963 -0.042782307
-0.1115715 -0.50549066 -0.088192463
-0.08578179 -0.48123848 -0.073678493
-0.042502306 -0.48825252 -0.047229767
-0.085688598 -0.4159061 -0.075464249
-0.036573328 -0.41087282 -0.045688152
-0.091779642 -0.35840723 -0.079763412
-0.030689381 -0.35746783 -0.043014526
-0.088541143 -0.29456189 -0.077268124
-0.033045828 -0.30242541 -0.043991089
-0.085713796 -0.22676472 -0.074968338
-0.036573216 -0.2198634 -0.045696735
-0.091835581 -0.16955367 -0.078685284
-0.042437635 -0.16600133 -0.048910141
-0.088565327 -0.10551466 -0.076805592
-0.042417467 -0.10635959 -0.049434185
-0.088615038 -0.03461054 -0.075900078
-0.04245238 -0.034821998 -0.048527241
-0.11155347 0.03612294 -0.088484764
-0.084095456 0.022185059 -0.072108269
-0.042512529 0.024830656 -0.046964645
-0.11157503 0.08322721 -0.088134766
-0.077258863 0.083863586 -0.067476749
-0.042539544 0.084515937 -0.046262741
-0.1116442 0.14215572 -0.087011814
-0.077307649 0.14318201 -0.066505432
-0.042564988 0.14422755 -0.045601368
-0.11166457 0.2010759 -0.086680889
-0.077352367 0.20253465 -0.065601349
-0.04259865 0.2039804 -0.044726849
-0.11741225 0.2774432 -0.088639259
-0.077410989 0.27381161 -0.064432144
-0.042651884 0.27575949 -0.043344021
-0.12542549 0.33710712 -0.091982365
-0.077464335 0.33325726 -0.063368797
-0.042684771 0.33558747 -0.042489052
-0.1209901 0.39410555 -0.087819099
-0.077525921 0.39277112 -0.062131882
-0.042733848 0.39550784 -0.041213989
-0.12341508 0.46023554 -0.086722374
-0.077666841 0.46445259 -0.059323311
-0.04281231 0.4555881 -0.03917551
-0.12366282 0.51978707 -0.082946777
-0.077872358 0.52459258 -0.055208206
-0.042893142 0.49181417 -0.037075996
-0.13622847 0.55737907 -0.070967674
-0.090693898 0.56335491 -0.038624287
-0.014619246 -0.53563344 -0.020926952
0.040388908 -0.53357959 0.010263443
-0.0072334111 -0.47941202 -0.026622295
0.040476885 -0.48376366 0.0023732185
0.076817386 -0.48716989 0.025053024
-0.0048408806 -0.424182 -0.026363373
0.040497974 -0.42291525 0.00056743622
0.076817386 -0.42575991 0.022306442
0.0046308115 -0.3598716 -0.021476746
0.040507298 -0.35011563 -0.00038337708
0.076817386 -0.35246554 0.021430969
-0.001278013 -0.29340702 -0.024941444
0.040506452 -0.28956556 -0.00022315979
0.076817386 -0.29148453 0.021443844
-0.0048238412 -0.23193763 -0.027004242
0.040498812 -0.22905393 0.00052833557
0.076817386 -0.23054641 0.022078037
-0.0071960315 -0.16704381 -0.028062344
0.040498666 -0.16847304 0.00050735474
0.076817386 -0.16957569 0.022525311
-0.0071923733 -0.10701346 -0.028167248
0.040495284 -0.10790631 0.0008263588
0.076817386 -0.10858426 0.022929668
-0.0072077662 -0.034982543 -0.027643681
0.040486585 -0.035206892 0.0016150475
0.076817386 -0.03538166 0.023860931
-0.0072424561 0.025068199 -0.026350498
0.040473904 0.025402853 0.00263834
0.076817386 0.025660792 0.024969101
-0.007275641 0.085169487 -0.025099277
0.040461365 0.086058915 0.0037207603
0.076817386 0.08674565 0.026072502
-0.0073006675 0.14530145 -0.024165154
0.040439848 0.14679182 0.0056467056
0.076817386 0.13563824 0.026906013
-0.0073160827 0.20544691 -0.023546696
0.040435024 0.20749599 0.0060229301
-0.0073514208 0.27770415 -0.022287369
0.040428523 0.2682308 0.0065984726
-0.0073724911 0.33792907 -0.021514893
0.040416267 0.32904869 0.0077085495
-0.0074210241 0.39832652 -0.019686222
0.040394705 0.40215141 0.0095453262
-0.0074847266 0.45886865 -0.017325878
0.040365309 0.46328822 0.012116432
-0.016465351 0.52202624 -0.017823219
0.037899539 0.51960588 0.014399529
0.10155798 -0.54081815 0.05389452
0.15127093 -0.53214437 0.076685905
0.11373141 -0.47818121 0.047058582
0.16373454 -0.48265767 0.077645302
0.11370411 -0.41641131 0.044762611
0.16365488 -0.4202106 0.074672699
0.11369164 -0.35486537 0.043694973
0.16362509 -0.35808238 0.073556423
0.11369085 -0.29344216 0.043549538
0.16362996 -0.2961157 0.073759079
0.11369583 -0.23206663 0.044035912
0.16364506 -0.23416585 0.074318886
0.11371137 -0.17072041 0.045419216
0.16367796 -0.17222679 0.075518608
0.11371586 -0.10929087 0.045805931
0.163689 -0.11021705 0.075926781
0.11372446 -0.035553116 0.046374798
0.16623452 -0.040749982 0.078315258
0.11373455 0.025918821 0.047340393
0.16121824 0.018824255 0.076385975
0.11374195 0.08742407 0.048069
0.16376349 0.088365607 0.078680515
0.10637292 0.15122418 0.04536438
0.16382068 0.15055184 0.08079195
0.10145771 0.21009263 0.043474674
0.16131593 0.2076461 0.080102444
0.1014685 0.27160388 0.044697285
0.15124154 0.27432397 0.075414181
0.10146987 0.33309576 0.045275211
0.15125015 0.33638257 0.075787067
0.10148178 0.39470944 0.046631813
0.15127911 0.39857173 0.077040672
0.10149987 0.45653051 0.049029827
0.1513367 0.46099278 0.079534531
0.052373458 0.55124038 0.028113365
0.097997904 0.52366757 0.051233768
0.15140176 0.52355433 0.082351208
0.11399501 0.55860341 0.069699287
0.18940778 -0.53623575 0.10199499
0.24099874 -0.52867955 0.13321114
0.28001601 -0.51896667 0.15228796
0.20183226 -0.48603523 0.10073566
0.24053526 -0.47684976 0.12406731
0.27975956 -0.48027593 0.14812422
0.20173451 -0.42319807 0.098195076
0.24302918 -0.41885909 0.12362099
0.279634 -0.41660437 0.14608526
0.20168686 -0.3606039 0.09695816
0.23780414 -0.35801959 0.11978388
0.27959222 -0.35315222 0.14540672
0.20168488 -0.29816508 0.096905708
0.24296016 -0.29284602 0.12226629
0.27955943 -0.28974211 0.14487457
0.20171124 -0.23577814 0.0975914
0.23778605 -0.23224597 0.11941481
0.27956825 -0.22639328 0.14501715
0.20173898 -0.17336757 0.098311901
0.24300361 -0.16703849 0.123106
0.27958074 -0.16304109 0.14522028
0.20176847 -0.11093023 0.099078655
0.23784536 -0.10654886 0.12063265
0.27964142 -0.099703863 0.14620495
0.20179611 -0.035964273 0.099796772
0.24049464 -0.03614568 0.1232686
0.27968365 -0.036327526 0.14689064
0.20184207 0.026538735 0.10099077
0.24054101 0.026807101 0.1241951
0.27973989 0.027079774 0.14780378
0.20188609 0.089088582 0.10213423
0.24061641 0.077214092 0.12568855
0.27984455 0.077856362 0.14950418
0.20197046 0.15172851 0.10432577
0.24071851 0.14029764 0.12775135
0.27995843 0.14139028 0.15135241
0.19564056 0.22035959 0.10174227
0.24079067 0.2034172 0.12917328
0.28003576 0.19224869 0.15260887
0.18929535 0.27639452 0.098797798
0.24085888 0.26658994 0.13055134
0.1893312 0.33897966 0.099867344
0.24088511 0.32972494 0.13107586
0.18936849 0.40160921 0.10096073
0.24091548 0.39289057 0.13166761
0.18943435 0.46440122 0.10284901
0.24102381 0.45630255 0.13383484
0.18952689 0.52739197 0.10553217
0.24119031 0.51998961 0.13716698
0.16437881 0.56419855 0.10129929
0.21579194 0.57003546 0.13426733
0.29401603 -0.53484195 0.17233706
0.3471905 -0.52589214 0.1972723
0.30624235 -0.48256922 0.16421747
0.36396721 -0.48203242 0.19935989
0.30608624 -0.41856164 0.16196489
0.35653701 -0.41916823 0.19312668
0.30604112 -0.35480425 0.16131258
0.3598285 -0.35819799 0.1939559
0.30604202 -0.29113379 0.16132641
0.3598412 -0.29390851 0.1940918
0.3060334 -0.22745329 0.16120195
0.35987759 -0.22963233 0.19453859
0.30601737 -0.16376896 0.16097021
0.35991442 -0.16533929 0.19495535
0.30606693 -0.10012196 0.16168547
0.3599143 -0.10101864 0.19494867
0.30612305 -0.036447711 0.16249561
0.35996735 -0.036700591 0.19555855
0.30621648 0.027264269 0.16384411
0.36007792 0.027646204 0.19687366
0.30633613 0.078290001 0.16557074
0.35478252 0.076501369 0.19529819
0.30647576 0.14214146 0.16758633
0.34682599 0.14330545 0.19284105
0.29776663 0.20993896 0.16413307
0.34694627 0.20768031 0.19433022
0.29342756 0.26930973 0.16267776
0.34704798 0.27209824 0.19559526
0.29345027 0.3330453 0.16302776
0.34712023 0.3365216 0.19649029
0.29351515 0.39687523 0.16401625
0.34711578 0.40086842 0.19643784
0.29362574 0.46084383 0.16572666
0.34728616 0.46551409 0.19852161
0.2938371 0.52512825 0.16894865
0.34750766 0.51746207 0.20128298
0.25548998 0.57609671 0.16850328
0.28232571 0.57986724 0.18979311
0.34789765 0.5569368 0.20608282
0.38850209 -0.53044426 0.22683954
0.4307133 -0.53520066 0.25773287
0.42871431 -0.48012999 0.23856068
0.47083843 -0.48380393 0.26507521
0.42853332 -0.41475451 0.23682547
0.47048423 -0.4177593 0.26200819
0.42847642 -0.36259708 0.23628235
0.47047064 -0.35213509 0.26189089
0.42846099 -0.2974675 0.2361331
0.47044837 -0.28651017 0.26169825
0.42851028 -0.23238423 0.23659515
0.4705497 -0.23408435 0.26257563
0.42857191 -0.16729015 0.23720503
0.47056949 -0.16847079 0.26274633
0.42863536 -0.1021727 0.23779249
0.47068822 -0.10287087 0.26377439
0.42870653 -0.037030853 0.23848629
0.47084662 -0.03723846 0.26514673
0.42883039 0.028139735 0.23968029
0.470963 0.02844646 0.26615477
0.38746765 0.092580333 0.21564102
0.42896658 0.080320477 0.24099016
0.471077 0.081024967 0.26714134
0.38766146 0.14445752 0.21773911
0.42918333 0.14562751 0.24307919
0.47134402 0.14684673 0.26945448
0.38783357 0.2093333 0.21960211
0.42935729 0.21097943 0.24474287
0.47154969 0.21271296 0.27123547
0.38788626 0.27417988 0.22017336
0.42666712 0.27095795 0.24400043
0.47163171 0.26540187 0.27194548
0.38799754 0.33910853 0.22137737
0.4323155 0.33402666 0.2480793
0.47165447 0.33122107 0.27214336
0.38796374 0.39092648 0.22101212
0.42962122 0.39406562 0.2472949
0.47172618 0.39710435 0.27276421
0.38817459 0.45607153 0.2232933
0.42978567 0.45961535 0.24887943
0.47189662 0.46312925 0.27423954
0.38844791 0.52140111 0.22625303
0.43011653 0.52547395 0.25205088
0.47227651 0.52949399 0.27752972
0.38895196 0.56127661 0.231709
0.43078038 0.56580389 0.25843954
0.48760521 -0.52783889 0.29578638
0.54333949 -0.51743925 0.31550646
0.49917313 -0.47292495 0.28185415
0.54227555 -0.47639689 0.30763721
0.58603758 -0.47999179 0.33431387
0.49890396 -0.41986668 0.27966881
0.5420872 -0.42303658 0.30623674
0.58584505 -0.42623055 0.33299732
0.49888662 -0.35390151 0.27952909
0.54204524 -0.3565436 0.30592775
0.5857048 -0.3591572 0.33203936
0.49887332 -0.28794384 0.27942038
0.54199076 -0.29005313 0.30551386
0.58576679 -0.29223081 0.33246231
0.49893722 -0.23521958 0.27993965
0.54208118 -0.236938 0.30618811
0.58583689 -0.23868775 0.33294106
0.49899405 -0.16928573 0.28040075
0.54218549 -0.17051123 0.30695868
0.5860495 -0.17177647 0.33439541
0.49913841 -0.10335119 0.28157282
0.54231179 -0.10406059 0.30790663
0.58615184 -0.10479469 0.33509541
0.49927312 -0.037372932 0.28266716
0.54245049 -0.037574768 0.30892849
0.5863266 -0.051193602 0.33628988
0.49942526 0.028650885 0.28390217
0.54262269 0.028955227 0.31020689
0.58634132 0.015849242 0.33639097
0.4996483 0.081526339 0.28571177
0.54275686 0.082212158 0.31121206
0.5865947 0.082936622 0.33812332
0.49974588 0.14762999 0.28650475
0.54298913 0.14885232 0.31293106
0.5868004 0.15007976 0.33952856
0.50000268 0.21384706 0.28859043
0.54325026 0.21556781 0.31487179
0.58698928 0.20383894 0.34082031
0.50009775 0.26680878 0.28936148
0.5433166 0.26891086 0.31536388
0.50009018 0.33293965 0.28930092
0.5433864 0.33559975 0.31587791
0.5001567 0.39914232 0.28984022
0.54342902 0.40228558 0.31618786
0.50029206 0.45220628 0.29093933
0.5436005 0.45578068 0.31747198
0.5006597 0.5188418 0.29392385
0.54400921 0.52292806 0.32049561
0.48731828 0.57162398 0.29280567
0.54536659 0.57802129 0.33057928
0.60315526 -0.52376473 0.35875416
0.65001237 -0.52957475 0.39847851
0.61561733 -0.48242429 0.35236216
0.66066682 -0.48617277 0.38018227
0.61531478 -0.41484445 0.35039663
0.66028327 -0.41801503 0.37785625
0.61528242 -0.3475107 0.35018635
0.66026753 -0.35016426 0.37775803
0.61535358 -0.29370248 0.3506484
0.66029137 -0.29590324 0.37790108
0.6154536 -0.22642203 0.35129786
0.66053647 -0.22815293 0.37938595
0.61565197 -0.1591492 0.35258675
0.66069847 -0.16032605 0.38036203
0.6157822 -0.1052883 0.35343266
0.6607843 -0.10602763 0.38088322
0.61588645 -0.037921496 0.35410976
0.66100585 -0.038137019 0.38221741
0.61604291 0.029472133 0.35512543
0.66113305 0.029795514 0.3829875
0.61621511 0.083425835 0.35624456
0.66140008 0.084190153 0.38459635
0.61636299 0.13740656 0.35720539
0.6615243 0.13859755 0.38535261
0.60922337 0.21139647 0.35444164
0.66174018 0.20666282 0.38665152
0.60195321 0.27177653 0.35083103
0.66192776 0.27476516 0.38779449
0.59903067 0.33354503 0.34931135
0.66199458 0.32923013 0.38820648
0.60506839 0.39865461 0.35365248
0.66197002 0.39725175 0.38805103
0.60229766 0.46058717 0.35314798
0.6620456 0.46534973 0.38851261
0.59965301 0.52260149 0.35348845
0.66236609 0.5200811 0.39045668
0.6089111 0.57521421 0.36723614
0.65809721 0.57029068 0.39217663
0.72563648 -0.48380819 0.42387962
0.71878916 -0.41695461 0.41638899
0.72211212 -0.35418934 0.4195919
0.72222 -0.29932234 0.4201889
0.72227842 -0.23068571 0.42052078
0.72238535 -0.16205022 0.42110729
0.72280478 -0.10717254 0.42341566
0.72287118 -0.038459197 0.42376661
0.72321641 0.030294219 0.42564249
0.72396547 0.085406259 0.4297266
0.72453511 0.14060979 0.43282986
0.70740873 0.20836656 0.4143281
0.70763546 0.27701253 0.41560841
0.70783007 0.33197412 0.41670895
0.70772725 0.40049225 0.4161272
0.70759624 0.46897262 0.41538715
0.70797914 0.52414745 0.41755009
0.6796965 0.59190899 0.41258478
0.70865303 0.56592381 0.42135572
0 0 0 1 0 0 0 1 0 0 0 1 0 0 0 0 0 630 1 0 0
