ply
format ascii 1.0
comment PCL generated
element vertex 291
property float x
property float y
property float z
element camera 1
property float view_px
property float view_py
property float view_pz
property float x_axisx
property float x_axisy
property float x_axisz
property float y_axisx
property float y_axisy
property float y_axisz
property float z_axisx
property float z_axisy
property float z_axisz
property float focal
property float scalex
property float scaley
property float centerx
property float centery
property int viewportx
property int viewporty
property float k1
property float k2
end_header
0.17593652 -0.90299112 -0.39198637
0.21296737 -0.90524936 -0.36498594
0.17575586 -0.83492643 -0.39668036
0.21720421 -0.84093368 -0.3706851
0.17601231 -0.7560882 -0.39001846
0.21756196 -0.76156813 -0.36360121
0.17621249 -0.69009173 -0.38481665
0.21520618 -0.68727416 -0.35684586
0.16270529 -0.62240678 -0.38832617
0.20404544 -0.61317575 -0.36316538
0.16289389 -0.54278952 -0.38290882
0.20422935 -0.54625738 -0.35918331
0.16303429 -0.46274328 -0.37886381
0.20443892 -0.46572638 -0.35464573
0.16320577 -0.38259858 -0.3739028
0.20469227 -0.38507396 -0.34916067
0.16339141 -0.30226547 -0.36850595
0.2049669 -0.30421019 -0.34321547
0.16357194 -0.22167379 -0.36325979
0.20523971 -0.23667559 -0.33730793
0.1637606 -0.14084324 -0.35790396
0.1639162 -0.059754498 -0.35337162
0.16407539 0.0079770796 -0.34880877
0.16144635 0.070395388 -0.34627151
0.15051839 0.1571424 -0.34783363
0.14380166 0.24536218 -0.34639645
0.13427573 0.31440908 -0.34781599
0.12335089 0.40093321 -0.34999466
0.12344451 0.46925837 -0.34594059
0.12355217 0.53784937 -0.34127855
0.12365458 0.59296024 -0.33684397
0.097367585 -0.94546324 -0.27739954
0.13854645 -0.94271421 -0.28822184
0.23260745 -0.65881401 -0.33416939
0.23280177 -0.60493737 -0.33056355
0.20535871 -0.19600086 -0.33473206
0.20561016 -0.14172176 -0.32928848
0.20585185 -0.059977263 -0.32405472
0.20612571 0.0083319545 -0.3181262
0.17812234 0.10338429 -0.33519697
0.20620662 0.049389198 -0.3163743
0.17822117 0.15795907 -0.33263016
0.17843041 0.240081 -0.32719374
0.17169663 0.32889259 -0.32541895
0.16208492 0.39823657 -0.32745647
0.16783258 0.46484971 -0.31923532
0.16526183 0.54215068 -0.31468248
0.15505937 0.62777436 -0.31412411
0.15170532 0.70690411 -0.31216908
0.14831254 0.7859 -0.31101274
0.15599114 0.85437387 -0.30125284
0.1380659 0.9134292 -0.30814219
0.14575315 -0.92845762 -0.19572306
0.084185883 0.95052642 -0.22126818
-0.0011328906 -0.95353478 -0.13234949
0.077896371 -0.94286656 -0.14629698
0.13747591 -0.90166014 -0.14914989
0.13939914 -0.8407982 -0.14780617
0.14478478 -0.76951659 -0.16037941
0.13511193 -0.69884598 -0.14823294
0.12818474 -0.60693872 -0.14068222
0.12809399 -0.53462821 -0.14461231
0.12805143 -0.46271461 -0.14645481
0.099965058 -0.38020474 -0.10868883
0.12793122 -0.37623268 -0.15165949
0.099920258 -0.30758321 -0.11159945
0.12785476 -0.30441201 -0.15497065
0.099902272 -0.23518172 -0.11276722
0.1277931 -0.2327686 -0.15764141
0.099853203 -0.14830655 -0.1159544
0.12772222 -0.14692605 -0.16070986
0.099817999 -0.061578691 -0.11824083
0.12770891 -0.061245464 -0.16128635
0.099801749 0.010625284 -0.11929655
0.12768626 0.010129124 -0.16226673
0.099768072 0.082741976 -0.12148428
0.12766081 0.081455201 -0.1633687
0.099749394 0.16926265 -0.12269735
0.12763162 0.16700029 -0.16463232
0.099750057 0.24139546 -0.12265396
0.12761785 0.23828162 -0.16522884
0.09976314 0.31360412 -0.12180376
0.099741235 0.40000045 -0.12322664
0.099704318 0.47180134 -0.12562466
0.099688306 0.54370916 -0.12666464
0.099801168 0.61705106 -0.11933422
0.099883139 0.87819117 -0.11401033
0.013307717 0.94447976 -0.13704014
0.077856913 0.93503594 -0.14564371
0.071331412 -0.9188394 -0.058542728
0.088832289 -0.84703618 -0.065086365
0.085892051 -0.76492894 -0.065723896
0.085852981 -0.69112104 -0.069076061
0.085810184 -0.61739689 -0.072762012
0.085764438 -0.52916098 -0.0768466
0.085727811 -0.45577919 -0.080143929
0.07135842 -0.38441676 -0.062977314
0.071337551 -0.29629946 -0.065688133
0.071322784 -0.22297756 -0.067606926
0.07130079 -0.14970648 -0.070463181
0.059586752 -0.067982666 -0.054875851
0.061522659 0.016237531 -0.059951782
0.056645431 0.084832154 -0.053756714
0.056642227 0.15822643 -0.054992676
0.056640342 0.23165517 -0.055039406
0.056646805 0.31982183 -0.054432392
0.05663738 0.39296299 -0.057106972
0.056629397 0.46601087 -0.059744835
0.059540674 0.54728144 -0.065128326
0.053712104 0.61897075 -0.057123661
0.080988921 0.68986553 -0.065254688
0.093224861 0.78712004 -0.066893578
0.078581288 0.84548718 -0.067708492
-0.046295002 0.93908316 -0.045148373
-0.0020570606 0.93708664 -0.05300808
0.056589007 0.91627866 -0.077223301
-0.092972361 -0.96275759 0.026885033
-0.047547758 -0.95851284 0.0090970993
0.0023469403 -0.94616997 -0.00064945221
0.042048 -0.91243321 0.0036072731
0.042048 -0.83927971 0.010082245
0.042048 -0.76348501 0.0042834282
0.011886325 -0.68116963 0.047603607
0.042048 -0.68835497 0.00095319748
0.01191132 -0.60529447 0.0443573
0.042048 -0.6132611 -0.0029320717
0.011930063 -0.52963763 0.041922569
0.042048 -0.53838891 -0.0063080788
0.011954796 -0.45400769 0.038709641
0.042048 -0.46367961 -0.0093588829
0.011994159 -0.3783108 0.033596516
0.042048 -0.38889432 -0.014595509
0.012019066 -0.30295503 0.030360222
0.042048 -0.29953092 -0.019124985
0.012042569 -0.22772865 0.027306557
0.042048 -0.22523785 -0.022411823
0.012052149 -0.15267688 0.026062012
0.042048 -0.15111507 -0.024737835
0.012075692 -0.062671028 0.023005962
0.042048 -0.032690514 -0.026013374
0.012095619 0.012235921 0.02041626
0.042048 -0.0030993447 -0.02649498
0.012120508 0.087014213 0.01718235
0.012127485 0.16179308 0.016276836
0.012129707 0.23656942 0.015987396
0.012127485 0.3113957 0.016276836
0.012142384 0.38598198 0.014341354
0.012174238 0.47515684 0.010202885
0.012197563 0.54939008 0.0071730614
0.012220073 0.62351841 0.0042481422
0.012126667 0.70040935 0.016382694
0.056847863 0.72384304 -0.016354084
0.011896862 0.75123924 0.046235561
0.049450491 0.77235383 0.0027356148
0.011959193 0.85490561 0.038137436
0.042048 0.85840678 -0.011669159
-0.078565381 0.93199342 0.045614719
0.0022203662 0.91264015 0.0075359344
-0.065101266 -0.95086056 0.10528231
-0.011289895 -0.91564476 0.085045815
-0.0005941838 -0.847233 0.07783556
-0.0066997893 -0.7686215 0.080109119
-0.0087256096 -0.7017532 0.080815792
-0.018994462 -0.61259907 0.094312191
-0.018933404 -0.53579003 0.090346813
-0.018874221 -0.45915383 0.086502075
-0.018819191 -0.38267916 0.082927704
-0.018797062 -0.30649948 0.08149004
-0.018749859 -0.23028578 0.0784235
-0.050246984 -0.14037004 0.12597704
-0.018713646 -0.15422174 0.076071739
-0.050189823 -0.063442647 0.12350178
-0.018659886 -0.07822296 0.072580338
-0.050102495 0.013383221 0.11972046
-0.018610809 -0.0023643393 0.069392204
-0.050052725 0.090102687 0.11756611
-0.018552925 0.0885031 0.065633297
-0.049987733 0.16671884 0.11475182
-0.018530056 0.16418843 0.064147472
-0.049987264 0.2434146 0.11473083
-0.018542074 0.239967 0.064927578
-0.04994908 0.31996244 0.11307716
-0.018528767 0.31562626 0.064064503
-0.049950682 0.3966369 0.11314726
-0.018523961 0.39131117 0.063752174
-0.049916975 0.47311467 0.11168814
-0.018493302 0.46677715 0.061759949
-0.049855486 0.54935938 0.109025
-0.018466856 0.54219604 0.060042858
-0.049810886 0.62563062 0.10709429
-0.018391099 0.63212961 0.055121899
-0.050003573 0.68840289 0.11543703
-0.018610835 0.71042216 0.069394112
-0.0036597289 0.78830886 0.079965591
-0.050007351 0.88786399 0.11560202
-0.018889349 0.85083616 0.087484837
-0.065087214 0.91575432 0.10389328
-0.018386059 0.90403783 0.054794788
-0.15959069 -0.96327668 0.15904474
-0.20764801 -0.92221028 0.18404484
-0.17702442 -0.94027579 0.19496489
-0.074236326 -0.93207622 0.15844393
-0.20851853 -0.84701949 0.19818068
-0.063891329 -0.8358739 0.17368555
-0.20886147 -0.78541863 0.20375013
-0.067028835 -0.76439738 0.17422724
-0.070176683 -0.69297469 0.17567062
-0.063621573 -0.61643702 0.16333008
-0.070043549 -0.53664637 0.17093229
-0.063484862 -0.46061176 0.1580534
-0.069897503 -0.38063496 0.16564369
-0.063359767 -0.30523407 0.15331888
-0.069724336 -0.22498384 0.15934324
-0.071809612 -0.15668467 0.1603241
-0.082498148 -0.063834675 0.17424107
-0.082401842 0.013978399 0.17111444
-0.082356229 0.076161519 0.16963434
-0.082260832 0.1537693 0.16653538
-0.082234383 0.23140819 0.16567612
-0.082182273 0.30894023 0.16398382
-0.082133718 0.38642138 0.16240692
-0.082107969 0.46393079 0.1615715
-0.082026243 0.54115325 0.15891647
-0.081963748 0.6183691 0.15688658
-0.071717791 0.71164876 0.15857744
-0.070140213 0.78319526 0.17497063
-0.066543102 0.85086221 0.1568346
-0.14416164 0.91951752 0.1633215
-0.097105704 0.91065061 0.14744806
-0.13783437 -0.91415465 0.21921444
-0.083564691 -0.91197884 0.20887899
-0.15157804 -0.84337431 0.2250042
-0.083563872 -0.88056999 0.20885229
-0.20903915 -0.75456595 0.206635
-0.14738616 -0.76794922 0.23134041
-0.2092351 -0.69230187 0.20981789
-0.14746973 -0.69210535 0.23304653
-0.20946217 -0.61430484 0.21350336
-0.14760035 -0.61746144 0.23566628
-0.20982644 -0.53643095 0.219419
-0.14773935 -0.53878093 0.23848677
-0.21013379 -0.45824403 0.22441006
-0.14788687 -0.46001428 0.24143744
-0.21042213 -0.37982845 0.22909117
-0.14806387 -0.38117808 0.24499846
-0.21067703 -0.30120653 0.23323059
-0.14815333 -0.30208772 0.24665737
-0.21103463 -0.22248988 0.23903704
-0.14822292 -0.22290382 0.24776459
-0.21130744 -0.1435304 0.24346781
-0.14830172 -0.14368376 0.24908733
-0.21912098 -0.056454517 0.24221468
-0.14836061 -0.064408861 0.25007248
-0.22699285 0.014798917 0.24174595
-0.14840883 0.014897369 0.25063419
-0.22723943 0.078212582 0.24553299
-0.14845443 0.078370407 0.25148678
-0.22748908 0.15760666 0.24930954
-0.14849651 0.15772967 0.25214958
-0.22786191 0.23725753 0.25499535
-0.14851552 0.23707546 0.25225925
-0.22810858 0.31697649 0.25876808
-0.14850262 0.31637067 0.2516861
-0.22837952 0.39687026 0.26290894
-0.14852363 0.39572549 0.25191498
-0.23170078 0.47029412 0.26497173
-0.13746691 0.46309167 0.24105406
-0.22583956 0.54778713 0.27274323
-0.13537195 0.54355514 0.24284029
-0.23432103 0.61576265 0.27232265
-0.12851855 0.62387395 0.23031235
-0.24493912 0.7007367 0.2717905
-0.13541642 0.70211935 0.24407816
-0.24551415 0.76609355 0.28009033
-0.13271675 0.77719802 0.25522709
-0.24530512 0.89322579 0.27707195
-0.13232663 0.85457063 0.24607849
-0.22703853 0.91709113 0.24216032
-0.16303629 0.91364259 0.22722769
-0.18172234 0.47878498 0.28214741
-0.18182471 0.54298574 0.28404808
-0.21383786 0.63901013 0.28455544
-0.18197337 0.62337619 0.28680611
-0.21399903 0.70345485 0.28717232
-0.18218878 0.70409518 0.29080391
-0.224958 0.78975648 0.2920866
-0.18260342 0.78568745 0.29849815
-0.23029336 0.84850174 0.29204464
-0.18255186 0.84966117 0.29754257
-0.21408871 0.89580524 0.28862953
-0.18186942 0.89496791 0.28487682
0 0 0 1 0 0 0 1 0 0 0 1 0 0 0 0 0 291 1 0 0
