ply
format ascii 1.0
comment PCL generated
element vertex 323
property float x
property float y
property float z
element camera 1
property float view_px
property float view_py
property float view_pz
property float x_axisx
property float x_axisy
property float x_axisz
property float y_axisx
property float y_axisy
property float y_axisz
property float z_axisx
property float z_axisy
property float z_axisz
property float focal
property float scalex
property float scaley
property float centerx
property float centery
property int viewportx
property int viewporty
property float k1
property float k2
end_header
0.50251579 -0.28294587 -0.81695747
0.48104534 -0.16498992 -0.82816124
0.50221193 -0.25343341 -0.81867313
0.48285395 -0.10672896 -0.81748104
0.46360591 0.10862403 -0.81549454
0.48332557 -0.30874461 -0.75474644
0.55690223 -0.28335583 -0.73873615
0.53995377 -0.21613285 -0.75757217
0.48451746 -0.04806884 -0.80765915
0.53499407 -0.098256573 -0.74808502
0.48598585 0.011107195 -0.79898834
0.53154361 0.0073801465 -0.73919392
0.48292324 0.13007393 -0.78807545
0.52705282 0.11938745 -0.73069954
0.47949955 0.23010613 -0.77901077
0.52287835 0.22609149 -0.72121716
0.34821379 0.35996956 -0.70928764
0.46244696 0.32223397 -0.75981998
0.51087451 0.31874818 -0.71222591
0.19855583 -0.34051049 -0.64605331
0.46539667 -0.31655884 -0.67666054
0.5861432 -0.29444176 -0.6925087
0.63687754 -0.28770781 -0.62888336
0.58662945 -0.19189487 -0.69007969
0.63554853 -0.22141416 -0.63004684
0.58947498 -0.099664196 -0.67586136
0.63144404 -0.10556445 -0.61980534
0.58282208 0.021778092 -0.67061806
0.62983757 0.00022565946 -0.61038589
0.58302259 0.11846019 -0.65648651
0.62581015 0.12192142 -0.60044193
0.57353455 0.22979547 -0.65233803
0.22156854 0.35350853 -0.61397362
0.2869744 0.35721791 -0.58861446
0.43145534 0.36179113 -0.69745541
0.56172407 0.31922847 -0.6411829
0.16286641 -0.35755664 -0.48788166
0.18433526 -0.35606992 -0.50168324
0.69256908 -0.29769772 -0.54014587
0.73670202 -0.29090887 -0.4917717
0.69258088 -0.21282376 -0.55239296
0.73565167 -0.22430381 -0.4961729
0.69555295 -0.10730836 -0.53190136
0.73999017 -0.15898108 -0.47799301
0.68477666 0.015754499 -0.53397846
0.67558414 0.1220405 -0.53291225
0.65988672 0.23156442 -0.53457546
-0.058260787 0.32795715 -0.48621368
0.11802539 0.34480995 -0.52421856
0.19611497 0.35003573 -0.48649979
0.34255725 0.36032772 -0.56735039
0.43171483 0.36378449 -0.54371834
0.60510772 0.3397882 -0.56148911
0.65024024 0.31851518 -0.5252161
0.14145653 -0.35999465 -0.46526527
0.4804149 -0.34096563 -0.43277359
0.79538655 -0.29065943 -0.40504646
0.78677279 -0.2124296 -0.42028046
0.77507627 -0.096553028 -0.41997051
0.76504517 0.0085196011 -0.42080116
0.72054386 0.14129783 -0.46614552
0.77010101 0.11149445 -0.3999691
0.70953029 0.2413892 -0.46575546
0.74601358 0.23220234 -0.41749191
-0.18671246 0.31624669 -0.40170193
-0.15400627 0.31875962 -0.38129616
-0.0036573708 0.33345872 -0.44417
0.086659133 0.33925712 -0.39986229
0.25310272 0.35339284 -0.46227455
0.33400825 0.35741705 -0.43323326
0.44054928 0.36283714 -0.39411736
0.51219404 0.36580497 -0.3727026
0.69692051 0.33873463 -0.44725227
0.74480039 0.31180114 -0.40091896
0.087337062 -0.37704694 -0.30704021
0.4613086 -0.3519215 -0.32329655
0.84453428 -0.28106898 -0.33281898
0.84346765 -0.21078394 -0.33689404
0.81444174 -0.04806884 -0.35955715
0.81896585 0.010070495 -0.34174824
0.82556742 0.092574418 -0.31576157
0.7945447 0.23035611 -0.3465786
-0.31118655 0.30376261 -0.31262589
-0.26890886 0.30891627 -0.26799297
-0.098876595 0.32450056 -0.33468628
-0.0066563971 0.33020246 -0.28839397
0.091185249 0.33794671 -0.28819275
0.21605185 0.34922445 -0.32369709
0.33645177 0.35425687 -0.28524303
0.42254007 0.3579511 -0.25701427
0.7851879 0.32407057 -0.33751011
-0.0090653524 -0.38996208 -0.18720055
0.43564966 -0.35951215 -0.24744701
0.59379673 -0.34341156 -0.16239548
-0.61486542 0.27317572 -0.14950562
-0.43343559 0.29205483 -0.20361996
-0.36730278 0.29755265 -0.15260887
-0.21378841 0.31493425 -0.21587372
-0.13193634 0.32076764 -0.16535759
0.12486632 0.33834434 -0.22229099
0.22482456 0.34569943 -0.16257572
0.47250119 0.36008066 -0.24074173
0.52333099 0.36252898 -0.2220335
-0.31720883 -0.40479553 -0.049564362
-0.22286583 -0.39819854 -0.1107769
-0.11013187 -0.39791143 -0.11344051
0.38534671 -0.38108081 -0.031920433
0.45385441 -0.35795939 -0.059001923
0.55339152 -0.31052285 -0.086417198
0.5670625 -0.2166118 -0.062504768
0.56200844 -0.10686716 -0.048636436
0.57185394 0.013104256 -0.051006317
0.55758524 0.11273086 -0.044284821
-0.75113988 0.25802374 -0.046029091
-0.71619046 0.25934118 -0.031762123
-0.55211258 0.27950674 -0.086244583
-0.48532557 0.28476852 -0.033662796
0.54278904 0.23856328 -0.049510002
-0.3096365 0.30147636 -0.11619854
-0.25381559 0.30921644 -0.044382095
-0.071922153 0.32470214 -0.13128185
-0.010077037 0.32664824 -0.11443043
0.10319964 0.33175474 -0.070205688
0.3381137 0.34946346 -0.13201523
0.44893113 0.33989453 -0.071320534
0.53121692 0.3299095 -0.085072517
-0.79282874 -0.40383261 0.032503128
-0.6493293 -0.41876489 0.080059052
-0.5630669 -0.41460234 0.041431427
-0.45157105 -0.4097898 -0.0032224655
-0.37248081 -0.40850717 -0.015122414
0.26387817 -0.39182663 0.07545948
0.32564771 -0.38669419 0.024175644
-0.85144806 -0.29337385 -0.005150795
-0.8132745 -0.32352591 0.0484972
0.35190105 -0.33441573 0.061847687
0.43357632 -0.31501621 0.0099105835
-0.85445118 -0.21644147 0.0059967041
-0.81938344 -0.22403321 0.051691055
0.37016255 -0.24670404 0.081010818
0.44347075 -0.21765135 0.030129433
0.51463664 -0.21498781 -0.023199081
-0.8567673 -0.11298925 0.014591217
-0.82857537 -0.10063368 0.056572914
0.4446297 -0.10039144 0.040158272
0.51580954 -0.11242166 -0.014735222
-0.85975921 0.0040903986 0.025697708
-0.83418816 0.0089678466 0.061270714
0.4448452 0.017390899 0.041954994
0.52680951 -0.0023199134 -0.017632484
-0.86302221 0.12197003 0.038252831
0.44433227 0.12189655 0.037552834
0.51580805 0.11928171 -0.014745712
-0.86301953 0.20597471 0.038169861
-0.82678837 0.24061601 0.049632072
-0.6629203 0.26411968 0.019967079
-0.59491992 0.26897013 0.072475433
-0.46272916 0.28672272 -0.014136314
0.36960739 0.24273668 0.074999809
0.44511694 0.2283604 0.023022652
0.51462674 0.20873924 -0.023271561
-0.42731416 0.2889961 0.0085811615
-0.35437885 0.2931996 0.050582886
-0.19186097 0.31183219 -0.020112991
-0.11636485 0.31558824 0.014741898
-0.013303716 0.31998116 0.055500984
0.21977235 0.33825535 -0.01390934
0.33667371 0.3238489 0.027212143
0.42837095 0.30214453 0.01061821
-0.75203872 -0.39670593 0.12421608
-0.70948905 -0.41544098 0.13364887
0.13386655 -0.40179461 0.17506886
0.21268706 -0.39571738 0.11433792
-0.75519925 -0.33077157 0.13780117
-0.71377921 -0.30799907 0.19475269
0.16156135 -0.37574869 0.18765831
0.23378405 -0.33580709 0.15363121
0.30893335 -0.31796664 0.10408592
-0.76126969 -0.21892408 0.13110733
-0.71360296 -0.23955494 0.19393539
0.25156787 -0.22924611 0.1707716
0.32740441 -0.21817233 0.1162529
-0.7705996 -0.10472648 0.13741398
0.25659221 -0.10253052 0.17893791
0.33205625 -0.10758932 0.12175846
-0.77969974 0.015212141 0.14175129
0.25653642 0.019999586 0.1779604
0.3349191 0.011467632 0.12027836
-0.79433537 0.12672435 0.13318634
0.2517513 0.13328256 0.17398357
0.33313894 0.12585536 0.11660767
-0.78438067 0.22043322 0.12882614
-0.69784868 0.25201559 0.18425369
-0.53810936 0.27405423 0.12751198
-0.47912604 0.27900529 0.18111038
0.23814735 0.24018328 0.16827488
0.32350147 0.22934772 0.11107159
-0.2932258 0.29749191 0.093474388
-0.22961603 0.30117607 0.13028812
-0.13832456 0.30614692 0.17996216
0.11773311 0.31973833 0.12561035
0.22632281 0.31341434 0.11972809
0.30505374 0.29779923 0.09654808
-0.65587914 -0.40503544 0.26357937
-0.0602392 -0.41393507 0.29637623
0.0033672266 -0.40456837 0.27299404
0.061504211 -0.39890021 0.23925877
-0.67391014 -0.33335 0.25185394
0.10920839 -0.33060199 0.2552433
0.18947916 -0.30862612 0.20353699
-0.67453682 -0.21695144 0.2518177
0.12475426 -0.21927537 0.26836681
0.20149589 -0.22081031 0.21060562
-0.68852383 -0.1105184 0.24796486
0.14025885 -0.10387513 0.26581478
0.20376927 -0.10313493 0.21805859
-0.7418046 0.047781378 0.1977272
-0.69850945 0.0075315833 0.25357819
0.13172643 0.014220249 0.27043819
0.20372236 0.020747483 0.21690845
-0.74343288 0.13030826 0.20501995
-0.70065755 0.12388504 0.2640028
0.12197582 0.11944303 0.26949692
0.20153257 0.12472261 0.21149063
-0.74234939 0.21224172 0.20016766
-0.68697339 0.22094227 0.25738049
-0.59333444 0.2607705 0.28764153
-0.42951819 0.28237402 0.21757889
-0.37854645 0.28553939 0.25184536
0.11194163 0.23712675 0.25644016
0.18961975 0.22647415 0.20718861
-0.31254178 0.28878963 0.2870245
-0.084685937 0.30818576 0.20033169
-0.0075682066 0.30295491 0.2417841
0.072921835 0.30395257 0.22787285
-0.62764174 -0.38805687 0.32090759
-0.57215852 -0.40971458 0.3776865
-0.44429284 -0.4170047 0.32705593
-0.33109722 -0.417261 0.32961559
-0.21682601 -0.4163692 0.32070351
-0.10441418 -0.40432328 0.3439846
-0.018546749 -0.38812435 0.32163334
-0.62678474 -0.32164323 0.31626797
-0.58261162 -0.31728679 0.37504196
-0.07298319 -0.33235186 0.39647579
-0.0048603937 -0.31915265 0.34838295
0.052334916 -0.28847289 0.31460571
-0.62786502 -0.20392238 0.32211494
-0.58108079 -0.20642537 0.38146496
-0.063739136 -0.20764239 0.41004086
-0.0051393397 -0.20579408 0.36624432
0.057980791 -0.19539519 0.32061005
-0.62985051 -0.090665519 0.33286285
-0.59370512 -0.097403243 0.38257408
-0.063894764 -0.10618396 0.41509438
-0.0052111931 -0.091146342 0.37091732
0.066457048 -0.10471036 0.31948376
-0.64476913 0.00062678009 0.32618141
-0.59873474 0.0014353953 0.38782787
-0.06382288 -0.004521817 0.41275978
-0.0051720291 0.0093183294 0.36838341
0.064438991 -0.01164161 0.31988811
-0.6454919 0.108634 0.34075642
-0.6006918 0.10486896 0.39906406
-0.063566044 0.11126348 0.40441799
-0.0050494075 0.10941128 0.36054325
0.052334916 0.1076809 0.31977749
-0.6452648 0.20815076 0.33954906
-0.57891893 0.23377155 0.3664999
-0.46657282 0.2691052 0.38607311
-0.082505301 0.2310711 0.39262962
-0.0047577657 0.2225614 0.34215832
0.052334916 0.19205317 0.31027412
-0.21716942 0.29249489 0.32713413
-0.10443266 0.29385155 0.34182262
-0.032600645 0.2916733 0.31824207
-0.52097332 -0.40091199 0.46006489
-0.48383957 -0.40551859 0.50993061
-0.22837235 -0.40236515 0.47579765
-0.15130401 -0.39716375 0.41949272
-0.52546757 -0.33214861 0.45762444
-0.48427027 -0.33135378 0.51303864
-0.2052166 -0.33520687 0.4998436
-0.12929055 -0.3203398 0.44410896
-0.52081329 -0.20970924 0.45901871
-0.48373616 -0.21183622 0.50918293
-0.20110597 -0.21201606 0.51303387
-0.1239704 -0.20955521 0.45500469
-0.53745693 -0.096126124 0.45491409
-0.48573232 -0.12278441 0.52359104
-0.20135276 -0.092827693 0.51680374
-0.1241401 -0.10097906 0.45899677
-0.53451127 0.0050106123 0.47237301
-0.2010342 0.011527326 0.51194096
-0.12405957 -8.1062317e-06 0.45678139
-0.54278183 0.11778677 0.47773266
-0.20046945 0.11545026 0.50330734
-0.12363781 0.11310346 0.44791126
-0.54750514 0.2144499 0.46863747
-0.45004117 0.26181817 0.47651958
-0.34504768 0.27581412 0.46530056
-0.22251011 0.23706697 0.48374367
-0.13975649 0.22325267 0.43715572
-0.42526689 -0.40442806 0.58098221
-0.34964573 -0.40120238 0.5955534
-0.43581662 -0.33224058 0.58284569
-0.34199587 -0.32916307 0.61028004
-0.26596093 -0.32759762 0.55119896
-0.43324742 -0.21503124 0.58466625
-0.34603676 -0.21655695 0.62011528
-0.26446027 -0.21397683 0.55921268
-0.44302046 -0.092536286 0.58857155
-0.34868148 -0.098186746 0.61889458
-0.26458475 -0.093338773 0.56076431
-0.44786733 0.008053828 0.58982849
-0.34202299 0.0069639608 0.61075115
-0.26443994 0.012254637 0.55892563
-0.44974047 0.11938608 0.59529972
-0.34455767 0.11977348 0.6054163
-0.26370412 0.11741349 0.54982376
-0.44455877 0.22249706 0.58643532
-0.34214231 0.22487776 0.58125973
-0.278429 0.20750754 0.54656124
0 0 0 1 0 0 0 1 0 0 0 1 0 0 0 0 0 323 1 0 0
