ply
format ascii 1.0
comment PCL generated
element vertex 771
property float x
property float y
property float z
element camera 1
property float view_px
property float view_py
property float view_pz
property float x_axisx
property float x_axisy
property float x_axisz
property float y_axisx
property float y_axisy
property float y_axisz
property float z_axisx
property float z_axisy
property float z_axisz
property float focal
property float scalex
property float scaley
property float centerx
property float centery
property int viewportx
property int viewporty
property float k1
property float k2
end_header
-0.21091217 0.27691317 -0.59482908
-0.16203815 0.30429432 -0.58883047
-0.20253173 0.34915686 -0.62989998
-0.154333 0.3498368 -0.60401773
-0.10375076 0.35904613 -0.578547
-0.21018675 0.40948781 -0.5953126
-0.15448502 0.39452273 -0.58636427
-0.2670742 0.15422839 -0.52152061
-0.24458843 0.1659286 -0.51908445
-0.27009514 0.20571008 -0.52944088
-0.22063068 0.20817679 -0.54138613
-0.16051027 0.22916567 -0.52043629
-0.25563827 0.26772353 -0.55045795
-0.20880559 0.26125938 -0.56721687
-0.14475697 0.27370194 -0.5501008
-0.088858552 0.29223776 -0.52806282
-0.070851021 0.34641707 -0.55176067
-0.012853794 0.35513562 -0.52026367
-0.21497151 0.43825665 -0.56017447
-0.14666182 0.42872065 -0.53992176
-0.085486047 0.40574723 -0.53633356
-0.015861079 0.3936663 -0.51242065
-0.26503393 0.47766465 -0.52710915
-0.22480562 0.47178704 -0.51981497
-0.32516247 0.029284373 -0.44051075
-0.28936508 0.071379595 -0.45815325
-0.23923975 0.092490293 -0.44730759
-0.29119375 0.12597013 -0.48284626
-0.21687204 0.13560584 -0.47194004
-0.16026285 0.15304708 -0.44780016
-0.28120142 0.18457285 -0.49713182
-0.19849336 0.17629606 -0.49747419
-0.14389768 0.20041937 -0.48071766
-0.087821268 0.21715418 -0.45554876
-0.037061699 0.2336112 -0.43474102
-0.067263909 0.26243541 -0.48378754
-0.013380617 0.28486627 -0.46599054
0.035577573 0.2998884 -0.44591761
0.0038855672 0.32974836 -0.49421978
0.057298232 0.34982675 -0.47131729
0.1063081 0.36288387 -0.44540596
-0.069926895 0.43803126 -0.48505878
-0.0069275275 0.42252603 -0.47141743
0.053486891 0.40562999 -0.4614377
0.099037625 0.40328649 -0.43698263
-0.27427906 0.50896698 -0.48928165
-0.21874276 0.50512987 -0.47162342
-0.1483137 0.48049206 -0.46983528
-0.086499549 0.46761739 -0.4527874
-0.29146507 0.5423947 -0.45271873
-0.24076754 0.53908116 -0.43761969
-0.35080397 -0.052581087 -0.37980366
-0.31179494 -0.038587641 -0.37361908
-0.34653717 -0.0018571205 -0.39726543
-0.2897366 0.0044881217 -0.39961147
-0.23249811 0.021224082 -0.37767792
-0.33521113 0.064234324 -0.41804743
-0.26510683 0.052433863 -0.42733574
-0.21462286 0.068540454 -0.40936804
-0.16191357 0.083138779 -0.38453674
-0.11157336 0.10181954 -0.36478806
-0.1412321 0.13299143 -0.41499901
-0.087760828 0.14817396 -0.39082575
-0.035206385 0.16569275 -0.3699708
-0.066463135 0.19537985 -0.4204669
-0.013345912 0.21214628 -0.39755297
0.040842008 0.2291334 -0.37624407
0.0079646111 0.25740397 -0.42631674
0.060635932 0.27558759 -0.40542603
0.1212609 0.29398096 -0.38135767
0.08200784 0.31903797 -0.43248463
0.14262789 0.34386227 -0.41312122
0.20766678 0.35810399 -0.38129616
-0.020229056 0.45551705 -0.43140507
0.061320025 0.43899968 -0.41313171
0.13361368 0.4139778 -0.39968729
0.19484662 0.39679492 -0.38240576
-0.1906454 0.52373791 -0.4311347
-0.1465925 0.5155592 -0.41834593
-0.082277052 0.50122821 -0.40109444
-0.012276165 0.47848403 -0.39528465
0.046833236 0.46670169 -0.38130617
-0.32860401 0.57721657 -0.42262745
-0.28315288 0.57646841 -0.40472746
-0.22520012 0.56289977 -0.39421988
-0.1550464 0.54273885 -0.38384533
-0.34684306 0.60999745 -0.38809347
-0.31103992 0.60710597 -0.37774611
-0.40377185 -0.14033914 -0.31197453
-0.36222109 -0.12972769 -0.31757784
-0.30993444 -0.11679205 -0.30085564
-0.40087226 -0.083245441 -0.32542658
-0.35844326 -0.076172322 -0.34781075
-0.28894794 -0.065369569 -0.33353615
-0.22769961 -0.050613347 -0.30796623
-0.21250114 -0.0085928049 -0.33645916
-0.16214097 0.0074157827 -0.3155632
-0.13770559 0.051615402 -0.33743763
-0.084366255 0.073172264 -0.31927299
-0.027577214 0.088027425 -0.29504013
-0.060463108 0.11584397 -0.34180307
-0.0068233088 0.13865495 -0.32529402
0.053943232 0.15993148 -0.30032253
0.016467616 0.17967874 -0.34543085
0.06349805 0.20207199 -0.3341651
0.1170722 0.22249049 -0.31401014
0.14160688 0.26814809 -0.34072685
0.19483191 0.28311089 -0.32188177
0.256832 0.29947001 -0.30253172
0.23150867 0.33232027 -0.35008955
0.27341589 0.34554604 -0.33068037
0.33100927 0.35994017 -0.30470896
0.13425338 0.44585827 -0.35634327
0.20767157 0.42754135 -0.33599091
0.27309147 0.40944269 -0.31700659
0.32421589 0.39370075 -0.30489063
-0.059857138 0.52637148 -0.35127068
0.0016472638 0.51108897 -0.3413291
0.057560861 0.49542266 -0.3326478
0.12289959 0.47807688 -0.3172574
0.17101805 0.46527559 -0.30708647
-0.40786687 0.57693928 -0.29297543
-0.20687082 0.58503056 -0.35197449
-0.14190328 0.57729131 -0.32590532
-0.076667272 0.55009311 -0.32752705
-0.0087479651 0.53666753 -0.30947399
-0.40583149 0.63753957 -0.30241823
-0.36413595 0.63805538 -0.33160067
-0.29001164 0.63031369 -0.33210611
-0.21667221 0.61442637 -0.31435394
-0.43254331 -0.26907992 -0.23012304
-0.42141935 -0.21716627 -0.26105356
-0.36295885 -0.20455793 -0.25040483
-0.30066901 -0.18732321 -0.22955036
-0.42335847 -0.14798006 -0.27758265
-0.35063013 -0.1612407 -0.28444529
-0.29020467 -0.1444793 -0.26276255
-0.23141277 -0.12413652 -0.24280262
-0.26317966 -0.092919946 -0.29204941
-0.21347511 -0.079226673 -0.27181435
-0.15492943 -0.06139309 -0.24815226
-0.096207611 -0.038587432 -0.2289114
-0.13158563 -0.0082809627 -0.27936935
-0.078569524 -9.2290342e-05 -0.2492671
-0.030976988 0.017132889 -0.23194838
-0.058893003 0.046418235 -0.27726316
-0.0021426082 0.062555172 -0.25336456
0.049596984 0.085020669 -0.2358098
0.020264037 0.11290168 -0.28300333
0.064278454 0.1298621 -0.26487303
0.11756527 0.14632854 -0.24159622
0.17352694 0.16625792 -0.22560787
0.13333254 0.19189352 -0.27290678
0.19768324 0.2136789 -0.25417614
0.26135418 0.2349509 -0.2355957
0.22019836 0.25823468 -0.28385973
0.27781692 0.27445713 -0.26357508
0.34148496 0.2982468 -0.2430582
0.35690182 0.34240276 -0.27362204
0.41140625 0.35517833 -0.24639177
0.45324853 0.35290888 -0.22296333
0.27531716 0.44158465 -0.27601147
0.34680516 0.42023683 -0.26091671
0.42309654 0.3964498 -0.23977947
-0.42403552 0.51048005 -0.23500013
0.06271679 0.52438539 -0.28561163
0.14028423 0.50640988 -0.26513052
0.19627582 0.48982298 -0.25459957
0.27484009 0.46557492 -0.24136829
-0.42204317 0.55471194 -0.25336885
-0.37231046 0.5552609 -0.23397684
-0.065217532 0.582259 -0.27265024
-0.0020008385 0.5679372 -0.25734568
0.066782609 0.54722124 -0.24807358
0.1083248 0.53505737 -0.24089146
-0.41648796 0.60859156 -0.26969147
-0.38666254 0.6212166 -0.26357222
-0.20251971 0.63772637 -0.27023935
-0.14885223 0.62261915 -0.25901031
-0.085955076 0.60922879 -0.24032545
-0.4829146 -0.35815972 -0.17420673
-0.43198141 -0.33630875 -0.16982937
-0.46769491 -0.26528051 -0.19069529
-0.4350315 -0.29894799 -0.20416546
-0.3679274 -0.28338319 -0.18208742
-0.31222576 -0.26814413 -0.15969563
-0.46243355 -0.24446055 -0.21347713
-0.34603599 -0.2400651 -0.21012926
-0.28754362 -0.22037381 -0.19008732
-0.23149991 -0.20391101 -0.16740227
-0.25613403 -0.16944018 -0.2163949
-0.21070498 -0.15796925 -0.19713259
-0.1574699 -0.13341472 -0.18396568
-0.10164218 -0.11504646 -0.16163635
-0.13232207 -0.088631123 -0.20779848
-0.079781406 -0.069214381 -0.1886692
-0.019268677 -0.04624106 -0.16505623
-0.050791405 -0.019858876 -0.21179867
-0.002102375 -0.0026187338 -0.19276285
0.056130312 0.01390988 -0.16468811
0.024033681 0.03641627 -0.20889425
0.065568283 0.057606772 -0.19738483
0.12156683 0.075419545 -0.17481661
0.17562863 0.095446534 -0.15735245
0.14286967 0.12412321 -0.20516968
0.20249745 0.14336219 -0.18529558
0.26625532 0.16679633 -0.16275501
0.22069071 0.18596148 -0.21390438
0.2831443 0.20827922 -0.19267845
0.33895534 0.22785985 -0.17186213
0.35792288 0.26727605 -0.1989727
0.41267496 0.28065681 -0.17554235
0.47175285 0.30543759 -0.16193056
0.43008077 0.32366279 -0.21056223
0.49052581 0.34596932 -0.19006777
0.55052894 0.36834297 -0.16674519
-0.48298427 0.4263792 -0.17925549
-0.46584931 0.45098117 -0.1986866
0.37140524 0.44973308 -0.20492268
0.41890627 0.43190756 -0.200315
0.48665553 0.41437018 -0.18205786
0.54803002 0.40082303 -0.1629324
-0.47856507 0.48219568 -0.18453264
-0.43863627 0.49426985 -0.1940527
-0.36673075 0.50613081 -0.18296385
-0.32193357 0.50673664 -0.15900278
0.21150041 0.51454788 -0.20905495
0.27856818 0.49992758 -0.19036388
0.34056896 0.47757876 -0.18425941
0.40542161 0.46890432 -0.1570282
-0.35883504 0.56485975 -0.2043047
-0.012995176 0.59626484 -0.21913719
0.061365582 0.58463913 -0.19140053
0.12422272 0.56390315 -0.18645811
0.20371491 0.5419625 -0.17216682
-0.080593996 0.63756573 -0.18789339
-0.0053708255 0.61622065 -0.17926931
0.041627612 0.61205953 -0.1587925
-0.54933041 -0.49048048 -0.092432022
-0.51968116 -0.47072205 -0.093087196
-0.55020505 -0.42223302 -0.088988304
-0.498238 -0.43034795 -0.11197042
-0.43947598 -0.41726074 -0.10054827
-0.50223547 -0.38762105 -0.12578678
-0.42595163 -0.37493783 -0.13029194
-0.36372814 -0.3521114 -0.11319733
-0.30377895 -0.3333509 -0.091994286
-0.33521336 -0.30880472 -0.13741684
-0.29149809 -0.29331309 -0.12156057
-0.23107496 -0.26888824 -0.10523701
-0.17704344 -0.25550851 -0.083006382
-0.2663919 -0.25015232 -0.14626169
-0.20368242 -0.21898782 -0.1344986
-0.15257853 -0.21003878 -0.10817099
-0.098015718 -0.19623026 -0.084920883
-0.12903151 -0.16619372 -0.13350916
-0.079482876 -0.14478892 -0.11812878
-0.022604026 -0.12496759 -0.095085621
-0.054851763 -0.096296385 -0.14586687
-0.0014631525 -0.077480532 -0.12341547
0.057485763 -0.055781752 -0.10202122
0.099037625 -0.038587641 -0.090368271
0.064315103 -0.011567485 -0.13595104
0.12575845 0.0021775961 -0.10785723
0.17776679 0.020459514 -0.087914467
0.14155482 0.046349384 -0.13655806
0.20553072 0.070742056 -0.11332798
0.26269439 0.092314638 -0.093662739
0.22424063 0.11547827 -0.14299726
0.2800968 0.13805541 -0.12496805
0.32792348 0.14445511 -0.096367836
0.3536413 0.19165561 -0.12522745
0.41136944 0.21506199 -0.1090827
0.46331483 0.22723314 -0.086741924
-0.55012882 0.27615988 -0.089288712
-0.52261674 0.30820921 -0.094539165
0.43216404 0.25587115 -0.13637018
0.48969567 0.27611032 -0.12018251
0.5513171 0.30113748 -0.10443306
-0.5026719 0.34627926 -0.10646629
0.56924939 0.34138176 -0.13460779
0.62407219 0.35448313 -0.10710859
0.66902649 0.37416315 -0.091486931
-0.49833539 0.39652234 -0.11365128
-0.44060275 0.43301243 -0.11337185
-0.35137266 0.44601882 -0.10113907
-0.3071309 0.44618762 -0.091637611
0.5054422 0.44522759 -0.13074303
0.56002355 0.43222633 -0.11430931
0.62572861 0.4002879 -0.11108017
0.66926432 0.39399821 -0.090421677
-0.42684647 0.47124016 -0.12969875
-0.35917288 0.47832966 -0.10403347
-0.30810091 0.48478365 -0.12620258
0.31081167 0.51972604 -0.14378691
0.35027248 0.50904471 -0.13404274
0.42352253 0.49043244 -0.11542273
0.49047515 0.47013396 -0.10299397
0.15669878 0.57646483 -0.14791775
0.20798616 0.57615715 -0.11774158
0.27037615 0.55324817 -0.11602688
0.34778687 0.53742242 -0.093849182
-0.055553816 0.65707421 -0.13446665
0.011951551 0.63900125 -0.12982368
0.05999149 0.63447541 -0.11069584
0.12833656 0.61042285 -0.10921097
-0.56129897 -0.56155622 -0.03219986
-0.51997507 -0.54997152 -0.022571564
-0.55879802 -0.49694169 -0.05516243
-0.50436366 -0.50070977 -0.057489872
-0.44216958 -0.49430147 -0.028409958
-0.55626333 -0.45559722 -0.065140724
-0.42176154 -0.44999674 -0.058815479
-0.36604014 -0.42209005 -0.048313618
-0.30933794 -0.40667436 -0.02473402
-0.33671647 -0.37530655 -0.071713924
-0.28587207 -0.36180562 -0.053424358
-0.22696692 -0.34855613 -0.030259132
-0.16429764 -0.3221795 -0.013314724
-0.25645745 -0.31508368 -0.079154015
-0.21244299 -0.30374143 -0.061858177
-0.1541042 -0.28273883 -0.041891098
-0.092926942 -0.26089752 -0.019364357
-0.12547213 -0.2301068 -0.071259022
-0.078450568 -0.22120124 -0.04610014
-0.017983906 -0.2000756 -0.022345543
-0.059305273 -0.17713767 -0.073551178
-0.0065928102 -0.15628472 -0.054533958
0.056007333 -0.13339975 -0.033517361
0.099037625 -0.1194591 -0.01833868
0.064325467 -0.093204752 -0.065122128
0.12579352 -0.068698019 -0.046023846
0.17968416 -0.048703857 -0.025645733
0.15877923 -0.028661892 -0.057831764
0.20821238 -0.0022971258 -0.04598093
0.26754081 0.015312523 -0.018201351
0.22783661 0.040657222 -0.071168423
0.28316227 0.063331962 -0.051508904
0.34282762 0.086572833 -0.030501842
0.36428219 0.13375604 -0.06068325
0.41805649 0.14468071 -0.034556389
0.46234384 0.16324893 -0.022781849
-0.56685609 0.21561983 -0.030680656
-0.51656151 0.23386803 -0.022698402
0.42951518 0.18610978 -0.068955898
0.4923268 0.20792478 -0.047132492
0.55814755 0.2352204 -0.029135704
-0.55550247 0.27880663 -0.068135738
-0.50417042 0.2754429 -0.053906918
-0.45111832 0.29015639 -0.029932022
0.56619275 0.27280104 -0.062463284
0.62630302 0.28524128 -0.03554821
0.68629485 0.30566669 -0.014134407
-0.55253941 0.31681803 -0.079799175
-0.48141006 0.35334319 -0.066842556
-0.43495414 0.35378769 -0.04057169
0.64002514 0.32368493 -0.065962791
0.69779533 0.35046792 -0.052129269
0.75692266 0.36748061 -0.02870512
-0.42341432 0.40724409 -0.062409878
-0.36725825 0.42266342 -0.038703442
0.63647938 0.43905994 -0.05937624
0.69857275 0.41780242 -0.048674107
0.76407653 0.39797154 -0.027099609
0.43615165 0.5166592 -0.068695068
0.48700428 0.50935394 -0.047072887
0.5598802 0.4824754 -0.041748047
0.62238383 0.46453613 -0.030411243
0.23764879 0.59506363 -0.072416306
0.29795632 0.57806033 -0.060689449
0.34734899 0.57016408 -0.043602467
0.42007357 0.54308569 -0.0391469
0.079129472 0.658198 -0.0585742
0.13894115 0.63802141 -0.059598923
0.19410259 0.62675077 -0.045536995
0.26981995 0.60421103 -0.035281658
-0.62637049 -0.63956606 0.047660351
-0.5743736 -0.62966061 0.033408165
-0.51255727 -0.61911035 0.048570633
-0.55126882 -0.58728337 -0.0048036575
-0.49732438 -0.57588506 0.016674519
-0.43494603 -0.55884868 0.040608883
-0.37891048 -0.53731579 0.054727554
-0.42700604 -0.52382445 0.0092935562
-0.3600232 -0.49223614 0.022428036
-0.30856884 -0.480768 0.047677994
-0.32824191 -0.44552025 -0.0016126633
-0.286933 -0.43343377 0.014466286
-0.23157623 -0.42244086 0.039998531
-0.20727834 -0.37417945 0.0085601807
-0.14802739 -0.3544175 0.03011322
-0.10124984 -0.33560178 0.046952248
-0.12476096 -0.30307698 -0.001783371
-0.071293868 -0.28917426 0.022827625
-0.0097616464 -0.271828 0.048392296
-0.043385811 -0.24204963 -0.0016698837
-0.00038404018 -0.22879919 0.015546322
0.053330421 -0.20560372 0.028271675
0.10596678 -0.19082236 0.051593781
0.068546794 -0.16066387 -0.0016913414
0.12993035 -0.14136422 0.024059296
0.18906125 -0.12861678 0.053623199
0.149967 -0.099667013 9.4890594e-05
0.20431574 -0.082293913 0.022459984
0.26707089 -0.051537834 0.040448189
0.22100624 -0.03858722 -0.0040206909
0.28318083 -0.0064736791 0.012108803
0.33989927 0.0095304437 0.036940575
0.39041063 0.023849666 0.058885098
-0.62846702 0.086127423 0.055442333
0.34925097 0.048197486 0.0081386566
0.41032726 0.068911023 0.030752659
0.47319737 0.086132072 0.055546761
-0.62065428 0.13616902 0.026444912
-0.581873 0.14232361 0.027637005
-0.5134427 0.16904059 0.052452087
0.43097857 0.10948078 0.0084857941
0.48896688 0.13571969 0.02110815
0.54712462 0.15437147 0.041715145
0.59889853 0.16968775 0.060857296
-0.55328023 0.18564662 0.0033612251
-0.50206423 0.20346418 0.02061224
-0.44610712 0.21323738 0.044685364
0.56279677 0.20054048 0.0073451996
0.62831891 0.21178237 0.038254738
0.68030435 0.23128596 0.052022457
-0.46984252 0.24585259 -0.0054440498
-0.42634472 0.27768117 0.014834404
-0.38879606 0.29133466 0.033305168
0.63424575 0.25192022 0.0036492348
0.700239 0.27680662 0.023130417
0.75548846 0.29579088 0.036982059
-0.41988531 0.34807932 -0.0010614395
-0.37971058 0.34906155 0.026432991
0.72858763 0.32695746 -0.0066242218
0.77738965 0.33732304 0.0093846321
0.8073343 0.31556088 0.061470032
-0.34457004 0.39485133 0.0049891472
0.70999098 0.45017499 0.00078678131
0.74386948 0.44258219 0.014770031
0.58073878 0.51480734 0.017804146
0.6283806 0.50104755 0.025547504
0.69343722 0.48343831 0.040744305
0.36381552 0.59280568 0.001101017
0.42676938 0.57569247 0.015191555
0.48998293 0.55826122 0.028378487
0.54189378 0.53809804 0.030767441
0.21198568 0.65926862 0.021581173
0.27961427 0.63406479 0.019173622
0.33574152 0.61993629 0.02855444
0.39858016 0.60171169 0.0384202
-0.64533287 -0.6886065 0.079149723
-0.51739138 -0.67627293 0.116539
-0.65942973 -0.63907188 0.09216404
-0.5719918 -0.66773027 0.079549313
-0.49958894 -0.64631188 0.090858936
-0.43746075 -0.62458372 0.10640001
-0.39177215 -0.61475551 0.12737036
-0.63731265 -0.59601486 0.088272572
-0.42394456 -0.5825364 0.073031902
-0.36015707 -0.56653672 0.098255157
-0.31439799 -0.54746515 0.10966206
-0.28210288 -0.50639576 0.089519024
-0.22442546 -0.48938924 0.11100626
-0.17754373 -0.46409708 0.11904764
-0.21131575 -0.44968206 0.079731941
-0.14706802 -0.4208535 0.09654665
-0.092037581 -0.39965552 0.1143446
-0.071647935 -0.35910177 0.089984417
-0.011385188 -0.3445228 0.11492491
-0.0016891211 -0.30312619 0.082353115
0.053757001 -0.28649303 0.10376358
0.10967009 -0.26213232 0.12078381
0.071144931 -0.24089882 0.07372427
0.13494495 -0.2158066 0.094920635
0.19114166 -0.19446012 0.11602688
0.16163367 -0.16377944 0.065769196
0.21140765 -0.15098116 0.091562748
0.26203623 -0.13783672 0.11662912
0.28206292 -0.08660204 0.082930565
0.34614384 -0.062218592 0.10643148
0.39694488 -0.038587432 0.11951637
-0.64614546 0.0064305104 0.11133337
-0.59762889 0.018271167 0.12570953
0.36382726 -0.010734411 0.070711613
0.41837171 0.00091866776 0.097541332
0.47664309 0.019899469 0.11845493
-0.6373437 0.066162817 0.077169418
-0.57279676 0.070329584 0.10720491
-0.52453482 0.081847884 0.11695194
0.43330312 0.04497838 0.069179058
0.48922059 0.064157598 0.086474419
0.55419266 0.076234452 0.11804295
-0.56078023 0.13019446 0.095262527
-0.49217555 0.14129856 0.087857723
-0.45038077 0.15998626 0.10049915
0.51603991 0.10736314 0.063790798
0.56828094 0.12243388 0.084564686
0.62777579 0.14459509 0.10259485
0.67212385 0.16301847 0.11254358
-0.42540583 0.21317783 0.080339432
0.64195734 0.19110897 0.067870617
0.70419997 0.20376903 0.094334602
0.75381821 0.23599806 0.099102974
-0.41682658 0.2562055 0.090618134
0.77671301 0.27282387 0.089019299
-0.36077622 0.31672308 0.070352554
0.64240277 0.52567631 0.070096493
0.71121758 0.51026344 0.097505093
0.51085734 0.59491473 0.098426819
0.56739122 0.56659079 0.089493752
0.61637503 0.55260307 0.098063469
0.66903341 0.53140819 0.09767437
0.35100597 0.64747274 0.083316803
0.41506699 0.62870598 0.092488289
0.47039187 0.61915332 0.11150789
-0.49057481 -0.68183434 0.14062119
-0.6977362 -0.63074237 0.15268517
-0.65163285 -0.66057193 0.14142323
-0.41802517 -0.65809619 0.15430832
-0.36436573 -0.64036065 0.17203093
-0.29457346 -0.61810642 0.19618988
-0.69371855 -0.57568216 0.16911364
-0.65017891 -0.57883632 0.16289234
-0.34083384 -0.59651899 0.14287329
-0.28932649 -0.57807922 0.15819788
-0.22103384 -0.55453789 0.18142128
-0.22265181 -0.51757896 0.1413846
-0.14988616 -0.49337438 0.16805887
-0.08642263 -0.47503847 0.19011259
-0.11573047 -0.44664678 0.14520025
-0.070586167 -0.43352044 0.16045761
-0.01406274 -0.41724876 0.18204594
-0.0031564981 -0.37762868 0.15156078
0.052957546 -0.36158273 0.17520618
0.12095878 -0.33384252 0.19660807
0.06689702 -0.31743309 0.14167309
0.1344468 -0.28819972 0.16279936
0.20265037 -0.26205766 0.18732786
0.21398634 -0.2182107 0.15442467
0.26575756 -0.20533666 0.17972469
0.28582236 -0.16073076 0.15482044
0.34014985 -0.14230157 0.17349625
0.40575534 -0.12622125 0.20126677
-0.69552481 -0.0732629 0.16015863
-0.65283555 -0.054866835 0.16620111
-0.59375763 -0.045892097 0.19731951
0.36260933 -0.097753614 0.14980221
0.42378667 -0.074771479 0.1674881
0.48648161 -0.047316816 0.18250418
-0.69465929 -0.017136458 0.14188242
-0.62069333 -0.0242355 0.16032028
-0.56538898 -0.0027350038 0.15442514
-0.5339666 0.0050681382 0.19078636
0.41979551 -0.03858722 0.13312578
0.49105164 -0.0084594954 0.15295172
0.55214357 0.011003979 0.17698622
0.60168082 0.026974536 0.19420576
-0.62152737 0.047452614 0.14952898
-0.5646891 0.061319575 0.13664055
-0.50188017 0.084582679 0.1770463
0.5719099 0.058123022 0.14733887
0.63052535 0.069798291 0.17323589
0.67838961 0.081654958 0.19528389
-0.54480815 0.11164325 0.14321518
-0.51659942 0.11262786 0.16149139
-0.44718435 0.12207074 0.13790083
0.64665496 0.11173209 0.14486551
0.6981141 0.13808507 0.15454149
0.75432777 0.20851347 0.14608812
0.63771069 0.57914639 0.15438032
0.37725186 0.66764855 0.13536453
0.4419769 0.64729124 0.13960075
0.48896644 0.64751953 0.16963387
0.55342662 0.62148446 0.16628885
0.59925658 0.61387217 0.18051386
-0.35369676 -0.679102 0.22442865
-0.32480869 -0.68551099 0.25313663
-0.28413931 -0.64997411 0.2357254
-0.2260043 -0.62213206 0.24849081
-0.72299755 -0.55163622 0.2218318
-0.66321963 -0.54675871 0.22542715
-0.20495543 -0.58589989 0.22785616
-0.14889076 -0.56639659 0.24613237
-0.091288291 -0.55365926 0.26440239
-0.75270486 -0.50929612 0.26698065
-0.71241641 -0.51658815 0.24345589
-0.12155793 -0.52389765 0.22090149
-0.074838944 -0.50983799 0.23081684
-0.017897114 -0.48988798 0.25031567
-0.0057141632 -0.45231184 0.22156954
0.051465489 -0.43243447 0.24296665
0.10648485 -0.40306798 0.25385714
0.076980397 -0.39150345 0.22059917
0.14067021 -0.35707691 0.23301888
0.1956217 -0.33577356 0.25042248
0.21396106 -0.29487494 0.22502708
0.26973745 -0.27611458 0.24719715
0.32354543 -0.26309541 0.27172279
-0.76562458 -0.22948608 0.27275705
-0.74149048 -0.20970413 0.25414085
0.2901009 -0.22966278 0.2189312
0.34042472 -0.21343881 0.2380929
0.40112004 -0.19520557 0.26175213
-0.72083127 -0.14482957 0.24300098
0.36300159 -0.17056924 0.21277523
0.41243336 -0.15575643 0.23327827
0.47424409 -0.13687237 0.2561636
-0.69135529 -0.10538441 0.24767685
-0.65490067 -0.090861395 0.26440525
-0.55830038 -0.060774785 0.22921944
-0.52512658 -0.04976961 0.25104237
0.4509711 -0.10457528 0.21262503
0.49656734 -0.086475872 0.22402668
0.55778551 -0.060931027 0.24453402
0.61410505 -0.038587853 0.26437759
-0.56863856 0.020143379 0.21499729
-0.51926506 0.0059283413 0.24146891
0.57235116 -0.016574563 0.21485424
0.63081247 0.0056537762 0.2334199
-0.50509167 0.062813729 0.21954393
0.68843895 0.061554216 0.24422073
0.71685344 0.11586616 0.22158909
0.76677513 0.18399164 0.24666882
0.51821578 0.66739637 0.22121954
0.58514714 0.64638519 0.22562075
0.62774301 0.62229413 0.21698332
0.5446853 0.67444873 0.24984789
-0.19802007 -0.67840445 0.3236599
-0.17697468 -0.68261635 0.34320116
-0.21749339 -0.66040063 0.29249907
-0.15577263 -0.63935238 0.31126308
-0.098919056 -0.61728638 0.3225565
-0.6772331 -0.5408805 0.32117939
-0.1379391 -0.60287398 0.28739786
-0.076441936 -0.5765329 0.29758215
-0.022497684 -0.5552898 0.31605625
0.030030765 -0.54463762 0.34336567
-0.77762729 -0.48537976 0.2942071
-0.71201515 -0.48542735 0.31315088
-0.67328006 -0.50420678 0.30607605
-0.0024007708 -0.51213747 0.28461075
0.05361126 -0.49317414 0.30741739
0.10668723 -0.48176473 0.33285427
-0.78889048 -0.44133589 0.32804251
-0.75030053 -0.45177907 0.33723402
0.13875084 -0.42687321 0.30025625
0.1982585 -0.41255924 0.32937241
-0.80260199 -0.3352991 0.32020044
0.21980153 -0.36313325 0.29602289
0.27415258 -0.35079086 0.32213449
0.32913771 -0.33771753 0.34436893
-0.77631348 -0.27248529 0.29602003
-0.7201308 -0.26614738 0.31136942
0.29472515 -0.30203563 0.28834581
0.3495042 -0.28909707 0.3128581
0.40870857 -0.26794711 0.33475018
-0.78332138 -0.24220896 0.29430151
-0.7144596 -0.21852422 0.31857777
0.36955217 -0.2414737 0.28368711
0.419943 -0.22662896 0.30234957
0.47155139 -0.20585871 0.31788826
-0.70136154 -0.1669718 0.29801512
-0.64711601 -0.14818084 0.31976986
-0.59030753 -0.13050009 0.34023333
0.48972282 -0.16880164 0.29690218
0.54758048 -0.14508206 0.31783152
-0.63061899 -0.098785318 0.28680801
-0.59011823 -0.10129065 0.31515884
0.56535679 -0.098782152 0.28633499
0.61734897 -0.075047374 0.30851555
0.69487935 0.030163355 0.3322854
0.75612479 0.14267796 0.29866505
-0.13114816 -0.66008908 0.34548235
-0.078949787 -0.65011758 0.37161589
-0.022615172 -0.63312572 0.3957839
-0.0013482496 -0.58691788 0.36484146
0.052397311 -0.57143092 0.38644314
0.099037625 -0.55442017 0.40112686
0.075954914 -0.52332449 0.35381317
0.13984588 -0.50749934 0.38164282
0.20466483 -0.48440188 0.40333176
-0.82649207 -0.43193772 0.36102724
-0.77391142 -0.41435015 0.3592639
-0.71625096 -0.43602312 0.3705759
-0.66468126 -0.44379184 0.39249706
0.16814315 -0.4532207 0.34763718
0.22308701 -0.44176382 0.37626362
0.28017566 -0.41829607 0.39056778
-0.82439506 -0.36178899 0.35421658
-0.77278727 -0.35878274 0.36220312
-0.74824005 -0.34454891 0.41263103
0.29974574 -0.3782585 0.36354065
0.35573974 -0.36142191 0.38644075
0.40396342 -0.34351334 0.40228319
-0.776223 -0.30722007 0.36341953
-0.72628266 -0.29615194 0.39678955
-0.67629272 -0.273536 0.40735245
0.37636465 -0.31591454 0.3574338
0.42847139 -0.3014918 0.38059568
0.48190039 -0.28083101 0.40020084
-0.68957561 -0.23577878 0.3683362
-0.64904523 -0.22204769 0.38046837
-0.60482973 -0.21459508 0.40311623
0.50090361 -0.23184538 0.36678362
0.54982644 -0.20959044 0.38405371
-0.62835133 -0.17714199 0.3550725
-0.58405012 -0.15440473 0.36323071
0.57320929 -0.16580722 0.36001253
0.6095643 -0.13141073 0.36979675
0.68011147 -0.015344305 0.3746295
0.74427491 0.099677481 0.34880877
-0.042791598 -0.67681909 0.42597389
0.019926026 -0.64789015 0.43894434
0.063169405 -0.63612956 0.45980453
0.11106265 -0.61397362 0.46964884
0.051864743 -0.60466188 0.41924906
0.12762444 -0.57584304 0.44319868
0.18988608 -0.54992265 0.45897198
0.20561057 -0.51207095 0.43064547
0.26595986 -0.49166664 0.45249653
0.32701778 -0.47048241 0.47221327
-0.71001697 -0.40725264 0.46501017
-0.65634817 -0.4103142 0.47020435
0.28752983 -0.43913355 0.41601372
0.341847 -0.43369132 0.44690895
0.40396121 -0.40321523 0.4612031
-0.70294404 -0.34783521 0.44561386
-0.65845925 -0.35017517 0.46933174
0.35841382 -0.39228198 0.41836786
0.42311528 -0.36268094 0.43554831
0.47653988 -0.34445956 0.45899963
-0.70361108 -0.30614042 0.42206287
-0.64180565 -0.28084257 0.43988562
0.50199628 -0.29932553 0.43445015
0.5343945 -0.27616554 0.4402976
-0.63176715 -0.25075674 0.41767836
0.57625723 -0.22947544 0.45491314
0.59398127 -0.18000022 0.4169507
0.666031 -0.062212329 0.42422199
0.12360583 -0.67736101 0.54678488
0.074856609 -0.66729403 0.49648666
0.12332986 -0.64509207 0.50663996
0.18070674 -0.63473982 0.53767633
0.24688041 -0.60531825 0.55617189
0.20228478 -0.59095019 0.50921822
0.26476604 -0.55998641 0.52007818
0.32076851 -0.55595952 0.55568981
0.29280764 -0.52301276 0.50171375
0.34260458 -0.50542539 0.51890421
0.40538362 -0.47965896 0.5384388
-0.67464548 -0.40125161 0.49604416
0.4196997 -0.4417828 0.51023722
0.4739314 -0.41345933 0.53101254
-0.64884675 -0.35221663 0.48925018
0.4990353 -0.3658399 0.50436592
0.56516218 -0.28391621 0.54219437
0.21468715 -0.64984369 0.57422543
0.27397668 -0.63423389 0.6014452
0.32521164 -0.61658776 0.61982203
0.29671174 -0.58219141 0.56510925
0.3483099 -0.57448632 0.59309292
0.40809086 -0.54811668 0.61030197
0.37111956 -0.53328222 0.56841564
0.42099679 -0.50082123 0.57208014
0.47187844 -0.4611406 0.58417797
0.54995787 -0.33920094 0.60951805
0.35307592 -0.63553262 0.65500832
0.37678337 -0.59407884 0.63530207
0.40408632 -0.59784359 0.65752983
0.45206404 -0.51769495 0.63095808
0 0 0 1 0 0 0 1 0 0 0 1 0 0 0 0 0 771 1 0 0
