ply
format ascii 1.0
comment PCL generated
element vertex 802
property float x
property float y
property float z
element camera 1
property float view_px
property float view_py
property float view_pz
property float x_axisx
property float x_axisy
property float x_axisz
property float y_axisx
property float y_axisy
property float y_axisz
property float z_axisx
property float z_axisy
property float z_axisz
property float focal
property float scalex
property float scaley
property float centerx
property float centery
property int viewportx
property int viewporty
property float k1
property float k2
end_header
0.57301927 -0.53908849 -0.59556723
0.59314626 -0.43633488 -0.5973196
0.59212035 -0.39462328 -0.6022563
0.59106672 -0.33264273 -0.60732555
0.61344135 0.0039355727 -0.5981679
0.61219758 0.055021301 -0.60393858
0.61081129 0.11605376 -0.61036968
0.60943985 0.1768008 -0.61673212
0.60836452 0.21707866 -0.62172127
0.50070667 -0.57187867 -0.53850794
0.56076723 -0.56887603 -0.55243874
0.59966391 -0.52458638 -0.56596231
0.59548646 -0.46911341 -0.586061
0.62610805 -0.45661819 -0.53940153
0.62366831 -0.40256503 -0.55072021
0.62251425 -0.33934981 -0.5560751
0.62079656 -0.27611235 -0.564044
0.61925524 -0.21330076 -0.57119465
0.61678821 -0.15057477 -0.58264065
0.63152927 -0.079066738 -0.56285048
0.63393533 -0.018903371 -0.56129169
0.64435279 0.055831719 -0.55140257
0.64278042 0.11805451 -0.55844545
0.64107013 0.17991441 -0.56610632
0.63996816 0.24164389 -0.57104254
0.63811868 0.3027927 -0.57932711
0.63707995 0.36404163 -0.58398056
0.63572252 0.42484033 -0.59006071
0.66955817 0.42323038 -0.53246212
0.63583076 0.48654184 -0.58957577
0.66913766 0.47536585 -0.53428268
0.58557129 0.55950528 -0.53285313
0.62126392 0.54351842 -0.5612278
0.66946149 0.51755238 -0.53287983
0.64298046 -0.51207429 -0.50090837
0.65913671 -0.45535216 -0.48517799
0.65708959 -0.38997114 -0.49434805
0.65530819 -0.32518834 -0.5023284
0.65298426 -0.26051068 -0.51273775
0.65107733 -0.19645518 -0.52127981
0.64974219 -0.13296326 -0.52726078
0.68393326 -0.11455971 -0.4702158
0.68225449 -0.07143718 -0.47748566
0.68031019 -0.0071752444 -0.48590422
0.67925483 0.046122812 -0.49047375
0.67779624 0.099173933 -0.49679041
0.67575955 0.16244525 -0.50560904
0.67403853 0.22543027 -0.51306152
0.67297834 0.28835958 -0.51765203
0.67074811 0.35043767 -0.52730942
0.6874795 0.41753235 -0.50129414
0.70376956 0.48505551 -0.47700405
0.45730528 0.57027328 -0.47905397
0.50795573 0.56695062 -0.49565506
0.55648232 0.56204265 -0.52017641
0.34315735 -0.57001215 -0.4467864
0.38674188 -0.57053405 -0.44427443
0.45175213 -0.57059598 -0.44397688
0.51636231 -0.57014358 -0.44615316
0.57041812 -0.57010186 -0.44635439
0.68747061 -0.51873487 -0.43150902
0.69318849 -0.45376685 -0.43013954
0.69277191 -0.39909935 -0.43194342
0.69135076 -0.33309907 -0.43809748
0.68848276 -0.26675132 -0.45051575
0.686382 -0.20121083 -0.45961237
0.68441755 -0.14686239 -0.46811867
0.71517926 0.10125276 -0.42919207
0.71332061 0.16614477 -0.43698168
0.71074563 0.23045446 -0.44777155
0.70927215 0.29472703 -0.45394659
0.70716453 0.35837707 -0.46277857
0.70584887 0.41139212 -0.46829128
0.34320453 0.57681948 -0.44634867
0.38511971 0.57465917 -0.45714092
0.42743638 0.57345605 -0.46315241
0.58811861 0.56205255 -0.41063166
0.61846185 0.55968845 -0.42291689
0.69579643 0.54078054 -0.46535635
0.32196826 0.57762682 -0.44231367
0.20722854 -0.56469691 -0.36523867
0.26309931 -0.56523317 -0.3625598
0.33026308 -0.56584835 -0.35948658
0.38635793 -0.56639975 -0.35673046
0.44194329 -0.56605631 -0.35844707
0.50935799 -0.56661636 -0.35564804
0.57620698 -0.56647176 -0.35637093
0.61857992 -0.56415784 -0.36793232
0.64450365 -0.31033146 -0.3502264
0.64433503 -0.26549393 -0.35103798
0.64441288 -0.20958972 -0.35066319
0.64417726 -0.14239714 -0.35179663
0.64410919 -0.075284988 -0.35212469
0.64415777 -0.0081887022 -0.35189056
0.64394611 0.0477148 -0.35290909
0.64375615 0.10358703 -0.35382366
0.6435231 0.1705828 -0.35494375
0.64836264 0.24290834 -0.35841274
0.65308386 0.30389473 -0.36243725
0.65305132 0.35959139 -0.36259079
0.64292061 0.41600582 -0.3575201
0.64275211 0.4828425 -0.35834742
0.44280949 0.57332677 -0.35205126
0.50526905 0.56783062 -0.38061047
0.55850279 0.56553471 -0.39253902
0.64382643 0.54153103 -0.36832047
0.085975237 -0.55746329 -0.28713655
0.10894419 -0.55832404 -0.28266382
0.50854677 -0.55694097 -0.28985023
0.56198484 -0.552984 -0.31041241
0.60347331 -0.54905111 -0.33084679
0.56176072 -0.51307529 -0.29551411
0.61678582 -0.52182299 -0.33174658
0.56751823 -0.45780891 -0.29742336
0.61525905 -0.45938548 -0.32806349
0.56455898 -0.39620972 -0.29575872
0.61507648 -0.39160612 -0.32898951
0.56444979 -0.32774225 -0.2963748
0.61492801 -0.32388851 -0.3297472
0.5616836 -0.26223326 -0.29593039
0.6146844 -0.2674239 -0.33098984
0.56704998 -0.20696186 -0.3000412
0.61465377 -0.21109121 -0.33114958
0.56401199 -0.14525145 -0.29884911
0.61450183 -0.14346905 -0.3319211
0.5639053 -0.076904953 -0.29945278
0.61446792 -0.075900644 -0.33209515
0.56383604 -0.0085908435 -0.29983997
0.61439037 -0.0083404221 -0.33249044
0.56376523 0.048325006 -0.30024195
0.61421704 0.04794196 -0.33337402
0.56356078 0.10519987 -0.30139589
0.61396301 0.10417555 -0.33467054
0.56329137 0.17338555 -0.30292511
0.6137628 0.1716211 -0.33568668
0.56580329 0.23861894 -0.30481625
0.61370683 0.2390739 -0.33597374
0.56023389 0.29369107 -0.30181551
0.61357379 0.29523462 -0.33664608
0.5630154 0.355158 -0.30448294
0.61352915 0.35141906 -0.33687687
0.57296079 0.42231008 -0.3120203
0.52135199 0.49528635 -0.28138781
0.57541186 0.48767844 -0.31560421
0.37764755 0.57654768 -0.33531475
0.51998049 0.54875404 -0.28963327
0.5718919 0.54024822 -0.31789494
0.22326058 0.58610547 -0.28565264
0.26765141 0.582784 -0.30291033
0.32244846 0.57861519 -0.32457113
0.14347196 -0.55927581 -0.27771807
0.20102245 -0.56001747 -0.27386475
0.25846422 -0.56008816 -0.27349758
0.31565323 -0.55960643 -0.27600002
0.38474119 -0.5599848 -0.2740345
0.45321617 -0.55942047 -0.27696609
0.41401497 -0.54647845 -0.22282982
0.450142 -0.52614725 -0.23192835
0.50164968 -0.51648962 -0.26014709
0.4598214 -0.45201683 -0.22943258
0.4995867 -0.45099095 -0.25477648
0.45991996 -0.39384001 -0.22872162
0.50532413 -0.39487183 -0.25764751
0.45982295 -0.3354741 -0.22942162
0.50224936 -0.33237928 -0.25621367
0.45973459 -0.26548365 -0.23005915
0.50205928 -0.26295546 -0.25744343
0.45957392 -0.20713611 -0.23121881
0.50191355 -0.20514672 -0.25839901
0.45955241 -0.14888693 -0.23137379
0.50185901 -0.14741251 -0.25874615
0.45952201 -0.0789949 -0.23159409
0.5017575 -0.078138888 -0.25939798
0.45406047 -0.0091371629 -0.22880316
0.50474793 -0.015495218 -0.26135826
0.44857919 0.04917983 -0.22617006
0.49897909 0.040130965 -0.25874758
0.44843802 0.10748473 -0.22721577
0.50142682 0.10642658 -0.26155519
0.4482798 0.17740259 -0.22839212
0.50121027 0.17553964 -0.26295042
0.44821545 0.23566242 -0.22887039
0.50113088 0.23313302 -0.26346827
0.44810411 0.29386926 -0.22970343
0.50110948 0.290737 -0.26361179
0.44800416 0.36370865 -0.23043776
0.50102526 0.35981587 -0.26415777
0.44786149 0.4218207 -0.23150396
0.50345206 0.42563921 -0.26711941
0.44757912 0.47972834 -0.23359823
0.49355972 0.47906947 -0.26281023
0.40184435 0.57410491 -0.22678041
0.45092508 0.55073053 -0.24540806
0.48964882 0.53274924 -0.26348019
0.0054529756 0.59400409 -0.2446084
0.063438594 0.59419227 -0.24362993
0.13286304 0.59313077 -0.24914742
0.19002703 0.59035563 -0.26356697
-0.054054156 -0.55164772 -0.19485044
0.0048411526 -0.55234259 -0.19108868
0.063874848 -0.55257785 -0.18981552
0.13486207 -0.55356836 -0.18445396
0.19388047 -0.55309916 -0.18699408
0.25279722 -0.5526439 -0.18945837
0.32333401 -0.55203009 -0.19278097
0.36934322 -0.5499922 -0.20381117
0.34181958 -0.52550673 -0.16450262
0.3847436 -0.52380753 -0.19196081
0.42340687 -0.50976777 -0.20991611
0.35011277 -0.46254021 -0.16107655
0.38353357 -0.4593575 -0.18174839
0.42738378 -0.45511171 -0.20933628
0.35024926 -0.39121333 -0.15971279
0.38362724 -0.38843939 -0.18090582
0.42532355 -0.38969874 -0.2070694
0.35025787 -0.33160621 -0.15962744
0.38362524 -0.32923025 -0.18091822
0.4296551 -0.33301866 -0.20992327
0.35024989 -0.27198112 -0.15970659
0.38360643 -0.27000782 -0.18108225
0.42738447 -0.26739916 -0.2093215
0.35017893 -0.20039293 -0.16041565
0.3835482 -0.19892432 -0.18161392
0.42513752 -0.20173962 -0.20853186
0.35017008 -0.14078519 -0.16050434
0.38353884 -0.13972417 -0.18169165
0.4294779 -0.14526615 -0.21130514
0.35015294 -0.081178918 -0.16067553
0.3835277 -0.080527648 -0.18178701
0.42725986 -0.079650626 -0.21029806
0.35010388 -0.0096595883 -0.16116571
0.38344103 -0.0094941296 -0.18256474
0.42501 -0.0092868693 -0.20954895
0.35002917 0.049922436 -0.16191244
0.38330483 0.049669307 -0.18377733
0.41615912 0.049418971 -0.20542097
0.34990495 0.10945572 -0.16315413
0.38315222 0.10878024 -0.18515062
0.41605422 0.10812913 -0.2062726
0.34978047 0.16894497 -0.16439724
0.38307074 0.16787113 -0.18587923
0.41596001 0.16681239 -0.20703793
0.34972155 0.22843009 -0.16498613
0.38299152 0.22693422 -0.18659163
0.41585666 0.22545898 -0.20787716
0.3495937 0.29973003 -0.16626358
0.38756576 0.30082458 -0.19068766
0.41575903 0.28407881 -0.20867014
0.34955338 0.35917661 -0.16666651
0.39686078 0.36075449 -0.19757605
0.34939012 0.41844174 -0.16829777
0.3908816 0.41791329 -0.19475698
0.34350714 0.48991361 -0.16745234
0.39332277 0.48504007 -0.19909239
0.33528078 0.54241097 -0.16634512
0.3893936 0.54804224 -0.20419645
0.20694888 0.585738 -0.16381407
0.25385308 0.58383381 -0.17412043
0.32349139 0.58075333 -0.19079447
-0.22684032 -0.54427081 -0.10335779
-0.17826688 -0.54423386 -0.10356569
-0.11784688 -0.54524231 -0.097870827
0.064581163 -0.5456267 -0.095700264
0.13749447 -0.54505509 -0.098928452
0.19785434 -0.54356611 -0.107337
0.26075456 -0.52054554 -0.11767101
0.31352857 -0.50843763 -0.14317226
0.27032617 -0.45815054 -0.1109314
0.31622571 -0.4538357 -0.13967752
0.2704311 -0.39778429 -0.10948515
0.31633389 -0.39399418 -0.13845444
0.27048221 -0.32516372 -0.10877657
0.31637129 -0.33401662 -0.13802862
0.27045035 -0.2645278 -0.10921383
0.31634679 -0.27395883 -0.13830757
0.27043396 -0.20392388 -0.10944843
0.31632322 -0.20190732 -0.13857079
0.2704348 -0.14334008 -0.1094346
0.31630087 -0.14186956 -0.13882399
0.2704365 -0.082756728 -0.10941505
0.31625807 -0.081836835 -0.13930798
0.26804888 -0.014895422 -0.10893297
0.31853867 -0.014628872 -0.14066458
0.27259684 0.043238878 -0.11298561
0.31389138 0.042970538 -0.13894081
0.27025118 0.11103363 -0.11195183
0.3160862 0.11013149 -0.14124537
0.27018356 0.17152327 -0.11288309
0.31597823 0.17004286 -0.14246655
0.27012777 0.23198685 -0.11363506
0.31589499 0.22992435 -0.14340496
0.27005604 0.29240462 -0.11461067
0.31581485 0.30175704 -0.14431334
0.2583243 0.35352963 -0.10866308
0.31572521 0.36155611 -0.14533758
0.25820467 0.42602119 -0.11038971
0.31559041 0.4212507 -0.14684343
0.25804171 0.48623317 -0.11275148
0.31164607 0.4772096 -0.14635801
0.25768334 0.5458588 -0.11792898
0.30367082 0.54101539 -0.14654875
0.064421438 0.59560102 -0.11042881
0.13633049 0.59107947 -0.134902
0.18370697 0.58803016 -0.15140629
-0.057257123 -0.54647475 -0.090909958
0.0036828853 -0.54642326 -0.091200829
0.14408192 -0.52005363 -0.044505596
0.19951284 -0.51270515 -0.073923588
0.23523226 -0.49766636 -0.091256142
0.16396117 -0.45594263 -0.043203831
0.19989678 -0.45258045 -0.066202164
0.23540658 -0.44932869 -0.088426113
0.16400784 -0.39424098 -0.041991711
0.19996095 -0.39132777 -0.064929485
0.23550352 -0.38854322 -0.086851597
0.16404447 -0.33246344 -0.041039944
0.20002314 -0.33002287 -0.063680172
0.23555747 -0.32762113 -0.085975647
0.16402584 -0.27052045 -0.041523933
0.20000106 -0.26852283 -0.064094067
0.23550123 -0.26650533 -0.08688879
0.16403931 -0.20865278 -0.041173458
0.19996619 -0.20701844 -0.064782619
0.23548579 -0.20547062 -0.087139606
0.16402107 -0.14673285 -0.041647911
0.19995838 -0.14556618 -0.064956188
0.23547322 -0.14444596 -0.08734417
0.16401874 -0.084841162 -0.041708469
0.19997641 -0.084136099 -0.064585686
0.23548198 -0.083442196 -0.087201118
0.1640071 -0.022951622 -0.042011261
0.19993722 -0.010397675 -0.065393448
0.23543549 -0.022421017 -0.087956429
0.16396436 0.03891889 -0.043121338
0.19987568 0.051022105 -0.066627979
0.2353639 0.038566336 -0.089118958
0.16389827 0.11309987 -0.044838905
0.19983548 0.11240408 -0.06743145
0.23532051 0.11171576 -0.089823246
0.16386721 0.17488667 -0.04564476
0.19979092 0.17375301 -0.068328857
0.23525453 0.17262401 -0.090895176
0.15171036 0.23716632 -0.038900375
0.19975495 0.23507865 -0.069020271
0.23520303 0.23350453 -0.091731071
0.15167773 0.29902944 -0.039784431
0.19969085 0.29632598 -0.070318699
0.23513255 0.29432946 -0.092875481
0.15164733 0.36085796 -0.040667057
0.19964555 0.35756606 -0.071220875
0.15158483 0.42253548 -0.042479038
0.19957927 0.41871464 -0.07254982
0.1514996 0.48404297 -0.044940472
0.19946608 0.47967693 -0.074803829
0.15135765 0.54518932 -0.049058437
0.1991494 0.55207801 -0.081185341
-0.1827122 0.60863912 -0.039858341
-0.12012912 0.60631049 -0.052462101
-0.058018595 0.60349005 -0.067728043
0.0036177412 0.5998711 -0.087316513
0.13879028 0.58120638 -0.054901123
-0.36026284 -0.53653914 -0.0056424141
-0.29790074 -0.53687376 -0.0036668777
-0.23574814 -0.53782099 0.0019273758
-0.17339024 -0.53876656 0.0075097084
-0.11062352 -0.53898895 0.0088238716
-0.04768531 -0.5385049 0.005964756
0.0026176423 -0.53755373 0.00034952164
0.068407878 -0.51539409 -0.0005941391
0.11501859 -0.50924462 -0.019634247
0.077953205 -0.45126554 0.010804176
0.12742244 -0.45923105 -0.020709515
0.077981308 -0.38866365 0.013208866
0.12748167 -0.39722502 -0.018502235
0.07798855 -0.32579818 0.013951778
0.12750092 -0.33497095 -0.01776123
0.077986702 -0.26282966 0.013834
0.12750565 -0.27263847 -0.017601013
0.077979267 -0.19983411 0.013226032
0.12749144 -0.21024826 -0.018173695
0.077974752 -0.13686271 0.012641907
0.12748641 -0.14789972 -0.018327236
0.077970237 -0.07391955 0.012265205
0.12747864 -0.085551098 -0.018615246
0.077960908 -0.010987364 0.011591434
0.12746087 -0.010751937 -0.019320488
0.077946708 0.051911116 0.01033783
0.12742987 0.051555455 -0.020449162
0.077938139 0.10220051 0.0095629692
0.12739617 0.1138097 -0.021686554
0.072540089 0.1687825 0.011554718
0.12735398 0.17600727 -0.023282528
0.065356724 0.22830546 0.015002251
0.11509962 0.23874421 -0.016125202
0.065347873 0.29118755 0.013873577
0.11508483 0.30106837 -0.016765118
0.065340176 0.35407585 0.013192177
0.11505781 0.36330751 -0.017935753
0.065329522 0.41682789 0.011673927
0.11501791 0.42543328 -0.019663334
0.068877369 0.48442528 0.0069036484
0.11495946 0.48737004 -0.022194862
0.062160671 0.54505509 0.0072116852
0.1148693 0.54898798 -0.026098728
-0.36097038 0.61597651 -0.00014257431
-0.29713228 0.61393976 -0.011166573
-0.2462166 0.61205536 -0.021366119
0.0023406968 0.59497029 0.022836208
0.065146953 0.58862609 -0.012994766
-0.5260483 -0.52637362 0.086323738
-0.48764133 -0.52658576 0.087635994
-0.44938615 -0.5269919 0.090149403
-0.10143589 -0.52671874 0.088458061
-0.049624115 -0.51200902 0.077052593
0.0020379126 -0.50757217 0.048884392
0.040243916 -0.49225873 0.031931877
-0.036896989 -0.46152145 0.082826614
0.0019258074 -0.45801896 0.058235168
0.040243916 -0.454631 0.034442425
-0.036957726 -0.39756069 0.085456848
0.0018943548 -0.39454079 0.060947418
0.040243916 -0.39153799 0.036575794
-0.036983714 -0.33334649 0.086581707
0.0018767752 -0.33084249 0.06248951
0.040243916 -0.32829645 0.03799963
-0.036981411 -0.26898226 0.086482048
0.0018814169 -0.26691622 0.062084198
0.040243916 -0.26484314 0.037611485
-0.036965355 -0.20458131 0.085786819
0.001887247 -0.20299706 0.061573505
0.040243916 -0.20142241 0.037508488
-0.036945648 -0.14020391 0.084933281
0.0019000582 -0.13907407 0.06047678
0.040243916 -0.13794163 0.035961151
-0.036931992 -0.075860545 0.08434248
0.001905404 -0.075205728 0.060017109
0.040243916 -0.074556321 0.035954475
-0.036916748 -0.011543516 0.08368206
0.0019167177 -0.011354776 0.058993816
0.040243916 -0.011166593 0.034713268
-0.03689032 0.052743852 0.082537651
0.0019292124 0.052460507 0.057929993
0.040243916 0.052188352 0.034292698
-0.036869392 0.10414256 0.081631184
0.001933489 0.10349628 0.057635307
0.040243916 0.10285047 0.033651829
-0.036825739 0.16831443 0.079741001
0.0019567758 0.1672021 0.055653095
0.040243916 0.15346345 0.032301426
-0.045508519 0.23707595 0.08332777
0.0019702055 0.23088892 0.054485321
-0.049842045 0.29720518 0.084959984
0.0019844137 0.29451236 0.053142548
-0.049818762 0.36143965 0.08406353
0.0019955784 0.35813743 0.052278042
-0.047182217 0.42029074 0.081633568
0.0020074882 0.4217014 0.051242828
-0.052360937 0.48216978 0.082994461
0.0020364113 0.48502654 0.048766613
-0.04705058 0.54799098 0.076545238
0.0020775162 0.54803634 0.044988632
-0.17853338 0.60614872 0.08597374
-0.11368682 0.60414183 0.074638367
-0.053433485 0.59293038 0.059718609
-0.41202947 -0.52855957 0.099845886
-0.36050469 -0.52877653 0.10118818
-0.30920425 -0.52942604 0.10520744
-0.24469936 -0.52978855 0.10744953
-0.17646635 -0.52328295 0.12131786
-0.12215232 -0.51186574 0.1172781
-0.11640862 -0.45551214 0.13228703
-0.063128449 -0.45099255 0.099643707
-0.11652725 -0.39059013 0.13485193
-0.063193984 -0.38664192 0.10177231
-0.1199112 -0.32882419 0.13754511
-0.063210033 -0.33498016 0.10229301
-0.11273799 -0.26548007 0.13350296
-0.06322062 -0.27034858 0.10263681
-0.11657188 -0.20785622 0.13583517
-0.063208111 -0.20565845 0.10223103
-0.11656619 -0.14254567 0.13565588
-0.063199438 -0.14099021 0.10194921
-0.11652932 -0.077222288 0.1348772
-0.06316863 -0.076307952 0.10094786
-0.11984762 -0.01519417 0.13616037
-0.063145548 -0.024593964 0.10019875
-0.11260829 0.047733001 0.13060093
-0.063122898 0.040016271 0.099463463
-0.11635632 0.10547556 0.13112688
-0.063078254 0.10458402 0.098012924
-0.11627295 0.17060536 0.12935066
-0.063007213 0.16905417 0.09570694
-0.11619068 0.23567 0.1275692
-0.062978454 0.22062258 0.094771862
-0.11277389 0.29725873 0.12420464
-0.11995008 0.36042508 0.12827349
-0.11608752 0.41781309 0.12536049
-0.16999054 0.51348513 0.1563096
-0.11598206 0.48259109 0.12305689
-0.16985476 0.55255187 0.15410471
-0.11585253 0.54720932 0.12024117
-0.40635502 0.61840028 0.15516949
-0.36565229 0.61645329 0.14417315
-0.31175649 0.61385351 0.12948895
-0.24525753 0.61103642 0.11357641
-0.16935742 0.59058154 0.14602947
-0.11553387 0.58505619 0.11340237
-0.6736145 -0.51460588 0.17708063
-0.62221253 -0.51580584 0.18487406
-0.55726081 -0.51694822 0.19229555
-0.49210668 -0.51818621 0.20033693
-0.42656207 -0.51932311 0.20771694
-0.37373924 -0.51999468 0.21208048
-0.3063581 -0.5190081 0.20567369
-0.23882458 -0.50399876 0.1947546
-0.19739181 -0.50067139 0.17250395
-0.23543519 -0.45710808 0.20782614
-0.18162242 -0.45587274 0.17311573
-0.226156 -0.39874148 0.2031641
-0.18452799 -0.39563859 0.17717218
-0.22623834 -0.33224872 0.20423412
-0.18459716 -0.32964626 0.17823076
-0.22621733 -0.26560611 0.20395994
-0.18462113 -0.26355442 0.17857933
-0.22621733 -0.21231408 0.2039609
-0.18457487 -0.21060829 0.17788124
-0.22616392 -0.14566684 0.2032671
-0.18455365 -0.14447938 0.17756319
-0.22616112 -0.079063728 0.20323038
-0.18455258 -0.078371614 0.17754841
-0.23310444 -0.0057995059 0.2065177
-0.18452373 -0.012263106 0.17711544
-0.24004045 0.054213263 0.20973587
-0.18443751 0.053820252 0.17578316
-0.73560423 0.10781229 0.21789408
-0.23991719 0.10755254 0.20820475
-0.18428868 0.10661727 0.17352009
-0.7346524 0.17449433 0.21363068
-0.23973706 0.17414281 0.20596933
-0.18414181 0.17254265 0.171278
-0.73383015 0.24105948 0.20994759
-0.23959118 0.24068214 0.20416164
-0.18405673 0.23844463 0.16996431
-0.73346585 0.29431418 0.20831537
-0.23954523 0.29393291 0.20360565
-0.18395314 0.29108456 0.16837072
-0.73281276 0.34738544 0.2053895
-0.23946744 0.36044389 0.20263386
-0.18391326 0.35695547 0.16777182
-0.23943943 0.42699468 0.20230532
-0.18391368 0.42287371 0.16776896
-0.2392782 0.47999284 0.20031118
-0.18382424 0.47542748 0.16643
-0.70880753 0.54921496 0.21769285
-0.23903346 0.54606295 0.19727135
-0.19729951 0.54204452 0.17117167
-0.67702395 0.61624008 0.19319677
-0.61121559 0.62576276 0.19675207
-0.55634654 0.62399685 0.18677711
-0.4884479 0.62215066 0.17635012
-0.4335126 0.61953348 0.16157007
-0.2798391 0.60099697 0.20752764
-0.23808491 0.59727389 0.18554401
-0.19664478 0.59323937 0.16172171
-0.72703391 -0.49736732 0.23998499
-0.69317651 -0.50193262 0.27119827
-0.35306376 -0.50115395 0.26587296
-0.2960723 -0.49698019 0.23733807
-0.7308048 -0.45933312 0.2572813
-0.34013245 -0.46128944 0.27198076
-0.29689535 -0.4577677 0.24583244
-0.25425696 -0.4409596 0.22041702
-0.72891247 -0.39068219 0.24864101
-0.34044188 -0.39369747 0.27485132
-0.29710871 -0.3906005 0.24802923
-0.25431088 -0.40087667 0.2210536
-0.72869211 -0.32310414 0.24765396
-0.34047127 -0.32574612 0.2751236
-0.2971369 -0.32316798 0.24833441
-0.25436041 -0.33398867 0.2216382
-0.72814846 -0.26893857 0.24517727
-0.34047127 -0.27135813 0.2751236
-0.2971732 -0.26922369 0.24871397
-0.2543743 -0.26704833 0.22180319
-0.72795838 -0.20147592 0.24431133
-0.34043193 -0.20335288 0.27475882
-0.29708475 -0.20169088 0.24778986
-0.25435063 -0.21346304 0.22152328
-0.72763425 -0.13402362 0.24283409
-0.34039053 -0.13535674 0.27437544
-0.2970596 -0.1342207 0.24752855
-0.25426832 -0.14646488 0.22055149
-0.72741205 -0.080104828 0.24180984
-0.34027138 -0.080951795 0.27326918
-0.29696482 -0.080232069 0.24654245
-0.25426829 -0.079530358 0.22055054
-0.7249738 -0.018131468 0.24295998
-0.34014568 -0.012992831 0.27210331
-0.29687169 -0.012789294 0.24559116
-0.25422668 -0.025978096 0.22005987
-0.72830808 0.046450909 0.23362255
-0.34001592 0.054919224 0.27089834
-0.29677001 0.054614522 0.24453402
-0.71573043 0.10867029 0.24981165
-0.69541591 0.12316492 0.28197193
-0.33981776 0.10919139 0.26906013
-0.29665416 0.10849844 0.24331808
-0.71511614 0.16255118 0.24696159
-0.69496399 0.16394286 0.27979803
-0.33973977 0.16345572 0.2683363
-0.29648387 0.16232145 0.24155855
-0.71453643 0.22982334 0.24427176
-0.69442159 0.23185536 0.27718878
-0.33955958 0.23120496 0.26666451
-0.29629508 0.22953892 0.23959494
-0.71378118 0.29693976 0.24076843
-0.69353288 0.29953253 0.2729125
-0.33940226 0.29891175 0.26520491
-0.29621488 0.29677534 0.23876667
-0.71308756 0.35048109 0.23755026
-0.69286102 0.35357863 0.26968098
-0.33940721 0.35315135 0.26525116
-0.29616579 0.35055402 0.23824835
-0.71218884 0.41726169 0.23337984
-0.69207078 0.42100745 0.26587915
-0.33937672 0.42091155 0.2649684
-0.2961075 0.41775382 0.23763609
-0.71125823 0.47044733 0.22906351
-0.69696951 0.49067333 0.24646854
-0.34894305 0.49385005 0.26947784
-0.29595077 0.48480159 0.23601055
-0.69973946 0.54564333 0.23833561
-0.35354736 0.54370868 0.27013683
-0.29276043 0.54582751 0.23073912
-0.68192059 0.60098094 0.26071167
-0.36075661 0.59932333 0.26170969
-0.3089236 0.591618 0.23161936
-0.66871619 -0.50390804 0.28470564
-0.61734706 -0.50644046 0.30201817
-0.55149096 -0.50876254 0.31789398
-0.49719399 -0.50947273 0.32275057
-0.43995348 -0.50715667 0.30691671
-0.39642781 -0.50436944 0.28785944
-0.68699712 -0.45964992 0.32121372
-0.42040971 -0.45823371 0.3222456
-0.36940953 -0.4637453 0.29023123
-0.69033396 -0.39231554 0.31067324
-0.41434374 -0.38527545 0.32119417
-0.36973277 -0.39579788 0.29303026
-0.6881448 -0.32942951 0.31340885
-0.4144305 -0.33024418 0.32187033
-0.3697561 -0.32748824 0.29323244
-0.68786681 -0.27434415 0.31205225
-0.41438028 -0.27510571 0.32148409
-0.36984083 -0.27288121 0.29396582
-0.6874246 -0.20551538 0.30989456
-0.41431311 -0.2061983 0.32095194
-0.3697516 -0.20448631 0.29319286
-0.68712324 -0.13680054 0.30840778
-0.41415405 -0.13727632 0.31970978
-0.36966199 -0.13612065 0.2924161
-0.68665963 -0.081837684 0.30612707
-0.41409612 -0.082190633 0.31925392
-0.36956394 -0.081445456 0.29156733
-0.68610579 -0.013235223 0.3034153
-0.41395342 -0.013347559 0.31812668
-0.36946049 -0.013135565 0.29067135
-0.68573415 0.055271432 0.30159807
-0.41383502 0.055454392 0.31718397
-0.3692995 0.055129692 0.28927708
-0.68162084 0.10558498 0.30378771
-0.42873597 0.11071241 0.32546091
-0.36914256 0.10970053 0.28791761
-0.66707039 0.17037615 0.32265568
-0.42856747 0.16582045 0.32416582
-0.36900586 0.16423689 0.28673458
-0.66281873 0.23475921 0.32442665
-0.42834979 0.23464349 0.32249403
-0.36877689 0.23231938 0.28475189
-0.66217387 0.30342838 0.3211503
-0.42821872 0.30346248 0.32149792
-0.36869523 0.30043575 0.28404474
-0.6616506 0.35827398 0.31849527
-0.42820603 0.35855502 0.32139063
-0.3686592 0.35493052 0.28373194
-0.66303146 0.42075607 0.31152916
-0.42813185 0.4135924 0.32083559
-0.36861014 0.42302725 0.2833066
-0.65734863 0.48656794 0.31057262
-0.4279452 0.48226574 0.31940031
-0.36847201 0.47738934 0.28211164
-0.65914577 0.54905671 0.30571985
-0.4426015 0.55216372 0.32644463
-0.39760926 0.54781008 0.29745245
-0.65943903 0.59043884 0.30721712
-0.63466936 0.62027127 0.3213377
-0.49827093 0.62169206 0.32972574
-0.44040444 0.60460597 0.3101902
-0.39710668 0.58820081 0.2933712
-0.62053758 -0.49198639 0.39545536
-0.56476152 -0.49231791 0.39784718
-0.50399685 -0.48816741 0.36789417
-0.65631729 -0.4594613 0.36196566
-0.6363911 -0.45100978 0.40492058
-0.55173165 -0.45094207 0.40442705
-0.50541961 -0.44750324 0.37734985
-0.45945349 -0.44387576 0.34878206
-0.65675181 -0.39007843 0.36422348
-0.63604099 -0.39441013 0.40302753
-0.55195993 -0.39472488 0.40583849
-0.50561827 -0.39169219 0.37867403
-0.45963827 -0.38850471 0.35011578
-0.65647447 -0.33418339 0.36278248
-0.63557494 -0.33781332 0.40050459
-0.55175757 -0.33820441 0.40458679
-0.50558573 -0.33568999 0.37846422
-0.45966494 -0.33298028 0.35030842
-0.6561563 -0.26438236 0.36112928
-0.63521278 -0.26726356 0.39854479
-0.55166286 -0.2676844 0.40400076
-0.5055328 -0.26569319 0.37811804
-0.45962328 -0.27741155 0.35000849
-0.65595531 -0.19468126 0.36008453
-0.63465828 -0.19673242 0.39554262
-0.55155343 -0.19717909 0.40332365
-0.50536579 -0.19565928 0.37699461
-0.45951614 -0.20793985 0.34923458
-0.655509 -0.13889088 0.35776615
-0.6341145 -0.14036565 0.39259958
-0.55154943 -0.14081475 0.40329981
-0.50522888 -0.13966291 0.37608576
-0.45934358 -0.13847367 0.34798956
-0.65513068 -0.083178163 0.35579872
-0.63393492 -0.084140897 0.39162779
-0.5512774 -0.08441104 0.40161753
-0.50514793 -0.0837069 0.37554884
-0.45921218 -0.082939073 0.34704161
-0.65447521 -0.013617614 0.35239315
-0.6331951 -0.013891527 0.38762283
-0.55132145 -0.013991367 0.40188885
-0.50497401 -0.013782732 0.37439013
-0.4591291 -0.027437668 0.34644175
-0.65403926 0.055830196 0.35012913
-0.63250655 0.056220453 0.38389587
-0.55126745 0.056428216 0.40155458
-0.50484043 0.056103375 0.37349558
-0.459005 0.041912511 0.34554625
-0.65331358 0.1112735 0.3463583
-0.63218749 0.11223921 0.38216972
-0.5510456 0.11272468 0.40018225
-0.50461215 0.11196519 0.37197971
-0.65327436 0.15288174 0.34615374
-0.63157558 0.16813284 0.37885666
-0.5508818 0.16899626 0.3991704
-0.50450385 0.16781439 0.37125158
-0.61978346 0.22484156 0.39136505
-0.55088389 0.2252944 0.39918232
-0.50431067 0.2236084 0.36997366
-0.6190508 0.29474404 0.387321
-0.55076343 0.29560843 0.39843702
-0.50418377 0.29335088 0.36911726
-0.61828774 0.36449224 0.38311577
-0.55055267 0.36584195 0.39713335
-0.50409031 0.36308643 0.36848402
-0.61814469 0.42045462 0.38232803
-0.56550145 0.42269218 0.40235281
-0.50409675 0.41891816 0.36854076
-0.61745542 0.47601226 0.37856722
-0.55075413 0.47853437 0.3983798
-0.50404757 0.47470036 0.36820364
-0.61719769 0.54578578 0.37712574
-0.56231505 0.54349911 0.40011501
-0.50375509 0.54418445 0.3662467
-0.61083138 0.60944486 0.36739397
-0.56511515 0.60820872 0.38301563
-0.5030514 0.59922451 0.36156273
-0.61164236 -0.45347497 0.42437601
-0.5827868 -0.45308974 0.42134809
-0.61164457 -0.39679748 0.42438793
-0.58286715 -0.39651081 0.42182302
-0.6113565 -0.33995333 0.42276096
-0.5827592 -0.33980042 0.42118549
-0.61119694 -0.26905829 0.42186069
-0.58267593 -0.2689665 0.42069435
-0.61084962 -0.19813782 0.41989899
-0.58262378 -0.19816393 0.42038584
-0.61058438 -0.14145632 0.41840029
-0.58251375 -0.14151189 0.41973591
-0.61033261 -0.084824428 0.41697836
-0.58216077 -0.084841594 0.41765213
-0.61014938 -0.028240003 0.41594362
-0.58203828 -0.028248116 0.41692877
-0.60982877 0.042438015 0.41413307
-0.58189118 0.042452123 0.41606045
-0.60944617 0.1130437 0.41197205
-0.58157396 0.11310412 0.41418695
-0.6092062 0.16948116 0.41061735
-0.58135474 0.16957656 0.41289282
-0.5811609 0.22602017 0.41174841
-0.58084029 0.29648331 0.40985584
-0.58054864 0.36690035 0.40813303
-0.58041418 0.47967169 0.40733862
0 0 0 1 0 0 0 1 0 0 0 1 0 0 0 0 0 802 1 0 0
