ply
format ascii 1.0
comment PCL generated
element vertex 1319
property float x
property float y
property float z
element camera 0
property float view_px
property float view_py
property float view_pz
property float x_axisx
property float x_axisy
property float x_axisz
property float y_axisx
property float y_axisy
property float y_axisz
property float z_axisx
property float z_axisy
property float z_axisz
property float focal
property float scalex
property float scaley
property float centerx
property float centery
property int viewportx
property int viewporty
property float k1
property float k2
end_header
-0.13179019 0.8488481 -0.0091523016
-0.10362943 0.84803927 -0.0082481876
0.078590728 0.85557246 -0.00080399419
0.24090382 0.84990525 -0.01341297
-0.1950803 0.86664319 -0.00080405036
-0.17894985 0.86826861 -0.0012843499
-0.10528348 0.87189698 -0.0024595726
-0.087466508 0.86675274 -0.0008041627
0.068602838 0.8815726 -0.00080405036
0.12936559 0.86962092 -0.0027999971
0.23850368 0.87519455 -0.0074915579
-0.10446444 0.89066064 -0.018308835
-0.077853151 0.89331567 -0.0029865776
-0.076092094 0.89079523 -0.0008041627
-0.048157115 0.89247894 -0.0022590687
-0.026128981 0.89565825 -0.0051691616
-0.01550535 0.89089525 -0.00080407842
0.010062305 0.89247656 -0.0022648356
0.025811354 0.89565158 -0.0051864628
0.047826938 0.89246392 -0.0022991202
0.077329628 0.89096093 -0.00080410653
0.12971799 0.89541066 -0.0058203256
0.13895348 0.88832688 -0.00080405036
0.15935349 0.89229572 -0.0033123002
0.17818061 0.8924377 -0.0033121877
0.19189991 0.88915038 -0.00080405036
0.21171589 0.89116788 -0.0024761606
0.24096978 0.88892794 -0.00080410653
-0.097751975 -0.98991406 0.0096079716
-0.073353656 -0.98991406 0.0096079716
-0.048955452 -0.98991406 0.0096079716
-0.024557132 -0.98991406 0.0096079716
-0.00015881425 -0.98991394 0.0096077472
0.024239449 -0.98991406 0.0096077472
0.048637655 -0.98991406 0.0096079716
-0.11788703 -0.96557057 0.005600661
-0.096176505 -0.97330654 0.0066757109
0.082412437 -0.97277617 0.016832793
0.097292706 -0.97279561 0.0057587335
-0.13349292 -0.95345128 0.01317432
-0.11947978 -0.93679488 0.0066190884
-0.10735831 -0.94100332 -0.00047529736
0.10583221 -0.94142282 0.0002975387
-0.10471731 -0.9135772 0.0036481803
0.066118419 -0.90731013 0.014419463
0.083123259 -0.91572225 0.017279597
0.098017909 -0.91573453 0.005294852
-0.085480832 -0.89156151 0.013515743
0.083565965 -0.88962567 0.011320199
0.099371269 -0.88257074 0.0050894814
-0.082076147 -0.86413133 0.015693031
0.081720658 -0.86174941 0.011327446
-0.07866428 -0.83664143 0.017874813
0.072115824 -0.83392239 0.010359013
0.087008446 -0.83395064 0.012335536
0.071179859 -0.80570209 0.0097706504
0.086058438 -0.80573511 0.012942998
-0.078407116 -0.77955449 0.018039513
0.072317712 -0.77686143 0.010485965
0.087209322 -0.77688801 0.012207236
-0.080114454 -0.75048757 0.016947724
0.073473088 -0.7480365 0.011212289
0.088359311 -0.74806237 0.011471812
-0.0822777 -0.72132695 0.015564281
0.082168534 -0.7192179 0.011319862
-0.085828096 -0.69183815 0.013293521
0.064462423 -0.69431996 0.0092290249
0.084031418 -0.69024777 0.011312503
-0.089370288 -0.66241646 0.011028377
0.078433439 -0.66130745 0.014331271
0.093350895 -0.66131675 0.0082795797
-0.10869164 -0.65747344 -0.00027981331
0.06395641 -0.64504087 0.017402057
-0.11054593 -0.62870944 0.00090578618
-0.092904508 -0.63306129 0.0087681776
0.080314577 -0.63240194 0.015514063
0.095223047 -0.632411 0.0070821838
-0.10437824 -0.60188484 0.0043018162
0.079979405 -0.60303819 0.011545735
0.097056776 -0.60354853 0.0059093917
-0.10647346 -0.57306015 0.0041218353
0.080955952 -0.57665741 0.016656352
0.098888151 -0.57472014 0.0047381725
-0.11598769 -0.54264694 0.004385964
-0.10107169 -0.54591775 0.0035450456
-0.095581092 -0.54230702 0.0062636221
0.10071772 -0.54592568 0.0035684139
-0.11763627 -0.5140605 0.0054402296
-0.10326055 -0.5170815 0.0021454247
0.10245439 -0.51718402 0.0024575251
-0.1224036 -0.4848308 0.0099596186
-0.10488655 -0.48839828 0.0011056517
0.10371964 -0.48856896 0.0016482885
-0.12021295 -0.45711619 0.0070881378
-0.10652885 -0.45974174 5.5318233e-05
0.10500197 -0.45997372 0.00082849129
-0.12148192 -0.42868292 0.0078995088
0.10628317 -0.43140212 9.368232e-06
-0.12251787 -0.40031329 0.0085619073
0.10738305 -0.40288544 -0.00069437432
-0.12303557 -0.37204781 0.0088932198
-0.12351719 -0.34379736 0.0092011634
-0.12399872 -0.31555569 0.0095092189
-0.12430183 -0.28734732 0.0097031305
-0.12408792 -0.25921065 0.0095662912
-0.12389176 -0.23106793 0.0094406875
-0.12367774 -0.2029236 0.0093039609
-0.12341002 -0.17478073 0.0091326311
-0.12249978 -0.14669168 0.0085506728
0.10749113 -0.14803392 -0.0007634678
-0.12153561 -0.11859046 0.0079338877
0.10649955 -0.11980072 -0.00012904347
-0.12057067 -0.09047164 0.0073168762
-0.10712384 -0.091454491 -0.00032542626
0.10552528 -0.0915481 0.00049380912
-0.11960504 -0.062335245 0.0066991914
-0.10589746 -0.063211933 0.00045898149
0.084134415 -0.071246102 0.012422493
0.10453258 -0.063278891 0.0011286829
-0.11808386 -0.03421165 0.0057264902
-0.10400148 -0.034983642 0.0016714321
0.10303297 -0.035019316 0.0020876783
-0.11650763 -0.0060627908 0.0047186241
-0.1020308 -0.0067241378 0.0029317425
0.10145955 -0.0067357086 0.0030938594
-0.11494758 0.022115469 0.0037208686
-0.10005765 0.021571293 0.0041936254
0.099884778 0.021576591 0.0041009393
-0.11728774 0.042446911 0.016352171
-0.10573404 0.050112449 0.004089592
0.08343289 0.049919114 0.017474296
0.098308213 0.049917623 0.0051091425
-0.11686858 0.074688867 0.012424178
-0.11144538 0.078550518 0.0014811161
-0.095159203 0.078252926 0.0073262015
0.081464231 0.078281462 0.01623668
0.096367188 0.078280792 0.0063505787
-0.11659726 0.10420099 0.0045478558
-0.10946616 0.10681397 0.00021518825
-0.091466129 0.1066495 0.0096878512
0.079474673 0.10667942 0.014985917
0.094387181 0.1066791 0.0076167313
-0.1156745 0.12550999 0.014734934
-0.087556653 0.13340925 0.0083890613
0.084934629 0.13511357 0.011303291
-0.083998971 0.16364585 0.014463391
0.082926653 0.16358437 0.011311155
-0.079967394 0.1922518 0.017041646
0.073216371 0.19209564 0.011051184
0.088122144 0.19209701 0.01162348
0.063749962 0.21692702 0.013052817
0.085400537 0.22066331 0.013363962
0.056831021 0.24366045 0.012226896
0.067742825 0.24927685 0.007609766
0.082674205 0.2492795 0.015107365
0.060160253 0.27249002 0.008668188
0.080016524 0.27794242 0.016806953
0.084966063 0.29981738 0.0025617832
-0.084132999 0.30548158 0.017715167
0.062471494 0.30664608 0.0042956369
-0.082383759 0.33398759 0.016615177
0.059866276 0.33540064 0.0026575029
-0.080668889 0.36252293 0.015537092
0.057349138 0.36419618 0.0010749809
-0.079262756 0.39106417 0.014653034
0.055217799 0.39300591 -0.00026509585
-0.077782243 0.41963777 0.013722125
-0.083170161 0.43908983 0.017349364
-0.076391831 0.44822922 0.012847952
-0.082840249 0.46920183 0.015530914
-0.091275387 0.48585472 0.0093981074
-0.075531371 0.47678819 0.012307
-0.08250922 0.49914852 0.013870873
-0.074670337 0.50536287 0.011765824
-0.082158245 0.52929318 0.013102531
-0.074230723 0.53389955 0.011489113
-0.081774808 0.55986094 0.013732573
-0.074230723 0.56238425 0.011489113
-0.081373617 0.59054327 0.015190952
-0.074469015 0.59083426 0.011639209
-0.075439803 0.61916673 0.012249254
-0.093157373 0.63951349 0.0085638175
-0.076666407 0.64743972 0.013020405
-0.07829421 0.67562103 0.014044
-0.078641474 0.70400572 0.014262402
-0.091136709 0.72483516 0.011535568
0.06262055 0.72420645 0.0013301214
0.082378566 0.7331053 0.011324918
0.12502839 0.71660423 0.010805817
0.15632527 0.71660423 0.010805817
0.185969 0.71746337 0.016430253
0.19406787 0.71703708 0.0081898142
0.21906699 0.71833563 0.0086478535
-0.19412187 0.74656296 0.010011523
0.25500363 0.73706174 0.0023224838
-0.23544259 0.76558864 0.015710782
-0.22128491 0.76744211 0.00085152255
-0.15749666 0.75735497 0.0099202972
-0.12603869 0.75755703 0.0096723475
-0.10885387 0.757828 -0.00017622922
-0.092431299 0.7611289 0.0090708407
0.25525224 0.76436996 0.0021550865
-0.23696198 0.79586899 0.014669549
0.25525224 0.79172897 0.0021550865
-0.26252323 0.81617939 0.0032811419
-0.23600444 0.82362223 0.015313635
0.25525224 0.81908786 0.0021550865
0.25525224 0.84644687 0.0021550865
-0.23661324 0.84754384 0.016485078
-0.15677096 0.85618436 0.016002884
-0.13033859 0.84826744 0.014067143
-0.20846088 0.87032819 0.00015620596
0.10390088 0.87142062 0.0029654466
0.25525224 0.87380588 0.0021550865
-0.078376703 0.89083803 0.016234431
-0.052099429 0.89565146 0.0035784126
-0.026129095 0.89565158 0.0035783004
-0.00015887036 0.89565158 0.0035783004
0.02581124 0.89565825 0.0035609987
0.051781353 0.89565825 0.0035609987
0.077754781 0.89560616 0.0036981746
0.15569265 0.89541709 0.0041950857
0.18166877 0.89541054 0.0042121625
0.20764416 0.89541054 0.0042121625
0.23361956 0.89541042 0.0042123878
-0.097071573 -0.9917053 0.020444391
-0.073363714 -0.99466252 0.020824855
-0.044077534 -0.99465859 0.020822272
-0.014799024 -0.99465454 0.02082105
0.014481171 -0.99465442 0.020820994
0.04376423 -0.99465394 0.0208223
0.071191095 -0.99473655 0.020528119
0.092937231 -0.98749375 0.02048759
-0.1220621 -0.9697926 0.024730349
-0.10749332 -0.9706713 0.025297899
0.072727636 -0.97285593 0.035842717
0.10656326 -0.97127581 0.020538511
-0.11938725 -0.94936728 0.027702212
0.084514283 -0.9538728 0.035003796
0.10480738 -0.94697642 0.034750253
-0.10499138 -0.93667698 0.030829113
0.066118762 -0.93551993 0.031819791
0.090992726 -0.9414041 0.022227254
0.1025428 -0.93483984 0.020793455
-0.098292112 -0.91072571 0.026617106
-0.061927196 -0.91828501 0.034863476
0.073409356 -0.92296147 0.031976514
-0.098786004 -0.89453864 0.025907621
0.067820564 -0.9045043 0.034747869
0.090580016 -0.88846648 0.021145551
-0.093357377 -0.88407516 0.02351464
-0.098979652 -0.85016096 0.031818837
-0.093637966 -0.85833442 0.021922963
-0.047754996 -0.8643744 0.034567777
0.08793284 -0.85193944 0.021395383
0.061111473 -0.8346386 0.034317691
-0.099881627 -0.82276297 0.031599253
-0.091255702 -0.82549822 0.021563115
0.086378403 -0.81594443 0.021637434
-0.099221699 -0.80324507 0.028725021
-0.090058751 -0.80013251 0.021440711
-0.076698095 -0.80865324 0.019132426
-0.093512304 -0.78931332 0.021784216
-0.046423342 -0.78447306 0.034050193
0.087640963 -0.78260148 0.021850698
-0.099109188 -0.76773465 0.0305865
-0.092812605 -0.76349211 0.021966118
-0.10103521 -0.74656105 0.034658689
-0.091618471 -0.74301136 0.022421278
0.063272752 -0.74787617 0.033740789
0.088945314 -0.74864066 0.022067696
-0.098353207 -0.72017848 0.029841537
-0.092778005 -0.71436846 0.023150411
0.090992391 -0.71491694 0.022280313
-0.099369414 -0.68812346 0.022423107
-0.094334796 -0.68564188 0.024129178
-0.057837814 -0.68031466 0.033321735
0.093484528 -0.68107522 0.022491807
-0.096297696 -0.67131925 0.035382882
-0.1019152 -0.65377676 0.022637745
-0.095908105 -0.65693939 0.025118282
0.069768608 -0.65471125 0.033104569
0.096022733 -0.64660764 0.022707175
-0.097461872 -0.62827027 0.026095254
-0.1044993 -0.61877775 0.022856429
0.098580934 -0.6114608 0.022927152
-0.098995857 -0.59963417 0.027059641
0.063460849 -0.59663355 0.025323205
-0.1038301 -0.57705843 0.025557099
-0.069113202 -0.57974708 0.032617543
0.10116874 -0.5756259 0.023151172
0.063011013 -0.55057728 0.031208847
0.077278584 -0.55920613 0.028417457
-0.10592318 -0.54458141 0.026152061
0.08583577 -0.54591775 0.018985139
0.10381519 -0.53911996 0.023379574
-0.1034812 -0.51391757 0.02987978
0.082914673 -0.52279079 0.024317248
-0.1120634 -0.50908256 0.023544163
0.06260471 -0.50672281 0.035132233
0.078553058 -0.50127274 0.030765299
0.10599539 -0.50120264 0.023618985
-0.10457794 -0.48547941 0.030569367
-0.077396102 -0.48834687 0.031985477
0.083190978 -0.48038188 0.028543439
-0.10985525 -0.46363774 0.027518904
0.09015844 -0.45996335 0.021702817
0.10802928 -0.46226245 0.023865756
-0.12500672 -0.43942586 0.019470254
0.079138897 -0.44628817 0.034924615
0.10215644 -0.43489414 0.036474444
-0.11607683 -0.43053043 0.024042254
-0.10673331 -0.42866984 0.031924497
0.091427736 -0.43139553 0.02250093
0.11011421 -0.42254055 0.024117526
-0.10761265 -0.40032881 0.032477245
-0.083451726 -0.40412739 0.03140936
0.085705556 -0.39905357 0.031365771
0.098461397 -0.40444162 0.029108685
-0.12076656 -0.39251581 0.024281593
0.11126521 -0.38059461 0.02438744
-0.10807912 -0.3720713 0.032770474
0.099231876 -0.37591714 0.028954938
-0.12083686 -0.35028306 0.025876304
-0.10852739 -0.34382504 0.03305224
0.1000019 -0.34740677 0.028801471
-0.086364552 -0.32849574 0.030902453
0.087514684 -0.32565382 0.030877847
0.11227515 -0.33748665 0.024665669
-0.12269855 -0.31398779 0.030059423
-0.10897543 -0.31558698 0.033334006
0.10077154 -0.31891051 0.028648006
-0.11914375 -0.30162132 0.024874073
-0.10928012 -0.28737664 0.033525668
0.10130557 -0.29046077 0.028578462
0.11305068 -0.29303372 0.024953727
-0.12202082 -0.27462506 0.031610489
-0.11850926 -0.25413734 0.025187632
-0.10906509 -0.259238 0.033390403
-0.087523192 -0.2583707 0.030438682
0.087898068 -0.25705421 0.030427111
0.10102516 -0.26212507 0.02859891
-0.12139571 -0.23657455 0.031959102
-0.10886814 -0.23109335 0.033266373
0.1007262 -0.23378637 0.028631154
0.11268376 -0.24581005 0.02526431
0.082002625 -0.20933738 0.035595104
-0.11930801 -0.20218047 0.028906588
-0.10865277 -0.20294705 0.033131331
-0.087581947 -0.19225708 0.030005416
0.0874798 -0.19185464 0.030001765
0.10038231 -0.20544723 0.028704517
0.11231807 -0.19744875 0.025582589
-0.10840178 -0.17480043 0.032973371
0.0824164 -0.1776751 0.034096282
0.10003813 -0.17710181 0.028777879
-0.11822759 -0.15823504 0.028759552
-0.10757693 -0.14670146 0.032454778
0.082883596 -0.14468637 0.030705757
0.10273699 -0.14794767 0.027995221
-0.11967624 -0.12694427 0.029848548
-0.10676949 -0.11858605 0.031946968
-0.085780852 -0.13135514 0.029613942
0.088634282 -0.12544549 0.026130237
0.10293747 -0.12132535 0.035966188
-0.11389028 -0.10029846 0.026213642
0.08339376 -0.11053806 0.025840338
-0.11915635 -0.091875568 0.028026389
-0.1059434 -0.090457268 0.0314277
0.09068422 -0.091544144 0.022033455
0.1089062 -0.092876583 0.026281051
-0.10511709 -0.062313508 0.030908205
-0.083732374 -0.072508268 0.029236905
0.086597621 -0.067807585 0.025320804
-0.11864743 -0.057229839 0.026045371
-0.11006149 -0.042712677 0.026606183
-0.11819147 -0.023761064 0.022770114
-0.10380499 -0.03418123 0.030083127
0.088162027 -0.035017334 0.020447675
0.10616409 -0.036920622 0.026658595
-0.10249165 -0.0060251392 0.029257376
-0.080319993 -0.017600283 0.028891157
0.083482884 -0.011829171 0.024169415
-0.11773803 0.0094638094 0.019539235
-0.10302805 0.02036909 0.027724134
-0.076824367 0.035778999 0.028555632
0.058313664 0.020828396 0.03672161
0.084998555 0.021577917 0.018458905
0.10271031 0.021661118 0.027056077
-0.10681093 0.04773616 0.032161269
0.05807285 0.054232806 0.03447298
0.077230148 0.037034586 0.028544622
-0.10380041 0.081451342 0.028025892
-0.0726441 0.086665511 0.028239375
0.065677561 0.087829888 0.029929452
0.098509878 0.083044678 0.027475078
-0.096504562 0.10683139 0.025493298
0.057618741 0.11946402 0.028824054
-0.094823286 0.13511357 0.024436336
-0.068406031 0.13622139 0.027931992
0.069735751 0.13898121 0.027907165
0.093669228 0.14717546 0.027914636
-0.092331253 0.15740168 0.025665063
0.057397194 0.15160689 0.025882581
-0.064077631 0.18444438 0.027633823
0.057489544 0.18162565 0.028467519
-0.091310188 0.1917724 0.022227591
0.065863475 0.18790761 0.027602591
-0.086108319 0.22251233 0.028341439
-0.075852007 0.22093374 0.019673377
0.05818722 0.22004867 0.028239736
0.088210337 0.21413887 0.028375259
-0.059671376 0.23140672 0.02734408
0.061995029 0.23568076 0.027305489
-0.086380884 0.25207123 0.026239676
-0.066848733 0.2498695 0.025431283
0.060557548 0.24899378 0.036720712
-0.085862249 0.27700832 0.018802127
-0.055431001 0.27754456 0.027059168
0.058661576 0.27754962 0.035548929
-0.084777847 0.28662491 0.029740021
0.058272406 0.28256929 0.027013386
0.082619831 0.28320327 0.028850149
-0.084456868 0.31746814 0.027010882
-0.066585138 0.30333853 0.032635331
0.056818634 0.30613691 0.034409955
0.077428043 0.30665007 0.018462501
-0.058334276 0.33456489 0.035150435
-0.05135252 0.32287776 0.02677875
0.02786006 0.32262549 0.03612145
0.054681003 0.32857937 0.026726564
0.054973442 0.33475769 0.033269405
0.074834958 0.33540535 0.020120744
-0.084138647 0.34807828 0.024302306
0.027749848 0.35341185 0.033895515
0.076820642 0.35459551 0.029341107
-0.089249037 0.35819566 0.033647567
-0.05168293 0.36482114 0.030284187
0.052339688 0.36878675 0.029301599
0.072329842 0.36420158 0.021722814
-0.083812788 0.3786571 0.021978853
-0.061777379 0.38222447 0.029584283
-0.055106543 0.3918139 0.033155598
0.027637107 0.38418493 0.032103803
0.051702231 0.39206526 0.031247832
0.070208505 0.39301199 0.023079295
-0.086670697 0.40386665 0.023799496
-0.042919684 0.41007936 0.026241899
-0.053628728 0.42046991 0.032242216
0.027524928 0.41472965 0.030362424
0.049446695 0.42001772 0.028239049
0.070017651 0.42411238 0.027128527
-0.090475477 0.43976408 0.021637881
-0.052260228 0.44914171 0.031396691
0.027413817 0.44501927 0.028617447
0.048813563 0.4494532 0.029462636
0.065716416 0.45077422 0.025952235
-0.045017853 0.46039799 0.028075965
-0.053170282 0.47897628 0.033826817
0.027299054 0.47533521 0.027406121
0.047942199 0.47812417 0.028924042
0.063938074 0.47966561 0.027089413
-0.050594907 0.50643373 0.030367142
-0.038007755 0.4986296 0.025681848
0.027185246 0.50539982 0.026205016
0.047070496 0.5068109 0.028385226
0.068767317 0.49699 0.030306112
-0.054679483 0.51033556 0.035943381
-0.0056230137 0.5099411 0.036468156
0.062157929 0.50858974 0.028227715
-0.049328461 0.54021752 0.032227039
-0.0050920616 0.53884089 0.036145605
0.028663006 0.53844595 0.031128686
0.046699189 0.53544998 0.028155813
0.061452843 0.53740883 0.02867879
-0.050206073 0.5636127 0.030126944
0.046699189 0.56404555 0.028155813
-0.05419128 0.57068741 0.035927314
-0.0050920616 0.56767857 0.036145605
0.028679183 0.57271838 0.031131104
0.064825051 0.56543183 0.029715402
-0.05220126 0.59648502 0.033488482
-0.0059072524 0.59639871 0.036640942
0.026811523 0.59625089 0.027121432
0.046977583 0.5926007 0.028327817
0.06221354 0.5947684 0.028192326
-0.048176464 0.61502099 0.030999865
-0.080937989 0.62163687 0.018151635
0.026677381 0.62664819 0.028834952
0.047960848 0.62104237 0.028935501
0.067374714 0.62592328 0.02905407
-0.080512702 0.65229404 0.020853473
-0.052648723 0.64891458 0.031636663
0.026541609 0.65689659 0.03086203
0.049239807 0.64941812 0.029725976
0.066937856 0.65144837 0.025170974
-0.093291909 0.66952002 0.020256909
-0.052077774 0.66510797 0.031475872
-0.080092691 0.68261433 0.023491833
-0.054219898 0.67718887 0.032607794
0.026410051 0.68669236 0.032539822
0.050814014 0.67771995 0.030698903
0.069156036 0.67974854 0.023752479
0.074540496 0.69130993 0.031555302
-0.064650655 0.71144986 0.03172854
-0.054072049 0.70574594 0.03251623
0.050499219 0.70633507 0.030504316
0.067733161 0.70867348 0.024662491
0.17097211 0.71339154 0.031309485
0.20622963 0.71334815 0.03116658
0.24110651 0.71345353 0.031026259
-0.096687518 0.72489893 0.028810952
0.094175972 0.72419083 0.031691015
0.12566137 0.7297883 0.026297254
0.1597802 0.7196908 0.032594986
-0.21938451 0.74497628 0.025112666
-0.18826984 0.74777997 0.021671584
-0.10578171 0.74039781 0.024258154
0.062287889 0.73714769 0.034720708
0.093830138 0.74594343 0.023925606
0.12137095 0.74219108 0.031698994
0.2392502 0.74292696 0.021305516
0.25833759 0.74220788 0.033327531
-0.21725684 0.76399815 0.033272427
-0.1576598 0.77083981 0.029207271
-0.13157037 0.76919019 0.025314666
-0.097244926 0.75717342 0.025958864
0.11224241 0.75700784 0.034168296
0.24093552 0.76435578 0.019553728
0.25532383 0.76743639 0.03521391
-0.25108978 0.7756654 0.036684871
-0.24232987 0.78825259 0.031512272
-0.21644974 0.77271092 0.028464431
-0.17865975 0.77279902 0.031668995
-0.15127525 0.7772187 0.026952911
-0.1062386 0.78039408 0.032380052
-0.24579571 0.79070854 0.022558341
0.2394349 0.79160488 0.021253726
0.25532383 0.79492867 0.03521391
-0.24707434 0.81772995 0.02340409
-0.22778399 0.81800103 0.022822443
0.24093552 0.8190726 0.019553728
0.25865179 0.82234788 0.033434093
-0.21438536 0.83990455 0.022733297
-0.15596801 0.82947981 0.036027305
-0.12574138 0.83083558 0.028991548
-0.10191553 0.84093809 0.028895395
-0.094008543 0.83592761 0.023246499
0.23949347 0.83983052 0.021116802
-0.23383492 0.85177207 0.022884259
-0.21413977 0.84946954 0.03454623
-0.20104076 0.85462451 0.028344853
-0.17728239 0.85377336 0.025002019
-0.16340408 0.84966516 0.022875696
-0.14628412 0.84764314 0.024140894
-0.10383204 0.85400152 0.028493078
-0.080772251 0.85800731 0.023155442
0.078149468 0.85387456 0.02354072
0.10330662 0.85653114 0.03485721
0.11394356 0.84738588 0.0240131
0.13300596 0.86283386 0.023989057
0.25532383 0.84991336 0.03521391
-0.19509143 0.86663067 0.024214145
-0.099454686 0.87303483 0.029361028
0.068593517 0.88156068 0.023049273
0.12496641 0.88085103 0.032334115
0.14848706 0.88234353 0.023923952
0.15432847 0.88420618 0.035843391
0.18053947 0.88324797 0.029949702
0.20983966 0.88322699 0.030016324
0.23700103 0.87469804 0.020266226
0.25414011 0.87770331 0.036023259
-0.077626869 0.89098537 0.023579272
-0.072979905 0.8867929 0.022998493
-0.046166856 0.8908776 0.023267087
-0.015490801 0.89087701 0.023265822
0.015182779 0.89087701 0.023265794
0.04585883 0.89087737 0.023267059
0.13383637 0.88921189 0.022735095
0.16301361 0.88918114 0.022617299
0.16937655 0.88469195 0.035406586
0.19189991 0.88915026 0.022500513
0.22012231 0.88859427 0.022390019
-0.072698139 -0.99392939 0.042468801
-0.044082031 -0.99465406 0.042448774
-0.014799193 -0.99464512 0.042446289
0.014481341 -0.994645 0.042446274
0.042526167 -0.99468565 0.042092931
0.071174294 -0.99471843 0.041860681
0.088449694 -0.98254216 0.041880257
-0.099695541 -0.97179055 0.046750404
-0.082567587 -0.97499728 0.044593494
0.074093916 -0.9704411 0.045086753
0.10258459 -0.96681941 0.04197168
0.07268618 -0.95269752 0.050410774
-0.082470492 -0.93932223 0.05006744
0.07975588 -0.94014657 0.04858603
-0.099211983 -0.92436254 0.043421995
-0.07554204 -0.91336751 0.045785442
0.027725397 -0.91192007 0.052255146
0.072707333 -0.91421032 0.044229768
0.089669138 -0.9206593 0.043105077
-0.098257147 -0.90202963 0.04462995
-0.073052652 -0.90094566 0.043076135
-0.035355013 -0.89322996 0.054528803
0.04874517 -0.90482438 0.053981613
0.066799894 -0.88777471 0.040578712
-0.098791301 -0.87591076 0.04038199
-0.067788221 -0.87975204 0.046654616
0.032680426 -0.87999618 0.043243699
0.049024127 -0.8785342 0.048935991
0.079922825 -0.8761636 0.043342512
-0.067719027 -0.86003315 0.042468939
-0.033157729 -0.86535752 0.053194061
0.049267471 -0.85272026 0.046304595
0.065131538 -0.85988963 0.039547589
-0.066005491 -0.83100963 0.044450421
-0.030938873 -0.83745217 0.051846121
0.032529995 -0.83846593 0.04053995
0.063479923 -0.83196914 0.038526803
0.076535672 -0.83858097 0.043862116
-0.062030949 -0.82120776 0.044209663
-0.032694943 -0.8246603 0.055326186
-0.00015875802 -0.82639134 0.053472344
0.049513064 -0.82665455 0.043662976
-0.066219471 -0.80280232 0.040023718
-0.029613402 -0.80924118 0.051041041
0.032358889 -0.79532921 0.040019449
0.049717929 -0.80123436 0.043734655
0.062983908 -0.80367362 0.03822032
0.076039881 -0.80364025 0.044323694
-0.064078487 -0.78758645 0.046713892
-0.030696202 -0.7803123 0.051698945
-0.00015887036 -0.78245151 0.054018352
0.049911503 -0.77587926 0.044620063
0.063810334 -0.77498627 0.03873105
-0.0670259 -0.77414703 0.040522199
0.077281654 -0.77008224 0.044753142
-0.065575264 -0.74747467 0.045433082
-0.031796981 -0.75139797 0.052367356
-0.00015887036 -0.73826194 0.055371013
0.032167338 -0.75066042 0.041690499
0.05010676 -0.7503264 0.045512099
0.064617887 -0.74631906 0.039230209
-0.066287108 -0.72044241 0.045494802
-0.033120316 -0.72244322 0.053171311
0.050298426 -0.724684 0.046722528
0.078574434 -0.73591256 0.045190144
-0.068930633 -0.71680105 0.041699376
0.031969268 -0.7057699 0.044176742
0.0504779 -0.69915593 0.048796121
0.06575495 -0.71757698 0.03993294
0.081315145 -0.70285451 0.045600999
-0.10172547 -0.69583416 0.039657801
-0.068037465 -0.69124794 0.047053717
-0.035355013 -0.69327426 0.054528803
0.067404434 -0.68872118 0.040952265
-0.10207734 -0.67017269 0.042083938
0.050658781 -0.67343926 0.050868027
0.083959177 -0.66901588 0.04602275
-0.10244606 -0.64416194 0.0440781
-0.069469891 -0.6556499 0.048429597
0.029171642 -0.65409803 0.049141418
0.050840952 -0.64754438 0.052971166
0.069070429 -0.65989089 0.04198204
-0.095650129 -0.62546659 0.039998662
-0.073827848 -0.63041306 0.044726007
0.070734516 -0.63109124 0.043010466
0.081804581 -0.63752222 0.049626548
-0.10281816 -0.61795604 0.046070691
-0.075477831 -0.61977816 0.046738736
0.025977725 -0.61664104 0.052599184
0.051025089 -0.62144399 0.055039812
0.084520295 -0.61010611 0.047944978
-0.10319458 -0.59153879 0.048027329
-0.075432613 -0.60168266 0.045717806
0.072360516 -0.6023308 0.0440153
0.089116082 -0.59909582 0.046896696
-0.086822413 -0.58269 0.04575824
-0.077017605 -0.57298577 0.046697587
0.031366415 -0.57235074 0.053784784
0.08096917 -0.57712793 0.045353971
-0.10357325 -0.56493402 0.0500152
-0.081815057 -0.54951656 0.047607742
0.091582075 -0.55717814 0.045397662
-0.10395505 -0.53812599 0.052001048
-0.086522274 -0.5405764 0.047623158
0.075588919 -0.5449031 0.046010695
-0.10435108 -0.51097614 0.053664122
-0.082333595 -0.51420736 0.048337981
0.077100329 -0.51625443 0.046944976
0.094599046 -0.52412963 0.044510428
-0.093858421 -0.49430138 0.050143834
0.09729664 -0.49287644 0.039635219
-0.10476064 -0.48347947 0.055018805
-0.083991617 -0.48078185 0.048928112
0.078246944 -0.48770586 0.047653437
0.096310571 -0.48793083 0.048294351
-0.082361735 -0.45867428 0.050000258
0.062217899 -0.46402383 0.038275484
0.079392545 -0.45917815 0.048361223
0.099719405 -0.46386439 0.03805944
-0.091143116 -0.44388881 0.050740976
0.098333493 -0.44875968 0.048790984
-0.083468132 -0.43019837 0.050684057
0.061835863 -0.42184803 0.041380309
0.079986684 -0.42456988 0.043026589
-0.088594094 -0.40646401 0.052989926
0.081517592 -0.40221354 0.049674731
0.10013627 -0.4084177 0.04930469
-0.090241879 -0.39396346 0.049576625
0.061481126 -0.38110241 0.043286502
0.079767138 -0.38986537 0.03781205
-0.084900223 -0.37343395 0.051569127
0.081049457 -0.36736223 0.044140987
0.10097921 -0.365796 0.049856089
-0.088019542 -0.34779215 0.051007096
0.061138071 -0.34113032 0.044772744
0.082461424 -0.34550759 0.050258037
0.080454484 -0.33162197 0.03882385
0.10184108 -0.32222623 0.050419793
-0.08846879 -0.31140459 0.051441994
0.082951143 -0.3171649 0.050560758
-0.086204007 -0.28849906 0.052374825
0.060798839 -0.30160028 0.046242807
0.082058109 -0.29548562 0.045060575
0.081192151 -0.27162281 0.038354348
0.10193214 -0.27650115 0.051017817
-0.087636381 -0.25875518 0.051807962
0.060486402 -0.26340923 0.046496935
0.083096184 -0.26061171 0.050650239
-0.085769452 -0.23206846 0.052106317
0.082227722 -0.23650613 0.043747492
0.10129659 -0.22859351 0.051650442
0.060182784 -0.22582562 0.04645469
-0.086366691 -0.20530964 0.052012492
0.082642861 -0.20412874 0.050370045
-0.085316695 -0.17562398 0.051826514
0.059881806 -0.18860231 0.046432674
0.082406931 -0.17588203 0.050224502
0.10050146 -0.17928086 0.052302673
-0.083371066 -0.15245461 0.052795205
0.059601333 -0.15241675 0.045479745
-0.084447123 -0.14745381 0.051289104
0.081535794 -0.14768854 0.049686022
-0.11058073 -0.12583619 0.053860616
-0.083577111 -0.11926794 0.050751466
0.059330352 -0.11682709 0.044168651
0.080682404 -0.11947783 0.049158495
0.098167777 -0.12635177 0.053014729
-0.089072257 -0.10880426 0.055524364
-0.11116241 -0.093166322 0.051849041
-0.080429532 -0.09279713 0.051910397
0.059062008 -0.081558503 0.042869583
0.079810366 -0.091253027 0.048619621
0.10115666 -0.09296295 0.037124712
-0.11175178 -0.06011986 0.049762081
-0.085267805 -0.068166047 0.052090924
0.078955963 -0.063011326 0.048091646
0.097367331 -0.067965679 0.046026889
0.058803834 -0.046895027 0.041160557
-0.11238081 -0.026185624 0.046724774
-0.084409505 -0.036733143 0.050918836
-0.06923493 -0.029272925 0.054522935
0.077591956 -0.03478184 0.047248539
0.096603796 -0.036194608 0.040085733
-0.083528534 -0.0055182949 0.049622487
0.058557682 -0.012892038 0.038931701
0.083330929 -0.0090296529 0.050481424
0.093701191 -0.0077764764 0.041973501
-0.11306973 0.0090043098 0.042167973
-0.082657591 0.025555782 0.048329428
0.056365792 0.03531877 0.053151257
0.082790039 0.021221586 0.044701573
-0.07641644 0.050125331 0.046326056
-0.05135544 0.052275717 0.055735778
0.073400736 0.050052084 0.044658262
0.086506143 0.049893543 0.050604474
-0.087145902 0.06274613 0.047561873
0.028772207 0.06732361 0.054599863
0.05669491 0.070455894 0.049743317
-0.074721791 0.078424066 0.045278531
0.019566789 0.07726796 0.055006668
0.071666546 0.07837452 0.043586358
0.084244482 0.077783912 0.048124284
-0.086788863 0.095741138 0.045343354
-0.072988391 0.10675313 0.044207189
0.027317718 0.10316212 0.051739473
0.063463815 0.10647522 0.044216737
0.076023929 0.10637327 0.053470995
-0.086434685 0.12846664 0.043143146
-0.0712533 0.13511357 0.043134723
-0.036768567 0.13511357 0.055387583
0.028537232 0.13280313 0.050040253
0.06275712 0.13876012 0.041760098
-0.08629889 0.16450316 0.048160177
-0.069497876 0.16350558 0.042049896
-0.034368608 0.16368754 0.053929485
0.028421177 0.16512832 0.047760729
0.066359937 0.16353111 0.040306833
-0.057204708 0.16902755 0.054069806
-0.086392529 0.19895956 0.044918794
-0.067612126 0.19193174 0.040884633
-0.056972712 0.20111373 0.051953074
-0.031778328 0.19230819 0.052356232
-0.00015887036 0.20325747 0.055482347
0.028307594 0.19710344 0.04535133
0.064415887 0.19198383 0.039105278
-0.065706156 0.22039258 0.039706334
-0.02918401 0.22097561 0.050780114
0.062488005 0.22047132 0.037913837
-0.08758001 0.24252349 0.047116529
-0.0567424 0.23295084 0.049871843
-0.028403956 0.23605505 0.055071831
-0.0001589827 0.23509419 0.053462345
0.028194742 0.22882545 0.042961147
-0.063815914 0.24888733 0.03853815
-0.026566658 0.24969059 0.049190234
0.028083069 0.26029709 0.040589608
0.040526949 0.25434464 0.055344079
-0.08812394 0.28046402 0.042880032
-0.061960168 0.27741474 0.037391424
-0.056513719 0.26453084 0.047807351
-0.026154472 0.27304742 0.050380159
-0.00015892659 0.26661903 0.05136741
0.02906004 0.27300832 0.053966109
-0.056285374 0.29590917 0.045850601
-0.028174149 0.29902139 0.05125124
-0.00015881425 0.2979432 0.049380325
0.027971059 0.2915847 0.0383466
0.036454476 0.30007893 0.054778077
-0.088671856 0.31881359 0.038686786
-0.021544067 0.3072505 0.046139333
0.029230414 0.31036913 0.051037334
0.036804102 0.30640867 0.055601716
-0.056058768 0.32703415 0.043909691
-0.028060229 0.33014235 0.049400322
-0.01902693 0.3360987 0.044610288
-0.00015892659 0.32900494 0.047391217
0.034981493 0.33507276 0.054494705
0.03061356 0.34604284 0.051157981
-0.05583385 0.35791925 0.0420026
-0.027947152 0.36103141 0.047600407
-0.016618542 0.36498436 0.043147419
-0.00015887036 0.35983801 0.045454018
0.033212811 0.36376584 0.053420439
-0.059439521 0.37922108 0.055255968
-0.055604663 0.3887434 0.040453106
-0.027832165 0.39183769 0.046120685
-0.014093764 0.3939229 0.041613765
-0.00015875802 0.39063072 0.043909919
0.029700715 0.38882098 0.050479576
-0.05977701 0.41725284 0.05298768
-0.055376876 0.41932455 0.038934287
-0.027717851 0.42239958 0.044670843
-0.011300365 0.4229311 0.039916761
-0.00015875802 0.42116123 0.04236076
0.030001495 0.42319584 0.046772748
-0.055148475 0.44974026 0.037588928
0.028903399 0.44993731 0.050802752
-0.060115457 0.45560691 0.0508487
-0.027602753 0.45282283 0.043446936
-0.0088426592 0.4519563 0.038424004
-0.00015881425 0.45154616 0.041020684
0.029928539 0.46398738 0.039364465
-0.02748535 0.4831948 0.042623654
-0.0072524971 0.48093209 0.037458044
-0.00015881425 0.4819192 0.040153928
0.028062705 0.47864857 0.050292078
-0.060443733 0.493848 0.049428184
-0.00015870191 0.48997113 0.054656595
0.028650913 0.50508559 0.043566696
-0.027368734 0.51330769 0.041807454
-0.00015887036 0.51202512 0.039276831
-0.060765944 0.53214002 0.048483234
-0.027246781 0.54354143 0.04175555
-0.00015889853 0.53518343 0.046511259
0.026810147 0.53606236 0.049530927
-0.061075743 0.57020831 0.048358079
-0.027125051 0.57354784 0.041791499
-0.00015887036 0.56915224 0.04655423
0.026810147 0.56470156 0.049530927
0.027109215 0.5932976 0.049712986
-0.061368801 0.60786521 0.049263932
-0.026998268 0.6036365 0.042559955
-0.00015887036 0.60307372 0.047311001
0.030556899 0.61675406 0.037832722
-0.053679593 0.63085866 0.037810702
-0.026870642 0.63355756 0.043563999
-0.00766908 0.62495935 0.03771105
-0.00015881425 0.63240087 0.041098315
0.028062705 0.62178814 0.050292078
-0.061648544 0.64524066 0.05099554
-0.010204306 0.65336275 0.039251104
0.030020904 0.65193963 0.045697838
-0.053412881 0.66091323 0.039596461
-0.026738858 0.66348875 0.045197189
-0.00015887036 0.66244054 0.042917665
-0.061922166 0.68260622 0.053183053
-0.053157181 0.69044459 0.040864971
-0.026612638 0.69288623 0.046282127
-0.012905356 0.68169224 0.040891711
-0.00015887036 0.69189513 0.044083044
0.030863393 0.68479168 0.047352739
-0.0099207414 0.7109971 0.039078765
0.030341219 0.70726144 0.051675972
-0.087395325 0.72505772 0.051980935
-0.019899979 0.71747208 0.05545561
0.068978749 0.73138428 0.041925304
0.12420981 0.72628987 0.048046425
0.15530196 0.72628987 0.048046425
0.1863941 0.72628999 0.048046201
0.21756975 0.72727621 0.046836
0.052323427 0.74898207 0.044098772
0.16609468 0.73419333 0.037297837
0.2142352 0.7399199 0.04444132
0.23698707 0.74195325 0.048158843
-0.21854033 0.76153326 0.053763773
-0.18753386 0.76419342 0.05054896
-0.15967178 0.76732624 0.040774927
-0.12541151 0.77121258 0.042066187
-0.081544973 0.7573396 0.049495369
-0.064034097 0.75527036 0.048596062
0.062351644 0.76637256 0.047915541
0.093475796 0.76272058 0.052328989
0.24096708 0.76131213 0.052201472
-0.23578246 0.77441561 0.037645776
-0.20851773 0.78136778 0.054052167
-0.18299228 0.77756298 0.045073383
-0.13505995 0.78797603 0.055365283
-0.10489579 0.77422071 0.037185829
-0.081544973 0.7856226 0.049495369
0.052065816 0.77790785 0.045887228
0.078272812 0.77629006 0.042069223
0.098129921 0.78385174 0.042446259
0.24096708 0.7885381 0.052201472
-0.25134557 0.80504656 0.049962621
-0.23396969 0.80684495 0.048365943
-0.22671951 0.79174733 0.042728249
-0.19328375 0.79592502 0.053818036
-0.18185757 0.80795538 0.051042389
-0.15631776 0.80444968 0.042592984
-0.13035174 0.80383909 0.04112146
-0.10411476 0.80634141 0.047152255
-0.067959562 0.80135357 0.047960736
0.051733494 0.80849969 0.05235393
0.077753544 0.80725718 0.049359653
0.23795967 0.79153275 0.046710707
-0.22725528 0.81898415 0.04307675
-0.19584899 0.82100928 0.050001364
-0.11520036 0.80980599 0.037247732
-0.081980765 0.81381094 0.049764834
0.092534468 0.81219161 0.045728255
0.24096708 0.81576419 0.052201472
-0.23343936 0.83186507 0.041900028
-0.20691065 0.83563757 0.051187877
-0.18041091 0.83662188 0.046691425
-0.15769488 0.83426869 0.049353562
-0.10388557 0.83129025 0.040484678
-0.081544973 0.8421886 0.049495369
-0.065284073 0.83777308 0.047505394
0.051622212 0.83332753 0.045500752
0.069481954 0.84367239 0.04739153
0.077586822 0.83210468 0.042489626
0.10308818 0.8398881 0.045729041
0.12922515 0.82919896 0.049192008
0.23951769 0.83812225 0.049182437
-0.2056797 0.85459077 0.049475737
-0.16135661 0.85293174 0.040211223
0.051397294 0.86083567 0.045686577
0.063000336 0.8472178 0.04834662
0.14082173 0.8536731 0.048965402
0.23016573 0.86379981 0.049041077
-0.081544973 0.8704716 0.049495369
-0.065897934 0.87768531 0.046977699
0.064018063 0.87567639 0.047016684
0.12894551 0.88272047 0.046398886
0.16042058 0.87442088 0.04757008
0.19136323 0.87433028 0.047586903
0.21596675 0.88280702 0.045693405
0.23753729 0.87031877 0.048531163
-0.077647537 0.89096081 0.047963098
-0.076957814 0.8913039 0.054095197
-0.046181403 0.89088333 0.047338109
-0.015495632 0.89088309 0.047335468
0.015187667 0.89088309 0.047335524
0.047658287 0.88944519 0.045542434
0.13037132 0.89033997 0.046985645
-0.046740569 -0.98879492 0.068582416
-0.015698532 -0.99463761 0.064249188
0.0067115379 -0.98900056 0.068865545
0.023888363 -0.98178625 0.068237901
0.042543244 -0.99470401 0.063540861
0.063053451 -0.98589027 0.063464917
-0.072368652 -0.98096955 0.065275311
-0.051051259 -0.97249758 0.063877657
-0.032435279 -0.97797537 0.060018547
0.0047660642 -0.97497356 0.064506687
0.050156068 -0.97585618 0.06121916
0.079267897 -0.97241068 0.063532889
-0.096762314 -0.95751381 0.067409456
-0.066071711 -0.94675601 0.066614151
-0.051682428 -0.94477201 0.064446747
-0.0075922348 -0.95470166 0.071219593
0.03284378 -0.95103419 0.062230255
0.048066817 -0.95891428 0.072352506
-0.097478189 -0.93022752 0.056941401
-0.072751589 -0.93521094 0.074062988
-0.033065464 -0.94211745 0.071366772
0.0024248757 -0.93679047 0.066885583
0.050799649 -0.93456662 0.067276083
0.059923682 -0.94184279 0.069645502
0.075546116 -0.93653369 0.064282976
-0.069580257 -0.90979183 0.06118891
-0.043965526 -0.91892564 0.059759237
-0.032979853 -0.90623832 0.062268343
-0.00015887036 -0.90750241 0.060953654
0.024172939 -0.90945649 0.069481701
0.052929513 -0.91583264 0.065397315
0.033552211 -0.89456809 0.070447296
0.046735477 -0.88943696 0.061634421
0.072286591 -0.90077233 0.055901963
-0.073655926 -0.88217354 0.060802661
-0.049005333 -0.88515913 0.070537314
-0.024554998 -0.8862288 0.074024901
-0.00015887036 -0.88571358 0.072344974
0.024304554 -0.88357902 0.06538552
0.052460745 -0.87789214 0.065715149
-0.074003026 -0.85668027 0.058892082
-0.049230028 -0.85986352 0.069010288
-0.028757343 -0.86367965 0.06514167
-0.0001588423 -0.86425078 0.063435346
0.024417518 -0.85822451 0.063800752
0.045109026 -0.86148989 0.060646776
-0.074353322 -0.83094501 0.056963194
-0.049456913 -0.83433414 0.067469448
-0.024778176 -0.83555269 0.071246557
0.0058161309 -0.83681417 0.071756251
0.024533574 -0.83255231 0.061946016
0.044956908 -0.83550799 0.063119955
-0.048665229 -0.82333624 0.071646966
0.026665557 -0.82591522 0.069604129
-0.074668348 -0.80550659 0.056655701
-0.04872055 -0.80147922 0.069577195
-0.024884401 -0.81016004 0.070729986
0.0052051307 -0.80998182 0.071161374
0.024639236 -0.80711353 0.06151595
0.044132616 -0.80365741 0.063282564
-0.074961349 -0.78020084 0.057377756
-0.049864002 -0.78369057 0.067679875
-0.028747177 -0.7827996 0.063705653
0.0056658103 -0.78291678 0.071780436
0.024736471 -0.78186429 0.062287997
0.043666266 -0.77648258 0.059770357
-0.047413614 -0.76121521 0.071157522
-0.025080165 -0.75955296 0.072107479
-0.00015887036 -0.75900161 0.070518434
0.024834326 -0.75641644 0.063066341
0.046542577 -0.7685349 0.067935325
-0.075256765 -0.7546953 0.058105428
-0.032325994 -0.73656416 0.057244401
0.012411401 -0.75251889 0.074285664
0.04449898 -0.74776268 0.060276031
-0.075552069 -0.72902215 0.058936462
-0.050258905 -0.73262799 0.069088593
-0.025179256 -0.73395061 0.072812453
-0.00015881425 -0.73338985 0.071233638
0.02926475 -0.73055327 0.066097789
0.046682842 -0.72671974 0.064758725
-0.075831421 -0.70342481 0.060540102
-0.050447084 -0.70705616 0.070530348
-0.025273908 -0.70837307 0.074153319
-0.00015881425 -0.70780313 0.072585285
0.025025092 -0.70524621 0.065551236
0.050774638 -0.70179403 0.069195069
-0.050635941 -0.6813035 0.072015241
-0.032131407 -0.69210804 0.059479322
-0.00015881425 -0.68786144 0.065867096
0.04721576 -0.6900934 0.061926242
-0.07611268 -0.67763698 0.062155772
-0.037586454 -0.66414642 0.055884439
0.02511997 -0.67944586 0.067019947
0.051337384 -0.66490126 0.066367418
0.069060206 -0.67140484 0.058000386
-0.07639619 -0.65165675 0.063783228
-0.050826427 -0.65535688 0.073511481
-0.031936824 -0.64796984 0.06193332
-0.00015875802 -0.64948654 0.060208678
0.025215352 -0.65345061 0.068499669
-0.07668183 -0.62548184 0.065423153
-0.039814521 -0.6350596 0.057237659
0.025311746 -0.62725794 0.069990516
0.050480682 -0.63238859 0.06390956
0.056884244 -0.63473821 0.070438191
-0.0634593 -0.60993838 0.057924662
-0.041872948 -0.60605264 0.058488082
-0.00015887036 -0.60590267 0.062583804
0.047672566 -0.62304997 0.066777028
-0.076970339 -0.59909689 0.067042306
-0.031744711 -0.60440099 0.064317323
0.014342648 -0.58678591 0.058125146
0.025408981 -0.60085297 0.071459793
0.051647082 -0.59936428 0.060986601
0.059997495 -0.60027885 0.071077451
-0.077260695 -0.57251918 0.068690211
-0.043669377 -0.57714176 0.059579425
0.025506949 -0.57424557 0.07294064
0.052540947 -0.57173419 0.062513649
-0.063074507 -0.56659913 0.060526174
-0.045463786 -0.54826367 0.060669471
-0.031555403 -0.56137276 0.066652119
0.0045549213 -0.55983007 0.063042127
0.063186243 -0.56522059 0.07172738
-0.077553138 -0.54573965 0.070350818
0.025605645 -0.54743314 0.0744325
0.051589295 -0.54190916 0.061119143
0.060858354 -0.53781211 0.069601923
-0.07785131 -0.51869965 0.071890533
-0.062694103 -0.52378362 0.063096337
-0.047219325 -0.51942593 0.061735813
-0.031368684 -0.51890844 0.068898395
0.0029852632 -0.52384293 0.065108195
0.031170819 -0.52901745 0.056867477
0.051789612 -0.51476038 0.062594257
0.057005297 -0.52282757 0.066599898
0.0037361779 -0.49806622 0.064456575
0.0686175 -0.49165291 0.073106721
-0.078161106 -0.49128413 0.07305748
-0.06233291 -0.48207968 0.064913772
-0.048474692 -0.49071893 0.062498372
-0.031190615 -0.47745797 0.07049945
-0.00015887036 -0.4788478 0.068819746
0.030984771 -0.48681805 0.059187558
0.051997285 -0.48725456 0.063744016
0.057925701 -0.4887833 0.068432093
-0.10517352 -0.45576555 0.056383934
-0.078473546 -0.46364897 0.074233644
-0.049729273 -0.46203473 0.063260421
0.0015170969 -0.4688676 0.065781489
0.052206192 -0.45953581 0.064920403
0.059062544 -0.46020934 0.069122523
-0.061975587 -0.44085538 0.066710204
-0.03101423 -0.43647844 0.072081864
-0.00042891048 -0.4387739 0.068758406
0.030802205 -0.44521445 0.06136024
0.067348652 -0.44757003 0.069057897
-0.10559044 -0.42782447 0.057742771
-0.051000927 -0.43337005 0.064032808
0.052416731 -0.43159392 0.066106007
0.060198374 -0.43165603 0.069812782
-0.10602528 -0.39945611 0.058667839
-0.061627086 -0.40029231 0.068248577
-0.052142825 -0.40475044 0.064726494
-0.0077194679 -0.40574008 0.066290013
-0.00015892659 -0.39751452 0.071710892
0.03062582 -0.40443063 0.063090384
0.052633505 -0.40330881 0.067045785
0.067052841 -0.40824297 0.072508626
-0.030842956 -0.39619917 0.073350482
-0.0038753417 -0.38171446 0.069000624
-0.10648242 -0.37059492 0.059050832
-0.092253089 -0.37122676 0.055789281
-0.061296504 -0.360744 0.069060624
-0.0526767 -0.37625 0.065050729
0.030460503 -0.36484209 0.063872427
0.052860502 -0.37454942 0.067481019
0.064828426 -0.3691116 0.066963367
-0.10694371 -0.34148329 0.059437193
-0.053228773 -0.34775642 0.065386198
-0.030679379 -0.35682991 0.074016251
-0.0047817584 -0.35286364 0.069541693
-0.00015875802 -0.35813326 0.072366096
0.053089354 -0.34554964 0.067937039
0.062156811 -0.34634078 0.07100226
-0.091751963 -0.33171201 0.056884665
-0.0057064877 -0.32402647 0.070093818
0.03029687 -0.32566145 0.064665712
-0.10740822 -0.31212655 0.059844114
-0.060969632 -0.32163426 0.069844805
-0.053762197 -0.31927538 0.06571009
-0.00015881425 -0.31915441 0.073034003
0.053320058 -0.31629854 0.068397097
0.062650464 -0.31794876 0.071302056
-0.091258876 -0.29270005 0.057870287
-0.054240346 -0.29081148 0.066000506
-0.031965051 -0.29601055 0.062623776
-0.0066308803 -0.29520595 0.070645392
0.030136775 -0.28706223 0.065235652
0.053558066 -0.28663802 0.068549551
0.066734001 -0.2898955 0.066878907
-0.10789597 -0.28223625 0.059697837
-0.060652196 -0.28317904 0.070308574
-0.0063104662 -0.2665582 0.070454232
-0.00015887036 -0.28084022 0.073364191
-0.10840844 -0.25177157 0.058955561
-0.090802185 -0.25491512 0.057771083
-0.053982846 -0.26244897 0.065844066
0.029985555 -0.24942289 0.065060727
0.053808153 -0.25642133 0.068129711
0.062796734 -0.26129752 0.071390927
-0.060350429 -0.24560489 0.070128255
-0.053743884 -0.23407961 0.065698966
-0.0059142178 -0.23791352 0.070217572
-0.00015881425 -0.24332885 0.073149271
0.062577434 -0.23300813 0.07125774
-0.10892659 -0.22100642 0.058188453
-0.090349928 -0.21750744 0.057672556
-0.034045048 -0.22611558 0.061691634
-0.0055179694 -0.20926178 0.069980972
0.029836189 -0.21217161 0.064868383
0.054060876 -0.22591297 0.067688301
0.070525996 -0.22348216 0.061359312
-0.1094503 -0.18993621 0.05739652
-0.060051754 -0.20840372 0.069949739
-0.05350481 -0.20570599 0.065553814
-0.030061245 -0.20499028 0.074552938
-0.00015887036 -0.20617475 0.072955698
0.054316074 -0.19511755 0.067242734
0.06235791 -0.2047148 0.071124323
-0.089902058 -0.18047118 0.057575263
-0.059758417 -0.17166811 0.069638535
-0.053265397 -0.17732805 0.065408498
-0.0051403707 -0.18060103 0.069755882
0.029688455 -0.17531613 0.064639427
0.062138386 -0.1764175 0.070991136
-0.11000596 -0.15815589 0.055833209
-0.032158837 -0.16481572 0.067481346
-0.00015892659 -0.16954093 0.072553493
0.054580651 -0.16381347 0.066387318
0.069767259 -0.16010399 0.060535412
-0.089484461 -0.14445034 0.056574024
-0.059481367 -0.13579836 0.06862314
-0.052308425 -0.14901048 0.064827099
-0.0036486252 -0.15203342 0.068865083
-0.00015892659 -0.1336868 0.071563713
0.029549647 -0.13938618 0.063626841
0.061260164 -0.1481756 0.070457488
-0.051351003 -0.12067568 0.064245425
-0.029777512 -0.13256389 0.073127367
-0.0019662266 -0.12345447 0.067860976
0.057627462 -0.12594381 0.067516327
-0.082840249 -0.10519736 0.073488556
-0.059206847 -0.10026038 0.067617297
-0.030751184 -0.10012724 0.066129357
-0.00015887036 -0.098178357 0.070564277
0.029412135 -0.10378875 0.062623128
0.061398141 -0.100267 0.061678447
-0.050374255 -0.092325017 0.063652173
-0.00028214278 -0.094845451 0.066855639
0.059520695 -0.09164311 0.069400921
-0.083260208 -0.072785594 0.072136573
-0.058934633 -0.065036617 0.066639543
-0.049397059 -0.063956812 0.063058585
-0.029504228 -0.061880115 0.071180947
0.00061277219 -0.064594604 0.067726664
0.029275859 -0.068519272 0.061629198
0.057042498 -0.065127462 0.065310448
-0.083698079 -0.03975334 0.070268579
-0.028271977 -0.048473164 0.059411716
0.065003462 -0.04409612 0.059054509
-0.058676064 -0.030549077 0.065067239
-0.047921043 -0.035597958 0.06216206
-0.029375084 -0.027443353 0.069609553
0.0018456137 -0.033044927 0.066217735
0.029145649 -0.033922635 0.060133182
0.056536458 -0.034166094 0.063538536
-0.084146343 -0.0062443428 0.068164431
-0.046406604 -0.007214237 0.061241936
0.0065475535 -0.0089169405 0.062778339
0.055962212 -0.0067696087 0.067239359
-0.058420755 0.003598392 0.063452028
-0.026022069 0.0041882694 0.063425496
-0.00015887036 0.005632326 0.066476412
0.029018696 0.0002294369 0.058442581
0.05877405 0.0052898079 0.057230681
-0.0845991 0.027626134 0.06603758
-0.044872165 0.021196045 0.060309906
0.009249839 0.019792274 0.061165541
0.028409831 0.028747752 0.064795867
0.054566074 0.021556735 0.066391312
-0.050761223 0.043541849 0.060619563
-0.029120225 0.040541731 0.066526406
-0.010935237 0.039948538 0.058394078
0.0066143852 0.044001356 0.061816763
0.053187013 0.049908683 0.065553479
-0.08506152 0.061963856 0.063723229
-0.057921484 0.070849627 0.060021061
-0.028996868 0.073915914 0.064735256
0.0018267956 0.072783962 0.060618874
0.02807717 0.05758024 0.07093963
0.057785157 0.061875328 0.057725165
-0.049152017 0.083404586 0.066254832
0.028235355 0.092406794 0.068296999
0.05147529 0.07827948 0.064513817
-0.085540175 0.096929669 0.06097893
-0.057680275 0.10386047 0.058039255
-0.034011133 0.10675329 0.059830718
-0.00015875802 0.10592754 0.061271597
0.049743123 0.10668091 0.063461691
-0.057150502 0.12359279 0.072039396
0.028395113 0.12761414 0.065643355
0.053555623 0.11187677 0.05710439
0.078177176 0.11710508 0.056364924
-0.086023331 0.13227992 0.058222156
-0.057440978 0.13659674 0.056074079
-0.028755546 0.13965596 0.060939834
-0.00015887036 0.13867977 0.059387311
0.047990955 0.13511357 0.062397201
0.067946166 0.13511357 0.05872491
-0.0574653 0.15884362 0.06980335
-0.00015892659 0.15648568 0.073490247
0.028557174 0.16324414 0.062922306
0.047774602 0.16211915 0.058915917
-0.028636908 0.1720925 0.059028924
-0.00015870191 0.17113642 0.057482015
0.070559025 0.18657437 0.057336502
-0.050860677 0.19387379 0.070870817
-0.028720634 0.19759071 0.064989999
0.0060978974 0.19222084 0.072761506
