ply
format ascii 1.0
comment PCL generated
element vertex 330
property float x
property float y
property float z
element camera 1
property float view_px
property float view_py
property float view_pz
property float x_axisx
property float x_axisy
property float x_axisz
property float y_axisx
property float y_axisy
property float y_axisz
property float z_axisx
property float z_axisy
property float z_axisz
property float focal
property float scalex
property float scaley
property float centerx
property float centery
property int viewportx
property int viewporty
property float k1
property float k2
end_header
-0.6001513 -0.17176522 -0.073786259
-0.47089446 -0.17177971 -0.073472977
-0.41893792 -0.17170143 -0.075166702
-0.35420799 -0.17166263 -0.076004505
-0.28943378 -0.17158504 -0.077687263
-0.21173209 -0.17146149 -0.080362797
-0.13426387 -0.17143151 -0.081011772
-0.056796364 -0.1713541 -0.082686424
0.0076466911 -0.17152932 -0.0788908
0.072227761 -0.17169178 -0.075376034
0.12397712 -0.17180523 -0.072919369
-0.75477254 -0.09412951 -0.076068878
-0.71471596 -0.10691033 -0.08181572
-0.64808828 -0.11952682 -0.092120647
-0.5698387 -0.11934957 -0.097854614
-0.49298877 -0.1193833 -0.096804619
-0.41911393 -0.12258146 -0.096977234
-0.3567456 -0.11559889 -0.10071135
-0.28703526 -0.11923247 -0.10165548
-0.20991373 -0.1191596 -0.10398102
-0.1329841 -0.11913354 -0.10478449
-0.056100704 -0.1191165 -0.10523224
0.0079099759 -0.11922862 -0.10173655
0.0720594 -0.11936026 -0.097440243
0.14916372 -0.11942897 -0.095243931
0.22648326 -0.11955998 -0.091039181
0.30055067 -0.11239877 -0.083663464
0.35627455 -0.09407416 -0.078460217
-0.7796998 -0.042423658 -0.079854488
-0.71483213 -0.047459379 -0.092627525
-0.64404643 -0.045378603 -0.11156416
-0.57012379 -0.049438626 -0.11607409
-0.48976529 -0.042143136 -0.11676359
-0.42572895 -0.042135559 -0.11820316
-0.36190304 -0.045319438 -0.11843252
-0.2852076 -0.042118512 -0.11990309
-0.20860323 -0.049392045 -0.1210084
-0.13209459 -0.054849856 -0.12126446
-0.058754973 -0.045285139 -0.12240362
0.0081174336 -0.042118151 -0.1196456
0.075120032 -0.045349114 -0.11437845
0.14861712 -0.042171322 -0.11287832
0.22554514 -0.042205676 -0.10848045
0.29996121 -0.045502856 -0.097661018
0.38200206 -0.042408049 -0.079684258
-0.77993494 0.022137498 -0.078895569
-0.70901507 0.014244542 -0.095627785
-0.64374226 0.016267432 -0.11301565
-0.56327319 0.012135413 -0.11611605
-0.48984694 0.021707455 -0.11628103
-0.42561543 0.021675652 -0.11900139
-0.36178249 0.016205436 -0.11939192
-0.28524178 0.021668607 -0.11957169
-0.20854169 0.012086978 -0.12180901
-0.13200083 0.0088901948 -0.12302017
-0.051899649 0.016162993 -0.12362528
0.0081220269 0.021662893 -0.11998653
0.068280607 0.016253287 -0.11481285
0.14862633 0.021747818 -0.11257172
0.22561225 0.021811785 -0.10721827
0.30699083 0.016437976 -0.095651627
0.37316036 0.013510382 -0.082134247
-0.7547242 0.060926557 -0.076272011
-0.71145076 0.081376098 -0.084826946
-0.64627796 0.086053275 -0.10084915
-0.56862891 0.085938372 -0.10436964
-0.49198884 0.085981682 -0.10302114
-0.41821799 0.089177497 -0.10337639
-0.35625681 0.08227516 -0.10473824
-0.28659555 0.085894927 -0.10606766
-0.20961955 0.085841618 -0.10779238
-0.13277048 0.085811079 -0.10879612
-0.055959545 0.085783258 -0.10974979
0.0079457834 0.08593481 -0.10482454
0.072053596 0.086131945 -0.098357201
0.14908692 0.086151421 -0.097605228
0.22645262 0.086331666 -0.091725826
0.30068389 0.079246663 -0.081930161
0.35653275 0.0609404 -0.075664043
-0.65062624 0.13828263 -0.079944134
-0.57802325 0.14855181 -0.081564903
-0.49502206 0.13808477 -0.084225178
-0.41738513 0.13798782 -0.08632946
-0.35309303 0.13803436 -0.085317135
-0.28860226 0.13800283 -0.085999966
-0.204923 0.14452207 -0.084842205
-0.13418061 0.15108521 -0.082619667
-0.056779295 0.15106308 -0.083059788
0.0077176578 0.13805901 -0.084784985
0.072201662 0.13832724 -0.078973293
0.14967725 0.13835557 -0.078361511
0.21439585 0.13849221 -0.075406075
-0.62707597 -0.25428641 -0.0025110245
-0.56049693 -0.25407362 -0.0055823326
-0.4944604 -0.25403827 -0.0060920715
-0.42818594 -0.25387782 -0.0084066391
-0.3489143 -0.2537697 -0.0099692345
-0.28297034 -0.25372711 -0.010581493
-0.21701509 -0.25364256 -0.011805058
-0.13785127 -0.25345233 -0.014548779
-0.058788627 -0.25321549 -0.017967701
0.0069100522 -0.25343338 -0.014821053
0.072725073 -0.25376689 -0.010007858
0.15182635 -0.25385532 -0.008731842
0.21806777 -0.25432229 -0.0019922256
-0.7801351 -0.18719144 -0.024827957
-0.70878536 -0.19649649 -0.0359478
-0.63852841 -0.20282161 -0.048370361
-0.5705449 -0.19878675 -0.053795338
-0.50367934 -0.20221308 -0.050706387
-0.42282829 -0.21213993 -0.047077656
-0.34449166 -0.212069 -0.048266411
-0.27918103 -0.21197203 -0.049987316
-0.21388224 -0.21182957 -0.052436352
-0.13572368 -0.21174055 -0.053961754
-0.057649344 -0.21168126 -0.054997921
0.0073418133 -0.21182753 -0.052463531
0.072431304 -0.21204962 -0.04859972
0.15373057 -0.20213696 -0.051982403
0.22881559 -0.19912119 -0.047818661
0.30797815 -0.19981149 -0.035246372
0.37385541 -0.18691699 -0.030113697
0.434874 -0.18122138 -0.011934757
-0.77951491 -0.12042205 -0.062944889
-0.71801049 -0.14615384 -0.067303658
0.3184008 -0.14613049 -0.067905426
0.37327302 -0.12560414 -0.063015461
0.43794143 -0.12106427 -0.042612553
0.51088518 -0.11302985 -0.01783514
0.40884775 -0.068380818 -0.069893837
0.44903708 -0.055571012 -0.058716774
0.51778239 -0.046066537 -0.031629086
0.57378221 -0.056161858 -0.0076141357
0.40895328 0.035197981 -0.06891489
0.44909844 0.0094000604 -0.05821085
0.51843947 0.017136825 -0.026792526
0.58299541 -0.0078030685 -0.0049910545
-0.77896678 0.08714281 -0.065200329
-0.73092717 0.11295132 -0.067417145
0.31832305 0.1128951 -0.06887579
0.37333927 0.092419103 -0.062329769
0.43814486 0.087908134 -0.040890217
0.51171637 0.079997472 -0.011740208
-0.77673036 0.16174521 -0.027947903
-0.71457052 0.16963772 -0.039371014
-0.64223248 0.17832105 -0.057733536
-0.57045263 0.18469866 -0.059522629
-0.4987843 0.17813213 -0.06095314
-0.42064363 0.17802633 -0.062829971
-0.34816247 0.18071142 -0.061240196
-0.28556025 0.17534027 -0.064350605
-0.21832734 0.18067224 -0.061873436
-0.13564622 0.19142017 -0.055420876
-0.057560034 0.19127558 -0.057765961
0.007440906 0.17812294 -0.06111002
0.072381362 0.17845836 -0.055346012
0.15042146 0.17852899 -0.054116726
0.23229507 0.17310014 -0.051944733
0.307495 0.16625428 -0.041600704
0.37144926 0.1617481 -0.027672291
0.4233847 0.15001206 -0.016376972
-0.6925137 0.22090052 -0.0052185059
-0.62966603 0.22628909 -0.02270937
-0.56373084 0.23593387 -0.016842365
-0.5035584 0.21908969 -0.031358242
-0.41952893 0.22626093 -0.023198128
-0.34798822 0.2332186 -0.017988205
-0.27443188 0.23591253 -0.017038822
-0.21093878 0.23029159 -0.022044182
-0.13762248 0.23315552 -0.01877737
-0.058662407 0.23290339 -0.022264957
0.0069426969 0.23323755 -0.017675877
0.072629213 0.21962383 -0.023644924
0.15137601 0.21965332 -0.023221016
0.23056456 0.22019187 -0.015449524
0.28384978 0.22087674 -0.0055632591
-0.34494209 -0.31345966 0.072525024
-0.27718824 -0.31319284 0.069375038
-0.20961159 -0.31299642 0.067056179
-0.1420463 -0.31267771 0.063290119
-0.061307743 -0.31271642 0.063748837
0.0059845783 -0.31285781 0.065418243
-0.77134007 -0.25788498 0.049432755
-0.71045953 -0.26598674 0.036820412
-0.65304613 -0.27642879 0.028048515
-0.56678534 -0.28319204 0.029913425
-0.5000627 -0.28315246 0.029401302
-0.43310472 -0.28297415 0.027083397
-0.3528147 -0.28272659 0.023867607
-0.27287778 -0.28264058 0.02274847
-0.20615491 -0.28241631 0.019836426
-0.13956782 -0.28222829 0.01739502
-0.059834354 -0.28211412 0.015911102
0.0065130554 -0.28238031 0.019369602
0.073004611 -0.28287944 0.025851727
0.1529007 -0.28289938 0.026112556
0.23951593 -0.27641526 0.027828693
0.2999016 -0.27019075 0.033327579
0.3609255 -0.26428506 0.044465065
0.42319477 -0.25884083 0.063229084
-0.78974718 -0.22894433 0.01482439
-0.74734807 -0.22825857 0.0036869049
0.37742117 -0.22845554 0.0068902969
0.45158044 -0.21922947 0.029480934
0.51331532 -0.19007723 0.03266573
0.56963497 -0.17759161 0.052360058
0.54090703 -0.14024568 0.0082263947
0.59196478 -0.12313006 0.023884773
0.65976453 -0.12056784 0.04995966
0.71901858 -0.097316496 0.061932564
0.89695811 -0.10614085 0.056182861
0.94806486 -0.11983501 0.041041851
0.98985839 -0.12442592 0.068546772
0.60201257 -0.056296356 0.0038909912
0.6582911 -0.043221153 0.022618771
0.71546632 -0.043387339 0.043475151
0.88704425 -0.048720211 0.044860363
0.94889241 -0.043163758 0.014931202
0.59339064 0.027518773 0.0050683022
0.65879345 0.023350755 0.025456429
0.71598196 0.023592787 0.046153545
0.89131856 0.015533479 0.040450573
0.94923961 0.023241559 0.016223431
0.54146457 0.10718668 0.012115002
0.59216326 0.089962214 0.025172234
0.65886378 0.082968079 0.047517776
0.71905315 0.064122632 0.062112331
0.9058671 0.07743635 0.055876732
0.94826168 0.086666204 0.041816235
0.99044663 0.091294967 0.070730686
-0.79937077 0.1948368 6.5326691e-05
0.3906371 0.19525498 0.0068526268
0.45439279 0.17861624 0.023396969
0.51360714 0.15698585 0.034842491
0.56912833 0.14424011 0.049040794
-0.7782777 0.23517656 0.045039177
-0.71849686 0.2413764 0.032789707
-0.65627182 0.24854165 0.011050701
-0.49549282 0.24772647 0.00045967102
-0.44267023 0.24774951 0.00075817108
0.072863482 0.24819556 0.0065507889
0.1522637 0.24812397 0.0056233406
0.2322768 0.24894059 0.016233921
0.3035478 0.24063927 0.02294445
0.36191535 0.23480466 0.040228844
0.42252916 0.22521493 0.057053566
-0.6806047 0.27957755 0.06444788
-0.63429123 0.27701515 0.034187317
-0.56678903 0.27665991 0.029993057
-0.5009039 0.27705893 0.034704685
-0.43384859 0.27686885 0.032460213
-0.35356632 0.27669004 0.030350685
-0.27342671 0.27654603 0.028648853
-0.20676506 0.276503 0.028139591
-0.14005053 0.27634725 0.026301861
-0.060145721 0.2763339 0.026144505
0.0063628778 0.27686864 0.032458305
0.073141173 0.27775228 0.042892456
0.15352163 0.2779983 0.045796871
0.23479673 0.27942231 0.06261301
-0.70804209 -0.31834751 0.13024998
-0.64532262 -0.31495696 0.090206623
-0.57516867 -0.31386489 0.077311993
-0.49422634 -0.31392622 0.078035831
-0.42631876 -0.31371981 0.075597286
-0.38551328 -0.3135215 0.073257446
0.073415488 -0.31401205 0.07904911
0.15441695 -0.31372231 0.075627804
0.2363466 -0.31505099 0.091319561
0.29262915 -0.31757754 0.12115574
-0.78456855 -0.28903377 0.10579967
-0.73740435 -0.28686747 0.077659607
0.38665915 -0.28878045 0.10250902
0.45296994 -0.26055682 0.087992668
0.51087689 -0.24891518 0.11671543
0.50585938 -0.23282747 0.077880859
0.59661186 -0.20002677 0.096082687
0.65876114 -0.17989412 0.10220718
0.7041766 -0.18104942 0.12722969
0.89867121 -0.1815595 0.13827419
0.94123292 -0.19129267 0.11106777
0.69657236 -0.15205687 0.086070538
0.72614485 -0.13903224 0.09896183
0.88207531 -0.13470407 0.10724545
0.8594448 -0.043717377 0.087468624
0.8595742 0.02407865 0.088029861
0.68203384 0.11864181 0.080432415
0.72695029 0.10598098 0.10314751
0.88574928 0.092342883 0.10338783
0.50624418 0.19981091 0.080821514
0.59683746 0.16691403 0.097579002
0.65926355 0.14682533 0.10501051
0.94642681 0.14705487 0.10998154
0.39949608 0.25503325 0.095376492
0.44089064 0.24203014 0.10202551
0.51042509 0.21544412 0.1129055
-0.80459827 0.28535885 0.13272238
-0.73148423 0.28359982 0.1119504
-0.65022916 0.31119815 0.11527777
-0.57813698 0.30922526 0.093922138
-0.4956823 0.30862728 0.087447643
-0.42709079 0.30806175 0.081325531
-0.3597295 0.30827856 0.083673
-0.27867866 0.30846968 0.085742474
-0.21101609 0.30852437 0.086333752
-0.14330176 0.30856621 0.086785316
-0.062078565 0.30875239 0.088802338
0.0056916438 0.30889302 0.090322495
0.073567018 0.30954278 0.09735775
0.15551057 0.31072858 0.11019468
0.22499231 0.31309837 0.13584805
0.30419284 0.28189453 0.091808319
0.34789142 0.28491819 0.12751913
0.89326829 -0.19710168 0.17372036
0.84573036 -0.099291094 0.14743948
0.70887077 0.14902513 0.15263796
0.91008294 0.15057074 0.18609381
0.51760954 0.23287871 0.16766834
0.57297474 0.20512775 0.16715956
-0.78091371 0.28673947 0.14903116
-0.70580399 0.31770208 0.18568802
0.38045242 0.28963953 0.18327379
0.88970596 0.12395605 0.218503
-0.46321595 0.35143825 0.2444191
-0.41817403 0.34941563 0.22420788
0.88233769 -0.14632531 0.31141853
0.88510108 0.099087194 0.32379818
0.8973462 -0.016599311 0.37864923
0.89064944 0.022670789 0.39255905
0.89567602 0.071259677 0.37116766
0 0 0 1 0 0 0 1 0 0 0 1 0 0 0 0 0 330 1 0 0
