ply
format ascii 1.0
comment PCL generated
element vertex 384
property float x
property float y
property float z
element camera 1
property float view_px
property float view_py
property float view_pz
property float x_axisx
property float x_axisy
property float x_axisz
property float y_axisx
property float y_axisy
property float y_axisz
property float z_axisx
property float z_axisy
property float z_axisz
property float focal
property float scalex
property float scaley
property float centerx
property float centery
property int viewportx
property int viewporty
property float k1
property float k2
end_header
-0.14739887 -0.057190455 -0.58142757
-0.1470762 0.018545371 -0.58492041
-0.1881942 -0.17524897 -0.53644228
-0.17076696 -0.13374703 -0.5643096
-0.14288916 -0.11960984 -0.53454161
-0.17244612 -0.046735864 -0.54753065
-0.1226061 -0.054949809 -0.55293083
-0.08700791 -0.024965379 -0.51540279
-0.11989556 0.027127504 -0.55273485
-0.087263942 0.019412648 -0.51170731
-0.17066465 0.11679353 -0.56533241
-0.13537277 0.092855848 -0.54086256
-0.17881702 0.16754098 -0.53863955
-0.15239538 0.14062001 -0.52733803
-0.20720913 0.20662808 -0.53002071
-0.31902045 -0.26368588 -0.44444036
-0.25858212 -0.2387957 -0.47276688
-0.20051001 -0.20764878 -0.49021292
-0.14972477 -0.17873314 -0.47493076
-0.11696188 -0.13146141 -0.48672915
-0.090699822 -0.11549686 -0.46211433
-0.067428872 -0.047588464 -0.47190952
-0.063727736 0.031078067 -0.47114992
-0.11062226 0.10884657 -0.49655437
-0.075579807 0.087687597 -0.46201134
-0.2599237 0.18926446 -0.46236467
-0.13430378 0.1619236 -0.47927332
-0.28092599 0.23334083 -0.47450161
-0.20162888 0.22546659 -0.4795723
-0.13717638 0.19036932 -0.44641495
-0.46705675 -0.23404752 -0.38353205
-0.37805551 -0.26485166 -0.43067265
-0.34587085 -0.26596332 -0.4175458
-0.23042147 -0.24246964 -0.42504597
-0.18698449 -0.22890165 -0.40216923
-0.11233306 -0.17910342 -0.41453552
-0.072229922 -0.15239923 -0.3954792
-0.048546538 -0.10595082 -0.40459967
-0.030696154 -0.042509947 -0.41824389
-0.0034360215 -0.025474817 -0.38338184
-0.025050268 0.02050392 -0.41727352
-0.0034444928 0.020900294 -0.38316202
-0.034659952 0.082729973 -0.40736532
-0.0037967265 0.055875152 -0.37401009
-0.093231723 0.15757914 -0.42557001
-0.062834829 0.14306997 -0.39768171
-0.43943423 0.21607678 -0.40727901
-0.1709023 0.23127943 -0.40978146
-0.129264 0.20482691 -0.40425682
-0.44068462 0.26269302 -0.40051031
-0.24261083 0.26107821 -0.41799355
-0.4640668 -0.22568381 -0.33738708
-0.40431625 -0.24883679 -0.34232903
-0.1928295 -0.24871998 -0.34384775
-0.1345598 -0.22567306 -0.3375392
-0.53058267 -0.17848167 -0.33850098
-0.49075645 -0.20314187 -0.32127953
-0.098927855 -0.20178249 -0.34335327
-0.05706346 -0.17406207 -0.33575106
-0.57563257 -0.096904464 -0.31222534
-0.55324757 -0.13275716 -0.30599737
-0.027876407 -0.13082913 -0.35608578
0.0039381757 -0.10361302 -0.32845783
0.022395648 -0.037351787 -0.33862257
-0.57699561 0.033668645 -0.3061204
0.029947244 0.021521728 -0.32955027
-0.57573205 0.081015103 -0.31177998
0.0089842826 0.084970973 -0.33790112
-0.54318178 0.15197016 -0.31608343
-0.036276206 0.15056522 -0.3441124
-0.0056953505 0.12790926 -0.32468224
-0.51307946 0.19858955 -0.32776833
-0.46679932 0.23577113 -0.33500671
-0.11672671 0.22123401 -0.34147835
-0.076148927 0.19830716 -0.3318429
-0.40318048 0.26743484 -0.34918118
-0.362122 0.27087036 -0.31199121
-0.21669506 0.26825422 -0.34030724
-0.43572569 -0.22838877 -0.29834509
-0.39233178 -0.23812963 -0.27235603
-0.33265126 -0.25449929 -0.26877165
-0.1733252 -0.25203639 -0.30076647
-0.12885457 -0.2430755 -0.26131582
-0.081505314 -0.23209374 -0.24486589
-0.51658446 -0.16515461 -0.29125738
-0.4714123 -0.18754894 -0.26029301
-0.039937809 -0.19844006 -0.26836014
0.00010538846 -0.16645341 -0.2656045
-0.54116762 -0.1101179 -0.26874495
0.034293361 -0.11619997 -0.26890612
0.063962944 -0.086629048 -0.24438667
-0.57924789 -0.037715003 -0.29603052
-0.55702692 -0.044070702 -0.26030684
0.040954448 -0.061552096 -0.29812908
0.064250514 -0.050066464 -0.26306438
-0.57903802 0.009964454 -0.29697084
-0.55531067 0.026368015 -0.25886726
0.064449579 0.010132507 -0.2759943
-0.54909635 0.082327805 -0.26915359
0.04076656 0.081799068 -0.28999329
0.064182177 0.070639662 -0.25862646
-0.52252328 0.14962775 -0.26981878
-0.49173456 0.17946248 -0.25500774
-0.03078042 0.1771102 -0.29321241
0.011262685 0.1500833 -0.26248646
-0.46540374 0.21088175 -0.26641369
-0.41031283 0.24342957 -0.26015949
-0.12788369 0.25050041 -0.2723217
-0.056124836 0.21097329 -0.26487207
-0.33101326 0.27381149 -0.28015041
-0.19850864 0.27316973 -0.28709936
-0.37645346 -0.23389238 -0.21890545
-0.35545766 -0.23552655 -0.19531727
-0.059326723 -0.23475185 -0.20650148
-0.46044546 -0.16936469 -0.20478487
-0.4194482 -0.2020514 -0.20531654
0.014072217 -0.1860179 -0.20113564
0.06281957 -0.162808 -0.17012167
-0.51227766 -0.099612214 -0.21160364
-0.4869132 -0.12878469 -0.19435072
0.07567551 -0.11207799 -0.20590115
-0.52301383 -0.035392951 -0.20344734
0.088104591 -0.038275681 -0.23035908
0.11246221 -0.038579546 -0.19202805
-0.52177751 0.020566769 -0.20042276
0.088141769 0.022605143 -0.23518801
0.11246221 0.023102611 -0.1928153
-0.51333964 0.084241942 -0.20619106
0.081840888 0.090408102 -0.20834637
0.11246221 0.060468391 -0.1751194
-0.47132707 0.1613038 -0.20065498
0.026580207 0.17015402 -0.20691824
0.06320215 0.1339002 -0.19497156
-0.44793975 0.20540762 -0.2293601
-0.39908248 0.22702904 -0.19986153
-0.34307575 0.25700882 -0.19545794
-0.10796009 0.25552481 -0.21298456
-0.058722168 0.23066892 -0.21772003
-0.010682851 0.20778079 -0.19510365
-0.32381558 -0.23826861 -0.15574026
-0.29073894 -0.24068093 -0.12092113
-0.13604513 -0.26238754 -0.16630077
-0.037872136 -0.2393816 -0.1396718
-0.43661708 -0.16362913 -0.15234756
-0.39334911 -0.19411147 -0.14168549
-0.34233767 -0.21601345 -0.11227083
0.025044128 -0.20116496 -0.15123892
0.074643433 -0.17776224 -0.1192894
-0.46051955 -0.11426789 -0.13425207
0.087579012 -0.13829626 -0.1620841
0.1187539 -0.10793324 -0.13890362
-0.47848892 -0.039010361 -0.12747431
0.14386751 -0.038981006 -0.13669586
-0.47871059 0.02385024 -0.12627554
0.15283574 0.016317315 -0.12264776
-0.47133303 0.089989759 -0.13714409
0.12503378 0.086357817 -0.1389761
-0.44709384 0.14479947 -0.13959789
-0.40820909 0.17925596 -0.12160206
0.037768677 0.18530214 -0.16018152
0.074879348 0.1616199 -0.13899279
0.11246221 0.13777654 -0.11103868
-0.37822145 0.21261619 -0.12531376
-0.36174512 0.23570284 -0.15232992
-0.036673203 0.23467849 -0.16562939
0.011814333 0.22107205 -0.12454891
-0.31134403 0.26034743 -0.15603304
-0.28931159 0.26233914 -0.13250923
-0.087541267 0.26112476 -0.1468544
-0.29932308 -0.21977296 -0.051226139
-0.0026948079 -0.24438226 -0.067495823
0.060941342 -0.2199636 -0.048127651
-0.37995332 -0.17516311 -0.085761547
-0.33694762 -0.19354492 -0.058628082
0.036182106 -0.21729393 -0.091480732
0.086865894 -0.19305414 -0.069447041
0.12537973 -0.1680066 -0.057574272
-0.44678837 -0.090141766 -0.092288494
-0.40875679 -0.12496172 -0.064061642
0.15080914 -0.11604873 -0.076728821
-0.44890392 -0.039379798 -0.079796791
-0.42856956 -0.039623428 -0.047739506
0.16324431 -0.064662255 -0.096111774
0.18944655 -0.039583951 -0.060986519
-0.44920158 0.024406016 -0.078039169
-0.42873579 0.024774607 -0.046711445
0.18945803 0.024635483 -0.060489655
-0.44702023 0.075108796 -0.090919495
-0.42036855 0.095243536 -0.05858326
0.15721732 0.094759554 -0.075376034
0.18986613 0.063523591 -0.042818546
-0.39923513 0.15246536 -0.070418835
0.12529878 0.15276556 -0.063726425
-0.37265229 0.19037865 -0.077757835
-0.32863879 0.22257052 -0.072836876
0.009745352 0.24291202 -0.05867815
0.073936112 0.20427661 -0.060974121
-0.066774368 0.26777744 -0.068290234
-0.27640831 -0.22127795 -0.026788235
0.033710651 -0.25013492 0.015536308
0.08626347 -0.22347043 0.0088095665
-0.3150273 -0.17962141 0.0056610107
-0.2822057 -0.19805866 0.02341795
0.13875316 -0.1882769 0.0044317245
-0.39045924 -0.1005942 -0.015037537
-0.35047716 -0.13616239 0.0097560883
0.16431358 -0.14350885 -0.026660919
0.19741598 -0.11193704 -6.0558319e-05
-0.39933926 -0.045226295 -0.002038002
0.23027411 -0.040092882 0.0039410591
-0.39584571 0.017528284 0.0096187592
0.23026298 0.025378801 0.003364563
-0.39324445 0.085156538 -0.0078949928
-0.36082935 0.11758932 0.021181583
0.20398235 0.090669207 0.00073432922
-0.37960279 0.14150868 -0.030236244
-0.34856081 0.16009018 -0.0043439865
0.15603399 0.16023134 -0.0023450851
0.19158259 0.14436068 0.031506062
-0.31881917 0.19525369 0.0014019012
-0.28057051 0.22193936 0.0092568398
0.0342675 0.24676889 -0.0085759163
0.086330771 0.22130255 6.6757202e-05
0.12566023 0.1956169 0.0073018074
0.058834318 -0.25520575 0.088727474
0.11246221 -0.22703852 0.066752911
-0.27530622 -0.17436552 0.080106735
0.16584638 -0.20072468 0.072897434
0.20608655 -0.17423645 0.077306747
-0.33424747 -0.11495998 0.06021595
-0.2905063 -0.14820307 0.095304012
0.23202619 -0.12014683 0.056137085
0.27397633 -0.094637662 0.10237741
-0.36579454 -0.040419422 0.057014942
-0.34388274 -0.04068888 0.092608929
0.27272373 -0.040621955 0.075257301
-0.36585659 0.025970321 0.057462692
-0.34450012 0.026431896 0.097325802
0.2727282 0.026215103 0.075354576
-0.36460489 0.065631099 0.048429012
-0.34107238 0.098184474 0.071836472
0.23895459 0.099334545 0.063975334
0.27384096 0.066808961 0.099446297
-0.32092947 0.15417123 0.052689552
-0.28930533 0.17361127 0.084902763
0.2061051 0.16000748 0.080815315
-0.27413172 0.19944488 0.069462776
0.059278745 0.25203726 0.059860706
0.1392422 0.21269324 0.069068909
0.085153408 -0.25965947 0.15301132
0.13945006 -0.22978303 0.11131954
0.19366136 -0.20334487 0.12152052
0.26303113 -0.16444683 0.16173553
-0.30769819 -0.095214933 0.12738085
-0.277242 -0.13169062 0.1377821
0.2474373 -0.14885549 0.11224937
0.28938812 -0.1090778 0.14048243
-0.31597978 -0.047904402 0.13958931
0.30229521 -0.04105223 0.12835503
-0.31447804 0.031572632 0.14608335
0.30224866 0.026810423 0.12749195
0.3319343 -0.0001562275 0.16927671
-0.30896413 0.081272423 0.13801622
-0.29470456 0.12184206 0.13166142
0.28902751 0.08110968 0.13310003
-0.27599186 0.15777062 0.12647963
0.23469959 0.16266063 0.13389683
0.27609816 0.1224831 0.14831638
0.085250862 0.25823322 0.14035177
0.13941674 0.22871067 0.10699081
0.1941511 0.20395699 0.14272738
0.16745265 -0.23384188 0.1772275
0.19588628 -0.23634444 0.21786261
0.22248104 -0.20641305 0.17846012
0.27956739 -0.18106374 0.22427511
-0.25660658 -0.10615391 0.20167589
0.3051548 -0.12399026 0.18142223
0.33513483 -0.11135171 0.2212472
-0.29962718 -0.027616292 0.17429256
-0.27586526 -0.04157681 0.20872355
0.34784466 -0.041502684 0.2016058
-0.29971719 0.013598648 0.17507172
-0.27646458 0.027782854 0.2142849
0.35332537 0.032399248 0.21465158
-0.26656413 0.087834425 0.20871973
0.30463034 0.095929764 0.17168999
0.33446196 0.083289586 0.21032047
-0.26031411 0.124213 0.19326305
0.28557175 0.15217972 0.20147991
0.16736898 0.23320007 0.17179203
0.22303829 0.20727198 0.19655752
0.22589529 -0.24074644 0.28934145
0.29614455 -0.1976421 0.27721691
0.33815834 -0.15494034 0.27034235
0.36676109 -0.11282739 0.2759819
-0.24038161 -0.028061442 0.27302742
0.36429292 -0.069842607 0.24035788
0.39577466 -0.056406122 0.28583097
-0.24441175 0.014188799 0.26616144
0.39520484 0.014429457 0.27842855
-0.25175154 0.070169173 0.24493647
0.36584264 0.084699057 0.26272535
0.39714926 0.071525909 0.30368662
0.29596978 0.18361636 0.270576
0.3484633 0.13716029 0.28355885
0.21127704 0.23993641 0.26902342
0.25289994 0.21081997 0.25417328
0.11246221 0.26624489 0.24442434
0.25621292 -0.24388154 0.34024763
0.31393737 -0.21535535 0.3444066
0.35579735 -0.1713298 0.32431316
0.40957499 -0.10970253 0.33967495
0.4283573 -0.042652939 0.33603764
0.42820537 0.029191714 0.33424234
0.41419017 0.08660832 0.33759832
0.35781389 0.17375982 0.35531187
0.4013831 0.13057993 0.35868645
0.28390121 0.21470483 0.3172574
0.287839 -0.24771591 0.40251255
0.34705517 -0.21914956 0.4148097
0.37399238 -0.18823355 0.38035774
0.41588646 -0.17050409 0.41922903
0.43350935 -0.1306245 0.39688015
0.4653039 -0.1020908 0.42511749
0.47047669 -0.035760779 0.40125179
0.47351354 0.02511768 0.4074769
0.43190253 0.10227987 0.37790442
0.46433872 0.074088708 0.41466904
0.42050242 0.14745288 0.41633224
0.28721118 0.23378851 0.39013577
0.37688208 0.19177981 0.42206573
0.35071585 -0.23728818 0.47476006
0.44213289 -0.19370046 0.49871874
0.47176737 -0.1635908 0.49508619
0.48420668 -0.11790309 0.4682436
0.49773639 -0.058369238 0.45538425
0.53253484 -0.028901543 0.50328255
0.49764001 0.04537797 0.45442152
0.53231943 0.016109526 0.50128365
0.48958868 0.095270731 0.47242355
0.44034475 0.16496465 0.47760248
0.47075313 0.13540782 0.48410654
0.29261911 0.25635529 0.50600481
0.34920418 0.22286189 0.44970417
0.41105479 0.19513454 0.48432493
0.35525599 -0.25667384 0.54797363
0.41495401 -0.22562438 0.53497791
0.49234337 -0.18102124 0.55328608
0.50357348 -0.13422218 0.51371241
0.5380578 -0.12033346 0.55452871
0.5575968 -0.044127099 0.54746723
0.55796576 0.036702819 0.5504818
0.53779006 0.092512064 0.55204487
0.49178672 0.15301175 0.54747391
0.38402104 0.22750503 0.52510738
0.44679815 0.19887905 0.55381346
0.45114303 -0.2294046 0.60512447
0.51418567 -0.19929108 0.61975622
0.54490858 -0.1683256 0.6180954
0.575966 -0.1220959 0.61955404
0.57146209 -0.075080141 0.58054972
0.60845894 -0.044944115 0.63248539
0.60879016 0.032689724 0.63517475
0.57600152 0.094342142 0.61986256
0.51364893 0.17128311 0.61439228
0.54447597 0.1404103 0.61408186
0.42125869 0.23315687 0.61687803
0.4837206 0.20268704 0.62448359
0.39274514 -0.26302069 0.65102863
0.4874208 -0.23260622 0.66453934
0.56745028 -0.18647517 0.6817646
0.61395675 -0.12364347 0.67712212
0.64744014 -0.04538656 0.69347429
0.64834595 0.033425793 0.70039606
0.6149199 0.096092619 0.68494225
0.56763572 0.15878469 0.68342352
0.52249676 0.20690754 0.70280647
0.43268156 -0.27005586 0.76526403
0.52471328 -0.23586157 0.72495461
0.65313053 -0.10929206 0.73695707
0.65499282 0.081860654 0.75118828
0.59088147 0.1774874 0.74872541
0.47988224 0.24164492 0.75470877
0.56230587 0.21104164 0.7795229
0 0 0 1 0 0 0 1 0 0 0 1 0 0 0 0 0 384 1 0 0
