ply
format ascii 1.0
comment PCL generated
element vertex 294
property float x
property float y
property float z
element camera 1
property float view_px
property float view_py
property float view_pz
property float x_axisx
property float x_axisy
property float x_axisz
property float y_axisx
property float y_axisy
property float y_axisz
property float z_axisx
property float z_axisy
property float z_axisz
property float focal
property float scalex
property float scaley
property float centerx
property float centery
property int viewportx
property int viewporty
property float k1
property float k2
end_header
-0.75976521 -0.11263712 -0.10584736
-0.70547563 -0.11257459 -0.10788345
-0.86649966 -0.0048863022 -0.10997486
-0.79936999 -0.046423785 -0.11483002
-0.71043944 -0.041304458 -0.12136745
-0.62643546 -0.045226078 -0.11328888
-0.57095951 -0.045277901 -0.10734177
0.043841336 -0.01835021 -0.107728
0.13236152 -0.035167903 -0.11026573
0.21187221 -0.041554984 -0.11497688
0.28972298 -0.045186475 -0.11851311
0.37029111 -0.045194436 -0.11826324
0.44784924 -0.038481575 -0.1153059
-0.85373783 0.048970073 -0.10712337
-0.79948163 0.043992803 -0.11424541
-0.70934057 0.046185091 -0.11540413
-0.63181436 0.033556204 -0.11115456
-0.57104099 -0.0048858048 -0.10683823
-0.032445248 0.022050718 -0.1059618
0.042935919 0.038184993 -0.10856819
0.12628344 0.043533538 -0.1110487
0.20934004 0.048835039 -0.11633492
0.28945372 0.048760492 -0.12168646
0.36992225 0.048756868 -0.12164211
0.44822812 0.043458007 -0.11771107
0.20979191 0.1027665 -0.1090374
0.29017609 0.10263829 -0.11320019
0.37769103 0.10940851 -0.1119709
0.43828321 0.10269745 -0.11127472
-0.87235337 -0.19751903 -0.030348778
-0.79706109 -0.20828658 -0.035000801
-0.71652138 -0.21003008 -0.052806854
-0.63510346 -0.2102299 -0.049096107
-0.55988747 -0.20800972 -0.040027618
-0.47243497 -0.1971586 -0.037033081
-0.39097238 -0.19762111 -0.028450012
-0.30853391 -0.19772428 -0.026533127
-0.2259521 -0.19776922 -0.02570343
-0.14317408 -0.19761398 -0.028583527
-0.06052373 -0.19742498 -0.032094002
0.035657633 -0.1970737 -0.038610458
0.1385754 -0.20385739 -0.040652275
0.21414205 -0.21085912 -0.038389206
0.29609963 -0.21057364 -0.043308258
0.37885326 -0.21083608 -0.03882122
0.45425922 -0.20390156 -0.039629936
-0.87875611 -0.14139795 -0.060328484
-0.79513532 -0.14390957 -0.083348274
-0.70906281 -0.15374112 -0.090006828
-0.62824076 -0.14033154 -0.08786869
-0.54854256 -0.14071271 -0.077941895
-0.46824056 -0.14105251 -0.069149017
-0.38708508 -0.14123401 -0.064548492
-0.30551594 -0.14132601 -0.062177658
-0.22370763 -0.1413323 -0.062141418
-0.14177994 -0.14122143 -0.064961433
-0.059970561 -0.14110175 -0.068099976
0.035266012 -0.14091489 -0.072933197
0.1302084 -0.140679 -0.078917503
0.21133319 -0.14048773 -0.083947182
0.29227415 -0.14031297 -0.088499069
0.3737219 -0.14039591 -0.086421967
0.45607814 -0.14071241 -0.078305244
0.53308731 -0.13271123 -0.047903061
-0.87850875 -0.062850662 -0.092720985
-0.81383866 -0.085719258 -0.10499096
-0.59816134 -0.085702591 -0.1057148
-0.53605509 -0.049868077 -0.10072803
-0.46483868 -0.045442078 -0.095194817
-0.38410068 -0.045485385 -0.092244148
-0.30314323 -0.045509581 -0.09023571
-0.2191873 -0.053602464 -0.091651917
-0.13814574 -0.049131207 -0.095540047
-0.059501268 -0.045414545 -0.098711967
0.030466797 -0.067862995 -0.10006332
0.12934974 -0.085806988 -0.10120201
0.18313178 -0.085732192 -0.10443878
0.4710384 -0.076820187 -0.10117722
0.54094356 -0.049423438 -0.072368622
0.61061096 -0.040243361 -0.036792755
-0.88800144 0.044666205 -0.095852852
-0.60766268 0.067018062 -0.10267067
-0.54552615 0.049136538 -0.097548485
-0.46524259 0.049226597 -0.09209919
-0.384608 0.049300238 -0.0875597
-0.30322942 0.049265157 -0.089261055
-0.22424969 0.039376266 -0.093168259
-0.14330015 0.043765973 -0.095561981
-0.062855631 0.052474253 -0.099679947
0.0034787874 0.067022212 -0.10256195
0.53410137 0.04395505 -0.083263397
0.61176753 0.049997799 -0.04147625
-0.87627381 0.13124278 -0.070502281
-0.79053497 0.13053286 -0.088700294
-0.7092725 0.13051796 -0.088942528
-0.62905449 0.13073495 -0.083285332
-0.54963344 0.13122123 -0.070860863
-0.46880287 0.1314427 -0.064905167
-0.38738444 0.13156489 -0.061794281
-0.30544755 0.13151991 -0.063108444
-0.22344014 0.1313861 -0.066541672
-0.14152396 0.13118446 -0.071593285
-0.059873194 0.13107869 -0.074346542
0.035086259 0.13063079 -0.085868835
0.12963298 0.13031358 -0.093921661
0.21076579 0.14383137 -0.09321785
0.29148385 0.14363796 -0.097714424
0.36703119 0.14630577 -0.098409653
0.45779377 0.13798866 -0.094562531
0.54054332 0.1316652 -0.059010506
0.59976214 0.11894388 -0.031211853
-0.86942494 0.18709201 -0.042485237
-0.80080432 0.20083535 -0.042819977
-0.71729809 0.20047724 -0.048851967
-0.63632298 0.20086038 -0.042199135
-0.55473143 0.18734786 -0.037740707
-0.4730556 0.18763316 -0.032444
-0.3911688 0.18794861 -0.026593208
-0.30851308 0.18793133 -0.026911736
-0.22545256 0.18755654 -0.033865929
-0.14270853 0.18717679 -0.04091835
-0.067295983 0.19413164 -0.03978157
0.035534158 0.20068091 -0.045347214
0.13476513 0.21074128 -0.049947739
0.21326171 0.21400091 -0.052636147
0.29481182 0.21363518 -0.058512688
0.37652344 0.21353474 -0.060306549
0.45557678 0.21037114 -0.055865288
0.5261358 0.19679061 -0.033069611
-0.87429911 -0.26650333 0.035578728
-0.78837919 -0.28447589 0.026809692
-0.70383531 -0.28421721 0.023452759
-0.6212126 -0.2847608 0.030511856
-0.53163081 -0.27850792 0.03977108
-0.4602924 -0.26379323 0.030035019
-0.3695122 -0.25690785 0.032454491
-0.28566197 -0.25702131 0.034089088
-0.20157227 -0.25697801 0.033465385
-0.11746363 -0.25678039 0.030612946
-0.047473643 -0.25661528 0.028230667
0.022397533 -0.25616804 0.021776199
0.10595907 -0.25572571 0.015393257
0.18419592 -0.27888462 0.044561386
0.27571893 -0.28613782 0.048399925
0.3603434 -0.28629529 0.050447464
0.44394955 -0.27655551 0.044728279
0.50060284 -0.25794181 0.04737854
-0.8775264 -0.22634467 -0.0091285706
-0.81585866 -0.24732745 -0.0062246323
-0.72493327 -0.25390983 -0.010816574
-0.64144415 -0.25373784 -0.013299942
-0.55318099 -0.24755707 -0.0029802322
-0.47566181 -0.22614586 -0.012355804
-0.39373699 -0.22673771 -0.0027456284
-0.31081906 -0.22693151 0.00039768219
-0.22757848 -0.22695583 0.00079536438
-0.14420816 -0.22679833 -0.0017633438
-0.060949355 -0.22659492 -0.0050630569
0.03595208 -0.22606537 -0.013664246
0.11869653 -0.22570431 -0.019526482
0.21679032 -0.25497937 0.0046195984
0.29968616 -0.25459656 -0.00090885162
0.38356712 -0.25499612 0.0048589706
0.46557909 -0.23584783 -0.0052661896
0.53920847 -0.21444842 0.023192406
0.59795839 -0.18735746 0.041133881
0.56685084 -0.16183868 -0.0076284409
0.61992681 -0.130007 0.0055341721
0.69071132 -0.11159571 0.041624069
0.65318823 -0.054762345 -0.0099315643
0.70463502 -0.032778487 0.012306213
0.77535933 -0.040064022 0.050111771
0.86624497 -0.025002038 0.047916412
0.9342078 -0.027430207 0.049686432
0.65739655 0.050379101 -0.017086029
0.700436 0.04514493 0.0051326752
0.78014731 0.023175135 0.039628029
0.86590827 0.037281565 0.046519279
0.93591821 0.037274022 0.045377731
0.63673204 0.13375387 -0.0040254593
0.7110374 0.11270892 0.030725479
0.77503127 0.086533442 0.048612595
0.86776727 0.093722686 0.054275513
0.93354726 0.089023866 0.054432869
-0.87636805 0.21628001 -0.013865471
-0.80991989 0.24474949 -0.0019798279
-0.72497416 0.24415705 -0.010531425
-0.64282191 0.24450725 -0.0054769516
-0.56587476 0.22343644 -0.010497093
-0.476064 0.2165533 -0.0094327927
-0.3936784 0.21693003 -0.0033168793
-0.31046262 0.21689895 -0.0038223267
-0.22692032 0.21650925 -0.010148048
-0.13691424 0.22342488 -0.010778427
-0.055416636 0.23349351 -0.0051727295
0.035972111 0.24448121 -0.0058507919
0.10482954 0.24337363 -0.021834373
0.49238265 0.24405903 -0.011943817
0.56335634 0.20324948 -0.00033187866
0.61046207 0.2051138 0.031817436
0.68252259 0.16359925 0.042656898
-0.87303299 0.26103216 0.030285835
-0.78877747 0.27484632 0.028670311
-0.70393533 0.2744835 0.023958206
-0.62183058 0.27527875 0.034286499
-0.54286623 0.25826064 0.030345917
-0.44816765 0.2585533 0.034564972
-0.37685701 0.25437334 0.035083771
-0.27854586 0.25423577 0.033187866
-0.2016122 0.26130471 0.033813477
-0.12456007 0.2683534 0.034729958
-0.047567748 0.27548459 0.036964417
0.022466237 0.27501699 0.030887604
0.11425618 0.28682685 0.027500153
0.20348392 0.28791183 0.016365051
0.28640592 0.28716958 0.0072393417
0.3698678 0.28718752 0.0075035095
0.44680238 0.29113251 0.021719933
0.52634478 0.26105639 0.030985832
-0.88008296 -0.30602205 0.1199398
-0.80163407 -0.31761795 0.088019371
-0.71353239 -0.31641999 0.07387352
-0.63222247 -0.31827042 0.095727921
-0.5650363 -0.32053035 0.12241554
-0.4437435 -0.28762576 0.06772995
-0.375191 -0.28927866 0.08920002
-0.29016593 -0.28954101 0.092608452
-0.20502238 -0.28987926 0.097002983
-0.11908064 -0.28879383 0.082903862
-0.048067093 -0.28860188 0.08040905
0.022799684 -0.28803936 0.073101997
0.10749549 -0.28744212 0.065343857
0.22511975 -0.32200003 0.13977051
0.28182286 -0.32097042 0.12761021
0.35385299 -0.32111275 0.12929249
0.47715098 -0.28880337 0.083029747
0.52383775 -0.27685431 0.11247063
0.62870932 -0.20450187 0.097742081
0.67952698 -0.17614529 0.10269833
0.72532982 -0.13781175 0.093650818
0.79317415 -0.10478112 0.10004139
0.87839615 -0.10474414 0.098863602
0.94462895 -0.09994112 0.097657204
0.80011147 -0.061421081 0.066867828
0.86962366 -0.061346695 0.062051773
0.9565388 -0.061477058 0.070529938
0.99338645 0.052193314 0.10227108
0.79277176 0.12535927 0.07215023
0.8723579 0.13670659 0.073530197
0.94846696 0.12736812 0.075739861
0.64715707 0.2221278 0.081085205
0.70777315 0.19486108 0.10082912
0.79583627 0.16682798 0.11256027
0.87697488 0.1785785 0.11707687
0.93614382 0.16632295 0.10163021
-0.88872486 0.29911679 0.096176147
-0.79939818 0.30698794 0.077896118
-0.71225476 0.30608413 0.067220688
-0.62971282 0.30723816 0.080852509
-0.54092848 0.30214751 0.10412598
-0.46982709 0.30240911 0.10715389
-0.37076488 0.29767367 0.10129261
-0.29691967 0.2981379 0.10683727
-0.20607367 0.31027919 0.11676407
-0.11988407 0.30953383 0.10796261
-0.048184149 0.30792668 0.088979721
0.02275655 0.30625278 0.069216728
0.53394186 0.29320532 0.08291626
0.60479444 0.25055787 0.081853867
0.12353981 0.33931881 0.1209631
0.19444518 0.33791754 0.10579586
0.2782695 0.33567807 0.081555367
0.36276647 0.33504766 0.074730873
0.43637586 0.33719233 0.097946167
-0.52698445 -0.32356638 0.15826702
0.12578934 -0.32588279 0.18562412
0.1825798 -0.32323399 0.15434074
0.39879712 -0.32255507 0.14632416
0.42843294 -0.3231101 0.15287876
0.57610482 -0.26661241 0.17252445
0.63443905 -0.23759454 0.17354584
0.71719503 -0.1783351 0.15011311
0.79701895 -0.15079203 0.18557739
0.86937433 -0.15070793 0.18339348
0.92618918 -0.15046415 0.17705631
0.71862423 0.22683576 0.15753937
0.79277134 0.19831237 0.1657362
0.83349389 0.19763133 0.15309811
0.94771934 0.18286356 0.14715576
0.54504824 0.31385645 0.15901566
0.63206297 0.27043989 0.15958881
0.038391817 0.34663266 0.20014668
0.081251487 0.34215358 0.15164852
0.49420801 0.34785444 0.21336937
0 0 0 1 0 0 0 1 0 0 0 1 0 0 0 0 0 294 1 0 0
