ply
format ascii 1.0
comment PCL generated
element vertex 275
property float x
property float y
property float z
element camera 1
property float view_px
property float view_py
property float view_pz
property float x_axisx
property float x_axisy
property float x_axisz
property float y_axisx
property float y_axisy
property float y_axisz
property float z_axisx
property float z_axisy
property float z_axisz
property float focal
property float scalex
property float scaley
property float centerx
property float centery
property int viewportx
property int viewporty
property float k1
property float k2
end_header
-0.76695406 -0.03700513 -0.11690712
-0.69356346 -0.033012293 -0.11847878
-0.63205177 -0.025935262 -0.11597443
0.20960794 -0.017073616 -0.11440992
0.2958068 -0.037006661 -0.11684513
0.36344421 -0.033019058 -0.11811686
0.44866252 -0.030364472 -0.11625957
-0.77329129 0.0094871372 -0.11824894
-0.69031239 0.022779545 -0.11812258
-0.63031262 0.030772882 -0.11579514
0.21490833 0.02014778 -0.11470318
0.28909037 0.022776714 -0.11778784
0.37130749 0.030731166 -0.11903429
0.44273934 0.027224263 -0.11644697
-0.79151791 -0.20738177 -0.036620617
-0.70887423 -0.20709084 -0.042014599
-0.62740636 -0.2070879 -0.042071819
-0.5746606 -0.20759745 -0.032617092
0.22828798 -0.20762454 -0.032113552
0.2957927 -0.20728306 -0.038451672
0.37679157 -0.20700759 -0.043560505
0.45912471 -0.20738773 -0.036506653
-0.86358869 -0.14875548 -0.061457157
-0.78263134 -0.15155746 -0.076494217
-0.70118928 -0.1513976 -0.080374718
-0.62138885 -0.15156284 -0.076051712
-0.54245085 -0.15199602 -0.06488657
-0.46307847 -0.15245274 -0.053200245
-0.38176525 -0.1388208 -0.054559708
-0.30086851 -0.13892092 -0.051707268
-0.21953474 -0.13884629 -0.05389452
-0.13845111 -0.15251504 -0.051618576
-0.057185102 -0.15237512 -0.055211544
0.037402723 -0.15218402 -0.060155392
0.13173062 -0.15198545 -0.065392017
0.21228187 -0.15176708 -0.070932388
0.29257807 -0.15154561 -0.076552391
0.37311652 -0.15150043 -0.077578068
0.45405531 -0.15159662 -0.075276852
0.5290665 -0.14337695 -0.053491592
-0.85593551 -0.060858354 -0.096476555
-0.77578026 -0.083697602 -0.10712004
-0.69578695 -0.083695225 -0.10736465
-0.61001498 -0.067431383 -0.10692549
-0.53511375 -0.060842983 -0.096809864
-0.45832643 -0.057289973 -0.089547634
-0.38118446 -0.061029427 -0.082530022
-0.29846466 -0.057399727 -0.080080509
-0.21786276 -0.065436959 -0.080972672
-0.13953491 -0.060979232 -0.086637974
-0.056625657 -0.057274118 -0.091434002
0.038914114 -0.062960699 -0.094665051
0.13305624 -0.065179899 -0.10007524
0.21026339 -0.070450731 -0.10380411
0.29015267 -0.083737142 -0.10524368
0.37018108 -0.083744578 -0.1048398
0.45386022 -0.078021564 -0.10569668
0.53362525 -0.057391748 -0.082736492
0.61326218 -0.051954858 -0.043564796
-0.86163163 0.031091237 -0.094016552
-0.78193426 0.056153916 -0.10936165
-0.70812595 0.062742062 -0.11219168
-0.59554005 0.042848885 -0.10933828
-0.53936958 0.030980086 -0.10223484
-0.45800278 0.036469236 -0.092020035
-0.37562925 0.031190054 -0.086625099
-0.29814085 0.036594018 -0.083888054
-0.21754083 0.026815893 -0.086219311
-0.13429038 0.031147288 -0.090222836
-0.056596607 0.036444917 -0.093517303
0.035046212 0.028723856 -0.09940958
0.12773305 0.026555939 -0.10621881
0.20322604 0.056139827 -0.11005974
0.2630012 0.062753581 -0.11168432
0.4761343 0.062796965 -0.10980177
0.53240645 0.036492169 -0.090632439
0.60960644 0.026950566 -0.050771236
-0.86560225 0.11775386 -0.066983223
-0.77947301 0.11683562 -0.090661049
-0.69797087 0.116605 -0.096466064
-0.61842144 0.11675027 -0.09280777
-0.54006618 0.1172297 -0.080400467
-0.46086454 0.11762826 -0.070140362
-0.38072783 0.11786366 -0.06414032
-0.30027127 0.11807983 -0.05869627
-0.21924941 0.11809261 -0.058450699
-0.13798055 0.11788586 -0.063860416
-0.056969527 0.11767519 -0.069278717
0.037217468 0.11740804 -0.076122761
0.13105932 0.11715111 -0.082671165
0.21101183 0.11680737 -0.091491699
0.29077381 0.1165603 -0.097819328
0.37083545 0.11653063 -0.09875536
0.45141172 0.11665338 -0.095416546
0.53634328 0.11783348 -0.065145493
0.59474826 0.105235 -0.038237572
-0.85974157 0.17329107 -0.035574436
-0.78715521 0.18572976 -0.056286812
-0.70477104 0.18537346 -0.062463284
-0.625 0.18577085 -0.0556283
-0.55182517 0.17941274 -0.048199654
-0.46479845 0.17304777 -0.040086746
-0.39771354 0.17343788 -0.032842636
-0.12556875 0.17344353 -0.032743454
-0.05749803 0.17331558 -0.035113335
0.037590824 0.17286828 -0.043419361
0.1379929 0.18372549 -0.044027328
0.21347517 0.18601516 -0.051448345
0.29394245 0.18549937 -0.060305119
0.37488163 0.18544324 -0.061261654
0.4564473 0.18569741 -0.056879997
0.51181644 0.17262858 -0.047867775
-0.83847278 -0.26768857 0.049019814
-0.7783221 -0.26624218 0.028142929
-0.69309181 -0.2654725 0.017033577
-0.61163306 -0.26603279 0.025119781
-0.54559779 -0.26747006 0.045864105
0.19162482 -0.26744536 0.045509338
0.27404821 -0.26652035 0.032157898
0.35703135 -0.26638597 0.030215263
0.43971786 -0.26614791 0.02678299
0.49775317 -0.26749471 0.046218872
-0.85984796 -0.22581466 -0.0012140274
-0.78313571 -0.2360331 -0.01283884
-0.71455681 -0.23598744 -0.013581276
-0.6323263 -0.23594543 -0.014261723
-0.53801346 -0.22745478 -0.0044136047
-0.45096546 -0.22146074 0.004699707
-0.36184442 -0.22412542 0.016766548
-0.27919921 -0.22422235 0.018470764
-0.19618493 -0.22400941 0.014801979
-0.11891425 -0.22676975 0.014906883
-0.052546374 -0.22055888 0.0027074814
0.032159586 -0.22110073 -0.0016546249
0.12018941 -0.22273372 -0.0072746277
0.18887782 -0.22966988 -0.0055322647
0.28469098 -0.23636122 -0.0075101852
0.37997544 -0.23595719 -0.014069557
0.44864383 -0.23609254 -0.011872292
0.51975232 -0.22348283 0.0062770844
0.58644009 -0.19213051 0.021430969
-0.38447338 -0.180526 -0.029450417
-0.30306014 -0.18069381 -0.025817394
-0.22122884 -0.18066938 -0.026342869
0.55645132 -0.16719848 -0.022596359
0.61412573 -0.14055368 -0.0050230026
0.67893678 -0.11849901 0.023273468
0.64269692 -0.071646333 -0.023674011
0.7008819 -0.050089322 0.0037746429
0.76733494 -0.044815749 0.038013458
0.86528641 -0.02821417 0.047266006
0.94881809 -0.033783458 0.047415733
0.65144289 0.051121995 -0.025539398
0.69324023 0.015843814 -0.0072031021
0.76981288 0.014141457 0.033267021
0.85912198 0.024651719 0.044816017
0.9380303 0.01866751 0.042628288
0.62611622 0.11288005 -0.014611721
0.69533312 0.097409695 0.019530296
0.75700104 0.075630285 0.044003487
-0.8666358 0.20223431 -0.007185936
-0.78023857 0.22833739 -0.026094437
-0.71206933 0.22834352 -0.026008606
-0.63122642 0.22873305 -0.020385265
-0.53491223 0.20111471 -0.025364399
-0.46796846 0.20170319 -0.015805721
-0.37021095 0.19665684 -0.0092711449
-0.29047516 0.18829417 -0.012156487
-0.20831168 0.18823119 -0.013103962
-0.12623514 0.19515744 -0.011526108
-0.044152319 0.20190245 -0.012568951
0.037860483 0.20144315 -0.020029068
0.10602657 0.20115761 -0.024664879
0.21588793 0.22930478 -0.012136936
0.29704043 0.22849604 -0.023805618
0.3785046 0.22822997 -0.027647018
0.46120498 0.22871614 -0.020627022
0.54378396 0.18800588 -0.016441822
0.61179394 0.17640696 0.021622658
0.66137958 0.1490436 0.028244019
-0.85317993 0.23868273 0.022891998
-0.77540338 0.25873083 0.01450634
-0.69128013 0.2582055 0.0076789856
-0.60297239 0.25187898 0.014530182
-0.53347856 0.24266072 0.020150185
-0.44520503 0.23162723 0.021388054
-0.36315334 0.23221301 0.029841423
-0.28041044 0.23252361 0.0343256
-0.19723538 0.23253202 0.034448624
-0.11379697 0.23199037 0.026629448
-0.044523619 0.23147926 0.019253731
0.024440341 0.23086922 0.010449409
0.11291067 0.24256642 0.018728256
0.18337657 0.25226903 0.019628525
0.27279586 0.25882855 0.015774727
0.35478938 0.25822505 0.0079345703
0.43786192 0.25851443 0.011692047
0.52280408 0.2412682 0.027131081
-0.88570225 -0.27331594 0.1302433
-0.78032106 -0.29970247 0.1031599
-0.7056613 -0.2980966 0.082297325
-0.62139666 -0.29813498 0.08279705
-0.53258491 -0.29248357 0.10008812
-0.45168918 -0.26942727 0.074112892
-0.36856413 -0.27010718 0.083927155
-0.28487536 -0.27068558 0.092277527
-0.20002826 -0.27024582 0.08592701
-0.11539049 -0.26970145 0.078069687
-0.045091305 -0.26904026 0.068527222
0.024865642 -0.26885393 0.065839767
0.11619207 -0.27658686 0.074701309
0.1953097 -0.30051109 0.11365986
0.2789847 -0.29919267 0.09653759
0.36244518 -0.29824379 0.084213257
0.44606498 -0.29779783 0.078416824
0.52034056 -0.28594139 0.10750389
0.5548346 -0.24024309 0.055522919
0.62239385 -0.2139549 0.083717346
0.69049209 -0.1869128 0.10883141
0.71739954 -0.14811215 0.078115463
0.77962333 -0.11285377 0.088941574
0.85741997 -0.11589709 0.097160339
0.94101208 -0.11577997 0.092987061
0.98566914 -0.13007447 0.10151482
0.79814434 -0.06367144 0.06246376
0.85584253 -0.06596455 0.06027317
0.94672108 -0.072944842 0.060645103
0.792364 0.10464685 0.078660011
0.86604995 0.095173426 0.073831558
0.94572562 0.091556661 0.070304871
0.98665315 0.1243182 0.10516739
0.62763613 0.20715705 0.072752953
0.69841534 0.16534308 0.076665878
0.76379812 0.153346 0.12138939
-0.87243032 0.26335922 0.07462883
-0.78951901 0.29185677 0.079994202
-0.70201945 0.29045159 0.063400269
-0.62036061 0.29158881 0.076830864
-0.53807777 0.28329766 0.088625908
-0.45099813 0.26289344 0.068581581
-0.36813423 0.26374596 0.07965374
-0.28480691 0.26466614 0.09160614
-0.20026672 0.26457709 0.090452194
-0.11544903 0.26374474 0.079638481
-0.045098137 0.26291436 0.068850517
0.02483407 0.26230514 0.060936928
0.10993123 0.2840167 0.097118378
0.19433983 0.29326037 0.09657383
0.27724156 0.29133129 0.073788643
0.36025012 0.2903738 0.062479019
0.44467837 0.29075566 0.066991806
0.5333299 0.27466068 0.0989151
0.6043759 0.23717527 0.10146999
-0.46216151 -0.30403268 0.15941048
-0.4062489 -0.30504492 0.17255974
0.025917973 -0.30684698 0.19596863
0.097356357 -0.30435464 0.16359425
0.57271111 -0.27618381 0.17163467
0.62622869 -0.24591655 0.14764595
0.68303382 -0.21719243 0.14545155
0.74761337 -0.19031264 0.18243694
0.78606761 -0.16054502 0.15920353
0.85954523 -0.16085036 0.16713715
0.94114482 -0.16014123 0.14870644
0.68298566 0.21161801 0.14519024
0.80128777 0.15529254 0.16354561
0.85566908 0.15468985 0.15048409
0.93954837 0.15430856 0.14223385
-0.87744415 0.29826707 0.15569878
-0.51637238 0.29659945 0.1360054
-0.46370783 0.29966533 0.17220402
-0.40925679 0.30205795 0.20046806
0.025616728 0.29995912 0.17567921
0.082506604 0.29677716 0.13810253
-0.47010249 -0.30895689 0.22337723
0 0 0 1 0 0 0 1 0 0 0 1 0 0 0 0 0 275 1 0 0
