ply
format ascii 1.0
comment PCL generated
element vertex 383
property float x
property float y
property float z
element camera 1
property float view_px
property float view_py
property float view_pz
property float x_axisx
property float x_axisy
property float x_axisz
property float y_axisx
property float y_axisy
property float y_axisz
property float z_axisx
property float z_axisy
property float z_axisz
property float focal
property float scalex
property float scaley
property float centerx
property float centery
property int viewportx
property int viewporty
property float k1
property float k2
end_header
-0.17248014 -0.11795077 -0.58287334
-0.14029121 -0.041572653 -0.59023237
-0.13291726 0.031460494 -0.58755684
-0.15344447 0.095033273 -0.59652376
-0.24109012 0.1708452 -0.57477522
-0.17577669 0.14877082 -0.58548689
-0.32488403 -0.25186962 -0.51414394
-0.25712383 -0.22866449 -0.53135586
-0.2072207 -0.18834734 -0.55069923
-0.16369411 -0.17122115 -0.52201223
-0.14142656 -0.12276108 -0.53944016
-0.10649449 -0.09889178 -0.50820971
-0.12468746 -0.065090127 -0.55669975
-0.09466175 -0.043911703 -0.52077532
-0.095785581 0.02619954 -0.52711535
-0.13059115 0.10226944 -0.54990292
-0.1060128 0.098246232 -0.51516151
-0.21127966 0.17580187 -0.553617
-0.15170208 0.16265938 -0.53424883
-0.29761398 0.24201031 -0.52133322
-0.22186652 0.21469131 -0.53532887
-0.1730774 0.20874017 -0.4994874
-0.40957642 -0.25583291 -0.46733713
-0.36415181 -0.25531799 -0.47342062
-0.23020762 -0.2326436 -0.47966576
-0.29063976 -0.2131471 -0.44142914
-0.19558817 -0.20948331 -0.49431324
-0.14871809 -0.18950522 -0.46130133
-0.11148857 -0.16855356 -0.43612623
-0.091076948 -0.12263389 -0.46167517
-0.068648301 -0.051085822 -0.47851229
-0.043679379 -0.033631213 -0.44407654
-0.064376168 0.033180602 -0.47604418
-0.04372523 0.03369303 -0.44308329
-0.076117195 0.10023174 -0.46357393
-0.13055709 0.17705722 -0.48045111
-0.10206965 0.15208715 -0.46443462
-0.47110087 0.25854167 -0.43653202
-0.44917279 0.25881609 -0.43355799
-0.219758 0.24395035 -0.47427511
-0.16716698 0.22438468 -0.44257689
-0.3959716 0.27647081 -0.48197937
-0.47398812 -0.23711871 -0.42152977
-0.44606674 -0.23968336 -0.3882165
-0.29728857 -0.26234722 -0.39040947
-0.20335871 -0.23749341 -0.4166646
-0.18528369 -0.24128953 -0.36735058
-0.55060536 -0.17154951 -0.38052559
-0.51027167 -0.19926769 -0.3760972
-0.14798155 -0.21594875 -0.40099287
-0.092049442 -0.17888696 -0.38532925
-0.57792068 -0.12649202 -0.36078596
-0.068179213 -0.13618393 -0.40546894
-0.038714148 -0.11029597 -0.38570213
-0.019768201 -0.050258659 -0.39592934
-0.010224678 0.027947446 -0.39024162
-0.029694654 0.099701971 -0.39155149
-0.56410509 0.17256631 -0.37137938
-0.5155167 0.19471006 -0.38455725
-0.086150773 0.17494023 -0.40788889
-0.047035523 0.14966285 -0.37141323
-0.50420362 0.22908558 -0.38335943
-0.42391229 0.26339501 -0.38399124
-0.21767733 0.26312175 -0.38694906
-0.14820522 0.22785375 -0.39977932
-0.11579048 0.21839797 -0.37403345
-0.42291379 -0.2329784 -0.32294559
-0.38055149 -0.24688323 -0.2946887
-0.14292771 -0.23325257 -0.32012749
-0.53912044 -0.15117952 -0.32556295
-0.49924231 -0.17973475 -0.31462574
-0.46412611 -0.21929984 -0.35262108
-0.072365947 -0.19000314 -0.32625961
-0.026240297 -0.15168196 -0.31468201
-0.56535721 -0.11104088 -0.32732248
-0.0061879531 -0.11604948 -0.32670403
-0.59827352 -0.039130755 -0.33198452
0.0096193999 -0.06918928 -0.34040451
0.032454833 -0.034652576 -0.31887007
-0.59718084 0.023730027 -0.32648945
0.032509141 0.023788353 -0.32207441
-0.58245474 0.092104226 -0.3251586
0.013090752 0.097725406 -0.32472849
0.043754157 0.05943571 -0.29830551
-0.55262923 0.15661804 -0.32770681
-0.50436091 0.1755089 -0.32485771
-0.07126791 0.1972328 -0.34814978
-0.021194465 0.15696359 -0.32224178
-0.4870733 0.21525063 -0.31290197
-0.44596839 0.24560235 -0.32388926
-0.39609486 0.26705852 -0.34433651
-0.14110288 0.24394555 -0.34345675
-0.073207118 0.21542907 -0.31102371
-0.35410526 0.26990518 -0.31351805
-0.40753973 -0.22477911 -0.27354002
-0.36256191 -0.24184594 -0.25655508
-0.31937742 -0.2524915 -0.22183371
-0.14703959 -0.2490657 -0.26633692
-0.087568261 -0.22535667 -0.26520014
-0.48901504 -0.16209492 -0.26075411
-0.44116455 -0.19650166 -0.24990273
-0.051644199 -0.20116411 -0.27163315
-0.0094024837 -0.17355335 -0.25559521
-0.54973841 -0.094199784 -0.27447701
-0.52145416 -0.11160096 -0.2492671
0.019654691 -0.12982647 -0.27414942
0.052592009 -0.10221783 -0.24679518
-0.56247681 -0.034931157 -0.27009583
-0.53460252 -0.047259197 -0.23156309
0.066993997 -0.035064068 -0.25910664
0.090837352 -0.023254525 -0.22305155
-0.56292838 0.02447203 -0.26795053
-0.53640062 0.01292309 -0.22257996
0.06704995 0.024499023 -0.26637506
0.090837352 0.024975462 -0.22570944
-0.55603635 0.077835351 -0.27258587
-0.53351432 0.084827751 -0.23700047
0.057498708 0.089057513 -0.25648308
-0.54748768 0.13066143 -0.28530645
-0.50768423 0.15242387 -0.24600315
0.013325438 0.16185187 -0.25771189
0.042744443 0.14516371 -0.23272324
-0.47897035 0.20248924 -0.27227402
-0.43395329 0.2273106 -0.25754499
-0.38662639 0.25141609 -0.2552309
-0.12205372 0.24901165 -0.28363132
-0.07735797 0.24108933 -0.23541307
-0.028187588 0.20305619 -0.26409054
-0.35902154 -0.2300676 -0.19720364
-0.1284869 -0.25488222 -0.19077587
-0.080327116 -0.24334706 -0.18298721
-0.032528356 -0.23324706 -0.1513133
-0.4346602 -0.17010643 -0.18045282
-0.38704142 -0.20726703 -0.17253637
0.0057655275 -0.19347158 -0.19942999
0.05007568 -0.16625619 -0.17667437
-0.48733544 -0.10519422 -0.18879366
-0.45107806 -0.1343514 -0.15659046
0.066483706 -0.13295704 -0.19281721
0.096990593 -0.10319103 -0.17148829
-0.50758666 -0.035584196 -0.1831522
0.10918625 -0.041668624 -0.18669653
-0.5087266 0.025521496 -0.17713308
0.11526807 0.025464179 -0.18280649
-0.50171882 0.08990939 -0.18631601
0.1006617 0.081549063 -0.1865654
-0.47873878 0.14341441 -0.18524027
-0.4473533 0.17840353 -0.17791986
0.058290809 0.15965992 -0.18711901
0.090837352 0.13600005 -0.16971588
-0.42087358 0.20817623 -0.19018936
-0.37418428 0.23362644 -0.17620516
-0.31310067 0.25813296 -0.17591286
-0.080339648 0.2578035 -0.17979956
-0.0065703765 0.21624483 -0.19095182
-0.30773166 -0.23538375 -0.12047243
-0.0089094266 -0.23561905 -0.11707783
-0.4072997 -0.16062967 -0.12095404
-0.36429977 -0.19120082 -0.10781908
0.016764462 -0.20871663 -0.14899874
0.053305116 -0.19872034 -0.10886717
0.090837352 -0.16094695 -0.11409092
-0.43738651 -0.11100366 -0.11425543
0.12840752 -0.11122544 -0.10753298
-0.47909355 -0.035936706 -0.13748407
-0.45448107 -0.042546861 -0.099259377
0.14043331 -0.03602007 -0.13509607
0.16624221 -0.023772679 -0.091322422
-0.48034334 0.026059626 -0.1304245
-0.46095794 0.026431413 -0.09825325
0.14035794 0.025959862 -0.13999271
0.16602097 0.026409464 -0.10090303
-0.47862267 0.07545533 -0.14014339
-0.45028007 0.094034083 -0.10180855
0.13442419 0.094573796 -0.12404156
0.16628784 0.064261489 -0.089346886
-0.42762047 0.15832283 -0.11814547
-0.38611412 0.18963243 -0.09551096
0.066037603 0.18720946 -0.13486671
0.11093619 0.15924655 -0.10110188
-0.35754645 0.22130892 -0.12033463
-0.060195856 0.26570535 -0.086484432
-0.0083348677 0.23674175 -0.13573647
0.040962636 0.21324742 -0.11699104
0.013782047 -0.24235475 -0.019856453
-0.35021263 -0.17232056 -0.050827503
-0.30793893 -0.20629692 -0.049814224
0.065358236 -0.21502165 -0.046614647
0.1164367 -0.17700502 -0.042758465
-0.41532469 -0.099731274 -0.06883049
-0.38442048 -0.11846402 -0.036914825
0.141643 -0.13820288 -0.05652523
0.17607403 -0.096370116 -0.036775589
-0.42312491 -0.036730256 -0.04512167
0.18630129 -0.04298237 -0.050982475
-0.43076104 0.026976096 -0.050828934
0.20153746 0.022826524 -0.039955616
-0.41859621 0.085636877 -0.046988964
-0.39625794 0.11699404 -0.026157856
0.1799683 0.090581685 -0.05057621
-0.41462541 0.14045009 -0.073371887
-0.37244606 0.17209482 -0.049390316
0.12917918 0.18067297 -0.033747673
0.16767983 0.14249587 -0.029072285
-0.33907744 0.21641295 -0.071297646
-0.28927514 0.24221914 -0.064578533
0.01510255 0.24126063 -0.077035427
0.06546852 0.21713093 -0.060940266
0.038704269 -0.24578762 0.029693604
0.11709727 -0.22126822 0.054814816
-0.29908997 -0.18017273 0.020925045
0.11694749 -0.20604961 0.019684792
0.16905004 -0.16761421 0.030260086
-0.35149637 -0.11005317 0.024195671
-0.32697615 -0.14175537 0.035774231
0.20031586 -0.12051017 0.026091099
-0.39969808 -0.024089856 -0.0026378632
-0.37237924 -0.043823943 0.033929348
0.22006109 -0.03707961 0.00088214874
0.24823856 -0.050563902 0.05138731
-0.39988479 0.027542831 -0.0013604164
-0.37892544 0.027947908 0.033771992
0.21983594 0.040410772 -0.0049667358
0.24762538 0.014955623 0.038111687
-0.39889869 0.06613791 -0.0081028938
-0.36788234 0.098285593 0.029755592
0.21417324 0.099157915 0.015437603
0.24836507 0.067574933 0.054126263
-0.35792953 0.15278649 0.0070924759
-0.32484379 0.18359995 0.018461227
0.14276838 0.19653541 0.016570568
0.18180314 0.15767173 0.018793106
-0.27317232 0.22281742 0.021140099
0.039243024 0.24678276 -0.0052990913
0.10397232 0.22339664 0.0294981
0.064382508 -0.24928249 0.080136299
0.14414515 -0.2244198 0.10599375
-0.27878505 -0.16959819 0.073219776
0.18367001 -0.1836255 0.089502335
-0.33194813 -0.090460874 0.076142311
-0.29765916 -0.1228975 0.10058832
0.22348323 -0.14383465 0.089792252
0.25957212 -0.09997566 0.10328674
-0.34028861 -0.037690971 0.090396404
-0.31142089 -0.064822987 0.12721014
0.27696645 -0.051104218 0.097677231
-0.34880215 0.020624151 0.084490299
0.27629283 0.015322072 0.085175514
-0.33926466 0.088069916 0.082116127
-0.31050074 0.10918719 0.11924076
0.263421 0.094959363 0.091566563
-0.32999626 0.14662363 0.060294628
-0.29468492 0.16161291 0.097973824
0.21464586 0.1656356 0.088449001
0.25159979 0.14957359 0.12415981
0.064330399 0.2538811 0.086905479
0.14424637 0.22915199 0.11256886
0.18403603 0.20156309 0.098213196
0.090837352 -0.25394785 0.14747572
0.17225504 -0.22830269 0.1690402
0.21689415 -0.19126484 0.15155506
0.25439501 -0.17474645 0.1846776
-0.26772335 -0.11260207 0.15910673
0.27132341 -0.13751395 0.15949106
0.30813125 -0.092673928 0.17196465
-0.30115512 -0.038268786 0.15590954
0.31825978 -0.032833926 0.15928125
-0.29977241 0.02131792 0.16797066
0.32110289 0.029444223 0.16114473
-0.28842273 0.097246423 0.16345882
0.27912715 0.12330386 0.13777494
0.30813685 0.097573318 0.17205477
-0.26037431 0.16435863 0.15306902
0.26804066 0.16603138 0.1851635
0.090837352 0.2613849 0.18438959
0.20005518 0.22070371 0.18808794
0.11858408 -0.26090929 0.24795723
0.20164698 -0.23280807 0.2421999
0.27039528 -0.19081819 0.2327652
0.32560664 -0.1216756 0.2309885
-0.26598334 -0.052335575 0.20911789
-0.24213621 -0.052786008 0.24809551
0.3579374 -0.057205565 0.23192978
-0.26741019 0.016356371 0.2233758
-0.2434254 0.01665139 0.26205111
0.36759967 0.016520249 0.23879957
-0.2660504 0.084885411 0.20978785
-0.24208838 0.085897379 0.24757767
0.34661567 0.092540495 0.23501682
0.28422341 0.18219726 0.23234892
0.31181479 0.15454438 0.23177719
0.20201661 0.23896478 0.25420332
0.25751719 0.21105081 0.25227594
0.23122457 -0.23580818 0.29091835
0.28760597 -0.20795745 0.29512167
0.33493215 -0.17079714 0.30150795
0.38197803 -0.10508973 0.30266571
0.39974281 -0.039331988 0.29155064
0.39991847 0.030986825 0.29362535
0.39173084 0.092201672 0.3070116
0.32933161 0.17119098 0.28842735
0.37280026 0.12979281 0.30635643
0.26022527 0.22893864 0.31272936
0.2629182 -0.24062958 0.36921072
0.31984231 -0.21156798 0.36212778
0.38787422 -0.16450673 0.37702942
0.42121106 -0.11166703 0.37483883
0.43389577 -0.054092266 0.3572669
0.46660185 -0.025640573 0.39841557
0.43288293 0.017349754 0.34630156
0.46688968 0.017738255 0.40129185
0.43583071 0.089472033 0.37821436
0.3475875 0.18850562 0.34942007
0.39118883 0.14610443 0.35916185
0.26447934 0.24927421 0.40301037
0.321255 0.21922873 0.38506794
0.2947174 -0.24419457 0.42709351
0.35234106 -0.2145806 0.41803217
0.3992984 -0.20219128 0.46015215
0.44320375 -0.15800843 0.45802927
0.43919986 -0.12730967 0.4146862
0.47217676 -0.11391576 0.4541235
0.49387667 -0.04780487 0.45072317
0.49105731 0.037579246 0.44683123
0.47059551 0.091095261 0.43832254
0.39606044 0.17775732 0.41969538
0.44051129 0.13450852 0.4288826
0.35508233 0.2236954 0.45759821
0.32831389 -0.24866541 0.49968958
0.42024913 -0.22081426 0.53371811
0.46358493 -0.17518429 0.51716185
0.50688809 -0.10034274 0.50402117
0.50996006 -0.13093831 0.53252459
0.53917909 -0.041126437 0.52630377
0.53866267 0.033611201 0.52183247
0.50603485 0.092650764 0.49610376
0.5417074 0.078984946 0.54820061
0.4158226 0.19562018 0.48144341
0.46709582 0.15714219 0.50171518
0.39007682 0.22820286 0.53078604
0.36223564 -0.25243157 0.56084776
0.4565092 -0.2244972 0.60206461
0.48377559 -0.19254471 0.57002544
0.51477045 -0.16259328 0.57715988
0.54466295 -0.11714401 0.57379723
0.57609749 -0.041560918 0.58337259
0.57594126 0.034304015 0.58210421
0.56097072 0.094890445 0.5831418
0.52661639 0.15098538 0.59249115
0.30177277 0.26001385 0.55802488
0.42659149 0.23299618 0.60861826
0.45171642 0.19932415 0.55018139
0.39774871 -0.25671786 0.63044739
0.493738 -0.22813541 0.66957617
0.54351574 -0.18610771 0.65253019
0.5879553 -0.16653816 0.67964602
0.59410506 -0.11389077 0.64572763
0.6137054 -0.041984797 0.63899469
0.65069532 -0.026753031 0.68397856
0.61373985 0.034976959 0.63925695
0.65108752 0.019935913 0.68680763
0.59943247 0.096616656 0.64719152
0.55656099 0.17510059 0.67683649
0.58846372 0.14431944 0.68377352
0.48932332 0.20338075 0.62546253
0.43378916 -0.26060846 0.69361877
0.47027394 -0.2641468 0.75107288
0.53024095 -0.23089065 0.72070885
0.61015594 -0.18428317 0.73205328
0.62149668 -0.13604954 0.6985321
0.65633816 -0.10543898 0.72470188
0.65294057 -0.073644407 0.70018148
0.65354466 0.05133415 0.70454121
0.62115741 0.1135928 0.69593906
0.65726155 0.083215065 0.73136616
0.59608757 0.17827964 0.7456708
0.46663785 0.2393447 0.71171093
0.52757728 0.20718125 0.69599295
0.50437307 -0.26567265 0.77584839
0.56624693 -0.23304649 0.76071882
0.62987936 0.14735326 0.76258707
0.50693095 0.24486868 0.80140877
0.56793243 0.21145546 0.77531481
0 0 0 1 0 0 0 1 0 0 0 1 0 0 0 0 0 383 1 0 0
