ply
format ascii 1.0
comment PCL generated
element vertex 312
property float x
property float y
property float z
element camera 1
property float view_px
property float view_py
property float view_pz
property float x_axisx
property float x_axisy
property float x_axisz
property float y_axisx
property float y_axisy
property float y_axisz
property float z_axisx
property float z_axisy
property float z_axisz
property float focal
property float scalex
property float scaley
property float centerx
property float centery
property int viewportx
property int viewporty
property float k1
property float k2
end_header
-0.53772891 -0.04309769 -0.4288702
-0.53732282 0.032709368 -0.43075323
-0.53860354 0.07616502 -0.42481232
-0.57078397 -0.18699017 -0.37781429
-0.53330338 -0.17439243 -0.36718273
-0.47549534 -0.16606688 -0.35689783
-0.52234238 -0.12009829 -0.3984313
-0.46076959 -0.12094233 -0.37638474
-0.41043705 -0.11709235 -0.36075974
-0.50739789 -0.04797123 -0.41061258
-0.45521665 -0.046474479 -0.3956933
-0.39444363 -0.043724079 -0.37716198
-0.34768322 -0.027252547 -0.3575592
-0.50956774 0.026739869 -0.41521692
-0.45849818 0.028807119 -0.40055561
-0.39411393 0.033503134 -0.37915993
-0.35314858 0.033835754 -0.35821533
-0.51873553 0.10146499 -0.40271807
-0.45927984 0.099453509 -0.38447618
-0.39900321 0.097376294 -0.36612606
-0.57147348 0.18807708 -0.37472534
-0.53063059 0.15979926 -0.37385941
-0.46819866 0.15359582 -0.36033344
-0.42040309 0.14502649 -0.35436916
-0.51000595 -0.23751628 -0.29434061
-0.46466035 -0.23754151 -0.29401255
-0.57927138 -0.2116746 -0.33979464
-0.53041095 -0.20657313 -0.33301735
-0.45700067 -0.19750232 -0.32924938
-0.39048395 -0.18632878 -0.30825758
-0.3404313 -0.16968402 -0.28977156
-0.37264824 -0.12576367 -0.33397913
-0.31572247 -0.12372465 -0.30449581
-0.26502261 -0.10919254 -0.28655386
-0.35480598 -0.077453375 -0.34688377
-0.31006315 -0.047271911 -0.33221292
-0.2503837 -0.041498024 -0.3003397
-0.31168818 0.034184791 -0.33526659
-0.2483764 0.034737602 -0.2997756
-0.36346203 0.11608285 -0.33856916
-0.31834176 0.099767245 -0.31847525
-0.26430887 0.08780013 -0.29287338
-0.52212101 0.19006193 -0.34607744
-0.45515305 0.18644223 -0.33400822
-0.38608509 0.16963838 -0.31710243
-0.3320432 0.15576927 -0.2956934
-0.59282464 0.23002252 -0.31278896
-0.5386138 0.21433912 -0.32032537
-0.46253997 0.21548608 -0.30541992
-0.64146799 -0.23966585 -0.26641655
-0.57524705 -0.24055958 -0.25480747
-0.53630954 -0.25839111 -0.24843216
-0.45539409 -0.25828362 -0.24975824
-0.39321548 -0.24157923 -0.2415638
-0.36617792 -0.21656977 -0.26913309
-0.31967381 -0.1976915 -0.25233746
-0.26035857 -0.18210904 -0.23184204
-0.2448422 -0.13297096 -0.26193523
-0.18901035 -0.12357028 -0.23273993
-0.14118432 -0.10385797 -0.2132082
-0.22809601 -0.079073466 -0.27673769
-0.18393543 -0.045089815 -0.25826693
-0.13034505 -0.040471807 -0.22568464
-0.18381256 0.03535131 -0.25968504
-0.12870106 0.035880666 -0.22540092
-0.24398381 0.11145489 -0.27010393
-0.18568531 0.1051167 -0.23755264
-0.14098437 0.094257444 -0.21609449
-0.31383759 0.18073148 -0.26075745
-0.25790995 0.17159007 -0.23838139
-0.1989083 0.15230292 -0.21932697
-0.57080472 0.2406342 -0.27541733
-0.52560502 0.24083433 -0.27305126
-0.45751292 0.24107736 -0.27018404
-0.392021 0.23138213 -0.24937868
-0.33732456 0.22142446 -0.22827864
-0.64363295 -0.22428003 -0.15784883
-0.4251647 -0.26926482 -0.18739748
-0.40587741 -0.27159065 -0.15993118
-0.32014829 -0.24633965 -0.17972326
-0.23950571 -0.22399537 -0.16195774
-0.6761778 -0.21144839 -0.17093754
-0.24444962 -0.20630413 -0.19122791
-0.17376797 -0.17905571 -0.17933989
-0.10354447 -0.15910044 -0.15566444
-0.16544111 -0.15105613 -0.20100403
-0.099118441 -0.11367959 -0.18136835
-0.040746816 -0.10102282 -0.15181112
-0.095235348 -0.053553093 -0.19996786
-0.037631348 -0.034295313 -0.16994143
-0.09502545 0.036203939 -0.2043786
-0.037516735 0.024822842 -0.17247486
-0.10241769 0.10017092 -0.19036007
-0.033052683 0.081032708 -0.15753365
-0.23608264 0.20039511 -0.19692993
-0.17030659 0.16970807 -0.18747234
-0.10067812 0.14868873 -0.16150999
-0.050600432 0.13253795 -0.14343882
-0.67560118 0.24932081 -0.17283726
-0.31779057 0.24403483 -0.18011999
-0.24319968 0.22104125 -0.17203093
-0.18058994 0.20308667 -0.15807962
-0.51267672 0.27413419 -0.16000414
-0.47411317 0.27260357 -0.17657375
-0.37443957 -0.27407745 -0.13056278
-0.34221032 -0.27645326 -0.10250473
-0.24395457 -0.25114304 -0.11732531
-0.17879263 -0.23397252 -0.10570431
-0.12594736 -0.22953534 -0.081999302
-0.73418868 -0.16260396 -0.081792831
-0.68259263 -0.19236542 -0.09380579
-0.14664999 -0.20198558 -0.13431787
-0.09511517 -0.19373123 -0.11258173
-0.031550869 -0.1731573 -0.098480225
0.020046845 -0.15646301 -0.083944798
-0.0092523694 -0.11253432 -0.12744999
0.032460939 -0.10729241 -0.1036253
0.076797068 -0.091666147 -0.082641125
0.032719765 -0.034598798 -0.12612534
0.08604531 -0.034850024 -0.093378544
0.032756422 0.025361594 -0.12930441
0.096474156 0.020587441 -0.09087801
-0.0031199753 0.097120456 -0.13354969
0.03259122 0.085751608 -0.11504269
0.084921382 0.078546196 -0.084593296
-0.76114619 0.18466239 -0.071732998
-0.087187722 0.18127462 -0.12674999
-0.024822727 0.16149932 -0.10614681
0.028210778 0.14323771 -0.087283134
-0.72265142 0.21544699 -0.095183372
-0.68171114 0.23150063 -0.097385883
-0.24465248 0.25459579 -0.11053705
-0.1723284 0.2304617 -0.11195469
-0.10581674 0.21730235 -0.093552113
-0.053210415 0.20879894 -0.075629234
-0.32439768 -0.2808241 -0.05089283
-0.16442895 -0.25599188 -0.054336071
-0.10397869 -0.24491633 -0.039036274
-0.03044802 -0.23378727 -0.020622253
-0.66682202 -0.17585261 -0.021535873
-0.017306261 -0.20717141 -0.050112247
0.034181077 -0.18811372 -0.041285992
0.0885121 -0.16897881 -0.027956963
0.14353058 -0.16030617 -0.00073099136
-0.74594712 -0.10926925 -0.035262585
-0.70232755 -0.12246043 -0.011387825
0.10140885 -0.11687136 -0.056633472
0.15285778 -0.10467882 -0.026870728
-0.75971746 -0.040323753 -0.02022171
0.11753898 -0.059455972 -0.068191051
0.16754018 -0.035300594 -0.035111427
-0.76692164 0.019281372 -0.011559963
0.16751367 0.026440009 -0.036156654
-0.76428342 0.08884427 -0.012142658
0.10950881 0.10371814 -0.060518742
0.16469035 0.085348353 -0.026639938
-0.74289191 0.15907142 -0.035175323
-0.69364524 0.17997535 -0.012978554
0.035961326 0.17756428 -0.054711819
0.090329185 0.15924384 -0.034757614
0.14319015 0.13844836 -0.015471935
-0.6823222 0.21102725 -0.043466091
-0.16445081 0.25938192 -0.054018497
-0.10447502 0.25321469 -0.030211449
-0.030000009 0.22378337 -0.037962437
0.03141528 0.21314225 -0.012943268
-0.081410453 -0.26072559 0.0071544647
-0.032620616 -0.26403326 0.050123215
0.031026766 -0.23664653 0.020644665
0.068671644 -0.23864432 0.049480438
-0.65789801 -0.16091333 0.012408733
0.10011962 -0.20529997 0.021014214
0.16985705 -0.17497745 0.042779922
0.22154552 -0.16346267 0.067598343
-0.68026161 -0.10777821 0.032276154
0.18771721 -0.1171277 0.013010025
0.23336388 -0.11196074 0.048372269
-0.72162282 -0.035660077 0.017064095
-0.68646163 -0.042336419 0.055221081
0.24586089 -0.048535034 0.043653011
-0.72314602 0.027121652 0.023344517
-0.69381696 0.027537663 0.059454441
0.2455088 0.014658802 0.037300587
-0.72309071 0.089933619 0.023118973
-0.68700731 0.097368851 0.057545185
0.19394508 0.11468476 0.012481213
0.24258091 0.087391444 0.042084217
-0.70849937 0.13983172 0.014474869
-0.67179191 0.1606006 0.02958107
0.1187709 0.18980859 0.011823654
0.1693866 0.16564701 0.027204037
0.22953933 0.15027808 0.05704546
-0.081382692 0.26451066 0.0065531731
-0.032158524 0.25815573 0.029808521
0.030973595 0.24087575 0.024403572
0.088943146 0.22713141 0.04212904
0.14514525 0.21883212 0.069186687
0.017372761 -0.26708317 0.089742184
0.10746431 -0.2425683 0.10611916
0.17797668 -0.20985214 0.097322464
0.24422348 -0.18622263 0.11158705
0.27357075 -0.11308614 0.084928513
0.30810559 -0.10768408 0.12000799
-0.67177463 -0.023349959 0.074567795
0.31618428 -0.041524082 0.10653591
0.36113784 -0.030099008 0.13474941
-0.67251444 0.027751051 0.077881813
0.31021002 0.020253178 0.095151424
0.36746094 0.028381504 0.1326232
-0.67215413 0.078813165 0.076268196
0.2728754 0.11703859 0.073637486
0.3137691 0.092637129 0.10857868
0.35473171 0.08044903 0.13599014
0.19631431 0.19363955 0.074036121
0.25365812 0.17440426 0.094964981
0.3016187 0.14470945 0.12008333
-0.0081609711 0.27113107 0.084732056
0.12005381 0.24632218 0.095151901
0.17177485 0.2301012 0.1072402
0.22441593 0.22302741 0.12974453
0.029945932 0.27375326 0.11569881
0.042564839 -0.27165669 0.14915609
0.16125152 -0.24863102 0.19362926
0.25405359 -0.2224537 0.19804239
0.27886522 -0.19450806 0.17090034
0.31475377 -0.17764558 0.18294096
0.37285155 -0.16928259 0.19360256
0.32979494 -0.12811972 0.14987326
0.38399389 -0.11573114 0.17054081
0.43939134 -0.10328864 0.19763231
0.39842728 -0.042008258 0.15729761
0.44508213 -0.037019193 0.18877316
0.40859014 0.02863279 0.15445137
0.45464376 0.021096904 0.1914897
0.3905203 0.097972341 0.16053581
0.44510624 0.088481158 0.18913126
0.27779037 0.19853009 0.15344667
0.31805342 0.17324622 0.16791725
0.38074774 0.15869628 0.19306183
0.18663436 0.25143978 0.16163111
0.25202104 0.2251464 0.16032267
0.28316665 -0.22508356 0.2407465
0.33528301 -0.19721676 0.22116566
0.38921553 -0.18870312 0.22798395
0.44683939 -0.17266037 0.26674175
0.46457484 -0.12471287 0.2441287
0.50115919 -0.091680162 0.26914263
0.46803036 -0.063836701 0.21633005
0.5242278 -0.034228027 0.26418447
0.58387953 -0.01058853 0.28028011
0.52647674 0.02979891 0.25542021
0.5841459 0.030110445 0.28210115
0.46847698 0.10938057 0.22019672
0.51826936 0.088327087 0.26164389
0.41518363 0.17599471 0.22033834
0.45280448 0.15913947 0.2387619
0.30983293 0.22167979 0.2386179
0.39120099 0.20439264 0.24864388
0.32747144 -0.22849183 0.29609108
0.42166278 -0.20066066 0.28508139
0.53311193 -0.11992923 0.30664396
0.59632242 -0.12077562 0.33400631
0.64902645 -0.093496189 0.34779596
0.55783939 -0.06494087 0.28804588
0.60319149 -0.043336794 0.30030584
0.65814573 -0.032636493 0.33582354
0.61413485 0.030331194 0.30066919
0.66048706 0.030703474 0.33329487
0.55026686 0.11664215 0.29889822
0.60269338 0.099033907 0.31505537
0.65710706 0.081359565 0.34078741
0.47919393 0.18098828 0.31300926
0.51722878 0.16341324 0.3253417
0.57895315 0.15490061 0.34072876
0.34072143 0.23425642 0.29181242
0.38271657 0.23516423 0.3049202
0.45534259 0.21036626 0.34564161
0.48409063 -0.17675643 0.35541582
0.52755493 -0.17745115 0.37046146
0.58650708 -0.17851906 0.39358234
0.62509483 -0.14969441 0.37185669
0.66907197 -0.12235084 0.38545036
0.71505517 -0.10899008 0.40855074
0.678801 -0.066055126 0.36042356
0.73187685 -0.034559503 0.39021778
0.74043924 0.031396959 0.39306116
0.67239976 0.11945933 0.37730503
0.72534341 0.096118845 0.40307999
0.54071903 0.18378381 0.36488485
0.60663497 0.17808284 0.38785648
0.67305052 0.15806049 0.40913916
0.66338652 -0.16638929 0.43696642
0.75007075 -0.11002541 0.44596195
0.81243968 -0.11074433 0.47373104
0.81021601 -0.042550102 0.44489241
0.86813265 -0.03920868 0.46681929
0.81983119 0.031935256 0.43992376
0.8659457 0.032128621 0.45667315
0.80879372 0.089069754 0.45539474
0.86970228 0.07523597 0.47410107
0.66661948 0.18872692 0.45662498
0.73831254 0.14616083 0.4595499
0.79986739 0.13278098 0.48263931
0.84516597 0.13320629 0.49369192
0.74797863 -0.15512276 0.51288319
0.80453807 -0.15487573 0.50647163
0.76307756 0.16301274 0.51636457
0.80440623 0.17344698 0.53071404
0.69378597 -0.18919262 0.62467337
0.74492413 -0.18701701 0.57756567
0.80187529 -0.18655729 0.5676198
0.74874461 0.19643219 0.59961367
0 0 0 1 0 0 0 1 0 0 0 1 0 0 0 0 0 312 1 0 0
