ply
format ascii 1.0
comment PCL generated
element vertex 284
property float x
property float y
property float z
element camera 1
property float view_px
property float view_py
property float view_pz
property float x_axisx
property float x_axisy
property float x_axisz
property float y_axisx
property float y_axisy
property float y_axisz
property float z_axisx
property float z_axisy
property float z_axisz
property float focal
property float scalex
property float scaley
property float centerx
property float centery
property int viewportx
property int viewporty
property float k1
property float k2
end_header
0.40310729 -0.16593647 -0.58574486
0.45520777 -0.16623998 -0.58020544
0.3438046 -0.10740194 -0.5977087
0.39346021 -0.11717214 -0.60955429
0.45743454 -0.11794123 -0.58874226
0.33380145 -0.041622169 -0.61010408
0.39204955 -0.045839313 -0.62177134
0.45780885 -0.046234693 -0.58615875
0.33279109 0.025298879 -0.60544109
0.39219803 0.025033209 -0.62054443
0.45774609 0.025540229 -0.58658218
0.34434235 0.076651245 -0.59233475
0.39364219 0.086276516 -0.60800409
0.45775318 0.087080345 -0.58650541
0.41009837 0.13609983 -0.59032106
0.45515358 0.13526472 -0.58060551
0.40928608 -0.19130777 -0.56375122
0.4792223 -0.18831222 -0.55702639
0.537094 -0.18066819 -0.52661514
0.32885152 -0.11462975 -0.53761816
0.49148732 -0.11876301 -0.56704903
0.53792083 -0.11990746 -0.53728104
0.58494943 -0.12102415 -0.5084548
0.28900439 -0.047099873 -0.51366854
0.31180403 -0.052962057 -0.54196739
0.49228895 -0.046518672 -0.56184196
0.53873527 -0.046858206 -0.53247118
0.58567965 -0.078896292 -0.50450325
0.28891692 0.026661873 -0.51480436
0.30843985 0.026390795 -0.53297234
0.49207574 0.025900103 -0.56322718
0.53840899 0.026339389 -0.53438854
0.58550191 0.026781693 -0.50546598
0.32602534 0.085327953 -0.5231123
0.49171132 0.087878034 -0.5655942
0.53781044 0.088939682 -0.53792763
0.58489436 0.090071104 -0.50875378
0.39900959 0.15522754 -0.56275129
0.4772408 0.16907988 -0.55475855
0.53486246 0.15839563 -0.53047895
0.58572531 0.1325241 -0.50425577
0.33242691 -0.17306501 -0.45992422
0.37790018 -0.18667246 -0.47084379
0.59730822 -0.17189442 -0.48022747
0.25753936 -0.11590898 -0.45580053
0.30490518 -0.12882936 -0.49068451
0.62300771 -0.12231568 -0.47619534
0.24898933 -0.047529481 -0.47737885
0.6099655 -0.047396742 -0.48849535
0.65972298 -0.047785066 -0.45340157
0.24902864 0.027262762 -0.4766264
0.62373471 0.02107301 -0.48010445
0.66037923 0.027653262 -0.45024395
0.26290193 0.087612376 -0.46188021
0.30331969 0.099195048 -0.49285698
0.62209958 0.091161795 -0.48073149
0.32961804 0.14398198 -0.46303701
0.38683295 0.17110994 -0.45466661
0.56486648 0.17492025 -0.50265312
0.60330027 0.15601063 -0.46718454
0.25449488 -0.16973564 -0.38802385
0.309021 -0.19129747 -0.39574575
0.3882243 -0.21473004 -0.37474823
0.20518062 -0.12036732 -0.38394833
0.23859026 -0.13936819 -0.41100597
0.19854175 -0.048314296 -0.40941572
0.19403747 0.025207236 -0.40357399
0.20507023 0.089320242 -0.38639832
0.23636223 0.099043019 -0.41847706
0.66422945 0.071330011 -0.43171978
0.25990066 0.14420849 -0.38992691
0.3191635 0.17431857 -0.40616894
0.36048853 0.17988518 -0.4309926
0.21351768 -0.17322452 -0.32327509
0.26836193 -0.19440894 -0.34521866
0.33562386 -0.21686698 -0.34390259
0.1795519 -0.12802748 -0.32679319
0.14621672 -0.060784962 -0.3100071
0.16756603 -0.04901154 -0.35185575
0.14609687 0.018470496 -0.31519699
0.1674318 0.04025197 -0.35621548
0.179212 0.096696898 -0.33649588
0.21301186 0.14168611 -0.33422613
0.25853771 0.17609073 -0.32364988
0.30102256 0.184973 -0.35754728
0.40156198 0.20747727 -0.35453653
0.43650776 0.20840375 -0.34249973
0.18246529 -0.17759323 -0.24220324
0.23797885 -0.19796094 -0.28754473
0.30893728 -0.22304526 -0.25473166
0.12185389 -0.1259215 -0.24943304
0.17000839 -0.15303223 -0.27253914
0.055084955 -0.061944705 -0.23465633
0.10116647 -0.049925078 -0.26939964
0.055075694 0.019418817 -0.23345327
0.10120201 0.030534595 -0.26433611
0.1174304 0.095411345 -0.25087357
0.16979247 0.1217602 -0.27955055
0.19344383 0.15736935 -0.2574358
0.2393588 0.19159719 -0.26193571
0.10969399 -0.18075101 -0.18433905
0.18420476 -0.20397756 -0.18984461
0.042911597 -0.10973945 -0.18946934
0.090001218 -0.14407317 -0.21359062
0.0068461522 -0.039319001 -0.15659094
0.031444851 -0.038933985 -0.2072382
0.0067895949 0.020295709 -0.1541419
0.031418726 0.019702539 -0.20554113
0.04298069 0.078573622 -0.1958766
0.08997342 0.12494919 -0.21050978
0.054555126 0.12701274 -0.16582966
0.11354439 0.1574365 -0.1886363
0.16059577 0.17268527 -0.19543505
0.17327169 0.19828622 -0.16539621
0.22012214 0.19725455 -0.1802845
0.18739551 -0.23362544 -0.10201883
0.042036839 -0.16008036 -0.11994123
0.10235404 -0.20788303 -0.12642908
-0.010594137 -0.10432564 -0.10397911
0.030213684 -0.1356971 -0.12727165
-0.030703187 -0.039697818 -0.10545254
-0.030755959 0.020872235 -0.10375404
-0.01052244 0.073286876 -0.1065588
0.030441303 0.1041799 -0.14205599
0.042043731 0.14161342 -0.11119699
0.078302935 0.17788811 -0.11095142
0.11437573 0.20151077 -0.11885166
0.17485395 0.22600213 -0.11389017
0.24798252 0.22682096 -0.10325289
-0.015876889 -0.17403604 -0.033185482
0.045430358 -0.19638075 -0.047653198
0.078302935 -0.21363746 -0.032990932
-0.076301292 -0.10825106 -0.037969589
-0.036267914 -0.13003874 -0.0620327
-0.081585541 -0.040083885 -0.056434631
-0.081588864 0.021418612 -0.056386471
-0.079979092 0.078509197 -0.038962364
-0.036028706 0.098844737 -0.068722248
-0.071339428 0.13416843 -0.010908127
-0.012280717 0.14929573 -0.04199028
0.037200395 0.17361352 -0.047677994
0.078302935 0.20830227 -0.020825386
-0.086144969 -0.1671911 0.03401041
-0.022329614 -0.20835419 0.017132282
0.028264869 -0.21562675 -0.00069236755
-0.15057306 -0.091766082 0.052780151
-0.11323316 -0.12133974 0.022018433
-0.14955178 -0.040802199 0.038039684
-0.12184943 -0.040522225 -0.00069093704
-0.14959008 0.022519354 0.038591862
-0.12169345 0.022033006 -0.003223896
-0.15045696 0.060779136 0.051104546
-0.11693612 0.091607384 0.021230221
-0.085868388 0.14868677 0.030131817
-0.038943581 0.17717586 0.012631416
-0.010527067 0.21279567 0.044028759
0.044724703 0.21978249 0.022571087
0.10362932 0.23798485 0.041768551
0.00031372905 -0.24944156 0.12627172
0.039655466 -0.24711025 0.092616558
0.078302935 -0.24850984 0.11281967
-0.095706403 -0.19595574 0.097705841
-0.049977735 -0.22072341 0.082069397
-0.16636494 -0.1184869 0.094351768
-0.20731579 -0.054439075 0.12223625
-0.17781039 -0.041109342 0.076249599
-0.20682703 0.010458882 0.11646461
-0.1777121 0.022938471 0.07497263
-0.16863991 0.092578016 0.090014935
-0.15440169 0.13966215 0.10804176
-0.10671128 0.16955514 0.086834431
-0.077712759 0.21854916 0.12707901
-0.0247835 0.22940108 0.097578526
0.027228981 0.23989587 0.066590309
-0.039883494 -0.2517606 0.15973997
0.10450109 -0.25125754 0.15248013
-0.16824812 -0.18278883 0.1801219
-0.11828664 -0.21212117 0.15476704
-0.21984784 -0.10313985 0.16590405
-0.18317781 -0.14621435 0.14597464
-0.23756181 -0.041830353 0.16857576
-0.23751305 0.024013896 0.16804838
-0.22187211 0.084606774 0.16892433
-0.17621945 0.1600482 0.16885471
-0.13123429 0.19406295 0.15169954
-0.10598059 0.22146156 0.16911554
-0.039466612 0.24612255 0.14748096
0.038509242 0.27646476 0.19687271
-0.15017027 -0.23041062 0.23937321
-0.081753999 -0.25555944 0.21457386
0.1320177 -0.25719076 0.23811674
-0.21805467 -0.1771237 0.24905634
-0.19130854 -0.20420215 0.25159597
-0.24929689 -0.12818027 0.23633766
-0.30110759 -0.042574964 0.26973009
-0.26921016 -0.042239949 0.2217989
-0.30092204 -0.0019315621 0.26800919
-0.26904827 0.024613898 0.22018242
-0.26220286 0.092027269 0.24102592
-0.22653638 0.15487684 0.24275303
-0.16292937 0.20780177 0.22991657
-0.096387118 0.25312132 0.23839664
-0.0016877353 0.27782497 0.21293783
-0.19715421 -0.23583984 0.32753325
-0.11244564 -0.26072207 0.28909159
-0.23635565 -0.19334863 0.30379152
-0.29625738 -0.12512366 0.30940628
-0.3265146 -0.049731921 0.31391096
-0.32343614 0.030137092 0.30673552
-0.29793686 0.10085247 0.30335569
-0.27885592 0.14936827 0.31818581
-0.25036162 0.17624713 0.30713797
-0.22392516 0.2043279 0.31838322
-0.16893102 0.24092801 0.31739998
-0.23127051 -0.24061863 0.405128
-0.14418338 -0.26577103 0.36196661
-0.28372955 -0.18256615 0.36688519
-0.25618798 -0.21059397 0.37020969
-0.37252921 -0.10000518 0.40954065
-0.33027279 -0.12694933 0.36805344
-0.36903203 -0.043469224 0.38114738
-0.36878216 0.026452031 0.37911797
-0.37093675 0.068758361 0.39661121
-0.3394323 0.096044794 0.36693382
-0.29813546 0.16575404 0.37139034
-0.24402992 0.22285821 0.39086771
-0.17509 0.26607367 0.40665197
-0.34648609 -0.1570707 0.42802048
-0.30427158 -0.19970717 0.43076372
-0.3929776 -0.11538579 0.45924282
-0.4049142 -0.058140874 0.44169617
-0.40435457 0.012946776 0.43741894
-0.3967095 0.089001566 0.45097733
-0.36247629 0.14089052 0.44310808
-0.31851959 0.18293728 0.43129444
-0.29077101 0.21164809 0.43724871
-0.26496607 0.24197738 0.46523619
-0.20748873 0.27031738 0.46178293
-0.26802975 -0.24636236 0.49840069
-0.41945469 -0.16187365 0.55280495
-0.3750388 -0.17948595 0.50778294
-0.32590103 -0.21757613 0.49978399
-0.44529319 -0.10274006 0.52796888
-0.41288185 -0.13104688 0.50257874
-0.45061612 -0.037163287 0.51355553
-0.4533186 0.023146946 0.51548052
-0.44504249 0.086315043 0.52615881
-0.41897142 0.16003427 0.5491128
-0.38477594 0.16542268 0.5085907
-0.36076236 0.21869391 0.55165625
-0.31288528 0.23093176 0.51405382
-0.30461317 -0.2511149 0.57556725
-0.44270951 -0.17923631 0.61683989
-0.3642512 -0.22199926 0.58187151
-0.46702987 -0.1185733 0.57804728
-0.51752871 -0.015474041 0.61928034
-0.48037618 -0.059601802 0.56895304
-0.51663458 0.02915246 0.61347246
-0.47860676 0.043148197 0.55685472
-0.48203701 0.0877809 0.58030796
-0.48771071 0.13347684 0.61909866
-0.44474357 0.16230501 0.59554291
-0.33661431 0.25125808 0.59919167
-0.34534842 -0.2575607 0.68023491
-0.40187514 -0.2255522 0.64779949
-0.5084452 -0.12064926 0.65721655
-0.52007759 -0.060382687 0.63583469
-0.5224821 0.08972618 0.6514535
-0.4980762 0.16654018 0.68996859
-0.46619582 0.19627535 0.67882156
-0.38754863 0.2401215 0.65418625
-0.50186116 -0.16814908 0.71584702
-0.47036064 -0.1983622 0.70887852
-0.56558812 -0.030836798 0.73228216
-0.56565076 0.030558031 0.73266935
-0.57049692 0.077211753 0.76264763
-0.53623384 0.13816026 0.74077272
-0.4390589 0.22798994 0.70260906
-0.57594991 -0.10893903 0.79638004
-0.54304993 -0.1397448 0.78504467
-0.57128447 -0.077339359 0.767519
-0.57466799 0.10890114 0.78845024
-0.54748386 0.17226225 0.81384373
-0.51859015 0.20443378 0.83022356
0 0 0 1 0 0 0 1 0 0 0 1 0 0 0 0 0 284 1 0 0
