# .PCD v0.7 - Point Cloud Data file format
VERSION 0.7
FIELDS x y z normal_x normal_y normal_z curvature
SIZE 4 4 4 4 4 4 4
TYPE F F F F F F F
COUNT 1 1 1 1 1 1 1
WIDTH 591
HEIGHT 1
VIEWPOINT 0 0 0 1 0 0 0
POINTS 591
DATA ascii
0.13848969 -0.15127142 -0.1144323 -0.41079822 0.44829094 0.7939018 0.0009641911
0.14202714 -0.15144181 -0.112694 -0.4158425 0.44003448 0.79589236 0.00086725608
0.36046818 -0.15658072 -0.11890411 -0.71135354 0.32263711 0.62440485 7.5407697e-06
-0.37050116 -0.14398053 -0.11325876 0.73113829 0.27488106 0.62440151 0
-0.14332616 -0.14567925 -0.1144895 0.42087761 0.43767112 0.79454768 0.00061119988
0.14725611 -0.14402238 -0.11320929 -0.44211334 0.41920635 0.7929703 0.00073213998
0.37321055 -0.14275911 -0.11152911 -0.71131021 0.32264629 0.62444949 2.7865821e-05
-0.157351 -0.13004731 -0.11441046 0.47933418 0.3727513 0.79454094 0.00028417882
-0.14749554 -0.13291834 -0.11930005 0.45975465 0.38348448 0.80097777 0.00052474102
0.14489079 -0.13656566 -0.11826755 -0.44887593 0.40899506 0.79450196 0.00046181533
0.36962438 -0.13835949 -0.11788822 -0.71134901 0.32266355 0.62439638 1.4849691e-05
0.37259245 -0.13279842 -0.11738039 -0.71350384 0.31075874 0.62796599 0.00028360769
-0.16903406 -0.1234512 -0.11004717 0.4949182 0.35830072 0.79162902 1.3504148e-05
-0.15551721 -0.12533014 -0.11767735 0.48066351 0.37011018 0.79497242 0.00031642325
0.1615445 -0.12752244 -0.11277051 -0.4748731 0.38385841 0.79192698 4.7337613e-05
0.37635493 -0.12522408 -0.11700784 -0.73205549 0.26736662 0.62658584 0.001069304
-0.38212273 -0.11655717 -0.11172201 0.73112136 0.27486739 0.62442732 2.7096852e-05
-0.37833327 -0.11493264 -0.11687452 0.73114419 0.27481368 0.62442422 0
-0.16285744 -0.11538008 -0.11754195 0.49634632 0.35507551 0.79218793 0
-0.15838856 -0.11938545 -0.11854562 0.49086154 0.35816935 0.79421008 6.0406383e-05
0.16929749 -0.11761544 -0.11299926 -0.49917513 0.35657552 0.78973293 0.00073295616
0.17276132 -0.11534441 -0.11204682 -0.50836986 0.34451225 0.789222 0.00060176256
-0.38911384 -0.10141599 -0.11020075 0.74590832 0.22556119 0.626692 0.00063083414
-0.37859759 -0.10834879 -0.11946326 0.73261774 0.26840043 0.62548584 2.8857792e-05
-0.17458086 -0.10506142 -0.11482424 0.50821245 0.33463204 0.79356253 0.00029197993
-0.16753228 -0.1056882 -0.11896157 0.50155258 0.33588928 0.79725993 0.00041176754
0.16974218 -0.10967407 -0.11662046 -0.50478202 0.33930174 0.79376912 0.00063978526
0.17501244 -0.10266656 -0.11584022 -0.53179228 0.30536997 0.78990263 0.00067376497
-0.38815725 -0.092811853 -0.11510845 0.75089753 0.19079535 0.63225794 0.001260339
0.18435629 -0.09229207 -0.11258335 -0.54640079 0.26690075 0.79385781 0.00021063452
0.38441381 -0.096974447 -0.11623712 -0.76596916 0.15142654 0.62478894 0.00029906593
-0.39384863 -0.082280964 -0.11009312 0.77051342 0.12660994 0.6247232 0.00044240706
-0.1859225 -0.085278876 -0.11410709 0.55854839 0.24798903 0.79153347 0.00049896218
0.18624702 -0.083469555 -0.1140655 -0.55687428 0.25063291 0.79188013 1.3380371e-05
0.39125079 -0.082456045 -0.11076446 -0.77058244 0.12757015 0.62444264 3.8077007e-05
-0.18901297 -0.07438118 -0.11483331 0.57158232 0.2148627 0.79191381 0
0.18407971 -0.072694853 -0.11901879 -0.54827321 0.24472152 0.79969239 0.00015831787
0.19199038 -0.074015364 -0.11304367 -0.56404632 0.22305955 0.79504472 0.00049722381
-0.39371094 -0.064604387 -0.11242342 0.77695221 0.078849994 0.6246022 2.3160546e-05
-0.19534349 -0.065644883 -0.11263482 0.57408708 0.197547 0.79460627 0.00014826481
-0.18772177 -0.066898756 -0.11779523 0.56742305 0.205483 0.79737562 0.0001070067
0.18578163 -0.069864541 -0.11872514 -0.55510437 0.22915597 0.79959166 0.00051343581
0.19236265 -0.064048782 -0.11595639 -0.56298655 0.19376206 0.80343163 0.0010368043
0.38829327 -0.068520866 -0.1172611 -0.77060848 0.12754533 0.62441558 0
-0.39255524 -0.057099737 -0.11477892 0.77736312 0.076261736 0.6244123 0
-0.19745804 -0.059691194 -0.11272401 0.57601941 0.18609494 0.79597133 0.00024567562
0.19482261 -0.057491485 -0.11599191 -0.56796962 0.15781538 0.80777776 0.00087451894
0.39342758 -0.05538952 -0.11360657 -0.77062011 0.1275623 0.6243977 0
-0.19594714 -0.042464122 -0.11787198 0.59567273 0.13180152 0.7923398 0.00083095208
0.19628905 -0.045227129 -0.11642041 -0.58705789 0.12785697 0.79938459 0.00048925687
-0.39206821 -0.033235863 -0.11829979 0.77740335 0.076247573 0.6243639 0
-0.20221791 -0.036214557 -0.11353068 0.60453713 0.097342268 0.79060692 0.00058557646
-0.1961152 -0.037126087 -0.11814485 0.60036427 0.11562294 0.79132426 0.00078919163
0.19629052 -0.039569259 -0.11713156 -0.59415591 0.10807006 0.79705685 9.0071844e-05
0.20332812 -0.032357235 -0.11268625 -0.60267138 0.098953038 0.79183042 3.859264e-05
0.39234442 -0.030940995 -0.11993735 -0.77162814 0.10873552 0.62671095 0.00027871257
-0.39290339 -0.024086282 -0.11837746 0.77740347 0.076258332 0.62436253 0
-0.19709568 -0.025746314 -0.11824907 0.60598868 0.06214137 0.7930423 9.387406e-06
0.19640236 -0.020810353 -0.11940807 -0.59909624 0.070452675 0.79757136 0.00040434266
-0.39662978 -0.0147102 -0.11488322 0.77735835 0.07626266 0.62441826 0
-0.20458689 -0.016564775 -0.11319199 0.60767102 0.059610602 0.79194862 0
-0.19955036 -0.011614989 -0.11742922 0.60552347 0.043301124 0.79464859 0.0003321626
0.20450097 -0.015254841 -0.11394713 -0.60254467 0.05730591 0.7960251 0.00060948031
0.39710853 -0.01328053 -0.11741746 -0.77267772 0.020219969 0.6344763 0.0013732119
0.40218258 -0.011616656 -0.11118526 -0.77269083 0.010893863 0.63468903 0.0015868994
-0.39657688 -0.003272661 -0.11634596 0.78056639 0.042363435 0.62363559 0.00046016541
0.20611684 -0.0021133227 -0.11342397 -0.60497177 -0.0044905655 0.79623425 0.0005290269
0.39732301 -0.005919002 -0.11653965 -0.77496123 -0.019210875 0.63171673 0.0011204624
-0.39578256 0.0094866063 -0.11889325 0.77825451 -0.0039703026 0.62793654 0.0015843782
-0.2003973 0.0036173477 -0.11792594 0.60480893 -0.0079653058 0.79633075 0.00072461605
-0.19884318 0.00042904401 -0.11887848 0.59920269 0.0057418207 0.80057675 0.00063028518
0.20584057 0.0063153738 -0.11300151 -0.59964955 -0.014730854 0.80012715 0.00047180569
-0.3986153 0.011453986 -0.11560672 0.78025562 -0.0074831285 0.62541604 0.0015187697
-0.20250757 0.015955659 -0.11537522 0.60559362 -0.062245633 0.79333591 0.00050551101
0.20395988 0.013224048 -0.11392456 -0.6080671 -0.051102232 0.79223925 0.00013017363
0.39396951 0.016396953 -0.11798926 -0.77748889 -0.075608306 0.62433517 5.0388239e-06
-0.40083158 0.027161378 -0.11023448 0.77015942 -0.10785751 0.62866628 0.00031120874
-0.39529091 0.024972258 -0.11751994 0.7699396 -0.073784798 0.63383663 0.0011249006
-0.20109484 0.020999022 -0.11581492 0.60549563 -0.079941332 0.79182345 0.00022465334
0.39476731 0.025154408 -0.11592638 -0.77734435 -0.076269597 0.62443471 8.4817257e-06
-0.39175037 0.039138645 -0.11899602 0.7700994 -0.12256704 0.62603855 0.00011721708
-0.20348966 0.031761426 -0.11263837 0.6026153 -0.093626454 0.79252064 1.0299741e-05
-0.19257884 0.039406773 -0.11997536 0.59117174 -0.11277295 0.79862279 0.00023772927
0.20324332 0.036348924 -0.11273374 -0.59802949 -0.094020203 0.79594022 0.00040660822
-0.39471537 0.044106349 -0.11432187 0.77061117 -0.12753807 0.62441361 0
-0.20311616 0.041153986 -0.11174005 0.60146117 -0.11050367 0.79122275 0.00011289947
-0.19799359 0.045274258 -0.11511789 0.59841108 -0.11397262 0.79304129 9.9423771e-05
0.19814193 0.042077731 -0.11621695 -0.58843327 -0.11828817 0.79984629 0.000659007
0.39362323 0.044990342 -0.11492819 -0.77737164 -0.076255128 0.62440252 0
0.18849361 0.059050657 -0.11936742 -0.57454509 -0.19195288 0.79564565 0.00035918423
0.20185731 0.054132577 -0.11105717 -0.58287877 -0.17075321 0.79441535 0.0003244215
0.38859254 0.057490621 -0.11966476 -0.77734202 -0.076290101 0.62443519 0
0.39128062 0.054434925 -0.11669127 -0.7773425 -0.076274388 0.62443638 0
-0.39387295 0.06360472 -0.11137883 0.77061212 -0.12754273 0.62441146 1.6967469e-05
-0.38975483 0.063402198 -0.11650275 0.77055043 -0.12752268 0.62449175 9.3859933e-05
-0.1949597 0.064345159 -0.11403845 0.57646263 -0.18981065 0.79477221 0.00081605185
0.19266219 0.064658523 -0.11483752 -0.57281905 -0.21097769 0.79206491 4.0400155e-05
0.38986176 0.065454438 -0.11711195 -0.77725655 -0.076881543 0.62446886 8.419961e-06
0.39253774 0.064589925 -0.11388586 -0.77723205 -0.076803111 0.62450916 0
-0.39127257 0.073878497 -0.11248966 0.77059871 -0.12756048 0.62442446 0
-0.38981688 0.075256392 -0.11400485 0.77059621 -0.12754126 0.62443149 5.7981877e-05
-0.19373445 0.074827857 -0.11156029 0.55551517 -0.24383092 0.79495245 0.00014362283
-0.18463537 0.072715506 -0.11862205 0.55172193 -0.23945543 0.79891413 0.00022630731
0.18399766 0.077721633 -0.11754659 -0.55945224 -0.22888385 0.79663378 0.00029732208
0.39038402 0.078796118 -0.11483225 -0.76499099 -0.11649208 0.63341802 0.00071697339
-0.18104193 0.080838189 -0.11855834 0.54743659 -0.24888255 0.79898095 0.00016780809
0.17812604 0.085644424 -0.11963461 -0.54557717 -0.2329904 0.80502242 0.0004482462
0.18268751 0.086643338 -0.1160716 -0.55490148 -0.23329678 0.79853433 0.00044257834
0.38924104 0.086424172 -0.11532363 -0.76283687 -0.13979083 0.63129896 0.0012170632
0.39383876 0.081130169 -0.110246 -0.76308703 -0.12008411 0.63504171 0.00096329633
-0.38836101 0.092150964 -0.11235076 0.76788419 -0.13414209 0.62638628 3.3668995e-05
-0.18512759 0.094981164 -0.11118536 0.5435316 -0.26987952 0.79481971 0.00024648086
-0.17872545 0.097457856 -0.11489193 0.54150212 -0.2728698 0.79518402 0.00023748053
0.17722221 0.094574809 -0.11786403 -0.53469443 -0.29387826 0.79229879 0.00083613751
0.38828945 0.090800844 -0.1158034 -0.75608253 -0.1784289 0.62968433 0.0015035903
-0.38271666 0.10315894 -0.11706853 0.76562339 -0.15071292 0.62538499 0.00032982952
-0.18173146 0.10432448 -0.11059438 0.5249716 -0.30017123 0.79643077 0.00061086967
-0.17733064 0.10844791 -0.11237125 0.52217484 -0.3136442 0.79307044 0.00072666217
-0.16892178 0.10886005 -0.11750762 0.50540733 -0.33055511 0.79705495 0.00069617643
0.17842692 0.10556175 -0.11218859 -0.51385778 -0.32050005 0.79575735 0.00081053475
0.3786335 0.10946468 -0.11892994 -0.73276001 -0.26795906 0.62550837 0.00011020571
0.38403666 0.10373141 -0.11512679 -0.74683106 -0.23392038 0.62251478 0.00083825795
-0.37732559 0.11803458 -0.11961702 0.7461074 -0.26333994 0.61153561 0.0011977478
-0.17242619 0.11851469 -0.11069509 0.50103295 -0.35052106 0.79126543 0.00080266083
-0.16799352 0.11750679 -0.11382935 0.49330485 -0.35904127 0.79230028 0.0006684002
0.16549884 0.11597574 -0.11561873 -0.49449503 -0.35737568 0.79231137 0
0.37834167 0.11700909 -0.11595061 -0.73121434 -0.27465987 0.62440985 6.5077351e-05
-0.38047642 0.12037746 -0.1148167 0.73502439 -0.26294339 0.62497997 0.0012639783
-0.16516088 0.1240987 -0.11229126 0.47714925 -0.3819024 0.79150426 0.00012085381
-0.15139484 0.12704879 -0.11904953 0.46415782 -0.3858282 0.79730433 0.00017241563
0.15727535 0.12738962 -0.11565079 -0.48197231 -0.37129864 0.79362464 0.00029673602
0.16412102 0.12449512 -0.11265852 -0.48607045 -0.3640911 0.79446411 0.00013950802
0.37230316 0.12681694 -0.11870411 -0.73109406 -0.27487934 0.62445396 9.1453527e-05
-0.37346759 0.13648026 -0.11448077 0.71275902 -0.32075623 0.62377077 2.7327718e-05
-0.36983353 0.13742988 -0.11813033 0.7113297 -0.32265633 0.62442213 4.7510443e-05
-0.1527994 0.13611239 -0.11377736 0.46432039 -0.39326826 0.79356587 0.0001048755
-0.14920074 0.13783589 -0.11507807 0.45737499 -0.39817327 0.79515171 0.00022443403
0.14488983 0.13748632 -0.11830539 -0.43611479 -0.4245685 0.79343909 0.0010016849
0.15683822 0.13380271 -0.11304628 -0.46825269 -0.38749611 0.79409456 0.00056133588
0.16095339 0.13223034 -0.1111723 -0.475777 -0.37496206 0.79563791 0.00031031211
0.37422466 0.1335167 -0.1135048 -0.73112839 -0.27486253 0.62442118 0
-0.37198922 0.14292623 -0.11283424 0.7113474 -0.32263473 0.62441313 0
-0.36734632 0.14589252 -0.11659101 0.71134675 -0.32265851 0.62440151 4.0830702e-05
-0.13622513 0.14859417 -0.11712709 0.40039223 -0.4388113 0.80444437 0.00070975564
0.13845716 0.14484097 -0.11737162 -0.41319603 -0.44600672 0.793944 0.00046694168
0.14392121 0.14386155 -0.11528131 -0.4235824 -0.43362099 0.79533058 0.00078883598
0.36725259 0.14943995 -0.11465947 -0.73110539 -0.27490556 0.62442929 3.9974686e-05
0.37035656 0.14623359 -0.11243625 -0.73108763 -0.27493313 0.62443799 7.4732423e-05
-0.12951495 0.15496135 -0.11614745 0.37892401 -0.46990553 0.7972486 0.00059205724
0.12629271 0.15795508 -0.11551088 -0.38522199 -0.47471032 0.79136223 6.4633387e-05
0.13420546 0.15939504 -0.11078078 -0.38821101 -0.47109869 0.79205948 0
0.36848307 0.1540013 -0.11121067 -0.73112017 -0.27483392 0.62444341 5.6929741e-05
-0.3625493 0.1612872 -0.11410113 0.7113356 -0.32266074 0.62441307 6.4208907e-05
-0.35839683 0.16846904 -0.11512084 0.7113061 -0.32268921 0.62443197 3.5242407e-05
-0.12097128 0.16703734 -0.11241199 0.35546935 -0.4964861 0.7919237 0
-0.11375326 0.16628549 -0.11612314 0.34922507 -0.49901533 0.79311126 3.0776391e-05
-0.10863443 0.16913232 -0.11663609 0.34341615 -0.50282711 0.79324031 0.0001192791
0.11723046 0.1688669 -0.11344419 -0.361718 -0.49495673 0.79004931 0.00043369384
0.12715045 0.16087109 -0.11335376 -0.38468847 -0.47407117 0.79200464 7.2919807e-05
-0.35762036 0.17540538 -0.11242118 0.71134633 -0.32264802 0.62440741 0
-0.1140084 0.17418616 -0.11105578 0.34284419 -0.50582963 0.79157704 0.00012743234
-0.10570616 0.17226559 -0.11598624 0.33349812 -0.51121211 0.79211181 0.00038478393
-0.091788426 0.17802894 -0.11803778 0.26885223 -0.54570007 0.7936812 0.00091657799
0.092308521 0.17727524 -0.11755014 -0.2707853 -0.54620624 0.79267526 0.00023478514
0.10397846 0.17734221 -0.11378655 -0.31265235 -0.51680535 0.79696971 0.00068584853
0.11189093 0.17771694 -0.11069372 -0.33137056 -0.50687438 0.79578376 0.00086425693
0.3537153 0.17397353 -0.11971162 -0.71754557 -0.29453364 0.63117212 0.00026517178
-0.10366236 0.18211001 -0.11073226 0.30865744 -0.5291332 0.79041046 0.00088284665
-0.096643299 0.18644555 -0.11064637 0.27640846 -0.53801578 0.79632741 0.00090818264
-0.082251869 0.18712536 -0.11406025 0.23248248 -0.55989873 0.79527688 0.00032967114
-0.071365327 0.18429853 -0.11905394 0.21430871 -0.56791198 0.79469973 4.3239907e-05
-0.063936204 0.18765873 -0.11864448 0.20612578 -0.56815875 0.79668552 0.0001137752
0.075430691 0.18743424 -0.11579207 -0.24846832 -0.55520529 0.79373205 2.7094931e-05
0.084612302 0.18238479 -0.11641349 -0.25225493 -0.55445445 0.79306227 1.8809216e-05
0.090405062 0.18664691 -0.11157593 -0.25336891 -0.55549884 0.79197544 1.778469e-05
0.10046151 0.18277802 -0.11108979 -0.27385747 -0.54051059 0.79551888 0.00037101656
0.34922856 0.18999591 -0.11690287 -0.67404032 -0.38071233 0.63303059 0.0011639737
0.35346422 0.18394829 -0.11561465 -0.70442832 -0.34177142 0.6220715 0.00086358719
-0.35067317 0.19186935 -0.11182846 0.70527124 -0.33092651 0.62696099 0.00011937605
-0.072999753 0.19549055 -0.11053325 0.21487395 -0.57150131 0.79196936 1.272527e-05
-0.063940257 0.19308659 -0.1147261 0.19975141 -0.57656842 0.7922551 0.00022412505
-0.059022427 0.19764228 -0.1127725 0.17835279 -0.58268231 0.7928881 0.00052567513
-0.042007271 0.1955229 -0.1182319 0.12033121 -0.58579659 0.80147535 0.00086974789
-0.033580255 0.19737169 -0.1174476 0.097189151 -0.59416837 0.79844743 0.00051215617
-0.02949618 0.19834146 -0.11701091 0.077083558 -0.60266495 0.79426259 0.00036564629
-0.017116923 0.19715929 -0.11884983 0.058076501 -0.60805023 0.79177147 0
0.0055767475 0.19909588 -0.11907205 -0.017579623 -0.6045202 0.79639578 0.00086115825
0.044666145 0.19618627 -0.11656922 -0.11152399 -0.59072238 0.79913044 0.00016083312
0.064524807 0.19578302 -0.11340313 -0.20851043 -0.57500982 0.79113036 0.00047902414
0.34675515 0.19373591 -0.11669493 -0.66807294 -0.39520702 0.63046801 0.001179977
-0.34491587 0.20295832 -0.11265756 0.68799746 -0.36239147 0.6287542 0.00078927836
-0.053153794 0.20248252 -0.11087151 0.17307936 -0.58670038 0.7910918 0.00057834818
-0.047408737 0.20364819 -0.11158891 0.16079293 -0.59215355 0.78962004 0.00048204849
-0.037083443 0.20195138 -0.11366978 0.10539562 -0.5972814 0.79507655 0.00072484219
-0.01551987 0.20712148 -0.11132579 0.058994155 -0.60757822 0.79206586 0
-0.0027613423 0.20205003 -0.11617762 0.014227333 -0.60437632 0.79657191 0.00067251542
0.0053910371 0.20225039 -0.11645402 -0.016622117 -0.60355854 0.79714537 0.00080150412
0.015950324 0.20412473 -0.11414579 -0.06868808 -0.60897511 0.79020965 0.00041426567
0.023063388 0.20433795 -0.11308812 -0.081931576 -0.60304564 0.79348797 0.00029717869
0.033477332 0.20031624 -0.11483628 -0.097238638 -0.60292298 0.79185128 5.3193867e-06
0.049043793 0.20383078 -0.11020322 -0.13025197 -0.59842849 0.79051733 0.00059759378
0.34238002 0.20345476 -0.11406705 -0.64328063 -0.44359744 0.62402827 0.00019984698
-0.33442917 0.21559949 -0.11600512 0.63789129 -0.43652603 0.63446015 0.0012709377
0.32528871 0.21951798 -0.11975294 -0.63508582 -0.45475903 0.62438798 1.0036732e-05
0.33266318 0.21337433 -0.11672627 -0.63508111 -0.45471862 0.62442213 3.6720336e-05
-0.33278996 0.22165391 -0.11278257 0.6193732 -0.47684908 0.6236921 0.00055842404
-0.32442933 0.22527252 -0.11799178 0.60442984 -0.49480787 0.62436348 0
0.32383528 0.22764294 -0.11531404 -0.63506401 -0.45476651 0.62440455 0
-0.32173586 0.23734015 -0.11101395 0.60365742 -0.49575707 0.62435776 0
0.31857485 0.23701021 -0.11384274 -0.6350953 -0.4547157 0.62440979 0
-0.31469193 0.24424623 -0.11234003 0.60356885 -0.49580458 0.62440556 0
-0.30666226 0.24699509 -0.11791992 0.60367405 -0.49585316 0.62426549 0
0.31237251 0.24649225 -0.11324589 -0.63509309 -0.45471048 0.62441581 0
-0.30440286 0.25517619 -0.11360833 0.60373932 -0.49584523 0.62420857 0
-0.29539543 0.25913733 -0.11917084 0.60355657 -0.49572435 0.62448126 8.3473358e-05
0.30367324 0.25233328 -0.11784039 -0.63345557 -0.45619282 0.62499774 0
-0.29148823 0.26623517 -0.11731239 0.60362208 -0.49575779 0.62439132 7.5975586e-06
-0.28933668 0.26703447 -0.11875765 0.60275429 -0.49681571 0.62438881 0
0.29599512 0.2655378 -0.11603369 -0.60403734 -0.4881652 0.62994736 0.00085755822
-0.28320312 0.27466568 -0.11862793 0.59511846 -0.5086562 0.62217599 0.00029108237
0.28360754 0.27685279 -0.11766709 -0.54402471 -0.57679176 0.6093837 0.00083911192
0.29330638 0.27201214 -0.11405341 -0.57234925 -0.53083098 0.62500781 0.0016576791
-0.27825832 0.28419796 -0.11583962 0.56565583 -0.54078507 0.62256324 0.001232886
0.27683076 0.284174 -0.11597033 -0.50774205 -0.59850818 0.61966604 0.00031297276
-0.2715266 0.29067454 -0.11707536 0.53328449 -0.57958138 0.61619246 0.0018328808
-0.26337001 0.29539153 -0.11822634 0.49056321 -0.6090548 0.62321752 0.0012590415
0.26973552 0.29451254 -0.11160944 -0.4957366 -0.60356575 0.62446266 8.3087194e-05
0.27247152 0.2908693 -0.11295906 -0.49832156 -0.60229415 0.62363237 9.1057555e-06
-0.25515762 0.30303392 -0.1164338 0.46421078 -0.62886065 0.62373281 0.00027007202
-0.24926132 0.30730867 -0.11637989 0.4547902 -0.63509512 0.62435585 0
0.24709316 0.3078413 -0.11670224 -0.4957554 -0.60357559 0.62443823 5.3066109e-05
0.25486007 0.30141979 -0.11674313 -0.49577045 -0.60358739 0.62441486 1.986572e-05
-0.24275345 0.31403288 -0.11427993 0.45472571 -0.63508618 0.62441164 4.9092858e-05
-0.23640981 0.31822103 -0.1146398 0.45477763 -0.63508672 0.62437344 0
-0.22968501 0.31822497 -0.11953339 0.45477927 -0.63505393 0.62440562 0
0.23810542 0.3128081 -0.11903699 -0.49575254 -0.60360825 0.62440902 3.9684564e-06
0.24503127 0.31204155 -0.11427892 -0.49577013 -0.60357797 0.62442422 3.9199595e-06
0.23070797 0.32051855 -0.1174567 -0.49583444 -0.60367036 0.62428373 0
-0.21487397 0.33259344 -0.11570509 0.45476645 -0.6350401 0.62442893 0
-0.20449486 0.33911377 -0.11663178 0.44038159 -0.64618534 0.62330455 0.00025628108
0.20470464 0.33906353 -0.11842263 -0.3889519 -0.67291683 0.62920529 0.0012496196
0.21573924 0.33579174 -0.11457694 -0.42758843 -0.65722728 0.62066126 0.0013552535
-0.19674884 0.34729514 -0.11395142 0.41550705 -0.65595543 0.63013995 0.0007579634
0.18980648 0.34867477 -0.11517118 -0.33077791 -0.70820481 0.62372422 0.00011879014
0.19798136 0.34784806 -0.11188874 -0.34178457 -0.7002452 0.62676954 0.00034403181
0.20586418 0.34402335 -0.11217281 -0.36341161 -0.68962717 0.62637562 0.00061284
-0.18381134 0.35406092 -0.11497626 0.33526027 -0.69699079 0.63388044 0.0012056762
-0.17955846 0.3555724 -0.11507848 0.32563883 -0.69829983 0.63744545 0.0011432312
-0.16670287 0.35733497 -0.11867361 0.27538386 -0.73074377 0.62464178 1.7557797e-05
0.15786031 0.35948262 -0.11936577 -0.32266179 -0.71129906 0.6244542 0
0.16271719 0.35785687 -0.11870819 -0.32264635 -0.7113139 0.62444532 5.4309927e-05
0.17170133 0.35690981 -0.11514473 -0.32262099 -0.71135062 0.62441653 2.2416778e-05
-0.17415515 0.36087269 -0.11125049 0.29100823 -0.72095811 0.62891459 0.00043918009
-0.15462333 0.36427286 -0.11586694 0.27490604 -0.73110485 0.6244297 1.731203e-05
-0.14456353 0.36997256 -0.1136211 0.27488726 -0.73113585 0.62440163 0
-0.13808939 0.3682048 -0.11854105 0.27483514 -0.73118186 0.62437069 4.1726694e-06
0.14581548 0.36678767 -0.11726727 -0.32267287 -0.71130919 0.62443686 0
0.15309954 0.36617523 -0.11420105 -0.32273132 -0.71130872 0.62440723 0
-0.13897748 0.37392777 -0.11144859 0.27487481 -0.73111922 0.62442654 0
-0.12348787 0.37731755 -0.11429785 0.27485636 -0.73112082 0.6244328 1.6196131e-05
-0.11598899 0.37979928 -0.11469281 0.27490571 -0.73106927 0.62447149 8.5908607e-05
0.13659596 0.37178639 -0.11633638 -0.31969938 -0.71117151 0.62612092 7.1057642e-05
-0.10562697 0.38427883 -0.1140088 0.24497397 -0.74027848 0.62607956 0.00054274051
-0.097865723 0.38607436 -0.11532278 0.21116377 -0.74846727 0.62865466 0.0010446602
-0.063645124 0.38773429 -0.11998162 0.076257683 -0.77739197 0.62437689 2.0693626e-05
-0.057835229 0.38909695 -0.1189947 0.076229751 -0.77732044 0.62446934 4.0308456e-05
0.074915469 0.3860907 -0.11867331 -0.1275212 -0.77059788 0.62443358 1.9335854e-05
0.097251333 0.38616842 -0.11401506 -0.14502133 -0.76914018 0.62240845 0.00031493179
0.11588593 0.38400996 -0.11287266 -0.22393462 -0.7501837 0.62215561 0.0015914856
0.12596138 0.38158453 -0.11066887 -0.27645838 -0.72808123 0.62727064 0.0010595688
-0.077541947 0.39318696 -0.1114957 0.1109618 -0.76227868 0.6376667 0.00079830899
-0.052888036 0.3966504 -0.11019472 0.076278798 -0.77739239 0.62437385 1.2373983e-05
-0.042236984 0.39281192 -0.11627455 0.076272227 -0.77735537 0.62442064 0
-0.032389585 0.3951385 -0.11458059 0.076268435 -0.77734154 0.62443835 3.3280419e-05
-0.023606462 0.39401227 -0.11705548 0.076274373 -0.77735245 0.62442398 0
-0.005465813 0.39719546 -0.11530795 0.069659516 -0.77661127 0.62611711 0
0.0044252649 0.39742377 -0.11623174 0.018901564 -0.77714163 0.62904179 0.0012636692
0.01266061 0.39743218 -0.11699925 -0.017363356 -0.78302217 0.62175137 0.0014998877
0.02525037 0.39717785 -0.11513426 -0.094489105 -0.77672863 0.62270737 0.00052153919
0.033721086 0.39964139 -0.1103635 -0.11265231 -0.7742337 0.6227935 0.00017822901
0.044526108 0.39323726 -0.11606042 -0.12754136 -0.77063859 0.62437916 0
0.054913729 0.39390171 -0.11311855 -0.12754332 -0.77063006 0.62438941 0
0.060644176 0.39316794 -0.11285366 -0.12752917 -0.7706185 0.6244064 0
0.081278838 0.39175352 -0.11038445 -0.12752992 -0.7705943 0.62443632 0
-0.010557472 0.40016466 -0.11098939 0.075610831 -0.77731091 0.62455642 0
0.0083823362 0.40176466 -0.11131055 0.00082260201 -0.78357613 0.62129521 0.0012636986
-0.012198132 -0.41097739 -0.1003066 0.019702677 0.78489971 0.61930954 0.0015223956
-0.06604597 -0.40233424 -0.10043719 0.12668633 0.77297395 0.62166053 6.8021101e-05
-0.03613916 -0.40635091 -0.10158864 0.12606975 0.77098227 0.62425381 1.7539236e-05
-0.024885599 -0.40409219 -0.10667504 0.081387043 0.77338117 0.62869525 0.00083145569
-0.016146798 -0.40678382 -0.10513803 0.044876639 0.78023261 0.62387753 0.0011626438
-0.00084678282 -0.40336186 -0.10840169 -0.039913535 0.7849887 0.61822307 0.00062055548
0.0055322731 -0.40591249 -0.10444698 -0.068143442 0.77914423 0.62312973 4.9219172e-05
0.014392014 -0.40373936 -0.1060705 -0.076263964 0.77736777 0.62440634 3.5340156e-05
0.025623687 -0.40214267 -0.10668663 -0.076258734 0.77738345 0.62438726 0
0.031075062 -0.40623203 -0.10092956 -0.077148303 0.78025889 0.62068033 5.033987e-05
0.053601835 -0.40287745 -0.10235474 -0.076238655 0.77733481 0.62445045 4.3897799e-05
0.064139538 -0.40027037 -0.10431363 -0.076255903 0.77735311 0.62442553 3.7114158e-05
0.074810714 -0.40194866 -0.10092084 -0.091845565 0.77439487 0.62600076 0.00019159977
-0.12141305 -0.39058214 -0.1027683 0.23481092 0.74885434 0.61974275 0.0015803914
-0.10584397 -0.39321297 -0.10356545 0.15703051 0.76749074 0.62152988 0.00066102773
-0.098960631 -0.39389908 -0.10412462 0.13287705 0.76987934 0.62420303 0.00011635917
-0.072003968 -0.39671424 -0.10615645 0.12756869 0.7705875 0.62443656 3.3160079e-05
-0.059466828 -0.39807343 -0.10703981 0.12755722 0.77057993 0.62444842 3.9051007e-05
0.047356986 -0.39928669 -0.10758804 -0.076242857 0.77738404 0.62438858 0
0.066512041 -0.39787024 -0.10701206 -0.07627067 0.77739835 0.62436736 0
0.078861609 -0.3992998 -0.10372393 -0.10300228 0.77601755 0.62224382 0.00050139666
0.084889084 -0.39522463 -0.10806147 -0.1289227 0.76429623 0.63184667 0.00093496119
0.091662556 -0.39891356 -0.10263807 -0.16117814 0.75570095 0.63477367 0.0015686463
-0.13778123 -0.3831569 -0.10276972 0.31554243 0.7148459 0.62404191 0.00010708663
-0.11760238 -0.38742557 -0.10830647 0.21414328 0.7475127 0.62878245 0.0018022474
0.10753843 -0.3872602 -0.10967617 -0.26354113 0.73498422 0.62477547 0.00018969679
0.11462583 -0.38766909 -0.10607746 -0.27275839 0.7325443 0.62368405 0
0.12391357 -0.38337547 -0.10701673 -0.27488536 0.73114443 0.62439239 0
0.13536075 -0.38131657 -0.10438856 -0.27487147 0.73114765 0.62439477 0
0.14254582 -0.38170862 -0.10076658 -0.27485001 0.73115897 0.62439096 0
-0.15176806 -0.37206012 -0.10818456 0.32266682 0.7113443 0.62440002 1.4624711e-06
0.14354232 -0.37886268 -0.10366045 -0.27487838 0.73114675 0.62439269 0
0.1534573 -0.37355143 -0.1055152 -0.27488542 0.73112464 0.62441552 0
-0.18158995 -0.36228219 -0.10391423 0.32273179 0.71129233 0.62442571 0
-0.17358822 -0.36115527 -0.10933296 0.32268298 0.71129996 0.62444216 3.3556949e-05
-0.16415639 -0.36647847 -0.10814209 0.32264188 0.71131593 0.62444526 5.999018e-05
0.17459483 -0.36716735 -0.10368601 -0.28115103 0.72923797 0.62383175 0.0001048176
0.18044269 -0.365233 -0.10337683 -0.30987695 0.71922141 0.62184948 0.00065196666
-0.19648762 -0.35241127 -0.10746182 0.33548671 0.70262975 0.6275031 0.00017960746
-0.18645617 -0.35788012 -0.10641491 0.3226805 0.71133238 0.62440652 0
0.1870456 -0.3581965 -0.10870986 -0.37516761 0.68024522 0.62969494 0.0010169975
0.19638233 -0.35759488 -0.10374197 -0.39126837 0.67277074 0.62792408 0.0011799951
0.20197579 -0.35108644 -0.10628842 -0.43099722 0.64717311 0.62881494 0.00052999117
-0.21906482 -0.34393188 -0.10406718 0.43750551 0.64787585 0.62357491 0.0010507724
-0.20525712 -0.34741583 -0.10862152 0.36576068 0.69099462 0.62349463 0.00081752904
0.2065331 -0.34428683 -0.10988563 -0.44537529 0.63874298 0.62741393 6.1099316e-05
0.21120816 -0.34376281 -0.10701387 -0.45080349 0.6373924 0.62490577 9.3818453e-05
-0.2284959 -0.33966914 -0.10069983 0.47236019 0.62357432 0.62292123 0.00045940335
0.22687325 -0.33438396 -0.10514504 -0.45474836 0.6350947 0.62438661 0
0.23534261 -0.33263955 -0.10075135 -0.45472696 0.63508904 0.62440795 9.8062119e-06
0.24955077 -0.32181033 -0.10141875 -0.45471817 0.63510275 0.62440038 2.4942099e-05
0.2503345 -0.32046676 -0.10221457 -0.45470518 0.63509297 0.62441981 3.3661094e-05
-0.24987662 -0.31350592 -0.10901609 0.49574786 0.60360658 0.62441427 2.9192148e-05
0.25684762 -0.31457353 -0.10346553 -0.45473126 0.6350807 0.62441331 0
-0.27221575 -0.30429068 -0.10018744 0.49602321 0.6041922 0.62362874 0
-0.26147524 -0.30776256 -0.10535903 0.4957301 0.60358411 0.62445009 5.5705736e-05
0.27485776 -0.30190715 -0.10323271 -0.48692942 0.60511166 0.62987268 0.00093387719
-0.28051895 -0.29200599 -0.10547057 0.50233936 0.59635752 0.62610924 0.00020583766
-0.27633026 -0.29644668 -0.10450344 0.4957945 0.60366964 0.62431628 0
0.27973351 -0.29888728 -0.10275017 -0.53706706 0.55852467 0.63214654 0.001574446
-0.29441342 -0.28358972 -0.10257453 0.53086573 0.57316476 0.62423044 0.00083279551
-0.28989238 -0.28736973 -0.10251002 0.52228522 0.58071524 0.62449014 0.0008124921
-0.2798779 -0.28935069 -0.10854646 0.50253057 0.59582549 0.62646222 0.00019335607
0.28238404 -0.28811163 -0.10874372 -0.58205122 0.52382213 0.62195408 0.0006193383
0.29675108 -0.28110155 -0.10042079 -0.60193127 0.4990021 0.62343854 6.4396467e-05
-0.30257386 -0.27567688 -0.10195804 0.58644623 0.51726568 0.62331134 0.0018598647
-0.29480293 -0.2761361 -0.10947083 0.54357916 0.5482927 0.63552874 0.0015067061
-0.30710861 -0.26708856 -0.1036002 0.61514896 0.47300363 0.63076097 0.00054470915
0.30501503 -0.26479149 -0.10538203 -0.6036464 0.49578708 0.62434465 0
0.31252491 -0.26125807 -0.1009276 -0.60368496 0.49579838 0.62429839 0
-0.32064039 -0.25283533 -0.10021669 0.6355564 0.45467931 0.62396693 0
0.32008082 -0.25056151 -0.1021162 -0.60364515 0.49571851 0.62440032 3.5216999e-05
0.31929103 -0.24742062 -0.10537355 -0.60360265 0.4957743 0.62439698 0
0.32324106 -0.24335656 -0.10478184 -0.60369182 0.49584228 0.62425679 0
-0.3272326 -0.23880115 -0.1037322 0.63507885 0.45472258 0.6244216 1.4416004e-05
0.32809249 -0.23810305 -0.10426315 -0.60372853 0.49565938 0.62436664 0
-0.33353636 -0.22597712 -0.10665982 0.63503045 0.4548265 0.62439513 0
-0.011631172 -0.22141638 -0.10153642 0.043434288 0.60453802 0.79539132 0.00097462011
-0.004458799 -0.22005732 -0.10290362 0.0082809031 0.61231899 0.79056746 0.0011003785
0.0060326508 -0.22122844 -0.10121527 -0.031786282 0.61111653 0.79090214 0.00043644698
0.3356154 -0.2284638 -0.10464413 -0.61967129 0.46907517 0.6292662 0.00052086572
-0.34337306 -0.21136773 -0.1072941 0.63530982 0.45347005 0.6250971 0
-0.33593568 -0.21972808 -0.10877036 0.63506377 0.45479318 0.62438548 0
-0.03405467 -0.21398591 -0.10436559 0.099698655 0.60240209 0.79194182 0
-0.022058975 -0.21828559 -0.1026051 0.070189655 0.60320085 0.79449487 0.00046506428
-0.0099943262 -0.2146952 -0.10685503 0.038238924 0.60215247 0.79746491 0.00086411688
0.0055542085 -0.21531695 -0.10578732 -0.025756264 0.61075914 0.79139745 0.00053449208
0.016456468 -0.21626763 -0.10423721 -0.054775149 0.60825688 0.791848 3.6114339e-05
0.021637572 -0.2156758 -0.10430133 -0.059612636 0.60767764 0.79194331 0
0.044351909 -0.21489492 -0.10319075 -0.10653832 0.60276717 0.79077256 0.00085758179
0.054980341 -0.21486843 -0.10143705 -0.17437229 0.57813478 0.79709131 0.00063465873
0.062647425 -0.21301122 -0.10069728 -0.19882587 0.57219356 0.79565245 0.00023957844
0.34747386 -0.21613368 -0.10291612 -0.66427672 0.40716985 0.62685663 0.0014297785
0.35127291 -0.21062332 -0.10145429 -0.68025506 0.38341504 0.62469673 0.0013038769
-0.35371324 -0.2026252 -0.10314362 0.65470642 0.4217208 0.62730473 0.00067383872
-0.34782037 -0.20870593 -0.10470905 0.64086384 0.44442746 0.62592149 8.3553801e-05
-0.08419963 -0.20460436 -0.10094318 0.25221685 0.55608833 0.79192954 0
-0.071438007 -0.20369825 -0.10564368 0.2129592 0.56866264 0.79452568 0.0007605225
-0.064913012 -0.20413829 -0.10741275 0.19935778 0.57468259 0.79372317 0.00065618166
-0.053498473 -0.20727411 -0.1070232 0.13646995 0.59368843 0.79303849 0.00051982776
-0.03397537 -0.20881888 -0.10830593 0.099649109 0.60242528 0.79193044 0
0.037319884 -0.20897144 -0.1082653 -0.084038422 0.60149598 0.79444325 0.00038051134
0.050735872 -0.20679958 -0.10841189 -0.15827703 0.58849257 0.79285872 0.00088048237
0.067876205 -0.20302066 -0.10648882 -0.21044344 0.57454377 0.79095703 3.1796986e-05
0.072452947 -0.20087375 -0.10679656 -0.21485403 0.57156473 0.79192907 0
0.083859123 -0.2016457 -0.10314487 -0.22024849 0.57053626 0.79118842 3.5953195e-05
0.093438819 -0.20202488 -0.10027219 -0.23325092 0.56246966 0.79323512 0.00024923438
0.34827945 -0.20842728 -0.10599951 -0.67783618 0.37032232 0.63513738 0.0010718341
0.3508932 -0.20445114 -0.10507628 -0.6832965 0.35443684 0.63834184 0.00088578154
-0.35574803 -0.19212349 -0.10872206 0.68071085 0.37559584 0.62893593 0.0012350851
-0.34984353 -0.19871818 -0.10992507 0.649095 0.42303035 0.63223493 0.00051678804
-0.1082873 -0.19256729 -0.10172381 0.29354331 0.52575159 0.79838437 0.00069268426
-0.095298104 -0.19812307 -0.1019595 0.25530541 0.55384606 0.79251105 4.9379767e-05
-0.077358127 -0.19797862 -0.10777438 0.23542604 0.5580256 0.79572737 0.0003024358
0.076223701 -0.1979259 -0.10790098 -0.21485992 0.57155889 0.79193163 0
0.084819645 -0.1973983 -0.1059496 -0.23026977 0.56392956 0.79306954 0.00028276609
0.10733193 -0.19062944 -0.10374445 -0.30337372 0.52259135 0.79678267 0.00080217671
0.3574374 -0.19342646 -0.10331747 -0.71132779 0.32267344 0.6244154 1.3093739e-05
-0.36586264 -0.18166313 -0.10210228 0.70792919 0.32516822 0.62697828 0.0006499904
-0.35915843 -0.18391472 -0.10896166 0.70184571 0.34011808 0.62588513 0.00095322478
-0.12348447 -0.18486243 -0.10085348 0.3536928 0.49531001 0.79345411 0.00059594901
-0.11844893 -0.18237352 -0.10480057 0.32906783 0.51087654 0.79417849 0.00098487071
-0.10512307 -0.18593562 -0.10738805 0.29645827 0.5361771 0.79033321 0.00068267219
-0.090477563 -0.18908086 -0.10984381 0.2592645 0.55232459 0.79228753 0.00010292199
0.10966352 -0.1818683 -0.10819015 -0.32130796 0.52097857 0.79078603 0.00065532711
-0.36909276 -0.17350282 -0.10191212 0.7244817 0.28852612 0.62600237 0.00016666843
-0.13248922 -0.17654653 -0.10140163 0.37162486 0.48220506 0.79333043 0.00031195607
-0.12487167 -0.17452492 -0.10633382 0.37177685 0.48745391 0.79004478 0.00030861865
-0.11896377 -0.1747539 -0.10908846 0.35231668 0.49664921 0.79322916 0.00059829652
0.11790974 -0.17643625 -0.10789411 -0.35024115 0.49834657 0.79308367 1.3084405e-05
0.13771614 -0.1705102 -0.10271893 -0.36754724 0.48571685 0.79308784 0.00030865031
0.35968173 -0.17983651 -0.10778296 -0.71133471 0.32266301 0.62441295 0
0.36156917 -0.17929617 -0.10591187 -0.71131206 0.32266095 0.62443972 4.1866246e-05
-0.13666403 -0.16546986 -0.10595825 0.38754985 0.47184837 0.79193699 1.7766602e-07
0.13693625 -0.16212371 -0.10832638 -0.38147634 0.46996278 0.79599667 0.00058397726
0.14797685 -0.1633368 -0.10261033 -0.41410494 0.4508191 0.79074603 0.00091120123
0.15187521 -0.16470921 -0.1000002 -0.41555157 0.44912997 0.79094827 0.00090028491
0.36738411 -0.16624668 -0.10603019 -0.7113359 0.3226499 0.62441832 1.382582e-05
-0.15680248 -0.15309687 -0.10347529 0.4311887 0.42735407 0.79463506 0.00074159488
-0.14753953 -0.15921052 -0.10436562 0.39710987 0.45678553 0.79602182 0.00027747315
0.15738079 -0.15086713 -0.10382741 -0.45024389 0.40533918 0.79560071 0.0005102838
0.37160602 -0.15700811 -0.10599416 -0.71132112 0.32266781 0.62442595 2.6868755e-05
-0.37653807 -0.14444509 -0.10598511 0.73114163 0.27485549 0.62440878 0
-0.1716 -0.14120929 -0.10046785 0.47884962 0.38149074 0.79067564 0.00029967725
-0.15359399 -0.14830005 -0.10790338 0.4433741 0.42176217 0.7909084 0.00095734291
0.15411593 -0.14545101 -0.10842305 -0.46141395 0.39883792 0.79248065 0.00022464195
0.16301784 -0.14455467 -0.10355783 -0.46817055 0.39015043 0.79284233 2.3662295e-05
0.37803972 -0.14055857 -0.10716443 -0.71131533 0.32270423 0.62441373 0
0.38141048 -0.14064983 -0.10327703 -0.71130216 0.32272044 0.62442029 0
-0.38650316 -0.13010588 -0.10062838 0.73106456 0.27486652 0.62449419 7.0672286e-05
-0.17206897 -0.13673371 -0.10218273 0.48842877 0.36542842 0.79240102 7.4787022e-05
-0.16494352 -0.13691722 -0.10656722 0.47687235 0.37836295 0.79336894 0.00035746596
-0.1582289 -0.13924871 -0.10973004 0.4694353 0.39110696 0.79162228 0.00040757199
0.16331996 -0.13626933 -0.10743233 -0.47043741 0.38847286 0.79232413 0
-0.38557744 -0.12125276 -0.1056096 0.73113042 0.27484146 0.62442815 0
-0.17026837 -0.1242753 -0.10890349 0.49491623 0.35827115 0.79164362 2.189354e-05
-0.16929553 -0.12351625 -0.10985404 0.4949182 0.35830072 0.79162902 1.3504148e-05
0.16893774 -0.12739968 -0.10842562 -0.47450626 0.38320631 0.79246247 5.5006003e-05
0.17467862 -0.12638925 -0.10549961 -0.48949751 0.36905721 0.79005629 0.00055069762
0.18314192 -0.12276676 -0.1022298 -0.49333659 0.36138245 0.7912153 0.00055255269
0.38565224 -0.12592208 -0.10605487 -0.7365126 0.27334094 0.61873579 0.00083806529
-0.39203417 -0.11441486 -0.10105892 0.73277467 0.27539811 0.62225175 1.6000993e-06
-0.19095239 -0.11326262 -0.10087998 0.51627123 0.32288668 0.79322654 0.00064743421
-0.1848284 -0.11136244 -0.10557195 0.50486302 0.33281708 0.79645848 0.0003052557
-0.17917332 -0.11281092 -0.10846689 0.50264823 0.33995593 0.7948426 0.00021397378
0.17624022 -0.11626902 -0.1095216 -0.50772882 0.33969647 0.79171818 0.00063466886
0.1861071 -0.11289579 -0.10479222 -0.52811944 0.30284503 0.79333144 0.00076358527
-0.39533615 -0.10234695 -0.10250469 0.74452537 0.22828209 0.62735093 0.00096119288
-0.38852444 -0.1037152 -0.10987878 0.74302328 0.23517889 0.62658393 0.00072893535
-0.19347011 -0.1045672 -0.10299566 0.53288251 0.28126621 0.79807609 0.0007384062
-0.18883902 -0.10494684 -0.10593738 0.51845378 0.29339227 0.8031978 0.00081282068
0.18840215 -0.10365555 -0.10612351 -0.53921944 0.27935258 0.79448378 0.00040310927
0.19507918 -0.1049156 -0.10103387 -0.53848517 0.27586839 0.79619747 0.00035452779
0.3911081 -0.10464701 -0.10640781 -0.76227456 0.16053069 0.62703055 0.00036027137
-0.39856979 -0.098056555 -0.10060684 0.74694204 0.1983867 0.63460249 0.0012583015
-0.19464768 -0.095269985 -0.10509948 0.54032934 0.25587562 0.80160582 0.00041772891
0.1955414 -0.092420943 -0.10468856 -0.5560925 0.25221238 0.79192805 0
0.394436 -0.096542686 -0.10395587 -0.76982987 0.13422178 0.62397629 0.00012868139
-0.39656499 -0.085224949 -0.10635165 0.76573682 0.12353358 0.63117862 0.00052982703
0.1970997 -0.08589787 -0.10567181 -0.55652565 0.25128061 0.79192001 0
0.39442092 -0.087592229 -0.10580276 -0.77056688 0.12758255 0.62445921 8.3785206e-05
-0.39691484 -0.076272994 -0.10700944 0.77363813 0.11694061 0.62274313 0.00060690992
-0.19968817 -0.077782199 -0.10620633 0.56908441 0.21969552 0.79238683 4.9373084e-05
-0.39707777 -0.062547296 -0.10848296 0.77736586 0.076258756 0.62440932 1.4259474e-05
-0.21218839 -0.063188091 -0.1011444 0.57631642 0.18254016 0.79657924 0.000423505
-0.20382792 -0.062895939 -0.10725743 0.57339483 0.18657896 0.79775107 0.00025474076
0.20894727 -0.061970584 -0.10468392 -0.57835394 0.16721986 0.7984637 0.00093540089
0.21098949 -0.067680299 -0.1017208 -0.57071483 0.20015949 0.7963798 0.00094544992
0.3989653 -0.068517074 -0.10409043 -0.77062315 0.12754096 0.62439823 3.2726119e-05
-0.40297097 -0.054154519 -0.10217085 0.77737319 0.076252095 0.62440085 1.3302063e-05
-0.21317968 -0.057698615 -0.10191835 0.58113933 0.17263353 0.79528284 0.00038590576
-0.20655772 -0.058074068 -0.10659553 0.57567054 0.17767769 0.79814416 0.00021232829
0.21199773 -0.057915758 -0.10287402 -0.58950478 0.14555818 0.79454201 0.00074552232
0.40073445 -0.056057215 -0.10445197 -0.77055794 0.12752429 0.62448221 7.5308555e-05
-0.40200293 -0.044513058 -0.10455362 0.77733988 0.076259181 0.62444162 4.505711e-05
0.2058638 -0.048650611 -0.10870626 -0.59369218 0.11876085 0.79588026 0.00035191013
0.2140663 -0.044333573 -0.10301041 -0.602072 0.10243029 0.79184425 1.6077616e-05
-0.40171051 -0.036575057 -0.10588716 0.77733725 0.076257512 0.62444502 5.583456e-05
-0.39886779 -0.034438461 -0.1096874 0.77738613 0.076259136 0.62438399 0
-0.21032321 -0.038318098 -0.10715292 0.60326511 0.10247267 0.79093027 0.0005348663
0.21433331 -0.033875119 -0.10412391 -0.60244042 0.098820582 0.79202276 1.2185847e-06
0.40050951 -0.034893148 -0.10905263 -0.77061802 0.1237646 0.62516409 5.1351475e-05
0.21330164 -0.023959039 -0.106157 -0.60240006 0.092137896 0.79285866 3.8733135e-05
0.40846911 -0.022432821 -0.10177406 -0.77858549 0.071883425 0.62340778 0.0016622564
-0.40229589 -0.016063519 -0.10766353 0.77737093 0.076264068 0.62440228 8.7221997e-06
-0.21636613 -0.015819397 -0.10420956 0.60776103 0.059238493 0.79190743 1.4586498e-05
0.21459946 -0.018366659 -0.10587384 -0.60292923 0.069515504 0.79476035 0.00038107325
0.22132465 -0.013700634 -0.10134564 -0.60698336 0.052504476 0.79297823 0.00068517192
0.40543136 -0.012654138 -0.10726718 -0.77992594 0.02806953 0.62524199 0.001571355
0.41035321 -0.012572546 -0.10112943 -0.78521222 0.023068886 0.61879694 0.0018019889
-0.40659744 -0.0050565884 -0.10365232 0.77996051 0.065830722 0.62235677 0.00010081078
-0.22332644 -1.0071322e-05 -0.10005874 0.60974222 0.021569338 0.79230618 0.00056879898
-0.21571025 -0.0035603768 -0.10563561 0.61433005 0.017341793 0.78885853 0.00053178461
0.21555954 -0.0063391263 -0.10649642 -0.60159433 0.024235103 0.79843402 0.00088942703
0.22096241 -0.0068742172 -0.10239094 -0.60082436 0.035691112 0.79858392 0.00086640927
0.40628803 -0.0027639838 -0.10499269 -0.78162289 -0.044693485 0.6221481 0.00086897257
-0.40597805 0.0060060732 -0.10577466 0.78342879 0.0085116699 0.62142336 0.0010390085
-0.22238196 0.0058668177 -0.10120279 0.61578238 -0.025354847 0.78750825 0.00081586879
-0.2146538 0.0017636366 -0.10684701 0.61001951 0.0036585638 0.79237795 0.00059826963
-0.41065806 0.017815914 -0.10001554 0.78710419 -0.049611405 0.61482155 0.0014678914
-0.40593871 0.01606087 -0.10619859 0.78607798 -0.039520927 0.6168626 0.0012023926
0.21390143 0.016456721 -0.10605283 -0.60769868 -0.059612419 0.79192716 0
0.40733394 0.017945059 -0.10116124 -0.7773729 -0.076257437 0.62440068 0
-0.40460846 0.026541471 -0.10569965 0.77120137 -0.11475886 0.62616211 0.00016728567
-0.21670768 0.022245023 -0.10378195 0.60719138 -0.077109158 0.79080516 0.00019892864
0.2127322 0.022870502 -0.10646722 -0.60767817 -0.059612963 0.79194283 5.4678762e-06
0.40354472 0.024421297 -0.10508794 -0.77739716 -0.076255672 0.62437069 0
-0.40299496 0.034940366 -0.1059755 0.77207065 -0.11462481 0.6251145 0.00023201901
-0.2158632 0.035019826 -0.10281608 0.60310626 -0.097899877 0.79163027 9.5181622e-06
0.39905161 0.037301093 -0.10910888 -0.77734804 -0.076246291 0.62443298 0
0.40570909 0.032700066 -0.10138212 -0.77796853 -0.076570913 0.62361985 1.3547529e-05
-0.4037928 0.040849842 -0.10378368 0.77060646 -0.12755236 0.62441659 5.0918875e-06
-0.21238352 0.043954648 -0.10433812 0.59712446 -0.11654834 0.79363644 0.00016991048
-0.20834951 0.046640538 -0.10706852 0.60029751 -0.12439236 0.79004395 0.00032391498
0.21653122 0.04526322 -0.10186657 -0.59624147 -0.1032894 0.7961328 0.00059399317
0.39795664 0.046134245 -0.10939327 -0.77740455 -0.076241001 0.62436324 1.4176433e-05
-0.39706254 0.054800112 -0.1092407 0.77059513 -0.12752961 0.62443525 0
0.20732352 0.057043962 -0.10632233 -0.58071709 -0.18522173 0.79275501 0.00026591186
0.21292153 0.05441336 -0.10299597 -0.59015912 -0.16582127 0.79007316 0.00048009586
0.40284675 0.053733569 -0.10237689 -0.77737617 -0.07626754 0.62439525 0
-0.3960368 0.06457293 -0.10851043 0.77062178 -0.12755165 0.62439775 2.3782006e-05
-0.21115632 0.065239117 -0.10238111 0.57555521 -0.17402779 0.79903096 0.00077691762
-0.20672706 0.069780767 -0.10404477 0.56994832 -0.19241844 0.79883289 0.00085071393
0.21006955 0.066264428 -0.10183895 -0.57770956 -0.20124151 0.79104584 0.00016713656
0.39673093 0.061191227 -0.10908037 -0.77737761 -0.076240651 0.62439692 0
0.40040004 0.063260682 -0.10425951 -0.77735817 -0.076283045 0.62441593 0
-0.39307296 0.076788351 -0.1096732 0.7706241 -0.1275389 0.62439764 4.3813698e-06
-0.21014795 0.073226742 -0.10054529 0.57583141 -0.20592779 0.79120916 0.00075845612
-0.2024371 0.075847484 -0.1051249 0.56712246 -0.22830634 0.79135853 0.00053802755
-0.19637111 0.077661291 -0.10880654 0.55602884 -0.25209776 0.79200929 7.2615221e-06
0.20808497 0.076632455 -0.1004583 -0.57156157 -0.21486586 0.79192805 0
0.39579487 0.077557988 -0.10824684 -0.77022421 -0.10342483 0.62933135 0.00048565611
0.40107217 0.076171182 -0.10184591 -0.77871823 -0.089188933 0.62100172 0.0001653818
-0.39812291 0.08923351 -0.10089853 0.77062231 -0.12754273 0.62439901 1.6773545e-05
-0.1928795 0.084857315 -0.10896647 0.55606991 -0.25221366 0.79194343 0
0.19305378 0.084062152 -0.10929057 -0.56733316 -0.22431569 0.79234809 0.00016053669
0.20055345 0.083331525 -0.1040763 -0.57082701 -0.22065866 0.79086435 1.6024413e-05
0.39538869 0.084569849 -0.10789616 -0.76311541 -0.12932859 0.6331895 0.0010938831
-0.39682996 0.094104387 -0.10149931 0.77057624 -0.12755214 0.6244539 3.2693759e-05
-0.19410832 0.090988159 -0.10615112 0.55523849 -0.25352475 0.79210824 2.3915363e-05
-0.18942091 0.099570818 -0.10670906 0.54032671 -0.26824328 0.79755408 0.00027571109
0.19900557 0.093152359 -0.10252892 -0.55879849 -0.24289642 0.79293472 0.00058489648
0.39495876 0.095449641 -0.1059518 -0.7466082 -0.20995589 0.63126439 0.00097344187
-0.39254296 0.10599199 -0.10436219 0.76432574 -0.15460171 0.62602282 0.00050103676
-0.19586028 0.10394298 -0.10079518 0.54508865 -0.26561147 0.79519105 0.00022393778
0.18700992 0.10144539 -0.10865565 -0.53866279 -0.28464973 0.79297978 0.00090287754
0.19600999 0.10442679 -0.101632 -0.53429836 -0.28836986 0.79458678 0.00078045938
0.39366817 0.1077348 -0.10208614 -0.73731548 -0.25059283 0.62735081 0.00040717138
-0.39378378 0.1115108 -0.10170346 0.75865161 -0.18814588 0.62373775 0.0012885184
-0.3887558 0.11610229 -0.10697113 0.74960148 -0.21056493 0.62750304 0.0015595438
-0.18203941 0.11526597 -0.10651621 0.51373476 -0.32349178 0.79462552 0.00082345773
-0.1762616 0.11834908 -0.10849096 0.5017826 -0.34832403 0.79176039 0.00072073558
0.17472817 0.11597048 -0.10983533 -0.49662077 -0.35535255 0.79189163 0
0.18203488 0.11768803 -0.10448392 -0.50233215 -0.34644374 0.7922368 0.00025438907
0.38687 0.1152702 -0.10672952 -0.7315473 -0.27422503 0.62421083 7.0679744e-06
-0.38617513 0.12719665 -0.10480052 0.7205233 -0.2845099 0.63237673 0.00055891275
-0.1715672 0.12704027 -0.10703485 0.4754141 -0.38100353 0.79298025 0.00010551832
-0.16762927 0.12695876 -0.10942098 0.47702578 -0.38174137 0.79165649 0.00013975444
0.17973422 0.12978394 -0.1004969 -0.49646795 -0.35546568 0.79193676 2.2222425e-06
0.38439596 0.12389917 -0.10582805 -0.73114723 -0.27488291 0.62439018 0
-0.3839249 0.13712341 -0.10223465 0.71939254 -0.30767995 0.62274182 0.00020203265
-0.17345938 0.13574389 -0.1016483 0.47239968 -0.38610494 0.79231399 3.2636808e-07
-0.16641921 0.13185999 -0.1077435 0.47277924 -0.38621789 0.7920326 2.4699859e-05
0.17042921 0.13278134 -0.1049847 -0.48512885 -0.36699057 0.79370522 0.00020225914
0.38266954 0.13222408 -0.10418501 -0.7311514 -0.274854 0.62439811 1.9777817e-05
-0.38165158 0.14297898 -0.10179886 0.71171826 -0.32044369 0.62511837 7.1567476e-05
-0.37515283 0.14292043 -0.10923296 0.71129888 -0.3227185 0.62442511 0
-0.16625944 0.14686921 -0.10049384 0.4662067 -0.39353925 0.7923246 5.7229972e-05
-0.1523582 0.14437398 -0.10999735 0.45037904 -0.40921906 0.79353547 0.0004372304
0.14938636 0.14906295 -0.10950787 -0.42478168 -0.42699057 0.79827285 0.00079101208
0.16595253 0.14689964 -0.10145406 -0.45444027 -0.40226084 0.7947768 0.00072823057
0.37351078 0.14930563 -0.1073904 -0.73108864 -0.2749238 0.62444085 0
-0.37412223 0.15541549 -0.10395042 0.71134901 -0.32263502 0.62441105 2.4827921e-05
-0.15355247 0.15843759 -0.1024037 0.42042872 -0.44001365 0.79349089 0.00084085437
-0.14312948 0.15861768 -0.10774443 0.40260378 -0.45570603 0.79387802 0.00085463829
0.14059943 0.15833732 -0.10828205 -0.39669332 -0.46438092 0.79182363 0.00019179651
0.1523696 0.155423 -0.10425862 -0.41570419 -0.44007948 0.79593986 0.00058268191
0.16120763 0.15012816 -0.10297946 -0.44039953 -0.41306603 0.79713529 0.0007580088
0.36802444 0.15840076 -0.10981108 -0.73113906 -0.27488837 0.62439734 1.9660789e-05
0.37312463 0.15605135 -0.10487305 -0.73109871 -0.2748681 0.62445349 5.3605847e-05
-0.36675924 0.1626371 -0.10860728 0.71124458 -0.32264522 0.62452477 0.0001194795
-0.15180618 0.16322669 -0.10096055 0.41138744 -0.45174673 0.79163456 0.00090991403
-0.14236788 0.1661706 -0.10335145 0.38332155 -0.47492248 0.79215735 0.00065026706
-0.13211036 0.16338024 -0.10970479 0.36708173 -0.48554894 0.79340613 0.00026752014
0.13536844 0.1634874 -0.10777342 -0.3879033 -0.47074887 0.79241818 1.1220175e-05
