# .PCD v0.7 - Point Cloud Data file format
VERSION 0.7
FIELDS x y z normal_x normal_y normal_z curvature
SIZE 4 4 4 4 4 4 4
TYPE F F F F F F F
COUNT 1 1 1 1 1 1 1
WIDTH 571
HEIGHT 1
VIEWPOINT 0 0 0 1 0 0 0
POINTS 571
DATA ascii
0.42647076 0.16329457 0.077358559 0.040053107 -0.023101985 -0.99893045 0.08977475
0.43494147 0.16135433 0.078555413 -0.12212437 0.060417984 -0.9906742 0.14818712
0.44233456 0.16584308 0.079564489 -0.093346715 0.11368901 -0.98912144 0.18677917
0.47815681 0.1609626 0.073217511 -0.42704433 0.01521244 0.9041028 0.10545065
0.48510125 0.16663794 0.077306047 -0.35579306 -0.038107932 0.93378752 0.084464148
-0.4833777 0.17266546 0.0762913 0.36869049 -0.020558309 0.92932487 0.080803648
-0.47799301 0.17286421 0.073121116 0.46310753 0.0030965032 0.88629675 0.089449883
-0.44073969 0.17837343 0.079346806 0.3655012 -0.028381275 -0.93037808 0.1881002
-0.43502778 0.17508313 0.078567192 0.22932202 -0.086884707 -0.96946502 0.18062413
-0.42665115 0.17379335 0.077378407 -0.077234231 0.020091521 -0.9968105 0.071700193
-0.41285652 0.17347197 0.075014755 -0.16748992 -0.00050065992 -0.9858737 2.9418059e-05
-0.40471667 0.17628276 0.073598973 -0.17489977 -2.5956497e-05 -0.98458624 1.1198423e-05
-0.39462915 0.17567651 0.071844429 0.18430649 8.5633896e-05 0.98286879 4.1209732e-05
0.38706419 0.17837098 0.070392504 -0.1919412 -0.00046312541 0.98140633 4.9461938e-05
0.39577106 0.17870203 0.072043046 -0.18339702 -0.00095194485 0.98303849 3.7452806e-05
0.40679321 0.1762127 0.073960148 0.17462397 0.00074038008 -0.98463488 1.3169801e-05
0.41476932 0.17438866 0.075347453 0.16286042 -0.00050489121 -0.98664904 4.0166251e-05
0.42439461 0.1763798 0.077021591 0.13319756 -0.013575018 -0.99099654 0.056087419
0.43152389 0.17584078 0.078088947 -0.012512262 0.050112762 -0.99866515 0.18631358
0.44088385 0.1751214 0.079366483 -0.16449428 0.026218308 -0.98602957 0.20572095
0.47730562 0.17289239 0.0727164 -0.42090577 -0.00067275803 0.90710407 0.094129354
0.48535717 0.17310788 0.077456713 -0.30003154 -0.0053875116 0.95391411 0.07938122
-0.47626105 0.18867423 0.072101429 0.45380691 0.052626487 0.88954467 0.1022683
-0.44131932 0.18714613 0.079425916 0.20368229 0.12321863 -0.97125214 0.20889118
-0.43556997 0.18125729 0.078641184 0.46349809 0.082438789 -0.88225472 0.17953938
-0.42429206 0.18511203 0.077003762 -0.12436253 0.012163406 -0.99216235 0.053911164
-0.40835446 0.18439764 0.074231699 -0.17002052 0.00016345919 -0.98544055 2.9237148e-05
-0.39742142 0.18491817 0.072330102 0.18291658 -0.00056421862 0.98312831 3.8625723e-05
-0.38759616 0.18460667 0.070505209 0.19287606 0.00067695149 0.98122293 5.042772e-05
0.38786718 0.18868628 0.070562631 -0.19116794 -0.0017877494 0.98155576 5.8032583e-05
0.39455292 0.18395627 0.071831167 -0.18652686 -0.00013585818 0.98244983 3.9894403e-05
0.40632749 0.18328691 0.073879153 0.17586133 0.0013044656 -0.9844141 2.0607695e-05
0.41498742 0.18599433 0.075385392 0.16500902 -0.00093956239 -0.98629159 3.9865914e-05
0.42511144 0.18489937 0.077134497 0.13288726 0.019510185 -0.99093914 0.05160718
0.43792453 0.18533671 0.078962564 -0.10548953 -0.0085069072 -0.99438393 0.17860584
0.44170636 0.18520907 0.079478748 -0.17216024 -0.015033861 -0.98495424 0.17782691
0.47757411 0.18549477 0.072874479 -0.41692224 0.029174356 0.90847379 0.10074183
0.48545948 0.1860463 0.077516943 -0.36663878 0.021836672 0.93010706 0.073336579
-0.48152411 0.19158553 0.075200036 0.40374941 0.031131536 0.91433978 0.085489079
-0.47515619 0.19250345 0.071450949 0.40233937 -0.026369197 0.91511077 0.1123637
-0.44337043 0.19244103 0.079705872 0.24804305 0.15100716 -0.95690727 0.19951919
-0.43576288 0.19405268 0.078667521 0.13854206 0.25091365 -0.95804411 0.237931
-0.42601833 0.19406842 0.077277347 -0.13488626 -0.0025174739 -0.9908579 0.051694497
-0.40653363 0.19369052 0.07391499 -0.17254137 0.00029174198 -0.98500228 2.7271777e-05
-0.39390108 0.19327086 0.071717799 0.18844768 0.00044032172 0.98208308 4.0130439e-05
-0.38690281 0.19320439 0.070358321 0.19415274 0.00071188301 0.98097104 4.512849e-05
0.38791347 0.19551015 0.070572428 -0.18909149 -0.00077896949 0.98195916 4.1037063e-05
0.39993858 0.19489342 0.072767906 -0.18160872 -0.0020334991 0.98336881 3.4984183e-05
0.40480408 0.19642858 0.073614173 0.17791566 0.0011247416 -0.98404515 1.9051929e-05
0.41468108 0.19302776 0.075332105 0.16533977 -9.802002e-05 -0.98623663 3.6050482e-05
0.42309183 0.19275695 0.076787986 0.15495239 -0.00079665007 -0.98792166 4.0057301e-05
0.43589872 0.19264674 0.078686066 -0.17364471 0.12174437 -0.97725421 0.18725801
0.44473398 0.19687539 0.079891987 -0.1505243 0.10905631 -0.98257273 0.15934043
0.4753603 0.19477499 0.071571134 -0.27636603 0.016684836 0.96090758 0.12097412
0.48489714 0.19757444 0.077185877 -0.3607159 0.027496012 0.93227041 0.070279896
-0.48510468 0.20279205 0.077308066 0.45223206 0.0062484983 0.89187843 0.078646205
-0.47773066 0.20257488 0.072966643 0.44742459 -0.0094627896 0.89427155 0.09650366
-0.44271311 0.20617001 0.079616159 0.099580891 0.16716465 -0.98088712 0.22812538
-0.43645659 0.20630342 0.078762203 0.089384705 -0.067598 -0.99370062 0.22306444
-0.42293164 0.20152119 0.076767132 -0.15414192 -0.0013384727 -0.98804778 3.0482073e-05
-0.41334179 0.20357347 0.075099148 -0.16640477 -0.00069351064 -0.98605728 4.2001138e-05
-0.40422457 0.20367801 0.073513381 -0.17761756 -0.00077605352 -0.98409927 2.8444792e-05
-0.38993457 0.20150393 0.071000621 0.18970837 0.00098738144 0.98184001 4.1277191e-05
0.39431703 0.20333931 0.071790144 -0.18800363 -0.00013065833 0.98216832 4.5669069e-05
0.40371251 0.20505743 0.073424309 0.17758594 -9.4016912e-05 -0.98410529 2.7789212e-05
0.41343406 0.20534474 0.075115204 0.16585676 -0.00044896471 -0.98614979 2.8025279e-05
0.43572515 0.20258684 0.078662366 0.019052019 -0.048181195 -0.99865693 0.11935199
0.44010043 0.20901039 0.079259545 -0.12269464 -0.11168833 -0.98613983 0.19297025
0.47530144 0.20498179 0.071536474 -0.25698155 0.043288946 0.96544635 0.11118443
0.48576072 0.20450895 0.077694312 -0.38325107 0.043745179 0.9226076 0.064512268
-0.48372817 0.21585304 0.076497659 0.34459442 -0.011821061 0.93867725 0.086201623
-0.47692263 0.2168175 0.072490931 0.39375865 -0.037612077 0.9184441 0.098666705
-0.44357204 0.21615326 0.079733394 0.018802026 -0.1624174 -0.98654294 0.17987771
-0.43696263 0.21677676 0.07883127 -0.028936384 0.010811355 -0.99952281 0.16204268
-0.42591172 0.21113098 0.077285469 -0.069571726 -0.044423483 -0.99658746 0.095201313
-0.41414577 0.21536307 0.075238988 -0.16313995 0.00085846276 -0.9866026 2.9657869e-05
-0.40221572 0.21197188 0.073163979 0.18106434 0.001893553 0.98346937 2.8046503e-05
-0.39564711 0.21543662 0.072021477 0.18438326 0.0031929696 0.9828493 3.3018609e-05
0.38666689 0.21351331 0.070308335 -0.19266281 -0.0012490361 0.98126423 4.6018435e-05
0.39421743 0.21523613 0.071772814 -0.18798624 -0.00039635235 0.98217154 4.7476129e-05
0.40328288 0.21585648 0.073349588 0.17643437 -0.00027800974 -0.98431242 2.5229727e-05
0.41203547 0.21163923 0.074871942 0.16717644 -0.00072337908 -0.98592675 2.8293714e-05
0.42553025 0.21598668 0.077202581 0.11804014 0.00042872608 -0.99300873 0.097081341
0.4377813 0.21649621 0.078943007 -0.13042232 -0.15440917 -0.97936094 0.20502985
0.44185078 0.21800208 0.079498462 -0.45460245 -0.33662277 -0.82463431 0.21951532
0.48217362 0.21460861 0.075582407 -0.3284708 -0.053970333 0.94297093 0.078692742
-0.48465165 0.22215171 0.077041321 0.32839507 -0.01384617 0.94443905 0.093455508
-0.47666472 0.22620744 0.07233908 0.39842927 -0.0057289149 0.91718119 0.10708829
-0.43533355 0.22422025 0.078608915 0.2002051 -0.13352849 -0.97061223 0.17421786
-0.41385821 0.22381654 0.075188972 -0.16378616 0.00039366714 -0.98649573 1.9914514e-05
-0.40829065 0.22255705 0.07422059 -0.17117858 -0.0011350858 -0.98523939 4.288994e-05
-0.3933554 0.22199968 0.071622886 0.18655325 0.001146304 0.98244429 3.5223846e-05
0.38739097 0.22268839 0.070461743 -0.19482727 -0.0014747023 0.98083645 4.7634996e-05
0.39446652 0.22396572 0.071811907 -0.18360658 0.00086789357 0.98299938 3.588125e-05
0.40154365 0.22529112 0.073047079 -0.17961708 -0.00075042649 0.98373634 3.326064e-05
0.41711491 0.2292909 0.075755417 0.16307139 0.0016306894 -0.98661298 2.4684648e-05
0.42792434 0.22065055 0.07759764 0.012081702 -0.0047092289 -0.99991596 0.13957576
0.4338811 0.22350311 0.078410678 -0.28110453 -0.3141984 -0.90678531 0.21256576
0.4425464 0.22731103 0.079593405 -0.19736493 0.027643409 -0.9799403 0.21005379
0.47562116 0.22548845 0.07172469 -0.45201114 -0.007912525 0.89197725 0.099692106
0.48542455 0.2265708 0.077496402 -0.32264864 -0.0165109 0.94637483 0.073381782
-0.47350401 0.23823336 0.070478231 0.49606827 0.025395429 0.86791211 0.095479988
-0.44311678 0.2365649 0.079671256 0.19554602 -0.11832465 -0.97353011 0.19568817
-0.43543607 0.23360287 0.078622915 0.020153619 -0.12343726 -0.99214768 0.14341524
-0.42691132 0.23737478 0.077419229 0.00073905988 -0.0212042 -0.99977487 0.12012472
-0.41285187 0.23487954 0.075013943 -0.1677952 -0.00041645349 -0.98582178 1.9840532e-05
-0.4072479 0.23626132 0.074039228 -0.17360742 0.00020450844 -0.98481488 2.9885596e-05
0.38741317 0.2336161 0.070466444 -0.19396758 -6.8597408e-05 0.98100793 4.5915171e-05
0.39162433 0.23420575 0.071320266 -0.1893252 0.0010075684 0.98191392 5.6405537e-05
0.41479957 0.23392995 0.075352706 0.16626549 0.00092663872 -0.98608053 2.5541261e-05
0.42462704 0.23427923 0.077036664 0.11405519 0.013460604 -0.99338317 0.05738784
0.43322384 0.23706597 0.078320965 -0.12952216 0.081237949 -0.9882431 0.16518876
0.4745177 0.23235819 0.071075037 -0.49719813 0.06541118 0.86516786 0.09464778
0.48401484 0.23437196 0.076666437 -0.410763 0.040765762 0.91083038 0.079494148
-0.48560676 0.24405375 0.077603661 0.41248557 0.014003129 0.91085649 0.068653315
-0.47536922 0.2422667 0.071576364 0.46362725 0.064527579 0.8836776 0.096703045
-0.43342942 0.24422093 0.078349024 0.13415627 -0.059560046 -0.98916864 0.15318429
-0.42629454 0.24219948 0.077352054 -0.086869575 -0.00049667573 -0.99621952 0.045894798
-0.40452799 0.24829246 0.073566146 -0.17529809 3.2824195e-05 -0.98451543 2.3711367e-05
-0.39232698 0.24653412 0.071438678 0.18800344 0.00019639771 0.98216832 3.3677497e-05
-0.38666129 0.2444663 0.070307143 0.19223757 0.00015944838 0.9813484 4.372004e-05
0.38733241 0.24215709 0.070449337 -0.19167967 0.00079218758 0.98145723 4.9343689e-05
0.39318362 0.24384409 0.071593001 -0.1867633 -5.718524e-05 0.98240495 4.5980138e-05
0.40591842 0.24456218 0.073807999 0.17172106 -0.00054310984 -0.98514545 1.9141893e-05
0.41594923 0.24343964 0.075552672 0.16601866 -0.0004942313 -0.98612249 2.4807798e-05
0.42625603 0.24492747 0.077307537 0.150995 -0.0033129985 -0.98852903 3.1134336e-05
0.43504223 0.24521202 0.078569159 -0.17125311 -0.0068319519 -0.98520333 0.13504261
0.44326738 0.24905214 0.079691812 -0.26238123 -0.14914073 -0.95336938 0.189072
0.47321776 0.24500179 0.070309706 -0.46225384 0.040228311 0.88583469 0.11569718
0.4858368 0.24562061 0.07773909 -0.3440299 -0.0024405695 0.93895555 0.088388219
-0.48628893 0.25503436 0.078005292 0.286852 0.021098109 0.95774263 0.081788063
-0.4776043 0.25353375 0.072892271 0.40336397 -0.014438348 0.91492569 0.10236612
-0.44031355 0.25840831 0.079288639 0.19059274 0.016820287 -0.98152512 0.20091195
-0.43459535 0.2558735 0.078508161 0.49739835 -0.19121216 -0.84618723 0.21137734
-0.42342296 0.25475624 0.07685259 -0.15871684 0.0010539179 -0.98732352 3.7098882e-05
-0.4129408 0.25541535 0.075029403 -0.1655909 0.00049766497 -0.98619437 3.0952873e-05
-0.39498118 0.25522774 0.071903333 0.18213741 -0.0011459116 0.98327237 3.2255368e-05
0.38870829 0.25135559 0.070740819 -0.1900634 0.0016906739 0.98177034 4.7810699e-05
0.39700609 0.25414333 0.072257854 -0.18299846 0.0011941815 0.98311245 4.2056214e-05
0.40627241 0.25415075 0.073869564 0.17373076 -3.564162e-05 -0.98479325 1.1837932e-05
0.41315687 0.25376534 0.075066991 0.16844562 -6.4890155e-05 -0.98571092 2.0300537e-05
0.42390501 0.25581589 0.076929271 0.11970432 0.0026486968 -0.99280602 0.06249994
0.43157798 0.25510025 0.07809633 -0.08082471 -0.0090476777 -0.99668729 0.17177886
0.44466695 0.25438848 0.07988283 -0.23791745 -0.05900386 -0.9694916 0.1645831
0.4741672 0.25483572 0.070868671 -0.44711268 -0.041355174 0.89352113 0.10638263
-0.48359406 0.26610935 0.076418683 0.40438238 -0.0027774628 0.91458577 0.081825197
-0.47419053 0.26766789 0.070882425 0.46607083 -0.011997364 0.88466603 0.093481317
-0.43744686 0.26491764 0.078897364 0.296547 -0.071251474 -0.95235664 0.22324187
-0.42213759 0.26362237 0.07662902 -0.16101298 -0.0005512372 -0.98695213 4.1907122e-05
-0.41533372 0.26493266 0.075445607 -0.16467677 0.00011166904 -0.98634756 2.2856717e-05
-0.40422839 0.26542294 0.073514044 -0.17738321 5.5283868e-05 -0.98414183 8.9853547e-06
-0.39430264 0.26206347 0.071784116 0.18404199 -0.0014527367 0.98291725 3.5861816e-05
0.38748685 0.26404029 0.070482053 -0.1901924 1.6823018e-05 0.98174685 4.5063392e-05
0.39522806 0.26596785 0.071948603 -0.1836798 0.0004958958 0.98298603 2.894998e-05
0.40366817 0.26532289 0.073416606 0.17614351 -6.6128168e-06 -0.98436451 2.8931217e-05
0.41283002 0.26809302 0.075010143 0.16639052 6.9965543e-05 -0.98605996 2.1890261e-05
0.42107999 0.26249036 0.076445073 0.15759031 -0.00093883532 -0.98750412 3.2488515e-05
0.43622079 0.26420888 0.078730024 -0.29592952 0.079534039 -0.95189285 0.19266257
0.4417257 0.26947641 0.079481378 -0.23772812 0.093294717 -0.96684092 0.1872535
0.4776639 0.26450393 0.072927333 -0.43963179 -0.02303993 0.89788258 0.10710043
0.48241228 0.26535806 0.075722918 -0.44766352 -0.015520043 0.89406735 0.085794114
-0.48214602 0.27405727 0.075566143 0.40111935 0.029112965 0.91556305 0.087206453
-0.4348157 0.27550185 0.078538239 0.21453853 0.21944195 -0.95174491 0.21956363
-0.42479569 0.27170455 0.077091351 -0.042137653 0.0060830731 -0.99909329 0.1148132
-0.4179666 0.27350706 0.07590355 -0.16215821 0.0013347473 -0.98676383 2.4747424e-05
-0.40793234 0.27944636 0.074158281 -0.17238155 -0.00081887364 -0.98502988 2.3525252e-05
-0.38715249 0.27983841 0.07041122 0.19247228 -0.00050631841 0.98130226 3.3720411e-05
0.39473689 0.27351737 0.071862265 -0.18377519 3.0466448e-05 0.98296833 3.4438872e-05
0.41496211 0.27340525 0.075380981 0.16394243 -0.00054068695 -0.98646975 2.7145987e-05
0.42593718 0.27509362 0.077252463 0.13522893 -0.0018629037 -0.9908126 0.050610572
0.43097425 0.27543828 0.078013927 0.056865856 -0.12574701 -0.99043125 0.1442969
0.44523132 0.27567813 0.079959869 0.02194613 -0.033088792 -0.99921143 0.19965167
0.47452569 0.2728979 0.071079738 -0.47561213 -0.027313204 0.87923092 0.0971037
0.48552236 0.27625853 0.077553965 -0.4382371 -0.025498202 0.89849764 0.081334405
-0.48602393 0.2801033 0.077849269 0.42361084 -0.0042198352 0.90583444 0.069823213
-0.47357643 0.28412449 0.070520863 0.39458197 -0.018901361 0.91866636 0.12196027
-0.44344813 0.28775692 0.079716474 0.099086948 0.038333114 -0.99434018 0.19816728
-0.43521133 0.28821632 0.078592233 0.11477705 0.23449025 -0.9653188 0.18347332
-0.42932138 0.28161937 0.077788323 0.15068182 0.1403731 -0.97856539 0.22081429
-0.41740388 0.28346223 0.075805686 -0.16333351 -0.00078292581 -0.9865706 3.3101162e-05
-0.40417361 0.28475928 0.073504515 -0.17541747 0.0011667997 -0.98449343 1.7619546e-05
-0.39356002 0.28498647 0.071653776 0.18592027 -0.0014319647 0.98256379 3.8966933e-05
-0.38938606 0.2885578 0.070884407 0.19201581 -0.0012272527 0.98139113 4.6323945e-05
0.38866162 0.28721625 0.070730932 -0.19043998 0.00044818266 0.98169869 3.4609846e-05
0.39697093 0.28584361 0.072251737 -0.18329906 -9.4060946e-05 0.98305714 2.8664195e-05
0.40472063 0.28304613 0.073599659 0.17472255 -0.00088329497 -0.98461729 3.5031655e-05
0.41384885 0.28711277 0.075187348 0.16495118 -0.00090968824 -0.98630124 2.3163657e-05
0.42415363 0.28186339 0.076979682 0.15540116 -0.0016896437 -0.98784995 4.24311e-05
0.43348718 0.28629404 0.078356914 -0.091956772 -0.013045864 -0.99567747 0.16489439
0.44175857 0.2815547 0.079485863 -0.12794776 -0.0877143 -0.98789448 0.20448926
0.47910181 0.28148961 0.073773913 -0.39963678 -0.02430436 0.91635132 0.092714921
0.48054281 0.28112146 0.074622281 -0.35744995 -0.066186152 0.93158412 0.087451041
-0.48304668 0.29526177 0.076096453 0.44032648 -0.013701661 0.89773321 0.081655048
-0.47902727 0.294346 0.073730007 0.35732919 -0.071103908 0.93126804 0.088585019
-0.43098956 0.29806256 0.078016013 -0.051100779 -0.087549582 -0.99484867 0.13002062
-0.42673209 0.29936254 0.077428155 -0.090149276 -0.017023606 -0.99578273 0.088695712
-0.4109959 0.29370642 0.074691132 -0.16965383 -0.00038333089 -0.98550367 1.1153133e-05
-0.38789737 0.29120678 0.070569023 0.1946076 -0.00086152775 0.9808808 3.7640675e-05
0.39602876 0.29524022 0.072087862 -0.18658367 -0.0011297645 0.98243845 3.2519569e-05
0.40424171 0.29378694 0.073516361 0.17577502 0.00010342531 -0.98443037 1.3023694e-05
0.41334984 0.29682994 0.075100549 0.16625844 -0.00053717685 -0.98608214 1.2215991e-05
0.43640772 0.29406622 0.078755535 -0.18381937 0.02552706 -0.98262858 0.18471748
0.44301063 0.29516619 0.079656765 -0.34693965 -0.057973944 -0.93609399 0.18932691
0.47962204 0.29512209 0.074080192 -0.36954501 -0.0065113571 0.92919004 0.083306424
0.48629782 0.29738247 0.078010507 -0.31099784 -0.015818072 0.950279 0.063598961
-0.48500222 0.30582982 0.077247731 0.40328485 -0.018129962 0.91489476 0.071704775
-0.47877192 0.30327255 0.073579676 0.33333242 -0.0017618184 0.94280773 0.091842465
-0.44122973 0.3044731 0.07941369 0.10105737 -0.0040193503 -0.99487251 0.1611623
-0.43379182 0.30457762 0.078398496 0.18541569 0.0095229968 -0.98261404 0.17425281
-0.4174203 0.30293289 0.07580854 -0.16225246 -0.00082290469 -0.98674899 2.9829231e-05
-0.40378794 0.306595 0.07343743 -0.17569487 -0.00082870817 -0.98444432 1.8241517e-05
-0.39424175 0.30629754 0.071777061 0.18704559 0.00095373805 0.98235077 4.5587069e-05
-0.38788593 0.30612659 0.070566595 0.19275928 0.00039878534 0.98124599 5.133888e-05
0.39582968 0.30806464 0.072053239 -0.18766415 -0.00045060011 0.98223311 4.1502135e-05
0.40322128 0.30486178 0.073338881 0.17735489 0.00052809174 -0.98414683 2.6139909e-05
0.41391098 0.3027229 0.075198151 0.16512519 0.00035525908 -0.98627251 2.3665107e-05
0.42847419 0.30149102 0.07767269 0.062186707 -0.010207538 -0.9980123 0.10698762
0.43539885 0.30619556 0.078617834 -0.29043883 -0.087551586 -0.95287991 0.17654955
0.44281077 0.30732995 0.079629488 -0.13406797 -0.090760186 -0.98680711 0.22764821
0.47420287 0.30257487 0.070889689 -0.42746818 0.0021124498 0.90402794 0.099151179
0.48792231 0.30699113 0.078966916 -0.32905579 -0.034836404 0.94366777 0.070689879
-0.48572627 0.31438524 0.077674024 0.40892547 0.026467253 0.91218382 0.071557961
-0.47464731 0.31498033 0.071151339 0.40647921 0.062198769 0.91154045 0.10702071
-0.44420555 0.31233895 0.079819858 0.13859193 -0.10963563 -0.98426229 0.16431779
-0.43619809 0.31294665 0.078726925 0.22338638 -0.075236112 -0.97182208 0.19884299
-0.42547798 0.31527415 0.077171296 -0.1459634 0.0032628914 -0.98928463 0.055294078
-0.41615349 0.3130649 0.075588204 -0.16218592 -0.00046624296 -0.98676014 3.6744477e-05
-0.4034906 0.31720811 0.073385715 0.17797384 -0.0012859219 0.98403436 2.6231211e-05
-0.39421207 0.31468445 0.07177189 0.18547483 0.00036978297 0.98264897 4.0209543e-05
-0.38593477 0.31701976 0.070153236 0.1959424 0.0017732526 0.98061377 3.0053397e-05
0.38983357 0.31992471 0.070979215 -0.19030541 -0.00094434043 0.98172444 4.4453893e-05
0.39771309 0.31446159 0.072380818 -0.18158337 0.00077455444 0.98337525 3.8466507e-05
0.40534922 0.31443772 0.073708996 0.17463043 0.00067295012 -0.9846338 3.1516312e-05
0.41759849 0.31815356 0.075839527 0.16201992 0.0010072542 -0.98678696 3.0970175e-05
0.42631754 0.31942278 0.077310443 0.086546689 -0.037017528 -0.99555987 0.092521265
0.43343407 0.31396863 0.078349665 -0.27746615 -0.29882804 -0.91307956 0.2063669
0.44183877 0.31694078 0.079496823 -0.13641214 0.059097312 -0.98888791 0.25126895
0.47505578 0.31784546 0.071391843 -0.44577107 0.025378169 0.89478725 0.10087283
0.48542088 0.31636107 0.077494234 -0.3444522 0.020318938 0.93858385 0.084831201
-0.48325631 0.32712376 0.076219827 0.40887415 -0.026220912 0.91221398 0.074416138
-0.47721684 0.32693398 0.072664127 0.41004577 -0.017257735 0.91190171 0.098260924
-0.44183511 0.3228161 0.079496317 0.27392477 -0.013861899 -0.96165115 0.18401951
-0.43747821 0.3275156 0.078901656 0.21118297 -0.016594624 -0.97730571 0.19412845
-0.42585197 0.32467535 0.077233687 -0.15428242 -0.0005643855 -0.98802668 4.5926474e-05
-0.41452146 0.32644993 0.075304337 -0.16548546 0.00065226946 -0.98621196 2.2663298e-05
-0.40339941 0.32341981 0.073369853 -0.17775023 0.00024973703 -0.98407561 2.4215207e-05
-0.39881456 0.32515347 0.07257241 0.17995684 -0.00063687912 0.98367435 2.6875989e-05
-0.38749471 0.321868 0.070483722 0.19178991 -0.00019153921 0.98143595 4.8489575e-05
0.38863364 0.32801509 0.070725001 -0.19294973 -0.00081510167 0.98120832 3.3928693e-05
0.39725256 0.32164437 0.072300717 -0.18150736 -0.00025555785 0.98338956 3.4103909e-05
0.40531433 0.32187161 0.073702931 0.17315076 5.3282911e-05 -0.98489535 1.8735036e-05
0.4194991 0.32824397 0.076170094 0.15963519 1.4767029e-05 -0.98717606 3.1798685e-05
0.42577016 0.3250111 0.077247448 0.11414344 0.025600065 -0.99313438 0.061274119
0.43873391 0.32661888 0.079073034 -0.019640528 0.12759282 -0.9916321 0.23136182
0.4432956 0.32241851 0.079695657 -0.045682151 0.060155723 -0.99714315 0.2049986
0.47605875 0.32945168 0.071982324 -0.34088686 0.016833467 0.93995363 0.10490396
0.48353082 0.32459515 0.07638146 -0.306775 0.0073386147 0.9517538 0.085031897
-0.486763 0.33818167 0.078284405 0.45591423 0.0050677713 0.89000922 0.068444863
-0.47368497 0.33498403 0.070584789 0.48726419 0.036685918 0.87248361 0.10897131
-0.4429754 0.33545646 0.079651959 0.17082845 0.14082442 -0.97518516 0.23007381
-0.43692875 0.33233562 0.078826644 0.29556367 -0.046122558 -0.95420903 0.19022426
-0.42412543 0.33171043 0.076974772 -0.12626244 -0.0037162534 -0.99198985 0.043842562
-0.41388953 0.33475876 0.075194418 -0.16537878 0.0010137081 -0.9862296 2.7743474e-05
-0.40746716 0.33697104 0.074077368 -0.17339838 -0.00014044867 -0.98485178 1.9531588e-05
-0.39523497 0.33716193 0.071949802 0.1858072 0.00024057445 0.98258621 4.5351269e-05
-0.38792729 0.33578572 0.070575371 0.19029503 0.00083090301 0.98172659 3.6945232e-05
0.38689959 0.33888239 0.070357636 -0.1911523 -0.00017272834 0.98156041 4.0904979e-05
0.39700758 0.33462954 0.072258115 -0.18292357 0.00030338202 0.98312712 4.8981958e-05
0.40036938 0.33315477 0.072842836 0.17895605 -0.00065811025 -0.98385686 3.6046309e-05
0.4115091 0.33327067 0.07478039 0.16826162 -3.2716322e-05 -0.98574233 2.3574516e-05
0.42599005 0.33242267 0.077254504 0.12714522 0.0029943152 -0.99187964 0.063442416
0.43412957 0.33692479 0.078444585 -0.10784657 0.11451622 -0.98755002 0.18905917
0.47486103 0.33625293 0.071277171 -0.41279256 0.04678753 0.90962255 0.10929073
0.48485863 0.3363646 0.077163197 -0.3022649 -0.027840702 0.95281738 0.082344584
-0.48274055 0.3441759 0.075916193 0.38060448 -0.025936093 0.9243741 0.094484709
-0.47734502 0.34303284 0.072739616 0.47835034 -0.066748589 0.87562871 0.096197292
-0.44318298 0.34019163 0.079680279 0.19903478 -0.02517771 -0.97966897 0.2165723
-0.43447757 0.34476343 0.07849209 0.20268062 0.018532725 -0.97906953 0.18702243
-0.42601851 0.34694299 0.077281862 -0.038156077 0.027418952 -0.99889547 0.13214557
-0.41395685 0.34458411 0.075206138 -0.16532336 0.00082397088 -0.98623902 3.1014933e-05
-0.40605521 0.34718418 0.073831789 -0.17420313 -0.00073640142 -0.98470944 2.4726507e-05
-0.3980132 0.3433584 0.072433017 0.18265983 0.0014475962 0.98317504 3.0534869e-05
-0.38613868 0.34941769 0.070196435 0.19081686 -0.0023701652 0.98162287 6.0507584e-05
0.39719874 0.34887087 0.072291367 -0.18338989 0.0019524667 0.98303825 4.340825e-05
0.41465616 0.34870076 0.075327769 0.16553596 -0.00023233192 -0.98620373 3.0972587e-05
0.42621887 0.34615329 0.077285297 0.061464872 -0.0083949063 -0.99807394 0.092821687
0.43548697 0.34656346 0.078629859 -0.1239456 0.0080992943 -0.99225599 0.17685777
0.44170219 0.347767 0.079478174 -0.094169952 -0.028697856 -0.9951424 0.15735731
0.47744393 0.34401137 0.072797835 -0.40156633 0.00052753696 0.91582978 0.1026286
-0.48448366 0.35329634 0.076942459 0.40359446 0.015245744 0.91481102 0.079523757
-0.47718832 0.35779506 0.072647348 0.41434702 0.0022735738 0.91011614 0.097000822
-0.44101828 0.3536334 0.079384834 0.29122573 0.040397298 -0.95580101 0.18442707
-0.43041602 0.35975498 0.07793773 0.053552974 -0.079344288 -0.9954077 0.10408502
-0.42279035 0.35454649 0.076742552 -0.15482771 0.00042362983 -0.98794138 3.8623501e-05
-0.4141441 0.35220712 0.075238705 -0.16717966 -0.0013850901 -0.9859255 2.7172771e-05
-0.40586343 0.35277262 0.07379844 -0.17562841 -0.00024739135 -0.98445648 1.2743018e-05
-0.39687064 0.35490599 0.072234295 0.1846936 0.00032646669 0.98279613 4.1704341e-05
-0.38787106 0.35507771 0.07056345 0.18586282 -0.0094928127 0.98252988 0.0001034606
0.38724127 0.35955477 0.070430025 -0.18692072 -0.0015829961 0.98237371 4.6396552e-05
0.39395228 0.35524735 0.071726702 -0.18486865 -0.00077106414 0.98276293 3.6995949e-05
0.40313163 0.35295534 0.07332328 0.17654079 0.00024571526 -0.98429328 2.4522626e-05
0.41302681 0.35233721 0.075044364 0.16542701 0.00073920359 -0.98622173 3.2439515e-05
0.42765552 0.3572771 0.077560946 0.024027653 0.084870271 -0.99610215 0.15603554
0.43544555 0.35343972 0.078624211 -0.12449958 -0.030129554 -0.9917621 0.17889917
0.44111696 0.35169423 0.079398297 -0.16287608 -0.0054851905 -0.98663127 0.18433505
0.47717416 0.35570574 0.072639026 -0.49817315 0.021463426 0.86681193 0.084909305
0.48575133 0.35421738 0.077688761 -0.39544141 0.0039459816 0.91848272 0.084053092
-0.48542088 0.36472026 0.077494226 0.38467187 -0.004851263 0.92304063 0.075827599
-0.44253978 0.36709732 0.079592504 0.33917233 -0.028978273 -0.94027781 0.18501571
-0.43556839 0.36993831 0.078640975 0.16437218 -0.018067038 -0.98623294 0.20353237
-0.42265615 0.36509129 0.076719217 -0.15544859 0.0011897158 -0.98784328 4.7727972e-05
-0.41774386 0.36324376 0.075864807 -0.16099104 -0.00073473301 -0.98695558 2.7222744e-05
-0.40315211 0.36253151 0.073326841 -0.17673144 -7.9015968e-05 -0.98425907 1.9827714e-05
-0.39460942 0.36458167 0.071840994 0.17512056 -0.013864824 0.98444939 0.00031316103
0.39561594 0.36546609 0.072014906 -0.18219124 -0.0036179326 0.98325646 4.577855e-05
0.40614763 0.36466956 0.07384786 0.17326827 0.00071434578 -0.98487437 1.7492552e-05
0.41489831 0.36616978 0.075369887 0.16406091 2.6556738e-05 -0.98645025 2.508034e-05
0.42307296 0.36730888 0.076791711 0.15663658 -0.0011085593 -0.9876557 3.934808e-05
0.43241391 0.36865392 0.078210421 -0.069715269 -0.043276247 -0.99662781 0.13633811
0.44239685 0.36545974 0.079572991 -0.17758884 -0.012068776 -0.98403078 0.23379466
0.47405553 0.36871082 0.070802942 -0.41634792 0.019127056 0.90900415 0.10550388
0.48260158 0.36732435 0.075834379 -0.43375412 0.07921771 0.89754224 0.077377953
-0.48953846 0.37426189 0.079918429 0.30289781 -0.014231306 0.95291674 0.060014412
-0.47566721 0.37420952 0.071751788 0.4523913 0.050985534 0.89036089 0.094345242
-0.44455722 0.37370253 0.079867862 0.18192697 9.716292e-05 -0.98331201 0.19382297
-0.43638426 0.37594545 0.078752339 0.25268865 -0.039170589 -0.96675444 0.21587159
-0.41324842 0.37454709 0.075082913 -0.16375777 0.0015200825 -0.98649937 4.1434861e-05
-0.406822 0.37092936 0.073965155 -0.17186154 0.0033812004 -0.98511535 5.9038161e-05
-0.39424953 0.37664834 0.071778402 0.15557282 -0.025516288 0.98749477 0.00060115726
0.39624992 0.3717849 0.072126344 -0.16660427 -0.013915778 0.98592567 0.00055270153
0.4063991 0.37743387 0.073891595 0.16506544 0.0057517798 -0.98626584 0.0001923151
0.42595482 0.3710888 0.077241868 0.12359656 0.021349071 -0.99210292 0.05773434
0.43492624 0.37404367 0.078553334 -0.037668597 0.060072482 -0.99748302 0.14372361
0.44165999 0.37346557 0.079472415 -0.23740035 -0.086799867 -0.9675262 0.16314819
0.47497714 0.37649807 0.071345523 -0.36884591 0.05770034 0.92769784 0.10700457
0.48323834 0.37869599 0.076209255 -0.45299751 -0.0014357906 0.89151061 0.066261612
-0.48519883 0.3867293 0.077363513 0.31809574 -0.047917683 0.94684684 0.080697715
-0.47510251 0.38713297 0.071419321 0.45670688 -0.080585487 0.88595986 0.09296532
-0.44313702 0.38706559 0.07967402 0.15768802 -0.018237304 -0.98732054 0.21890901
-0.42182329 0.38441736 0.076574355 -0.15751499 0.0005387346 -0.98751646 3.2824046e-05
-0.41597372 0.38585955 0.075556934 -0.15984552 0.0013552035 -0.98714113 6.0575785e-05
-0.40718958 0.38239503 0.074029088 -0.15526403 0.0099895038 -0.98782247 0.00033063983
-0.39680246 0.3849228 0.072222434 0.12723111 -0.063318953 0.98984998 0.0017356505
-0.38959259 0.38804671 0.070928164 0.11300609 -0.10011675 0.98853743 0.0023763939
-0.379498 0.38648999 0.070270859 0.075562596 -0.1222737 0.9896158 0.002282531
-0.35485289 0.38779253 0.070546806 0.001740557 -0.19113034 0.98156315 4.5299596e-05
-0.34858677 0.38740814 0.070465378 -0.00091056764 -0.19204018 0.9813866 4.2491734e-05
-0.33581132 0.38731214 0.070445046 -0.0019987219 -0.19081672 0.98162365 5.9033217e-05
-0.32028148 0.38832289 0.070659176 0.00034106662 -0.19394723 0.98101187 3.920601e-05
-0.29181495 0.38746402 0.070477217 0.00099911273 -0.19147502 0.98149693 5.0031107e-05
-0.23697469 0.38746652 0.070477746 -0.0011720512 -0.19545652 0.9807117 3.6319703e-05
-0.22525384 0.38981035 0.070974305 -0.0021801656 -0.19054247 0.98167652 6.2689178e-05
-0.20490006 0.38629103 0.070228711 -0.00073474646 -0.19674857 0.98045367 3.6788286e-05
-0.19344157 0.38756326 0.070498236 -0.00021508904 -0.19137217 0.98151749 6.0257662e-05
-0.18385157 0.38739678 0.070462972 0.00076445699 -0.19071807 0.98164457 5.7622219e-05
-0.17637062 0.38754928 0.07049527 0.00046058735 -0.19143799 0.98150462 4.7416332e-05
-0.14555573 0.38796288 0.070582904 0.00053608458 -0.19149467 0.98149347 5.6725767e-05
-0.13090622 0.3873536 0.070453823 0.00073353632 -0.19145572 0.98150098 4.3150689e-05
-0.11661351 0.38846743 0.07068979 0.00090900791 -0.19116294 0.98155791 4.4438104e-05
-0.095968626 0.38773081 0.07053373 0.00072933396 -0.19156316 0.98148 4.5084813e-05
-0.082645036 0.38717726 0.070416465 0.00095582084 -0.19242577 0.98131108 4.6378624e-05
-0.076170579 0.38660949 0.070296183 0.00068614434 -0.19161111 0.9814707 3.6861435e-05
-0.050442651 0.38710999 0.070402212 -0.00023979238 -0.19281712 0.98123467 3.390211e-05
-0.042854145 0.38610053 0.070188344 -0.00011914267 -0.19443446 0.98091555 2.9614637e-05
-0.011402905 0.38721499 0.07042446 -0.00041921381 -0.19527285 0.98074889 4.3544198e-05
-0.0033257641 0.38626036 0.070222214 0.00024807334 -0.19584791 0.98063421 3.7639995e-05
0.0055201761 0.38715538 0.070411831 0.00043951179 -0.19421864 0.98095816 4.0323903e-05
0.034311876 0.38658714 0.070291452 -0.00056923094 -0.19317076 0.98116499 4.0266787e-05
0.047405995 0.38641849 0.070255712 -0.0014971972 -0.19453955 0.98089349 4.5967019e-05
0.058703303 0.38850403 0.070697546 -0.00062558136 -0.18920846 0.98193669 3.6215573e-05
0.073629022 0.38857865 0.070713349 0.00026696973 -0.1884668 0.98207957 3.6279751e-05
0.087717295 0.38907 0.070817448 0.00019333533 -0.19108459 0.98157364 3.7403192e-05
0.092776537 0.38789424 0.070568353 -0.00070597284 -0.19290972 0.98121625 4.1594587e-05
0.10103003 0.38546446 0.0700536 4.0080853e-05 -0.192266 0.98134285 4.9354556e-05
0.11547582 0.38584629 0.070134491 -0.00031352564 -0.19479626 0.98084366 4.6754747e-05
0.12334267 0.38956624 0.070922583 0.0011637378 -0.18561581 0.98262167 4.2783948e-05
0.14309552 0.38839513 0.070674479 0.00073914061 -0.19166081 0.98146105 4.5018649e-05
0.15663362 0.38878593 0.07075727 -0.0024864096 -0.18903935 0.98196638 5.944477e-05
0.16121513 0.38785714 0.0705605 0.00058618753 -0.1920204 0.98139077 4.8872618e-05
0.17723516 0.38587883 0.070141383 0.00020600368 -0.19762711 0.98027724 2.9990137e-05
0.1810371 0.38688892 0.070355378 0.00076946267 -0.19334669 0.98113018 4.8166803e-05
0.19248173 0.38670221 0.070315823 5.8094814e-05 -0.19266431 0.98126471 4.4403288e-05
0.20508617 0.38788959 0.070567369 0.001155349 -0.19273332 0.98125052 3.4923036e-05
0.21608937 0.38688496 0.070354536 -0.00066210347 -0.19039722 0.98170692 3.9762741e-05
0.22687836 0.38603157 0.070173748 -0.0014098457 -0.1928701 0.98122334 2.7542186e-05
0.25590456 0.38525534 0.070009284 -0.00040594127 -0.19146375 0.98149949 3.5272325e-05
0.26178539 0.38962382 0.07093478 -0.00014874345 -0.18880394 0.98201478 4.0976196e-05
0.27357024 0.38813278 0.070618898 0.0016310179 -0.19078565 0.98163038 5.2577598e-05
0.28504077 0.3858763 0.070140854 0.00064411067 -0.19340599 0.98111856 4.5496105e-05
0.30652004 0.38831067 0.07065659 0.0018740102 -0.19096456 0.98159504 5.3560481e-05
0.32391825 0.38772184 0.07053183 1.4640112e-06 -0.19004799 0.98177481 4.6183297e-05
0.33665848 0.38662663 0.070299812 -0.0023138295 -0.19053076 0.98167843 4.1254742e-05
0.34900224 0.38668466 0.070312105 -0.00026169783 -0.19067566 0.98165309 4.2369087e-05
0.35487047 0.38815609 0.070623837 -0.0057919123 -0.18763992 0.98222077 0.00012615464
0.36391148 0.3863484 0.070240863 -0.014416942 -0.17827721 0.98387468 0.00045520425
0.37538183 0.38814366 0.070621207 -0.040626902 -0.15234643 0.98749179 0.0014087971
0.39281324 0.38483411 0.071525097 0.11285976 0.060755894 -0.99175167 0.0022997197
0.40360638 0.38718551 0.073405862 0.13580562 0.032597668 -0.99019909 0.0011538835
0.4127275 0.38699645 0.074992307 0.1509421 0.017291889 -0.98839134 0.0003478346
0.43412292 0.38471228 0.078443676 -0.057048954 -0.1411251 -0.9883467 0.17255154
0.4428955 0.38019291 0.079641052 -0.26379055 0.026868701 -0.96420568 0.15921785
0.47625715 0.38292497 0.072099119 -0.47327128 0.0035517563 0.88090956 0.087991878
0.48789173 0.38750741 0.07894893 -0.43974975 0.038012426 0.89731562 0.067581534
-0.48533639 0.39504394 0.077444471 0.33832881 0.0036830816 0.94102079 0.079474255
-0.47982594 0.39749113 0.074200243 0.44206634 -0.029193701 0.8965072 0.086528338
-0.4415096 0.39324918 0.079451889 0.22867884 0.051795825 -0.97212303 0.18759295
-0.43480644 0.39463001 0.07853698 0.072637945 0.091804117 -0.99312425 0.18693922
-0.42627925 0.39423084 0.077312008 -0.012520605 -0.013641777 -0.99982858 0.10809576
-0.41448292 0.39735577 0.075297624 -0.12910755 0.049272716 -0.99040568 0.00080172595
-0.40729013 0.39341843 0.074046582 -0.1243915 0.050058503 -0.99096972 0.0010265327
-0.3942987 0.3959794 0.072506681 -0.08723931 0.089958958 -0.99211729 0.0023241562
-0.38492405 0.39586228 0.072058909 0.067917444 -0.15619464 0.98538846 0.0014945845
-0.37834755 0.39140764 0.071284108 0.044115864 -0.1439977 0.98859417 0.0012200215
-0.36486831 0.39725351 0.072300889 0.0067394366 -0.17696106 0.98419482 0.00012702853
-0.35990867 0.39951503 0.072694242 -0.0001209894 -0.18076226 0.98352683 3.4507513e-05
-0.34577137 0.39227736 0.071435377 -0.00074046571 -0.19000627 0.98178256 4.7218186e-05
-0.33732915 0.3940444 0.071742721 0.0011518794 -0.18550929 0.98264182 4.6162328e-05
-0.32265484 0.39445469 0.07181073 0.00011474372 -0.18621683 0.98250866 4.8723683e-05
-0.3102949 0.39197746 0.071383215 0.00029123318 -0.18789867 0.9821884 4.627146e-05
-0.30523387 0.39670315 0.072205164 -0.00071871816 -0.18351328 0.98301697 4.418501e-05
-0.29684916 0.39356303 0.071658999 0.0022847857 -0.18725926 0.98230785 4.7851488e-05
-0.28729481 0.3942309 0.071775161 0.00032326663 -0.18387683 0.9829492 4.455803e-05
-0.27666169 0.39363992 0.071672373 0.0020258157 -0.18797518 0.98217171 3.0615742e-05
-0.26306647 0.39449561 0.07182119 -0.00078272773 -0.18502007 0.9827345 3.540772e-05
-0.25846571 0.3990829 0.072619081 -6.4839231e-05 -0.18264204 0.98317945 3.7163019e-05
-0.24638548 0.39354581 0.071653232 -0.0021394058 -0.18921657 0.98193312 2.8142065e-05
-0.2374139 0.39764363 0.072368741 0.0007070842 -0.18378222 0.98296672 4.5681893e-05
-0.22803786 0.3915903 0.07131587 -0.0013929124 -0.19028793 0.9817273 5.9706294e-05
-0.21882387 0.3931604 0.071588971 -0.00091917044 -0.18450305 0.98283154 3.7645503e-05
-0.2045365 0.39399356 0.071733877 -9.1581478e-06 -0.18484685 0.9827674 3.6257356e-05
-0.19321439 0.39292637 0.071548268 -0.00014443752 -0.18746117 0.98227203 4.9860246e-05
-0.18890648 0.39429784 0.071786806 0.00042686416 -0.18446231 0.98283952 3.6751531e-05
-0.17456782 0.39460626 0.071840443 0.00067668443 -0.18452385 0.98282778 3.2722044e-05
-0.16612384 0.39311972 0.0715819 0.00076436973 -0.18540414 0.98266208 3.5747358e-05
-0.15612221 0.39330164 0.071613535 -0.00022136445 -0.1872218 0.98231763 4.6596615e-05
-0.14562215 0.39459229 0.071838021 -0.0018739072 -0.18681401 0.98239344 4.1223302e-05
-0.1381198 0.39596707 0.07207714 0.00027336014 -0.18341836 0.98303485 3.903273e-05
-0.12424292 0.39563638 0.072019614 -0.00078965595 -0.18568893 0.98260826 4.8847134e-05
-0.11593889 0.39345098 0.071635164 -0.0009384281 -0.18864518 0.98204488 4.9095226e-05
-0.10394551 0.39764333 0.072368704 -0.00053715153 -0.18086071 0.98350859 3.5913057e-05
-0.095487401 0.39273688 0.071515307 0.0013392874 -0.1898164 0.98181868 4.6503759e-05
-0.086195849 0.39697313 0.072252117 0.00010126754 -0.18561979 0.98262167 3.8775306e-05
-0.075399637 0.39555347 0.072005197 -0.00039997511 -0.18473594 0.98278809 3.8593025e-05
-0.064412214 0.39268935 0.071500808 -0.0007932944 -0.18750438 0.98226345 3.7913294e-05
-0.052076131 0.39763203 0.072366722 -0.00019412779 -0.18246433 0.98321247 4.1175816e-05
-0.048693668 0.39576662 0.072042271 0.0005069024 -0.18325114 0.98306602 4.4999691e-05
-0.038892403 0.39592788 0.072070315 -3.3652497e-05 -0.18469155 0.98279661 2.7512082e-05
-0.025056534 0.39602482 0.072087184 0.00097702909 -0.18724461 0.9823128 3.70204e-05
-0.016915148 0.39455214 0.071829744 -0.00011871457 -0.18654312 0.98244679 3.9902046e-05
-0.0073042284 0.39277649 0.071522199 0.00036623477 -0.18703137 0.98235387 4.3757096e-05
0.016115323 0.39314225 0.071585812 0.00076788507 -0.18955846 0.98186916 4.1896779e-05
0.02783376 0.3917295 0.071340084 -0.0016165051 -0.18897359 0.9819808 3.9780771e-05
0.03429985 0.39618883 0.072115704 -0.0011976765 -0.18325359 0.98306495 3.9133723e-05
0.045741335 0.39521912 0.071947038 0.00047974463 -0.18209141 0.98328143 3.2939122e-05
0.055872746 0.39706028 0.072267279 0.001242339 -0.18099774 0.98348272 3.0454636e-05
0.062731028 0.39366961 0.071677536 0.00020493896 -0.18698367 0.98236293 3.6971873e-05
0.070503473 0.39778715 0.072393708 -0.00014736805 -0.18152659 0.98338604 3.1684289e-05
0.084982656 0.39627817 0.072131246 -9.823015e-05 -0.18096974 0.98348868 3.1166546e-05
0.091470167 0.39613774 0.072106823 0.00014290659 -0.18156841 0.98337829 2.8956401e-05
0.10165302 0.39443564 0.071807638 0.0012497824 -0.1821162 0.98327625 3.9755825e-05
0.11268127 0.39353502 0.071654126 0.0025007699 -0.18243691 0.98321432 3.2482818e-05
0.12130889 0.39476413 0.071867898 0.00067476265 -0.18211709 0.98327661 2.6095115e-05
0.1446362 0.39370027 0.071682878 -0.0015097864 -0.18413994 0.98289889 5.3854372e-05
0.1540152 0.39431214 0.071789287 -0.00095719186 -0.18121637 0.98344284 3.8840855e-05
0.16332766 0.39607546 0.07209599 -0.00070538686 -0.18144448 0.98340094 2.8522873e-05
0.17396486 0.39674485 0.072212413 -1.3581696e-05 -0.18100595 0.983482 3.3895711e-05
0.18619555 0.39695737 0.072249383 0.00020296039 -0.18407935 0.98291135 3.0183057e-05
0.19546926 0.39431942 0.071790561 -0.00091700465 -0.18354289 0.98301125 3.337282e-05
0.20270491 0.39731055 0.072310813 0.00012793476 -0.18199359 0.98329973 2.5907615e-05
0.2168548 0.39508218 0.071923226 -0.00092482992 -0.18727186 0.98230767 3.3641969e-05
0.22610453 0.39679775 0.072221614 -8.2452418e-05 -0.18367736 0.98298663 3.2444397e-05
0.23815157 0.3946735 0.071844719 -0.00019201999 -0.18605152 0.98254001 3.7472779e-05
0.24394888 0.39074177 0.071167573 -0.00051490893 -0.18692645 0.98237371 3.667588e-05
0.2559222 0.39421901 0.071773097 -0.00034207792 -0.18464865 0.9828046 2.8556055e-05
0.26483414 0.39448619 0.071819559 -0.0001484275 -0.18424389 0.98288053 2.6708372e-05
0.27366027 0.3932296 0.071598008 0.001768453 -0.18666486 0.98242205 4.431378e-05
0.28659832 0.39389306 0.071711987 0.00077422621 -0.18609914 0.98253065 4.6179081e-05
0.29390678 0.39409313 0.0717512 0.00083077844 -0.18492693 0.98275185 3.7539849e-05
0.30481279 0.3949168 0.071894467 0.00041730815 -0.18324448 0.98306727 3.3264063e-05
0.31273237 0.39402634 0.071739577 0.0010320861 -0.18560894 0.98262316 4.2806761e-05
0.33586985 0.39668095 0.072201297 -0.0026807433 -0.18136887 0.98341143 3.3601023e-05
0.34707358 0.39614999 0.072108954 -0.00052667316 -0.18080342 0.98351908 3.2310661e-05
0.35837203 0.39351225 0.07165017 -0.0037973549 -0.18032104 0.9836005 9.4416217e-05
0.36480302 0.39278522 0.071523711 -0.0087120719 -0.17990492 0.98364538 0.00024529602
0.37736687 0.39694753 0.072247669 -0.025043296 -0.1613315 0.98658252 0.0006395792
0.38561064 0.39480087 0.071874298 -0.066827312 -0.1176803 0.99080038 0.0020990004
0.39691791 0.39367834 0.072487101 0.078396656 0.086612605 -0.99315262 0.001998747
0.40240991 0.39412379 0.073197752 0.10335867 0.066113174 -0.99244446 0.0017247061
0.41781905 0.39132506 0.07587789 0.15157594 0.014475097 -0.9883396 0.0002966671
0.42574 0.39778921 0.077201486 0.074723452 0.021342272 -0.99697584 0.078261346
0.43128896 0.39579037 0.078056872 -0.12542732 -0.15725298 -0.97956085 0.15756382
0.4433105 0.3985557 0.079697698 -0.10660748 -0.054921068 -0.99278325 0.19815762
0.47343248 0.39844781 0.07043612 -0.44718757 -0.0078830766 0.89440548 0.095419668
0.48443785 0.39292297 0.07691548 -0.45802426 -0.025739953 0.88856685 0.068943858
-0.48304868 0.4059898 0.076097608 0.37603459 0.0032676945 0.92659986 0.091163151
-0.47574162 0.40269172 0.07179562 0.40936613 -0.0049674162 0.91235667 0.10358137
-0.44253671 0.40236545 0.079592079 0.19114117 0.04214989 -0.98065722 0.16721962
-0.43384349 0.40209311 0.078405544 0.050649494 0.17968994 -0.98241848 0.17858614
-0.42351112 0.40362015 0.076867931 -0.12291683 0.027605064 -0.992033 0.00077065697
-0.41348773 0.40841463 0.075124539 -0.095125489 0.064498201 -0.99337357 0.0014333598
-0.38284233 0.40604672 0.073830307 0.023986079 -0.15912072 0.98696768 0.00060922187
-0.37531403 0.40497479 0.073643863 0.012648327 -0.16902448 0.98553067 0.00036254185
-0.36737031 0.40759623 0.074099809 -0.0031625407 0.17086241 -0.98528987 3.1800366e-05
-0.34577313 0.4035368 0.073393747 0.00010722033 0.17597973 -0.98439384 2.5139592e-05
-0.33366132 0.40406698 0.07348597 0.00034871683 0.17470209 -0.98462123 1.0124977e-05
-0.3248603 0.40561804 0.073755749 0.00025543827 0.17353545 -0.98482758 2.0535343e-05
-0.31057692 0.40706512 0.074007444 -0.00042145263 0.17143802 -0.98519486 2.0576141e-05
-0.29597178 0.4043957 0.073543146 -0.00091159559 0.17825672 -0.98398358 2.7275353e-05
-0.28284019 0.40637502 0.073887408 0.00099811412 0.17119025 -0.98523754 1.5316888e-05
-0.27319485 0.4058466 0.073795505 -0.0004597028 0.17622374 -0.98435003 1.7494389e-05
-0.26490849 0.40251693 0.073216364 0.0010344068 0.17816894 -0.98399937 2.6467096e-05
-0.25777835 0.40596744 0.073816523 9.1830052e-06 0.17567758 -0.98444772 1.5230287e-05
-0.23621911 0.40496045 0.073641375 -0.00040004076 0.17545359 -0.98448771 1.7950855e-05
-0.22513057 0.40037149 0.072843209 0.00010402967 -0.18045874 0.98358256 4.5046429e-05
-0.21479186 0.40996659 0.074512102 -0.00098095939 0.17030092 -0.98539162 2.397135e-05
-0.19500598 0.40617824 0.07385318 -0.0002317176 0.17453036 -0.9846518 1.5088284e-05
-0.18485069 0.4054518 0.073726833 0.00041792612 0.17708632 -0.98419517 2.1915459e-05
-0.17490175 0.406308 0.073875748 0.00092428311 0.17323807 -0.98487949 2.1407956e-05
-0.16943362 0.40801316 0.074172333 0.00081318576 0.17044882 -0.98536617 2.6191035e-05
-0.1537313 0.40600508 0.073823065 -0.00083707314 0.17597999 -0.98439336 2.223053e-05
-0.13471228 0.40534219 0.073707767 0.00032520955 0.17383283 -0.98477513 1.2499985e-05
-0.11808176 0.40034875 0.072839245 0.00070837879 -0.18116023 0.98345339 4.2784271e-05
-0.095596194 0.40551019 0.073736988 -0.00018788042 0.1747033 -0.98462111 2.5131278e-05
-0.089303195 0.40394437 0.073464647 -2.2692395e-05 0.17810179 -0.98401207 2.5501886e-05
-0.071316257 0.40390182 0.073457234 -0.00032659495 0.17687386 -0.98423356 1.788752e-05
-0.065329023 0.40356261 0.07339824 8.1488586e-05 0.17608467 -0.98437506 2.173822e-05
-0.058457479 0.40944934 0.074422128 0.00011642493 0.17055456 -0.98534822 2.4536361e-05
-0.046197876 0.40530133 0.073700659 -0.00054125465 0.17617373 -0.98435891 1.8462186e-05
-0.025976116 0.40381736 0.073442556 -0.00039807489 0.17608598 -0.9843747 1.0024767e-05
-0.019095849 0.40304446 0.07330811 0.00043180143 0.17629144 -0.98433793 1.3323568e-05
-0.0037775114 0.40298215 0.073297285 0.00064139056 0.17678683 -0.984249 1.7906717e-05
0.0033757754 0.40629539 0.073873557 -0.00029943086 0.17271422 -0.98497194 1.6125499e-05
0.016488224 0.40195081 0.073117897 0.00036198518 -0.17936194 0.98378313 3.4640838e-05
0.024761528 0.4041051 0.073492602 -0.0002886295 0.17410579 -0.98472697 1.4844409e-05
0.034834448 0.40302438 0.073304623 0.00057740707 0.17830159 -0.98397571 3.7705518e-05
0.044952825 0.40352038 0.073390901 -0.0010295652 0.17806457 -0.98401833 2.346271e-05
0.066303074 0.40630627 0.07387545 0.00075866742 0.17347626 -0.98483783 1.2627493e-05
0.085587934 0.40813503 0.074193537 -0.00095869869 0.17231596 -0.98504132 1.542409e-05
0.095772363 0.40736547 0.07405968 -9.3267801e-05 0.17190351 -0.98511374 2.4995425e-05
0.10948987 0.40883255 0.074314855 -0.0010134013 0.17312896 -0.98489869 2.4952722e-05
0.1157833 0.40991798 0.074503645 0.00020331155 0.17101811 -0.98526788 3.0566869e-05
0.12294815 0.40203679 0.073132858 -9.9233133e-05 -0.17979774 0.98370361 2.90062e-05
0.14366582 0.40566745 0.073764347 -4.4654571e-06 0.17669506 -0.98426563 2.2787523e-05
0.15506248 0.40712112 0.074017182 0.0011890704 0.17661241 -0.98427975 2.2586766e-05
0.16316004 0.40468451 0.073593378 0.00038561126 0.17653169 -0.98429489 2.4444633e-05
0.17233603 0.40561882 0.07375589 -0.00047304604 0.17477661 -0.98460793 1.738633e-05
0.18413791 0.4037638 0.073433235 -0.00024480204 0.17643325 -0.98431259 3.2234431e-05
0.1937957 0.40481743 0.073616497 0.00035833122 0.17490293 -0.98458564 2.234899e-05
0.20580916 0.40647021 0.073903978 0.00061582105 0.17385145 -0.98477173 2.0507294e-05
0.21727477 0.40388936 0.07345508 -0.00058790314 0.177375 -0.98414314 2.7277207e-05
0.22437248 0.40610677 0.073840752 -2.2280854e-05 0.17511007 -0.98454887 3.7071492e-05
0.23891051 0.40219072 0.073159628 -0.0010465196 -0.17990902 0.98368269 2.7178769e-05
0.24031994 0.40373209 0.073427722 0.00077111396 0.1779087 -0.98404664 3.2978758e-05
0.25311425 0.40625882 0.073867194 0.00032599154 0.17305146 -0.98491269 2.1094307e-05
0.26838708 0.40709919 0.074013367 7.5731965e-05 0.17263131 -0.98498648 2.3257393e-05
0.27593863 0.40562591 0.073757112 -0.00026176614 0.17663759 -0.98427588 3.6108395e-05
0.28067669 0.4035815 0.073401526 -0.00064413564 0.1782469 -0.9839856 3.0781448e-05
0.29480225 0.40532547 0.073704869 -0.00045501225 0.17401512 -0.98474288 1.5982499e-05
0.30417812 0.40832096 0.074225873 6.0911669e-05 0.17247725 -0.98501348 2.3963352e-05
0.31959987 0.40370509 0.073423021 0.00022004198 0.17761421 -0.98410016 2.221439e-05
0.32493475 0.40283549 0.073271774 0.0010624457 0.17737874 -0.98414207 1.8387025e-05
0.33595848 0.40248808 0.073211342 0.00045917369 0.17728178 -0.98416013 3.158694e-05
0.34541914 0.40333819 0.073359214 0.0003461267 0.17498255 -0.98457146 1.9874971e-05
0.35443568 0.40654752 0.073917411 0.00078826147 0.17574048 -0.98443615 1.4711114e-05
0.36967167 0.40570655 0.073771141 0.0037511652 0.17203639 -0.98508346 5.7623878e-05
0.3740983 0.40384784 0.073447861 0.011188286 0.16223225 -0.98668921 0.00023796009
0.38383976 0.40375248 0.073431261 0.021136528 0.15454811 -0.98775917 0.00055724644
0.39685124 0.4074111 0.074067622 0.051029414 0.1226771 -0.99113381 0.0016191893
0.40273714 0.40781769 0.074138336 0.062265966 0.1025773 -0.99277431 0.0014933069
0.41319978 0.40740255 0.075074449 0.087750711 0.068091363 -0.99381256 0.0014188238
0.42196712 0.4058423 0.076599374 0.12417857 0.047054235 -0.99114352 0.00091323844
