# .PCD v0.7 - Point Cloud Data file format
VERSION 0.7
FIELDS x y z normal_x normal_y normal_z curvature
SIZE 4 4 4 4 4 4 4
TYPE F F F F F F F
COUNT 1 1 1 1 1 1 1
WIDTH 598
HEIGHT 1
VIEWPOINT 0 0 0 1 0 0 0
POINTS 598
DATA ascii
0.27905348 0.31959879 0.070307657 -0.44003087 -0.60916173 0.6597687 0.14804268
0.28778619 0.31719324 0.074338093 -0.30126035 -0.62922031 0.71646643 0.1419473
0.32537189 0.31433663 0.07650473 -0.54841822 -0.52245784 0.65289754 0.11959995
-0.32032847 0.32055998 0.076284051 0.54828316 -0.50110531 0.66953641 0.16602789
-0.31404394 0.32403854 0.074899554 0.5341258 -0.54666984 0.64487332 0.15968721
-0.28341252 0.32447416 0.078382075 0.52330267 -0.60782868 0.59724259 0.12453908
-0.2742379 0.32625416 0.073086873 0.54603869 -0.62206167 0.56114244 0.14067295
0.26737294 0.32826686 0.070053011 -0.48600781 -0.49272218 0.72181791 0.16958305
0.27554017 0.3249858 0.072823897 -0.46233445 -0.60754144 0.64586401 0.15531784
0.28091538 0.32757148 0.079599112 -0.50050473 -0.58206922 0.64085138 0.15591894
0.31445625 0.32398486 0.075170174 -0.51743597 -0.63425654 0.57443768 0.12310112
0.32003734 0.3219806 0.077517591 -0.5460369 -0.57024586 0.61372906 0.13716732
-0.30322573 0.33457285 0.077200517 0.40032086 -0.65095198 0.64498425 0.1423794
-0.29936489 0.33476242 0.074343435 0.43995747 -0.65119559 0.61837023 0.13411492
-0.2732802 0.33127543 0.077379055 0.47677279 -0.60796708 0.63487303 0.13970657
-0.26245689 0.33391067 0.071670279 0.55209702 -0.57032418 0.60820991 0.14246452
-0.25823724 0.33846331 0.072891906 0.54974765 -0.59708983 0.58417571 0.14007205
0.2630817 0.33684218 0.075113975 -0.55370575 -0.56685758 0.60998565 0.15531483
0.27382624 0.33197802 0.078534596 -0.51012015 -0.66585535 0.54443938 0.14801931
0.29455006 0.33577037 0.071575239 -0.46641684 -0.693003 0.54972911 0.14324869
0.30243707 0.33275297 0.07470189 -0.36212695 -0.70593727 0.60870075 0.1489405
-0.28406349 0.34627867 0.074111685 0.50441945 -0.58076954 0.63895833 0.14668708
-0.25408486 0.3459909 0.077364966 0.55900186 -0.57566172 0.59676671 0.1434647
-0.24808078 0.34435046 0.071159266 0.43856519 -0.47023609 0.76585805 0.15475519
0.24377844 0.34860581 0.07198365 -0.34101519 -0.60096085 0.72287947 0.1647168
0.25397843 0.34492368 0.076181158 -0.47805247 -0.62541628 0.61670125 0.15285376
0.27497557 0.349419 0.070162259 -0.58363527 -0.63511807 0.50595939 0.13933942
0.28529251 0.34530601 0.074081115 -0.50774962 -0.60409451 0.61421502 0.13716938
0.29084536 0.34019226 0.073202327 -0.46427307 -0.67521453 0.57318038 0.14828841
-0.28437573 0.3516764 0.079920053 0.476962 -0.59515584 0.64675868 0.15367669
-0.27169132 0.35446522 0.07276509 0.59890682 -0.53831881 0.5928942 0.13705961
-0.2433857 0.35193571 0.075031318 0.53376472 -0.49017215 0.68907654 0.15446599
-0.2369428 0.35351557 0.071728483 0.43398941 -0.57469761 0.69381267 0.14927948
0.2298709 0.35747898 0.070429564 -0.45869496 -0.59556043 0.65947455 0.15499862
0.23866627 0.35405442 0.073494278 -0.45889637 -0.58785492 0.66621375 0.15519266
0.24505123 0.35314187 0.077590793 -0.34889007 -0.63066685 0.69320631 0.15445928
0.26944518 0.35800707 0.074638523 -0.47711298 -0.68815547 0.5466308 0.14278087
0.27524474 0.35427916 0.075382724 -0.61331236 -0.49150124 0.61828357 0.12857436
-0.26347366 0.36569288 0.077836432 0.57854587 -0.55130363 0.60112315 0.11509329
-0.25700366 0.3636812 0.070648462 0.54023325 -0.54511809 0.64108837 0.13393322
-0.24858406 0.36990747 0.070406973 0.47960523 -0.59978533 0.64049703 0.13354723
-0.23036538 0.36518225 0.078385763 0.41155398 -0.63897443 0.6498732 0.14899492
-0.22445136 0.36443961 0.073133364 0.31766281 -0.58224678 0.74838424 0.14646423
-0.21644022 0.36865854 0.07118468 0.35531142 -0.6337502 0.68710583 0.16358711
0.22571151 0.36590406 0.07545007 -0.49732566 -0.68950725 0.52654248 0.15177952
0.2325692 0.36318642 0.078071743 -0.3456555 -0.73024601 0.58929032 0.14802559
0.24983171 0.36933911 0.070807815 -0.29174703 -0.68864644 0.66381454 0.15004626
0.25624025 0.36517131 0.071580246 -0.42117229 -0.720976 0.5502795 0.14915413
0.26377556 0.36353058 0.075847164 -0.51519215 -0.6230737 0.58852035 0.13646099
-0.25168622 0.37535363 0.078471065 0.41555983 -0.7245729 0.54982191 0.13091041
-0.24738735 0.37669727 0.076456703 0.46193933 -0.67599952 0.57414001 0.1498051
-0.21486616 0.37348571 0.075092517 0.31413698 -0.67255181 0.67006874 0.14822587
-0.20752805 0.37606972 0.074365638 0.27629417 -0.70503515 0.65313619 0.15402545
0.19175555 0.37898526 0.070402026 -0.24924497 -0.73067451 0.63560349 0.14718163
0.20859237 0.37837517 0.077660836 -0.32755166 -0.70178765 0.63261676 0.14597277
0.21761072 0.37220836 0.075644352 -0.44525498 -0.71148533 0.54363286 0.1389467
0.2220704 0.37213203 0.078988299 -0.5312376 -0.67422682 0.51303494 0.14627856
0.24567097 0.37961096 0.078101814 -0.27893484 -0.71204436 0.64435101 0.14189039
0.25108069 0.37561816 0.078264847 -0.33644938 -0.67485142 0.6567933 0.1314436
-0.2443676 0.38197213 0.079504207 0.40282759 -0.75375527 0.51921368 0.12029993
-0.23428275 0.38329953 0.072898678 0.39967301 -0.73052382 0.55371147 0.13294764
-0.22765701 0.38783497 0.072333343 0.36122158 -0.72776949 0.58298421 0.1215315
-0.19417633 0.38322109 0.076310493 0.31581753 -0.71291888 0.6261037 0.14074148
-0.1850145 0.38878086 0.078428015 0.22226799 -0.703134 0.67542547 0.15665537
-0.17360352 0.38819429 0.07219746 0.30980864 -0.78394717 0.53800124 0.1435629
0.17760846 0.38874903 0.074709065 -0.1824861 -0.74622011 0.64019871 0.12625991
0.18295795 0.38511068 0.073095031 -0.32130593 -0.66299671 0.67616403 0.13761868
0.19172245 0.38201925 0.073648863 -0.29500329 -0.7069568 0.64279479 0.14852202
0.20356479 0.38123718 0.078596182 -0.28783599 -0.68654996 0.66768223 0.14745432
0.23565279 0.38132754 0.071950011 -0.46427161 -0.65346956 0.59785408 0.15056966
-0.21316531 0.39880079 0.077190295 0.21362787 -0.7399255 0.6378662 0.14014509
-0.20513745 0.39753348 0.071679838 0.37385574 -0.76797253 0.52004814 0.13889237
-0.19814157 0.39997736 0.071135201 0.29612252 -0.74541861 0.59721237 0.1393086
-0.17036562 0.39183259 0.074809201 0.35519481 -0.70459747 0.61431181 0.144658
-0.16439417 0.397414 0.078538321 0.36677614 -0.76618743 0.52766669 0.15478611
-0.15531594 0.39767498 0.074390508 0.35553187 -0.74463308 0.56490582 0.14560683
0.14859255 0.39809081 0.071636595 -0.39162517 -0.69105518 0.60751331 0.1548516
0.15391415 0.39744312 0.073464766 -0.47790238 -0.71716046 0.50723773 0.13612355
0.16059002 0.39283177 0.071345232 -0.32944006 -0.73274899 0.59543943 0.14689659
0.17543237 0.39026105 0.075441748 -0.30389068 -0.66021031 0.68685716 0.12573619
0.2055909 0.39818814 0.072690718 -0.23066388 -0.62622505 0.744739 0.1530003
0.21688803 0.39412379 0.07342869 -0.38311371 -0.72002798 0.57860494 0.15720625
0.2269837 0.39265233 0.076764546 -0.4421953 -0.61770058 0.65031469 0.14383779
-0.20637956 0.40180489 0.077422224 0.31432751 -0.76180363 0.56643921 0.12924321
-0.19476461 0.40481234 0.075258166 0.24283902 -0.76156098 0.6008777 0.15505062
-0.18592033 0.40991366 0.076983422 0.27555043 -0.68052703 0.6789366 0.15094908
-0.17847434 0.40815794 0.071176171 0.33460256 -0.72377849 0.60347813 0.13508464
-0.15612736 0.40093565 0.078655265 0.31242418 -0.83025086 0.46159989 0.15793148
-0.14732637 0.40117344 0.074566483 0.33635467 -0.72306079 0.60336435 0.1544583
-0.13144653 0.40900776 0.076074332 0.29166245 -0.79154605 0.5370177 0.14469557
-0.12744728 0.40800452 0.072903223 0.26753989 -0.82403624 0.4993864 0.14206776
0.11855184 0.40903637 0.070129454 -0.12624143 -0.7226516 0.67958641 0.1445813
0.12860164 0.40764222 0.073021941 -0.25987366 -0.71624929 0.64765167 0.14624541
0.13343455 0.40690359 0.074544698 -0.35833594 -0.74053752 0.56850642 0.16679472
0.14345005 0.40338692 0.075295813 -0.2428745 -0.76188064 0.60045803 0.15551896
0.15276547 0.40148738 0.077646405 -0.49489835 -0.61677492 0.61209822 0.12950288
0.18540856 0.40712085 0.073378123 -0.29264998 -0.7180723 0.63144928 0.15366822
0.19476393 0.40533584 0.075885922 -0.17104462 -0.71079338 0.68228769 0.15490265
0.20402221 0.40215072 0.076665558 -0.16633636 -0.83130604 0.53034192 0.16124612
-0.18521568 0.41177398 0.078865319 0.32839251 -0.69803524 0.63632149 0.16150245
-0.17467552 0.41086665 0.072538257 0.32618669 -0.74351132 0.58377504 0.14247495
-0.16620806 0.41434717 0.072506085 0.34715509 -0.80141634 0.48704746 0.13873789
-0.15693836 0.41670522 0.070728362 0.3557764 -0.75699002 0.54807782 0.14183313
-0.11302129 0.41683677 0.076450348 0.19229457 -0.84998763 0.49045274 0.14899467
-0.10481785 0.41701996 0.074720353 0.13245679 -0.8038705 0.57986844 0.15812539
-0.094831161 0.41808 0.074392386 0.011069336 -0.79474396 0.60684389 0.16458321
-0.087352283 0.41708004 0.071955487 0.015900373 -0.83009261 0.55739874 0.15904011
0.058177713 0.41971007 0.070614114 -0.27007216 -0.80624461 0.52633697 0.14397435
0.066437162 0.41959754 0.071666852 -0.15553986 -0.77291328 0.61515236 0.14296661
0.074653156 0.41911104 0.072404504 -0.1140025 -0.80664659 0.57993513 0.1450218
0.082508221 0.41772908 0.071992368 -0.055007286 -0.76479542 0.64192069 0.13768058
0.094818324 0.41794428 0.074215442 -0.068251461 -0.80572158 0.58834898 0.14633
0.10355361 0.41574249 0.072997592 -0.086103581 -0.75755888 0.64706308 0.15300591
0.11357053 0.41523638 0.074889407 -0.15194216 -0.76724374 0.6230976 0.1532613
0.12420234 0.4127869 0.077008396 -0.22919439 -0.79397541 0.56309235 0.14296965
0.15149058 0.4193987 0.071252622 -0.32678381 -0.68171734 0.65457916 0.13747908
0.16524415 0.41637933 0.074465282 -0.41855559 -0.69398957 0.58582395 0.13854627
0.17274852 0.41271245 0.073795207 -0.31183642 -0.6834594 0.6600312 0.14173009
0.1898205 0.41073972 0.07991299 -0.24238494 -0.68503952 0.68700093 0.15092286
-0.15425326 0.42272732 0.076619558 0.35893348 -0.73523968 0.57496899 0.14430396
-0.145942 0.42453539 0.074658334 0.34863597 -0.71940017 0.6007632 0.13721688
-0.13558641 0.42740345 0.072952852 0.3784526 -0.68250179 0.62527186 0.12533149
-0.10148332 0.42114365 0.079464778 0.050524365 -0.80561095 0.59028649 0.15324071
-0.097000673 0.42112726 0.078683808 0.10623877 -0.79872525 0.59224266 0.16459993
-0.085320607 0.42243004 0.078381307 0.097319499 -0.70761395 0.69986534 0.1407055
-0.075308539 0.42217126 0.076350883 0.2140622 -0.67884314 0.70238829 0.13099942
-0.062858373 0.42227969 0.074382558 0.15483873 -0.80135942 0.57779586 0.13766743
-0.053305067 0.42183009 0.0722671 0.04733913 -0.82241505 0.56691498 0.1479632
-0.04543367 0.42549363 0.075564511 0.081457891 -0.79517454 0.6008845 0.15863362
-0.034975935 0.42693356 0.075645827 0.038079735 -0.84648091 0.53105563 0.15040724
-0.026706003 0.42609042 0.073324054 0.12580803 -0.76450109 0.63222653 0.15485699
-0.0082145454 0.42958996 0.074529678 0.045570973 -0.77115703 0.63501185 0.14501345
0.0052755866 0.42788833 0.071943641 -0.0058673914 -0.75167322 0.65950966 0.14327407
0.012979933 0.42743635 0.072653599 -0.064436659 -0.75459421 0.65302026 0.14722574
0.025689894 0.42688417 0.074059412 -0.1103541 -0.72883153 0.67574149 0.1514436
0.032941733 0.42545724 0.073560297 -0.068384193 -0.77168137 0.63232237 0.14256115
0.045256883 0.42221081 0.071576789 -0.089513548 -0.8069247 0.58383203 0.14180097
0.054749217 0.4241426 0.075440526 -0.08909706 -0.81231898 0.57636762 0.14316662
0.065881342 0.42236686 0.075004615 -0.16183801 -0.7382769 0.65479439 0.14002506
0.08560472 0.42238131 0.078366704 -0.14146593 -0.66691881 0.73157823 0.14784911
0.096543007 0.42083722 0.07823275 -0.17721251 -0.69041717 0.70137 0.14499225
0.10289022 0.42097116 0.079481155 -0.12374842 -0.75401986 0.64508933 0.1573887
0.13821255 0.42741734 0.074274674 -0.26557976 -0.74732465 0.60907584 0.13536485
0.14079073 0.42646289 0.074410841 -0.2946187 -0.66981995 0.68157244 0.13723004
0.15280584 0.42266592 0.075826496 -0.32666665 -0.73758394 0.59098125 0.13496712
-0.12231512 0.43351072 0.073684961 0.15511115 -0.75523114 0.636841 0.13101611
-0.11518548 0.43635061 0.074116915 0.085373342 -0.75994337 0.64435816 0.13387555
-0.10193241 0.4397788 0.076284453 0.02748416 -0.7446081 0.6669358 0.14283042
-0.094413601 0.43892655 0.073912546 0.133312 -0.71498317 0.68631405 0.15657476
-0.089580655 0.43897548 0.07315629 0.17469242 -0.81330973 0.55498618 0.16389486
-0.075592503 0.43947816 0.071432337 0.12545787 -0.72165388 0.68079084 0.15166378
-0.023903221 0.43036222 0.078183524 0.061616655 -0.77008432 0.6349594 0.14748316
-0.019017866 0.43161505 0.078968562 0.033449564 -0.76978749 0.63742322 0.14797069
0.0057162745 0.43297857 0.078469381 -0.048881542 -0.71672529 0.69564033 0.14615959
0.017248234 0.43211401 0.079311021 -0.17461874 -0.74656934 0.64198327 0.15901662
0.023666257 0.43112594 0.079126738 -0.14043236 -0.81596941 0.56077856 0.15341146
0.034767844 0.43033698 0.079992786 -0.090415917 -0.79292142 0.60257822 0.16209953
0.1037696 0.43649593 0.072368868 -0.092297532 -0.72964448 0.67756933 0.15139677
0.11357677 0.43871793 0.076892383 -0.17572384 -0.79709506 0.57772022 0.15037595
0.1258591 0.43259227 0.074344255 -0.25006151 -0.79479843 0.55296004 0.14018002
0.13204356 0.43165192 0.076289617 -0.23180611 -0.78788841 0.5705241 0.14126779
-0.10680937 0.44107375 0.07877858 0.058393199 -0.78125441 0.62147546 0.1495759
-0.09169282 0.44069451 0.075727783 0.13154687 -0.76118368 0.63505489 0.17206089
-0.073171005 0.44344532 0.076129988 0.063395463 -0.85927087 0.50757724 0.1374108
-0.065849513 0.44334814 0.074763693 0.054249831 -0.83496201 0.54762697 0.14236155
-0.055615034 0.44308433 0.072689109 0.33352894 -0.74690151 0.57523602 0.13177426
-0.045126542 0.4466491 0.075501174 0.053944066 -0.80785191 0.58691168 0.14213844
-0.034489993 0.44558993 0.072334297 0.039215479 -0.77458483 0.63125306 0.1256548
-0.024377212 0.44643727 0.071711056 0.1989748 -0.74519014 0.63647515 0.14009719
-0.011549338 0.44775853 0.071237788 0.097379901 -0.7554279 0.64795518 0.14111446
0.0080253165 0.44915307 0.072436035 -0.091428556 -0.73134297 0.67585379 0.13948846
0.016328691 0.44828415 0.072724789 -0.24140497 -0.72817475 0.64147103 0.13641217
0.027260732 0.44689813 0.07279329 -0.049543351 -0.76334792 0.64408487 0.14966691
0.034643039 0.44848454 0.07608743 -0.14884259 -0.73364145 0.66303551 0.14856821
0.047335371 0.44654238 0.075738177 -0.089397952 -0.72854537 0.67913896 0.14903918
0.052357003 0.44537663 0.075088434 -0.12094922 -0.70889264 0.69486862 0.1360299
0.064445049 0.44278762 0.073803902 -0.12862684 -0.73933351 0.66093957 0.14431088
0.077747464 0.4430598 0.076409332 -0.048822165 -0.76099497 0.64691806 0.13345137
0.082759507 0.44253474 0.076582938 -0.070778735 -0.71069771 0.69992799 0.15227795
0.093389161 0.44117719 0.076636821 -0.093705915 -0.75981098 0.64335567 0.15102707
0.10303241 0.44089425 0.077907175 -0.2026559 -0.75672132 0.6215331 0.15539221
-0.031017242 0.45002306 0.077453747 0.134106 -0.79353338 0.59356582 0.13554297
-0.0054429807 0.45206854 0.075752273 0.068359509 -0.79759878 0.59930223 0.14116597
0.0035538161 0.45179069 0.075074248 -0.025433423 -0.75813264 0.65160424 0.13770935
0.014859423 0.45220241 0.077520877 -0.27658051 -0.79899877 0.53395158 0.14593993
0.025025463 0.45169139 0.078586206 -0.055088013 -0.76091456 0.64650929 0.15195684
0.014488403 -0.46086189 0.088607997 -0.12263054 0.82327342 0.55424058 0.13150311
-0.090025999 -0.45049262 0.088061363 0.22397311 0.75166976 0.62034553 0.12313492
-0.080552071 -0.45177251 0.088103399 0.18356103 0.76459855 0.6178143 0.13134077
-0.071018875 -0.45314586 0.088255651 0.028157404 0.82814431 0.55980724 0.14553611
-0.064298585 -0.45368841 0.087815076 -0.01571076 0.84635216 0.53239191 0.1216094
-0.05107329 -0.45251316 0.084059894 0.041804127 0.76952219 0.6372503 0.153576
-0.044578485 -0.453973 0.084838614 0.087584428 0.80883211 0.58148056 0.14476837
-0.032681283 -0.45375109 0.082536049 0.28090256 0.78773808 0.54823577 0.13510388
-0.028938631 -0.45762455 0.086889155 0.20276713 0.81031108 0.54980129 0.12646647
-0.010232108 -0.45489228 0.080199994 0.033248443 0.75237554 0.65789479 0.1414735
-0.0043361429 -0.45792055 0.083099805 -0.0008266989 0.75888437 0.65122491 0.14197695
0.0083466396 -0.45878902 0.084897839 -0.096078701 0.78119606 0.61684823 0.13657422
0.015076177 -0.4590939 0.086431175 -0.14580959 0.73460704 0.66264027 0.12391187
0.027962696 -0.45582831 0.084410876 -0.06335777 0.83857268 0.54109299 0.14091985
0.033397984 -0.45662984 0.086364232 -0.13693808 0.82815123 0.54351962 0.14271782
0.044128776 -0.45235932 0.082684606 -0.072268248 0.80162835 0.59343863 0.15193634
0.057272136 -0.45317754 0.085966088 -0.18312129 0.80103391 0.56992215 0.15439209
0.064842142 -0.45495352 0.089536116 -0.071213178 0.74584115 0.66230637 0.15540162
0.081873372 -0.45148695 0.087959677 -0.19310577 0.73894447 0.64550072 0.13675189
0.095386557 -0.45063737 0.089156434 0.022543104 0.82379353 0.5664416 0.15590398
-0.13511565 -0.44020498 0.088078946 0.15782562 0.80010897 0.57871997 0.15782404
-0.12396796 -0.4427399 0.08558014 0.21297468 0.73630506 0.642259 0.15093823
-0.11750755 -0.44482443 0.085477263 0.24667704 0.71950948 0.64919686 0.15633985
-0.10661641 -0.44650576 0.085740134 0.25533655 0.78820729 0.55993968 0.12680328
-0.08554785 -0.44692162 0.082704186 0.053124838 0.79573089 0.60331583 0.14195693
0.010826231 -0.44038463 0.088871688 -0.078767836 0.79148197 0.60609567 0.15717231
0.060980324 -0.44842687 0.080477759 -0.15531392 0.74560738 0.64803338 0.14460425
0.10340729 -0.4469862 0.085814789 -0.066721879 0.79575765 0.60192859 0.15463087
0.11380085 -0.44581899 0.086073793 -0.13050485 0.76464516 0.63109922 0.1276034
0.12794536 -0.44268352 0.087489188 -0.24885321 0.7806918 0.57322991 0.13039273
-0.14368667 -0.43341091 0.084186792 0.21521197 0.68595725 0.69508737 0.14304325
-0.13734543 -0.4363952 0.084615938 0.22875816 0.70726836 0.66891044 0.15127511
-0.12993309 -0.43605673 0.080525875 0.27946982 0.66241115 0.69505984 0.15719908
-0.067171715 -0.43153799 0.087032206 0.027143065 0.77056932 0.636778 0.1411543
-0.052692719 -0.4355607 0.089757413 0.10398892 0.74903214 0.65432191 0.15653703
-0.044485528 -0.43177223 0.083488114 0.04964954 0.77699804 0.62754208 0.14976363
-0.033680603 -0.43449283 0.085159615 0.1007681 0.80041581 0.59091485 0.14101745
-0.02643729 -0.43204015 0.080773599 0.2261637 0.72359926 0.65211511 0.14364554
-0.016415965 -0.43620372 0.084435888 0.092553839 0.7125752 0.69546419 0.14593934
-0.0061809644 -0.43705475 0.083796635 0.034125049 0.72918075 0.68346977 0.15966962
0.0065274769 -0.43770957 0.084698558 -0.092308931 0.71220189 0.69587898 0.16772452
0.015092853 -0.43754634 0.085940413 -0.025490755 0.7680546 0.63987684 0.15364446
0.022352321 -0.43502262 0.083921418 -0.033723388 0.7912066 0.61061829 0.14775392
0.033840992 -0.43387681 0.084393568 -0.035490431 0.87437683 0.48394796 0.13074414
0.046859652 -0.43305758 0.085545614 -0.25706175 0.8166855 0.51666623 0.14055771
0.052653186 -0.43415225 0.087937213 -0.22397606 0.81944776 0.52757949 0.14194915
0.068906732 -0.43249306 0.088556111 -0.13718925 0.75156415 0.64523667 0.14452206
0.079717569 -0.43087256 0.08830218 -0.096993975 0.73055166 0.67593378 0.12747906
0.12201871 -0.43936938 0.080567136 -0.15994409 0.7769959 0.6088475 0.13436168
0.1381198 -0.43517241 0.083533585 -0.39165556 0.69037092 0.6082713 0.14768909
0.14422673 -0.43356618 0.084641449 -0.42646348 0.64437407 0.63475275 0.1346685
0.15545228 -0.43073249 0.086820528 -0.290308 0.75873917 0.58312625 0.13689564
-0.17514327 -0.42195001 0.086069167 0.30022764 0.70816815 0.63903147 0.15056086
-0.16783862 -0.42487499 0.085948348 0.29818335 0.67562348 0.67425495 0.13607562
-0.15209997 -0.42795485 0.081821673 0.29930341 0.63199896 0.71483892 0.13751057
-0.12185094 -0.42263928 0.087661237 0.20581953 0.69749725 0.6863935 0.14348742
-0.11646625 -0.42372257 0.086359173 0.30504736 0.77954566 0.54704171 0.142075
-0.10685138 -0.42459399 0.084817454 0.25768706 0.81155378 0.52438337 0.14925362
-0.097664259 -0.42755604 0.087074049 0.28778148 0.77073359 0.56846434 0.13927503
-0.083390988 -0.42749992 0.084582232 0.14207582 0.74532306 0.6513893 0.15938117
-0.076247104 -0.4261727 0.081662282 0.074356608 0.73627675 0.67258286 0.16414891
-0.043667793 -0.42945707 0.080368511 0.15624116 0.74404252 0.64960718 0.16556823
0.059564732 -0.42719153 0.080146179 -0.24453844 0.8029871 0.54351872 0.1419201
0.068406813 -0.42804757 0.082747288 -0.18790199 0.81162101 0.55314022 0.13553885
0.072872408 -0.42715162 0.082350671 -0.24189873 0.76956129 0.59098256 0.14378569
0.082065746 -0.42792344 0.084902868 -0.068144128 0.68276572 0.72745264 0.12635441
0.093485735 -0.42697877 0.085622393 -0.062373731 0.7601316 0.64676851 0.14061938
0.10497101 -0.42584109 0.08610449 -0.074543528 0.69994199 0.71029884 0.15265338
0.11766311 -0.42094225 0.083543681 -0.22521912 0.76209021 0.60703784 0.15342797
0.12186829 -0.42240733 0.087391555 -0.27228892 0.80255353 0.53081685 0.14860559
0.15680923 -0.42715454 0.083201915 -0.27193493 0.76550055 0.58314699 0.13682693
0.16273642 -0.42974108 0.089251213 -0.26676312 0.73372251 0.62489086 0.14403093
0.1742987 -0.42292619 0.086820677 -0.24546318 0.73672742 0.63006389 0.15436824
0.18339342 -0.42180791 0.089999005 -0.304077 0.76537389 0.56722128 0.14212115
-0.20222071 -0.41379333 0.08973977 0.27835795 0.72079623 0.63479894 0.14482735
-0.19265079 -0.41366974 0.084835246 0.25668901 0.73189831 0.6312176 0.15048328
-0.18354672 -0.41851717 0.086126789 0.15727124 0.72310662 0.67259395 0.1565282
-0.1780245 -0.41728291 0.08190129 0.22313333 0.70159799 0.67673618 0.14511183
-0.14203385 -0.41555971 0.089197628 0.3165704 0.63304728 0.7064237 0.12963702
-0.13668302 -0.41783118 0.08926373 0.24793963 0.64582586 0.72210443 0.13617532
-0.12369348 -0.41635531 0.081037074 0.19195747 0.68899351 0.69888502 0.14164987
-0.11912 -0.41839004 0.081205495 0.30344746 0.70094466 0.64544261 0.14624886
0.12476545 -0.41633606 0.081546746 -0.31253165 0.66771781 0.67563063 0.15806362
0.13675484 -0.4118737 0.082151249 -0.28978992 0.79357529 0.53503275 0.14490239
0.14188293 -0.41169178 0.084481597 -0.32345018 0.77414167 0.54413658 0.12668212
0.18344063 -0.41568568 0.082676619 -0.28455475 0.63113135 0.72159678 0.13265172
0.19299614 -0.41369206 0.085033618 -0.33629924 0.70853072 0.62039262 0.14486177
0.20202553 -0.41099256 0.086282186 -0.42755485 0.69547582 0.57750356 0.14574185
-0.22463475 -0.4009223 0.085436046 0.32338488 0.64584672 0.69159544 0.14635685
-0.21575259 -0.40493366 0.085834682 0.28980589 0.65976155 0.69334495 0.14318359
-0.17592657 -0.40128541 0.088915065 0.26178613 0.70986348 0.65388221 0.15286618
-0.16203462 -0.40356606 0.084747314 0.25698817 0.75697982 0.60078162 0.13634335
-0.15655759 -0.40503317 0.083785504 0.25910491 0.74535972 0.61425036 0.14472224
-0.14181156 -0.4093827 0.081675619 0.31552708 0.76343745 0.56356537 0.12858932
0.14611953 -0.40966249 0.084152341 -0.39226034 0.72387224 0.5675745 0.12783809
0.15381244 -0.40745455 0.085326448 -0.3586452 0.70114881 0.61624986 0.14007026
0.16639256 -0.40127516 0.084164396 -0.25868219 0.6619913 0.70345652 0.1370855
0.17259176 -0.40044135 0.086244896 -0.28304562 0.69586617 0.66004199 0.14169651
0.20790471 -0.40870389 0.086458072 -0.3373673 0.75605071 0.56086594 0.15166681
0.21131858 -0.4055481 0.084368214 -0.25365484 0.80478996 0.53663051 0.14950478
-0.23713313 -0.39271539 0.084853798 0.43927887 0.68018752 0.58683813 0.15595128
-0.22160509 -0.39950526 0.082230039 0.37728614 0.63257402 0.67639124 0.15043299
-0.19099534 -0.39135176 0.084485233 0.38988286 0.71216303 0.58379382 0.1376626
-0.18403547 -0.39382014 0.083987959 0.23996565 0.69288343 0.67994779 0.14378491
-0.17367902 -0.39782321 0.083643928 0.25734359 0.78894407 0.55797982 0.15510729
-0.16344416 -0.39956611 0.080648467 0.27056381 0.7080586 0.65226394 0.13927881
0.16461542 -0.39912793 0.080704778 -0.32361057 0.76286095 0.55974936 0.13880014
0.18584883 -0.39593863 0.087430984 -0.28748217 0.76082081 0.5818125 0.13678625
0.19461155 -0.39235091 0.087481305 -0.26426116 0.76853597 0.58268219 0.14228645
0.22767735 -0.3961314 0.08119981 -0.38188061 0.81075776 0.4436655 0.13304195
0.23518653 -0.3937096 0.084339187 -0.41782278 0.79478937 0.44015211 0.12969221
-0.25858918 -0.38061193 0.089346498 0.52403522 0.57939225 0.62425286 0.14752591
-0.24680437 -0.38623032 0.085818112 0.365753 0.69290328 0.62137729 0.13924497
-0.23549736 -0.38940409 0.080148742 0.46963537 0.66340756 0.58252299 0.14023255
-0.22073182 -0.38352704 0.089875668 0.36972129 0.67955106 0.63365328 0.15287948
-0.21426554 -0.38357925 0.086724602 0.26847774 0.71171647 0.64913744 0.1421731
-0.20537196 -0.38484135 0.083818808 0.38916832 0.65776098 0.64490187 0.13692552
-0.19564703 -0.38907611 0.084066659 0.31358147 0.73391533 0.60252392 0.14461496
0.1921259 -0.38852292 0.081652917 -0.22038706 0.73369068 0.64274997 0.14065456
0.20375226 -0.38824773 0.087101012 -0.28224471 0.72916383 0.62342435 0.16539913
0.22170928 -0.38058293 0.087410182 -0.38526914 0.77432185 0.50198948 0.14253165
0.23839881 -0.38916543 0.082196742 -0.46135867 0.66577637 0.58642137 0.12822914
0.24776056 -0.38140422 0.081601538 -0.52661806 0.56578565 0.63447613 0.12728395
0.25109804 -0.38007289 0.082868472 -0.51131469 0.59721291 0.61797577 0.12522589
-0.27054289 -0.37029123 0.088163309 0.52680469 0.5499534 0.64809573 0.13421273
-0.26405001 -0.37330246 0.086132586 0.51727045 0.59100455 0.61898696 0.14734988
-0.25744712 -0.37694263 0.084662892 0.47365284 0.58096361 0.66191703 0.1394165
-0.23119782 -0.37295139 0.087048784 0.41248652 0.63661915 0.65159106 0.14093348
-0.2264508 -0.37802121 0.088519394 0.41502261 0.63379669 0.65273112 0.1446899
-0.21840155 -0.37894234 0.083216503 0.26712498 0.68986785 0.6728496 0.13003743
0.22785714 -0.37366083 0.085138559 -0.4447923 0.74689853 0.49426955 0.14510573
0.25109273 -0.37730587 0.080013283 -0.52011186 0.58534759 0.62197417 0.11479531
0.26284772 -0.37623841 0.088207036 -0.53393883 0.51423317 0.67117327 0.14195718
-0.2710748 -0.36357945 0.081668437 0.37332544 0.60693818 0.70160824 0.13667585
-0.26752731 -0.36471611 0.080034852 0.4793309 0.59431905 0.64577615 0.14018302
-0.24526161 -0.36422175 0.089173235 0.49756604 0.56321353 0.65971094 0.14130649
-0.23712063 -0.36836123 0.08700195 0.41856718 0.57210767 0.70533288 0.1477786
0.23827238 -0.3616707 0.081019014 -0.47587538 0.52365726 0.70662981 0.14182419
0.24556303 -0.36211252 0.08723826 -0.65188968 0.50041837 0.56975549 0.14707083
0.26959193 -0.3689419 0.0860212 -0.54977834 0.6389246 0.53806984 0.14020345
0.276476 -0.36546504 0.087881468 -0.55686492 0.66758704 0.49419522 0.13610658
0.28154603 -0.36143458 0.087737098 -0.55819046 0.62492502 0.54579502 0.14043728
-0.29551819 -0.35002553 0.087028451 0.49925554 0.64780325 0.5754084 0.14522642
-0.28763285 -0.35423383 0.085130163 0.48864737 0.69063956 0.53314233 0.14443496
-0.25449094 -0.35470915 0.086668812 0.4236452 0.64015836 0.64087605 0.14025551
-0.24225032 -0.35767385 0.080045901 0.49929672 0.57757336 0.64584202 0.14021471
0.24688922 -0.35471869 0.080668628 -0.5093981 0.55546987 0.65724182 0.16036563
0.25318873 -0.35243136 0.083292365 -0.64403903 0.43610018 0.62851441 0.13592906
0.28682509 -0.35498542 0.085265912 -0.53660035 0.63202226 0.5591135 0.14826755
0.29249573 -0.35265145 0.087344415 -0.42894119 0.69093657 0.58190721 0.15824562
-0.29419172 -0.34664443 0.082495987 0.53974873 0.658337 0.52465588 0.16243653
-0.28692997 -0.34991729 0.080127001 0.51094699 0.5824948 0.63216531 0.1367781
-0.2715207 -0.34131905 0.086336307 0.44807741 0.68897283 0.56968689 0.13946433
-0.26248035 -0.34338486 0.081317402 0.52357751 0.68452871 0.50723475 0.13621707
0.26336727 -0.34362847 0.082269587 -0.56687558 0.57300746 0.59187365 0.13449802
0.27367067 -0.34207591 0.088815898 -0.58304042 0.54615039 0.60148448 0.14314286
0.29384241 -0.34723735 0.082830735 -0.44018096 0.6539892 0.61525506 0.14415775
0.30480829 -0.34365305 0.087807417 -0.45816639 0.57158196 0.68071842 0.15047239
-0.31184775 -0.33379188 0.083212495 0.50255781 0.55100471 0.66620529 0.13036835
-0.30679324 -0.3379637 0.083514765 0.50832796 0.58815753 0.62902582 0.14842218
-0.28494424 -0.33104333 0.086361602 0.46329334 0.61535758 0.63772595 0.14808075
-0.27250469 -0.33767301 0.083357602 0.46500605 0.66568333 0.5836395 0.14603902
0.27330029 -0.33802155 0.084345683 -0.44723409 0.65667206 0.60725904 0.13859779
0.28465855 -0.33326414 0.088423908 -0.51176971 0.5969646 0.61783898 0.14431404
0.306407 -0.33929473 0.084580824 -0.52409303 0.56759536 0.6349504 0.1541402
0.31614605 -0.33567747 0.088553548 -0.5552063 0.56396365 0.61130255 0.14090747
-0.33288816 -0.3206301 0.089224748 0.4962742 0.58720225 0.63945723 0.14218166
-0.32536644 -0.32530907 0.085489132 0.49393991 0.51186448 0.70286423 0.14895789
-0.29197598 -0.32425091 0.084922403 0.49016702 0.5822342 0.64864451 0.14927036
-0.2858116 -0.32719743 0.083084688 0.48173863 0.61445808 0.62479532 0.14955206
0.28700715 -0.32652628 0.083338417 -0.49460736 0.5917052 0.63659137 0.14649817
0.29203394 -0.3235141 0.084209047 -0.51885301 0.61756861 0.59110111 0.1427269
0.30267233 -0.32051817 0.089533031 -0.47965938 0.58225381 0.65643537 0.14684868
0.31612486 -0.32885671 0.081509084 -0.51799095 0.59126306 0.61813706 0.1482759
-0.33334899 -0.31186685 0.082771294 0.420149 0.53412044 0.7336145 0.12724857
-0.32608896 -0.31956053 0.081373669 0.50606841 0.42650878 0.74965668 0.13757917
-0.31336778 -0.31215471 0.089662544 0.57142586 0.45288089 0.68437666 0.15173991
-0.30412039 -0.31430331 0.084274508 0.49769914 0.59849596 0.62777239 0.13677953
0.29785299 -0.31542006 0.080470011 -0.51780921 0.53933865 0.66406888 0.15008903
0.30355603 -0.31396639 0.083481155 -0.47867578 0.56972998 0.66803986 0.15269312
0.31262794 -0.31112877 0.08809223 -0.54280543 0.52827179 0.65290976 0.14735635
0.32852271 -0.31875402 0.083243594 -0.55002743 0.53922862 0.63773215 0.14655171
0.33482119 -0.31730074 0.088584185 -0.64053249 0.54765499 0.53832346 0.13931374
-0.34108621 -0.30309212 0.083805881 0.61528903 0.43115816 0.65994102 0.14688797
-0.3156012 -0.30442509 0.085852645 0.59219456 0.40336692 0.6975677 0.14089632
0.31513873 -0.30615664 0.086745083 -0.56671441 0.48210505 0.66813886 0.13236472
0.33593416 -0.3059887 0.080787569 -0.55201423 0.55660993 0.62085891 0.1617686
0.34226727 -0.30294585 0.084907122 -0.5495466 0.63380051 0.5443303 0.13463464
-0.3533234 -0.29225826 0.087849014 0.67439878 0.43122762 0.59935707 0.14044966
-0.34566835 -0.29654261 0.08334896 0.67751068 0.3770332 0.63152611 0.15026259
-0.32032797 -0.29097852 0.080091849 0.5474813 0.41719544 0.7254048 0.13515355
0.31822285 -0.29481733 0.08095777 -0.50969774 0.47325632 0.71849614 0.1276706
0.32213315 -0.29299119 0.083543025 -0.56318498 0.44339445 0.69729769 0.1454442
0.34685829 -0.29585618 0.084032312 -0.51646602 0.50782323 0.68947685 0.14360118
0.35301057 -0.29259148 0.087790169 -0.71149802 0.45095956 0.53889328 0.13965225
-0.35458681 -0.28474724 0.083212465 0.60271561 0.53987259 0.58759803 0.13886459
-0.32547498 -0.28743261 0.082591578 0.45520383 0.47002316 0.75621939 0.12779729
0.32713661 -0.28429428 0.08182244 -0.4974995 0.55026823 0.67059618 0.14484848
0.34887844 -0.28840554 0.080223151 -0.5411498 0.44832948 0.7114476 0.13440491
0.35608655 -0.28287038 0.083273873 -0.5973314 0.45187002 0.66257727 0.13110161
-0.36414599 -0.27321976 0.083947971 0.6188885 0.53225583 0.57765108 0.14332616
-0.33576918 -0.27628914 0.08438801 0.57387972 0.53457892 0.62039298 0.13199522
0.33811074 -0.27293324 0.084147401 -0.57338315 0.46370056 0.67543584 0.13949093
0.35826051 -0.27902687 0.082475081 -0.71445227 0.39216045 0.57945496 0.1316193
0.3643927 -0.27466169 0.085342154 -0.68592644 0.31520784 0.65585738 0.1272057
-0.37372229 -0.26369578 0.086285077 0.70271522 0.49410674 0.51190799 0.13949628
-0.3688035 -0.26712677 0.083929643 0.57577819 0.52281225 0.62860703 0.13750875
-0.3467226 -0.26423731 0.086145498 0.57308316 0.50103664 0.64848906 0.13904096
0.34509122 -0.26636228 0.086144634 -0.65668696 0.39635777 0.64160949 0.1469721
0.35131699 -0.26293153 0.089846924 -0.73024434 0.38639113 0.56342268 0.15446374
0.36819753 -0.2667504 0.083007738 -0.62221831 0.41402072 0.6644029 0.14715815
0.37340501 -0.26373845 0.085991889 -0.63696897 0.45867112 0.61958957 0.14381166
-0.38018274 -0.25894415 0.089184888 0.65363169 0.52352875 0.54651922 0.14534956
-0.37660894 -0.25503668 0.082413323 0.7330361 0.45764995 0.50320435 0.14121681
-0.35576236 -0.2518701 0.085681878 0.62151909 0.53852367 0.5689519 0.14589348
0.35533428 -0.25180721 0.085191101 -0.71680278 0.50187653 0.4840596 0.14450189
0.37704301 -0.25779384 0.085040428 -0.51189274 0.60122877 0.6135878 0.1359673
0.38654453 -0.25036275 0.088955171 -0.56908208 0.51656103 0.63977355 0.14240609
-0.38565084 -0.24458201 0.083464049 0.70887309 0.3526057 0.61087495 0.144095
-0.36359307 -0.24241456 0.086274616 0.67213243 0.44035831 0.59524995 0.1467396
-0.35764968 -0.24521959 0.082368553 0.57096225 0.50467902 0.64753473 0.1430538
0.35679954 -0.24988839 0.085183755 -0.65784955 0.53255576 0.53255826 0.15167597
0.36100918 -0.24870187 0.088583097 -0.61946708 0.53670537 0.57289433 0.15808444
0.38423428 -0.24650735 0.083526701 -0.50137335 0.54538262 0.67170119 0.12497729
0.39086264 -0.24382913 0.088238738 -0.61074638 0.41191617 0.67624998 0.13307986
-0.39252844 -0.23705484 0.084599286 0.66106343 0.51093239 0.54949361 0.13064425
-0.37315801 -0.23329836 0.088922426 0.71474677 0.42446724 0.55584592 0.13917878
-0.36635572 -0.23488612 0.083169036 0.64865953 0.46475112 0.6027 0.16275191
0.35976011 -0.23948103 0.080006041 -0.68067259 0.46503845 0.56606007 0.1604543
0.36605483 -0.23678318 0.084358752 -0.63422191 0.48255649 0.60407108 0.14774416
0.39381245 -0.23277752 0.082540542 -0.55856764 0.44663122 0.69894403 0.14150019
-0.40501499 -0.2223462 0.089209296 0.6629858 0.42812592 0.61413193 0.1274395
-0.3765471 -0.22802095 0.08824195 0.77438402 0.47373787 0.4194065 0.13072325
0.36717901 -0.22988969 0.080067031 -0.6806103 0.37746674 0.62792403 0.14137283
0.37576866 -0.22330029 0.08370769 -0.61120737 0.42125037 0.67005509 0.14893673
0.39918017 -0.22531383 0.083683215 -0.69989163 0.27224132 0.66033053 0.11692983
0.40501565 -0.22255343 0.089313082 -0.65498114 0.33901638 0.67532784 0.14288189
-0.40572083 -0.2154294 0.086618572 0.71012324 0.37448075 0.59622914 0.13834815
-0.38343424 -0.2158194 0.087322846 0.72686422 0.4216187 0.54213113 0.16039
0.37836286 -0.21544304 0.081050821 -0.64561403 0.29965031 0.70241886 0.15274571
0.38689062 -0.21006864 0.088611908 -0.60690063 0.40128255 0.68603486 0.15018368
0.40430611 -0.21083516 0.082637757 -0.59891987 0.36836204 0.71105862 0.13574146
-0.405718 -0.20845059 0.083146706 0.74543667 0.31858963 0.58551246 0.13872236
-0.38557953 -0.20537755 0.08470732 0.78531891 0.26061428 0.56156427 0.1525439
0.38193762 -0.20698641 0.081137091 -0.66395104 0.34496763 0.66345036 0.15601315
0.40719107 -0.20438772 0.082894951 -0.67972505 0.33185098 0.65410155 0.13353653
0.41155425 -0.2075704 0.089711942 -0.73177218 0.36638761 0.57469088 0.12672053
-0.41393137 -0.19200858 0.084829986 0.75144392 0.21588689 0.62347806 0.12468597
-0.38633221 -0.19545685 0.080679879 0.83348477 0.22685044 0.50382739 0.15103011
0.38954991 -0.19459006 0.084109776 -0.65118814 0.2289823 0.72354758 0.14346318
0.39424759 -0.19223738 0.088577129 -0.67212176 0.29127407 0.68074346 0.14676934
0.41433227 -0.19489765 0.086746842 -0.7588132 0.1743952 0.62752599 0.13672242
-0.41586226 -0.18624681 0.084283218 0.78767991 0.19097246 0.58573878 0.14664669
-0.39709297 -0.18190935 0.086858183 0.72213626 0.26942343 0.63712651 0.14255483
0.39211074 -0.18468627 0.082260236 -0.70013207 0.25876018 0.66547596 0.14405113
0.41934779 -0.18683389 0.088757105 -0.74506491 0.17010663 0.64493567 0.1509048
-0.41861144 -0.17462932 0.081807956 0.69008744 0.36877152 0.62272537 0.14270018
-0.40080956 -0.17323257 0.087005228 0.81534058 0.31528407 0.48560861 0.12603804
-0.39603934 -0.17747152 0.083388366 0.70501041 0.46801677 0.5328421 0.13157935
0.39670146 -0.17415695 0.082535431 -0.63192159 0.3225809 0.7047103 0.14556095
0.401943 -0.17159659 0.0875521 -0.7418766 0.2713505 0.61317873 0.13870302
0.41843137 -0.17336658 0.080964312 -0.74416089 0.2793923 0.60676563 0.13179266
0.42431962 -0.17529564 0.088988125 -0.68129945 0.24814004 0.68866372 0.15081668
-0.4290804 -0.16248025 0.088331163 0.69788283 0.40582421 0.59014088 0.1434494
-0.40442392 -0.16187513 0.085697316 0.76008838 0.39839506 0.51336843 0.13816625
0.40595973 -0.16014184 0.086678617 -0.74515396 0.26803279 0.61065865 0.14012888
0.42429557 -0.16528872 0.083985887 -0.73825097 0.29745179 0.60539901 0.14329369
-0.428673 -0.15390883 0.083582394 0.71563631 0.38697183 0.58147877 0.14512476
-0.40675595 -0.15508975 0.085123159 0.74331522 0.41391516 0.52550614 0.13891083
0.40668049 -0.15274324 0.083866328 -0.76168221 0.40443659 0.50623226 0.1427262
0.42495552 -0.1579541 0.081132352 -0.70991868 0.36843181 0.60022789 0.13923703
0.43231112 -0.1556311 0.088803574 -0.68653935 0.37838989 0.62087429 0.14369471
-0.43432665 -0.14260612 0.084748574 0.79875731 0.24683547 0.54868853 0.13919573
-0.42832944 -0.14961433 0.081035785 0.77163452 0.32674709 0.54572564 0.13317524
-0.4141871 -0.14364552 0.088351749 0.68595517 0.42698908 0.58919078 0.15295045
0.41115314 -0.1446483 0.085209705 -0.72453624 0.32333407 0.60868901 0.14394671
0.42991281 -0.14723673 0.081753947 -0.77251828 0.26803771 0.57564861 0.13025829
-0.43862787 -0.13876635 0.088001072 0.80468893 0.18313412 0.5647456 0.1431115
-0.41485891 -0.13508347 0.084902436 0.69289577 0.2280952 0.68400872 0.15161122
0.41535509 -0.13369378 0.084807076 -0.786533 0.36786357 0.49602646 0.15410253
0.43526876 -0.13630496 0.082747206 -0.81920016 0.23106411 0.52490044 0.14272597
0.44013941 -0.1335282 0.087211341 -0.79679543 0.17544028 0.57821947 0.1444165
-0.44082618 -0.12902971 0.085799575 0.79249352 0.17764512 0.58343488 0.14184445
-0.42451674 -0.1213157 0.089647949 0.77096736 0.17574953 0.61214495 0.13902122
-0.41543263 -0.12657487 0.081362076 0.73701245 0.23816672 0.63252604 0.14691472
0.41898313 -0.12497089 0.08482495 -0.84610873 0.22235154 0.48441696 0.14811058
0.4222196 -0.12335588 0.087905638 -0.80668217 0.29257864 0.51347989 0.15418264
0.43835557 -0.12878826 0.082715213 -0.85909969 0.16092797 0.48584968 0.1363672
0.44216013 -0.12099816 0.08340846 -0.86996353 0.25709575 0.42079109 0.1427514
-0.44234613 -0.11788964 0.082570806 0.87402445 0.15031166 0.46204734 0.13757411
0.42364633 -0.11551491 0.085830748 -0.76936495 0.29550123 0.56635374 0.14958292
0.44503275 -0.11350683 0.085011579 -0.8065474 0.25422502 0.53371429 0.12885185
-0.44541287 -0.10454434 0.083981775 0.82675755 0.13736647 0.54552948 0.15577704
-0.42479786 -0.10548329 0.084848098 0.72306973 0.0915263 0.68468469 0.13403304
0.42710105 -0.10439468 0.087629072 -0.87243736 0.087813661 0.48077205 0.14659993
0.44540727 -0.10519934 0.084085539 -0.87193912 0.18067983 0.45505714 0.12960775
-0.44848883 -0.091485828 0.08572875 0.79963249 0.15648133 0.57974261 0.13617156
-0.42279029 -0.094638698 0.080424778 0.79664654 0.13483599 0.58921444 0.15531221
0.42448303 -0.097801365 0.083140425 -0.8429594 0.066356651 0.53386915 0.14873654
0.43039688 -0.091127284 0.089623846 -0.8264063 0.078114808 0.55762959 0.13757426
0.44507903 -0.096796334 0.082238421 -0.81559861 0.22443046 0.53331971 0.13781191
-0.44712603 -0.083364166 0.082597241 0.75963128 0.23255195 0.60735482 0.13536271
-0.43063933 -0.08964324 0.089684486 0.77121288 0.12551394 0.62408078 0.14121187
-0.42791307 -0.084076792 0.08523047 0.76970363 0.19179727 0.60890901 0.14152199
0.4250401 -0.084416948 0.081588849 -0.81240875 0.061653186 0.57981968 0.16968744
0.44583344 -0.081832573 0.080673166 -0.73544812 0.055699416 0.6752879 0.15283446
-0.45085946 -0.073152669 0.085673407 0.75988758 0.10220598 0.6419695 0.15091243
-0.44769886 -0.074979581 0.081913508 0.73093885 0.090592176 0.67640334 0.14983097
-0.43061182 -0.076182365 0.087367184 0.72083503 0.20941019 0.66071498 0.1453907
-0.42738038 -0.078613058 0.083618395 0.72633719 0.15376762 0.66991782 0.13903154
0.42675644 -0.078870326 0.082858548 -0.80985552 0.1646398 0.5630523 0.1587534
0.44867957 -0.072873473 0.082819201 -0.77378356 0.079738401 0.62841129 0.14561236
-0.45242891 -0.066049129 0.086490035 0.83987784 0.093752317 0.53461742 0.15119697
-0.4490734 -0.067805201 0.082467169 0.79403275 0.16421519 0.5852738 0.14495063
-0.43026495 -0.061090499 0.084362209 0.71858186 0.065431423 0.69235748 0.13877638
0.42886776 -0.066361539 0.083456673 -0.80015659 0.082271293 0.59412193 0.13372795
0.43089378 -0.068036832 0.086349428 -0.80216151 0.10500328 0.58780199 0.14073387
0.45180884 -0.066102192 0.085700594 -0.82298005 0.085789435 0.56155503 0.14095654
-0.45313856 -0.054514293 0.085448489 0.80606025 0.064173847 0.58834398 0.15112734
-0.44988841 -0.055481471 0.081427552 0.73118758 0.11504752 0.67240518 0.13475734
-0.43410957 -0.054830533 0.088251442 0.72570062 0.091751531 0.68186533 0.15702887
0.45333865 -0.05596146 0.08595141 -0.83963621 0.038618479 0.54177457 0.14869329
-0.45655426 -0.04284887 0.087869085 0.79087037 0.16133456 0.59033489 0.1653087
-0.43055201 -0.046361804 0.082235038 0.78544146 0.14109631 0.60263896 0.15895087
0.42962956 -0.048736021 0.081449762 -0.81899285 0.11559287 0.56203997 0.15027408
0.43573254 -0.044253841 0.088548228 -0.82922226 0.14949125 0.53855622 0.15436856
0.45549715 -0.042104296 0.086381704 -0.82761228 0.092379421 0.55364603 0.14891815
-0.45703551 -0.033603799 0.08692155 0.72161734 0.15013392 0.67581677 0.14585635
-0.434046 -0.03522329 0.084845804 0.7131955 0.12405904 0.68989956 0.14883749
0.43414134 -0.0367755 0.085231662 -0.85842627 0.031315126 0.51198018 0.13940722
-0.43169206 -0.028867047 0.080737375 0.75693834 0.098266535 0.64605576 0.13374479
0.43773106 -0.025623702 0.08796341 -0.80419701 0.18044809 0.56630886 0.1360383
0.45672241 -0.026785936 0.085362598 -0.83059686 0.12382669 0.54293251 0.13932656
-0.4568705 -0.014978181 0.08355169 0.80657703 0.088636927 0.58444589 0.13983315
-0.43748608 -0.015777085 0.085978821 0.76279712 0.072833508 0.64252311 0.15075102
0.43719307 -0.014469878 0.085379861 -0.77824199 0.27320153 0.56542039 0.13861716
0.45990884 -0.017835062 0.087948173 -0.83092374 0.11749852 0.54383808 0.13078883
-0.46259445 -0.0031850704 0.088922799 0.7918008 0.13995036 0.59452963 0.14162777
-0.45695248 -0.004382553 0.081861131 0.75261164 0.030024473 0.65777981 0.13882835
-0.43792757 -0.0037102161 0.084501758 0.75204206 0.093527749 0.65244567 0.1812095
0.43833557 -0.0038782272 0.0850555 -0.71736497 0.092201963 0.69056946 0.13992384
0.44246089 -0.0011103017 0.089898124 -0.83651167 0.054777097 0.54520428 0.1433112
0.45853248 -0.0057562157 0.08412838 -0.81988591 0.1875456 0.5409379 0.13140589
0.46176797 -0.0017770195 0.087619856 -0.85419452 0.084727481 0.51300395 0.12427203
-0.46044219 0.0041913893 0.086322069 0.83887488 -0.026755976 0.54366636 0.14462654
-0.45770541 0.0024741367 0.082507126 0.82425934 2.9947216e-05 0.56621248 0.15725538
-0.44079566 0.0057241763 0.088536084 0.76559156 -0.068884231 0.63962841 0.17096922
-0.43853313 0.0054346705 0.085573763 0.81045383 -0.057765197 0.58294743 0.18186446
0.43635511 0.004130525 0.082548253 -0.710145 0.018146539 0.7038216 0.14463234
0.45786226 0.0070968466 0.083492637 -0.77700889 -0.045574319 0.62783766 0.1384095
0.46170741 0.0069985958 0.088427052 -0.81700307 -0.051763222 0.57430518 0.12586194
-0.46173346 0.01004309 0.088976696 0.79780406 -0.0092987819 0.60284525 0.13016056
-0.44029176 0.016116651 0.089648955 0.76751888 -0.1583147 0.62116909 0.1604431
-0.43555546 0.016360193 0.083591774 0.74957234 -0.20078012 0.63073665 0.15601037
0.43893695 0.01844671 0.088299453 -0.77045578 -0.049534988 0.635566 0.1511827
0.45478863 0.015952947 0.081036262 -0.8291049 -0.030613774 0.55825436 0.12926881
0.46113497 0.014376756 0.08894068 -0.79395843 -0.081222795 0.60252213 0.12673225
-0.45827556 0.025563195 0.087155223 0.77396649 -0.21379915 0.5960418 0.144173
-0.43629822 0.025435215 0.086086549 0.7683422 -0.24449554 0.59149987 0.13501124
0.43596819 0.023853734 0.085393481 -0.85880893 -0.15101139 0.48953328 0.14597787
0.45580086 0.023804307 0.083670609 -0.81092912 -0.14398031 0.56715393 0.12739971
-0.45685005 0.033112526 0.08659941 0.78071958 -0.25306785 0.57134372 0.13064855
-0.43391171 0.036097512 0.084821053 0.80510193 -0.26419175 0.53104943 0.14626782
0.43247637 0.036475688 0.083037026 -0.77834719 -0.2145732 0.59002882 0.14293835
0.454074 0.035305832 0.08339677 -0.82573956 -0.16017362 0.54083139 0.13568269
-0.43370256 0.047830414 0.086540699 0.76629555 -0.21174675 0.60659248 0.12148727
-0.42963785 0.042245336 0.080360204 0.78727889 -0.25955635 0.55930531 0.12228659
0.44992754 0.046927053 0.080027759 -0.86453992 -0.089172155 0.49458984 0.14215554
0.45444307 0.04308866 0.08519128 -0.79360491 -0.18698545 0.57898843 0.13660467
-0.45191625 0.05662629 0.084232621 0.66402483 -0.12054279 0.73792988 0.14206989
-0.4345772 0.050992675 0.088202931 0.76486957 -0.10384228 0.63576043 0.13629222
-0.42871177 0.058683615 0.081954293 0.78716576 -0.059138928 0.61389953 0.14216322
0.42913711 0.053360637 0.081599623 -0.73133069 -0.21001604 0.64888263 0.15426497
0.43263251 0.052968521 0.086033858 -0.81634974 -0.11051478 0.56688583 0.14153974
0.44938505 0.055365153 0.08075963 -0.82355237 -0.15254393 0.5463441 0.14424899
0.45340732 0.054122876 0.085728176 -0.76100248 -0.11237695 0.63894182 0.15286882
-0.45256111 0.061262745 0.08584889 0.70334524 -0.03973775 0.70973688 0.16075328
-0.44780856 0.06854552 0.080964029 0.76202911 0.098977968 0.63993359 0.14088435
-0.43229264 0.066697806 0.087923586 0.78060746 -0.12983608 0.61138743 0.12556192
-0.42939961 0.068820797 0.08455839 0.75573128 -0.12991512 0.64186627 0.11750834
0.42861518 0.066020116 0.083073571 -0.76498932 -0.16177514 0.62339401 0.14795259
0.4312641 0.06265524 0.085913949 -0.7812795 -0.078067936 0.61927992 0.14814322
0.44942558 0.065322667 0.082499802 -0.79111761 -0.068618186 0.60780293 0.15321256
0.45298991 0.06906914 0.087724373 -0.80887794 0.042349298 0.58644956 0.13484807
-0.44949728 0.073811948 0.084031172 0.71265548 -0.092700563 0.69536227 0.14978197
-0.43226126 0.071332522 0.088668883 0.73504698 -0.050500516 0.67613292 0.12404707
0.42767999 0.072157614 0.082909793 -0.7976746 -0.030877855 0.60229707 0.15716016
0.44835907 0.076689221 0.083053365 -0.77532387 -0.075991325 0.62697554 0.13934115
0.45254129 0.07419166 0.088015035 -0.73307186 -0.12447225 0.66866457 0.13966088
-0.43100882 0.084677279 0.089318402 0.66770464 0.0098273661 0.7443614 0.13294113
0.42643943 0.085704461 0.083608896 -0.81208891 -0.094676994 0.57580203 0.15256324
0.4301658 0.083521202 0.088036895 -0.80272192 -0.11706907 0.58474976 0.16477126
0.4469927 0.08232262 0.082248963 -0.74543542 -0.08022628 0.66173238 0.14494659
-0.4460164 0.095563158 0.083236411 0.76630718 -0.086093679 0.63667989 0.13999493
-0.43016773 0.091354996 0.089367405 0.8087725 0.039772913 0.58677524 0.13445555
-0.42566887 0.096616298 0.084466517 0.83298349 -0.025545966 0.55270773 0.14442722
0.42668962 0.095671013 0.085620537 -0.81250733 -0.26719445 0.51811099 0.13060133
0.43035153 0.092991427 0.08988142 -0.77707469 -0.20546825 0.5949266 0.14043458
0.44567615 0.095895581 0.082854621 -0.72179663 -0.31107536 0.61825705 0.13462137
-0.4475565 0.1042507 0.086692154 0.77173954 0.064728998 0.63263589 0.13968118
-0.42412424 0.10320291 0.083594121 0.75708568 -0.077618219 0.64868844 0.14437419
0.42358553 0.10282937 0.082837157 -0.79779989 -0.32723668 0.50639063 0.13675305
0.4441773 0.10394051 0.082288399 -0.7570743 -0.25959581 0.59954011 0.1485776
-0.44287083 0.1162692 0.082696192 0.7799567 0.0011285195 0.62583244 0.14197172
0.41910252 0.1197886 0.082392633 -0.70886385 -0.32506755 0.62597382 0.14008093
0.42418009 0.11444765 0.085874692 -0.7680341 -0.24545136 0.59150422 0.13638847
0.44601843 0.11522835 0.086572587 -0.72351587 -0.16925205 0.66923726 0.13307419
-0.43682912 0.12777299 0.080379121 0.69389266 -0.30815703 0.65080893 0.14483789
-0.41788518 0.12553297 0.083786979 0.72646123 -0.38099867 0.57192147 0.1556641
0.41809058 0.12410089 0.083321646 -0.77054715 -0.30307475 0.56071633 0.13626498
0.42005739 0.12658611 0.086916685 -0.69608551 -0.31625003 0.64455473 0.14132155
-0.44252229 0.13246565 0.089542337 0.67855954 -0.38022912 0.62847662 0.13476375
