# .PCD v0.7 - Point Cloud Data file format
VERSION 0.7
FIELDS x y z normal_x normal_y normal_z curvature
SIZE 4 4 4 4 4 4 4
TYPE F F F F F F F
COUNT 1 1 1 1 1 1 1
WIDTH 597
HEIGHT 1
VIEWPOINT 0 0 0 1 0 0 0
POINTS 597
DATA ascii
-0.43611008 0.075137571 0.093979351 0.91360253 -0.12082534 0.3882418 0.04902561
0.43542692 0.071779691 0.091262728 -0.91488671 -0.13151279 0.38168919 0.042718843
0.44590157 0.07829833 0.093733877 -0.89709836 -0.14325047 0.4179638 0.047001939
-0.44693851 0.086812697 0.098943464 0.91616243 -0.1095849 0.38553548 0.049007513
-0.43597835 0.089988306 0.09838146 0.92017215 -0.13815741 0.36632735 0.050956864
0.43478671 0.087833814 0.094819807 -0.91668928 -0.14442207 0.37258965 0.055385236
0.44543496 0.084029391 0.094428957 -0.91911083 -0.1340057 0.3705101 0.049642876
-0.44433182 0.092614405 0.094494358 0.91419351 -0.15676323 0.37373173 0.05134083
-0.43378323 0.093880445 0.094319046 0.91354251 -0.16640501 0.37114617 0.050077096
0.43384799 0.097250372 0.095546424 -0.91378349 -0.12343471 0.38699284 0.04841008
0.44339776 0.098467425 0.094099656 -0.90363622 -0.09894266 0.41671571 0.045611341
-0.44132179 0.10957974 0.092619687 0.91529733 -0.12983179 0.38128 0.045086738
-0.43219984 0.10582 0.09429127 0.91309071 -0.12682071 0.38753307 0.047180541
0.43297231 0.10756291 0.096710131 -0.89518362 -0.13126194 0.42593023 0.046518333
0.44248429 0.10673092 0.094520837 -0.89377797 -0.13551304 0.42754793 0.046450827
-0.44280505 0.11599249 0.098315254 0.91162401 -0.19787471 0.36025989 0.050992541
-0.43335715 0.11431418 0.09480717 0.90910107 -0.18872324 0.37137419 0.047268502
0.42827046 0.11777504 0.090459205 -0.88598615 -0.25197625 0.38927698 0.052174609
0.43152124 0.11071609 0.094209149 -0.92188513 -0.15273319 0.35609049 0.05137375
0.44200546 0.11431558 0.09577544 -0.9165011 -0.1581966 0.36742297 0.050394852
-0.44008511 0.12467035 0.098575056 0.90879321 -0.24833576 0.33529735 0.049594805
-0.43880951 0.12566265 0.096630059 0.90634555 -0.25846329 0.33426723 0.050009329
-0.42624697 0.12251269 0.090321705 0.86573255 -0.28347647 0.41249025 0.050250273
0.42740345 0.12192784 0.092378467 -0.89472526 -0.2777907 0.34971282 0.054395329
0.43651581 0.12744951 0.093134932 -0.8549403 -0.32905453 0.40099901 0.052254714
-0.43525735 0.13402887 0.096434757 0.86323208 -0.34949383 0.3642588 0.05105155
-0.42160511 0.1364813 0.092895605 0.83919805 -0.36262777 0.40527493 0.045674548
0.4229776 0.13533536 0.094915427 -0.828574 -0.36380953 0.42556766 0.044478647
0.43471685 0.13423158 0.095407702 -0.86834711 -0.31160265 0.38584587 0.052168746
-0.42841202 0.14632536 0.092493489 0.82855755 -0.4372997 0.34965894 0.043004982
-0.417472 0.14986552 0.096069559 0.83216089 -0.39159745 0.39263171 0.050450854
0.4187417 0.14285125 0.092389755 -0.83471447 -0.33538064 0.43677399 0.046100777
0.4262276 0.14572768 0.095318504 -0.86616164 -0.31286427 0.38971767 0.04186742
0.43316111 0.14076225 0.097993404 -0.85187972 -0.3683916 0.37227467 0.051616792
-0.42650846 0.15393478 0.095301934 0.83826643 -0.40305224 0.36723047 0.050311785
-0.41483456 0.15326035 0.093299583 0.83369792 -0.42274812 0.35529101 0.044990949
0.41199368 0.15844716 0.091741852 -0.85118103 -0.34374064 0.39665243 0.044904176
-0.42104024 0.16377056 0.092165537 0.87290382 -0.30949041 0.37716663 0.045375936
-0.4070518 0.16897595 0.090435378 0.86046201 -0.32985619 0.3883298 0.043540187
0.40801108 0.16797805 0.091663614 -0.86715746 -0.31872144 0.38269404 0.042910475
0.41152859 0.16384096 0.095721699 -0.84535617 -0.36824763 0.38699695 0.046322141
0.42105645 0.16881001 0.096898049 -0.85984349 -0.37504745 0.34642258 0.047552459
-0.40408701 0.17674208 0.091002472 0.89589345 -0.28499556 0.34081164 0.045852862
0.4074226 0.17300525 0.095024355 -0.86398751 -0.35103363 0.36097229 0.047885258
0.41791815 0.1725132 0.093288668 -0.87781078 -0.33222201 0.34507501 0.045187935
-0.41387412 0.18820991 0.0988179 0.87865353 -0.35719818 0.31682384 0.049207948
0.40330401 0.18282987 0.0949139 -0.8742907 -0.3127403 0.37122661 0.04795764
0.41492918 0.18309696 0.096426919 -0.88828599 -0.32489896 0.32463613 0.049542848
-0.40968311 0.19464934 0.095389955 0.87658715 -0.34197876 0.33859336 0.050564837
0.39855361 0.19473642 0.095322117 -0.86376578 -0.34499753 0.36726746 0.048699204
0.40764615 0.19408977 0.090286046 -0.85719645 -0.36869097 0.35955691 0.047709528
-0.40579885 0.20621088 0.097425297 0.86363888 -0.37602746 0.33575493 0.053993594
-0.39330092 0.20652656 0.094491854 0.81430554 -0.41270503 0.40814334 0.047326718
0.39472121 0.20736372 0.098467201 -0.84163296 -0.38820043 0.37543899 0.051177882
0.40450603 0.20778985 0.095988199 -0.82450628 -0.42865014 0.36938933 0.045846466
-0.4017337 0.21518619 0.096643612 0.83929396 -0.3714675 0.39698565 0.047004424
-0.39178896 0.21238509 0.096549615 0.83458298 -0.35659239 0.41989651 0.051228128
-0.38933766 0.21682543 0.095172741 0.80812055 -0.39977199 0.43257764 0.047063641
0.38877553 0.21490994 0.092123166 -0.80751997 -0.43383771 0.39962021 0.045390166
0.40192151 0.21547312 0.097333498 -0.8375333 -0.42185953 0.34723541 0.048988499
-0.39624834 0.22235937 0.090987541 0.80449259 -0.38973129 0.44822004 0.047862828
-0.38629663 0.22491589 0.096909486 0.76346248 -0.46028325 0.45306119 0.049464263
0.38567924 0.22464816 0.095858991 -0.74516749 -0.51884919 0.41895232 0.045368869
-0.39413702 0.23091646 0.096062161 0.79088026 -0.45038158 0.41432464 0.053284582
-0.37450555 0.23729758 0.092484973 0.76428109 -0.51444507 0.3888711 0.047969542
0.3859354 0.23540795 0.09517213 -0.79807818 -0.48742974 0.35423633 0.047029752
0.39298445 0.23164803 0.094919965 -0.77830029 -0.4979983 0.38242179 0.04889952
-0.38163927 0.24690524 0.0956195 0.72916323 -0.58129358 0.36113542 0.048693351
-0.36761144 0.2479212 0.094914719 0.7453835 -0.54520899 0.3836022 0.045850407
0.36979884 0.24281546 0.091571875 -0.74941635 -0.56441855 0.34613135 0.045824707
0.37206161 0.24377441 0.097364731 -0.72855633 -0.5710761 0.37825602 0.041306045
0.38496384 0.24363594 0.097195826 -0.74132019 -0.56924736 0.35553032 0.046614632
-0.36631715 0.25029522 0.095933482 0.72276771 -0.56595749 0.39660949 0.049679674
-0.35870814 0.25767475 0.092173047 0.71532685 -0.59495372 0.36652097 0.048946928
0.35767475 0.258205 0.090962879 -0.74088556 -0.58177465 0.33559912 0.049433526
0.3633844 0.25530887 0.097699903 -0.76003605 -0.56327951 0.32413182 0.049408726
0.37509736 0.25277519 0.091682889 -0.75739485 -0.56584692 0.325838 0.047245502
-0.37088606 0.26219881 0.097516492 0.73644382 -0.56597352 0.37057319 0.044437591
-0.3660571 0.26585811 0.093612127 0.72186476 -0.58403456 0.37123427 0.04315659
-0.35514915 0.26391137 0.094542623 0.76036453 -0.54638183 0.3511591 0.053379543
0.34922999 0.26962721 0.091580607 -0.71871018 -0.55346203 0.42087457 0.050883006
0.35536441 0.26120451 0.090945929 -0.74512476 -0.55856985 0.36440215 0.048631355
0.36591133 0.26610827 0.09370137 -0.73017329 -0.56262451 0.38768616 0.050072651
-0.3623029 0.2714746 0.094685182 0.75219166 -0.51574343 0.41014192 0.049276441
-0.35757828 0.27798438 0.095207691 0.77906692 -0.52434355 0.34368384 0.046713322
-0.34726158 0.27211127 0.091460139 0.77497411 -0.5153327 0.36585158 0.046717267
0.3457948 0.27502942 0.092952408 -0.68958896 -0.55838436 0.46116596 0.04680619
0.35733914 0.27695227 0.093215927 -0.72557318 -0.53661895 0.43079424 0.049769804
0.36115482 0.27323663 0.095079288 -0.74472755 -0.529594 0.40609258 0.052117683
-0.35219103 0.28656724 0.097523347 0.75904816 -0.55126375 0.34634414 0.045780253
-0.33932728 0.28358051 0.093133882 0.73113292 -0.56614619 0.38068765 0.048497118
0.33403584 0.28854328 0.090268217 -0.73286557 -0.57595223 0.36219779 0.045922704
0.34155113 0.28151858 0.094373442 -0.69892251 -0.55851465 0.44673112 0.044017214
0.3541798 0.28239465 0.095180042 -0.71436781 -0.55775344 0.42259881 0.046588134
-0.34144726 0.29600015 0.090751 0.71863621 -0.58467901 0.37644696 0.046338458
-0.33017048 0.29595289 0.093784682 0.70655841 -0.60612631 0.36522058 0.044770218
-0.32663757 0.29986733 0.092762254 0.70112681 -0.63149041 0.33112082 0.045133058
0.33483166 0.29324755 0.098779 -0.71530968 -0.56822842 0.40675372 0.043265872
0.34415221 0.29452187 0.093785189 -0.68232661 -0.5854246 0.43784508 0.042121571
-0.34187248 0.30049628 0.098237313 0.75791657 -0.58042586 0.29777226 0.044343386
-0.3256574 0.30350691 0.096263878 0.69532311 -0.61244774 0.37607652 0.046379056
0.32448947 0.30489016 0.096058086 -0.6738472 -0.5936873 0.43984678 0.041692577
0.33767563 0.30325508 0.094219223 -0.70660585 -0.5620957 0.42983323 0.038945124
-0.33112067 0.31458271 0.098347545 0.67426634 -0.64636856 0.35717314 0.052729081
-0.3263146 0.31655985 0.091993779 0.67069209 -0.64388049 0.3682256 0.04848744
-0.31166214 0.31664467 0.090941571 0.63330281 -0.65256447 0.41603759 0.047455236
0.31509727 0.31571802 0.095200658 -0.64475024 -0.64628232 0.40818655 0.046380725
0.32270974 0.31592214 0.09652885 -0.6418947 -0.63426358 0.43090713 0.044198211
-0.31856242 0.32492971 0.092286892 0.6160304 -0.67705894 0.40261361 0.046066862
-0.30604869 0.32213873 0.09323404 0.58775675 -0.69420111 0.41548398 0.045154903
-0.29983422 0.32613596 0.09174411 0.59372634 -0.70157725 0.39405364 0.042533692
0.29909283 0.32813233 0.094501793 -0.58860242 -0.7175135 0.37245348 0.046347741
0.30536008 0.32353798 0.094916485 -0.64415491 -0.65955734 0.3873609 0.047496155
0.31266254 0.32046393 0.099802829 -0.66194731 -0.65995139 0.35537291 0.050136585
-0.30113262 0.33933544 0.094279513 0.58721775 -0.71663284 0.3763147 0.051094905
-0.29134452 0.33543977 0.097132899 0.56905562 -0.72864503 0.38111943 0.046758991
-0.28560656 0.336833 0.091318697 0.55105066 -0.73776174 0.38993698 0.048651267
0.2862159 0.33743048 0.093376182 -0.55671591 -0.73839372 0.38058117 0.043888289
0.30759415 0.33681479 0.09898822 -0.6043902 -0.71708542 0.34713259 0.051683027
0.31086892 0.33287227 0.096226186 -0.61213642 -0.70041364 0.36702827 0.049481533
-0.27276722 0.34640771 0.090783045 0.56231141 -0.74716496 0.35433093 0.048507579
0.27859923 0.34246063 0.091803044 -0.59091944 -0.71106547 0.38105142 0.046620078
0.28863531 0.34935147 0.095103286 -0.56526518 -0.7364918 0.37155768 0.050342549
0.29526886 0.34376267 0.094139896 -0.59695268 -0.7132588 0.36730015 0.044857785
0.30042535 0.34158733 0.097581342 -0.6255126 -0.68972665 0.36470702 0.044623453
-0.27135727 0.35198402 0.099465609 0.56198639 -0.75157046 0.34541747 0.043181028
-0.2602357 0.35772163 0.094063565 0.53980792 -0.75147849 0.37932515 0.054548211
-0.25919777 0.35840261 0.093840569 0.54036272 -0.7489894 0.38343576 0.053941008
0.26767522 0.35110393 0.092307255 -0.54683512 -0.74240863 0.38704094 0.046410978
0.28204158 0.35309845 0.092567652 -0.55660892 -0.73877758 0.37999243 0.051378742
-0.26610947 0.36427781 0.090547368 0.52631718 -0.75681865 0.38757667 0.0524376
-0.24836512 0.3691093 0.098466456 0.53311306 -0.77179372 0.34659046 0.050753623
0.24479617 0.36846268 0.091926754 -0.53905332 -0.74149686 0.39950454 0.04731499
0.25468934 0.3629261 0.09589617 -0.56636977 -0.74681097 0.34856635 0.048389487
0.2659986 0.36783361 0.097252309 -0.53411043 -0.7736966 0.3407633 0.049929556
0.27226043 0.36243123 0.096097991 -0.52368999 -0.77368712 0.35659081 0.05050863
-0.25510535 0.37288308 0.090859368 0.55819821 -0.75012046 0.35459006 0.051561363
-0.23647432 0.37734392 0.096747994 0.59308147 -0.68305409 0.42625275 0.044722073
0.23262307 0.3785229 0.093316637 -0.5560379 -0.73151022 0.39460686 0.05116152
0.24030274 0.37435663 0.096652105 -0.55532926 -0.73014963 0.39810926 0.051182788
0.26053977 0.37088084 0.095047057 -0.57258892 -0.74090332 0.35100475 0.050255876
-0.2376405 0.38753307 0.093271777 0.520733 -0.76202285 0.38491344 0.050474878
-0.22733605 0.38298953 0.094108291 0.45498347 -0.79259086 0.40594316 0.04895344
0.21615526 0.38880292 0.093345225 -0.4442243 -0.81901509 0.36315179 0.047858983
0.22483046 0.38443232 0.093988508 -0.5092572 -0.78261983 0.35799909 0.055560928
0.23671049 0.38849211 0.093745828 -0.5220263 -0.74613661 0.41324177 0.052633662
0.24152109 0.38646883 0.096968189 -0.55509102 -0.71425581 0.42627752 0.051937167
-0.22324966 0.39834952 0.096544243 0.39005068 -0.84888834 0.35671982 0.055992212
-0.21872559 0.39033651 0.099190511 0.37494648 -0.84612048 0.37880769 0.053367343
-0.20726839 0.39360178 0.095860004 0.38467297 -0.82951099 0.40489292 0.050560545
-0.19543333 0.39602807 0.090289876 0.39390826 -0.84002215 0.37309399 0.045267098
0.1953209 0.39885616 0.096547462 -0.3750149 -0.83849698 0.39533094 0.049181793
0.20929924 0.3943488 0.099432983 -0.38163376 -0.85577971 0.34928045 0.047848828
0.22562821 0.39820638 0.098438643 -0.48797083 -0.80922377 0.32717171 0.051006291
0.23360381 0.3923167 0.096529141 -0.49033031 -0.7996794 0.34653851 0.050492451
-0.20662163 0.40552664 0.097195596 0.34093228 -0.89932615 0.27382049 0.048888754
-0.19759087 0.40981981 0.098438658 0.35890648 -0.87610805 0.32190183 0.046707075
-0.18878683 0.40104184 0.095375702 0.3578907 -0.86396492 0.35422984 0.050467514
-0.17589265 0.40800163 0.099017575 0.32668683 -0.89192015 0.31265667 0.048864666
-0.16988391 0.40727735 0.091788918 0.33776471 -0.88859326 0.31034982 0.05230948
0.16884124 0.40755183 0.091434784 -0.34855133 -0.84233499 0.41107631 0.051277377
0.17565435 0.40709808 0.096762858 -0.35546347 -0.81361222 0.4600879 0.04663622
0.18581758 0.40342748 0.097975835 -0.36235449 -0.84604245 0.39103889 0.048722014
0.19535577 0.40619409 0.09649536 -0.35666132 -0.85417205 0.37839508 0.048363298
0.20735148 0.40416512 0.094812684 -0.37951225 -0.84875745 0.36821365 0.049896311
0.21487458 0.40155107 0.095942363 -0.35844189 -0.86191785 0.35863209 0.048034843
-0.19249269 0.41225356 0.09916313 0.38463351 -0.85621607 0.34489289 0.04981783
-0.181609 0.4152649 0.095795631 0.34607303 -0.8786065 0.32906526 0.052801419
-0.17573994 0.4152301 0.096470475 0.32401216 -0.88953412 0.32209501 0.047798969
-0.16280451 0.41134903 0.094352044 0.38121539 -0.89601409 0.22766997 0.048383951
-0.15535811 0.41382265 0.092978008 0.31534615 -0.91853595 0.23842934 0.046189576
-0.14930063 0.41646251 0.09327215 0.36882958 -0.88364893 0.28832132 0.044899601
0.14933026 0.4152323 0.090532139 -0.35217962 -0.85660332 0.37709454 0.044815645
0.15516166 0.41444856 0.09420301 -0.32605866 -0.8514812 0.41068894 0.049999908
0.16764985 0.4107008 0.097408772 -0.32950759 -0.84251022 0.42614695 0.047442663
0.17496824 0.41720179 0.093964912 -0.33750069 -0.82816279 0.44748157 0.04730529
0.18271351 0.41457868 0.095281102 -0.33266556 -0.84826344 0.41204706 0.050182942
0.19218051 0.41071841 0.095418498 -0.37056512 -0.83438796 0.40801734 0.048444647
-0.16448231 0.42310628 0.09747678 0.33901298 -0.89230287 0.29810375 0.049355175
-0.15435471 0.4248867 0.092044748 0.38729551 -0.86914968 0.30754021 0.046022315
-0.13578413 0.42340621 0.096297912 0.39060444 -0.85915649 0.33057281 0.049906213
-0.12506698 0.42713723 0.094704628 0.29999715 -0.8688795 0.3937639 0.04979014
-0.11864156 0.42801809 0.090698935 0.20810544 -0.90292746 0.37605059 0.048642769
0.12200889 0.42702419 0.091600724 -0.27325815 -0.86288881 0.42515042 0.043388616
0.13440549 0.42297125 0.09403462 -0.29900026 -0.86708415 0.39845183 0.046232175
0.15435757 0.42765057 0.098265283 -0.38262004 -0.83460277 0.396283 0.050980996
-0.14209223 0.43152291 0.095547304 0.37298033 -0.87080264 0.32029432 0.0444397
-0.13398249 0.43509898 0.096035294 0.38023511 -0.84844685 0.36818388 0.051644031
-0.1295847 0.43522584 0.092222668 0.28271878 -0.87721115 0.38803434 0.051471207
-0.11510177 0.43183318 0.096356176 0.21476062 -0.89130604 0.39931378 0.049522169
-0.10054113 0.43178445 0.091610566 0.14564617 -0.91329706 0.38036263 0.047587447
-0.095185436 0.43265 0.091998011 0.18133549 -0.89018089 0.41796574 0.049230553
-0.075578868 0.43718356 0.096711241 0.10267211 -0.90355045 0.41599888 0.045141418
-0.064034946 0.43762183 0.09410017 0.039562795 -0.91277897 0.40653321 0.047928274
-0.040773563 0.43928507 0.090722255 0.0537741 -0.95139062 0.30325621 0.04545407
0.044524487 0.43940163 0.092195854 -0.11588933 -0.91147923 0.39468363 0.04791858
0.054760486 0.43788981 0.091799371 -0.095133498 -0.91322684 0.39618975 0.049311616
0.07299833 0.43695852 0.09534768 -0.077249393 -0.92534435 0.37117422 0.045009386
0.08960969 0.43422362 0.094024807 -0.1627817 -0.90807104 0.3858873 0.048981421
0.094141528 0.43364236 0.094061881 -0.20708455 -0.89986777 0.38386723 0.047283672
0.1042992 0.43422249 0.098690957 -0.16799046 -0.9242208 0.34292141 0.045506772
0.11539562 0.43304092 0.093747728 -0.24087611 -0.88625795 0.39563298 0.050563172
0.125819 0.43772084 0.094326518 -0.31356424 -0.89056158 0.32951102 0.047520157
0.13513048 0.43477166 0.0963687 -0.34451726 -0.85525697 0.38709614 0.048092529
-0.10130168 0.44464034 0.098000363 0.18574245 -0.88220358 0.4326852 0.041349243
-0.095750391 0.44518822 0.097558647 0.20814651 -0.88616645 0.4139857 0.037752714
-0.08553315 0.444511 0.092676267 0.14074086 -0.90063047 0.411165 0.045005124
-0.079474628 0.44812393 0.099473074 0.13230228 -0.91651553 0.37748557 0.04442206
-0.068004839 0.44679406 0.09261696 0.034188963 -0.90727848 0.41913816 0.044742342
-0.054988991 0.44343296 0.096958041 0.075084724 -0.92391688 0.37515327 0.047094706
-0.047865808 0.44212687 0.099837139 0.054358352 -0.95034552 0.30641255 0.044411857
-0.035123222 0.44502276 0.096556142 0.15074861 -0.91989249 0.36203939 0.04706198
-0.023693379 0.44420776 0.097177967 0.1724916 -0.9372654 0.30295253 0.045829467
-0.013055451 0.44424754 0.093892872 0.12095337 -0.92914927 0.34935939 0.050455917
-0.0074242777 0.44515464 0.094292946 0.088380143 -0.93725669 0.33725187 0.049779382
0.0032555426 0.44524056 0.093175419 0.020620486 -0.93369144 0.35748434 0.048335638
0.011440673 0.44420815 0.093284532 -0.069974095 -0.92846119 0.36477849 0.046337672
0.021789907 0.44279847 0.093170613 -0.10476834 -0.93123627 0.34903088 0.047190886
0.031918555 0.44214123 0.094803169 -0.11749497 -0.92512226 0.36103159 0.047631402
0.045862436 0.44481903 0.093255475 -0.12092023 -0.92441231 0.36171836 0.048052125
0.054140337 0.44452649 0.095180288 -0.095668547 -0.93275523 0.34758481 0.048056666
0.066831276 0.44655809 0.091674142 -0.083802171 -0.92173499 0.37865773 0.048048284
0.072825179 0.44686908 0.094330139 -0.084195249 -0.92109126 0.3801342 0.043765772
0.084806956 0.44561699 0.095115542 -0.18062297 -0.91799438 0.35307449 0.048747104
0.099755354 0.44443154 0.097004756 -0.21395127 -0.91599226 0.33938619 0.046154976
0.10176552 0.44334948 0.095031328 -0.18315157 -0.92967588 0.31962195 0.045150854
0.11424018 0.44170082 0.095015988 -0.2306505 -0.89518374 0.38137451 0.046133865
-0.064003542 0.4502281 0.099635556 0.056846995 -0.9281565 0.36782333 0.04871859
-0.05361018 0.45003068 0.095855668 0.058674436 -0.93028128 0.36212409 0.045424391
-0.025311755 0.45342159 0.09504769 0.14529593 -0.94098377 0.30567735 0.047224861
-0.013136985 0.45525822 0.095612146 0.11982475 -0.93154991 0.34330261 0.049996592
-0.0024499493 0.45635533 0.094864085 0.056944802 -0.91308939 0.40376341 0.049761564
0.0022582228 0.45733213 0.0971613 0.021951051 -0.95335019 0.30106756 0.056626026
0.016918797 0.45524058 0.096771456 -0.12241144 -0.94471699 0.30417967 0.052187156
0.02483722 0.45498064 0.098660827 -0.16727401 -0.94218153 0.29036775 0.048085704
0.036428019 0.45032212 0.09109804 -0.12776621 -0.92434806 0.35952249 0.046761706
0.047270607 0.45239145 0.099540085 -0.06384401 -0.94631946 0.31686509 0.044095326
0.062019628 0.45048064 0.099614799 -0.075426362 -0.94791353 0.30946878 0.045213319
0.014702397 -0.46030611 0.10829636 -0.018447874 0.95418137 0.29865959 0.041911278
0.020128831 -0.46022218 0.10981837 -0.083238617 0.96400976 0.25250021 0.044613071
-0.073501132 -0.45168257 0.10616577 0.0430342 0.93522811 0.35142049 0.052382901
-0.063720204 -0.45108292 0.1016093 0.086390339 0.93576676 0.34187332 0.050471552
-0.054858841 -0.45447707 0.10698701 0.097519509 0.95670521 0.27423558 0.044958983
-0.044334944 -0.45390496 0.10226089 0.0838717 0.93878716 0.33413199 0.047959749
-0.038802046 -0.4575808 0.10937666 0.084361866 0.95038432 0.29942068 0.044537991
-0.025123529 -0.45770028 0.1053176 0.059604336 0.94539112 0.3204419 0.040007018
-0.012777251 -0.45048082 0.10885297 0.099608272 0.94031125 0.32541186 0.041496646
-0.0057635573 -0.45103168 0.10795365 0.099081658 0.9274646 0.36054459 0.038743753
0.0043437029 -0.45411843 0.10250999 0.01867961 0.94810343 0.31741309 0.046190746
0.014174436 -0.4542056 0.10584502 -0.033100132 0.9461726 0.32196555 0.042974211
0.02111394 -0.45610037 0.10018069 -0.047225419 0.95088303 0.30592689 0.04703046
0.037957355 -0.45450929 0.10169289 -0.11854723 0.93909127 0.32257447 0.049990553
0.043540798 -0.45475081 0.10405061 -0.17895362 0.94140369 0.28589284 0.045803025
0.053135101 -0.45373508 0.10464792 -0.10834385 0.9481656 0.2987369 0.045803837
0.067171827 -0.45071507 0.10181825 -0.1560477 0.91566813 0.3704066 0.043929271
-0.12361797 -0.44404778 0.10650913 0.30861077 0.89551741 0.32063696 0.04691847
-0.11472184 -0.44640085 0.10651601 0.27234882 0.90998781 0.31264719 0.051761787
-0.10532244 -0.44656098 0.1039152 0.20163319 0.91233176 0.3563633 0.05192234
-0.097289547 -0.44696802 0.10234462 0.13397844 0.89848518 0.41805989 0.043139871
-0.085344672 -0.44680914 0.1064608 0.087014817 0.91520965 0.3934713 0.041513972
-0.073680162 -0.44546664 0.1036605 0.064748578 0.93200535 0.35661408 0.045861483
-0.064289086 -0.44297424 0.10710287 0.085870683 0.93017244 0.35693905 0.051842351
-0.052287497 -0.44470412 0.1074646 0.089291446 0.93469924 0.34404144 0.047773242
-0.046999726 -0.44315153 0.10203561 0.086314082 0.93595546 0.34137544 0.047323365
-0.03976373 -0.44419348 0.10225129 0.076637767 0.94303942 0.32373342 0.04336974
-0.028192986 -0.44662094 0.10443413 0.10276421 0.92929864 0.35474434 0.041780498
-0.017049944 -0.44779062 0.10371628 0.068560094 0.92261589 0.37957799 0.040461693
0.0059516653 -0.44972736 0.10486454 0.0025829556 0.95017451 0.31170774 0.051803153
0.010341633 -0.44952852 0.10577975 0.0021065201 0.94030488 0.34032676 0.044511463
0.026665227 -0.44807923 0.10746912 -0.091906942 0.94727087 0.30697086 0.043817908
0.035335131 -0.44646958 0.10633871 -0.13873589 0.9465223 0.29128674 0.052593883
0.043682881 -0.44536066 0.10631476 -0.16462258 0.94250107 0.29084557 0.05228585
0.066863254 -0.44138721 0.10408957 -0.17820731 0.91816008 0.35387036 0.043433115
0.077079542 -0.44703016 0.10436738 -0.11441074 0.91199183 0.39393035 0.043228626
0.094996318 -0.4479261 0.10392885 -0.071126491 0.9228738 0.37847704 0.04629983
0.10639325 -0.44657758 0.10429557 -0.15585034 0.90440518 0.39719266 0.048911128
0.11559776 -0.44511041 0.10367908 -0.20503895 0.90630198 0.36956158 0.051462542
-0.15024352 -0.43020847 0.10018608 0.29869467 0.88492185 0.35734412 0.047914971
-0.14670996 -0.43533891 0.10843515 0.35632303 0.88177562 0.30903992 0.04935478
-0.13539535 -0.43827996 0.10450808 0.33797085 0.8841939 0.32245448 0.047046274
-0.11950289 -0.43184739 0.10011629 0.32655248 0.87181598 0.36510327 0.047664575
-0.10682962 -0.43564975 0.10294101 0.19961832 0.91399872 0.35321224 0.046134766
-0.084589213 -0.43835148 0.1023946 0.1140953 0.87418956 0.47199029 0.040973753
-0.069828629 -0.43976393 0.10111317 0.087997548 0.94255662 0.32224739 0.043032162
0.085822381 -0.43757451 0.10091089 -0.065981463 0.93451011 0.34976742 0.047680728
0.092607252 -0.43732801 0.10247225 -0.087685876 0.92248213 0.37594917 0.044201966
0.11571772 -0.43588126 0.10632488 -0.26882449 0.89334357 0.36009806 0.049104836
0.14345515 -0.43555531 0.10588905 -0.35176796 0.89044696 0.28872737 0.045800146
0.1577061 -0.43059507 0.10800982 -0.33262146 0.89708877 0.29085165 0.048723225
-0.17431781 -0.42258486 0.10546897 0.39857936 0.86079085 0.31650206 0.041483507
-0.16566959 -0.42521882 0.10333566 0.40469325 0.84645063 0.34604162 0.042525724
-0.14563358 -0.42381531 0.10639651 0.29631636 0.87868214 0.37431845 0.050842427
-0.12805782 -0.42972288 0.10330866 0.28589344 0.88236159 0.37376872 0.045577232
0.13124987 -0.4286603 0.10389269 -0.32474226 0.87261319 0.36481324 0.053253129
0.14497866 -0.42497656 0.10839863 -0.34250492 0.89386976 0.28928751 0.044947166
0.15324575 -0.42951345 0.10142015 -0.35428756 0.89096612 0.28400654 0.046299633
0.16541775 -0.42629567 0.10552358 -0.36802191 0.90257251 0.22343382 0.055632036
0.17781776 -0.42297903 0.10961713 -0.34183851 0.9096306 0.2360477 0.061454002
0.18087101 -0.42006868 0.10591489 -0.34600905 0.90827149 0.23520333 0.057793777
-0.19519413 -0.41359594 0.10470033 0.30014923 0.88184243 0.36368176 0.042876579
-0.18365309 -0.41395026 0.1071873 0.35420823 0.84919977 0.39165837 0.043090057
-0.17379187 -0.41123852 0.10434189 0.3937014 0.84744412 0.35614279 0.044657864
-0.15658897 -0.41869041 0.10507585 0.41104728 0.85625595 0.31283522 0.047710013
0.15325849 -0.41962883 0.10408345 -0.33867303 0.88972974 0.30607432 0.048200142
0.16253911 -0.41676098 0.10627986 -0.35239217 0.90159738 0.25088221 0.051539797
0.17064834 -0.41471177 0.10922637 -0.34119213 0.90398163 0.25769186 0.057401337
0.18326737 -0.41782665 0.10310405 -0.34279791 0.89724839 0.27827117 0.056230754
0.19517106 -0.41310811 0.10358129 -0.38095263 0.86557698 0.32504079 0.052040476
-0.22512786 -0.40047836 0.10308371 0.4866201 0.82198679 0.29586908 0.04662111
-0.21596289 -0.4057661 0.10643897 0.41635126 0.86274326 0.28692448 0.053444866
-0.20276642 -0.40965164 0.10288312 0.23502029 0.91054446 0.34010926 0.039068084
-0.19936368 -0.40996367 0.10041419 0.24725875 0.89795303 0.36406526 0.039458178
-0.17712352 -0.40867403 0.10167732 0.36691603 0.85353434 0.36993474 0.044525079
0.174321 -0.40950722 0.10094009 -0.35197526 0.88652104 0.3003231 0.055639073
0.18522865 -0.40634498 0.10399034 -0.38472399 0.87259644 0.30093667 0.050740108
0.19307442 -0.40331 0.10447368 -0.37234917 0.8680045 0.32851854 0.051894881
0.20854677 -0.40816221 0.10491877 -0.41066888 0.83719099 0.36119559 0.045402136
-0.23403132 -0.39653268 0.10530752 0.55734682 0.76311666 0.32713524 0.052686974
-0.22624488 -0.39994246 0.10291897 0.49601728 0.80916709 0.31498495 0.044775289
-0.20662422 -0.39756557 0.10417698 0.34601161 0.87330776 0.34294239 0.05052321
0.20402457 -0.39765537 0.10195646 -0.41990703 0.83772653 0.34913102 0.044897072
0.2254234 -0.39161831 0.10831545 -0.47557336 0.79172254 0.38341272 0.046150908
0.2356551 -0.39320022 0.10127672 -0.53090101 0.7623691 0.37005061 0.047589295
0.24403477 -0.39003786 0.10758925 -0.53518754 0.75675255 0.37536624 0.044091873
-0.25393486 -0.38231182 0.1073392 0.56191218 0.77554315 0.28772819 0.04202405
-0.24209668 -0.38370267 0.10492212 0.55273759 0.76171988 0.33802953 0.04729278
-0.23095813 -0.38452244 0.10243879 0.56236911 0.75444877 0.33844954 0.047772676
0.23315556 -0.3844426 0.105542 -0.53129351 0.75094032 0.39219379 0.044585679
0.24629129 -0.38663349 0.10435748 -0.51826537 0.77378505 0.36422202 0.044119217
0.25290331 -0.38447139 0.10998201 -0.55359787 0.76844817 0.32096228 0.048429847
-0.26302069 -0.37303603 0.10288826 0.55366129 0.78310162 0.28321564 0.045171954
-0.2465152 -0.37456056 0.10625523 0.53695291 0.7736426 0.33639067 0.04437295
0.24529374 -0.37445664 0.10424372 -0.48923612 0.79028124 0.3689222 0.042506754
0.25003934 -0.3737613 0.10993514 -0.56263232 0.75718403 0.33183908 0.050540406
0.26512316 -0.37080133 0.10168774 -0.6021167 0.72085154 0.34326163 0.0488602
0.27022657 -0.37118173 0.10998775 -0.601601 0.75009584 0.27464965 0.045736656
-0.27409348 -0.36616814 0.10603434 0.56973147 0.76654637 0.29633218 0.047221478
-0.26187071 -0.36260536 0.10592188 0.56995845 0.75471979 0.32487753 0.046251025
-0.25840393 -0.36425486 0.10396954 0.57297766 0.76294094 0.29936215 0.046839222
0.25545448 -0.36665988 0.10424343 -0.57850796 0.74205518 0.33864826 0.049650632
0.26692578 -0.36421141 0.10656252 -0.56983954 0.75290799 0.32926029 0.047183339
0.27369201 -0.36596486 0.10504656 -0.55124265 0.77836514 0.30046517 0.045774411
-0.2912139 -0.35226408 0.10455243 0.58460969 0.74258977 0.32679027 0.048118051
-0.28589088 -0.35611555 0.10410229 0.607131 0.74276686 0.28229308 0.051566329
-0.27175185 -0.35305279 0.10211518 0.56265831 0.74999142 0.34774789 0.047658578
-0.2666564 -0.35879555 0.10565602 0.56531721 0.75636947 0.32912254 0.046200555
0.26940924 -0.35463956 0.10170799 -0.57403815 0.74994242 0.32873484 0.045941789
0.27377281 -0.35186094 0.10280849 -0.60237235 0.71198028 0.36087635 0.047041375
0.28623083 -0.35332942 0.10752022 -0.6086998 0.72070885 0.33175793 0.055673096
0.29480916 -0.35013449 0.10576785 -0.52183676 0.78283149 0.33891186 0.056263521
-0.30148017 -0.3432447 0.1023467 0.58701742 0.71013021 0.38874876 0.043829419
-0.29501119 -0.34979177 0.10540525 0.56227356 0.74767601 0.35331151 0.044322092
-0.28550375 -0.34443817 0.10585826 0.56135309 0.766527 0.31196007 0.047336992
-0.27906924 -0.3478452 0.10290191 0.61483777 0.71186531 0.33944404 0.047494221
0.27761611 -0.34860677 0.10221903 -0.60789639 0.71644866 0.34229138 0.046725903
0.28544924 -0.34335327 0.1036816 -0.52840036 0.75508195 0.38812926 0.044995826
0.2963782 -0.34762269 0.10324143 -0.53324485 0.75138086 0.38868591 0.047431987
0.30658451 -0.34114257 0.1058522 -0.58507097 0.76136285 0.27931798 0.046335924
-0.31287754 -0.33725402 0.10766859 0.59328252 0.73169219 0.3356224 0.046549071
-0.29673237 -0.3348648 0.10400879 0.63338357 0.67503512 0.37835553 0.043782607
-0.28867769 -0.33942595 0.1008803 0.57941914 0.71968877 0.38251999 0.049356323
0.28946057 -0.33873075 0.10069792 -0.53207666 0.77720886 0.3359178 0.043438949
0.29642916 -0.33509725 0.10400855 -0.50890028 0.78172195 0.36045989 0.045483243
0.31379935 -0.33472535 0.10415012 -0.61226588 0.72114134 0.32416937 0.045351427
-0.32907775 -0.32196799 0.10534865 0.69454724 0.62059689 0.36395562 0.05617848
-0.31415367 -0.32225567 0.10547459 0.58881688 0.71393532 0.37893414 0.050043102
-0.30882138 -0.32740229 0.10751264 0.58111316 0.73309493 0.35338265 0.043221802
0.30965725 -0.32295418 0.10015865 -0.61122525 0.68376189 0.39858922 0.048462547
0.31437153 -0.32201177 0.10532631 -0.65596378 0.67012364 0.34734115 0.056482062
0.32844722 -0.32517859 0.1088898 -0.72628564 0.62718767 0.28132692 0.056783151
-0.33600199 -0.31444156 0.10756837 0.74747658 0.57677501 0.3295593 0.049600646
-0.32214725 -0.31559822 0.10740641 0.7070663 0.6038534 0.36799216 0.056412399
0.33426389 -0.31466559 0.10454265 -0.73347169 0.56684589 0.37510663 0.046431873
-0.34365049 -0.3049607 0.10829 0.74729031 0.57696766 0.3296448 0.053729679
-0.33315784 -0.30174604 0.10814332 0.73083222 0.60131168 0.32296821 0.050734285
-0.32347178 -0.30918783 0.10046273 0.69407314 0.60590249 0.38877326 0.051631473
0.32964259 -0.30441687 0.10531148 -0.76051182 0.55458707 0.33772022 0.044758987
-0.35224831 -0.2929025 0.10702507 0.76674914 0.55952573 0.3146852 0.052855171
-0.33646989 -0.29297826 0.1015447 0.72748274 0.56800085 0.38489476 0.043677852
0.33538654 -0.29681912 0.10514539 -0.75725913 0.56450814 0.32846478 0.045668226
0.3456389 -0.29703572 0.10038364 -0.73692065 0.58711064 0.33503598 0.046518736
-0.36131859 -0.28026554 0.10581507 0.71489078 0.59203738 0.37205222 0.045660753
-0.35460469 -0.2846061 0.1055012 0.73658079 0.57064563 0.36305958 0.043996878
-0.3446098 -0.28693029 0.10830449 0.77683848 0.54451478 0.3162683 0.051622231
0.34518456 -0.28335428 0.104114 -0.70315778 0.64094591 0.30782712 0.048590805
0.35599551 -0.28432035 0.10154235 -0.72322953 0.61107224 0.32176045 0.049414359
0.36193475 -0.28115684 0.10832654 -0.75631672 0.60558444 0.24749276 0.04538748
-0.36268702 -0.27716747 0.10386621 0.72813147 0.55982035 0.39550689 0.048662204
0.34968311 -0.27926427 0.10674161 -0.74226314 0.60128772 0.29580158 0.045681383
0.35251758 -0.27360594 0.10382967 -0.72054261 0.62172282 0.30704889 0.046676848
0.36522469 -0.2753807 0.10611986 -0.75019014 0.60822922 0.25936836 0.046155557
-0.37382388 -0.2644296 0.10649873 0.76882565 0.54042763 0.34182608 0.046749894
-0.36157531 -0.26421681 0.10740977 0.74922734 0.55676138 0.35871318 0.046367306
-0.35759553 -0.26546168 0.10156674 0.71593231 0.57648468 0.39383537 0.045452483
0.35879147 -0.26628324 0.10509504 -0.75196123 0.57091647 0.32955819 0.045408137
0.37592587 -0.2609846 0.10545281 -0.7441963 0.5903492 0.3125056 0.044276819
-0.38342753 -0.25085914 0.10493524 0.72754294 0.60247338 0.32818767 0.048010025
-0.37936366 -0.25670618 0.10575186 0.73492682 0.59582931 0.3238363 0.045647763
-0.3661609 -0.2571438 0.10578369 0.76033103 0.54949921 0.34633416 0.046329234
0.36532813 -0.25701791 0.10398827 -0.75578952 0.55196482 0.35230231 0.045444008
0.3764042 -0.25685185 0.10522841 -0.73142481 0.60673338 0.31127539 0.044656724
-0.38446468 -0.24715731 0.10145137 0.73838603 0.60257447 0.30280367 0.051454764
-0.37690651 -0.24474318 0.10816041 0.74301213 0.5950045 0.30643538 0.047843713
0.37824854 -0.24217403 0.10694463 -0.75200528 0.56675059 0.33657363 0.05184355
0.38539386 -0.2471626 0.10325426 -0.76133549 0.55682862 0.33212987 0.05058381
0.39145815 -0.24152097 0.10660671 -0.77725863 0.53107572 0.3373836 0.047308836
-0.39822268 -0.23343766 0.10769238 0.78047878 0.53624237 0.32139859 0.051838651
-0.38221082 -0.23711555 0.10710064 0.75467438 0.53623515 0.37804562 0.05117872
-0.37682971 -0.23980233 0.10068797 0.74855798 0.57279789 0.3340112 0.048763935
0.39436042 -0.23492682 0.10243852 -0.79700071 0.47917894 0.36766481 0.044501502
-0.40110263 -0.22988787 0.10892367 0.82155174 0.4836604 0.3018696 0.05337305
-0.39204502 -0.22008821 0.10430394 0.83561367 0.45194435 0.31224364 0.056077626
-0.3883214 -0.2248895 0.10115512 0.77461219 0.53017664 0.34480244 0.048807088
0.38651288 -0.22718278 0.10068763 -0.81148565 0.46168333 0.35824516 0.04582965
0.39159837 -0.22461796 0.10773543 -0.83065313 0.45266685 0.32420382 0.047164794
0.40081722 -0.22823362 0.10674008 -0.83530688 0.45599118 0.30713913 0.051477071
-0.4044894 -0.21447557 0.10218085 0.88966012 0.31284991 0.33261058 0.046336673
-0.39433292 -0.21622775 0.10585357 0.85461116 0.41310957 0.31461117 0.05601079
0.39485985 -0.21682021 0.10759117 -0.83628118 0.42262828 0.34931251 0.055523627
0.40705472 -0.2121969 0.10582871 -0.86489612 0.3631281 0.34654409 0.049952917
-0.40565205 -0.2052895 0.10453269 0.87612861 0.35793018 0.32293129 0.043590974
-0.39786187 -0.20817469 0.10628837 0.88586593 0.34527525 0.30988169 0.046107028
0.39598212 -0.20883991 0.10267937 -0.84800637 0.39735141 0.35070929 0.052868642
0.40888983 -0.20744507 0.10552914 -0.87618905 0.36651179 0.31298858 0.048536431
-0.41332379 -0.1971575 0.10591771 0.87308651 0.38911009 0.29379115 0.042252589
-0.40254751 -0.19566223 0.10516982 0.85608244 0.42564785 0.29316685 0.041131414
0.40334129 -0.19781303 0.10895985 -0.87908983 0.38323084 0.28343463 0.046600491
-0.41539931 -0.18600892 0.10019805 0.8713932 0.38811412 0.30006886 0.04627347
-0.4081302 -0.18146563 0.10450005 0.86771727 0.39991209 0.29518986 0.047952808
0.4072105 -0.18458444 0.10533734 -0.8732841 0.38799348 0.29467955 0.050581224
0.4106423 -0.18084569 0.1095738 -0.89601701 0.34252638 0.28254074 0.047923297
-0.41704032 -0.17569804 0.10257792 0.87330514 0.38799763 0.29461166 0.043469623
0.41455993 -0.17594434 0.10137552 -0.87325102 0.36779857 0.31961995 0.043689031
0.42314503 -0.17160942 0.10420528 -0.84758276 0.40517899 0.34268567 0.044813052
-0.42669806 -0.16377796 0.10490076 0.88145518 0.38717705 0.27042684 0.043889955
-0.41399115 -0.16493116 0.10227771 0.86842293 0.38749042 0.30934256 0.047864173
0.42521024 -0.1650278 0.10271835 -0.8455807 0.40222818 0.35100687 0.052833829
-0.43129236 -0.15215319 0.10440391 0.89429271 0.32570651 0.30684811 0.049098216
-0.42495084 -0.15323639 0.10359132 0.88792878 0.3402077 0.30958232 0.051072244
0.42738795 -0.15576699 0.10521005 -0.84969527 0.39190751 0.35274154 0.049105693
0.43100062 -0.15348117 0.1049851 -0.84242553 0.40370145 0.3568534 0.045404769
-0.4346393 -0.14545172 0.10568881 0.86661363 0.36097449 0.344497 0.045234546
-0.42189819 -0.14501671 0.10150874 0.88840276 0.31756991 0.33149645 0.046517804
0.42308068 -0.14481488 0.10398096 -0.87710297 0.34619308 0.33292744 0.048923675
0.43431821 -0.14453636 0.10411354 -0.88245708 0.326857 0.3382811 0.048677884
-0.43681398 -0.13646398 0.10220591 0.89064652 0.30471611 0.33748627 0.048170023
-0.42511207 -0.13977535 0.1038548 0.88203108 0.30153093 0.36207786 0.046008158
0.42711478 -0.13555676 0.1044292 -0.90562165 0.30107993 0.29866418 0.048946191
0.43874252 -0.13388003 0.1041367 -0.91860723 0.26610416 0.29214591 0.049578454
0.44223243 -0.13173106 0.10998532 -0.91791517 0.28438228 0.27669197 0.04692756
-0.44253889 -0.12728061 0.1065276 0.90297204 0.30127072 0.30639437 0.047649723
-0.4336738 -0.12347762 0.10792895 0.89904779 0.30243859 0.31661323 0.04680432
0.42977571 -0.12938388 0.10466316 -0.90843952 0.30326492 0.28769433 0.047945913
0.43481499 -0.12023193 0.1074717 -0.91745102 0.25369754 0.3064656 0.049053479
0.44156337 -0.1260435 0.10318018 -0.90794623 0.29756567 0.29510719 0.046089623
-0.44543114 -0.11900729 0.10553703 0.9136433 0.2880916 0.28680846 0.04826647
-0.43549874 -0.11348256 0.10469102 0.89645571 0.30798051 0.31861424 0.045938719
0.43566972 -0.11567308 0.10637715 -0.90602243 0.25273985 0.339479 0.053440496
0.44468284 -0.11713449 0.10331859 -0.90191317 0.24855804 0.35323009 0.053854946
-0.43757537 -0.10578832 0.10725886 0.92503995 0.22821823 0.30367321 0.047518231
0.43711168 -0.10394792 0.10555442 -0.93812829 0.17053302 0.30138636 0.060048729
-0.4473446 -0.097044975 0.10317607 0.91293824 0.18108632 0.36572045 0.042714983
-0.43976688 -0.097039647 0.10976899 0.9268657 0.21026038 0.31098324 0.045749802
0.43760589 -0.099058606 0.10519356 -0.93326861 0.092105679 0.34716868 0.049874682
0.44968343 -0.098071814 0.10914893 -0.94929814 0.16569982 0.26716393 0.053583175
-0.45128503 -0.083109297 0.10825984 0.96420544 0.077683777 0.25352138 0.042894341
-0.44134662 -0.084215775 0.10950691 0.95122415 0.10766334 0.28910422 0.048556466
0.44840956 -0.086232193 0.1023104 -0.9306711 0.082311615 0.35647738 0.050924085
-0.45105046 -0.074580871 0.10498282 0.94562238 0.13011849 0.29810643 0.057471279
-0.44920623 -0.075339414 0.10077156 0.94066274 0.078301825 0.33018556 0.046980631
0.43950999 -0.070907325 0.10084291 -0.91833836 0.08055681 0.38751152 0.04410167
0.44494998 -0.075026184 0.1028409 -0.92913288 0.087553173 0.35923043 0.045401461
0.45073983 -0.073017657 0.10373609 -0.92520797 0.10868571 0.36356229 0.04086661
-0.44179273 -0.061733447 0.10343817 0.94817775 0.078448482 0.30790398 0.063028172
0.4409962 -0.065764934 0.10279651 -0.92248321 0.059907127 0.38136053 0.048155598
0.45288238 -0.063657463 0.10593364 -0.93463916 0.12894905 0.33139357 0.048642676
-0.45363849 -0.052196477 0.10411638 0.94080091 0.16032414 0.29864654 0.045286212
0.44342065 -0.054094486 0.10494035 -0.90698755 0.12517373 0.40212569 0.049650993
-0.45548782 -0.047040045 0.10694204 0.94629973 0.12718211 0.29722309 0.044734664
-0.44454002 -0.043743089 0.10435279 0.93538404 0.098800898 0.33955136 0.044938486
0.44389853 -0.047358036 0.10395285 -0.91751063 0.11427527 0.38094017 0.046388384
0.45451114 -0.045775618 0.10418219 -0.92585367 0.13651887 0.35235998 0.044949319
-0.45663431 -0.033918846 0.10553957 0.92132711 0.1501787 0.35861218 0.044980112
0.44572827 -0.03533493 0.10454895 -0.90009183 0.19016205 0.39201161 0.043650746
0.45756409 -0.035314973 0.10822801 -0.92792195 0.17617223 0.32851815 0.05034557
-0.4577283 -0.024670694 0.10524128 0.92585158 0.12283023 0.35736746 0.047054209
-0.44837004 -0.023524333 0.10717287 0.93818426 0.083165884 0.33599642 0.049022604
-0.44829091 -0.01578296 0.10452128 0.91431981 0.1513107 0.37566513 0.049882933
0.44814444 -0.016497444 0.10439479 -0.92578477 0.083633251 0.36868411 0.053656477
0.45932636 -0.015667627 0.10623775 -0.9437204 0.075619474 0.32198384 0.056294456
0.44912052 -0.004413093 0.10291038 -0.93019372 -0.0011825196 0.36706707 0.053360391
0.46129811 -0.0057529975 0.10784674 -0.95173007 -0.048962764 0.30300555 0.042738385
-0.46062163 0.0097072311 0.10747039 0.96028996 -0.10847084 0.25705495 0.045233764
-0.45342907 0.0077760103 0.1060848 0.94134468 -0.047981706 0.33401787 0.047490351
0.44814789 0.006192958 0.10112803 -0.93073815 -0.046544455 0.36271214 0.05024438
-0.45710683 0.015128883 0.10070816 0.94257122 -0.13151325 0.307024 0.044663269
-0.44981855 0.015617911 0.10815696 0.95568323 -0.13155708 0.26336721 0.050941415
0.44893217 0.01494509 0.10580318 -0.95896572 -0.13317499 0.25029808 0.052182794
0.45615646 0.014960643 0.10665651 -0.96164978 -0.12581486 0.24372211 0.052479804
-0.45732051 0.02442817 0.10417973 0.94744474 -0.16963553 0.27124223 0.040562272
-0.44742203 0.028177876 0.10636327 0.95258254 -0.12788276 0.27610251 0.045684833
0.44812781 0.025759095 0.10729836 -0.95357925 -0.14566508 0.26356846 0.044213038
0.45717323 0.028803587 0.10521478 -0.95178878 -0.15617302 0.26402313 0.047408488
-0.45672813 0.035898197 0.1063951 0.94856346 -0.14217819 0.28286538 0.047291491
-0.44524765 0.044591568 0.10633074 0.946284 -0.11510994 0.30215287 0.050154999
0.44422141 0.046428345 0.10443687 -0.92813188 -0.12494025 0.35065827 0.04785452
-0.4541409 0.055641428 0.10642421 0.95839894 -0.08470013 0.27257562 0.047005426
-0.4454577 0.051967189 0.1091821 0.95794326 -0.091679886 0.27191821 0.047447357
0.44331488 0.057150465 0.10565633 -0.93165213 -0.080302462 0.35436678 0.050947774
0.45338854 0.055828676 0.10466727 -0.92910433 -0.10061106 0.35586882 0.052700214
-0.45126554 0.063459367 0.10196734 0.93972808 -0.127334 0.31732816 0.052046478
-0.44285685 0.066628024 0.1075628 0.95011806 -0.11440479 0.29015058 0.052779164
-0.43947887 0.069459073 0.10030751 0.92512453 -0.14334409 0.35156381 0.051752429
0.44151661 0.065028183 0.10381866 -0.92042428 -0.12753944 0.36953059 0.048702095
0.45287251 0.061056674 0.1050832 -0.93413246 -0.082585335 0.34724078 0.051188335
-0.45292413 0.072250254 0.10876555 0.96856999 -0.11086975 0.22266561 0.052923039
-0.44979519 0.073692657 0.10167012 0.91918367 -0.12963997 0.37188026 0.056208264
0.43951476 0.071395107 0.1010095 -0.92483979 -0.13070765 0.35719302 0.047659025
0.44289833 0.073693939 0.1099088 -0.94562298 -0.11162462 0.30551127 0.049054384
-0.45100504 0.082125202 0.10727108 0.9475162 -0.19482133 0.25349072 0.051937796
-0.44051838 0.085376143 0.10787622 0.94422525 -0.17145136 0.28114608 0.057023872
-0.43868247 0.087456644 0.10410506 0.92969245 -0.17081374 0.32633507 0.051530994
0.43835315 0.085371077 0.10264724 -0.92094129 -0.13799396 0.36445132 0.043787349
0.44024691 0.088146761 0.10810135 -0.91790152 -0.13825095 0.37194553 0.042939208
-0.44871545 0.096994773 0.10646954 0.93357217 -0.12384002 0.33631334 0.050700732
0.43819967 0.099702716 0.10683179 -0.92764968 -0.12490904 0.35194308 0.047239918
0.44664818 0.096166976 0.10121571 -0.92444724 -0.093201943 0.36974412 0.046899915
-0.44609463 0.10412429 0.10240846 0.93608505 -0.15159646 0.31743219 0.051876146
-0.43615055 0.10657045 0.10406762 0.92597443 -0.17395368 0.33512887 0.050770063
0.43746403 0.10309532 0.10613406 -0.92639279 -0.14625065 0.34699717 0.048563786
-0.44654948 0.11122149 0.10576239 0.92334342 -0.15923078 0.34940323 0.049172062
-0.43603471 0.11502453 0.10647499 0.91861063 -0.15399644 0.3639226 0.05514726
0.43562961 0.11768167 0.10747094 -0.9208582 -0.23746742 0.30923992 0.054070663
0.44505608 0.11995909 0.10536784 -0.91274166 -0.23026346 0.33746296 0.05257402
-0.44163254 0.12352353 0.10098755 0.89657295 -0.25305554 0.36348304 0.050524484
-0.43379602 0.12417156 0.10387281 0.90223902 -0.25956392 0.34437084 0.053453147
0.43459833 0.12289076 0.10946201 -0.91130781 -0.24544504 0.33056739 0.048859365
0.44481146 0.12407663 0.10865459 -0.91156101 -0.2811462 0.30002218 0.048235942
-0.44091144 0.13257413 0.10779914 0.89606899 -0.3491255 0.27417472 0.046418436
-0.43740717 0.13549487 0.10263735 0.87869674 -0.35552877 0.31857717 0.047784097
-0.42765307 0.13451235 0.10466689 0.86217564 -0.34392539 0.37197921 0.052089259
0.4282411 0.1359883 0.10736522 -0.89373654 -0.32751578 0.30654272 0.05513854
0.43798149 0.13674311 0.10509257 -0.8832947 -0.32038394 0.34226409 0.053111423
-0.43474323 0.14369038 0.10428123 0.86487836 -0.40182069 0.30087474 0.051019505
-0.42396864 0.14525342 0.10638717 0.83490932 -0.43226761 0.34069219 0.05161535
0.42286232 0.14638318 0.10495104 -0.8726241 -0.32233912 0.36691222 0.051168259
0.43304992 0.14543304 0.10209575 -0.86386436 -0.3797265 0.33097759 0.050690498
-0.43189272 0.15225542 0.10584978 0.87005937 -0.40750059 0.27738062 0.052554775
0.41684493 0.15860315 0.10280102 -0.87802744 -0.3351818 0.3416445 0.047800019
0.42923966 0.15813704 0.10536211 -0.86125785 -0.38060403 0.33671284 0.049467236
0.43223763 0.15167379 0.10608375 -0.89494759 -0.31455731 0.31642148 0.053364258
-0.4270463 0.16189921 0.10393354 0.88467807 -0.35226548 0.30537483 0.049203359
-0.41413212 0.16550989 0.10313407 0.8818298 -0.32788447 0.3389217 0.051217169
0.42504057 0.16734801 0.10449877 -0.86426067 -0.39605051 0.31015715 0.051101234
-0.42198047 0.17588814 0.10557262 0.90094846 -0.32378915 0.28888136 0.047569785
-0.41047204 0.17555897 0.10426426 0.90111291 -0.31515896 0.29777575 0.046689056
0.41263285 0.17609277 0.10962287 -0.88921571 -0.35991359 0.28241387 0.051297877
0.42020559 0.17880031 0.10429332 -0.86032188 -0.39004287 0.32819635 0.050641891
-0.41520178 0.18925571 0.10277922 0.87008828 -0.37360254 0.32150817 0.052150186
-0.40505952 0.18805751 0.10373463 0.87442374 -0.38742363 0.29203799 0.049359772
0.4052901 0.18782248 0.10403427 -0.88941163 -0.32375062 0.32269585 0.045686577
0.416282 0.18701833 0.10312444 -0.90175581 -0.3100414 0.30118233 0.044371638
-0.41158167 0.19625267 0.10115533 0.86333287 -0.40797356 0.29700825 0.05080406
-0.40428501 0.1919101 0.1055822 0.87420291 -0.39245623 0.28591493 0.050505217
0.41182882 0.19930696 0.10455738 -0.87957531 -0.36775261 0.30183661 0.045763977
-0.41179389 0.20289676 0.10782395 0.88080972 -0.39609665 0.25938725 0.051564332
-0.39873922 0.20353985 0.10394311 0.86373436 -0.4070977 0.29704255 0.051395532
0.39782858 0.20366812 0.10201402 -0.85621887 -0.40417859 0.32175902 0.0477608
0.4083235 0.20701782 0.10385686 -0.85235447 -0.41595787 0.31697148 0.046299566
0.41165465 0.20086922 0.10562134 -0.8796823 -0.36668468 0.30282235 0.049249515
-0.40649179 0.21748689 0.10949168 0.90404743 -0.35837317 0.23295259 0.054481432
-0.39295107 0.21641076 0.10291533 0.84140301 -0.36559808 0.39796874 0.05218751
0.40639251 0.21153125 0.10371865 -0.87686884 -0.38867423 0.28290173 0.046333078
-0.40328741 0.22506788 0.10934726 0.83659571 -0.47326416 0.27591416 0.067415014
-0.39775357 0.22934158 0.10088025 0.82569623 -0.4658516 0.31813213 0.060043816
-0.38770244 0.22691503 0.10258879 0.81245703 -0.48340681 0.32593137 0.05570652
0.3878797 0.22656615 0.10298294 -0.79171562 -0.50404775 0.34514084 0.048085727
0.39575449 0.22765647 0.10320932 -0.81063753 -0.48682839 0.325369 0.046159085
-0.39680484 0.23374742 0.10541247 0.81504118 -0.4960216 0.29945022 0.058674213
-0.38500759 0.23264447 0.10587581 0.77076173 -0.5377323 0.34171689 0.051495731
0.38257709 0.23510872 0.1048334 -0.71762115 -0.57017899 0.39989465 0.045983654
0.39775628 0.23286054 0.10593575 -0.80592459 -0.47631726 0.3515785 0.045231167
-0.37739652 0.24462505 0.10893196 0.73658347 -0.60099834 0.31023514 0.046341524
0.37406895 0.24568498 0.1040748 -0.70346689 -0.59180999 0.39356735 0.041472789
0.38729849 0.24628557 0.10563371 -0.71607631 -0.55687612 0.42086062 0.050150529
-0.38181663 0.2531485 0.10521689 0.75402051 -0.58173507 0.30502027 0.041573524
-0.37286854 0.25516886 0.10336976 0.76901716 -0.56042081 0.30747557 0.045052286
-0.36710748 0.25528753 0.10486063 0.75775325 -0.55151701 0.34876782 0.043643206
0.36665952 0.25678369 0.10621314 -0.74808162 -0.55679148 0.36104986 0.051728185
0.38035268 0.25420433 0.10395391 -0.71885717 -0.59435916 0.3605293 0.047672052
-0.37445658 0.26575825 0.10969061 0.76997441 -0.54126638 0.33789057 0.044217687
-0.36358792 0.26326358 0.1036626 0.73562092 -0.57404453 0.35963127 0.046008393
-0.35669151 0.26776689 0.10323747 0.74883068 -0.5571202 0.35898417 0.048440248
0.36506593 0.26722938 0.10617434 -0.77884531 -0.5108701 0.36388415 0.045783173
0.37200847 0.26672083 0.10638809 -0.76239479 -0.53681117 0.36136946 0.047625098
-0.36328346 0.2759403 0.10319929 0.73111016 -0.57426655 0.3683691 0.047115393
-0.35386461 0.27503619 0.10855203 0.73927248 -0.58172697 0.33921951 0.046798166
