# .PCD v0.7 - Point Cloud Data file format
VERSION 0.7
FIELDS x y z normal_x normal_y normal_z curvature
SIZE 4 4 4 4 4 4 4
TYPE F F F F F F F
COUNT 1 1 1 1 1 1 1
WIDTH 591
HEIGHT 1
VIEWPOINT 0 0 0 1 0 0 0
POINTS 591
DATA ascii
-0.15546943 0.4014447 0.057702132 0.34938666 -0.75602633 0.55349177 0.059955303
-0.14020814 0.40291071 0.050973412 0.34885803 -0.76371521 0.54317319 0.053973429
-0.10645521 0.4069353 0.056937288 0.25084445 -0.80723071 0.53428036 0.059753891
-0.090027422 0.40551442 0.051508665 0.087764576 -0.83323091 0.54591554 0.057865579
-0.0865646 0.40755224 0.053861264 0.096034512 -0.83381772 0.54362249 0.056126192
-0.074619807 0.40853444 0.052983344 0.15019029 -0.83724761 0.52579391 0.055712149
0.063102923 0.4097774 0.052576885 -0.091103017 -0.83949083 0.53568208 0.059986357
0.078940794 0.40726915 0.051947571 -0.13979182 -0.82120472 0.55324584 0.060763314
0.084392346 0.40576151 0.050772801 -0.17442372 -0.79754525 0.57749289 0.058775585
0.09403719 0.40646654 0.053709727 -0.18020114 -0.81053704 0.55727661 0.059659638
0.1048296 0.40537342 0.054197092 -0.1427356 -0.7833578 0.60496038 0.054066204
0.11117753 0.40423313 0.054827239 -0.14470395 -0.79696256 0.58643961 0.05495552
0.12400083 0.40038532 0.05685579 -0.3133091 -0.77189094 0.55319232 0.059187286
0.13021275 0.40859756 0.053116731 -0.3226119 -0.75752586 0.5675174 0.054566003
0.14564404 0.40290916 0.054091603 -0.32911924 -0.73881263 0.58807862 0.057181202
0.15378922 0.40052357 0.055461168 -0.31896996 -0.72336948 0.61236817 0.056132719
-0.12097606 0.41158688 0.051957272 0.2694805 -0.79351789 0.54562771 0.060229406
-0.11608883 0.41402116 0.052525416 0.24115644 -0.80237001 0.54593587 0.063091151
-0.1039953 0.41819018 0.054408915 0.21420865 -0.82018882 0.53047609 0.060574215
-0.092726827 0.41037983 0.059272841 0.088021599 -0.84720856 0.52391785 0.059478633
-0.076419711 0.41563231 0.054548666 0.14042959 -0.82511461 0.5472343 0.057473093
-0.062563919 0.41433007 0.059241943 0.086428873 -0.80857617 0.5820092 0.051098008
-0.054146722 0.41165558 0.053616535 0.086074449 -0.8382163 0.5385021 0.053968009
-0.042998299 0.413398 0.054025106 0.10888212 -0.84160984 0.52899677 0.058983326
-0.033540845 0.41314006 0.051789839 0.13420348 -0.83127725 0.53941399 0.05737067
-0.025380636 0.41767204 0.056931999 0.14855057 -0.80359536 0.57633942 0.05802393
-0.0155626 0.41938984 0.057564374 0.10215822 -0.78871405 0.60621274 0.061583146
-0.0055411826 0.41816249 0.053776994 0.013385981 -0.81687468 0.57665992 0.06767606
0.0040983376 0.4164702 0.050977793 -0.040532354 -0.7989912 0.59997517 0.056775898
0.015461139 0.41705114 0.054066401 -0.10806355 -0.82278657 0.55798256 0.060882006
0.02592358 0.41623145 0.054895841 -0.1049122 -0.80765325 0.58024961 0.05656277
0.035290893 0.41578346 0.05606363 -0.096218355 -0.80160445 0.59006137 0.057557579
0.053751346 0.41246608 0.054744493 -0.11125334 -0.81660384 0.56637532 0.057251431
0.073731482 0.41165075 0.057443857 -0.1501714 -0.84434694 0.51432163 0.06592577
0.085454196 0.4148415 0.055141408 -0.17340468 -0.79425955 0.58230799 0.061691739
0.094070666 0.41673642 0.05030372 -0.17798883 -0.81600934 0.5499534 0.056744449
0.11617888 0.41590288 0.055184811 -0.24124977 -0.81576473 0.52566755 0.056138515
0.12823907 0.41234791 0.05718115 -0.28662845 -0.78629529 0.54734248 0.057473913
0.13168684 0.41271192 0.059664648 -0.2960659 -0.74546039 0.59718817 0.057350516
-0.092260569 0.42173195 0.05737859 0.12167641 -0.82248461 0.55562025 0.054941174
-0.082242988 0.42356539 0.058143865 0.13535321 -0.81951338 0.55684584 0.056121323
-0.077354841 0.42120597 0.053677972 0.12435979 -0.82499707 0.55128437 0.059579995
-0.065675251 0.42384622 0.055317704 0.092991829 -0.83173746 0.54732555 0.060053147
-0.057221215 0.42558655 0.056250665 0.047945764 -0.80413151 0.59251481 0.054921024
-0.044169709 0.42614311 0.054523021 0.13243546 -0.79378957 0.59359831 0.058856133
-0.03519303 0.42881668 0.056741536 0.13555625 -0.7691707 0.62450057 0.058174908
-0.023726584 0.42604282 0.050371293 0.12609456 -0.78183818 0.61059749 0.057387739
-0.013736872 0.42876425 0.05246263 0.1186873 -0.79356271 0.59680116 0.060621049
-0.0016899784 0.42340809 0.05615266 0.0085996035 -0.80311519 0.59576184 0.057630319
0.0037731491 0.42910784 0.051022813 -0.052419696 -0.82979405 0.55560249 0.060760997
0.014961076 0.4231956 0.056877863 -0.13907954 -0.8026582 0.57999718 0.056320708
0.023743181 0.42880595 0.054483749 -0.077158295 -0.80304587 0.5909009 0.054963481
0.030524569 0.42791039 0.054479644 -0.087351009 -0.80369413 0.58859622 0.055647083
0.043956418 0.4259274 0.054160368 -0.078966662 -0.82312107 0.56234866 0.056588564
0.055430412 0.42410088 0.053690523 -0.12055574 -0.83996451 0.52908027 0.056595214
0.065448895 0.42404661 0.055571374 -0.10565788 -0.83180088 0.54492545 0.058602698
0.072111875 0.42199591 0.053826164 -0.14792313 -0.82091743 0.55155528 0.058710538
0.093797229 0.42173243 0.057680126 -0.17190251 -0.80519968 0.56754118 0.055885784
-0.034925055 0.43095779 0.059873249 0.11315374 -0.8031655 0.58491141 0.057366174
-0.026247365 0.43128887 0.058666591 0.10892022 -0.8185975 0.56394541 0.055213388
-0.01121874 0.43052274 0.054584753 0.0461182 -0.81890029 0.57207996 0.061781771
-0.0024213518 0.43195167 0.054987412 0.0339472 -0.82215983 0.56824356 0.055181459
0.0025145698 0.43257838 0.055937637 -0.046732858 -0.81964761 0.57095873 0.057213955
0.026846649 0.43105629 0.058438029 -0.051224418 -0.83394611 0.54946339 0.052681904
0.035611153 0.43036944 0.059132516 -0.080335468 -0.83648944 0.54206252 0.057598934
-0.0016954714 -0.44093448 0.06820415 -0.064501904 0.81641912 0.57384616 0.059261683
0.0011765434 -0.44045147 0.067384295 -0.067631721 0.8164084 0.57350093 0.059731234
-0.084934376 -0.43025973 0.068626329 0.14013423 0.81640208 0.5602231 0.055852652
-0.071960188 -0.43031156 0.066163212 0.072599232 0.76444036 0.64059377 0.055147622
-0.063369855 -0.43194386 0.066908836 0.092656136 0.79448724 0.60017061 0.054890458
-0.059767388 -0.43149662 0.065538377 0.073148496 0.79023862 0.60841775 0.051286541
-0.033689789 -0.43542737 0.066278338 0.11059437 0.78351873 0.61144692 0.050693158
-0.026581023 -0.43573406 0.065342583 0.13787012 0.7881034 0.59990406 0.057170883
-0.018644646 -0.43319255 0.060009107 0.064911112 0.81359756 0.57779366 0.060047466
-0.0060868054 -0.43791944 0.064580113 -0.008952192 0.81057507 0.58556634 0.060383681
0.0074220588 -0.43610454 0.062142432 -0.14673954 0.81611776 0.55894482 0.062614076
0.014131151 -0.43648288 0.064018659 -0.060010392 0.80314249 0.59275705 0.062440246
0.026421096 -0.43693027 0.067090251 -0.14191918 0.81601042 0.56034446 0.054852985
0.035525758 -0.43372783 0.064110264 -0.083828047 0.819691 0.56663883 0.051883414
0.054056022 -0.43169561 0.064716078 -0.073200405 0.8339929 0.54689819 0.059543848
0.061053913 -0.43360326 0.068923168 -0.11102459 0.85164422 0.51222605 0.060521986
0.072546117 -0.4321807 0.069057651 -0.14865555 0.81644553 0.55795896 0.055596419
0.08039318 -0.43064186 0.068305522 -0.10651824 0.81576085 0.56849641 0.058416206
-0.12662464 -0.42143524 0.068847723 0.30457196 0.77693951 0.55099988 0.053221047
-0.11742584 -0.42331356 0.066170394 0.24028449 0.7842958 0.57196462 0.056276813
-0.10287906 -0.42607921 0.065922581 0.15044756 0.81588578 0.55829734 0.055563193
-0.094895512 -0.42544913 0.063422479 0.16706452 0.81361169 0.55688906 0.058260437
-0.084673859 -0.42749581 0.064464904 0.16124889 0.80509281 0.5708102 0.06006106
-0.064840734 -0.42714858 0.064736836 0.082363233 0.77733219 0.62367541 0.055842627
-0.054881174 -0.42227629 0.064883627 0.10509264 0.80625802 0.58215427 0.056214742
-0.021163767 -0.42223352 0.062889874 0.1282804 0.80044788 0.58551461 0.056174453
-0.010783011 -0.4226999 0.061551042 0.063326433 0.80851191 0.5850625 0.057319868
-0.0067543713 -0.42680782 0.066871434 0.013824133 0.8306064 0.55668837 0.062188402
0.0094833169 -0.4259584 0.066142477 -0.12587315 0.8038584 0.58134985 0.063407503
0.015378425 -0.42226183 0.061799288 -0.16183987 0.83302015 0.52904189 0.052706711
0.027160769 -0.42238247 0.064285547 -0.099459909 0.82580364 0.55511814 0.056895558
0.033055928 -0.42261231 0.065781549 -0.087223269 0.82870895 0.55284148 0.052937195
0.043686822 -0.42027926 0.064393342 -0.032939292 0.83584023 0.54798359 0.057187721
0.054733802 -0.42666858 0.062044125 -0.050896294 0.84670424 0.52962404 0.053806458
0.0751274 -0.42840233 0.06394396 -0.12575394 0.84524751 0.51936758 0.052643467
0.085857727 -0.42735058 0.064480707 -0.072041832 0.81649262 0.57284355 0.059853453
0.093964435 -0.42669591 0.0650943 -0.10567313 0.80242693 0.58731961 0.057085905
0.10402898 -0.42589641 0.065875851 -0.16950428 0.78479683 0.59612262 0.056509893
0.11488759 -0.42365137 0.065181546 -0.2275175 0.7341882 0.63969016 0.059411239
-0.13551819 -0.41308364 0.062379025 0.32192677 0.78049582 0.53590059 0.057478976
-0.12557676 -0.41765875 0.063012615 0.32961828 0.73708951 0.58995825 0.056403976
-0.11355032 -0.41235679 0.067447133 0.21984375 0.78639865 0.57727462 0.057299145
-0.10833512 -0.41492724 0.069091462 0.21454705 0.80475354 0.55348098 0.056714796
-0.095727235 -0.4127441 0.063376263 0.20352904 0.82790762 0.52263272 0.05677373
-0.086648107 -0.41594443 0.06635806 0.18002184 0.7959944 0.57791454 0.051960278
-0.054598071 -0.41777641 0.062807493 0.060779162 0.82920176 0.55563515 0.058172598
-0.047372945 -0.41809139 0.06186134 0.066360258 0.8178758 0.57155526 0.051490344
-0.027678641 -0.41954154 0.060162019 0.17643933 0.78702945 0.59114617 0.053661723
0.031951297 -0.41960537 0.061093483 -0.086309686 0.81864583 0.56777614 0.06023952
0.043433011 -0.41850558 0.061705913 -0.05474446 0.81269729 0.58010864 0.06021506
0.054942176 -0.41630939 0.060693178 -0.028983472 0.81845468 0.57383955 0.053660668
0.065990426 -0.41859463 0.066254891 -0.10011893 0.85158634 0.51456475 0.057910867
0.075118966 -0.41745257 0.066343635 -0.16822575 0.83409274 0.52534699 0.056328703
0.086110458 -0.41543159 0.065490112 -0.12740608 0.80966443 0.57289726 0.057094049
0.093131177 -0.41314086 0.063458033 -0.15049291 0.79111445 0.59286571 0.057253681
0.10214139 -0.41467041 0.067496806 -0.19524598 0.77889746 0.59598464 0.054098506
0.11426562 -0.41102481 0.066011839 -0.22590376 0.77193087 0.5942139 0.05500149
0.14297527 -0.41389418 0.067782857 -0.27219087 0.73441201 0.62173235 0.052466173
-0.17318282 -0.40198845 0.068623543 0.25544065 0.78434187 0.5652945 0.054644514
-0.166674 -0.40438867 0.068213522 0.27844337 0.77618814 0.56568652 0.057195552
-0.15578625 -0.40456656 0.062210239 0.29155347 0.77005339 0.5674631 0.056375474
-0.14530818 -0.40001622 0.068575144 0.35845521 0.75563985 0.54819554 0.056675315
-0.12765735 -0.40370488 0.06355492 0.31899762 0.78007239 0.53826344 0.056901902
0.11079922 -0.40853739 0.060574871 -0.2509405 0.82494432 0.50645411 0.056542482
0.12752461 -0.40271661 0.062109165 -0.27603146 0.8205924 0.50043452 0.060559526
0.13360906 -0.40164384 0.064115137 -0.302717 0.80189621 0.51509702 0.059043955
0.14059386 -0.40299386 0.069995441 -0.25621131 0.79582202 0.54865587 0.055231474
0.16546154 -0.40514496 0.068565704 -0.2909846 0.76937532 0.56867355 0.054014996
0.17507964 -0.40041098 0.067526251 -0.34919268 0.76931155 0.53499919 0.055581085
-0.19769247 -0.39148501 0.068136796 0.32552847 0.75677699 0.56685078 0.054281488
-0.18559782 -0.39444637 0.065298036 0.34969258 0.73294586 0.5835284 0.053503174
-0.15228385 -0.39537472 0.066147044 0.30517626 0.79463911 0.52480108 0.059916027
-0.1430786 -0.39664051 0.062617145 0.31649831 0.7937879 0.519355 0.060627893
-0.13443623 -0.39852422 0.060266715 0.35646129 0.78336197 0.50919479 0.058636162
0.14250469 -0.39525235 0.060363989 -0.25554985 0.82382882 0.50596482 0.052077331
0.15761313 -0.39512509 0.06886027 -0.29243276 0.76849985 0.56911433 0.058216222
0.16465458 -0.3913019 0.06760402 -0.29372355 0.77610278 0.55802417 0.057345152
0.18365578 -0.39523143 0.065271273 -0.33579883 0.7640813 0.55083466 0.055690881
0.19255327 -0.39271703 0.066894151 -0.32551944 0.75161457 0.5736835 0.05283742
-0.22089718 -0.38318646 0.069956586 0.41929904 0.7182467 0.55525672 0.067459725
-0.21736869 -0.38277453 0.067360282 0.41031849 0.69059026 0.59558702 0.066377319
-0.2060266 -0.38627896 0.065706104 0.29683387 0.7456615 0.59655553 0.051266372
-0.19591649 -0.38464603 0.063868217 0.32219613 0.74827117 0.57989645 0.058796231
-0.18470919 -0.38233668 0.066691667 0.36604124 0.74350107 0.55966055 0.05769939
-0.17407127 -0.38549685 0.064964674 0.3769823 0.75220191 0.54044116 0.056359891
-0.1664886 -0.38681987 0.062445488 0.27427796 0.81809574 0.50546122 0.049339719
0.17361808 -0.38232127 0.060303763 -0.33241856 0.76837361 0.54690033 0.054484684
0.18905045 -0.38415155 0.065470256 -0.27845445 0.78722674 0.5502156 0.050362483
0.19567968 -0.38538414 0.063198105 -0.3641454 0.75958705 0.53891158 0.054890074
0.20333008 -0.38651699 0.064488202 -0.41873014 0.71793139 0.55609316 0.056835499
0.21407801 -0.38482103 0.06830743 -0.38233572 0.71430933 0.58615828 0.060361832
-0.22555196 -0.37439969 0.063636735 0.46781766 0.64237839 0.60703927 0.062325824
-0.21965379 -0.37978384 0.064658165 0.39061615 0.70755059 0.58888972 0.057683304
-0.20278113 -0.37256464 0.063523144 0.36006305 0.71973562 0.59357834 0.053709179
-0.1993334 -0.37456626 0.064317919 0.33332157 0.72613633 0.60135084 0.055151924
-0.18539238 -0.37763757 0.060571756 0.28459489 0.7567246 0.58853525 0.057099439
0.19310954 -0.37885293 0.066685826 -0.35368928 0.74170363 0.56989449 0.052653965
0.20154792 -0.37571347 0.06717898 -0.40098941 0.70591658 0.5838573 0.051845413
0.21445456 -0.376212 0.065935798 -0.4361966 0.69798791 0.56793076 0.054658301
0.22723322 -0.37389311 0.064569123 -0.43374962 0.66285014 0.61032033 0.059487026
-0.24367639 -0.36217424 0.065638229 0.54601771 0.65685689 0.52000356 0.058599185
-0.23782501 -0.36687714 0.06589172 0.53583199 0.6415658 0.54888755 0.059893545
-0.22554697 -0.3635492 0.069405288 0.51865584 0.6653192 0.53697908 0.062763333
-0.21410309 -0.36823851 0.064716563 0.43628943 0.68237787 0.58652532 0.060595565
0.20786221 -0.36848924 0.060792059 -0.44801691 0.71775222 0.53302217 0.051613808
0.21797296 -0.36518323 0.064433731 -0.40035388 0.70590347 0.58430904 0.05470619
0.22236146 -0.36217591 0.064862259 -0.41765267 0.69132572 0.58960581 0.055552319
0.23599359 -0.36832002 0.065936454 -0.45603031 0.70132005 0.54789281 0.053396299
-0.25672916 -0.35193816 0.065376043 0.53650069 0.65456045 0.53265148 0.054826193
-0.23511301 -0.35378614 0.066522099 0.494082 0.6744073 0.54868728 0.057895813
-0.22699946 -0.35676479 0.062657997 0.52566332 0.64990461 0.54890996 0.065522082
0.23183613 -0.35469663 0.064613432 -0.46753412 0.65901047 0.5891664 0.051776897
0.24779665 -0.35531908 0.061242867 -0.47880328 0.65525365 0.58428603 0.054008741
0.25818348 -0.35099137 0.065577388 -0.5120737 0.66198963 0.5473119 0.05444444
-0.26376918 -0.34765542 0.066708021 0.47544023 0.67278886 0.56684369 0.053777486
-0.24312571 -0.34653175 0.065205917 0.52598453 0.65297645 0.54494214 0.056636412
-0.23351574 -0.34993076 0.060475558 0.51804918 0.66280657 0.54065937 0.062706031
0.24915135 -0.34244251 0.065841891 -0.48175356 0.65822881 0.57848787 0.055793315
0.25434649 -0.34642112 0.065977678 -0.49877504 0.6690678 0.55097342 0.054564353
0.27276883 -0.34124684 0.067299612 -0.46443292 0.70831174 0.53159815 0.054088663
-0.26235268 -0.33301583 0.066678479 0.47710365 0.66773951 0.57139826 0.053511988
-0.2544561 -0.33601242 0.063033864 0.54627943 0.67062849 0.50183296 0.052404497
0.25754499 -0.33233008 0.061472364 -0.45043746 0.6626175 0.59836793 0.055267602
0.26935768 -0.33860743 0.061043758 -0.49121836 0.69073319 0.5306527 0.055676945
0.27560115 -0.33521566 0.062708668 -0.47675148 0.70792592 0.52110356 0.057945259
0.28015459 -0.33386138 0.065254949 -0.50080162 0.68614781 0.52763522 0.052434944
-0.29240644 -0.32232064 0.062708743 0.4707748 0.6614967 0.58377498 0.053395949
-0.28660607 -0.32753578 0.063618369 0.4791055 0.69292641 0.53880513 0.055015869
-0.27227879 -0.32311159 0.063956097 0.51167226 0.68060344 0.52437621 0.054953057
-0.26415315 -0.32935345 0.06396427 0.48636949 0.68056744 0.54797149 0.058590163
0.27499667 -0.3240881 0.067600049 -0.49302202 0.68802541 0.53249443 0.054292154
0.28542876 -0.32616907 0.06091693 -0.48244557 0.68440849 0.54665464 0.052959077
0.29134646 -0.32905722 0.069757581 -0.52105409 0.70232618 0.48501602 0.049011406
-0.3060348 -0.31480381 0.066208161 0.58806747 0.57659554 0.56719857 0.050813928
-0.29454041 -0.31358039 0.063598953 0.51515394 0.64213008 0.56770182 0.051396344
-0.28693253 -0.31538188 0.068138421 0.49642643 0.66973144 0.55228674 0.054023542
-0.27978328 -0.31633011 0.062738582 0.49776679 0.71877658 0.48537445 0.058173716
0.29964289 -0.31612027 0.0619381 -0.53825849 0.63399148 0.55527705 0.050291736
0.30510053 -0.31210741 0.062146269 -0.63120407 0.52327693 0.57250565 0.051362548
0.31133077 -0.31298193 0.068876088 -0.58071321 0.59019083 0.56075567 0.056058303
-0.32128605 -0.30170953 0.069972634 0.64481527 0.53460109 0.54627365 0.056647085
-0.31229013 -0.30455643 0.061866783 0.59419322 0.57913601 0.55815399 0.056999013
-0.29495084 -0.30624211 0.064583741 0.58717179 0.61717784 0.52375638 0.050894994
0.29041186 -0.30893016 0.06363786 -0.50453824 0.62478375 0.5958913 0.055176813
0.31381688 -0.30661246 0.065561213 -0.6061362 0.53839105 0.58543485 0.066652939
-0.32551718 -0.29207841 0.066213205 0.68622804 0.48597333 0.5412218 0.056690477
-0.31540227 -0.29395115 0.065228939 0.64928555 0.53458917 0.54096472 0.056009546
-0.30564207 -0.29411399 0.063105486 0.57698816 0.60541022 0.54823643 0.055607725
0.30784196 -0.29307294 0.064772844 -0.61623967 0.5285759 0.58382899 0.054842256
0.31973305 -0.29609066 0.062993772 -0.66027129 0.50531977 0.55560225 0.053949848
0.32282627 -0.29378116 0.064565822 -0.64449155 0.54135895 0.53996396 0.053012777
-0.33287856 -0.28230894 0.066052549 0.64865637 0.51385725 0.56142288 0.055842292
-0.32648125 -0.28619206 0.061985366 0.64377683 0.5200305 0.56135529 0.059073769
-0.31129783 -0.28793016 0.064189278 0.6625666 0.51880616 0.54022741 0.057361834
0.31069261 -0.28650376 0.062166594 -0.63902187 0.52286053 0.5641523 0.056026451
0.32907149 -0.28096169 0.06029186 -0.61990154 0.49906528 0.60552126 0.052320115
-0.33844247 -0.27574855 0.066683218 0.65563631 0.49388146 0.57115871 0.06260746
-0.32241121 -0.276025 0.066543475 0.62831914 0.51282251 0.58500272 0.053676914
0.31915241 -0.27768049 0.064177126 -0.65264899 0.49628353 0.57249635 0.055287361
0.32171708 -0.27407759 0.063939206 -0.62784618 0.49369586 0.60172558 0.05656613
0.33752871 -0.27566597 0.065520421 -0.57966131 0.50169671 0.64210057 0.047686968
0.34152591 -0.27135402 0.066339821 -0.64755011 0.44784194 0.61653584 0.049034655
-0.34637251 -0.26449049 0.065839946 0.63985246 0.50752336 0.5770691 0.058675956
-0.33160302 -0.26255128 0.065178551 0.62672645 0.53201437 0.56936342 0.058083951
-0.32947621 -0.26494974 0.064837739 0.64229918 0.53024262 0.55343878 0.054239541
0.33419871 -0.2644093 0.063735746 -0.60997033 0.47646272 0.63318193 0.054938897
0.34389013 -0.26502571 0.063374624 -0.63750178 0.47962311 0.60295367 0.051456351
-0.35335907 -0.25519195 0.065663263 0.66686296 0.51310062 0.54039019 0.063932471
-0.34258264 -0.25224635 0.068834797 0.65014219 0.55381602 0.52019519 0.055469818
-0.33539522 -0.25706625 0.064682782 0.65479648 0.54361707 0.52509242 0.059515666
0.33308959 -0.25553656 0.060542233 -0.64786553 0.47351226 0.59670466 0.058097724
0.35286069 -0.25531527 0.065182917 -0.68553406 0.44918144 0.57295638 0.053155497
-0.36348403 -0.24570796 0.069052003 0.62872815 0.49321389 0.60119963 0.053253714
-0.35479179 -0.24954024 0.062207438 0.63239771 0.51222199 0.58112109 0.060602177
-0.3471185 -0.24068724 0.06367749 0.68721348 0.49711925 0.52972633 0.066059053
0.34475064 -0.24519649 0.064977288 -0.67210746 0.46907175 0.57292521 0.055083521
0.35578263 -0.24895976 0.062856592 -0.67378825 0.48967212 0.55338103 0.052555729
0.36388832 -0.24206616 0.066207789 -0.64297277 0.54522198 0.53788388 0.057110716
-0.35721728 -0.23297809 0.068655834 0.617033 0.49278203 0.61354393 0.05450331
-0.34810603 -0.23695478 0.061444413 0.71666443 0.44772947 0.53472459 0.057349786
-0.38112411 -0.22325705 0.069543377 0.67981142 0.38570222 0.62377101 0.051969361
-0.37622306 -0.22550476 0.065763481 0.66914845 0.36529961 0.64714491 0.055376943
-0.36513513 -0.22148217 0.067580864 0.65893143 0.39904723 0.63762897 0.053382777
-0.35543293 -0.22826101 0.062224984 0.66263163 0.4898335 0.56655312 0.062260151
0.35782996 -0.22820902 0.065030098 -0.66105682 0.50749475 0.55267805 0.058198348
0.36052349 -0.22040522 0.061109528 -0.67686915 0.46818471 0.56802398 0.056308765
0.37294698 -0.22367162 0.060190994 -0.68718588 0.48809212 0.53809071 0.055978943
0.38137719 -0.22317429 0.069769114 -0.68770087 0.4292497 0.58550167 0.060028147
-0.3846795 -0.21339846 0.067721233 0.71941555 0.35256916 0.59844488 0.060359817
-0.36559096 -0.2132774 0.061077625 0.68341488 0.45072401 0.5742752 0.056416772
0.36929882 -0.21346907 0.065218672 -0.72229272 0.43100393 0.54085934 0.057030529
0.37751061 -0.2159919 0.063063338 -0.74098009 0.37838835 0.55477077 0.057282612
0.38315305 -0.21532361 0.066711009 -0.73671174 0.386554 0.55482602 0.059770431
-0.3876318 -0.20131476 0.064876243 0.7271229 0.35002545 0.59057134 0.054196399
-0.37558562 -0.20029269 0.066281244 0.71372837 0.36168304 0.59981424 0.05290594
0.37249255 -0.20675437 0.065703996 -0.74597889 0.33019301 0.57834941 0.056670554
0.38669521 -0.20612815 0.066341378 -0.76329005 0.29259798 0.57599884 0.059326157
-0.39040625 -0.19590998 0.065618619 0.75241482 0.31674233 0.57753468 0.0573074
-0.3880063 -0.19661766 0.062698923 0.73647797 0.36178598 0.57158649 0.053403463
-0.37690306 -0.19621351 0.065765426 0.72730577 0.36289907 0.5825209 0.054972284
0.37627122 -0.19454767 0.063933611 -0.77463949 0.29957145 0.55694753 0.05481774
0.38762861 -0.19558434 0.061582513 -0.77037913 0.30764431 0.55845404 0.05725136
0.39177728 -0.19350417 0.066137716 -0.77819246 0.27010226 0.56697565 0.058086835
-0.39212829 -0.18467747 0.061557334 0.73776615 0.40213865 0.54220432 0.052822176
0.38054135 -0.18754193 0.065829791 -0.79292893 0.28228173 0.53998214 0.052232072
0.39457148 -0.18619832 0.065816246 -0.77533227 0.30859566 0.55102503 0.057614952
-0.39727756 -0.17569338 0.063536197 0.77090961 0.32327348 0.54881018 0.047554146
-0.382855 -0.1756362 0.062201839 0.74050564 0.33784965 0.58095527 0.051725287
0.38646173 -0.17549574 0.067119531 -0.76149327 0.34342831 0.54971349 0.054315593
0.39835566 -0.17479694 0.064515792 -0.71073353 0.37376058 0.59595382 0.055221427
-0.4046824 -0.1626679 0.066321 0.76165128 0.3493717 0.545735 0.051346727
0.38860005 -0.1648078 0.063947693 -0.75234771 0.35158542 0.5571003 0.058260806
0.40234306 -0.16466655 0.064226508 -0.71872836 0.36841443 0.58966118 0.053836823
-0.41010016 -0.15200594 0.06770879 0.76157683 0.30988833 0.56918365 0.058007233
-0.40654644 -0.15479641 0.064385749 0.79060137 0.28107047 0.54401183 0.060278904
-0.39364365 -0.1532189 0.064284831 0.7567839 0.29518592 0.58321822 0.058325753
0.39263329 -0.15470946 0.063740335 -0.71806973 0.36542445 0.59231818 0.053243522
0.40742284 -0.15817401 0.067539275 -0.76085645 0.3518807 0.54523152 0.054176748
-0.40011683 -0.14176027 0.06667795 0.75617772 0.27929938 0.59176606 0.062480655
0.39579368 -0.14406233 0.062008306 -0.73359007 0.33456534 0.5915333 0.05423731
0.41111016 -0.14574656 0.065515555 -0.74369258 0.35702518 0.56520295 0.051764704
-0.41171408 -0.13940841 0.062714174 0.75758874 0.3169618 0.57060879 0.058445442
-0.40375978 -0.13535175 0.068047777 0.77854949 0.29879305 0.55189073 0.056685094
0.40003616 -0.13867188 0.064793438 -0.73958498 0.31137916 0.5967052 0.050914966
0.41591027 -0.13372409 0.065266401 -0.79440767 0.24367313 0.55636299 0.055062633
-0.42063999 -0.12429046 0.066405758 0.78214043 0.32733598 0.53019565 0.057651296
-0.41438118 -0.1252801 0.064528771 0.78810692 0.3139064 0.52948105 0.060756147
-0.40399903 -0.1267176 0.063423097 0.77621943 0.32956791 0.53746486 0.056350209
0.40119159 -0.12976813 0.061283667 -0.75930208 0.28919598 0.58294594 0.053731367
0.41954631 -0.12304498 0.064175233 -0.78859085 0.19181897 0.58423448 0.051741213
0.42271623 -0.12073874 0.067244351 -0.7826817 0.18965529 0.59282398 0.051730834
-0.42450765 -0.11532234 0.066617727 0.81476498 0.25892177 0.51876551 0.059348974
-0.40797973 -0.11634266 0.062984206 0.82025933 0.24646503 0.51616824 0.058343817
0.40827781 -0.11205703 0.060937222 -0.78936756 0.21275954 0.57587528 0.057262089
0.42078474 -0.11944082 0.063822627 -0.78799474 0.21115553 0.57834041 0.052272066
-0.41475406 -0.10305401 0.067799881 0.84119296 0.19301154 0.50511479 0.055521008
0.40938842 -0.10413191 0.060031448 -0.81536847 0.15190567 0.55865824 0.057055004
0.41016364 -0.10087023 0.060545694 -0.8059532 0.11362382 0.58097249 0.056814577
0.42650962 -0.10354648 0.06669338 -0.8246147 0.16996923 0.53955632 0.052527223
0.41602978 -0.094391651 0.068001218 -0.80412865 0.12084719 0.58204222 0.053067837
0.42688292 -0.095322534 0.065638416 -0.81233835 0.15954952 0.56093699 0.055042181
-0.42680001 -0.083745115 0.063248336 0.83437735 0.11094533 0.53991264 0.058177616
-0.41449848 -0.084605791 0.063807838 0.81989729 0.11175086 0.56149811 0.056737237
0.41787004 -0.087179177 0.069325909 -0.78660983 0.18632546 0.58866602 0.057207361
0.42569888 -0.08409258 0.061678834 -0.81174016 0.15495029 0.56308812 0.055735543
-0.43069649 -0.074927695 0.067316666 0.83088487 0.12336369 0.54259717 0.063104495
-0.42772073 -0.076135077 0.063127592 0.8461166 0.17357762 0.50394201 0.060282398
-0.41848373 -0.07690452 0.06822671 0.82246667 0.18237071 0.53878534 0.061545368
0.41472659 -0.075689435 0.062401462 -0.80557483 0.16105247 0.5701853 0.05900754
0.42692119 -0.075522617 0.061818682 -0.81945193 0.11808515 0.56085151 0.058040861
0.43146488 -0.075099424 0.068493068 -0.81438267 0.096904531 0.57218033 0.060053334
-0.4312686 -0.068003424 0.066811793 0.83364815 0.1391927 0.53446805 0.058460172
-0.42100963 -0.062178619 0.069100022 0.81503135 0.080765881 0.57376015 0.056170147
-0.4189094 -0.065418452 0.066610932 0.82360238 0.1026405 0.55780292 0.061984699
0.4173252 -0.064999439 0.064173102 -0.80766833 0.10930289 0.57941759 0.059899338
0.42754531 -0.069694139 0.061605699 -0.81643337 0.12145953 0.56452119 0.059302006
0.43021518 -0.065137699 0.064684123 -0.79392749 0.16368049 0.58556622 0.054799277
-0.42140728 -0.057939295 0.06886138 0.81105429 0.071828939 0.58054417 0.053008258
-0.41703933 -0.05729416 0.062239215 0.81013906 0.089136533 0.57942164 0.053756911
0.43220511 -0.053468749 0.06535887 -0.80182433 0.087511994 0.59111708 0.058433875
-0.42571521 -0.046716638 0.06372802 0.8260392 0.10072837 0.55453867 0.050428234
-0.41863441 -0.044176213 0.062043045 0.82525432 0.12746438 0.5501892 0.052231621
0.41836032 -0.040651228 0.060945399 -0.83876467 0.097796008 0.53563958 0.063105486
0.42109591 -0.046602219 0.066178739 -0.82414919 0.076143898 0.56123102 0.059081092
0.43571147 -0.040026668 0.067941554 -0.83381969 0.040667161 0.55053693 0.06321229
-0.43230516 -0.033562262 0.061610118 0.81368768 0.11996977 0.56878781 0.0643268
-0.42323819 -0.03201782 0.066509113 0.80050695 0.12547301 0.58604193 0.063122436
0.41957253 -0.036586881 0.061952397 -0.82622564 0.14324924 0.54482186 0.061165214
0.43365878 -0.037996992 0.064491466 -0.85859799 0.026236253 0.51197779 0.060320299
-0.43613473 -0.026123229 0.065848842 0.8015939 0.18435584 0.56873572 0.060307171
-0.42092669 -0.026318654 0.061955698 0.8225373 0.13847348 0.55159545 0.064614594
0.42384249 -0.025446158 0.066121347 -0.84472412 0.14190021 0.51604795 0.055847637
0.43215239 -0.029782359 0.060642861 -0.83612019 0.10851192 0.53770638 0.057150003
-0.4403857 -0.014921032 0.069977432 0.81723827 0.097628057 0.5679704 0.05261068
-0.4367671 -0.01303571 0.064226873 0.84543234 0.084816694 0.52730471 0.066431031
-0.42603233 -0.017015874 0.067727238 0.83182579 0.12158065 0.54155695 0.063556418
0.43717384 -0.015381453 0.065291077 -0.84768194 0.081384949 0.524225 0.055597402
-0.42657146 -0.0067762453 0.066524237 0.83498126 0.03220658 0.549335 0.064272113
0.42545676 -0.0054145558 0.064600013 -0.83290249 0.042029493 0.55182141 0.058152713
0.43978518 -0.0079913018 0.067727648 -0.86434484 0.090147004 0.49475393 0.060642622
0.44035512 -0.0053454642 0.068057224 -0.85785156 0.073288329 0.50864476 0.064687878
-0.44134569 0.00073468685 0.068627544 0.83248556 -0.042109016 0.55244416 0.052989688
-0.4378742 0.0064574657 0.06458538 0.83401114 -0.0047813929 0.55172682 0.053968802
-0.42553106 0.005882361 0.064801961 0.8394497 -0.063036561 0.53976887 0.057042927
0.4260045 0.0055864318 0.065448262 -0.84023595 -0.010332067 0.54212254 0.055671766
0.43700957 0.0033573543 0.062692635 -0.84501356 -0.011542409 0.5346204 0.058744475
-0.43572369 0.013426696 0.062751688 0.81367296 -0.14364704 0.56329548 0.047168475
-0.42661297 0.01485358 0.068167388 0.80602121 -0.12570521 0.57838392 0.054332264
0.4373816 0.015238017 0.065571986 -0.84082347 -0.098449133 0.53228164 0.056063753
-0.43621477 0.026523253 0.066046171 0.80800599 -0.10009449 0.5806095 0.061117128
-0.42331773 0.025194533 0.065291464 0.82019907 -0.11843172 0.55968511 0.05975854
0.42693663 0.02033438 0.069721967 -0.80525374 -0.10572861 0.58342761 0.055208649
0.43413445 0.026589567 0.06296543 -0.82109165 -0.0902799 0.56361157 0.060885224
-0.43290731 0.035312492 0.062848315 0.81754118 -0.068046056 0.57183582 0.064271614
-0.42015675 0.032316964 0.061985079 0.81555963 -0.069164097 0.57452488 0.056079261
0.41902962 0.034221474 0.060681857 -0.8014766 -0.090997212 0.59106237 0.061206095
0.42365044 0.030600984 0.06684494 -0.80961126 -0.096794657 0.57893032 0.057605993
0.43515715 0.033317011 0.065803573 -0.83334792 -0.095934562 0.54435998 0.059726704
-0.43594715 0.042830639 0.06884101 0.83865696 -0.072560377 0.539805 0.059471514
-0.42279944 0.041496921 0.067712508 0.83020145 -0.11348092 0.54579079 0.057073157
-0.41776446 0.046067372 0.061119519 0.81719381 -0.10751124 0.56624699 0.057001397
0.42189083 0.048737485 0.067779027 -0.81231332 -0.0956918 0.57531738 0.057041362
0.4335818 0.047272731 0.066193126 -0.84112197 -0.056395125 0.53789723 0.057626449
-0.4317221 0.051175896 0.064191587 0.84560758 -0.099041879 0.52453649 0.0571751
-0.41867504 0.050924845 0.063424751 0.83595365 -0.10962024 0.53774047 0.056687713
0.41689724 0.052620955 0.061113052 -0.79835618 -0.10858511 0.59231472 0.061382491
0.42909849 0.054989226 0.061036505 -0.81035054 -0.12800713 0.57179201 0.052371062
0.43205735 0.052975412 0.065042496 -0.82398176 -0.1262728 0.55236691 0.055031087
-0.42701203 0.066404566 0.064839862 0.78922737 -0.11274824 0.60366225 0.053844851
-0.41732371 0.065649591 0.064298026 0.82364434 -0.11807273 0.55467904 0.058402494
0.41673714 0.065486446 0.063393876 -0.8033756 -0.15019803 0.57621884 0.059730526
0.43175873 0.064646758 0.066883624 -0.80742306 -0.10688822 0.58020931 0.055649176
-0.42896757 0.074375577 0.064637363 0.80329132 -0.16215327 0.57308757 0.06163729
-0.41448146 0.077338211 0.062359601 0.83169603 -0.12952092 0.539913 0.059686769
0.41351458 0.07454326 0.060374614 -0.81686783 -0.17627886 0.5492292 0.053509064
-0.42579696 0.080945969 0.061208598 0.83318484 -0.12340385 0.53904951 0.066351555
-0.41515341 0.085163578 0.06489107 0.83348614 -0.15477501 0.53042018 0.065454699
0.42630053 0.083697595 0.062496234 -0.80975908 -0.12040143 0.57427669 0.060350403
-0.42624104 0.096310325 0.064877138 0.79363537 -0.10636754 0.59902328 0.054516423
-0.41489363 0.094309159 0.066295378 0.80758893 -0.097997509 0.58154666 0.061778642
0.41537967 0.093242228 0.066809371 -0.84084457 -0.083054297 0.53486657 0.062016126
0.42347437 0.09573701 0.060650505 -0.83275473 -0.083456755 0.54731572 0.062945411
-0.42273751 0.10473131 0.061315589 0.81994057 -0.13089925 0.55728173 0.06042736
0.42363948 0.1046966 0.062650204 -0.84181756 -0.10990467 0.52845454 0.057910308
-0.42380619 0.11411938 0.065426067 0.78047067 -0.20339182 0.59118289 0.058876462
-0.41356552 0.11160789 0.068007179 0.80094314 -0.19087246 0.56750143 0.065241702
-0.40808368 0.11558289 0.062692128 0.8159892 -0.2315802 0.52965313 0.059123214
0.40953091 0.11264548 0.063011631 -0.82690614 -0.25920883 0.49903616 0.057749193
0.41345596 0.1131729 0.068753809 -0.81241447 -0.25019684 0.52667272 0.059964962
0.42158842 0.11707345 0.063577414 -0.81957251 -0.23434281 0.52286172 0.054818854
-0.41793525 0.12141334 0.061005935 0.78209066 -0.23278497 0.57805294 0.059408147
-0.40569371 0.12467259 0.064597741 0.79144377 -0.35885057 0.49481612 0.052189253
0.40692139 0.12562934 0.066848315 -0.78926361 -0.30192611 0.53469962 0.067472942
0.41842213 0.12636435 0.064522728 -0.75882286 -0.328686 0.56227517 0.061940651
0.42103904 0.12269536 0.066043183 -0.77832258 -0.28063998 0.56165397 0.060751915
-0.41581309 0.13475008 0.065720595 0.76106757 -0.38944343 0.51875812 0.056752298
-0.40260911 0.13532178 0.066435955 0.7737546 -0.34855449 0.52897412 0.059860829
0.40207252 0.13618621 0.066188663 -0.76915228 -0.32768187 0.54866147 0.056407079
0.41229972 0.13505568 0.061027195 -0.78347325 -0.2706323 0.55939949 0.061364744
-0.40597337 0.14138722 0.065237224 0.77366674 -0.33664793 0.53675693 0.051746126
-0.3979969 0.14744787 0.067004964 0.79246926 -0.30870175 0.52601862 0.054899503
0.40894186 0.14685872 0.063149124 -0.76830584 -0.32743451 0.54999352 0.054702926
0.41202533 0.14479381 0.06623695 -0.73545605 -0.36617219 0.5701074 0.055403817
-0.40689057 0.1566975 0.065954015 0.80247474 -0.32306284 0.50166202 0.056382928
-0.39514157 0.15576079 0.067819797 0.77422607 -0.34974426 0.52749676 0.055504404
0.38837677 0.1592676 0.060458116 -0.74544221 -0.35446191 0.56451112 0.05556421
0.40885124 0.15635698 0.068475805 -0.75794494 -0.33345744 0.56064749 0.062876597
-0.40296841 0.16396186 0.064688474 0.75921804 -0.39539921 0.51695973 0.056701303
-0.39532495 0.16429657 0.063630953 0.76696843 -0.3275153 0.55180907 0.062852286
-0.38936827 0.16214924 0.063486204 0.76408106 -0.33552977 0.55099899 0.05717447
0.39166024 0.16330537 0.067326218 -0.7030977 -0.27350265 0.65639156 0.057201736
0.40513536 0.16420434 0.067830794 -0.75416166 -0.28560695 0.59132797 0.051771682
-0.40344596 0.17182192 0.069862157 0.80857271 -0.25441864 0.53054816 0.056338426
-0.39943734 0.17015362 0.063349292 0.76372027 -0.29715949 0.57308596 0.059745256
-0.38136011 0.1798629 0.062556438 0.78107476 -0.24390273 0.57483357 0.05120388
0.38641006 0.17255744 0.065361276 -0.72077358 -0.31856394 0.61563182 0.055991888
0.39773482 0.17448032 0.063473687 -0.72060955 -0.33244529 0.60844225 0.056283638
0.40104464 0.1748006 0.068244286 -0.72813213 -0.33706361 0.59683472 0.05567975
-0.38447118 0.18090147 0.067463987 0.79619884 -0.25342432 0.54940301 0.052729104
0.38168755 0.18237664 0.0644532 -0.74036562 -0.30993968 0.59648645 0.055149678
0.39545015 0.18648419 0.067198038 -0.77484787 -0.28855768 0.56244576 0.054818053
-0.39280963 0.19308867 0.067329772 0.8046568 -0.26460624 0.53151757 0.054495063
-0.38856316 0.19058013 0.060004957 0.78938431 -0.27666309 0.5480237 0.051421087
-0.3785347 0.19745129 0.068737134 0.7515558 -0.32835847 0.57214034 0.059292529
0.37306976 0.19845885 0.061742172 -0.75013649 -0.333913 0.57078665 0.052475117
0.38488013 0.19981493 0.060202092 -0.73242253 -0.35486358 0.58105856 0.054768641
0.39170861 0.1938758 0.066255964 -0.73704022 -0.36165571 0.57094389 0.055383157
-0.39026296 0.20330858 0.069667004 0.79465991 -0.32872939 0.51034564 0.056565434
-0.38511661 0.2067187 0.064492613 0.76170689 -0.36837682 0.53301144 0.063546166
-0.37295014 0.20666261 0.066285484 0.73942685 -0.31687832 0.5940001 0.051204506
0.37154067 0.20301484 0.062238298 -0.71507102 -0.4183467 0.56005305 0.056548983
0.38662609 0.20491213 0.065547638 -0.70932591 -0.36196917 0.60484296 0.054251317
-0.36829135 0.21649337 0.066974431 0.69736701 -0.44097129 0.56499881 0.055173188
0.36782956 0.21387981 0.063845366 -0.70860314 -0.43441439 0.5560267 0.057165504
0.38289189 0.2115044 0.064156815 -0.71972746 -0.37058496 0.58707684 0.054859862
-0.37416744 0.22732979 0.064983748 0.67240441 -0.45909849 0.5806039 0.050589263
-0.36622876 0.22162142 0.069009535 0.67863613 -0.43888599 0.58892453 0.054574598
0.35951495 0.22546738 0.064531848 -0.6870206 -0.46917742 0.55486494 0.063711099
0.36210942 0.2263951 0.068466447 -0.67086935 -0.47421047 0.57013923 0.061039343
0.37534329 0.22552116 0.064731635 -0.69136035 -0.46511039 0.55289537 0.059308596
-0.37153232 0.2352514 0.069081441 0.67611712 -0.47046813 0.56703198 0.058070529
-0.36935773 0.23377964 0.065149702 0.67781425 -0.46262404 0.57144278 0.056389198
-0.35112581 0.23729038 0.06534452 0.62835127 -0.49790722 0.5977149 0.054960452
-0.34959739 0.23983154 0.0658461 0.62158263 -0.52231556 0.58379906 0.054048441
0.34981257 0.23524182 0.061911188 -0.65336025 -0.52347094 0.54689908 0.053481307
0.35627186 0.23073134 0.065479174 -0.63077569 -0.54188204 0.55541503 0.059344366
0.36825341 0.23763625 0.067357242 -0.671359 -0.46472991 0.57732415 0.058538079
0.37231177 0.23314938 0.068089679 -0.66312504 -0.47840908 0.57566476 0.062312894
-0.36316171 0.24494927 0.067975752 0.60496891 -0.51668358 0.60584706 0.047606751
-0.3598932 0.24696767 0.065929189 0.60839337 -0.53639984 0.58492118 0.049052395
0.33878928 0.24871454 0.061095614 -0.67287147 -0.48952296 0.554627 0.054986384
0.34589982 0.24514981 0.066302299 -0.67579526 -0.48097762 0.55853492 0.051109672
0.36411601 0.24218158 0.06658417 -0.647677 -0.44798392 0.61629933 0.061380845
-0.35512248 0.25243294 0.06524244 0.58632147 -0.54557645 0.59881008 0.055183262
-0.34490985 0.25543544 0.065173626 0.65712279 -0.50022382 0.5638845 0.051638454
-0.33558401 0.25686595 0.064724542 0.65793848 -0.48060507 0.57977217 0.052202325
0.33540598 0.25784874 0.065410212 -0.67210352 -0.43812001 0.59693193 0.057851583
0.34605056 0.25593266 0.062313773 -0.66364199 -0.49340105 0.56225848 0.058370247
-0.34967601 0.26071674 0.066325262 0.63668126 -0.48820809 0.59690011 0.050736587
-0.33196923 0.26160723 0.06475234 0.64366877 -0.50328672 0.57653534 0.056445144
-0.32714456 0.26595387 0.062979974 0.61431813 -0.52170479 0.59197748 0.055453841
0.32690015 0.266096 0.062818907 -0.72099632 -0.48407921 0.49581409 0.056922063
0.33385429 0.26245335 0.067768276 -0.66866291 -0.50300282 0.54761124 0.057385989
0.35057467 0.26165265 0.068249427 -0.64936513 -0.5158928 0.55873024 0.055008233
-0.33383346 0.27786264 0.063128822 0.65957326 -0.47765574 0.58035177 0.054020267
-0.32301661 0.27206266 0.06364575 0.64452392 -0.49945521 0.57890713 0.053917006
0.32387656 0.27596077 0.068228677 -0.70356566 -0.50676566 0.49818063 0.056335211
0.33689135 0.27538317 0.064503819 -0.64445883 -0.46829656 0.6044594 0.053543225
0.34189922 0.27252918 0.067857251 -0.65433514 -0.49934137 0.5678941 0.054743424
-0.33091027 0.28458506 0.065788656 0.65447474 -0.48640564 0.57885432 0.050488964
-0.32880905 0.28542116 0.064051643 0.67034817 -0.46706495 0.57661396 0.049942546
-0.31422931 0.28659558 0.066459298 0.60995686 -0.52552706 0.59310532 0.053640954
0.31447852 0.28331074 0.063756302 -0.67074531 -0.53973883 0.50870693 0.055839214
0.3281579 0.28620324 0.063990995 -0.63435072 -0.54491234 0.54833353 0.058323532
0.33086377 0.28567463 0.066728331 -0.69038057 -0.50807768 0.51500648 0.057031903
-0.32446167 0.29327351 0.066048414 0.67777592 -0.46835262 0.5668031 0.058333945
-0.31939331 0.2980535 0.064381734 0.62516326 -0.52226329 0.58001029 0.053794686
-0.30440512 0.29397371 0.061505418 0.59981155 -0.51529127 0.61212826 0.056321733
0.30428758 0.294985 0.062289033 -0.61496061 -0.53429735 0.57995677 0.05469152
0.31472093 0.29476088 0.065157682 -0.64049011 -0.52052605 0.56464595 0.052061737
0.32251525 0.29678723 0.066940762 -0.67339021 -0.49600628 0.54820025 0.054254748
-0.32019389 0.30208683 0.069017455 0.61706883 -0.59122241 0.51930928 0.055682573
-0.31223583 0.30668071 0.063742012 0.57575476 -0.57241982 0.58381671 0.061912429
-0.29436252 0.30614185 0.063927189 0.54147989 -0.62490988 0.56239408 0.063457042
0.29252023 0.30759513 0.06397441 -0.50929636 -0.60439563 0.61263627 0.055965096
0.31564894 0.30289748 0.064349182 -0.65278506 -0.49748594 0.57129622 0.055972803
-0.31080002 0.31182364 0.067105323 0.56551713 -0.60653394 0.55884427 0.061311983
-0.30435848 0.3152895 0.065255493 0.53032386 -0.61786377 0.58051777 0.058243722
-0.29617605 0.31900334 0.062203351 0.48707175 -0.63504547 0.59956509 0.061390251
-0.28621253 0.31637689 0.068665177 0.45049769 -0.66348535 0.59736001 0.059824269
-0.27614805 0.31795594 0.06135397 0.47263727 -0.6418854 0.60381883 0.059256237
0.27702019 0.31838879 0.06266544 -0.55399859 -0.64508849 0.52625692 0.054541375
0.30674425 0.31419167 0.066127621 -0.60254931 -0.59891111 0.52748436 0.053028435
-0.30257803 0.32012272 0.069381341 0.54394495 -0.60002834 0.58659184 0.056372724
-0.29646736 0.32302594 0.067256391 0.47933578 -0.65662462 0.58230692 0.060648799
-0.28818268 0.32746929 0.064979017 0.51961493 -0.66111118 0.54123217 0.062014759
-0.2794677 0.32136151 0.068438023 0.48967162 -0.64919209 0.58204055 0.055281188
-0.26751295 0.32621434 0.063296624 0.43551353 -0.68719429 0.58145678 0.054369971
0.26514146 0.32888585 0.064310312 -0.49113399 -0.69303626 0.52771968 0.055294089
0.27173722 0.3232522 0.063628927 -0.50714594 -0.66568154 0.54742229 0.052990954
0.29538339 0.32325488 0.066539049 -0.48310062 -0.68578351 0.54434812 0.049260695
-0.28371805 0.3344495 0.06920886 0.48556516 -0.6733405 0.55752939 0.057649132
-0.27672499 0.3355788 0.064167097 0.46315107 -0.66516256 0.58570451 0.057570793
-0.26265439 0.33088243 0.064415239 0.49235639 -0.66857111 0.55731297 0.057581868
-0.25508758 0.33608538 0.063697331 0.51006818 -0.63165402 0.5838182 0.054988351
0.24864605 0.33944452 0.061812792 -0.50606585 -0.67153972 0.54123169 0.058242984
0.25778371 0.33779138 0.068189524 -0.51589566 -0.67726856 0.52455598 0.061015803
0.26720285 0.3316319 0.069460541 -0.53975433 -0.67536014 0.50254744 0.058345888
0.27797696 0.33562735 0.065368123 -0.53130633 -0.70560133 0.46887141 0.049415894
0.28240126 0.33434319 0.067879856 -0.51443684 -0.70328653 0.49065551 0.052855507
-0.26580685 0.34301111 0.063041903 0.45164454 -0.65898979 0.60145634 0.056727771
-0.25161201 0.34227145 0.06788525 0.55106854 -0.64260614 0.53233516 0.057279881
-0.2453934 0.34483576 0.065258384 0.5174619 -0.6733368 0.52806312 0.056242831
-0.23935924 0.34591168 0.061028771 0.51176488 -0.70472872 0.49137995 0.053999659
0.23390582 0.34987247 0.060762443 -0.48357168 -0.64692956 0.58961046 0.057327863
0.24485171 0.34440404 0.064250037 -0.54304385 -0.59179479 0.59571993 0.055024028
0.25653708 0.34906709 0.061784115 -0.54714394 -0.62573659 0.55595613 0.060984395
0.26304626 0.3451966 0.06312193 -0.47084823 -0.70094472 0.53570378 0.060339019
-0.25144985 0.35722604 0.066848151 0.52870107 -0.66406667 0.5286687 0.057046458
-0.23416364 0.35675001 0.069182396 0.55865854 -0.65275204 0.51167911 0.055251013
-0.22513844 0.35878205 0.063359268 0.5062353 -0.6775049 0.53358507 0.058734979
0.22483695 0.35709158 0.061072219 -0.47449011 -0.66307473 0.57895684 0.052170992
0.24993578 0.35712403 0.065344185 -0.52361459 -0.61106044 0.59366059 0.056787316
0.25273988 0.35468727 0.06500496 -0.55122221 -0.58482975 0.59508681 0.052609228
0.26088801 0.3519482 0.069185726 -0.50157815 -0.64182973 0.58006388 0.055671241
-0.2440165 0.36294258 0.066863313 0.52783096 -0.67109007 0.52060789 0.05640946
-0.23488946 0.36739075 0.063822433 0.50486147 -0.67500156 0.53804064 0.058079179
-0.22745553 0.36225083 0.069603018 0.48200542 -0.67654401 0.55673963 0.055528313
-0.21448366 0.36805078 0.064659968 0.46691865 -0.67996591 0.56536132 0.055811036
0.21812178 0.36709118 0.066840172 -0.31986907 -0.76704323 0.55617303 0.051136978
0.23474774 0.3617714 0.066348605 -0.51479405 -0.64786619 0.56147712 0.049865749
-0.22631033 0.37457213 0.064534537 0.51957095 -0.68692702 0.50811154 0.050227467
-0.21484604 0.37438279 0.065645792 0.44964966 -0.69858605 0.55659032 0.053743348
-0.20520084 0.37370872 0.066497676 0.39029619 -0.7191509 0.57488334 0.058285005
-0.18917787 0.37601933 0.060502134 0.31505921 -0.75374103 0.57672536 0.055198949
0.1875582 0.37954614 0.064459972 -0.33177656 -0.78019768 0.53029799 0.056480236
0.19173568 0.37798709 0.064697348 -0.31823128 -0.77144974 0.5509938 0.057427458
0.20423482 0.37397611 0.066313699 -0.39511743 -0.76852781 0.50323665 0.05728199
0.21110052 0.37694824 0.065030888 -0.3375361 -0.74018437 0.58154672 0.053686526
0.22388223 0.37514666 0.063001052 -0.32925656 -0.75629896 0.56533355 0.050713331
0.23768155 0.37031853 0.069856226 -0.48028082 -0.66911209 0.56711489 0.0502792
-0.21030656 0.38516515 0.066619515 0.37190109 -0.74829018 0.54931897 0.055303995
-0.20557354 0.38586441 0.064871699 0.33396995 -0.76985598 0.54386193 0.060272835
-0.19586089 0.3880403 0.062311776 0.29957631 -0.7644338 0.57087207 0.057451066
-0.1824777 0.38253587 0.065686867 0.24157405 -0.81325603 0.52939272 0.055676501
-0.17340401 0.38272065 0.06073432 0.2849741 -0.78313792 0.55270672 0.05972391
0.16062938 0.38757721 0.060131729 -0.29793066 -0.74750799 0.59369111 0.052483886
0.17288591 0.38530242 0.064014897 -0.35552633 -0.74627179 0.56274271 0.054793082
0.18607298 0.38012052 0.064403385 -0.34747818 -0.77378309 0.52964014 0.055167705
0.19566162 0.38017386 0.069981456 -0.37389141 -0.77107346 0.5154134 0.0531816
0.20398375 0.38642168 0.064731441 -0.38343236 -0.73692268 0.55670875 0.057735931
0.21348631 0.38149863 0.063363679 -0.33087537 -0.76105821 0.5579533 0.054584291
-0.19183183 0.39259404 0.066309668 0.24255413 -0.82736415 0.50659263 0.050271962
-0.18778133 0.39342788 0.065140113 0.28631222 -0.81905884 0.49715981 0.05713452
-0.17691807 0.39628538 0.062864266 0.32167155 -0.7767688 0.54144037 0.061146956
-0.16265728 0.39040393 0.065213114 0.34292978 -0.74100024 0.57733685 0.05641811
-0.15355952 0.39433083 0.065432735 0.3579134 -0.76392215 0.53695524 0.05522766
-0.14655626 0.39601633 0.063748479 0.2980361 -0.76779121 0.56716061 0.057019331
-0.13344361 0.39977521 0.061430566 0.33515713 -0.75821257 0.55927038 0.056528129
0.13944541 0.39884281 0.063583747 -0.32821628 -0.71789515 0.61392224 0.060852215
0.14487314 0.3995007 0.067611068 -0.33506784 -0.73525476 0.58917737 0.060684774
0.1536219 0.39687929 0.069000289 -0.32282001 -0.76448309 0.55799001 0.056036189
0.16711971 0.39187336 0.069811061 -0.32611996 -0.73734587 0.59158003 0.052849967
0.17708683 0.39622736 0.062880829 -0.34997806 -0.7471779 0.56501377 0.0550288
0.18716526 0.39244741 0.063427754 -0.35404983 -0.76016152 0.54479641 0.055021279
0.19633877 0.39100748 0.066698089 -0.34725127 -0.75560755 0.55540413 0.055477146
-0.16123128 0.40418473 0.064806744 0.29142705 -0.75196171 0.59129 0.057679895
-0.15482511 0.4061738 0.063885905 0.31650272 -0.7511043 0.57936895 0.056560759
-0.14384001 0.4063344 0.064031295 0.3202025 -0.72999221 0.60380602 0.052983381
-0.13270679 0.4017415 0.063732572 0.33760595 -0.75262493 0.56531227 0.053579379
-0.12215683 0.4074688 0.06561365 0.28774977 -0.80615896 0.51701808 0.054262236
-0.11274423 0.4091804 0.062582567 0.19923903 -0.82155883 0.53417683 0.055813085
0.11764323 0.4095183 0.065863021 -0.30407012 -0.76235241 0.57127935 0.056072533
0.12374477 0.40515387 0.063317135 -0.29387167 -0.77861553 0.55443424 0.06210782
0.13463753 0.40263307 0.066076458 -0.3031809 -0.75523442 0.58112156 0.060258999
0.1448566 0.40467316 0.065426894 -0.35464874 -0.73784351 0.57429188 0.060975354
0.15220825 0.40726081 0.063890226 -0.304674 -0.74369663 0.59505391 0.05485969
0.16772164 0.40197778 0.065474011 -0.34229067 -0.7400229 0.57896727 0.05635519
-0.15030925 0.41206977 0.069464445 0.30001187 -0.74662286 0.59375679 0.059709605
-0.14614287 0.41319662 0.068634525 0.31553632 -0.7378608 0.59665596 0.058905002
-0.13608105 0.41557056 0.066148609 0.29219007 -0.74063236 0.60505253 0.054215863
-0.11838423 0.41568363 0.065489635 0.23255539 -0.79887486 0.55472237 0.052192297
-0.10447928 0.41408303 0.067081116 0.19873795 -0.78484368 0.58696127 0.056793775
-0.096595377 0.4115991 0.061843555 0.104726 -0.82770741 0.55130112 0.057526972
-0.084865704 0.41595626 0.066026762 0.12886254 -0.80763268 0.57543355 0.058215931
-0.075513288 0.41760814 0.066652313 0.1214024 -0.80452734 0.58137518 0.055430297
