# .PCD v0.7 - Point Cloud Data file format
VERSION 0.7
FIELDS x y z normal_x normal_y normal_z curvature
SIZE 4 4 4 4 4 4 4
TYPE F F F F F F F
COUNT 1 1 1 1 1 1 1
WIDTH 586
HEIGHT 1
VIEWPOINT 0 0 0 1 0 0 0
POINTS 586
DATA ascii
0.014376011 -0.18571647 -0.20934264 -0.034204189 0.42985818 0.90224832 0.055293567
0.028565079 -0.18821535 -0.20780703 -0.056492768 0.39012548 0.91902703 0.051642302
0.037629686 -0.18362103 -0.20939027 -0.055692237 0.39596191 0.91657656 0.049124081
0.044161987 -0.18580483 -0.20789282 -0.10309061 0.36364669 0.92581505 0.05315109
0.055405531 -0.18336987 -0.20725629 -0.14954476 0.34432906 0.92686242 0.053960897
0.066376537 -0.18455207 -0.20524412 -0.14316334 0.38432145 0.91203141 0.052854683
0.075172946 -0.18391083 -0.20425203 -0.11324793 0.38769004 0.91480678 0.052207042
0.093181022 -0.18096557 -0.20277014 -0.17741062 0.33778197 0.92435318 0.05499858
-0.11677915 -0.1734319 -0.20036203 0.223636 0.30892065 0.92442143 0.054532193
-0.10697784 -0.17967349 -0.20026693 0.20348087 0.3250851 0.9235341 0.04738456
-0.095201254 -0.176303 -0.20361467 0.1632683 0.34951925 0.92259401 0.054749463
-0.084308125 -0.17393824 -0.20642792 0.17800945 0.29511547 0.93873298 0.049401153
-0.063143648 -0.17329368 -0.20509833 0.17302212 0.28466064 0.94288468 0.048982501
-0.053872548 -0.17947391 -0.20939019 0.049589016 0.33462614 0.94104534 0.051920585
-0.036504347 -0.17389557 -0.2023254 0.05594847 0.34152266 0.93820679 0.051660176
-0.025011089 -0.17645261 -0.2021195 0.024214452 0.35264954 0.93544215 0.050547723
-0.012936473 -0.17449653 -0.20380302 0.094516039 0.40813485 0.90801579 0.053566985
-0.0080924602 -0.17487699 -0.20397538 0.082248248 0.42603579 0.90095991 0.054394603
0.0034011081 -0.17633855 -0.20299646 0.01349783 0.40402427 0.91464871 0.051797785
0.018470174 -0.17469159 -0.20314708 -0.024479089 0.40341121 0.91469133 0.058543105
0.026583815 -0.17710818 -0.20185988 -0.061921731 0.43688303 0.89738452 0.050528236
0.036590766 -0.17472558 -0.20245652 -0.11184881 0.37871051 0.91873181 0.055485882
0.044439871 -0.17607756 -0.20103885 -0.12782975 0.39508295 0.9097082 0.053479392
0.065895334 -0.1796177 -0.20724127 -0.12891565 0.37818187 0.91671109 0.05327747
0.085225344 -0.17747515 -0.20534799 -0.13609566 0.39206973 0.90981275 0.052333526
0.097050622 -0.17437249 -0.20423612 -0.22164932 0.31163988 0.92398715 0.061687946
0.10588475 -0.17743908 -0.20109065 -0.24939074 0.32303104 0.91293764 0.057146221
0.11322902 -0.17315081 -0.20080788 -0.1883343 0.27551016 0.94266868 0.05080713
-0.11993721 -0.16169643 -0.20324582 0.24239761 0.27444211 0.93055093 0.044403799
-0.10660926 -0.1622472 -0.20664197 0.25760195 0.27586576 0.92603421 0.051030938
-0.094029561 -0.1626077 -0.20897588 0.19476463 0.27200058 0.94238126 0.04864765
-0.081434876 -0.16830894 -0.20905381 0.13804822 0.3057757 0.94204241 0.045374908
-0.064453065 -0.16333559 -0.20330605 0.12535942 0.30293775 0.94472945 0.053283118
-0.050671384 -0.16339794 -0.20558527 0.096521132 0.32344303 0.94131202 0.055537969
-0.047227666 -0.16599669 -0.20477363 0.075692818 0.32724202 0.94190407 0.057887983
-0.033979192 -0.16431762 -0.20642965 0.0089946231 0.34062573 0.94015592 0.052549507
-0.023303209 -0.16453655 -0.20712081 0.023483142 0.40340048 0.9147222 0.056897879
-0.014685259 -0.16352233 -0.20816608 0.097936295 0.35697213 0.92896688 0.059636474
-0.0064626308 -0.16307816 -0.20883708 0.016585117 0.32633725 0.94510788 0.050635345
0.005209351 -0.16359152 -0.20821267 0.014500421 0.38388309 0.92326784 0.050515622
0.026082177 -0.1673169 -0.20593324 -0.11581688 0.40560216 0.90668267 0.05348444
0.03926561 -0.16140267 -0.20750731 -0.11664703 0.39350039 0.91189414 0.052754439
0.043309718 -0.16763189 -0.20450053 -0.092441879 0.37811521 0.92113155 0.059197221
0.051508497 -0.16674417 -0.20368925 -0.11673899 0.38599619 0.91508412 0.052882288
0.06373544 -0.16589241 -0.20229483 -0.099154361 0.38146794 0.91904879 0.053200997
0.076223955 -0.16443846 -0.20109889 -0.17173035 0.30737159 0.93596554 0.058824241
0.085626058 -0.16896652 -0.208618 -0.19975178 0.29407084 0.93467724 0.050311603
0.10603116 -0.16616593 -0.20490091 -0.28475168 0.35809129 0.88920581 0.05060377
0.11577388 -0.16287409 -0.20370828 -0.18493286 0.28142539 0.94159412 0.056871526
0.12712704 -0.16355278 -0.20077862 -0.1612062 0.33093661 0.9297815 0.056832597
-0.13317472 -0.1548932 -0.20186116 0.24150309 0.28778183 0.92674583 0.051510762
-0.12584607 -0.15803508 -0.20282625 0.24934894 0.28383601 0.92588466 0.049099583
-0.11333381 -0.1562926 -0.20673272 0.23691626 0.27487439 0.9318341 0.044614885
-0.098665252 -0.1531239 -0.2010525 0.23881914 0.24797715 0.93886781 0.043078013
-0.085608102 -0.1569075 -0.20199026 0.16046904 0.33781233 0.92743319 0.047037218
-0.074062943 -0.15619411 -0.20429713 0.12817395 0.34792128 0.92872077 0.050249256
-0.060309723 -0.15791352 -0.20607822 0.14382769 0.31800699 0.93711537 0.04949303
-0.055542678 -0.154356 -0.20825878 0.12227333 0.29463488 0.94775504 0.05071871
-0.046141069 -0.15979449 -0.20739122 0.084586114 0.37111649 0.92472583 0.055391587
-0.037024219 -0.15779293 -0.20887707 0.06742119 0.3671248 0.92772508 0.051088274
-0.021348724 -0.15991989 -0.20915301 0.068405695 0.38328701 0.92109269 0.055549737
0.026428295 -0.15832263 -0.20964658 -0.044414166 0.38345283 0.92249185 0.051683035
0.044944197 -0.15437751 -0.20945166 -0.11702479 0.36555281 0.92340475 0.057509575
0.056633413 -0.15324415 -0.2082433 -0.1424948 0.36790636 0.91887981 0.048887759
0.066113308 -0.15565974 -0.20595953 -0.17856722 0.33527485 0.92504293 0.051153444
0.094901666 -0.15452126 -0.20089991 -0.23054448 0.25135949 0.940036 0.047334157
0.11550958 -0.15044689 -0.20800975 -0.13421504 0.33802846 0.93151653 0.046536762
0.12678516 -0.15197928 -0.20480737 -0.17483141 0.31465858 0.93296504 0.052645475
0.13936697 -0.15073115 -0.20209177 -0.19617619 0.28368667 0.93863553 0.050386403
0.14296702 -0.15052114 -0.20100379 -0.25904831 0.27915576 0.92464375 0.051531974
-0.14055364 -0.14059512 -0.20442846 0.28304151 0.30200616 0.91031849 0.049796868
-0.13614716 -0.14779887 -0.20331955 0.28178611 0.31688264 0.90563899 0.050970897
-0.10624354 -0.14117527 -0.20281962 0.25423095 0.30412123 0.91808325 0.047276057
-0.091674805 -0.14279145 -0.20615388 0.23062158 0.32690296 0.91648692 0.048758328
-0.082458071 -0.14686126 -0.20632741 0.15081985 0.31456792 0.93717682 0.056748975
-0.074265867 -0.14807239 -0.20731796 0.16296162 0.34805688 0.92320091 0.053649407
-0.063665211 -0.14646183 -0.20979571 0.13033004 0.34309071 0.93021655 0.052020121
0.068428822 -0.1445632 -0.20997082 -0.15708953 0.31153634 0.93715948 0.04887085
0.084866285 -0.14291587 -0.20724328 -0.29646185 0.29935414 0.9069165 0.053159095
0.10764951 -0.146624 -0.20056391 -0.22117144 0.30715588 0.9256016 0.050142519
0.11160831 -0.14006838 -0.20185906 -0.17629869 0.29631937 0.93867654 0.04438699
0.12764612 -0.14316893 -0.20760781 -0.13980567 0.26968437 0.95274585 0.042734481
0.13186982 -0.1476801 -0.20506532 -0.18433672 0.27684903 0.9430666 0.050807871
0.14279337 -0.14770907 -0.20181246 -0.2510919 0.26376873 0.93133181 0.051286276
0.15098694 -0.1408276 -0.20105213 -0.31344458 0.25591937 0.91447139 0.048196808
-0.15381092 -0.13314553 -0.20267104 0.2998929 0.27391046 0.91380382 0.049779624
-0.14153445 -0.13353209 -0.20641056 0.28231424 0.30170077 0.91064554 0.051557105
-0.13429058 -0.13889307 -0.2066476 0.2752569 0.30785689 0.91074568 0.04711125
-0.12594514 -0.13388342 -0.20516714 0.24422298 0.31362736 0.91760176 0.047041871
-0.11877193 -0.1326472 -0.2021732 0.23963733 0.33284152 0.91202545 0.049005192
-0.10282648 -0.13065709 -0.20707829 0.24885851 0.29960799 0.92103446 0.054453708
-0.094643176 -0.13474806 -0.20797074 0.21957999 0.31066331 0.92480969 0.053777587
0.083186254 -0.1394456 -0.20882618 -0.27380937 0.29637659 0.91498053 0.051595595
0.095128015 -0.13473693 -0.20759419 -0.22734405 0.30940285 0.92335504 0.053069543
0.10495263 -0.1312727 -0.20644087 -0.21481854 0.33148035 0.91868037 0.049658861
0.13466547 -0.13485061 -0.20784126 -0.23022982 0.22019391 0.94789714 0.051990163
0.14580463 -0.13850272 -0.2033222 -0.30600747 0.19892994 0.93101364 0.054419696
-0.16697937 -0.124354 -0.20026889 0.2593796 0.27549827 0.92564738 0.047050811
-0.15683344 -0.12728667 -0.20303249 0.3329356 0.23078743 0.91427076 0.053525604
-0.14910091 -0.1224418 -0.20682135 0.3591122 0.22350453 0.90613699 0.053034693
-0.13889645 -0.12720707 -0.20912772 0.27283636 0.23007548 0.93414432 0.050468992
-0.12505938 -0.12056692 -0.20432806 0.26125237 0.30164024 0.9169299 0.053626567
-0.11513077 -0.12417918 -0.2058403 0.21386345 0.36033279 0.90797728 0.055270333
-0.10591257 -0.12640485 -0.2076029 0.25086668 0.37721184 0.8915028 0.05744826
-0.09930487 -0.12490423 -0.20985039 0.21872582 0.34576562 0.91247195 0.049830846
0.10304251 -0.12668833 -0.20845847 -0.23140612 0.34984821 0.90777612 0.05192209
0.11895097 -0.12493155 -0.20487592 -0.25731421 0.26015756 0.93064892 0.056059252
0.12513246 -0.1206115 -0.20406875 -0.24078381 0.27455521 0.9309364 0.053902943
0.13422254 -0.12454802 -0.20437193 -0.27165201 0.24131311 0.93165076 0.051077962
0.14666107 -0.12495691 -0.2066796 -0.27978742 0.15843476 0.94689882 0.046360649
0.15140074 -0.12723303 -0.20456326 -0.29084376 0.19274965 0.93715394 0.047853418
0.16530219 -0.12541306 -0.20063251 -0.29225692 0.26394817 0.9191938 0.052924436
-0.16198727 -0.11911699 -0.20321622 0.27806917 0.20468087 0.93850052 0.051639263
-0.15139428 -0.11300389 -0.20828211 0.30781263 0.1785406 0.9345451 0.050995611
-0.1443311 -0.11299108 -0.20538539 0.32987729 0.18050781 0.92660552 0.050363377
-0.11613853 -0.11456212 -0.20862694 0.28451884 0.29165444 0.91322875 0.054571986
0.11289176 -0.11745197 -0.2088059 -0.27633888 0.290851 0.91599268 0.053090613
0.12513065 -0.11540755 -0.20546374 -0.28109571 0.28540295 0.91625887 0.052507415
0.13719 -0.1133191 -0.20219043 -0.32731706 0.29971817 0.89612085 0.058505539
0.14067464 -0.11536854 -0.20053372 -0.2756995 0.25857681 0.92581201 0.059441395
0.15267251 -0.11692911 -0.20691995 -0.25982064 0.25209272 0.93217081 0.052416604
0.16149077 -0.11323573 -0.20510682 -0.29072168 0.22359969 0.93031389 0.052195847
0.17375907 -0.11692621 -0.20021865 -0.30173436 0.23213275 0.92470032 0.05309302
-0.18179736 -0.10140511 -0.20066874 0.28739953 0.2003485 0.93662262 0.052336194
-0.17752133 -0.10098414 -0.20222726 0.32273507 0.17916133 0.92937791 0.053730767
-0.1608853 -0.10669686 -0.20654383 0.28961328 0.20505951 0.93491966 0.048999459
-0.14418051 -0.10243568 -0.20263645 0.38720185 0.22416793 0.89432853 0.049083546
-0.13560216 -0.10339043 -0.20533545 0.33037785 0.25430626 0.90894377 0.054057878
-0.12352513 -0.10415134 -0.20927386 0.29976451 0.24123725 0.9230091 0.052449111
0.12776789 -0.10797516 -0.20661703 -0.31130174 0.23450762 0.92092204 0.052455518
0.14507541 -0.10397469 -0.20218794 -0.35062644 0.21099947 0.91243649 0.054950036
0.15560576 -0.10762811 -0.20847985 -0.28510115 0.18604486 0.9402684 0.056524534
0.16869441 -0.10299628 -0.20510197 -0.26190403 0.13459484 0.95566231 0.049320977
0.17321223 -0.10319822 -0.20336598 -0.2553623 0.1606016 0.95341349 0.051256333
-0.18589722 -0.097989768 -0.20008203 0.35073477 0.16491215 0.92184007 0.055559143
-0.17547689 -0.096385144 -0.20401756 0.31952724 0.20326567 0.92551899 0.050979517
-0.15192379 -0.091847353 -0.20251176 0.31391665 0.22061002 0.92346495 0.046994738
-0.14583476 -0.098950014 -0.20290062 0.37593272 0.21241432 0.90197271 0.049942598
-0.13370708 -0.090768375 -0.20898154 0.33058217 0.16815855 0.92867541 0.049248349
-0.12987307 -0.097263955 -0.20874554 0.33921212 0.16460212 0.92619717 0.048888825
0.13872911 -0.090835989 -0.20772555 -0.35792595 0.21136093 0.90951389 0.053488761
0.14370069 -0.095336184 -0.20493956 -0.37525108 0.17427573 0.91039252 0.052543897
0.15340528 -0.096866533 -0.2013206 -0.29877064 0.18102936 0.93699759 0.052714825
0.16146418 -0.090855189 -0.20996669 -0.3003512 0.12732668 0.945292 0.054039467
0.17525072 -0.098089367 -0.20350079 -0.30928418 0.1219779 0.94311434 0.048115477
0.1832169 -0.09715011 -0.20066848 -0.25978717 0.13849717 0.95568258 0.049700912
-0.19058615 -0.084892616 -0.200269 0.38731131 0.14186117 0.9109695 0.054031059
-0.18201855 -0.088723242 -0.20307747 0.34905085 0.15397525 0.92436743 0.055706393
-0.17794159 -0.080359511 -0.20585307 0.35807034 0.15260532 0.92113912 0.052308545
-0.16709933 -0.084731445 -0.20675455 0.25389042 0.15336682 0.95499647 0.049872298
-0.14597879 -0.086197056 -0.20588231 0.3950775 0.17704383 0.9014262 0.041554783
0.14577805 -0.083892681 -0.2064818 -0.41535905 0.15506645 0.89634323 0.052673049
0.15299179 -0.081148684 -0.2042513 -0.36100963 0.16758348 0.91738093 0.050097436
0.17835236 -0.082744047 -0.20504276 -0.27686137 0.14404468 0.95005202 0.048969485
0.1821211 -0.086645566 -0.20293555 -0.3106733 0.12752366 0.94192344 0.050122619
-0.19009659 -0.07744775 -0.20151222 0.40711269 0.11378461 0.90626281 0.048345674
-0.17532691 -0.076147497 -0.20747039 0.28998783 0.11456686 0.95014817 0.05176837
-0.15228686 -0.07369639 -0.20620687 0.36178246 0.17316784 0.91603845 0.044998486
-0.1499486 -0.073628008 -0.20713073 0.31635714 0.16832389 0.93358737 0.04561327
0.14362584 -0.079438061 -0.20807829 -0.3451457 0.14273643 0.9276318 0.055809062
0.15211962 -0.075299352 -0.20561227 -0.40013269 0.17252919 0.90007091 0.046996277
0.16151968 -0.072550029 -0.20255992 -0.31369236 0.2032381 0.92751896 0.048651453
0.17982581 -0.078881696 -0.20517012 -0.29187891 0.12369227 0.94842339 0.046546035
0.18491024 -0.073388897 -0.20422636 -0.32827711 0.18226184 0.92683047 0.050852429
-0.19191486 -0.064911529 -0.20257246 0.44617131 0.11875833 0.8870331 0.050541822
-0.18978867 -0.062889345 -0.20368943 0.39616033 0.10988632 0.91158211 0.056942407
-0.17520657 -0.064420648 -0.20651978 0.33873653 0.093165725 0.9362573 0.047847848
-0.1618963 -0.063004233 -0.20396048 0.32510757 0.14437395 0.93459147 0.055322036
-0.15548095 -0.060516208 -0.2068202 0.29658663 0.10823268 0.94885302 0.050199725
-0.1497312 -0.06108167 -0.20898828 0.32233599 0.088365309 0.94249195 0.046258319
0.15734403 -0.065819249 -0.20531982 -0.31280109 0.19093587 0.9304294 0.050430536
0.17325322 -0.062795825 -0.20340534 -0.26331174 0.20373543 0.94295216 0.049975466
0.18480237 -0.064659677 -0.20580816 -0.32728571 0.083329931 0.94124395 0.055141818
0.19229102 -0.066950455 -0.20258528 -0.37021565 0.13152371 0.91958785 0.062566116
-0.19836354 -0.055354163 -0.2014015 0.35328582 0.13091272 0.92631042 0.050806779
-0.18185268 -0.05746156 -0.20755899 0.357301 0.12851882 0.92510474 0.058890179
-0.17486143 -0.054469191 -0.20434447 0.351096 0.058080681 0.9345364 0.049498808
-0.16774751 -0.052720603 -0.20312573 0.36251411 0.035303619 0.93130934 0.051078409
-0.15780513 -0.055561535 -0.20661151 0.31901264 0.099998236 0.94246024 0.053267896
0.16323264 -0.056300454 -0.20478418 -0.32927927 0.15484393 0.93144965 0.05177797
0.17340635 -0.057668 -0.20071378 -0.31977499 0.084509991 0.94371724 0.048667494
0.18928756 -0.055528842 -0.20525302 -0.34607089 0.057757072 0.9364289 0.051720791
0.19569099 -0.056875866 -0.20253401 -0.37717608 0.05286409 0.92463166 0.054042812
0.20147641 -0.057081986 -0.20015138 -0.31676838 0.04450094 0.94745845 0.051578403
-0.20071244 -0.042499676 -0.20213896 0.31668958 0.054378666 0.94696915 0.044945538
-0.19857064 -0.049305558 -0.20217508 0.32515445 0.13583006 0.93585503 0.046285398
-0.18288988 -0.041533679 -0.20940381 0.28851876 -0.0030304797 0.95746946 0.048980098
-0.17495406 -0.046512064 -0.20118535 0.32925448 0.055721428 0.94259566 0.05040095
-0.16322021 -0.041869253 -0.20642886 0.38929194 0.038007144 0.92032999 0.04668317
-0.15825528 -0.047675461 -0.20754969 0.33671278 0.12322347 0.93350977 0.052140493
0.15717629 -0.042869344 -0.20870194 -0.37686142 0.07625322 0.92312562 0.0523628
0.18605721 -0.047569979 -0.207157 -0.36844301 0.076756835 0.92647618 0.04869251
0.20193622 -0.044175014 -0.20090714 -0.38882703 0.06656751 0.91890281 0.048430558
-0.20005837 -0.033233467 -0.20273677 0.24595003 -0.011940693 0.96920902 0.050054539
-0.19980693 -0.036819078 -0.20271446 0.29183251 -0.030268293 0.95599037 0.046509683
-0.17686789 -0.036416143 -0.20161255 0.28613964 0.011396886 0.95812017 0.052206308
0.15663916 -0.035772704 -0.20944074 -0.35378483 0.11243269 0.92854464 0.05244451
0.16690606 -0.031670097 -0.20553926 -0.37777567 0.073061205 0.92301005 0.05155215
0.17291078 -0.035462335 -0.2028046 -0.37900624 0.049283281 0.92408091 0.047923021
0.18167415 -0.033862337 -0.20464426 -0.37093252 0.093074821 0.92398387 0.047039505
0.19559552 -0.032773174 -0.20433576 -0.3987197 0.055951402 0.91536444 0.047734428
-0.20387651 -0.028725782 -0.20131427 0.21903525 -0.06449876 0.97358274 0.040835779
-0.19588742 -0.024754975 -0.20476353 0.30764568 -0.0087492112 0.95146078 0.050485574
-0.18093653 -0.026497308 -0.20027718 0.34568596 0.028283311 0.93792385 0.046198815
-0.17621043 -0.026891135 -0.20222089 0.35083699 0.043356653 0.93543237 0.047222465
-0.16608849 -0.025976846 -0.2064458 0.46803954 0.055028729 0.88199252 0.040759265
0.16399442 -0.025673501 -0.20716931 -0.38414022 0.10496063 0.9172892 0.052881151
0.17284381 -0.023466349 -0.20370929 -0.39413023 0.063924029 0.91682875 0.052267093
0.182844 -0.024652788 -0.2030694 -0.3600153 0.041175287 0.93203723 0.055006154
0.19296348 -0.023168175 -0.20611529 -0.35097441 0.092028677 0.93185174 0.053340983
0.20428568 -0.026687764 -0.20122454 -0.34567079 0.086036131 0.9344033 0.050633401
-0.20344679 -0.015603423 -0.2019552 0.30811232 -0.034002751 0.95074219 0.04810093
-0.18179803 -0.019817956 -0.20015594 0.34838766 -0.0059336293 0.9373318 0.045236561
-0.17367251 -0.016621634 -0.20363443 0.47798911 0.034574747 0.87768501 0.050517097
0.16123453 -0.018632434 -0.20881367 -0.36159414 0.091983035 0.92778701 0.054034412
0.17081757 -0.018201344 -0.20492351 -0.39070752 0.11695419 0.91305494 0.050692726
0.18272275 -0.013203699 -0.20041706 -0.41692963 0.049573705 0.90758592 0.052315623
0.20616944 -0.015084291 -0.2013022 -0.36735594 0.023950491 0.92977202 0.049123805
-0.20260297 -0.00017564045 -0.20284894 0.30810171 0.039245207 0.95054364 0.050373517
-0.18189594 -0.005902898 -0.20060629 0.39819157 0.059950437 0.91534114 0.050668024
-0.17460704 -0.0056060827 -0.2036359 0.43086174 0.063220091 0.90020072 0.053150911
-0.16109812 -0.006481857 -0.20920059 0.4491815 0.01948184 0.89322811 0.04592042
-0.15992448 -0.0053069158 -0.20972818 0.44653153 0.0089313406 0.89472324 0.050125372
0.16811426 -0.0080264471 -0.20677391 -0.4094682 0.086033173 0.9082588 0.055599499
0.17144969 -0.0051738583 -0.20532402 -0.43253663 0.054200765 0.89998579 0.055149708
0.18852946 -0.006795485 -0.20891085 -0.42297119 0.025616348 0.90578103 0.048845321
0.19005661 -0.0055466378 -0.20824769 -0.40929776 0.015500397 0.91226918 0.046529401
-0.20401339 0.0062761349 -0.20249166 0.32781166 0.039531756 0.94391561 0.048711151
-0.1958496 0.0038993314 -0.20579004 0.36215481 0.019750791 0.93190873 0.054083958
-0.1835614 0.0039420309 -0.20380299 0.37752485 0.080809765 0.9224667 0.054512013
-0.17328851 0.0069546164 -0.20458056 0.47575375 0.014253035 0.87946302 0.052184101
-0.16863647 0.0052927486 -0.20649348 0.4197911 0.025941812 0.90724993 0.051015474
0.17312837 0.0047513703 -0.20427854 -0.42858762 0.020042462 0.90327793 0.058415644
0.18493444 0.0013552092 -0.204817 -0.44659841 -0.0079674507 0.89469904 0.051896371
0.20275819 0.0031948774 -0.20267814 -0.34449646 -0.026110256 0.93842447 0.04918696
-0.20690978 0.015217208 -0.20098953 0.34488738 0.016382851 0.93850112 0.050922647
-0.19658467 0.013715738 -0.20532468 0.34974515 0.025757361 0.93649071 0.046346739
-0.18485731 0.017610677 -0.20983902 0.39797023 -0.037089944 0.91664827 0.04889296
-0.16550405 0.013125905 -0.20746915 0.449177 -0.036202744 0.89270902 0.049236733
0.16490749 0.016795995 -0.20725884 -0.40087351 -0.092220455 0.91148001 0.048111171
0.17632847 0.013217865 -0.20265435 -0.41471115 -0.025666857 0.90959108 0.051912695
0.18768382 0.018176131 -0.20839366 -0.42091656 -0.053877611 0.90549791 0.047265653
0.19259238 0.017140379 -0.20639701 -0.45740637 -0.064313382 0.88692909 0.047704473
0.20359936 0.015083883 -0.20191033 -0.40797472 -0.02708295 0.91259146 0.050340079
-0.20113818 0.020452719 -0.20296854 0.36581418 -0.0027835309 0.93068373 0.053491242
-0.17194657 0.020141579 -0.2043196 0.41626546 -0.024430625 0.90891486 0.045814801
-0.1692664 0.020635739 -0.20538029 0.41553575 -0.024801018 0.90923858 0.045880824
0.16320804 0.023937952 -0.20771083 -0.37408465 -0.15329011 0.9146381 0.050317459
0.17493595 0.024397902 -0.20283675 -0.43084666 -0.080851629 0.89879596 0.054806534
0.194979 0.023870857 -0.20517103 -0.44031644 -0.0048574386 0.89782947 0.049155004
-0.20447426 0.035754904 -0.20048426 0.38853559 -0.13662073 0.91124904 0.058361433
-0.19383825 0.034373455 -0.20493786 0.33199522 -0.14441308 0.93216091 0.052831028
-0.18908076 0.039361037 -0.20652002 0.33834034 -0.068493165 0.93852782 0.048497189
-0.17467891 0.035091627 -0.20210814 0.3926712 -0.080707528 0.91613084 0.047896821
-0.16134973 0.033039354 -0.20771293 0.36976987 -0.036388181 0.92841053 0.051692817
-0.15740228 0.034350749 -0.20923243 0.37696418 -0.09489467 0.92135394 0.057633195
0.15788829 0.03646034 -0.20917466 -0.36952615 -0.12906715 0.92021304 0.046672173
0.17969745 0.034921277 -0.20049325 -0.38982713 -0.074117184 0.91790056 0.056859016
0.18319024 0.039129339 -0.20951581 -0.39151597 -0.07690046 0.91695237 0.057656042
0.1908544 0.038008548 -0.20638075 -0.39212805 -0.07660301 0.91671562 0.053532388
0.20288609 0.036730725 -0.20144214 -0.3709904 -0.071933679 0.92584652 0.051888507
-0.20116009 0.040308911 -0.20150749 0.32749382 -0.060863808 0.94289088 0.059123136
-0.19733262 0.043988485 -0.2028047 0.31300381 -0.0049621966 0.94973892 0.055111736
-0.18712267 0.041282427 -0.20718083 0.37811759 -0.061510764 0.92371184 0.046287656
-0.17490439 0.042781509 -0.20145348 0.37405384 -0.066146724 0.92504501 0.052195642
-0.16335504 0.045085683 -0.20601133 0.37659296 -0.083478719 0.92260993 0.049922191
-0.15383081 0.048675135 -0.20964642 0.39753607 -0.14070271 0.9067347 0.052188613
0.15996569 0.0454503 -0.20719534 -0.3484492 -0.098060682 0.9321841 0.052046418
0.17404909 0.047008563 -0.20146899 -0.36332375 -0.093733579 0.92693573 0.058564562
0.18357694 0.04658094 -0.20842209 -0.39298567 -0.11030325 0.91290498 0.061260447
0.19645867 0.047228076 -0.20329431 -0.38602647 -0.018697476 0.92229819 0.05004897
-0.194212 0.056864485 -0.20314009 0.33402801 -0.099749267 0.93727022 0.050029188
-0.18671104 0.056489982 -0.20623711 0.35304239 -0.12338333 0.92743605 0.052217189
-0.17296071 0.052788127 -0.20151703 0.35653871 -0.070958391 0.93158209 0.052172817
-0.16806792 0.050489195 -0.20368749 0.37140527 -0.078643925 0.92513418 0.047517501
0.15374184 0.057757348 -0.20788991 -0.3279596 -0.14072655 0.93415123 0.050868977
0.16832301 0.053969003 -0.20272435 -0.3319554 -0.11804009 0.93588036 0.049551331
0.17737094 0.058911905 -0.20910634 -0.39029825 -0.11148265 0.91391408 0.05247971
0.18768272 0.051576409 -0.2061111 -0.39123163 -0.12041543 0.9123804 0.056057673
-0.19104409 0.06899406 -0.20269376 0.32836452 -0.15069585 0.93245238 0.046559628
-0.18879452 0.066226907 -0.20402899 0.34322584 -0.14550902 0.92791337 0.048909124
-0.17578764 0.063832156 -0.20580776 0.36886993 -0.13635264 0.91942537 0.049862888
-0.16408262 0.062663622 -0.20334084 0.35121715 -0.11274785 0.92948073 0.050278831
-0.14949323 0.063708022 -0.20864727 0.30760932 -0.083544232 0.94783801 0.050750799
0.14629006 0.063696638 -0.20996422 -0.34184352 -0.11216818 0.93303877 0.048597928
0.15667728 0.068847582 -0.2051754 -0.32698298 -0.14347631 0.93407536 0.050178226
0.16736442 0.063747361 -0.20171763 -0.30293813 -0.12398556 0.94491065 0.053085092
0.17213023 0.061732773 -0.20013896 -0.35319701 -0.12760811 0.9268052 0.055127241
0.18569885 0.067375734 -0.20465457 -0.32863879 -0.12944499 0.93554288 0.05145584
0.19422549 0.069227807 -0.20105927 -0.32949868 -0.11090802 0.93761933 0.051930156
-0.18588507 0.070019066 -0.20445444 0.37747529 -0.13704517 0.91582257 0.049935855
-0.17122847 0.073073618 -0.20943128 0.32166228 -0.17462277 0.9306128 0.04734483
-0.15270314 0.077966452 -0.20492178 0.342448 -0.17094798 0.92385399 0.047073212
-0.14749013 0.078522623 -0.20678554 0.30925781 -0.17931601 0.93391943 0.048019692
0.14176318 0.076423161 -0.20964301 -0.32624093 -0.18902247 0.92619509 0.054273248
0.15369914 0.077704035 -0.20508851 -0.35081741 -0.16518335 0.92176008 0.052672613
0.17119762 0.076032124 -0.20910114 -0.30936217 -0.15205599 0.93870866 0.049473874
0.18653832 0.071580946 -0.20373225 -0.35318825 -0.11049473 0.92900437 0.048711523
0.19241159 0.075797737 -0.20084023 -0.35341325 -0.1168489 0.92814082 0.048036661
-0.18313889 0.08629667 -0.20261407 0.36776319 -0.20109306 0.90791613 0.053229157
-0.17518711 0.084346622 -0.20595108 0.36895239 -0.20024736 0.90762049 0.052773301
-0.16980407 0.085359752 -0.20779815 0.33175251 -0.20103569 0.92169678 0.050454553
-0.14489397 0.085230783 -0.20657825 0.34192008 -0.22248778 0.91301143 0.052914266
0.1375868 0.081139445 -0.20994665 -0.34132352 -0.22230467 0.91327918 0.049417693
0.14760101 0.086141065 -0.20534231 -0.28246132 -0.21930632 0.93387389 0.048970923
0.15543999 0.084149592 -0.20314187 -0.33598956 -0.20263189 0.91981041 0.049823489
0.16474904 0.083468556 -0.20508912 -0.27938968 -0.21018377 0.93689072 0.049926028
0.17422909 0.086187966 -0.2064811 -0.29748812 -0.22898558 0.92685837 0.054811481
-0.17295587 0.096688524 -0.20461178 0.33737856 -0.16471754 0.92684615 0.052308954
-0.16278826 0.096074879 -0.2085468 0.35529953 -0.20328371 0.9123804 0.051169429
-0.15183133 0.094865955 -0.20223407 0.2959592 -0.23422547 0.92603809 0.053374454
-0.13286041 0.094432816 -0.20862707 0.33221734 -0.15996487 0.92953908 0.051605701
-0.1277166 0.099096626 -0.20901231 0.3180767 -0.18623243 0.92959386 0.053636827
0.13659132 0.091834635 -0.20774439 -0.36878714 -0.16342933 0.91503382 0.048078559
0.14747359 0.093728095 -0.20358266 -0.29140398 -0.28123364 0.91432565 0.049994569
0.15453735 0.090318128 -0.20198372 -0.32987535 -0.23631848 0.91396707 0.048782796
0.16965398 0.094518445 -0.20644727 -0.26629674 -0.21930152 0.93861222 0.052808061
0.17448318 0.098472655 -0.2038604 -0.24150711 -0.22326355 0.94436628 0.049393352
0.18537822 0.096582979 -0.20055994 -0.33254653 -0.20010728 0.92161268 0.056879379
-0.16031489 0.10584687 -0.2074604 0.32005337 -0.20713413 0.92447889 0.054000907
-0.15680653 0.10422163 -0.20899922 0.34920898 -0.19509025 0.9165113 0.053048994
-0.14594065 0.10457223 -0.20175283 0.36617118 -0.16168304 0.9163937 0.058402099
-0.13110495 0.10003953 -0.20768273 0.31430352 -0.18595606 0.93093157 0.051070537
-0.12680562 0.10599551 -0.20745331 0.29239687 -0.2234706 0.92981982 0.051965032
0.13691737 0.10681618 -0.2040727 -0.40452451 -0.18417674 0.8957895 0.04542901
0.14356223 0.10765241 -0.20160753 -0.37045816 -0.16372275 0.91430604 0.049920853
0.16838674 0.10274426 -0.20492458 -0.25572863 -0.18880016 0.94813365 0.050898958
0.18027705 0.10049325 -0.20140399 -0.27016431 -0.20797169 0.94008464 0.054490741
-0.17327756 0.11554863 -0.20074081 0.24681328 -0.21502678 0.94490564 0.047449321
-0.16283949 0.11529839 -0.20412546 0.31618097 -0.2327209 0.91971219 0.058556106
-0.15564467 0.11597819 -0.20623007 0.33291802 -0.25414166 0.90806258 0.053270392
-0.14598043 0.11867209 -0.20857994 0.35597703 -0.22553037 0.9068718 0.049726743
-0.13592346 0.11038984 -0.20337786 0.29554272 -0.18341418 0.9375574 0.058306415
0.12155228 0.11367358 -0.20745873 -0.27202883 -0.22513115 0.93558335 0.053473104
0.13653509 0.11289332 -0.2027588 -0.40237248 -0.18604288 0.89637297 0.044554755
0.14241681 0.11148505 -0.20108736 -0.39976186 -0.18321942 0.89812088 0.048763111
0.15340286 0.11472547 -0.20718788 -0.31099638 -0.15332405 0.93796217 0.05364003
-0.14253341 0.12127324 -0.20897856 0.34933627 -0.28679106 0.89202863 0.051137973
-0.12101556 0.12332231 -0.20465091 0.23517227 -0.29137048 0.92725253 0.05092895
-0.11179657 0.12473188 -0.20704529 0.19706583 -0.28683928 0.9374904 0.053887799
-0.10709562 0.12448889 -0.2082454 0.21146375 -0.30606422 0.92822826 0.051102668
0.098062545 0.12732804 -0.20941287 -0.15806052 -0.32703942 0.9316985 0.049711082
0.11553399 0.12756515 -0.20465605 -0.23559909 -0.30202061 0.92372978 0.049133632
0.12884408 0.12117548 -0.20312053 -0.32252866 -0.282796 0.90332812 0.052356251
0.13832904 0.12087996 -0.20024882 -0.34442219 -0.20781592 0.9155249 0.057816967
0.1458979 0.1262998 -0.20699696 -0.39221823 -0.16539478 0.90488094 0.051592208
0.15544993 0.12665473 -0.20365459 -0.30402836 -0.18702182 0.93412501 0.055119894
-0.14063816 0.13323186 -0.20637663 0.33495876 -0.3134692 0.88856035 0.046634845
-0.13593133 0.13447236 -0.20754026 0.35066572 -0.30980822 0.88377166 0.044396367
-0.12016016 0.13883096 -0.20024872 0.29261988 -0.31424212 0.90311986 0.05154806
-0.11627179 0.13889769 -0.20115004 0.23958774 -0.29032546 0.92644954 0.055816017
-0.10479386 0.13424346 -0.20546535 0.24093032 -0.26894388 0.93253511 0.058663655
-0.093767919 0.13463195 -0.20795321 0.27970022 -0.24594223 0.92805183 0.05125916
-0.07967715 0.13918465 -0.20974916 0.23062088 -0.30282491 0.92472219 0.048164681
0.084219433 0.13847679 -0.20917197 -0.19677851 -0.29517567 0.93495965 0.053379156
0.094650961 0.13679154 -0.20731914 -0.19437179 -0.31359544 0.92945015 0.052504756
0.10277819 0.13273865 -0.20642965 -0.17412964 -0.31756854 0.93211007 0.050180055
0.11382538 0.13237339 -0.20358565 -0.18056345 -0.29423869 0.93852037 0.048873428
0.12615076 0.13763604 -0.20922819 -0.24395733 -0.31523964 0.9171198 0.051437296
0.13906226 0.13509701 -0.20657557 -0.27669448 -0.23380861 0.93208033 0.052421205
0.14297768 0.13193291 -0.20651717 -0.3045702 -0.22459742 0.92563117 0.055248171
0.15764108 0.13198262 -0.20164101 -0.34560257 -0.14447632 0.92719227 0.051970623
-0.13212167 0.1419532 -0.20674662 0.29510558 -0.34358042 0.89155209 0.046285059
-0.12218597 0.14542423 -0.2081362 0.32495493 -0.34220043 0.881648 0.050724272
-0.11400759 0.14559197 -0.20577553 0.26023704 -0.33747688 0.90464687 0.057191834
-0.1074321 0.14332664 -0.20174024 0.22490199 -0.28576243 0.93153572 0.057449281
-0.097005755 0.14202397 -0.20466246 0.25090575 -0.29336217 0.92248851 0.050407857
-0.085602805 0.14144552 -0.20756973 0.21556656 -0.29955825 0.92940623 0.050721519
0.062740915 0.14678095 -0.20983881 -0.15648159 -0.38130474 0.91110927 0.050986249
0.079555996 0.14404443 -0.20789991 -0.22243233 -0.31400079 0.92299908 0.052808218
0.086446382 0.14638937 -0.20580083 -0.15901494 -0.29702637 0.94153577 0.054267626
0.096342243 0.14805707 -0.20326485 -0.22505744 -0.25275019 0.94099224 0.052081488
0.10158251 0.14662306 -0.20233701 -0.17787059 -0.29418185 0.93905216 0.052083876
0.11513653 0.14704072 -0.20919026 -0.17620389 -0.31883457 0.93128765 0.051063888
0.12697972 0.14581443 -0.20640667 -0.21602003 -0.31703418 0.92348516 0.055641137
0.13641755 0.14717643 -0.20344493 -0.26463848 -0.28760424 0.92046195 0.053636361
0.14072599 0.14517535 -0.20292652 -0.2856147 -0.31315264 0.90573704 0.053095352
-0.12422293 0.15510154 -0.20435137 0.32880822 -0.26801652 0.90556741 0.048425697
-0.11324795 0.15367728 -0.20744543 0.26583126 -0.28521374 0.92086202 0.053823337
-0.10574162 0.15687928 -0.20813723 0.26109004 -0.27706438 0.92469853 0.049749862
-0.098614484 0.15963243 -0.20889199 0.17245601 -0.28218949 0.94373095 0.044596665
-0.076360852 0.15903747 -0.20319116 0.16148338 -0.4186312 0.89368397 0.047639649
-0.059466898 0.15113886 -0.20866607 0.12690122 -0.37922695 0.91656047 0.048192136
-0.047061577 0.15660489 -0.20828165 0.097000673 -0.4354623 0.89496565 0.054078698
-0.03342602 0.1577324 -0.2096442 0.051470015 -0.3366549 0.94022036 0.052527416
0.036339186 0.15525994 -0.20996371 -0.1613729 -0.45055887 0.87804073 0.046712451
0.044883721 0.15682882 -0.20869681 -0.17086549 -0.4574258 0.87267786 0.044507105
0.056629382 0.15423205 -0.20811352 -0.1018603 -0.41968471 0.90193635 0.050270353
0.065158941 0.154617 -0.20646273 -0.15437746 -0.35855559 0.92065483 0.05114574
0.07306698 0.15552995 -0.20472294 -0.15847756 -0.30604535 0.93873382 0.052008621
0.086967662 0.1541211 -0.2027989 -0.14772497 -0.32882515 0.93276542 0.047210775
0.091415912 0.15508048 -0.20165247 -0.18134855 -0.32992139 0.9264257 0.052470233
0.10490236 0.15314557 -0.20999216 -0.19753028 -0.27428979 0.94114125 0.053108718
0.11623013 0.15495944 -0.20638037 -0.18841352 -0.30464783 0.9336434 0.054617573
0.12783048 0.15734538 -0.20251374 -0.23649669 -0.37504542 0.89633161 0.057753995
0.13545243 0.15201412 -0.20216592 -0.2924858 -0.3709662 0.88138306 0.051856179
-0.12168287 0.16397327 -0.20192905 0.31408525 -0.30526742 0.89897841 0.054276615
-0.11427543 0.16590726 -0.20302983 0.24782431 -0.27597558 0.928666 0.054349519
-0.10952572 0.16487609 -0.20451035 0.27254403 -0.29110947 0.91704696 0.050920773
-0.064301185 0.16282091 -0.20341575 0.16545554 -0.40284878 0.90018737 0.049311742
-0.055964194 0.16468978 -0.20386295 0.14242321 -0.36675385 0.91935152 0.056132533
-0.045355283 0.16271684 -0.20613314 0.12826695 -0.35527396 0.92592013 0.059555665
-0.036471404 0.16763456 -0.2054082 0.10094258 -0.33650571 0.93625557 0.046754874
-0.0244829 0.16634493 -0.20639226 0.050167918 -0.35931435 0.93186718 0.053741969
-0.012629305 0.1624015 -0.20844385 0.058846518 -0.31699792 0.94659889 0.048426826
-0.005893996 0.16652516 -0.20697337 0.012663726 -0.40094936 0.9160127 0.054697964
0.001750924 0.16321693 -0.20861337 0.021575222 -0.3832655 0.92338616 0.055296965
0.026585788 0.16388649 -0.20714676 -0.10314517 -0.41327077 0.90474766 0.052220922
0.034110744 0.16592114 -0.20576382 -0.13483912 -0.39713812 0.90779942 0.051942881
0.045521766 0.16698155 -0.20449534 -0.13993433 -0.37302998 0.91720611 0.046521217
0.059942488 0.16616426 -0.20303783 -0.094414122 -0.34578732 0.93355083 0.051667884
0.064758062 0.16244014 -0.20358922 -0.14503075 -0.4016178 0.90425062 0.049618971
0.072456583 0.16345513 -0.20184799 -0.10087615 -0.28981471 0.95175183 0.048992254
0.096139506 0.16312301 -0.2084094 -0.16835196 -0.30113879 0.93860161 0.05405803
0.11279228 0.16337439 -0.20462695 -0.24662611 -0.35611609 0.90130842 0.049696989
0.12367684 0.16269936 -0.20192501 -0.25922015 -0.30886796 0.91509861 0.059746101
-0.10540035 0.17618492 -0.20163354 0.10958708 -0.37206975 0.92171293 0.048346207
-0.089012124 0.17287135 -0.20660247 0.12704307 -0.4240374 0.89668965 0.05005464
-0.079662353 0.17108026 -0.20863412 0.14376508 -0.3929207 0.9082647 0.04223017
-0.055978131 0.17501393 -0.20619521 0.19318339 -0.34734955 0.91762108 0.040116761
-0.023852814 0.17122826 -0.20439175 0.0087408014 -0.37551677 0.92677438 0.049589552
-0.0047439518 0.1775699 -0.20243905 0.033080626 -0.44167897 0.89656305 0.050773799
0.0055646598 0.17386003 -0.2043394 -0.012777735 -0.41085055 0.91161311 0.050527286
0.016206935 0.17379567 -0.20385066 -0.079901889 -0.43313816 0.89777893 0.048819426
0.02974898 0.17059226 -0.20417123 -0.06583333 -0.40485749 0.9120068 0.05035343
0.038086142 0.17542192 -0.20158508 -0.1316171 -0.37877372 0.91608256 0.048741493
0.046711702 0.1764106 -0.20054968 -0.14718793 -0.34881052 0.92556304 0.050536085
0.055021912 0.17908883 -0.20936663 -0.090663329 -0.3674244 0.92562383 0.054411247
0.068021119 0.17917535 -0.20733245 -0.092320554 -0.3143909 0.94479376 0.052007571
0.086775653 0.17241016 -0.20656733 -0.14687951 -0.3241463 0.93453503 0.04737591
0.095296204 0.17507881 -0.20405863 -0.19376902 -0.2993114 0.93427312 0.045865655
0.10866934 0.17347354 -0.2023017 -0.22376297 -0.32536551 0.91873145 0.048589986
-0.10346411 0.18173149 -0.20020187 0.12809925 -0.34415624 0.93013287 0.049598612
-0.094850786 0.18275759 -0.2017194 0.10628728 -0.38208553 0.91799432 0.047805116
-0.086376391 0.18517797 -0.20217378 0.1627816 -0.32896492 0.93020654 0.052167252
-0.055496912 0.18574679 -0.20631409 0.17443714 -0.39199728 0.90327728 0.044145264
-0.033714831 0.18513462 -0.20890144 0.06646084 -0.42789283 0.90138263 0.045479618
-0.024896506 0.18895358 -0.20763065 0.02376264 -0.38954514 0.92070079 0.048332129
-0.0160423 0.18587977 -0.20921621 -0.013963824 -0.40462396 0.91437656 0.052166287
0.0087105092 0.18413594 -0.20011708 -0.021844095 -0.46363911 0.88575482 0.046817407
0.014472132 0.18245931 -0.20043211 -0.047929864 -0.41212076 0.9098677 0.056573965
0.021106325 0.18614085 -0.20905809 -0.090270512 -0.44270572 0.89211142 0.050274421
0.034555137 0.1840096 -0.20894675 -0.070518829 -0.37583831 0.92399818 0.055745658
0.042619128 0.18734987 -0.20699006 -0.074674837 -0.36738271 0.92706722 0.054638594
0.054400019 0.18602537 -0.20667055 -0.060903531 -0.33117178 0.94160283 0.056843422
0.065618075 0.18232308 -0.20657206 -0.082633518 -0.28972313 0.95353669 0.052023627
0.073241711 0.18385482 -0.20464957 -0.092109986 -0.35845718 0.92899102 0.057278041
0.08838135 0.18654644 -0.20096356 -0.14777794 -0.39360163 0.90732545 0.05211138
-0.076764666 0.19232088 -0.2007391 0.19372137 -0.3735401 0.90716028 0.050235558
-0.060956914 0.19093905 -0.20351268 0.16622423 -0.31035486 0.93597502 0.043913402
-0.053481914 0.19536553 -0.20283812 0.14947619 -0.40101448 0.90379441 0.047353271
-0.04522904 0.19520906 -0.20393866 0.02238497 -0.36542231 0.93057269 0.050908774
-0.036292329 0.19588108 -0.20435916 -0.012349227 -0.40170819 0.91568452 0.04933545
-0.02634454 0.19948556 -0.20321707 0.072927974 -0.4105877 0.90890002 0.05182841
-0.015438191 0.19331619 -0.20615727 -0.016627282 -0.43920293 0.89823401 0.050599683
-0.0036676554 0.19393271 -0.2063171 -0.013681227 -0.45609778 0.88982445 0.050285343
0.003253235 0.19568241 -0.2058365 -0.02472467 -0.43574038 0.89973283 0.049566399
0.014210897 0.19478858 -0.20602347 -0.03300491 -0.42882961 0.90278226 0.051617451
0.025601093 0.1929103 -0.20595914 -0.025240812 -0.38042775 0.92446613 0.049662709
0.033105403 0.19116777 -0.20612344 -0.028454158 -0.38047615 0.92435288 0.056892134
0.045279667 0.19548115 -0.20346795 -0.12557173 -0.35011613 0.92825127 0.051413622
0.053301625 0.19428277 -0.2033717 -0.10649887 -0.35711029 0.92797101 0.053588681
0.073669493 0.19260845 -0.20127954 -0.14749055 -0.37110147 0.91680443 0.051856201
0.0845301 0.19059703 -0.20011905 -0.13081293 -0.35629898 0.92516965 0.051236365
-0.049399272 0.20044586 -0.20142868 0.11338665 -0.4039093 0.90774488 0.048528276
-0.022668939 0.20442119 -0.20130235 0.012044932 -0.42028847 0.90731061 0.055147804
-0.0042656236 0.20563883 -0.20144719 -0.028432596 -0.38303733 0.9232952 0.049233451
0.0012691168 0.2055036 -0.20169845 0.0079765879 -0.39911538 0.916866 0.053581856
0.027823562 0.20338769 -0.20150894 -0.012108366 -0.35278612 0.93562561 0.050847549
0.047724672 0.20104295 -0.20101309 -0.031371001 -0.33274806 0.94249374 0.052452378
0.017239941 -0.23141456 -0.19031285 0.021706844 0.3369396 0.94127589 0.052403696
0.022041 -0.23004347 -0.19071138 -0.00027072179 0.3651475 0.93094957 0.050930999
-0.049142908 -0.22445102 -0.19133009 0.042046618 0.35522637 0.93383425 0.046284102
-0.031163162 -0.225758 -0.19211014 0.066123948 0.3962051 0.91577786 0.051995322
-0.026608655 -0.22431426 -0.19303402 0.022012852 0.37468645 0.92689025 0.051691502
-0.014310066 -0.22271974 -0.19458596 0.0083933081 0.33646366 0.94165903 0.049833242
-0.0053870375 -0.22099407 -0.19542736 -0.035661601 0.3077125 0.95081091 0.044751026
0.005131437 -0.22837178 -0.19200034 -0.077373661 0.36357653 0.92834556 0.053448908
0.010399804 -0.22909479 -0.19151501 -0.06233627 0.31849557 0.94587255 0.053128269
0.024993623 -0.22555082 -0.19246817 0.059407424 0.36279544 0.92997319 0.053732753
0.037267368 -0.22823817 -0.19092205 -0.083738357 0.43128806 0.89831978 0.051799957
0.043892197 -0.2237954 -0.19252861 -0.11631674 0.37736374 0.91873121 0.051381465
-0.081349544 -0.21816811 -0.19030401 0.14538321 0.39995727 0.90492982 0.050387323
-0.07491748 -0.21493986 -0.19265459 0.1457236 0.39824367 0.90563059 0.046703916
-0.063075706 -0.21224687 -0.19530547 0.05355056 0.41406584 0.90867037 0.049020439
-0.052891195 -0.21314736 -0.19568175 0.060533371 0.40636453 0.91170371 0.046946637
-0.047157865 -0.21900116 -0.1937055 0.046592385 0.36749354 0.92885822 0.045039009
-0.030218778 -0.21782993 -0.19542359 0.049057052 0.35699564 0.93281692 0.049330141
-0.028633393 -0.21750242 -0.19567356 0.037901819 0.33938649 0.93988311 0.050948061
-0.016390055 -0.21342266 -0.19823849 -0.008588043 0.39223719 0.919824 0.053772386
-0.0080579277 -0.21346724 -0.19863929 -0.040560663 0.38296416 0.9228723 0.050643686
0.0088235242 -0.21686411 -0.19663675 -0.039546303 0.33699247 0.94067645 0.047450952
0.024268717 -0.21551238 -0.19665177 0.085610725 0.34482899 0.9347533 0.04761114
0.037485331 -0.21379617 -0.1968964 -0.058068633 0.34918079 0.9352544 0.052637041
0.043700423 -0.21650937 -0.19550905 -0.061476089 0.35435399 0.93308836 0.055628225
0.056302849 -0.21408959 -0.19511908 -0.18295728 0.34435919 0.92083842 0.053293087
0.068494886 -0.21286717 -0.19387449 -0.11548834 0.36959028 0.92198998 0.050410155
0.088674948 -0.2133373 -0.19083962 -0.060553998 0.35793507 0.93178093 0.052142721
0.096185952 -0.21240667 -0.1901423 -0.11943145 0.34779844 0.9299314 0.055915367
-0.11442497 -0.20034671 -0.19117156 0.25017938 0.34688973 0.90392351 0.052548438
-0.1082143 -0.20109037 -0.19198821 0.18526447 0.35681528 0.91562003 0.051172968
-0.097730227 -0.20607986 -0.19196141 0.15665489 0.3920013 0.90652865 0.045094695
-0.083942771 -0.20463641 -0.19493891 0.16716516 0.36905378 0.91425109 0.04727615
-0.071078852 -0.20617963 -0.19662932 0.10832594 0.34777495 0.93129915 0.043809041
-0.054933514 -0.20366886 -0.1994113 0.082945935 0.44379535 0.89228112 0.042237669
-0.04429308 -0.20442475 -0.19457123 0.042011064 0.39666051 0.91700351 0.051126864
-0.030845702 -0.20680493 -0.19458063 0.12734479 0.36680448 0.92154098 0.053189136
-0.025122672 -0.20628712 -0.19521105 0.10748272 0.41272506 0.9044919 0.055214584
-0.015597137 -0.20571804 -0.19083166 -0.023362938 0.41534761 0.90936273 0.052453633
-0.0076093641 -0.2054573 -0.19132352 0.016911011 0.39104304 0.9202171 0.051581562
0.0054398002 -0.20321301 -0.1917928 -0.046552476 0.41280583 0.90962857 0.051795427
0.017360702 -0.20297182 -0.19147217 -0.034387197 0.33497816 0.94159824 0.050708614
0.026854215 -0.20135131 -0.19180849 -0.016622091 0.41913944 0.90776968 0.050348483
0.031718351 -0.20915258 -0.19902328 0.030567892 0.35040426 0.93609959 0.049332179
0.047992408 -0.20272943 -0.19011688 -0.12960108 0.38396502 0.91420698 0.05000576
0.050859835 -0.20805384 -0.19824785 -0.09796337 0.38297558 0.9185493 0.049939878
0.060457911 -0.20528013 -0.19797628 -0.12665406 0.3744252 0.91856652 0.048036922
0.087231614 -0.20753834 -0.19331074 -0.068834208 0.34351325 0.9366219 0.050274983
0.098599449 -0.20809433 -0.19148731 -0.092746995 0.32035881 0.94274503 0.053470936
0.10109571 -0.20852396 -0.19096668 -0.17574169 0.3389203 0.92425531 0.057264782
-0.12205366 -0.19349925 -0.19232036 0.24782978 0.35485011 0.90147758 0.05089004
-0.11047886 -0.19033422 -0.19563656 0.22679761 0.31123376 0.92287397 0.055120673
-0.093442619 -0.19475146 -0.19698194 0.17661175 0.3392812 0.92395705 0.049801603
-0.083319038 -0.19441345 -0.19889654 0.14203122 0.39761668 0.90649217 0.045482561
-0.079594314 -0.19112079 -0.19017559 0.18064669 0.38902593 0.90334129 0.049995463
-0.064454734 -0.19791694 -0.19552019 0.11307513 0.41935948 0.90075064 0.043973397
-0.053762775 -0.19422688 -0.19274309 0.07590279 0.4053722 0.91099513 0.04993492
-0.046051309 -0.1956256 -0.19273463 0.038401127 0.38860145 0.92060536 0.048788123
-0.032214105 -0.19368953 -0.19453886 0.033138908 0.41853717 0.90759492 0.049069453
-0.025964376 -0.19298194 -0.19528547 0.12280085 0.37586138 0.91850328 0.051593345
-0.015204674 -0.19767024 -0.19415376 -0.0063254992 0.38643122 0.92229652 0.048819914
0.0072727152 -0.19435148 -0.1953987 -0.041549779 0.42210439 0.90559459 0.051368255
0.025063485 -0.19411322 -0.19486979 0.013866752 0.40787074 0.91293442 0.051330313
0.051619571 -0.19619022 -0.19216105 -0.15575501 0.38827804 0.90828443 0.045043398
0.066330053 -0.1961783 -0.19362669 -0.14967859 0.35011032 0.92467242 0.048872307
0.077890679 -0.1953063 -0.19941282 -0.093823105 0.34873825 0.9325121 0.043997657
0.088232882 -0.19152045 -0.19943181 -0.1471846 0.30310795 0.94152123 0.051561311
0.098079883 -0.19740222 -0.19574101 -0.17422962 0.30848056 0.9351384 0.054819107
0.10224459 -0.19495898 -0.19592232 -0.14369574 0.29474586 0.94470966 0.052761264
0.11803353 -0.19874462 -0.19093651 -0.2396107 0.30229402 0.92260778 0.049513783
-0.13327271 -0.1836001 -0.19271076 0.27941301 0.29363167 0.91417104 0.04696935
-0.12751049 -0.18646143 -0.19334531 0.24597403 0.31305969 0.91732782 0.049497232
-0.11566356 -0.1847302 -0.19683029 0.26229787 0.31725082 0.91134614 0.05040206
-0.1038779 -0.18441641 -0.19902921 0.22424135 0.36985695 0.90162176 0.050067157
-0.094966993 -0.1884518 -0.19908373 0.15749085 0.35824823 0.9202472 0.052645847
-0.087977022 -0.18963669 -0.1998719 0.14922392 0.35927311 0.92122477 0.050841436
-0.071358345 -0.18264937 -0.19481799 0.16936436 0.37647909 0.91081232 0.045905411
-0.042970065 -0.18181543 -0.1986115 0.074913397 0.377565 0.92294776 0.047598083
-0.032866612 -0.18255879 -0.19904616 0.020297823 0.36598125 0.93040091 0.049237039
-3.7516933e-05 -0.18920904 -0.19778664 -0.04024126 0.4022156 0.91466022 0.049460419
0.0041539967 -0.18917011 -0.19765492 -0.036631074 0.43835351 0.89805585 0.050262507
0.012025621 -0.18895464 -0.19746648 -0.007517573 0.40449756 0.91450816 0.052657366
0.024087269 -0.18359517 -0.19926094 -0.005552324 0.39754173 0.91756737 0.055827331
0.034476984 -0.18516487 -0.19824424 -0.10323858 0.39492521 0.91289419 0.053674985
0.042155065 -0.18803327 -0.19668734 -0.06908185 0.35013658 0.93414772 0.051109005
0.054139648 -0.1865792 -0.19556263 -0.16687697 0.36987862 0.91397041 0.050372053
0.0714349 -0.18223709 -0.19481677 -0.10959418 0.408012 0.90637481 0.048033096
0.085837558 -0.18199472 -0.1928767 -0.15577665 0.37664455 0.91316622 0.05372313
0.094731025 -0.18478622 -0.19308326 -0.13163123 0.30385742 0.94358039 0.054412194
0.1035573 -0.18459637 -0.19920257 -0.21322173 0.28459606 0.93463445 0.053419396
0.1162077 -0.1865629 -0.19552538 -0.2334806 0.28067034 0.93097311 0.046273161
0.12775792 -0.18742874 -0.19248503 -0.20276111 0.32516217 0.92366523 0.052672032
0.13645193 -0.18557137 -0.19105236 -0.21968479 0.35042313 0.91046262 0.050258834
-0.15283528 -0.17353722 -0.19066736 0.25242072 0.30847096 0.91713113 0.042275574
-0.14162996 -0.17580928 -0.19294766 0.25026119 0.30738094 0.91808838 0.048878234
-0.13503042 -0.17293476 -0.19562964 0.25204945 0.33432499 0.90812874 0.047248237
-0.10661952 -0.17500758 -0.19146845 0.20705584 0.30994621 0.92793387 0.049586736
-0.093062334 -0.17761062 -0.1928824 0.1676925 0.34892145 0.92202663 0.058124449
-0.077606693 -0.1794271 -0.19492754 0.18763973 0.34729627 0.91879082 0.047367107
-0.068456374 -0.17639408 -0.19768459 0.13023557 0.27866575 0.95151675 0.049067307
0.056440994 -0.17771229 -0.19870418 -0.13123868 0.33926889 0.93148965 0.053470828
0.066080928 -0.17676227 -0.19771367 -0.075088345 0.40596986 0.9107964 0.051406082
0.073485702 -0.17728847 -0.1964618 -0.13349518 0.44799933 0.88401103 0.052064415
0.088137202 -0.17430146 -0.1955588 -0.19709 0.37654185 0.90519154 0.056645866
0.098532103 -0.17047358 -0.1945961 -0.23827836 0.33131278 0.9129377 0.049988929
0.10448912 -0.17292874 -0.19234295 -0.21967238 0.28616872 0.93265826 0.053963516
0.11396542 -0.17573412 -0.1970973 -0.17584804 0.30209941 0.93691701 0.051500674
0.12822129 -0.17020251 -0.19825047 -0.17140144 0.34993196 0.92096108 0.048615906
0.1354247 -0.17525281 -0.19481596 -0.20297605 0.33835652 0.91886646 0.046365142
0.15234362 -0.17279169 -0.19163449 -0.27554688 0.31430095 0.90845412 0.046601482
-0.1565299 -0.1642316 -0.19263509 0.26851401 0.2934041 0.91750437 0.052573364
-0.13706744 -0.16152257 -0.19871105 0.24496226 0.30109164 0.92159498 0.052523114
-0.12566739 -0.16419676 -0.19560683 0.26721981 0.29905879 0.91605532 0.048824724
-0.10654832 -0.16558714 -0.19497895 0.23520209 0.281688 0.93023217 0.050315835
-0.090737343 -0.16483888 -0.19809963 0.12064371 0.31328985 0.9419632 0.048397034
-0.085918732 -0.16889516 -0.19742376 0.14511035 0.29048416 0.94581282 0.050803248
