# .PCD v0.7 - Point Cloud Data file format
VERSION 0.7
FIELDS x y z normal_x normal_y normal_z curvature
SIZE 4 4 4 4 4 4 4
TYPE F F F F F F F
COUNT 1 1 1 1 1 1 1
WIDTH 592
HEIGHT 1
VIEWPOINT 0 0 0 1 0 0 0
POINTS 592
DATA ascii
0.18556461 -0.40651259 0.03510524 -0.25413141 0.6744495 0.69320637 0.049890123
0.20222649 -0.40593886 0.035122488 -0.3250064 0.62949365 0.70576805 0.041456092
0.21376781 -0.40606833 0.033921037 -0.33603048 0.59737122 0.72816968 0.04241528
0.22573042 -0.40191117 0.035685211 -0.33707315 0.60264862 0.72332311 0.042958498
-0.25124454 -0.391579 0.039982047 0.39350581 0.56938827 0.72176874 0.041330986
-0.24363691 -0.392768 0.037044428 0.40180933 0.56830835 0.71803546 0.044637937
-0.23319411 -0.39815578 0.036037073 0.39127856 0.57542169 0.7181859 0.043007091
-0.22835471 -0.39551929 0.03357159 0.3800433 0.55774581 0.7378934 0.045869891
-0.2150923 -0.39418837 0.033700183 0.38070935 0.58154696 0.71893221 0.048550054
-0.20656854 -0.3953436 0.034529321 0.30853349 0.59316641 0.7436133 0.046973303
0.19950262 -0.39459026 0.031502694 -0.32695585 0.5927276 0.73605293 0.050617937
0.20543128 -0.39532062 0.034465849 -0.33418193 0.5762319 0.74584126 0.05370342
0.21293865 -0.39179859 0.034772255 -0.33972669 0.57628059 0.74329436 0.048644107
0.22484091 -0.39510304 0.032127399 -0.31214833 0.59265679 0.7425102 0.043051511
0.23368998 -0.39657533 0.034684591 -0.33454204 0.6180504 0.71140379 0.042078525
0.24603719 -0.39213419 0.037184559 -0.37111929 0.59636217 0.71177435 0.043645147
-0.26245728 -0.38412789 0.039721735 0.38300604 0.56446189 0.73122442 0.043165997
-0.25186786 -0.38400874 0.0342036 0.38613153 0.5718081 0.72383559 0.042675901
-0.24515696 -0.38778692 0.033810649 0.39391887 0.5736326 0.71817374 0.040932938
-0.23453107 -0.38387048 0.038192805 0.40049332 0.52853221 0.7485044 0.048288021
-0.22494608 -0.38480106 0.034385145 0.37891632 0.55121392 0.74336112 0.04936564
-0.2159261 -0.38898551 0.03325671 0.3300744 0.51793718 0.78917164 0.047174614
0.21671231 -0.38761783 0.033058528 -0.3216905 0.57126158 0.75509959 0.049462557
0.22677165 -0.38550058 0.035485338 -0.29691914 0.61504716 0.73044914 0.045087643
0.23702246 -0.38407984 0.034678828 -0.32905933 0.56808895 0.75431752 0.045503151
0.24723862 -0.3853991 0.032581184 -0.40362605 0.55622345 0.72643065 0.04370163
0.25432277 -0.38511103 0.036239594 -0.36292818 0.57017893 0.73700684 0.048014984
-0.27211478 -0.37754229 0.039362125 0.4146978 0.54982901 0.72506118 0.04283265
-0.26779613 -0.37740961 0.037043996 0.39582998 0.53972477 0.74297762 0.042749267
-0.25564653 -0.37196326 0.039311033 0.38674858 0.5549016 0.7365526 0.047428332
-0.24425538 -0.37490791 0.03614163 0.38528717 0.54454392 0.74500042 0.044882786
-0.23555188 -0.37581423 0.032729257 0.40091309 0.55041003 0.73233694 0.047184106
0.22871795 -0.37885681 0.031124258 -0.30129728 0.55621618 0.7744956 0.048888993
0.23682132 -0.37513399 0.03236397 -0.32011539 0.53658694 0.78076923 0.045119073
0.24880826 -0.37263018 0.036590286 -0.32320496 0.58088857 0.74706554 0.046083163
0.25845122 -0.37799957 0.032946818 -0.39919874 0.57326287 0.71554881 0.044510577
0.26598078 -0.37677813 0.036120132 -0.37561998 0.57490361 0.72690815 0.044332903
0.27885079 -0.37012637 0.037978448 -0.41441238 0.55942446 0.7178486 0.042342227
-0.28506038 -0.36234868 0.035759896 0.43893778 0.57174891 0.6931355 0.043641042
-0.27366069 -0.36626959 0.03164345 0.36126709 0.55553842 0.74890792 0.046525761
-0.26669419 -0.36025763 0.036141649 0.38530889 0.55287093 0.73883063 0.04961171
-0.25425041 -0.36653432 0.034651756 0.43522713 0.51622403 0.73762465 0.045551602
-0.24709809 -0.36894834 0.0330787 0.35071167 0.53575379 0.7680946 0.048031662
0.25472927 -0.36551687 0.034473442 -0.39867499 0.52757692 0.75014722 0.044827059
0.26477525 -0.36236545 0.037262052 -0.41009369 0.54313117 0.73268795 0.047967967
0.27301446 -0.36521998 0.030945856 -0.41349453 0.53971416 0.7333014 0.048134949
0.28625131 -0.36265695 0.036199681 -0.44186321 0.5277229 0.72544152 0.044174969
0.29179493 -0.36054313 0.037766717 -0.43855739 0.54673815 0.71326345 0.043473441
-0.30427212 -0.35097224 0.039207984 0.43415749 0.57225579 0.695723 0.043899279
-0.29345319 -0.35617989 0.036388945 0.40681171 0.59743375 0.69106966 0.044353385
-0.28551894 -0.35787937 0.032770518 0.44943672 0.56766933 0.68975222 0.046140268
-0.27197251 -0.35263157 0.033993334 0.35106516 0.56047308 0.75008219 0.045026258
-0.26115596 -0.35748291 0.031219423 0.38792264 0.5304482 0.7537511 0.05233565
-0.25988176 -0.35672835 0.030059136 0.37060681 0.52998608 0.76273543 0.050885424
0.26410341 -0.35587722 0.032282695 -0.36954656 0.53568029 0.75926405 0.053324081
0.27538511 -0.35475254 0.037141725 -0.44416341 0.53317535 0.72002983 0.05062639
0.28623781 -0.35844222 0.03297659 -0.43433872 0.52462023 0.73220444 0.047415622
0.29479498 -0.35416758 0.035220932 -0.47269419 0.51016539 0.71853429 0.044902172
0.30043092 -0.35260877 0.037762906 -0.46918592 0.48698735 0.73668712 0.039664309
-0.30434829 -0.34707084 0.036399841 0.46468318 0.56752592 0.67969394 0.041062236
-0.29633063 -0.3477703 0.031998537 0.44492576 0.55912322 0.69958729 0.041510575
-0.28399828 -0.34254432 0.033982351 0.43097857 0.53789812 0.72451574 0.045923267
-0.27851447 -0.34922397 0.035381086 0.40284374 0.53584987 0.74201202 0.045629308
0.27473405 -0.34672949 0.031206558 -0.43431389 0.49684796 0.75134122 0.05343014
0.2860834 -0.34805903 0.038273718 -0.44631156 0.51495135 0.73186815 0.048283137
0.29449147 -0.34790212 0.030620264 -0.47187272 0.50080204 0.72562623 0.048962362
0.30507213 -0.34608787 0.036174353 -0.47031319 0.51553178 0.71626294 0.041430075
-0.32191303 -0.33241063 0.036826141 0.48554912 0.48481357 0.72745985 0.042706538
-0.31353882 -0.335843 0.033815786 0.48422432 0.48881912 0.7256602 0.045076329
-0.30607 -0.33566558 0.035567999 0.46748522 0.50092226 0.728378 0.046017904
-0.29425666 -0.33736295 0.036266968 0.45762765 0.4924722 0.74030274 0.044676207
0.28328651 -0.3386077 0.030535441 -0.44550735 0.4834196 0.75354403 0.056948729
0.29532579 -0.3365947 0.036356062 -0.46842626 0.48490989 0.73853856 0.049661204
0.30276349 -0.33443487 0.035205841 -0.47138035 0.49740806 0.7282759 0.043843742
0.31763887 -0.3358992 0.037123162 -0.49340424 0.47994044 0.72540289 0.039371375
-0.3287704 -0.32528985 0.037050869 0.49247694 0.45050007 0.74465835 0.042234994
-0.31729814 -0.3275609 0.030451071 0.49289581 0.48615023 0.72160357 0.046013799
-0.30659917 -0.32586959 0.035491362 0.45376402 0.49707529 0.73960423 0.046854883
0.30277354 -0.32334533 0.032228313 -0.48592576 0.44965997 0.74945462 0.049175005
0.31183621 -0.32618982 0.039416641 -0.50591201 0.49740103 0.70473063 0.044162355
0.32763559 -0.32628939 0.036819968 -0.47143057 0.47719878 0.74164313 0.041838147
-0.33351356 -0.31277227 0.032305591 0.52100646 0.4130992 0.74692792 0.043912426
-0.32562202 -0.31699464 0.035909116 0.5276112 0.4512623 0.71971434 0.043337937
-0.31467959 -0.3159872 0.03446012 0.43711436 0.47824639 0.76171613 0.052472841
-0.30903438 -0.31554914 0.030566545 0.43920934 0.45836797 0.77265382 0.053089056
0.30680528 -0.31733251 0.030740356 -0.43719923 0.54799449 0.71313316 0.049109876
0.31555605 -0.31302518 0.033139877 -0.49294195 0.47032177 0.73198742 0.046871919
0.32467276 -0.31703758 0.034861408 -0.46818978 0.51109636 0.72081816 0.041856404
0.33342341 -0.31400484 0.03233026 -0.49087489 0.46470821 0.73694515 0.044807114
-0.34353864 -0.30394399 0.033655196 0.54310858 0.44296432 0.71331322 0.041037705
-0.326262 -0.30662137 0.036380935 0.50957572 0.41322246 0.75470513 0.047922343
-0.3174904 -0.3084133 0.031792682 0.48781198 0.41354829 0.76877648 0.051467564
0.31884173 -0.30718344 0.031321067 -0.52391773 0.46377423 0.71443939 0.051809665
0.32597265 -0.30450514 0.034384929 -0.49885035 0.47890499 0.72235608 0.04846359
0.33449194 -0.30522823 0.034252249 -0.54448742 0.44445434 0.71133244 0.047536734
0.34520748 -0.30555329 0.035774428 -0.49038172 0.46551606 0.73676354 0.040662721
0.35259193 -0.30134124 0.038596809 -0.54475248 0.43454307 0.71722871 0.042756852
-0.35598898 -0.29314539 0.035438027 0.55906421 0.44789416 0.69773775 0.043690056
-0.34418139 -0.29505253 0.034872513 0.54780871 0.43199715 0.71643841 0.040661398
-0.33748743 -0.29317904 0.035662089 0.47711241 0.44120499 0.76006711 0.04495832
-0.3289482 -0.29405543 0.030682348 0.46999285 0.45604166 0.75573319 0.052667588
0.32959852 -0.29669255 0.032430451 -0.51180744 0.40105376 0.75974274 0.0516016
0.33570564 -0.29610255 0.036191538 -0.47769853 0.43311366 0.7643407 0.048814539
0.34710255 -0.29773828 0.034545388 -0.50312048 0.4420715 0.74259186 0.042242393
0.35590106 -0.29581439 0.037631497 -0.50683099 0.4526245 0.73365754 0.042518001
0.36075357 -0.29040658 0.037868463 -0.54245639 0.43929434 0.71607369 0.042387158
-0.35551751 -0.28444603 0.036125552 0.57314289 0.43838033 0.69233656 0.040179562
-0.34637004 -0.28681725 0.037620213 0.50925088 0.45538571 0.73026532 0.042973351
-0.33849019 -0.28472054 0.031307757 0.50370038 0.40453741 0.76330554 0.054309677
0.33757544 -0.28679901 0.032223742 -0.47752377 0.43145412 0.76538783 0.052423317
0.34386712 -0.28174004 0.03360074 -0.48087099 0.45747805 0.74798191 0.048445687
0.35801408 -0.28555357 0.032890197 -0.52548295 0.47963068 0.70272475 0.049605206
0.36283755 -0.28551638 0.036396794 -0.49928808 0.45691419 0.73616624 0.04706575
0.3708587 -0.28090841 0.039442383 -0.54292518 0.44774017 0.71046525 0.040810321
-0.36503145 -0.27635092 0.034772914 0.56512517 0.40040851 0.72132277 0.038630135
-0.35565025 -0.27313358 0.036653839 0.545825 0.43324146 0.71720076 0.039215885
-0.34672356 -0.27437651 0.030891197 0.53778517 0.40704095 0.73831218 0.050446115
0.34305263 -0.27851787 0.031246835 -0.48881969 0.39122757 0.77974117 0.049382843
0.35372952 -0.27307963 0.035349675 -0.49024084 0.43425485 0.75570279 0.049114965
0.36436248 -0.27353805 0.0301727 -0.51522058 0.39146388 0.76243275 0.048584979
0.37380943 -0.27583575 0.038605303 -0.55805248 0.42338195 0.71367019 0.043992899
-0.38107416 -0.26269779 0.037677355 0.51875371 0.39634609 0.7574988 0.041730143
-0.37678099 -0.26201373 0.033948123 0.54469979 0.41986948 0.72595572 0.046579812
-0.36292312 -0.26085758 0.035694636 0.52798039 0.38912603 0.75486267 0.042722337
-0.35711181 -0.26492199 0.033577282 0.5174489 0.37099072 0.77111113 0.04546912
0.3536185 -0.26572138 0.031145966 -0.46558204 0.3927429 0.79308659 0.050542064
0.36434162 -0.26594424 0.038595799 -0.55488199 0.37017483 0.74503464 0.045750041
0.37519211 -0.26636314 0.034523901 -0.59922969 0.37022233 0.7098304 0.041259311
0.3815724 -0.26278865 0.037832595 -0.56560731 0.37586388 0.73404008 0.040417392
-0.38564205 -0.25407377 0.036518276 0.56990242 0.35148841 0.74274302 0.044087965
-0.37503386 -0.25481546 0.035060003 0.56330109 0.38039911 0.73347688 0.046360858
-0.36433154 -0.25074714 0.031626791 0.51846051 0.40054989 0.75548553 0.048402544
-0.35857671 -0.25842267 0.031362649 0.53507286 0.38945326 0.74968201 0.046291508
0.36635745 -0.25439209 0.034587249 -0.54428619 0.3751435 0.75034654 0.048225496
0.37567481 -0.25377524 0.034939066 -0.56332278 0.39450794 0.72596896 0.049599309
0.38459754 -0.255326 0.036448207 -0.57903463 0.36351201 0.7297793 0.042466108
-0.39239773 -0.24349327 0.035995889 0.59521025 0.34623712 0.72515142 0.042305481
-0.386949 -0.24669951 0.033496618 0.56183863 0.39395717 0.72741675 0.042884357
-0.37488252 -0.24322605 0.035400063 0.53839034 0.39687404 0.74338871 0.048659757
0.36906269 -0.24605688 0.032674309 -0.54198217 0.37877354 0.75019062 0.047008645
0.37625161 -0.24571291 0.037815958 -0.5682382 0.39348501 0.72268587 0.049872354
0.38639119 -0.24464205 0.032422587 -0.59258515 0.40653786 0.69539189 0.042418607
0.39099666 -0.24573183 0.036689937 -0.57324564 0.39148119 0.71981382 0.040323935
-0.39514256 -0.23581938 0.034430575 0.59626645 0.31048501 0.74031436 0.041800231
-0.38770023 -0.23312429 0.03975958 0.58685333 0.31900656 0.74420297 0.043243948
-0.37540469 -0.23689383 0.032594766 0.56885469 0.37174317 0.73362893 0.048455067
0.37456501 -0.23865122 0.033260509 -0.54765838 0.35118327 0.7594344 0.048071705
0.38306203 -0.23457573 0.036054242 -0.5579924 0.34789079 0.75340337 0.044373512
0.39656329 -0.23733127 0.036872283 -0.57086128 0.36905798 0.73342597 0.040355206
0.4000369 -0.23397371 0.037950937 -0.58652514 0.36253586 0.7242623 0.041789938
-0.40462747 -0.22440776 0.037399661 0.60878086 0.31162328 0.72957307 0.039662965
-0.3846544 -0.22721739 0.035010856 0.61919183 0.29648969 0.72711444 0.046262365
-0.37840575 -0.22944488 0.031069467 0.58703125 0.33510253 0.73695368 0.048253108
0.38705245 -0.22407965 0.035639063 -0.56955659 0.31711385 0.7583167 0.04156556
0.39874718 -0.22680654 0.03324249 -0.55663532 0.35063437 0.7531352 0.043264624
0.40384483 -0.22331426 0.035560228 -0.62332755 0.30709901 0.7191335 0.042486727
-0.40544668 -0.21549389 0.034157254 0.61410487 0.32400265 0.71965092 0.048981462
-0.39451969 -0.21644834 0.038300831 0.58895767 0.31001616 0.74633694 0.045995973
-0.3876847 -0.21354753 0.031831447 0.59471017 0.30101287 0.74546027 0.05372363
0.38982409 -0.21668755 0.034217298 -0.56398803 0.2876218 0.77407444 0.044378337
0.39586267 -0.21360894 0.037652496 -0.60205066 0.28034389 0.7476244 0.044875827
0.40378082 -0.21483883 0.03184456 -0.59818298 0.26850218 0.75503886 0.045372859
0.41214266 -0.21322262 0.038430084 -0.64136106 0.26536891 0.71988565 0.043625817
-0.41252065 -0.20685154 0.036326881 0.60320139 0.29131076 0.74248648 0.039952025
-0.40156493 -0.20592135 0.036370911 0.56077904 0.33557162 0.75691384 0.049058281
-0.39399102 -0.20522544 0.033353068 0.57083076 0.33240715 0.75077134 0.048325088
-0.38907683 -0.20804316 0.030684438 0.58163399 0.3016724 0.75544405 0.051611796
0.39281392 -0.20508492 0.031977013 -0.5617891 0.28283158 0.77743125 0.049562097
0.40089011 -0.20207223 0.037267245 -0.56773949 0.31057945 0.76237279 0.044282481
0.41435322 -0.20440565 0.036794204 -0.60846162 0.2982634 0.73540008 0.041828271
-0.41610223 -0.19548152 0.034337305 0.61486316 0.29857305 0.72992969 0.040735144
-0.40423051 -0.19411609 0.036795307 0.6081754 0.32656935 0.72351593 0.041201025
-0.3984409 -0.19715038 0.033536047 0.62325239 0.30089584 0.72181594 0.049511474
0.39595348 -0.19560337 0.03097022 -0.53477299 0.29005611 0.79365319 0.047976803
0.40055135 -0.19373479 0.033925422 -0.54877985 0.28440517 0.78610075 0.047762509
0.41667995 -0.19623338 0.035518326 -0.60362136 0.30054241 0.73845476 0.043024056
0.42270914 -0.19032267 0.038357019 -0.60392088 0.31822267 0.73076248 0.046708401
-0.4144122 -0.1845109 0.035862878 0.61971414 0.31928128 0.7169475 0.041654639
-0.40202817 -0.18569064 0.031681914 0.58748227 0.31445175 0.74564379 0.050504308
0.39988503 -0.1858938 0.03050705 -0.55557853 0.32370594 0.76586354 0.050369591
0.40490627 -0.18406872 0.033813812 -0.56619787 0.34189421 0.75001895 0.050526224
0.41920704 -0.18104744 0.031592704 -0.61165023 0.29616785 0.73359966 0.050027266
0.42146251 -0.18212368 0.033977892 -0.59709448 0.27604184 0.75317919 0.047584541
-0.42902097 -0.17124763 0.036627546 0.62341988 0.28995666 0.72613555 0.047532734
-0.41267738 -0.17555828 0.036517352 0.61680782 0.32627252 0.71630609 0.046736732
-0.40755233 -0.17423795 0.031960364 0.60702533 0.35322526 0.71186531 0.047361601
0.40575409 -0.17677148 0.031795915 -0.57328629 0.31510705 0.75634009 0.053258337
0.41484398 -0.17572816 0.038614854 -0.61036015 0.29277986 0.73603022 0.049716502
0.42242604 -0.1743293 0.031674363 -0.61556745 0.30231458 0.72779298 0.04841397
-0.4325245 -0.1633001 0.037167393 0.65473169 0.25681159 0.71089679 0.040838644
-0.42605862 -0.16114017 0.030663762 0.62904024 0.26460174 0.73095435 0.045634165
-0.41141492 -0.16354898 0.031881273 0.63262218 0.27571851 0.72371852 0.047558226
0.41654807 -0.16705847 0.036769606 -0.61922705 0.25169623 0.74377882 0.050566766
0.42676216 -0.16690552 0.03243877 -0.6563974 0.22799578 0.71913868 0.048506871
0.43361527 -0.16835085 0.038951479 -0.66489154 0.22790763 0.71132094 0.042577378
-0.43158007 -0.15381031 0.03321474 0.64630306 0.25649288 0.71868199 0.045638297
-0.42850018 -0.15448196 0.030673414 0.64954203 0.27480754 0.70892596 0.044624317
-0.41745239 -0.15629396 0.034663603 0.62533581 0.26774472 0.73298556 0.047619745
0.41963574 -0.15525185 0.035659891 -0.63596874 0.2039308 0.74428219 0.0516394
0.42009193 -0.15726569 0.036567893 -0.64254457 0.214485 0.73561722 0.051788807
0.43449631 -0.15332106 0.035428438 -0.66379613 0.20905843 0.71810114 0.04585395
-0.44030535 -0.14516859 0.038208801 0.67707729 0.20596163 0.70650285 0.041370053
-0.43341061 -0.14849451 0.033116076 0.65101439 0.21272886 0.72864711 0.045206882
-0.42236781 -0.14553732 0.035475187 0.63512915 0.17828591 0.75154847 0.049146485
-0.41895926 -0.14199042 0.031613551 0.65080655 0.17451379 0.73891526 0.052441668
0.41797194 -0.14422531 0.031383615 -0.65239537 0.16332008 0.74007225 0.049541093
0.42560759 -0.14517537 0.037999012 -0.66787183 0.1496727 0.72907156 0.042657658
0.43486747 -0.14509171 0.033411961 -0.67164475 0.16983579 0.72114432 0.042540692
0.44002205 -0.14597359 0.038357727 -0.62337667 0.17447062 0.76220834 0.043386072
-0.44207776 -0.13465951 0.036358323 0.665452 0.18720023 0.72258544 0.041756272
-0.4354963 -0.13384461 0.034464333 0.67592239 0.16907443 0.71731639 0.042892832
-0.4242692 -0.13453914 0.033739787 0.65377647 0.16180067 0.73918664 0.049788449
0.41975757 -0.13807876 0.031262048 -0.64571327 0.15702234 0.74726057 0.047272835
0.42427492 -0.13430576 0.034039941 -0.61645132 0.21943568 0.75619817 0.048042443
0.43722948 -0.13723372 0.033314504 -0.62078631 0.2415074 0.74585426 0.04369593
0.44072822 -0.13537602 0.035968717 -0.62523872 0.22176529 0.74826241 0.04532776
-0.44633201 -0.12616329 0.037919398 0.66803187 0.1626125 0.72614777 0.046383273
-0.430013 -0.12865612 0.036692329 0.67088389 0.16150586 0.7237615 0.046967808
-0.42669949 -0.1244408 0.032891165 0.63546073 0.12785149 0.76147473 0.049512979
0.4268491 -0.1280188 0.034539066 -0.61965823 0.20670429 0.75716376 0.045308068
0.43502688 -0.12712833 0.034871854 -0.62854743 0.21223958 0.74825299 0.04243762
0.44358605 -0.12585916 0.03584804 -0.67763293 0.14258884 0.72144443 0.041692764
-0.45049068 -0.11380668 0.039229602 0.67158824 0.16858026 0.7214914 0.040685318
-0.44634357 -0.11580312 0.035780478 0.64477205 0.19503011 0.73907524 0.044182952
-0.43336332 -0.11414475 0.036479302 0.63849872 0.16146863 0.7524941 0.045109738
-0.42740321 -0.11697416 0.031932145 0.64534897 0.18195133 0.74190193 0.049648508
0.4278287 -0.11732877 0.03255498 -0.56303889 0.2301268 0.79374355 0.044133566
0.43155903 -0.117497 0.035709538 -0.61397827 0.17529814 0.76961106 0.046020485
0.4449698 -0.11594356 0.034271117 -0.6870597 0.19680655 0.69943994 0.042340357
-0.45214832 -0.10509916 0.038967058 0.67499763 0.19461809 0.71168959 0.042109907
-0.44841772 -0.10024348 0.034484051 0.61234754 0.21241634 0.76151812 0.044104751
-0.43028122 -0.10717051 0.032524593 0.64072996 0.13602918 0.75561976 0.045724913
0.43632728 -0.10581984 0.036793143 -0.68216085 0.14182816 0.71731532 0.045417488
0.44649386 -0.10454121 0.032922149 -0.69545513 0.17372884 0.69725215 0.042695031
0.45313415 -0.10452349 0.039151527 -0.71238279 0.13107798 0.6894412 0.034232765
-0.45324844 -0.092466138 0.037370611 0.69007933 0.1901802 0.69829935 0.041413151
-0.4457024 -0.092076264 0.034581751 0.62210172 0.17911004 0.76217383 0.045075782
-0.43503413 -0.096734375 0.034596387 0.59810549 0.21507487 0.77201855 0.043753393
-0.42996818 -0.096926689 0.030310992 0.58586228 0.20787621 0.78329623 0.046070956
0.43345934 -0.091429949 0.03204016 -0.63000417 0.12257579 0.76685715 0.049761519
0.44699916 -0.094594143 0.031747486 -0.70245314 0.15794471 0.6939835 0.050661117
0.45427665 -0.092478454 0.038240187 -0.72829419 0.079313174 0.68065923 0.043264013
-0.45231175 -0.081618212 0.034247033 0.69431889 0.10622697 0.71178442 0.048143435
-0.44309631 -0.084789358 0.03920456 0.65825379 0.14049992 0.73956853 0.048554178
-0.43583417 -0.086511441 0.03333639 0.60967225 0.18409964 0.77097791 0.050929599
0.43689063 -0.087041549 0.034331851 -0.68393666 0.08453574 0.72462708 0.048845608
0.44408324 -0.08490143 0.036046773 -0.69521987 0.093000248 0.71275538 0.048844982
0.45069695 -0.081017822 0.032985844 -0.71206373 0.092006393 0.69606042 0.047209039
-0.45086035 -0.075741038 0.031675376 0.67731982 0.12213697 0.72547936 0.042766985
-0.44955739 -0.079449549 0.031231035 0.67150861 0.12719615 0.72999817 0.044638317
-0.4371697 -0.077024877 0.032673102 0.63609117 0.093748301 0.76589775 0.052968912
0.43750668 -0.078599557 0.033588059 -0.67519206 0.084897108 0.73274004 0.049539734
0.44357553 -0.077409513 0.038633227 -0.69620168 0.091042578 0.71204948 0.044948395
0.45746508 -0.079021752 0.0390196 -0.72038245 0.11678451 0.68367416 0.043975431
-0.45589104 -0.063016616 0.034660716 0.72324568 0.093747459 0.6841982 0.040707566
-0.44357282 -0.063201696 0.036132269 0.67839456 0.075768963 0.7307803 0.044140156
0.43891227 -0.065044016 0.032752242 -0.62664181 0.14517286 0.76566619 0.053156875
0.44373494 -0.064753875 0.036860384 -0.66624504 0.16931082 0.72625846 0.04980012
0.45609617 -0.067893766 0.035898443 -0.69206363 0.1088361 0.71358436 0.044934716
-0.45482939 -0.05131653 0.032667361 0.70818204 0.065507732 0.70298433 0.044057321
-0.44327298 -0.053339422 0.03511164 0.65861732 0.073276214 0.74890167 0.045992669
0.43781742 -0.055098921 0.03030866 -0.62362957 0.13909499 0.76924556 0.056268297
0.4453547 -0.053433809 0.036546379 -0.66281039 0.10907174 0.74080074 0.052421942
0.45642859 -0.05371619 0.033874024 -0.67601043 0.13017496 0.72530299 0.045433402
0.46169192 -0.052527308 0.038626198 -0.69310838 0.12942767 0.70911866 0.038826611
-0.46091771 -0.047275383 0.038115572 0.73174536 0.070257761 0.67794734 0.042984311
-0.45515501 -0.045105219 0.032454502 0.69321913 0.061037038 0.71813762 0.049644805
-0.44770473 -0.04507526 0.038333464 0.68926746 0.061259527 0.7219125 0.049935747
0.44478312 -0.044174019 0.035129871 -0.63707763 0.10330317 0.76384592 0.053490885
0.4567734 -0.049225312 0.033536293 -0.69539917 0.12604119 0.70748401 0.047112945
-0.46057922 -0.03279246 0.036575537 0.71519953 0.059350323 0.69639581 0.037345149
-0.45718676 -0.036103383 0.033628929 0.72404635 0.045043871 0.68827897 0.045241542
-0.44558698 -0.034416411 0.03566888 0.69469607 0.074604228 0.715424 0.04673801
0.43959194 -0.033140652 0.030177832 -0.61746132 0.049841318 0.78502071 0.057686362
0.44642472 -0.033935472 0.036174249 -0.649809 0.028624512 0.75955844 0.050638713
0.45586476 -0.03577562 0.032087114 -0.68594086 0.061776802 0.72503024 0.048094198
0.46213195 -0.033816751 0.037983783 -0.71642208 0.019705007 0.69738871 0.043010138
-0.45576003 -0.0241204 0.035563972 0.72687221 0.038479645 0.68569386 0.036475465
-0.44555083 -0.02477411 0.034894727 0.70634258 0.042935185 0.70656681 0.04601834
0.44602305 -0.025569042 0.035511624 -0.64929146 0.025590412 0.76010901 0.052107438
0.45646697 -0.025181986 0.032230318 -0.70880526 -0.023565834 0.70501041 0.045691878
0.46308079 -0.023513203 0.038469408 -0.70867127 0.028843611 0.70494896 0.038420007
-0.46250013 -0.01521552 0.036923267 0.69686645 0.09335652 0.71109891 0.037757669
-0.45747638 -0.015287209 0.032153353 0.7025919 0.043419547 0.71026713 0.039257769
-0.4463748 -0.015174776 0.034872845 0.69631994 0.029816713 0.71711195 0.049384192
0.44639382 -0.015057842 0.035443615 -0.68692672 0.065661661 0.72375423 0.049200784
0.45659637 -0.015201762 0.031947646 -0.6923877 0.036211289 0.72061646 0.041293517
0.4628742 -0.015196186 0.037934061 -0.71809787 0.030779878 0.69526118 0.034157224
-0.46318841 -0.005436081 0.037394751 0.69200057 0.027597688 0.72136927 0.040116668
-0.45544165 -0.0027394092 0.030117797 0.70635116 0.021876596 0.70752352 0.042993646
-0.44609934 -0.0050403778 0.034438822 0.7028451 0.034047261 0.7105276 0.049928274
0.44862589 -0.0070646596 0.03709485 -0.69765496 0.046138108 0.71494681 0.044123013
0.45206863 -0.0050261645 0.0368887 -0.70409513 0.056309056 0.70786965 0.042145856
0.46339071 -0.00088531896 0.037844356 -0.72926599 -0.0035869104 0.68422085 0.037051234
-0.46334878 0.0064901202 0.038033146 0.73052824 -0.01512628 0.682715 0.037754595
-0.44444808 0.0089348936 0.03351748 0.655788 -0.035388153 0.75411522 0.046230603
0.44545057 0.0039092861 0.033912979 -0.6587463 -0.010409201 0.75229305 0.047543969
0.45881009 0.0073505691 0.033141144 -0.70105237 -0.016878748 0.71291006 0.042709708
0.46115196 0.0084194345 0.035330899 -0.69846916 -0.031946205 0.71492672 0.040102467
-0.46310794 0.012712921 0.03805685 0.72061133 -0.030142952 0.69268358 0.038622141
-0.45736742 0.012756614 0.032584887 0.69321126 -0.034082908 0.71992803 0.043519951
-0.44684711 0.014597119 0.03582326 0.67527103 -0.019134589 0.73732138 0.049203489
0.44632444 0.016571693 0.034935176 -0.67383373 -0.05493068 0.73683846 0.051211156
0.45401445 0.014592038 0.035245813 -0.68359846 -0.039461218 0.72879082 0.046461515
0.46342745 0.014583379 0.03775138 -0.68916017 -0.012672487 0.72449821 0.0398462
-0.463871 0.022347488 0.039176628 0.73283339 -0.054444905 0.67822629 0.039306916
-0.45573476 0.024895381 0.034725457 0.66579741 -0.088918604 0.74081528 0.046279438
-0.44496834 0.023638396 0.034519691 0.66818398 -0.081418246 0.7395277 0.047074892
0.43998632 0.027427271 0.030253375 -0.60726446 -0.056845032 0.79246354 0.051459491
0.44129604 0.027746759 0.03141826 -0.62271678 -0.061113037 0.78005707 0.052789252
0.45493689 0.023266211 0.034707997 -0.68264943 -0.060131162 0.72826785 0.043456472
0.46209878 0.026680032 0.037505735 -0.69635421 -0.054223899 0.71564698 0.040437594
-0.46102035 0.038904224 0.037132494 0.68925858 -0.039519344 0.72343671 0.040966634
-0.45697781 0.034919802 0.03311542 0.67388779 -0.061101083 0.73630285 0.04372457
-0.44088778 0.03035113 0.031206848 0.65127379 -0.094029836 0.75299466 0.051887091
-0.4399063 0.035483662 0.030541111 0.65625811 -0.11141585 0.74626517 0.051710289
0.44346642 0.036771916 0.034003191 -0.63983405 -0.024465745 0.76812357 0.050156541
0.45777473 0.033411898 0.033960797 -0.68921041 -0.071445912 0.72103029 0.045033399
0.46302146 0.030546166 0.038708206 -0.66072702 -0.075779013 0.74679136 0.041012593
-0.46247095 0.041754715 0.038631685 0.67266166 -0.078917652 0.73572981 0.039939675
-0.4573971 0.040089533 0.033725619 0.66196358 -0.088134043 0.74433643 0.040552363
-0.4457345 0.044252221 0.035971887 0.60756272 -0.089227512 0.789244 0.045127433
-0.43912089 0.046516761 0.030266508 0.65284234 -0.10840118 0.74969733 0.048447106
0.43908089 0.045941062 0.030891538 -0.63234925 -0.050615389 0.77302808 0.055520359
0.44490433 0.043680474 0.035787288 -0.64913547 -0.0036133598 0.76066422 0.051364727
0.45414647 0.045659896 0.03154159 -0.67212403 -0.0069015864 0.74040651 0.05036445
0.46049124 0.04565312 0.037573382 -0.69675058 -0.031187387 0.71663517 0.04511641
-0.45729652 0.056919668 0.035219517 0.63082391 -0.11972018 0.76663435 0.045717496
-0.44792289 0.051056705 0.038399279 0.6384145 -0.1074956 0.76214933 0.042860433
0.44583103 0.059336301 0.037800301 -0.68406993 -0.11127176 0.72087926 0.048313368
0.45254523 0.053491615 0.030678146 -0.65243042 -0.098454297 0.75142622 0.05138183
0.4614768 0.053495698 0.039170153 -0.70583844 -0.081524558 0.70366597 0.043398868
-0.4604302 0.067734189 0.03994783 0.64902955 -0.15230793 0.74536097 0.040935349
-0.45466286 0.064220339 0.033946767 0.64294505 -0.16581126 0.74774885 0.041173324
-0.44374162 0.06525436 0.036942892 0.63452542 -0.14875622 0.75845176 0.04240321
-0.43858492 0.066159084 0.032640323 0.61599487 -0.11362106 0.77951306 0.043084752
0.43655571 0.063920766 0.030078383 -0.65462434 -0.095660947 0.74987733 0.052294765
0.44467786 0.063813567 0.037141323 -0.63797408 -0.14586592 0.75611651 0.051363099
0.45429727 0.067914791 0.033557348 -0.66670984 -0.12517655 0.73473048 0.043717079
0.46076506 0.067224719 0.039648362 -0.69852495 -0.088962965 0.71003407 0.050282549
-0.45177507 0.078029193 0.033507641 0.6392414 -0.087377131 0.76402593 0.045071986
-0.44634074 0.075025424 0.034383439 0.66051459 -0.11242681 0.74234813 0.045134827
-0.43876341 0.076855399 0.03440835 0.65631646 -0.094270878 0.74857318 0.047633436
0.43779075 0.072686508 0.032378409 -0.65331233 -0.089721426 0.75175333 0.047712728
0.44307816 0.075006194 0.037329908 -0.67232794 -0.12731916 0.72922206 0.048564781
0.4538669 0.075617515 0.034450717 -0.70410514 -0.15138401 0.69377148 0.044552896
0.46060029 0.070406467 0.039759412 -0.68498719 -0.14538248 0.71390229 0.046474457
-0.4404 0.086077943 0.037209265 0.65024924 -0.12495726 0.74937409 0.045542791
-0.43780535 0.083009459 0.034512386 0.65919447 -0.10999344 0.74388438 0.047585532
0.43403253 0.086155221 0.031731199 -0.66309494 -0.17670991 0.72737789 0.047939979
0.44410381 0.08030542 0.03921172 -0.6841895 -0.15810242 0.71196091 0.043938678
0.45386255 0.085453153 0.036487505 -0.67481625 -0.12098693 0.72800088 0.042102847
-0.45052555 0.091763146 0.034596421 0.65807468 -0.11213733 0.74455553 0.043315426
-0.4343254 0.097629033 0.033722989 0.6227349 -0.11347059 0.77416116 0.046899889
0.43292293 0.096570119 0.032763265 -0.64826834 -0.20573066 0.73309141 0.046640422
0.4457528 0.094482601 0.033383545 -0.65751541 -0.19092928 0.72884804 0.04416129
0.4532195 0.092897028 0.037433058 -0.66602319 -0.16550429 0.72733867 0.042970892
-0.44578096 0.10180453 0.031791013 0.68265325 -0.10520621 0.72312951 0.042483896
-0.43878958 0.10088478 0.038057614 0.65726483 -0.10652381 0.74609357 0.044166896
-0.42858931 0.10633339 0.030309893 0.65773636 -0.089831509 0.74787247 0.048811022
0.42956892 0.10596213 0.031686287 -0.62821066 -0.16982898 0.75928223 0.049297158
0.43514821 0.10830898 0.036892109 -0.63060033 -0.17784362 0.75545675 0.042834073
0.44307938 0.10400635 0.030291455 -0.64956218 -0.14478055 0.7463963 0.046476897
0.45192039 0.10955959 0.039680272 -0.68730873 -0.17396849 0.70522451 0.041941881
-0.4502545 0.11595858 0.039087277 0.67515051 -0.15942292 0.72024727 0.040383581
-0.44611359 0.11551756 0.035190664 0.67378497 -0.16277198 0.72077674 0.045235384
-0.43470737 0.11309326 0.037182514 0.67484325 -0.12971784 0.72647089 0.043968141
-0.42802075 0.11612412 0.032401007 0.63056535 -0.18074071 0.75479811 0.053381994
0.42757028 0.11526283 0.03174822 -0.6568653 -0.13198441 0.74236661 0.051205102
0.43617457 0.11509767 0.039057545 -0.62693822 -0.17831011 0.75838906 0.042179931
0.44565791 0.11511049 0.034997802 -0.65432531 -0.19407494 0.73088527 0.044346791
-0.44232211 0.12240022 0.033707589 0.64749408 -0.19401287 0.73696023 0.048014864
-0.43396214 0.12447864 0.035385787 0.65663391 -0.20546107 0.72568429 0.048565682
-0.42559892 0.12593526 0.032952137 0.60762662 -0.19898434 0.76889217 0.050365571
0.42642811 0.1257686 0.032987244 -0.65406644 -0.15197331 0.74101371 0.048733369
0.43249211 0.12497855 0.037977178 -0.65134275 -0.1618337 0.74132484 0.047054004
0.44301912 0.12642246 0.034889437 -0.63391471 -0.15433264 0.75784802 0.042171545
-0.44100624 0.13167097 0.035161853 0.67617345 -0.20507893 0.70762426 0.046521954
-0.43654436 0.13421115 0.031825934 0.63825953 -0.21772453 0.73839074 0.04787486
-0.42856389 0.13462585 0.03770151 0.63492042 -0.21175614 0.74299085 0.046223812
0.41940761 0.13568987 0.030092008 -0.6313439 -0.15805717 0.75922507 0.049166575
0.42732972 0.13510549 0.036421105 -0.6746636 -0.13426396 0.72581136 0.045051884
0.43504056 0.13502315 0.034483504 -0.64581203 -0.16721988 0.74495935 0.046638891
0.4435519 0.13734244 0.03855785 -0.66737807 -0.20093259 0.71710002 0.039824449
-0.43701252 0.14516272 0.035385467 0.64957416 -0.23123187 0.72428256 0.045152042
-0.42539072 0.14525299 0.037839849 0.62894237 -0.19258437 0.75322157 0.047484223
-0.41928548 0.14188166 0.031865567 0.62108624 -0.19065242 0.76019973 0.054654192
0.41813728 0.14666376 0.032338511 -0.61290091 -0.22821784 0.75648463 0.045794699
0.42496544 0.14567076 0.037646942 -0.65470606 -0.17709792 0.73484451 0.045800507
0.43394604 0.14445709 0.032273896 -0.66045225 -0.19134143 0.7260794 0.044524077
0.44294173 0.14298889 0.039858945 -0.66918427 -0.18833536 0.71883398 0.040922724
-0.4320454 0.1560705 0.033983689 0.63053882 -0.26679382 0.72886336 0.044042379
-0.41733888 0.15618764 0.033990625 0.63160014 -0.25052306 0.73370254 0.051225867
0.41497719 0.1550446 0.032256261 -0.59419119 -0.25537771 0.76270509 0.046754468
0.42855123 0.15707479 0.031566933 -0.61686623 -0.25380138 0.74502403 0.046348114
0.43394983 0.15350604 0.035239197 -0.64264911 -0.20105845 0.73930883 0.040340796
-0.43453649 0.16192462 0.037926685 0.66411567 -0.26297247 0.6998542 0.043073896
-0.42770076 0.16464251 0.032531358 0.65143704 -0.25163448 0.7157582 0.046672091
-0.41478643 0.16404329 0.034262616 0.61885369 -0.25433332 0.74319226 0.046872303
-0.40789807 0.16877551 0.030547816 0.6056208 -0.25447497 0.75396687 0.0492054
0.41236117 0.16490357 0.033063781 -0.61420739 -0.23252881 0.75410849 0.050668936
0.42739657 0.16429205 0.032894086 -0.63452524 -0.21066464 0.74363846 0.044062436
0.43467939 0.1626855 0.038897976 -0.65774578 -0.24537794 0.71215171 0.039328367
-0.42516857 0.17424513 0.034014802 0.69020379 -0.19442138 0.69700718 0.043895878
-0.41473728 0.17569724 0.038519453 0.60732651 -0.27134264 0.74667776 0.045931283
-0.40868375 0.17943153 0.035098378 0.64008856 -0.25678349 0.72411931 0.046146493
0.40729752 0.17455937 0.031807683 -0.59652001 -0.28728658 0.74941999 0.050061654
0.41475677 0.17706664 0.038676526 -0.61131215 -0.32371688 0.72215289 0.044310611
0.42506823 0.17550249 0.034475911 -0.64531863 -0.26913896 0.7149322 0.045670349
0.4319686 0.17253837 0.039692525 -0.64426947 -0.27579534 0.71333987 0.043998409
-0.42333493 0.18765505 0.037825666 0.65580702 -0.29890928 0.69323182 0.041420732
-0.41832396 0.18651432 0.033030294 0.64626771 -0.28622207 0.70740014 0.041886959
-0.40594962 0.18527983 0.035087343 0.64033616 -0.25777033 0.72354954 0.047763903
0.40865168 0.18513742 0.036590442 -0.6104427 -0.32065684 0.72425061 0.046687342
0.42255217 0.18884212 0.036862895 -0.62305701 -0.301222 0.72184849 0.043356922
-0.42130029 0.1934237 0.03838693 0.65687883 -0.2742424 0.70235407 0.043251324
-0.41441107 0.19731022 0.033989642 0.66564935 -0.27099255 0.69532293 0.042595416
-0.40457138 0.19624871 0.038038291 0.64901859 -0.26386434 0.71354783 0.045350198
-0.39787585 0.1930677 0.03155978 0.59475249 -0.27783689 0.75437135 0.050995413
0.39802563 0.19690356 0.033113986 -0.6174438 -0.30891174 0.72342014 0.051420704
0.40629855 0.19420253 0.038432375 -0.63084656 -0.32032815 0.7066983 0.045422088
0.4143807 0.19333656 0.031932969 -0.62604445 -0.29800087 0.72059959 0.04446318
0.42340794 0.19009174 0.038138784 -0.62288916 -0.31869698 0.71445173 0.041087933
-0.41481796 0.20736276 0.038388018 0.65201384 -0.30769581 0.69296545 0.038198519
-0.40429935 0.20323291 0.03541705 0.60508758 -0.27877197 0.74575818 0.044885255
-0.39520037 0.20611957 0.034250524 0.550982 -0.30775821 0.77569556 0.043811504
0.39643544 0.20247251 0.034133486 -0.59301823 -0.28847331 0.75173962 0.047394309
0.40218428 0.20023623 0.037683934 -0.64882708 -0.2704401 0.71125633 0.044722017
0.4152776 0.20550627 0.038065344 -0.62821901 -0.31198013 0.71274775 0.044524062
-0.4121058 0.21046056 0.037287943 0.65029085 -0.31802371 0.689915 0.03687229
-0.4055911 0.21805318 0.034706004 0.60519838 -0.34348878 0.71815759 0.04503933
-0.38746646 0.21534054 0.031874646 0.5203197 -0.33251318 0.78657639 0.043954946
0.39511758 0.21485272 0.03811805 -0.60013038 -0.3393788 0.72433794 0.04706366
0.40283003 0.21444507 0.031479493 -0.66659993 -0.31193009 0.67701119 0.046624091
0.41175959 0.2143272 0.038983345 -0.64035189 -0.3014079 0.70647204 0.041477639
-0.40565485 0.22555898 0.038221836 0.58805275 -0.34339011 0.73230952 0.037950765
-0.39581951 0.22508773 0.033215411 0.58078003 -0.37635383 0.72183949 0.045822337
-0.38764846 0.22752947 0.037697032 0.54702967 -0.38202402 0.74485981 0.048218492
-0.37961167 0.22586331 0.030987933 0.53221822 -0.34850508 0.77154905 0.049143165
0.3783246 0.22985283 0.03117013 -0.56704229 -0.35271806 0.74434739 0.051176473
0.38263184 0.22490284 0.032506406 -0.55845767 -0.33354169 0.75952286 0.054784138
0.39600271 0.22778732 0.031593606 -0.59848601 -0.36400378 0.71366364 0.04521618
0.40684119 0.22568639 0.039837148 -0.64075285 -0.31561375 0.69987416 0.042974431
-0.40165558 0.2329229 0.038717933 0.55624557 -0.33946413 0.75852162 0.040593296
-0.39665765 0.23282936 0.034644216 0.55083376 -0.36601484 0.75007689 0.04661062
-0.38639396 0.23368326 0.037148423 0.55396903 -0.35727519 0.75197923 0.045399539
-0.37504384 0.23530352 0.032045022 0.54228729 -0.38576931 0.74639571 0.047487859
0.37640572 0.23599873 0.032860484 -0.56012934 -0.38624966 0.73284817 0.053459994
0.39756593 0.23464291 0.0359434 -0.58018345 -0.38161066 0.71955585 0.051586013
-0.39368019 0.24370182 0.037813146 0.55134332 -0.35570723 0.75464749 0.039800361
-0.37603438 0.24694832 0.038235631 0.55250978 -0.30623338 0.77521229 0.042153843
-0.36875719 0.24232912 0.030702123 0.55906153 -0.31845048 0.76553226 0.048182517
0.37234005 0.24441515 0.034176916 -0.54174984 -0.37785926 0.75081915 0.04661094
0.38771918 0.24856067 0.035118431 -0.55796266 -0.35055473 0.75218952 0.045706645
0.39079416 0.24730948 0.036835007 -0.59350783 -0.37749484 0.71080661 0.039925423
-0.39075577 0.25025323 0.038812205 0.57553434 -0.35477018 0.73681635 0.040801995
-0.38352609 0.25356251 0.034683235 0.57542205 -0.34169248 0.74305838 0.042150389
-0.36586571 0.25351766 0.033815417 0.54736114 -0.33697152 0.76605874 0.049218722
-0.35945335 0.25804681 0.031209331 0.53935069 -0.30971655 0.78305584 0.05272406
0.35971633 0.25539023 0.030655069 -0.51066375 -0.37612215 0.77314591 0.048904475
0.36378074 0.25405899 0.032894664 -0.53782058 -0.37393552 0.75559336 0.049372714
0.3752616 0.25687617 0.036382288 -0.5513317 -0.33924842 0.76219678 0.044170715
0.38626599 0.25613391 0.038134772 -0.55914885 -0.39872018 0.7268939 0.04122895
-0.38343251 0.26197961 0.038917888 0.59642231 -0.33396932 0.7298938 0.039733041
-0.37238392 0.26998436 0.034117155 0.54898643 -0.37778121 0.74558383 0.043834928
-0.36388004 0.26434413 0.03742709 0.54872113 -0.41572976 0.72530955 0.048049085
-0.35504517 0.26591283 0.032210495 0.49129966 -0.38310295 0.78221273 0.049670264
-0.34997627 0.26845518 0.030240564 0.4348428 -0.44070971 0.785294 0.048287187
0.35548678 0.26527607 0.032592069 -0.51742429 -0.33260635 0.78844476 0.049225725
0.36390111 0.26803818 0.033713065 -0.50296307 -0.33863103 0.79520887 0.047020175
0.37602156 0.26461795 0.034781806 -0.57842088 -0.35676846 0.73358399 0.043678295
-0.37282565 0.27604714 0.037903935 0.55832958 -0.41380882 0.71904826 0.042493947
-0.3661176 0.27557129 0.032703482 0.50846159 -0.42309606 0.74997097 0.045653205
-0.35423529 0.27164626 0.034885209 0.46263185 -0.41241667 0.78478295 0.051207367
-0.34789786 0.27614024 0.033160429 0.44733289 -0.42257336 0.7882418 0.047250569
0.35781252 0.27371579 0.038492907 -0.50195098 -0.38564384 0.77416027 0.044594396
0.36771774 0.27404705 0.033463158 -0.58699262 -0.37128186 0.71943688 0.048221946
0.37374696 0.27342495 0.0378327 -0.58776224 -0.38940215 0.70915538 0.04030529
-0.36448684 0.28668961 0.038323347 0.52283126 -0.4314639 0.73517781 0.041650411
-0.35698313 0.28684339 0.032926485 0.48440269 -0.43305346 0.76014388 0.043319631
-0.34338546 0.28593644 0.035633918 0.45797348 -0.42133117 0.78277737 0.046986848
-0.33732748 0.283905 0.030434322 0.47500902 -0.4364289 0.76413101 0.054242622
0.33737516 0.28948793 0.033407964 -0.49076298 -0.41288152 0.76725519 0.047072094
0.35890749 0.2866818 0.033523358 -0.52456486 -0.48347768 0.70077169 0.039383106
0.36062723 0.28420267 0.033490766 -0.52277976 -0.43084073 0.73557979 0.041200615
-0.35558954 0.29363167 0.036066502 0.48918971 -0.44308719 0.75124377 0.041316599
-0.34559816 0.29226249 0.034426492 0.48524424 -0.41325924 0.77055496 0.044689633
-0.33132282 0.29453927 0.032378115 0.49018219 -0.40257612 0.77308071 0.047316164
0.32960561 0.29934317 0.03423135 -0.49018222 -0.43849671 0.75328743 0.045621198
0.33406478 0.29436034 0.034156803 -0.47373751 -0.46477276 0.7480368 0.045326196
0.34728354 0.29738787 0.032054923 -0.50060874 -0.46725604 0.72874045 0.043779846
0.35432303 0.29677564 0.036608823 -0.52364516 -0.46506247 0.7138015 0.040801425
0.36082181 0.2931183 0.038817015 -0.50710839 -0.4730908 0.72043473 0.041451257
-0.3551304 0.30030704 0.039821081 0.5316624 -0.43829274 0.72473067 0.040102251
-0.34434333 0.30619884 0.035537858 0.48487714 -0.44404995 0.75346786 0.035894956
-0.33680204 0.30274412 0.034426328 0.48717695 -0.40783527 0.77222341 0.041402735
-0.32292503 0.30503541 0.032687347 0.48589313 -0.43027565 0.76076978 0.049380977
-0.31794924 0.30687439 0.030594612 0.45239824 -0.41344282 0.7901904 0.051745828
0.32743105 0.30404833 0.035612632 -0.49202746 -0.44601294 0.74765062 0.045539543
0.34580764 0.30714446 0.037315045 -0.49018115 -0.56026787 0.66769928 0.037003092
0.35038915 0.30342817 0.038137257 -0.50822955 -0.52814478 0.68026888 0.040995076
-0.33523279 0.31680435 0.035476889 0.47138509 -0.4996053 0.72676724 0.041481614
-0.32575607 0.31531739 0.034502521 0.4713707 -0.51992911 0.71237874 0.043993343
-0.31409824 0.31479123 0.033415306 0.43690088 -0.51317996 0.73875839 0.048430379
-0.30970573 0.31862557 0.033287376 0.40501341 -0.46640551 0.78640324 0.05027679
0.31774712 0.31732506 0.037225984 -0.47200412 -0.51276255 0.71713787 0.045636117
0.32294214 0.31390208 0.035464436 -0.47190261 -0.52414072 0.70893186 0.040741961
0.33394271 0.31418189 0.033516083 -0.49527681 -0.50142092 0.70942092 0.046442237
-0.33383203 0.32241589 0.038112443 0.46558887 -0.50166571 0.72908062 0.040769991
-0.32574508 0.32483837 0.034580033 0.45970431 -0.49290833 0.73872411 0.043536123
-0.31540191 0.32546887 0.036951054 0.47477624 -0.50556648 0.72040969 0.04316375
-0.30344364 0.32633796 0.034551147 0.44873348 -0.48562345 0.75020534 0.047168154
-0.29398108 0.32828486 0.03021108 0.43414342 -0.46027678 0.77438021 0.050438464
0.29773563 0.32554772 0.03030166 -0.43035871 -0.48704571 0.75998551 0.052647687
0.31249228 0.32249758 0.036911499 -0.48421714 -0.5205009 0.70328701 0.045125801
0.32269812 0.32644114 0.033523981 -0.48125365 -0.52327996 0.70325881 0.046892799
0.33485201 0.32034492 0.038133454 -0.51484638 -0.4947693 0.7000975 0.039484028
-0.3216098 0.33498418 0.039043657 0.42424783 -0.50217927 0.75354481 0.038360171
-0.31534511 0.33494198 0.03497038 0.45615295 -0.51772225 0.72380126 0.042969957
-0.30001199 0.33327386 0.036988162 0.42871183 -0.53038287 0.73136872 0.04840659
-0.29763484 0.33442241 0.036322422 0.4372834 -0.52982301 0.72668487 0.048501119
-0.28370729 0.33951804 0.031370252 0.4453662 -0.43793195 0.78093821 0.055215489
0.28671661 0.33719674 0.031924151 -0.43201622 -0.49095362 0.75652266 0.051067539
0.29827359 0.3338989 0.036199611 -0.42220566 -0.5086922 0.75031632 0.047909427
0.30746907 0.33618182 0.033556268 -0.46765262 -0.49178469 0.73447186 0.042433821
0.3144007 0.33721954 0.035350658 -0.48490939 -0.46562874 0.7403059 0.046146303
0.32354403 0.33213127 0.037791423 -0.4850648 -0.49689281 0.71958989 0.047123548
-0.30618572 0.34436044 0.035679683 0.46237901 -0.45781863 0.7593469 0.0463061
-0.29497746 0.34437868 0.03706025 0.47699586 -0.4775075 0.7378763 0.046759155
-0.28505495 0.34445396 0.035344765 0.4889515 -0.45939681 0.7415396 0.049820583
-0.27667186 0.34727108 0.032435015 0.41603774 -0.48080108 0.77184385 0.050313193
0.26954526 0.34993696 0.030825479 -0.38438588 -0.47169104 0.79357105 0.056523331
0.27525756 0.34828588 0.032924555 -0.38701567 -0.48295584 0.78547597 0.053724151
0.28273007 0.34350073 0.033911299 -0.42242393 -0.51767969 0.74402004 0.055561874
0.29664922 0.34519255 0.032887433 -0.43847555 -0.51684731 0.73526049 0.042501342
0.30459046 0.34476247 0.034858763 -0.4500351 -0.50890607 0.73381406 0.042797148
-0.30155364 0.35017943 0.036780819 0.47419858 -0.4848097 0.73491174 0.045318384
-0.29536581 0.35426939 0.035661951 0.50194126 -0.47364521 0.72368175 0.046189129
-0.28177708 0.35914946 0.031007051 0.39756286 -0.52362484 0.75349909 0.048669316
-0.27262646 0.35698324 0.037352975 0.40079454 -0.50844765 0.76213169 0.047927227
-0.26315224 0.35529232 0.031386804 0.40341744 -0.50569552 0.76257879 0.052133247
-0.2581141 0.35952497 0.031885885 0.37781689 -0.51114988 0.77199763 0.052431781
0.25918862 0.35751936 0.03031772 -0.3600305 -0.49252337 0.79233754 0.050583865
0.26530936 0.35510507 0.031911563 -0.35393199 -0.48044211 0.8024385 0.048861936
0.27190691 0.35311449 0.034279905 -0.39432782 -0.48174953 0.78257459 0.051003534
0.28589344 0.35631412 0.031854693 -0.39909482 -0.53103113 0.747482 0.045276653
0.29821163 0.35025865 0.034971844 -0.45542428 -0.51065439 0.72926044 0.042908918
0.30161959 0.35052973 0.037258387 -0.45751262 -0.51659566 0.72374803 0.040715754
-0.28463861 0.36321926 0.035755582 0.44354928 -0.5429908 0.71303934 0.04706667
-0.27722681 0.36711347 0.034734808 0.42008492 -0.55420381 0.71860057 0.043588307
-0.26356119 0.36660886 0.039688945 0.40358001 -0.55728215 0.72564447 0.04703933
-0.25453803 0.36410746 0.033369284 0.38147163 -0.52788895 0.75882322 0.048157707
-0.24303243 0.36872739 0.030898489 0.36710995 -0.53241253 0.76273662 0.051497679
0.25189841 0.36532992 0.032660559 -0.36490494 -0.49731591 0.78709674 0.04235474
0.26370075 0.36084509 0.035005312 -0.35777444 -0.51979339 0.77576566 0.047604319
0.27686039 0.36410752 0.036296479 -0.41797614 -0.54664415 0.72558671 0.039832771
0.28383794 0.36378133 0.036059193 -0.40468118 -0.55398935 0.72754997 0.038810842
-0.27851975 0.37163812 0.038978755 0.4276827 -0.55896747 0.71038228 0.041528247
-0.26967582 0.37500858 0.036763668 0.38473138 -0.5701896 0.72585499 0.043693755
-0.25645393 0.37385488 0.035028093 0.34240165 -0.60982388 0.71475589 0.042489029
-0.24430783 0.37449348 0.035664465 0.35364729 -0.59328306 0.72315198 0.043697227
-0.23237357 0.37891883 0.032839235 0.33027953 -0.58686602 0.73925889 0.044567928
0.22998598 0.37755695 0.031404659 -0.35019022 -0.53991622 0.76541311 0.052356057
0.24407184 0.37377116 0.035217054 -0.34870696 -0.52682889 0.77514827 0.045138914
0.2541537 0.37694821 0.034019567 -0.37292612 -0.54889137 0.74809378 0.042177416
0.2641575 0.37439945 0.032756373 -0.40254077 -0.55101407 0.73098862 0.042995751
0.27082151 0.37719044 0.038416632 -0.41937256 -0.53887057 0.7305786 0.037295282
-0.26096791 0.38316002 0.038358495 0.36745873 -0.57036602 0.73461324 0.042401768
-0.25393102 0.38466868 0.035679437 0.35656023 -0.57558507 0.73591208 0.039793447
-0.24470732 0.38692424 0.032385148 0.34514296 -0.61309916 0.7106235 0.041279703
-0.23554255 0.38442901 0.038524587 0.3589631 -0.56750727 0.741 0.04298069
-0.22661054 0.38339433 0.033788323 0.33004034 -0.60775065 0.72229671 0.046767898
-0.21679227 0.38498959 0.031054534 0.3134203 -0.58509076 0.74795496 0.04819252
-0.20939922 0.38954195 0.031592805 0.33704257 -0.57980543 0.74177355 0.04765274
0.22333217 0.38584012 0.034394532 -0.35783213 -0.60821146 0.70854425 0.046088774
0.23010439 0.38061756 0.033717737 -0.36805707 -0.53331846 0.76164651 0.046524409
0.24388048 0.3859008 0.031637847 -0.3521134 -0.59229445 0.72470921 0.044361304
0.25562635 0.38481012 0.036773659 -0.39790338 -0.58783895 0.70435667 0.039694645
0.26387367 0.38168299 0.038477741 -0.41864321 -0.56233776 0.7131018 0.038468804
-0.24787365 0.39271301 0.038643681 0.35410914 -0.58770502 0.72746783 0.038222861
-0.232224 0.39713335 0.034509659 0.32797331 -0.61742151 0.71499938 0.040299006
-0.22552808 0.39291549 0.03662366 0.30619588 -0.60563505 0.73447269 0.040369265
-0.21376659 0.39499483 0.037584107 0.38396138 -0.58841759 0.71157455 0.045542687
-0.20743649 0.39432397 0.034504712 0.35722196 -0.58466983 0.72839117 0.044388395
0.197827 0.39599615 0.031823877 -0.28207141 -0.62560219 0.72736347 0.045357905
0.20330857 0.3968347 0.034508988 -0.31209937 -0.63021678 0.71092957 0.046942394
0.21397781 0.39232862 0.034951974 -0.39230135 -0.6001817 0.697052 0.047127686
0.23750019 0.39422122 0.035072815 -0.35697469 -0.59200257 0.72256631 0.041737951
0.24525517 0.39257619 0.03771859 -0.33183372 -0.59848434 0.72917956 0.041307215
0.25169098 0.39097553 0.039724655 -0.36064267 -0.60389817 0.71080506 0.043330982
-0.22448565 0.40332237 0.036329791 0.31731334 -0.61840647 0.71894759 0.041548349
-0.21558261 0.40451911 0.033411451 0.38761818 -0.57876348 0.71748513 0.040370736
