# .PCD v0.7 - Point Cloud Data file format
VERSION 0.7
FIELDS x y z normal_x normal_y normal_z curvature
SIZE 4 4 4 4 4 4 4
TYPE F F F F F F F
COUNT 1 1 1 1 1 1 1
WIDTH 584
HEIGHT 1
VIEWPOINT 0 0 0 1 0 0 0
POINTS 584
DATA ascii
-0.10424514 -0.37427077 0.015350622 0.22596875 0.80242932 0.5523091 0.0021155353
-0.0951804 -0.3760334 0.014780012 0.18156737 0.81983352 0.54305273 0.0020679296
-0.082504429 -0.376479 0.013185877 0.12267385 0.82542694 0.55101848 0.0015639492
-0.077177614 -0.37720236 0.013214675 0.11579327 0.82676202 0.5505057 0.0016157373
-0.059863195 -0.37848336 0.011913373 0.099076711 0.81847256 0.56593859 0.0010350487
0.045098402 -0.37906265 0.010135112 -0.10170452 0.80549389 0.58381134 0.00057235116
0.060304217 -0.37794036 0.011281401 -0.1117055 0.8106854 0.57472694 0.0010908798
0.077842146 -0.37851602 0.015040659 -0.11739236 0.83304399 0.54060781 0.0018085375
0.089246154 -0.37964797 0.018472482 -0.16419728 0.84154212 0.51463199 0.0019669903
0.099792287 -0.37234637 0.010773707 -0.22040807 0.79086792 0.57091886 0.0018088501
0.1042489 -0.37361878 0.014560743 -0.23822112 0.79867184 0.55260652 0.0019022793
0.11570817 -0.37207073 0.018445071 -0.29581109 0.79725474 0.52619463 0.0021013587
0.22292195 -0.37750083 0.014341416 -0.48449722 0.77823764 0.39951059 0.0022245971
-0.24294403 -0.3618046 0.013698725 0.55972916 0.73132664 0.38969791 0.00021381144
-0.23801973 -0.36875516 0.019826533 0.55397069 0.73612595 0.38888949 0.00029888874
-0.12469363 -0.36303821 0.011995758 0.31366378 0.75560778 0.57504088 0.00071909226
-0.11653958 -0.36696222 0.012659457 0.29938999 0.76735717 0.56703496 0.0011544388
0.12160239 -0.36388615 0.011470591 -0.30686224 0.75537866 0.57899797 0.00080084975
0.1342788 -0.36113805 0.014509803 -0.31584138 0.75621122 0.57305223 0.0012983743
0.23549227 -0.36680546 0.012313322 -0.54770815 0.71985728 0.42640501 0.00085868628
0.24000441 -0.36690602 0.019196173 -0.55945325 0.72636133 0.39926341 0.00043122564
-0.24861401 -0.35614693 0.011173894 0.55017233 0.71949703 0.4238331 0.0017273119
-0.16333054 -0.35210091 0.018148724 0.31732768 0.79404253 0.51845884 0.0020129597
-0.15464592 -0.35428184 0.016428711 0.31293043 0.78688818 0.53186595 0.0019515804
-0.1436584 -0.35765916 0.015003195 0.31217298 0.76270634 0.56641603 0.00075707614
-0.13193552 -0.35903895 0.010781862 0.32035741 0.75788391 0.56831598 0.00087554049
0.14650318 -0.35669565 0.015264074 -0.34443903 0.77276438 0.53310126 0.0017159736
0.15454766 -0.35294458 0.014755334 -0.3243838 0.77452058 0.54304057 0.0015692274
0.24646273 -0.3588264 0.01316115 -0.55344617 0.71468592 0.42769304 0.0008386657
0.25118357 -0.35452303 0.011845575 -0.54031074 0.71932507 0.43661854 0.0011283497
-0.26411971 -0.34464785 0.011944422 0.5646047 0.72189772 0.40010652 0.00073214655
-0.2590448 -0.34905326 0.012932206 0.5449605 0.730407 0.41173261 0.0010546449
-0.18126687 -0.34217882 0.015121669 0.35678035 0.7694338 0.52979195 0.0017664819
-0.17540357 -0.34612194 0.016960878 0.33893734 0.78897196 0.51248866 0.0018503848
-0.16547188 -0.34941986 0.015970025 0.32578444 0.77296519 0.54441643 0.0020229812
0.26183677 -0.34813535 0.015297429 -0.55141181 0.72563082 0.41158831 0.00071253243
-0.20427141 -0.33194238 0.018013939 0.47549337 0.69537073 0.53885579 0.0018486492
-0.19561821 -0.33636302 0.015819434 0.42582273 0.72341222 0.54346091 0.0021556471
0.18594305 -0.33754167 0.011842459 -0.38411331 0.71989334 0.57810938 0.0014690214
0.19429132 -0.33633751 0.015062381 -0.42364508 0.71776634 0.55257237 0.0018932716
0.2753078 -0.33654091 0.012867667 -0.54213965 0.72502667 0.42475981 0.0013374191
-0.29330033 -0.32461089 0.016492222 0.56117183 0.72236133 0.4040795 0.00053019827
-0.22061142 -0.32079685 0.019466167 0.52736276 0.67996746 0.50944346 0.0025466047
-0.2101137 -0.32620803 0.016708927 0.50763005 0.67569697 0.53455162 0.0014885903
-0.20062074 -0.32879001 0.011805257 0.44845617 0.68619746 0.5727303 0.0013703759
0.20725754 -0.32675356 0.01499234 -0.4849478 0.66487414 0.5681268 0.00097700558
0.21398444 -0.32220826 0.015635205 -0.50419414 0.66568881 0.55013335 0.0012823624
0.28655711 -0.32828739 0.013598725 -0.55255997 0.72915792 0.40374035 0.00042098816
0.29214084 -0.32680833 0.019018443 -0.56476206 0.72780728 0.38902488 8.8843313e-05
-0.3111904 -0.31004083 0.015381298 0.65388119 0.63473099 0.4117716 0.0021070612
-0.30386105 -0.31536457 0.014284571 0.61532426 0.67103392 0.41362974 0.0021006921
-0.29787245 -0.31921965 0.012854671 0.57909161 0.69455898 0.42689675 0.0016668533
-0.22153237 -0.31664819 0.015876742 0.50611377 0.66891074 0.54443312 0.0014024867
-0.2158688 -0.3187356 0.01352164 0.50237638 0.66176152 0.55649775 0.0015410217
0.21456721 -0.31861934 0.012358841 -0.49952555 0.65387684 0.56825984 0.00078416336
0.22287217 -0.31858367 0.018967267 -0.51629806 0.67553121 0.52639699 0.0021263114
0.30220675 -0.31807113 0.017060844 -0.58099705 0.71027398 0.39743343 0.00064437295
-0.3173137 -0.30158198 0.014671594 0.69162446 0.60054225 0.40125376 0.0012146871
-0.24616882 -0.30093351 0.01920291 0.52256036 0.68100321 0.51299644 0.0022162872
-0.237643 -0.30413079 0.015714839 0.51066095 0.66051823 0.55040085 0.0015759286
-0.2266278 -0.30961463 0.012619256 0.51347011 0.65821207 0.55054998 0.0016594102
0.22808643 -0.30643821 0.010473974 -0.493523 0.64234596 0.58636743 0.00069101702
0.23533899 -0.30522579 0.0150131 -0.50510907 0.6553151 0.56162882 0.0012501569
0.31320447 -0.30839753 0.016836122 -0.65956903 0.64185506 0.39114028 0.0018990623
-0.32260808 -0.29793006 0.019486155 0.71697837 0.57733238 0.39067808 0.00045701698
-0.25176418 -0.29055801 0.012860364 0.49270433 0.64963174 0.57898277 0.00083833089
-0.24339171 -0.29818693 0.014116441 0.50313926 0.66215914 0.55533433 0.0015358187
0.24759436 -0.29420468 0.013326573 -0.50012916 0.66189212 0.55836338 0.0013855172
0.25709444 -0.2910977 0.017688468 -0.51634043 0.67576247 0.52605861 0.0021946616
0.3222219 -0.29576537 0.015531071 -0.72225922 0.56551361 0.39816576 0.00038737498
-0.33206257 -0.28103265 0.012702634 0.73051035 0.54409832 0.41268823 0.00085979659
-0.32891649 -0.28679872 0.015172355 0.73038363 0.55607766 0.39663237 0.00035696098
-0.26532844 -0.28360438 0.016462967 0.53796828 0.64800882 0.53914255 0.0024149735
-0.25769341 -0.2891553 0.016142122 0.51642281 0.66052204 0.5449937 0.0019197442
0.25548229 -0.288614 0.013808339 -0.49875423 0.66061729 0.56109625 0.0015395627
0.2667962 -0.28166124 0.015611082 -0.55011588 0.62453353 0.55437392 0.0022581818
0.27137804 -0.28121656 0.018813759 -0.5717057 0.63344669 0.5214383 0.0034627619
0.32672125 -0.28677982 0.010903358 -0.72095519 0.55168289 0.41936803 0.0011176671
0.3314352 -0.28338397 0.014976148 -0.72111446 0.55532897 0.41425079 0.0010093144
-0.3355864 -0.27702129 0.013563833 0.72502691 0.55234915 0.41139567 0.00086891919
-0.27350748 -0.27412015 0.013516667 0.58652633 0.59111029 0.55369258 0.0022456818
-0.26406202 -0.27846673 0.010091812 0.52637291 0.61255354 0.58966917 0.0013853012
0.2690883 -0.2746155 0.010097681 -0.56478781 0.58774626 0.5792833 0.0020708239
0.27236599 -0.2778517 0.016095348 -0.57610464 0.61153805 0.54233265 0.0031536338
0.33756724 -0.27316839 0.011679003 -0.71912932 0.55271667 0.42113817 0.0010693858
-0.27884763 -0.26692998 0.012783945 0.62057662 0.54062265 0.56798923 0.0018205534
0.28679791 -0.26418751 0.018880354 -0.67181009 0.53029561 0.5171631 0.0018702218
0.34656358 -0.26514533 0.017165622 -0.73143941 0.55808067 0.3918449 0.00021526124
-0.35462245 -0.25284624 0.014502506 0.7279101 0.55986041 0.3958576 0.00037806723
-0.29120326 -0.25204301 0.013756348 0.65451962 0.49356547 0.57271039 0.00086616183
-0.28652051 -0.25603747 0.012069374 0.64552385 0.50046253 0.57691956 0.00082118146
0.2884925 -0.25231475 0.011146983 -0.64788014 0.5031895 0.57188427 0.00088234909
0.2926141 -0.25394511 0.016749742 -0.66937858 0.52355248 0.52709126 0.0020164626
0.35578942 -0.25381321 0.018190192 -0.72865754 0.55405241 0.40259671 0.00040798346
-0.35656685 -0.24916774 0.012805942 0.72743291 0.55433422 0.40441921 0.00045480742
0.29739019 -0.24450961 0.014180174 -0.6501168 0.50995076 0.56329244 0.00092948263
0.35870647 -0.24640456 0.012843199 -0.72325265 0.5603658 0.40360352 0.00034771732
-0.36750606 -0.23565277 0.013904807 0.73534977 0.53858894 0.41131812 0.00082320819
-0.30448842 -0.23636386 0.015064195 0.66019166 0.51049399 0.55094719 0.0018955508
0.31070364 -0.23100409 0.017256845 -0.66761178 0.50822455 0.54406089 0.0015859458
0.37193727 -0.23202372 0.017085657 -0.74335277 0.53919953 0.39584157 0.00060578465
-0.38069671 -0.22070768 0.017233085 0.8019973 0.44446295 0.39906505 0.0021890325
-0.37608966 -0.2249099 0.014562179 0.76952857 0.48150179 0.41950202 0.0019499342
-0.32158446 -0.2202217 0.019975672 0.68237096 0.52948761 0.50399679 0.0025904623
-0.31638664 -0.22675113 0.019780055 0.68851477 0.52151823 0.50395048 0.002992891
0.31099519 -0.2297623 0.016567199 -0.6614145 0.51118326 0.54883736 0.001671922
0.37475306 -0.22625282 0.013970753 -0.76759547 0.50337023 0.39675629 0.0017728291
-0.38201308 -0.21456745 0.013970442 0.79413998 0.42353675 0.43584213 0.0021647264
-0.32055002 -0.21938077 0.018224064 0.68470627 0.51683331 0.51386833 0.0024881309
0.3166948 -0.2153962 0.011015175 -0.64649498 0.49639109 0.57934451 0.00063531805
0.32248074 -0.21482922 0.016595338 -0.67025989 0.51743859 0.53198594 0.0019707312
0.38344243 -0.21290356 0.015635554 -0.8190189 0.40416238 0.40726006 0.0017912405
-0.38695249 -0.2046221 0.015815061 0.83880138 0.36245391 0.40625039 0.00075510418
-0.32550907 -0.20418474 0.011235664 0.66291672 0.47776452 0.57643962 0.00094069267
0.32451862 -0.20748954 0.012847304 -0.66525465 0.49210054 0.56149197 0.0013250324
0.33265552 -0.20540874 0.019667707 -0.71150529 0.49303958 0.50067174 0.0019471683
0.38596708 -0.20455046 0.013531297 -0.83705235 0.35751334 0.41415882 0.0012499843
-0.39079246 -0.19387487 0.014438914 0.84736818 0.35339656 0.39633065 0.0003891158
-0.3885572 -0.19858754 0.01380178 0.83842945 0.36367327 0.40592828 0.00076893013
-0.33828938 -0.19427957 0.017314442 0.74855757 0.38965058 0.53650159 0.0028169991
-0.3295188 -0.19920972 0.011436182 0.68284625 0.44498837 0.57940167 0.0018603951
0.33384666 -0.19778074 0.014805954 -0.71341836 0.43923187 0.54599404 0.0018476489
0.3929022 -0.19434077 0.01961931 -0.85301906 0.35126635 0.38596696 0.0001129069
-0.33812794 -0.18675785 0.012964338 0.75076228 0.35948455 0.55419022 0.0022307017
0.33759657 -0.18500555 0.011437615 -0.73902369 0.36320528 0.56738514 0.0011401781
0.34118041 -0.18910551 0.01785225 -0.75605261 0.38142619 0.53188205 0.0018022585
0.39510718 -0.18619978 0.016993729 -0.85191077 0.35218066 0.38757801 0.00015862327
-0.39631727 -0.17883569 0.012853751 0.83405447 0.34864026 0.42755482 0.001483615
-0.34593758 -0.17144279 0.014744586 0.77555412 0.31964457 0.54437405 0.0018468073
0.34470761 -0.17506009 0.015070468 -0.75678611 0.33579341 0.56081867 0.00078705687
-0.40330541 -0.16307649 0.013889641 0.85182804 0.35053724 0.38924623 5.1702584e-05
-0.34935442 -0.16517678 0.015742082 0.78147966 0.32627389 0.53182232 0.0017950025
0.3469201 -0.16445401 0.012422209 -0.759987 0.32300049 0.563995 0.0014472022
0.35181153 -0.16176638 0.017010467 -0.78477734 0.32374993 0.52849835 0.0024646502
0.40125573 -0.16436264 0.010476955 -0.84361392 0.33367437 0.42068624 0.0013859298
-0.40596646 -0.15776598 0.014927636 0.85141337 0.35129279 0.38947213 0.00016997628
-0.35416573 -0.15645643 0.017198455 0.78262049 0.33581439 0.52415061 0.0020227476
-0.34890863 -0.1561956 0.010682962 0.75484329 0.32017457 0.57245082 0.00097921712
0.34927076 -0.15839015 0.01222663 -0.76752228 0.31206927 0.55993062 0.0016468322
0.3551622 -0.15379506 0.017069805 -0.78357244 0.32206184 0.53131014 0.0030682194
0.40683615 -0.15388082 0.013263799 -0.84746981 0.3407335 0.40705717 0.00078186265
-0.41283685 -0.14266145 0.016308669 0.84509122 0.35735306 0.39764276 0.00042508062
-0.35755929 -0.14340064 0.014752222 0.77154243 0.32913992 0.54441631 0.0018992098
0.36025828 -0.14635594 0.019516474 -0.79371834 0.32329062 0.51526135 0.0022117274
0.41029215 -0.14633527 0.014007349 -0.84272784 0.35186854 0.40742913 0.00074933609
-0.36520785 -0.13066156 0.017632654 0.79041916 0.32261586 0.52072704 0.0025634521
0.41617265 -0.13410588 0.015840692 -0.85027188 0.34844968 0.39448762 0.00029225639
-0.42001301 -0.12213817 0.013328159 0.86153108 0.29137859 0.41576776 0.0018168518
-0.41800573 -0.1252211 0.011685282 0.85704952 0.31056172 0.4111174 0.0013222821
-0.3643769 -0.12533642 0.013944861 0.77466965 0.33159158 0.53845519 0.0018766585
0.36620152 -0.12308412 0.015027648 -0.76839834 0.30502668 0.56260353 0.00095040142
0.41894686 -0.12330216 0.012014315 -0.85713184 0.29407465 0.42290094 0.0019807653
-0.42308757 -0.11674181 0.01521633 0.8786447 0.26313716 0.3984246 0.001647124
-0.37147081 -0.11682117 0.018276365 0.80173862 0.31216219 0.50967628 0.0023941491
-0.36641809 -0.11583775 0.011645576 0.76481521 0.29828301 0.57103848 0.00090025971
0.37175429 -0.11125083 0.015818568 -0.79413766 0.27253363 0.54320419 0.0015953474
0.42295715 -0.11680459 0.014981391 -0.87697995 0.25496525 0.40730691 0.0023194763
-0.42518854 -0.10539043 0.014607897 0.89370579 0.20020427 0.40150738 0.0012103668
-0.37681818 -0.1017208 0.01717994 0.81611609 0.21822429 0.5351007 0.0026544782
0.37319371 -0.10802259 0.015942689 -0.80405474 0.25780764 0.53575295 0.0017847151
0.42413634 -0.10528259 0.012033273 -0.89161956 0.16665517 0.42099947 0.0015233193
-0.42564449 -0.09376651 0.012014151 0.90021229 0.14231926 0.41153753 0.00058248115
-0.37552705 -0.092863344 0.013722651 0.82081652 0.16414495 0.54709846 0.0020050667
0.37625787 -0.092376493 0.01459144 -0.82406938 0.16251294 0.54267782 0.0013397877
0.42570874 -0.096084267 0.012905934 -0.9010253 0.14044276 0.4104014 0.00099000835
-0.42765155 -0.084941775 0.014054696 0.91077447 0.11755548 0.39581624 0.00035803518
-0.38041884 -0.082819089 0.01837441 0.83689332 0.12024292 0.53399557 0.0014309945
0.37555981 -0.087206513 0.012794677 -0.82056266 0.15011719 0.55149049 0.0011703465
0.42820275 -0.082297318 0.014544986 -0.9044832 0.11347102 0.41113794 0.00084970857
-0.43023235 -0.072925411 0.016466018 0.91094786 0.12339468 0.39363411 0.00022491637
-0.429037 -0.073873051 0.013881471 0.90749544 0.11738415 0.40332729 0.00085513812
-0.37715119 -0.073455371 0.012509344 0.83214182 0.10796022 0.54395282 0.0014730241
0.37858891 -0.074649334 0.014587787 -0.82680064 0.11443191 0.55073225 0.0014108469
0.38204226 -0.07445474 0.019054893 -0.84745818 0.12828439 0.51512885 0.0015252131
0.42768842 -0.078898355 0.01222291 -0.89775515 0.10872114 0.42686707 0.0013711604
-0.43235379 -0.065313429 0.019168377 0.91569215 0.12117139 0.38317803 7.332422e-05
-0.42889562 -0.063871816 0.010361386 0.90385544 0.12175123 0.41014883 0.00090237759
-0.3790496 -0.065097243 0.013549399 0.83136523 0.11823095 0.54300392 0.0012928999
0.37793297 -0.066233478 0.012289027 -0.81855279 0.10909147 0.56397736 0.0011536739
0.38180012 -0.066889539 0.01744134 -0.82951677 0.11676307 0.54613942 0.0015810073
0.43049425 -0.064953744 0.014564666 -0.90309304 0.12315013 0.41140863 0.00092805602
-0.43018746 -0.054405447 0.010471452 0.90256757 0.12167775 0.41299683 0.00090432318
-0.38194251 -0.056302994 0.015810588 0.82851148 0.11923819 0.54712969 0.0013174639
0.37835917 -0.055768989 0.011049074 -0.80384374 0.11537901 0.58354336 0.00074880657
0.38391414 -0.058435868 0.018746018 -0.84599131 0.11260216 0.52117133 0.0022634002
-0.43348706 -0.042392973 0.014619309 0.9094972 0.11652254 0.39904553 0.00028821229
-0.38220564 -0.0440295 0.014047732 0.82058638 0.10161459 0.56241661 0.0011951561
0.37986732 -0.047692399 0.011628814 -0.81526792 0.10594085 0.5693109 0.0011243628
0.38449606 -0.048221007 0.017751805 -0.83069468 0.10509218 0.54671925 0.0011041065
0.43450534 -0.043126997 0.017310927 -0.91101778 0.11949702 0.39467344 0.00053304381
-0.43487921 -0.034481455 0.01546561 0.90657884 0.11463153 0.40617055 0.00059745769
-0.38223031 -0.037746333 0.013001874 0.82017714 0.10615533 0.5621748 0.0013333538
0.38745335 -0.03751114 0.019768309 -0.85909426 0.10299199 0.50134784 0.0027672939
0.43545082 -0.031438272 0.015878458 -0.90434432 0.10820754 0.41285905 0.0011117861
-0.38362521 -0.020543976 0.011868267 0.81820476 0.099649921 0.56622517 0.0010077587
0.38680777 -0.025312256 0.016833978 -0.8414064 0.1081517 0.52947009 0.0023178055
0.43637615 -0.023772281 0.015675832 -0.90080231 0.11354101 0.41912255 0.001173151
-0.43810326 -0.012816517 0.016363259 0.90995049 0.069698989 0.40881795 0.0012953412
-0.38622653 -0.012164865 0.013820732 0.82230777 0.070855245 0.56461442 0.0014269918
0.38806131 -0.015227264 0.01673732 -0.84455287 0.077710405 0.52980328 0.0023931051
0.43585023 -0.018422166 0.012705725 -0.89941323 0.11375098 0.42203861 0.0011065359
-0.38872641 -0.00080076262 0.015128925 0.83088249 0.0037103798 0.55643553 0.002332594
0.38765606 -0.00041837851 0.013668406 -0.83187008 0.0073307469 0.55492198 0.0024378758
0.39071453 -0.0037256973 0.018221715 -0.84702998 0.027893582 0.53081268 0.0024669305
-0.4399232 0.0076328442 0.019109394 0.91548252 -0.044645552 0.39987317 0.0014243637
-0.39057893 0.0046116142 0.018196976 0.84541738 -0.037623696 0.53277951 0.0028737653
-0.38869059 0.0037822656 0.01559377 0.82880878 -0.020914357 0.55914092 0.002507996
0.38854724 0.0085240733 0.016220519 -0.83690923 -0.044777475 0.54550701 0.002141814
0.43727314 0.00060539576 0.010478059 -0.90953428 -0.0018238232 0.41562498 0.0017187388
-0.437594 0.014374418 0.015628928 0.90664226 -0.063053466 0.41716194 0.0011767338
-0.38508534 0.015458883 0.012898743 0.82041085 -0.0770275 0.56656229 0.0017159915
0.38612589 0.013315261 0.013886956 -0.81471997 -0.082252808 0.57399112 0.0012826324
-0.43593466 0.022155724 0.014096228 0.90297824 -0.10368168 0.41698971 0.0007793571
-0.38489798 0.024901791 0.014274704 0.83048332 -0.11045495 0.54598278 0.0016942704
0.38616595 0.021681923 0.015374643 -0.82111204 -0.10988711 0.56008923 0.001102598
0.43674153 0.022138637 0.016038705 -0.90767115 -0.11057735 0.40485266 0.0005992513
-0.43395135 0.033421267 0.012888647 0.9103207 -0.12145305 0.39568344 0.00015456356
-0.38238683 0.03331764 0.012446038 0.81783575 -0.10676865 0.56546021 0.0012377807
0.38200313 0.037749108 0.012706267 -0.81912541 -0.10080443 0.56468761 0.0014680236
0.43436709 0.037483346 0.015183422 -0.90852314 -0.12460488 0.39882228 0.00027070945
0.38173681 0.044405915 0.013501324 -0.81768239 -0.10392278 0.56621158 0.0013143128
0.43262827 0.043457415 0.012884261 -0.90165508 -0.11778704 0.41610599 0.00093809434
-0.38410416 0.053993985 0.01823161 0.84497249 -0.11884777 0.52143717 0.0018576969
-0.37865099 0.050480053 0.010521999 0.80243999 -0.10788295 0.58689976 0.00034099782
0.37922198 0.050153587 0.011210069 -0.81323552 -0.09957137 0.57335293 0.001097262
0.38314539 0.055679165 0.017271176 -0.83626682 -0.10454565 0.53826398 0.0024660481
0.4309479 0.053155582 0.011909962 -0.90556407 -0.11826248 0.40739146 0.0006061194
-0.43211722 0.060451426 0.01705179 0.90905035 -0.12303456 0.39810792 0.00037084098
-0.38265628 0.063722163 0.01801374 0.84487689 -0.10594548 0.52436495 0.0022737342
-0.37754381 0.063967973 0.011393216 0.81816757 -0.10697433 0.56494099 0.0011598984
0.38326931 0.064904965 0.019015573 -0.85113728 -0.10846312 0.51361573 0.0026775438
0.42992473 0.060241062 0.01169184 -0.90612686 -0.11550265 0.40693158 0.00070062833
0.43195188 0.064910516 0.018069971 -0.91238415 -0.11871878 0.39174098 0.00036796919
-0.43141955 0.071937039 0.019018173 0.91051579 -0.11638957 0.39675492 0.00028175622
-0.42861712 0.078243315 0.014256836 0.90748018 -0.11058862 0.40527749 0.00069772085
-0.38012692 0.070938766 0.015955577 0.83037078 -0.10314339 0.54758179 0.001844487
0.37774578 0.076256923 0.013764862 -0.81716174 -0.10926493 0.56595737 0.0011835735
0.38200977 0.076653339 0.019389812 -0.84054917 -0.105265 0.53140974 0.0023246654
0.42868704 0.079432152 0.014803451 -0.90512335 -0.12129233 0.40747985 0.00058456208
-0.43010515 0.083256461 0.01944264 0.91246098 -0.11434264 0.39286217 0.00028901681
-0.42793381 0.084600031 0.014627601 0.90765285 -0.11741051 0.4029654 0.00044331333
-0.37383217 0.087598696 0.010610498 0.80945301 -0.14163531 0.56984687 0.0014103655
0.37967509 0.087835647 0.01826576 -0.83158368 -0.15660122 0.53286463 0.0022494851
0.42671609 0.086742029 0.012368524 -0.9042511 -0.1200837 0.40976804 0.00069495616
-0.42639321 0.097201377 0.01491335 0.90270972 -0.15074147 0.40297902 0.00085334911
-0.3777737 0.092499629 0.016588092 0.81953502 -0.1700234 0.54722422 0.0016525635
0.37535939 0.093355902 0.013588523 -0.80089194 -0.17697845 0.57205838 0.0024370998
0.42705536 0.095109135 0.01584693 -0.90751076 -0.11632662 0.40359911 0.00072232058
-0.42465681 0.10572667 0.013431061 0.89625293 -0.18147594 0.40471876 0.0014442343
-0.37520772 0.10199767 0.015400155 0.80541992 -0.22192314 0.54958987 0.0021692971
0.36991027 0.10765783 0.011771799 -0.78030413 -0.26817104 0.56498647 0.001749941
0.37649885 0.10395456 0.017910225 -0.81104392 -0.24767177 0.52996826 0.0027802507
0.42618173 0.10769534 0.01773821 -0.90779203 -0.1751927 0.38107881 0.0015678018
-0.42321405 0.11739665 0.01611116 0.87604594 -0.25151598 0.41144043 0.0017224328
-0.37341228 0.11488554 0.019660465 0.80615699 -0.29976559 0.51014847 0.0023377107
-0.36869335 0.11881751 0.015907597 0.77736467 -0.3081938 0.5483802 0.0014743174
0.36708695 0.11389513 0.011480575 -0.76612842 -0.28509858 0.57599145 0.0014312518
0.42515576 0.11481361 0.018663419 -0.88582909 -0.24521768 0.39392272 0.0023848799
-0.42073357 0.12525909 0.017857477 0.86423594 -0.30149388 0.40273771 0.0011802359
-0.41579866 0.12956375 0.010766636 0.8367306 -0.32639828 0.43971124 0.0011214693
-0.36523047 0.12503336 0.01482897 0.77573359 -0.31426987 0.54724014 0.001545453
0.36370847 0.12217063 0.011540557 -0.76188558 -0.32024521 0.5630039 0.001332139
-0.41690984 0.1350316 0.018361755 0.85225904 -0.35396209 0.38518229 7.7503442e-05
0.35735065 0.1399208 0.012748373 -0.7664718 -0.30435926 0.56558496 0.00104347
0.41557896 0.1388327 0.018909708 -0.85035837 -0.3467209 0.3958222 0.00038441364
-0.40969968 0.14459148 0.011049452 0.83426195 -0.34221357 0.43231574 0.0012081236
-0.35777536 0.146465 0.016556056 0.77574486 -0.32268968 0.54230195 0.0021088938
0.35440612 0.14798442 0.013228687 -0.75754917 -0.30084354 0.57932067 0.00081719429
-0.40634012 0.15660727 0.01468847 0.84103352 -0.34523115 0.41650689 0.00090116658
-0.35449374 0.15247512 0.015594037 0.75658745 -0.32327065 0.56839383 0.0010374555
-0.34973168 0.15633498 0.011752573 0.75389755 -0.31709993 0.57540077 0.00089732383
0.3543736 0.15759994 0.018026059 -0.76798713 -0.31927943 0.55520838 0.0018042703
-0.40202856 0.16692233 0.014600955 0.84788221 -0.34845358 0.39959458 0.00050896715
-0.35101151 0.1680973 0.019223554 0.77092147 -0.34372818 0.53621918 0.0019994802
-0.34835818 0.16515198 0.01451979 0.76451284 -0.32598701 0.55610478 0.0019431483
0.34676394 0.16363187 0.011819018 -0.74284828 -0.30388165 0.59651685 0.00013247272
0.3515276 0.16643366 0.019013457 -0.7638377 -0.33159864 0.55370957 0.0018190178
0.40235043 0.16648722 0.014919512 -0.84493709 -0.34346703 0.4100143 0.00061715848
-0.39776495 0.17614901 0.013607017 0.84407187 -0.34853393 0.40751299 0.00065768638
0.34343404 0.17098339 0.011473157 -0.74350947 -0.32350558 0.58526725 0.00064026337
0.39770621 0.17650157 0.013803415 -0.84132403 -0.34860969 0.41309226 0.00080507877
0.4017818 0.1706094 0.017481543 -0.84697604 -0.35056171 0.3996726 0.0004424908
-0.39519131 0.18146676 0.012772508 0.8455987 -0.34920618 0.40375477 0.00045839982
-0.34255716 0.18344013 0.016674343 0.75515389 -0.37187818 0.53986043 0.0015545269
0.33809257 0.18256024 0.010809874 -0.7385906 -0.36053419 0.56964815 0.0013322935
0.39672065 0.18462586 0.01915675 -0.84796172 -0.35626718 0.39247248 0.0002137822
-0.3913773 0.19526593 0.017050942 0.84950572 -0.35565433 0.38967934 0.00011406235
0.3341065 0.19644652 0.014254394 -0.71309614 -0.4379313 0.54745781 0.0020187597
-0.3901003 0.20116529 0.019675359 0.84407622 -0.36843973 0.38959917 0.0003486381
-0.3834112 0.20878486 0.011727305 0.83785623 -0.375361 0.39635959 0.00040929829
-0.33224145 0.20466489 0.01864066 0.69462049 -0.46456563 0.54925519 0.0017469118
-0.32778171 0.20887086 0.017355498 0.68052578 -0.48188296 0.55197239 0.0017609945
0.32509503 0.20677781 0.012878828 -0.66986716 -0.48093379 0.5656684 0.0014013076
0.38569665 0.20585829 0.014141607 -0.83900577 -0.3702834 0.39869726 0.0008002026
-0.31592667 0.21544074 0.010249807 0.64783853 -0.4915491 0.58196628 0.0010320693
0.31740716 0.21854432 0.014277224 -0.66881055 -0.50465089 0.54591209 0.0018667155
0.32505497 0.21526535 0.019628806 -0.67475331 -0.5142706 0.52937102 0.0021762217
0.37984461 0.21707077 0.011424837 -0.78727394 -0.4466497 0.42509276 0.0022874789
0.38301748 0.21384254 0.015554553 -0.79927623 -0.43220404 0.41756094 0.00195072
-0.37762639 0.22369353 0.015727889 0.78038841 -0.4839856 0.39591885 0.0025313534
-0.30709463 0.22905323 0.011932097 0.64984405 -0.51874065 0.55552751 0.0011225267
0.31362686 0.22610061 0.016381532 -0.66630942 -0.51629162 0.53802848 0.0020174331
0.37680513 0.22678924 0.018730253 -0.7562995 -0.51426458 0.40440446 0.0008359027
0.38075185 0.22108895 0.017904742 -0.79048187 -0.46077836 0.40351173 0.0019942801
-0.36812386 0.23689944 0.016946249 0.72962409 -0.55537909 0.39900219 0.00045606171
-0.30374563 0.23474416 0.012993516 0.65318418 -0.5173943 0.55285943 0.0012009471
0.29950967 0.23937771 0.012283899 -0.64565444 -0.4960964 0.58053315 0.00060711888
0.30393374 0.23640427 0.014518108 -0.65676713 -0.50876433 0.556611 0.0014191222
0.36678636 0.23608719 0.013158389 -0.73777264 -0.54648542 0.39628911 0.00050511584
0.37107363 0.23298377 0.016840378 -0.74192035 -0.54115713 0.39585742 0.00056070898
-0.30031329 0.24185833 0.015106864 0.66652757 -0.50071096 0.55229473 0.0014649617
-0.29590225 0.24697243 0.014599169 0.66728258 -0.50688654 0.5457105 0.0015420157
0.30253583 0.24103564 0.016766386 -0.66854417 -0.49818054 0.5521456 0.001436107
0.35500106 0.24939929 0.010124282 -0.71429759 -0.55171502 0.43056878 0.0015347691
-0.35360807 0.25525731 0.016116893 0.72695571 -0.55849659 0.39952102 0.00026070164
-0.34899157 0.25731254 0.010245143 0.70746791 -0.56119514 0.42959183 0.0014081678
-0.2862398 0.25914317 0.014261818 0.65872175 -0.50741488 0.55553198 0.0015271046
0.29060584 0.25300115 0.013900141 -0.65193272 -0.48687759 0.58132082 0.00087617547
0.35519618 0.25316423 0.016082224 -0.73068804 -0.56006563 0.39041191 0.00011337025
-0.34305048 0.26948527 0.01681219 0.72496581 -0.55967486 0.40148315 0.00043774687
-0.28463945 0.26277471 0.015498858 0.65793246 -0.52064365 0.54410952 0.0022114797
-0.2774401 0.26800552 0.012176793 0.61077201 -0.54896641 0.57060796 0.0020949685
0.28788835 0.26378381 0.019694448 -0.65941685 -0.52471471 0.53837162 0.0019454872
-0.34205258 0.27191707 0.018489201 0.72864151 -0.55713773 0.39834541 0.00035595938
-0.27643096 0.2777164 0.019206949 0.59732509 -0.60608357 0.52522892 0.0032046554
-0.26851791 0.27803892 0.013211296 0.54811507 -0.60638672 0.57607722 0.0024150454
0.26996073 0.27516958 0.011373599 -0.56415576 -0.59505105 0.57240063 0.0025606295
0.27647144 0.27368227 0.015709188 -0.58557391 -0.59129417 0.55450368 0.0036092368
0.28200415 0.27132684 0.019594118 -0.61334127 -0.58523256 0.53039175 0.0040248735
0.34057352 0.27128625 0.014696783 -0.72550082 -0.56151676 0.39792901 0.00040218944
-0.33084485 0.28720176 0.019495005 0.72933567 -0.55973405 0.39340472 0.00025771934
-0.26715589 0.2809369 0.015143484 0.549191 -0.62053466 0.55975533 0.0027280655
-0.25971612 0.28741953 0.015950574 0.49700689 -0.65294069 0.57153529 0.0012535055
0.25602248 0.2862483 0.011773552 -0.50274044 -0.63235444 0.58938926 0.00061461166
0.32935899 0.28423032 0.012219815 -0.71814859 -0.5595817 0.41367972 0.00092465797
-0.32360449 0.29391497 0.015459131 0.72148269 -0.55801868 0.40997294 0.00064471026
-0.24847507 0.29676828 0.01670472 0.50229871 -0.67783886 0.5368709 0.0014864454
0.24555753 0.29462731 0.012137442 -0.49455336 -0.64554238 0.58197248 0.00090002676
0.25170615 0.29552859 0.017997436 -0.52354664 -0.6700241 0.52627617 0.0023180069
0.32085437 0.29782712 0.015945414 -0.70960021 -0.57599455 0.40582976 0.0009252954
-0.23580304 0.30210298 0.012127816 0.50854802 -0.66219366 0.55034393 0.0013557352
-0.22736233 0.30870447 0.012257887 0.5042907 -0.65580654 0.56179053 0.0010954364
0.22780594 0.30695322 0.010786575 -0.49262762 -0.6480279 0.58084238 0.00086242537
0.23688108 0.30212694 0.013015464 -0.49087346 -0.66018111 0.56851047 0.0012843497
0.24205965 0.30404907 0.019163832 -0.50973868 -0.6934669 0.50918573 0.0024019391
0.31128663 0.30818594 0.012817556 -0.64558727 -0.6383214 0.4192408 0.0016429451
-0.31044182 0.31107774 0.015758123 0.64897031 -0.65401435 0.38871953 0.002505874
-0.30660599 0.31338286 0.014525263 0.64902961 -0.65399361 0.38865542 0.0024451653
-0.29564986 0.31950271 0.0101068 0.56866223 -0.70154876 0.4294796 0.0022801266
-0.22429043 0.31087169 0.012059796 0.50690973 -0.65754741 0.55738127 0.00097438705
-0.21810976 0.31433809 0.010728921 0.50656205 -0.6530146 0.562998 0.0010326756
0.2219754 0.31523728 0.014759911 -0.52360076 -0.65904444 0.5399099 0.0018378567
0.29745865 0.31943497 0.012657202 -0.57630271 -0.70357519 0.41576093 0.00077055884
0.30280253 0.31725234 0.016362194 -0.60203493 -0.68368244 0.41247088 0.0017847414
-0.29328787 0.32366186 0.014640418 0.55618584 -0.72918868 0.39867428 0.00050856511
-0.28773749 0.32829121 0.015355935 0.55840856 -0.72823024 0.39731678 0.00039268436
-0.21740064 0.32140431 0.017530411 0.51879621 -0.67075241 0.53003925 0.001569554
-0.20607337 0.32570523 0.012951519 0.48681626 -0.6694805 0.56107563 0.0013363281
0.20659775 0.3249107 0.012542545 -0.47393784 -0.66804147 0.57367551 0.0011652486
0.2132915 0.32031906 0.013110558 -0.50653684 -0.65679997 0.55860031 0.0013962403
0.2864753 0.32758954 0.012129224 -0.55237234 -0.71038973 0.4361552 0.0010086664
0.29508641 0.32320926 0.016431982 -0.56403375 -0.72129351 0.40199706 0.00043195367
-0.28304628 0.33198637 0.015540354 0.5641008 -0.72160006 0.40135229 0.00067652727
-0.27169254 0.33849773 0.011289013 0.56493795 -0.72498828 0.39400139 0.00024895809
-0.20126088 0.33030254 0.013894841 0.45441926 -0.69367641 0.55885261 0.0016749008
0.18768507 0.33782542 0.013063392 -0.38591203 -0.73445624 0.55825263 0.0012853756
0.20145424 0.33298799 0.016850028 -0.44749349 -0.69486284 0.56295216 0.0013425446
0.2726298 0.33821711 0.012136147 -0.55600846 -0.72449034 0.4073922 0.00070296804
-0.26468417 0.34522867 0.013903278 0.55820364 -0.73231733 0.39002585 0.00014087888
-0.1736352 0.34480041 0.014466429 0.33137798 -0.76679909 0.54973435 0.0015201179
-0.16728228 0.34804815 0.015214905 0.32444671 -0.77290726 0.54529685 0.0016892371
-0.15827432 0.34960318 0.012572074 0.32685894 -0.76290309 0.55780113 0.0013923004
0.16985767 0.34787178 0.016296171 -0.31777585 -0.78636605 0.52976114 0.0017887291
0.17991963 0.34081364 0.01278609 -0.34681427 -0.75244445 0.55995286 0.0014534453
0.1806615 0.34621367 0.019717123 -0.35109398 -0.78606915 0.50875169 0.0021931685
0.25960472 0.34897426 0.013609472 -0.55769449 -0.72263581 0.40838012 0.00078978931
0.26467019 0.34596038 0.015295949 -0.55484235 -0.72409892 0.40967157 0.00072273833
-0.25313789 0.35341924 0.012610335 0.55539674 -0.73150903 0.395511 0.00027173857
-0.16379291 0.35097548 0.017014619 0.33280507 -0.76741815 0.54800564 0.0015192718
-0.15414521 0.35398763 0.015819546 0.31911817 -0.77256775 0.54891038 0.0016723403
-0.14669831 0.35477421 0.013028776 0.31069157 -0.76184446 0.56838703 0.0010279617
0.13713783 0.35842884 0.012657844 -0.30908969 -0.76049632 0.57105941 0.00059989683
0.14510044 0.35476959 0.012219427 -0.30489686 -0.7616958 0.57171452 0.00058247498
0.15323991 0.35402673 0.015411632 -0.31417358 -0.77791339 0.54419279 0.0012930689
0.24833418 0.35695839 0.01232658 -0.54228395 -0.72057408 0.43208909 0.0013032433
0.25752056 0.35173404 0.015851554 -0.55913055 -0.72226465 0.40707108 0.00079018931
-0.24246074 0.3624928 0.014311697 0.55171341 -0.7231186 0.41558614 0.00088861573
-0.23503734 0.36729133 0.012577638 0.54271394 -0.72856981 0.41790849 0.0010265406
-0.13644156 0.36188149 0.016500585 0.31231201 -0.7753942 0.54883981 0.0015040491
-0.12534638 0.36350831 0.012895036 0.33094466 -0.76209348 0.55649728 0.0018622713
-0.11046391 0.36739928 0.010134023 0.26460868 -0.76333213 0.58932698 0.0011138992
0.12542574 0.36696991 0.017138744 -0.32381105 -0.77003431 0.54972124 0.0014377122
0.2344555 0.36962891 0.016230913 -0.54163653 -0.74044275 0.3979629 0.00037153772
0.24439675 0.36276799 0.017713107 -0.55517155 -0.734074 0.39104977 4.1218678e-05
-0.22620842 0.37555009 0.015444698 0.50387764 -0.76408321 0.402845 0.0013246266
-0.094901361 0.37507403 0.013481867 0.1727587 -0.81509513 0.5529685 0.0011555235
-0.086511813 0.37791938 0.015750637 0.15437934 -0.82148731 0.54893136 0.0015411152
-0.070686333 0.37619653 0.010790098 0.098503388 -0.80834979 0.58040291 0.00032928807
-0.066779688 0.37895226 0.013711151 0.096656367 -0.82047981 0.56344521 0.0011397692
0.042058688 0.37984326 0.010630911 -0.11378882 -0.80838019 0.57755822 0.00088412792
0.056771845 0.3783555 0.011216399 -0.10509877 -0.8107788 0.57584018 0.00073730928
0.065869011 0.3765206 0.01038594 -0.11163937 -0.80507714 0.58256984 0.00040688665
0.086085677 0.37689811 0.014346579 -0.13419321 -0.82198602 0.55347198 0.0014672846
0.092852063 0.37653828 0.015038525 -0.16147901 -0.81758332 0.55270439 0.0023129184
0.21875744 0.37963027 0.012565794 -0.44076639 -0.79532689 0.41614908 0.0017407874
0.22746617 0.37381718 0.013961252 -0.49817881 -0.76379728 0.41040415 0.0012730743
0.23129725 0.37341788 0.018868981 -0.52848625 -0.75106972 0.39572272 0.00083278585
-0.21041892 0.38281232 0.011902747 0.41298553 -0.80701041 0.42211038 0.0017568328
-0.20339943 0.38720617 0.015246303 0.36891985 -0.83596563 0.40627527 0.00066076696
-0.053189032 0.3807525 0.013725516 0.099876456 -0.82515985 0.55600005 0.0013285228
-0.035052083 0.38267747 0.013122358 0.11456712 -0.82641524 0.55128223 0.0015413611
-0.0220911 0.38694343 0.01645815 0.11578777 -0.83572817 0.53679746 0.0021894788
-0.009219151 0.38733867 0.014764743 0.036467977 -0.83109212 0.55493778 0.0014909225
0.0099893343 0.38608819 0.013267204 -0.053308379 -0.82194525 0.56706631 0.0017368209
0.010847008 0.3841098 0.010836108 -0.044045307 -0.81364542 0.57969058 0.0015465397
0.025359048 0.38573202 0.015440091 -0.11656196 -0.85079235 0.51241171 0.0022279632
0.03240012 0.38436732 0.014869615 -0.11800487 -0.83554858 0.53659421 0.0017595572
0.048471801 0.38587356 0.019590056 -0.10423651 -0.85027289 0.51591736 0.0023030455
0.05484492 0.38353476 0.017635541 -0.12013613 -0.82728159 0.54879189 0.0015187915
0.062491745 0.38015535 0.014543379 -0.10689814 -0.82875013 0.54931414 0.0012846126
0.19975165 0.38689905 0.011156291 -0.35784534 -0.83123159 0.42544174 0.00067096768
0.20275299 0.38736704 0.015005968 -0.36368272 -0.8341009 0.41474167 0.0008589612
0.21519919 0.3819932 0.014514487 -0.43542495 -0.79417199 0.42390561 0.0016080649
-0.19439761 0.39123967 0.015932165 0.34932306 -0.84783536 0.39893427 0.00036221807
-0.18051061 0.39876348 0.019917717 0.35302734 -0.85072035 0.38941815 0.00011346838
0.017654233 0.39021802 0.019964412 -0.12010641 -0.86256671 0.49148059 0.0020504564
0.17641754 0.39804655 0.014490704 -0.34951663 -0.84357411 0.40770185 0.00057662878
0.18493228 0.39550182 0.016700312 -0.34986851 -0.84896952 0.39603379 0.0002837058
0.19404173 0.39243305 0.018285202 -0.34768838 -0.85071874 0.39419594 5.4083634e-05
-0.17246544 0.40047133 0.016262887 0.35242245 -0.84937561 0.39288613 0.00026896581
-0.16643788 0.40404987 0.018696748 0.35297602 -0.84995258 0.39113751 3.726513e-05
-0.15848458 0.40622586 0.016180735 0.3514812 -0.84946531 0.39353469 5.5898818e-05
-0.14629701 0.40913016 0.011357512 0.34503835 -0.84105963 0.41661397 0.0010267348
0.15099618 0.40784061 0.012835423 -0.3522341 -0.83839196 0.41596875 0.0010292048
0.16526955 0.40169692 0.012314605 -0.34456047 -0.83886468 0.42140722 0.0010842533
-0.14443931 0.41078144 0.013341358 0.35129789 -0.84598863 0.40111482 0.00032882227
-0.13210128 0.41779637 0.017625542 0.32901579 -0.85563427 0.39954793 0.00058792869
0.12307838 0.41840789 0.010593181 -0.29424909 -0.85415661 0.42875865 0.0021703506
-0.12195959 0.42221779 0.018121755 0.28735656 -0.87523067 0.38909826 0.001377721
-0.11894991 0.42200541 0.014839455 0.27034989 -0.87485284 0.40192461 0.0016235119
-0.10369357 0.42494917 0.013490614 0.20169125 -0.89330894 0.40164626 0.0015437022
-0.094165973 0.42775705 0.017241199 0.13427553 -0.90870386 0.39525625 0.0007480866
-0.088134751 0.42840552 0.016889861 0.12044276 -0.91192281 0.3922886 0.00031742259
-0.068588838 0.42820531 0.010194045 0.11376124 -0.90115482 0.41830415 0.0013982028
0.062207516 0.42995569 0.012391557 -0.12278482 -0.90136039 0.41529906 0.00095274084
0.072663948 0.42931569 0.014169915 -0.11843549 -0.9024291 0.41423994 0.00078527001
0.084701851 0.4287473 0.016623814 -0.12290066 -0.90881431 0.39868799 0.00030245256
0.099864401 0.42798668 0.019606682 -0.15293808 -0.90449667 0.39811507 0.00083855441
0.1057162 0.42578954 0.016162204 -0.16951527 -0.89772058 0.40664774 0.00084735727
0.11305395 0.42461002 0.016322523 -0.21315604 -0.89018077 0.40266949 0.0020749564
-0.063933596 0.4314259 0.016489629 0.12664914 -0.91238528 0.38924688 0.00024840533
-0.043326981 0.43404171 0.016255168 0.11923151 -0.91159147 0.3934271 0.00027071321
-0.031068251 0.43522012 0.015203873 0.11809328 -0.90545154 0.40769053 0.00093339564
-0.02595672 0.43555927 0.014397931 0.11675109 -0.90691203 0.40482062 0.00085465005
-0.018355222 0.43757841 0.016856505 0.10014896 -0.91165638 0.39856353 0.00044860377
-0.0065492806 0.4370006 0.01170923 0.049625982 -0.90355533 0.42558795 0.0016890076
0.0073415255 0.43778127 0.013845736 -0.036185015 -0.90930516 0.41455364 0.0025161596
0.014635841 0.43714204 0.014620959 -0.10701715 -0.90754247 0.40609613 0.00065869023
0.036109347 0.43523085 0.016831921 -0.12096558 -0.90921897 0.39835683 0.00038264686
0.042813789 0.43294582 0.013446352 -0.11409582 -0.90899187 0.4008939 0.00028196414
0.051842965 0.4340657 0.019019671 -0.11690958 -0.91210884 0.39292437 0.00019626197
0.077996425 0.430556 0.018859126 -0.11956684 -0.91227722 0.39173216 0.00012821134
-0.02645812 -0.44055405 0.026615869 0.12070177 0.91676307 0.38075778 0
-0.016900325 -0.44231692 0.027834013 0.11243674 0.91891623 0.37808862 0
-0.0026571294 -0.44282138 0.024524836 0.054863393 0.92129821 0.38496712 0.0013875179
0.014377589 -0.44117442 0.024273923 -0.10397249 0.91934282 0.37947145 4.2771342e-05
0.027415987 -0.44041699 0.026589356 -0.12014869 0.9171375 0.38003033 2.906374e-05
-0.10524519 -0.43084133 0.028208653 0.19734433 0.9037075 0.37995797 0.0018605568
-0.092376769 -0.43208483 0.027120695 0.12429175 0.91608858 0.38122615 0
-0.08368206 -0.43204421 0.024259076 0.12075792 0.91711414 0.37989354 1.1425972e-05
-0.074075982 -0.43252414 0.022364635 0.1203625 0.91461122 0.38600412 8.1689257e-05
-0.064321838 -0.43507507 0.025422903 0.12071112 0.91712868 0.37987348 0
-0.051954318 -0.43684834 0.025773082 0.12075996 0.91711771 0.37988424 0
-0.042627029 -0.43888807 0.027732853 0.12073762 0.91712362 0.37987718 0
-0.029779796 -0.43907624 0.024103807 0.1206596 0.91677582 0.3807404 4.5096636e-05
0.032544028 -0.43735194 0.020819589 -0.1191941 0.9147231 0.38610166 0.00017359112
0.049699046 -0.43753719 0.026719257 -0.12076129 0.91711766 0.379884 0
0.058489569 -0.43666393 0.027404971 -0.12074649 0.91711938 0.37988472 0
0.069259837 -0.432881 0.021695428 -0.1207234 0.91712773 0.3798719 0
0.070225462 -0.43383545 0.024306523 -0.12072839 0.91711169 0.37990895 2.457604e-05
0.086546719 -0.43170872 0.024359632 -0.121186 0.91666406 0.38084248 0
0.090329885 -0.43260542 0.027726894 -0.12581575 0.91572309 0.38160402 0
-0.13243724 -0.42127836 0.025772035 0.32780766 0.86448228 0.38106763 0.00052778621
-0.11399228 -0.42786869 0.024736635 0.23065531 0.89222217 0.38824961 0.0019779077
-0.10656649 -0.42920366 0.024674932 0.19712031 0.90271628 0.38242239 0.0018931942
-0.098922648 -0.42854664 0.020659311 0.14246799 0.90920985 0.39120388 0.00046274244
0.10296765 -0.42851511 0.02186879 -0.16283199 0.90874642 0.38427293 0.0009383483
0.11703121 -0.42669582 0.023603423 -0.26145232 0.89587122 0.35924587 0.0017997483
0.12438098 -0.42457783 0.025687486 -0.30670613 0.87489748 0.37481421 0.00098657864
-0.15398523 -0.41392684 0.029312894 0.35402718 0.85460573 0.37988648 0
0.13840029 -0.41834766 0.024735428 -0.35281798 0.85501266 0.38009575 4.8557111e-05
0.14735262 -0.41617343 0.028186295 -0.35400435 0.85460413 0.37991136 3.3677457e-05
0.15365723 -0.41287103 0.026631882 -0.35401028 0.85458338 0.3799527 9.895047e-05
-0.18038654 -0.40069446 0.024146207 0.353809 0.85390604 0.38165921 8.0276492e-05
-0.17970216 -0.40052566 0.023128767 0.35378933 0.85385549 0.38179064 7.0803158e-05
-0.16476662 -0.40647718 0.022600114 0.35385272 0.85239732 0.38497671 0.00013992528
0.18191086 -0.40026432 0.024598936 -0.35342509 0.85388994 0.38205063 0
-0.2052781 -0.39232737 0.028518172 0.36839801 0.84600145 0.38544068 0.00023849854
-0.19518808 -0.39345744 0.021658044 0.35362118 0.85178787 0.38653529 0.00011761299
-0.18829748 -0.39963675 0.029138511 0.35395536 0.85461384 0.3799352 7.0499256e-05
-0.04844762 -0.39055002 0.028543739 0.11806411 0.88153422 0.45711973 0.0020707366
-0.035311595 -0.39109123 0.025675308 0.11267649 0.87304533 0.47444272 0.0022312489
-0.0213867 -0.39342558 0.026885141 0.11247082 0.88523334 0.45134494 0.0016352633
-0.012701898 -0.39096287 0.020085398 0.094578423 0.84196007 0.53118557 0.0021484129
-0.0049347887 -0.39540017 0.026423113 0.020824781 0.88296372 0.46897915 0.0034933526
0.0034646736 -0.39595088 0.027285431 -0.024461489 0.8855195 0.46395788 0.0032108922
0.017692145 -0.39372775 0.026440391 -0.097718678 0.87678725 0.47084513 0.0025376233
0.025053447 -0.39367825 0.028660512 -0.11229587 0.88508487 0.45167968 0.0019091743
0.034148131 -0.39140958 0.026074134 -0.10583998 0.87964755 0.46370038 0.002388001
0.18494338 -0.39842767 0.023292841 -0.35442233 0.85109657 0.3873235 7.6735269e-05
0.20027879 -0.39487073 0.029581234 -0.35566598 0.85398811 0.37974456 0
-0.2263854 -0.38069126 0.025638998 0.50526071 0.77457368 0.38045654 0.0014590663
-0.21566246 -0.38524479 0.022261228 0.43366292 0.81280518 0.38895276 0.0019447817
-0.10372249 -0.38140777 0.02497709 0.20889518 0.84751731 0.48793158 0.0027104986
-0.082564339 -0.38296843 0.021653343 0.12042596 0.85998309 0.49590996 0.0018406688
-0.075345762 -0.38517708 0.024230691 0.11357839 0.86721843 0.48480126 0.0021193009
-0.067092046 -0.38502863 0.022068754 0.12010006 0.85783625 0.4996928 0.0023215462
-0.045373864 -0.38763791 0.021357875 0.11811329 0.86130774 0.49416417 0.0019819615
-0.026052108 -0.38928416 0.02018822 0.11580601 0.84421539 0.5233444 0.0023509993
0.035999022 -0.3884654 0.020827828 -0.10167882 0.85619307 0.50655192 0.0022149184
0.046067476 -0.38830942 0.022763167 -0.12687913 0.86527479 0.48497549 0.0024207658
0.055654012 -0.38713843 0.022598004 -0.1179315 0.87094122 0.47702572 0.0019085652
0.065710641 -0.38548818 0.022231413 -0.10537124 0.87668359 0.46938565 0.0018132088
0.077447273 -0.38697848 0.029138533 -0.11635593 0.90036869 0.41928208 0.0013224995
0.083846308 -0.38554999 0.027723748 -0.14952725 0.87565744 0.45920104 0.0016626383
0.094841167 -0.38334918 0.025905093 -0.18149082 0.87183481 0.45493424 0.0017882225
0.21458346 -0.38688996 0.024956824 -0.42961633 0.82325441 0.37105525 0.0020843414
0.22126824 -0.38329673 0.023135375 -0.47445071 0.79364711 0.38081583 0.0021485654
-0.13288446 -0.37077153 0.028223434 0.34860983 0.81797475 0.45758992 0.001989512
-0.12555377 -0.37197334 0.024096001 0.33957785 0.80578882 0.48517135 0.0019726099
-0.11447253 -0.37518021 0.021599649 0.29867744 0.81715477 0.49300089 0.0033106147
-0.10973317 -0.37858281 0.02422283 0.25534227 0.83643919 0.48494315 0.002974686
0.11059528 -0.37579721 0.020398632 -0.28050876 0.81296557 0.51029593 0.002033504
0.12395916 -0.37262991 0.024273425 -0.33465266 0.81110406 0.47970581 0.0017799452
0.23602113 -0.3725453 0.024185773 -0.54567051 0.74623567 0.38128197 0.00039741138
0.24215572 -0.37066779 0.029652342 -0.56219506 0.73469841 0.37967765 0
-0.24739119 -0.36274621 0.022110021 0.56224155 0.73324627 0.38240594 6.3450425e-05
-0.23844641 -0.36941272 0.021729326 0.55650312 0.73801601 0.38162374 0.00023110273
-0.15214092 -0.36198464 0.026399853 0.33721337 0.80507261 0.4880012 0.0018300453
-0.14312556 -0.3637802 0.022981193 0.33192393 0.79830861 0.50252336 0.0016734144
0.13631313 -0.36664745 0.022543315 -0.35523382 0.79209685 0.49637848 0.0017747694
0.14437662 -0.36499181 0.025929898 -0.36043778 0.79792517 0.48311487 0.0018506707
0.25145057 -0.36178175 0.026264289 -0.56313193 0.7338708 0.37988952 0
-0.26263958 -0.35213417 0.024212711 0.56281769 0.73365396 0.38077313 3.6550689e-05
-0.25424469 -0.35676789 0.020720165 0.56187242 0.73374647 0.38198897 3.2211279e-05
-0.18094042 -0.35155305 0.029768826 0.35044494 0.82419115 0.44485649 0.0012973773
-0.16530825 -0.35687584 0.027176615 0.3383579 0.81506836 0.47029519 0.001692747
0.17733093 -0.35130191 0.025840364 -0.33771491 0.81777298 0.46604294 0.0018512191
0.18082221 -0.35024908 0.026725145 -0.35983944 0.81656075 0.45138016 0.0016290358
0.25472087 -0.35788319 0.023580538 -0.56320316 0.73378336 0.37995282 6.1089806e-05
0.26428205 -0.35342437 0.029139891 -0.56316966 0.73384392 0.37988558 0
-0.26734847 -0.34722948 0.021717912 0.56274134 0.7337777 0.38064742 0
-0.19504108 -0.34402993 0.026117111 0.43232194 0.7741943 0.46229959 0.0025040379
-0.18052875 -0.34677646 0.020333815 0.35258508 0.7805829 0.51611441 0.0018508795
-0.17883037 -0.348364 0.021407364 0.33536428 0.79111975 0.51152742 0.0020392344
0.17830604 -0.34774217 0.020388508 -0.32440078 0.79391444 0.51426053 0.0017675937
0.19545969 -0.34328008 0.025414973 -0.43984306 0.76733565 0.46661988 0.002092191
0.27037033 -0.34681472 0.025396049 -0.56328642 0.73376739 0.37986013 0
-0.28849846 -0.33382186 0.027168326 0.56323111 0.73380029 0.37987885 0
-0.21411356 -0.33084255 0.026806813 0.53940803 0.71102411 0.45109177 0.0017262982
-0.20633525 -0.33788267 0.02887694 0.48797327 0.74812341 0.44965935 0.0018728004
0.20683134 -0.33446932 0.023950277 -0.48700932 0.72327489 0.48958695 0.0024387846
0.21137887 -0.33266953 0.026282437 -0.51748401 0.70995843 0.47767067 0.0019551008
0.28254145 -0.33783871 0.026097754 -0.56315649 0.73385614 0.37988138 0
-0.3043009 -0.3213034 0.026409501 0.61224663 0.69507933 0.3768537 0.001228823
-0.29744017 -0.3253065 0.02397285 0.57428658 0.72218859 0.38553673 0.00039054529
-0.22153704 -0.32608706 0.028624136 0.54538792 0.70984489 0.44572657 0.001663173
0.21800214 -0.32859531 0.028229734 -0.54566604 0.70222676 0.45730317 0.0017824855
0.22624552 -0.32093284 0.025646614 -0.5347597 0.6966663 0.47821349 0.0024639289
0.29624486 -0.32718611 0.025831919 -0.57188189 0.72654307 0.38090187 0.00022067735
0.30120492 -0.32385623 0.026751734 -0.57882637 0.72268403 0.37774038 0.00025862458
-0.31204784 -0.3133865 0.022725444 0.64810735 0.65280533 0.39217594 0.0014443971
-0.30662253 -0.31803179 0.023530735 0.62628835 0.68131542 0.37890917 0.0016424571
-0.23279238 -0.31709453 0.02793638 0.54265749 0.71110094 0.44705525 0.0016968563
-0.22710919 -0.31728306 0.021072039 0.52853894 0.68665588 0.49914953 0.0025310428
0.31287426 -0.31246427 0.02296857 -0.6568619 0.64659524 0.38787502 0.0017540082
-0.31721723 -0.30628839 0.02146185 0.68931401 0.61126184 0.3888512 0.0014331957
-0.25151294 -0.30261344 0.027711751 0.54400921 0.6931572 0.47284985 0.0017565704
-0.23897073 -0.30990347 0.02320284 0.52686143 0.69278902 0.49240273 0.002317101
0.23958333 -0.3077364 0.021027565 -0.51964748 0.68216825 0.51440561 0.0018146103
0.24633273 -0.30243027 0.020894988 -0.53003329 0.67919588 0.50769836 0.0024245549
0.3166489 -0.30902523 0.024420785 -0.68151218 0.62290043 0.38410455 0.0017756153
-0.32517672 -0.29786372 0.024349846 0.72284013 0.57562542 0.3823055 0.00044934341
-0.26373863 -0.29312453 0.027503431 0.54829925 0.70113951 0.45581943 0.00174581
