# .PCD v0.7 - Point Cloud Data file format
VERSION 0.7
FIELDS x y z normal_x normal_y normal_z curvature
SIZE 4 4 4 4 4 4 4
TYPE F F F F F F F
COUNT 1 1 1 1 1 1 1
WIDTH 589
HEIGHT 1
VIEWPOINT 0 0 0 1 0 0 0
POINTS 589
DATA ascii
0.30472165 -0.32294953 0.04991192 -0.57997048 0.68580627 0.43966338 0.00086583354
-0.30386317 -0.31076947 0.047715236 0.64481252 0.58178544 0.49572417 0.0012925758
-0.29678303 -0.31466389 0.044267539 0.59261525 0.62618214 0.50665885 0.0011923593
0.30677554 -0.31628883 0.042132601 -0.60029125 0.66378641 0.44613683 0.0015199037
0.31291759 -0.3146787 0.047051519 -0.64333981 0.63364565 0.42965916 0.0018112778
-0.30655214 -0.30131361 0.041645482 0.66641998 0.54878652 0.50469583 0.00078038732
0.31804603 -0.30614915 0.043016523 -0.67560214 0.59650332 0.43329608 0.0016240104
0.32222864 -0.30250472 0.045561142 -0.69922757 0.57651621 0.422741 0.00097117526
-0.32002079 -0.29063269 0.04932873 0.69557059 0.51951742 0.49626932 0
-0.31318372 -0.29546708 0.044818498 0.68621993 0.52846622 0.49982551 0.00016315315
-0.30884731 -0.29845649 0.041878074 0.67738944 0.53613245 0.50369185 0.00060405897
0.3268477 -0.29481354 0.043636553 -0.71300507 0.5568977 0.42601499 0.00047282942
0.33007854 -0.29036915 0.04349824 -0.7224791 0.54853326 0.42087439 1.6435137e-05
-0.3241252 -0.28301832 0.047143817 0.69579387 0.51839226 0.49713203 0
-0.31837612 -0.28539956 0.04160301 0.69550377 0.51805407 0.49789017 7.3579053e-05
0.32868844 -0.28976357 0.040306393 -0.72331917 0.54727936 0.42106372 0.00014054192
0.33509365 -0.28465503 0.044813331 -0.72798812 0.5423553 0.41938516 0
-0.32754508 -0.275453 0.044055682 0.69567639 0.51810968 0.49759093 1.3549521e-05
0.34356827 -0.2747606 0.046727546 -0.72797912 0.54237902 0.41937029 0
-0.34021372 -0.26215714 0.047908872 0.69574153 0.51823789 0.49736622 0.00013818651
-0.33361879 -0.26566154 0.04235521 0.69553477 0.51828396 0.49760732 7.0262053e-05
0.34921661 -0.26594558 0.045136061 -0.7279498 0.54237783 0.41942269 0
0.35350284 -0.26287198 0.048597511 -0.72803271 0.54237735 0.41927943 0
-0.34511632 -0.25416845 0.046447866 0.6959343 0.51864207 0.49667487 5.9196856e-07
0.35808083 -0.25479877 0.046108458 -0.72771764 0.54357851 0.4182696 0
0.36013722 -0.25097966 0.04474159 -0.7278505 0.54367733 0.41790977 0
-0.35275704 -0.24340162 0.045918815 0.6961776 0.52021658 0.49468321 0
-0.3490738 -0.24480687 0.042244066 0.69551283 0.52123582 0.49454522 0
0.36430508 -0.24536543 0.044716876 -0.72732955 0.54500538 0.41708592 4.1971991e-05
-0.36042401 -0.23293637 0.045739457 0.70289034 0.51369691 0.49199665 0.00022517156
-0.3569237 -0.23600198 0.044042494 0.69828629 0.51851851 0.49349248 3.8433849e-05
0.36705038 -0.2397664 0.042245809 -0.72964418 0.54340899 0.41512179 0
0.37286708 -0.23679417 0.04849131 -0.73580861 0.53650862 0.41321194 0.00013056243
-0.37158608 -0.22082809 0.048699886 0.75782388 0.42972857 0.49095443 0.0019119582
-0.36361903 -0.22943023 0.046533398 0.71576709 0.49074224 0.49683958 0.00091676426
0.37826362 -0.22586073 0.043553721 -0.76186228 0.50244904 0.4087919 0.001435839
0.38331079 -0.2219274 0.047214955 -0.78606129 0.46748745 0.40442944 0.0022140765
-0.3715173 -0.21441442 0.043657131 0.77830786 0.39876592 0.48499763 0.0016612977
-0.36875042 -0.21875978 0.042318679 0.75389296 0.43606824 0.49141625 0.0019317525
0.38511518 -0.21602748 0.044286791 -0.79832411 0.44316649 0.40777695 0.0022724827
-0.37545675 -0.20671643 0.045106631 0.7973004 0.36298499 0.4822385 0.00074741704
0.38781932 -0.20781933 0.042814497 -0.82893831 0.38994202 0.40100688 0.0011311806
-0.38091731 -0.19493736 0.04635023 0.8114031 0.33004799 0.48238289 5.1545074e-05
-0.3781566 -0.19471043 0.04145208 0.81255561 0.33043119 0.48017558 3.1998688e-06
0.38991731 -0.19965045 0.040127255 -0.8514092 0.35895008 0.38243595 0.00017219201
0.39461353 -0.19494955 0.046480753 -0.85157281 0.34697321 0.3929801 0.0001670559
-0.38421211 -0.18807451 0.047269326 0.8128491 0.32670623 0.48222333 1.8989293e-05
0.39754465 -0.18404695 0.043190829 -0.8555572 0.34392303 0.38696113 2.3550248e-05
0.40095198 -0.18106277 0.048188865 -0.85269558 0.34483561 0.39242679 9.378072e-05
-0.38639772 -0.17721099 0.043520615 0.81331068 0.32628265 0.48173165 5.5836954e-05
0.40201834 -0.17625219 0.046223413 -0.85422045 0.34391794 0.38990757 0.00013073275
-0.39180517 -0.16650331 0.045412883 0.81245607 0.32691771 0.48274213 9.1704722e-05
-0.38981211 -0.16633476 0.041873485 0.81409204 0.32659256 0.48019931 5.4543725e-05
0.4057816 -0.1655595 0.04500882 -0.85475439 0.34325379 0.38932219 0
-0.39811078 -0.15441893 0.047896944 0.81192601 0.32585153 0.48435214 6.8966838e-05
0.40806049 -0.15633033 0.04176585 -0.85480618 0.34612083 0.38666093 0
-0.39830789 -0.1476004 0.04352656 0.81382322 0.32790288 0.47976184 4.9026094e-05
0.41372862 -0.14458242 0.043903742 -0.85485697 0.34476945 0.38775441 1.4515493e-05
-0.40530348 -0.13340664 0.045738906 0.81592757 0.32338378 0.47925481 0.0001274742
-0.3996565 -0.13915345 0.040009167 0.81575042 0.33030021 0.47481886 0
0.41811213 -0.1320421 0.042411312 -0.85736018 0.34215534 0.38452989 0.00013248333
-0.41022938 -0.12321383 0.047159676 0.82583964 0.29939193 0.4778634 0.00077803881
-0.40712643 -0.12552883 0.04339046 0.82189059 0.31038105 0.47766033 0.00042158633
0.42351532 -0.12144138 0.044925801 -0.87801701 0.29597288 0.37614653 0.0018045226
-0.41365945 -0.11871757 0.04994455 0.83514267 0.26595876 0.4814589 0.001170719
-0.40788049 -0.11934619 0.040292587 0.82817006 0.2850557 0.48257405 0.00099466438
0.42573836 -0.11508864 0.044151485 -0.88907367 0.2582815 0.37794015 0.0022687106
-0.41534552 -0.10452066 0.046023097 0.86186141 0.18118244 0.47367486 0.0016082179
0.42779529 -0.10359658 0.042395666 -0.91401052 0.1823803 0.36238411 0.0012145907
-0.41566512 -0.096731119 0.044710401 0.87271875 0.15171568 0.46405202 0.00093792775
0.42883405 -0.09842483 0.043404829 -0.91383004 0.16902865 0.36924791 0.0013083512
0.43091348 -0.093544751 0.047293674 -0.91454333 0.14365585 0.37811825 0.00077843602
-0.41632161 -0.089199647 0.044116005 0.87537003 0.1204272 0.4682143 0.00023061177
0.42993054 -0.081024833 0.040393233 -0.92660731 0.11723121 0.35728934 4.5990084e-05
0.43061933 -0.085762069 0.043850709 -0.92329389 0.12453306 0.36334547 0.00017380177
-0.42045614 -0.071546301 0.047763683 0.87621891 0.11167604 0.46879527 0.00013514304
-0.41760421 -0.074995153 0.043081313 0.87774646 0.11205259 0.46583837 8.4562074e-05
0.43140772 -0.076360762 0.042747054 -0.92424643 0.11869053 0.3628788 0.00013744275
-0.42128548 -0.064428538 0.047607616 0.87581468 0.11165064 0.46955591 0
-0.41839281 -0.065847866 0.042342443 0.87745893 0.11238333 0.46630013 2.1746733e-05
0.43406281 -0.065467663 0.046120651 -0.92217791 0.11886183 0.36804858 0.00010150682
-0.42219383 -0.053547826 0.046671025 0.87719649 0.11254854 0.46675366 3.2326559e-05
-0.41926104 -0.051857151 0.040556092 0.87951958 0.11341755 0.46214902 0.00011537923
0.43593168 -0.054207906 0.047268935 -0.92069185 0.11818765 0.37196532 6.911427e-05
-0.42150006 -0.047409963 0.043800466 0.87825727 0.11209851 0.4648636 4.863818e-05
0.43573707 -0.045372043 0.043732237 -0.92419863 0.11637355 0.36375001 0.0001755174
-0.42484027 -0.033562675 0.046850257 0.87553817 0.11192892 0.47000507 0.00013596473
0.43714651 -0.035530437 0.044137277 -0.92247337 0.11730523 0.3678076 0.00017439443
-0.42557693 -0.021835893 0.04537018 0.87957531 0.10978822 0.46291873 9.5748466e-05
0.43990222 -0.023579046 0.047418565 -0.92078596 0.11676676 0.37218106 0.00018315879
0.4406338 -0.020877302 0.048450455 -0.91934144 0.1112984 0.37739107 0.00016488599
-0.42504829 -0.016762624 0.043083094 0.88141865 0.10508274 0.46049851 0.00020472237
0.4392637 -0.015035533 0.042790212 -0.9264183 0.10394211 0.3618634 0.00031500927
0.44051391 -0.01096547 0.044743702 -0.92700046 0.080939367 0.36622268 0.00098119047
-0.42638126 -0.0044071223 0.042559043 0.88603324 0.056998938 0.46010461 0.0014533581
0.4397034 -0.0050688609 0.040485263 -0.93025434 0.06160602 0.36170635 0.0013256035
0.44166344 -0.0031446468 0.045091588 -0.9291544 0.04454891 0.36699811 0.0019269104
-0.43054947 0.0060570734 0.049057685 0.8869127 0.011253614 0.46180004 0.0021520108
0.44221845 0.0077436678 0.044771686 -0.9308576 -0.0074639367 0.36530593 0.0025940391
-0.4274652 0.016075844 0.045128103 0.88557172 -0.055698078 0.46115115 0.0013319523
0.43992564 0.018368466 0.042147383 -0.92994589 -0.079036437 0.35910153 0.0014299471
0.44166043 0.014134962 0.045498185 -0.92756945 -0.058558255 0.36903378 0.0018744128
-0.42628703 0.023974981 0.0447888 0.88413465 -0.10173737 0.4560214 0.00026238995
0.43906236 0.022390347 0.041167174 -0.93218929 -0.092663258 0.34990951 0.00079543336
-0.42568445 0.035159156 0.046452887 0.88347232 -0.11250509 0.4547739 0.00023329047
0.43899682 0.038038444 0.04659678 -0.9250598 -0.12023626 0.3602882 0.00025057013
-0.42407167 0.047227286 0.046311222 0.88274199 -0.11253788 0.45618179 0.00013528488
0.43875825 0.042563722 0.047550559 -0.92377806 -0.11839774 0.36416483 0.00027071955
-0.42361757 0.053582694 0.047031969 0.88075286 -0.11208095 0.46012187 8.5540662e-05
0.43639398 0.053448506 0.044818938 -0.9287312 -0.11803259 0.35146379 0.00018765306
-0.42139912 0.06664516 0.045927178 0.88271868 -0.11240263 0.4562602 0.00011233956
-0.41915497 0.064899102 0.040961403 0.88561207 -0.11189759 0.45074412 8.0833097e-06
0.43482435 0.06539581 0.044699121 -0.92863256 -0.11928833 0.35130036 9.8319142e-05
-0.42083052 0.075715512 0.047115866 0.88274354 -0.11277822 0.45611942 9.4240662e-05
0.43384972 0.072560422 0.04453361 -0.92825013 -0.11866376 0.35252038 0.00015576702
-0.41843668 0.085628234 0.044847775 0.88293886 -0.11533097 0.45510203 7.7869721e-05
0.43214616 0.084985755 0.04420935 -0.92857671 -0.11788121 0.35192218 0.00022941564
-0.41791567 0.095338665 0.046297193 0.88249159 -0.11524671 0.45598984 0
0.42927769 0.098357685 0.040954709 -0.9273715 -0.12816572 0.35150498 0.00038638173
0.4322035 0.093409538 0.047392257 -0.92488348 -0.11607876 0.36209971 0.00024273572
-0.41489029 0.10678716 0.043179199 0.87985569 -0.15335509 0.44981802 0.00092695485
0.43127567 0.10293434 0.048204791 -0.92222029 -0.13480729 0.36240399 0.00064881402
-0.41512796 0.11158405 0.044896495 0.87150222 -0.18239506 0.45520985 0.00160152
0.42847002 0.11663149 0.045318365 -0.90977091 -0.21926321 0.35247773 0.0024600581
-0.41509983 0.12019995 0.047081601 0.85649383 -0.21878271 0.46749589 0.0021702747
-0.40980202 0.12484418 0.040191621 0.85416925 -0.25534242 0.45298484 0.0016016744
0.42601791 0.12522915 0.045034505 -0.89450651 -0.2711798 0.35541469 0.0021561179
-0.41118255 0.13200781 0.048288904 0.84768802 -0.27919954 0.45107946 0.001345337
-0.40815368 0.13623875 0.0457661 0.83697289 -0.30875319 0.45182729 0.00064734794
0.41841269 0.13956253 0.040242434 -0.87323296 -0.33934915 0.34972298 0.00044097871
0.42335957 0.13276623 0.045983683 -0.87889892 -0.31987277 0.3538616 0.001089906
-0.40586132 0.14359973 0.047034673 0.82863486 -0.32881156 0.45304209 1.0008782e-05
0.41786993 0.14445853 0.043940131 -0.86931437 -0.34633738 0.35262302 0.00023129929
-0.40109351 0.15425587 0.046117153 0.82871336 -0.33308029 0.44976842 6.9595204e-05
-0.39859855 0.15627535 0.042919204 0.83143187 -0.33361509 0.44432187 6.4880238e-05
0.41454738 0.15597066 0.047328465 -0.86627609 -0.34834701 0.35807824 0.00024508848
-0.39589298 0.16407456 0.043737348 0.8314687 -0.33336809 0.44443843 0
0.40848845 0.16737345 0.043506723 -0.86780673 -0.35046735 0.35225576 0.0001703106
0.41107666 0.16430227 0.047015894 -0.86512065 -0.34943211 0.35981023 0.00023710133
-0.39242539 0.17395303 0.044696361 0.82941628 -0.33339325 0.44823822 2.2766812e-05
0.40691963 0.17457184 0.046944547 -0.86478251 -0.34810406 0.36190429 0.00011927905
-0.38822401 0.18643904 0.046253279 0.82782131 -0.3340925 0.45065966 7.614051e-05
0.39894408 0.18875118 0.041047953 -0.86824203 -0.35079923 0.35085005 0.00014110739
0.40277132 0.18211746 0.044055413 -0.86882502 -0.34826943 0.35192549 0.00012627791
-0.38436654 0.19398181 0.044686716 0.82910359 -0.33472177 0.44782662 5.9709102e-05
0.39850497 0.19532675 0.046765983 -0.86701912 -0.34982783 0.35482138 2.0740814e-05
0.4008725 0.19064933 0.048027989 -0.86656016 -0.34776652 0.35795534 0.00011361246
-0.38266292 0.20393497 0.049054738 0.82519144 -0.33583254 0.45417577 0.00016289184
-0.37833086 0.20878498 0.044528674 0.82191539 -0.34723726 0.45153236 0.00038075016
0.39476901 0.20090157 0.042891033 -0.86669499 -0.35208273 0.35338029 9.3055307e-05
-0.37624931 0.21486878 0.045260891 0.815826 -0.36689472 0.44700783 0.00075276993
0.3889125 0.21479243 0.042299204 -0.85303259 -0.38578144 0.35143712 0.00095470442
0.39138353 0.2123329 0.046040945 -0.85712546 -0.37585807 0.35223106 0.00076624961
-0.37336028 0.22263227 0.045767769 0.7924366 -0.40638775 0.45485532 0.0014957745
0.38640109 0.22407465 0.045731694 -0.82171911 -0.4392755 0.36306289 0.0016735963
-0.37059134 0.23082221 0.047812704 0.77060729 -0.44533283 0.45589817 0.0024173334
-0.36682272 0.23429304 0.045988429 0.75537211 -0.47356775 0.45293105 0.0016461707
0.380842 0.23346141 0.045348249 -0.78797632 -0.49626189 0.36444113 0.0014449339
-0.36069787 0.24132457 0.044720862 0.72458887 -0.52120048 0.45091137 0.00027888379
-0.35639608 0.24713191 0.044758886 0.71857768 -0.52967334 0.45065778 0.00012955855
0.36830983 0.24955827 0.044463653 -0.74304134 -0.55798405 0.36951801 1.6887152e-05
0.37247387 0.24529463 0.046459559 -0.75256234 -0.54453552 0.3703118 0.0003124568
-0.35326773 0.25200051 0.045542769 0.7149983 -0.53514212 0.4498893 0
-0.34755421 0.25831425 0.04395327 0.71479177 -0.53482169 0.45059785 0
0.36722529 0.25180474 0.045653291 -0.74308747 -0.55786788 0.36960039 3.580896e-05
-0.34431151 0.26543501 0.047196519 0.71487463 -0.53332573 0.45223644 8.6342479e-05
0.35737506 0.26601955 0.04714492 -0.74298579 -0.55344236 0.37639576 1.7858337e-06
0.3601028 0.26367074 0.049120679 -0.74273181 -0.5531075 0.37738776 0
-0.34017941 0.27033976 0.046443723 0.71481651 -0.53298551 0.45272914 0
-0.3355003 0.27608413 0.045814253 0.71493691 -0.53253484 0.45306948 4.2756169e-06
0.34694797 0.27732471 0.043093182 -0.74371862 -0.55414939 0.37389991 8.5531159e-05
0.35322338 0.27313709 0.049468469 -0.74211293 -0.55314898 0.37854272 1.3781754e-05
-0.33131874 0.28245416 0.046700832 0.71496558 -0.53254122 0.45301661 4.1373358e-05
-0.32750133 0.28373259 0.042193502 0.71464854 -0.53247559 0.45359367 0
0.33823562 0.28807405 0.041668802 -0.7445122 -0.55437332 0.37198365 7.434408e-06
0.34367049 0.28241318 0.044129342 -0.7434302 -0.554667 0.37370583 5.3692489e-05
-0.32295999 0.29289034 0.045780834 0.71481454 -0.53245527 0.45335588 1.0799091e-05
-0.318223 0.29568505 0.041603796 0.71459699 -0.53250349 0.45364228 0
0.33539319 0.29574227 0.047465604 -0.74356174 -0.55282491 0.37616548 0
0.34060651 0.29011148 0.049523853 -0.74206257 -0.55288815 0.379022 3.3192715e-05
-0.3149679 0.30284166 0.044869557 0.7141642 -0.5334717 0.45318589 7.5391376e-06
0.32781637 0.305213 0.046411131 -0.73999947 -0.55783951 0.37578705 9.303476e-05
-0.30658635 0.3131355 0.043746918 0.68377459 -0.57144904 0.45376012 0.0010093389
0.31768715 0.316944 0.043601882 -0.68855166 -0.6163553 0.38210288 0.0018617626
0.32258964 0.31071869 0.044137657 -0.71861058 -0.58735561 0.37230673 0.00095815124
-0.30157009 0.3231335 0.048109673 0.6259082 -0.6341958 0.45391038 0.0015764514
-0.2941584 0.32661173 0.04456421 0.58635056 -0.67120188 0.4535208 0.00081584719
0.30722681 0.32705873 0.043982178 -0.60903174 -0.69584471 0.3806318 0.00079012604
0.31186262 0.3240509 0.045211077 -0.64207774 -0.66472197 0.38194355 0.0018142289
-0.29289311 0.33022818 0.048634 0.58368737 -0.67549366 0.45057446 0.00088117924
-0.28411084 0.33450323 0.044618007 0.55939788 -0.69542903 0.45105708 0.00016566433
-0.27406979 0.3394444 0.040115774 0.54957533 -0.700755 0.45487303 2.6545486e-06
0.29629767 0.33652148 0.045524951 -0.57676095 -0.72210562 0.381982 6.2846397e-05
0.30692384 0.33045119 0.049885042 -0.6059891 -0.69918519 0.37936431 0.00082185114
-0.27368402 0.34325939 0.045396417 0.55188489 -0.70053905 0.45240247 4.8284124e-05
-0.26905409 0.34995651 0.049966097 0.55289662 -0.69993937 0.45209527 6.7741137e-05
0.27763456 0.3495394 0.042278897 -0.57291937 -0.72512251 0.38204813 0
0.28720191 0.34470621 0.047388151 -0.57284617 -0.7264837 0.37956396 5.6049448e-05
-0.26256168 0.35320044 0.047125954 0.55252087 -0.69889706 0.45416239 6.7955341e-05
-0.25450638 0.3579978 0.044764478 0.55203903 -0.69753534 0.45683396 3.0095274e-05
0.26773977 0.35713232 0.0418518 -0.57239139 -0.72488821 0.38328204 2.9344625e-05
0.27443787 0.35427856 0.046420932 -0.57355541 -0.72554922 0.38027963 0
-0.25146025 0.36121687 0.045985024 0.5513801 -0.69850457 0.45614827 0
-0.24345849 0.36571011 0.043229621 0.55199277 -0.69831723 0.45569399 5.8220659e-05
-0.23956268 0.3682248 0.042380244 0.55143642 -0.698291 0.45640728 0.00012167752
0.25469443 0.36805743 0.04300094 -0.57119024 -0.72535539 0.38418892 5.3988042e-05
0.26299983 0.36331844 0.046419118 -0.57319111 -0.7256332 0.38066855 0
-0.24131259 0.37069595 0.048178706 0.55315191 -0.6991294 0.45303524 0.0001157373
-0.23391795 0.37461644 0.045283563 0.55179918 -0.69971079 0.45378688 2.6118538e-05
-0.2256377 0.37809756 0.040674455 0.53889108 -0.7068277 0.45824772 0.00018832175
0.24473429 0.37731516 0.045593888 -0.56718647 -0.72872657 0.38374093 1.2401933e-05
0.25208068 0.37320989 0.048779327 -0.5718838 -0.72709197 0.37985024 0
-0.22292607 0.38286087 0.044615965 0.53581017 -0.70976061 0.45732632 0.00035669649
-0.21588579 0.3869724 0.042429619 0.49321315 -0.73763043 0.46113136 0.0014369715
0.22843398 0.38808379 0.041971873 -0.48892042 -0.77248824 0.40523931 0.0017594208
0.23373432 0.38576934 0.045227289 -0.53232741 -0.74998868 0.39261234 0.00085501274
-0.21279269 0.39179981 0.046013962 0.45841435 -0.76387584 0.45425758 0.0018175632
-0.20521463 0.39541659 0.045778442 0.4111385 -0.7942428 0.44737405 0.0012939536
-0.19460772 0.39806706 0.042574309 0.36359125 -0.81443262 0.45221773 0.00036917641
0.20607004 0.398305 0.040485732 -0.36803442 -0.83498806 0.40907907 0.00012390397
0.2153976 0.39798024 0.047791757 -0.40279925 -0.82376844 0.39894646 0.00086698099
0.22583748 0.39301676 0.047657222 -0.47723711 -0.78315151 0.39864585 0.0018021978
-0.19218262 0.40154853 0.046883818 0.35889417 -0.81927693 0.44719151 0.00031190235
-0.1854133 0.40269184 0.043835793 0.3504785 -0.82197523 0.44891152 0.00018521836
-0.17783381 0.4071835 0.046032492 0.34843713 -0.82214385 0.45018989 0.00014026195
-0.1680122 0.40909949 0.042059224 0.34756786 -0.81950486 0.45564044 0.00010677266
0.18715823 0.40795708 0.043649387 -0.36233965 -0.84191626 0.39985889 7.4288277e-05
0.19667727 0.40377295 0.043404456 -0.35992756 -0.84147459 0.40295491 0.00013493304
0.20427844 0.40317696 0.048695982 -0.36742115 -0.84249192 0.39396581 0.00024434604
-0.16327105 0.41288161 0.045132022 0.34870592 -0.82009333 0.4537082 0.00011150692
-0.15496182 0.4159582 0.04431314 0.35028273 -0.82017767 0.45233902 9.984323e-05
-0.14581798 0.41918641 0.043137092 0.35074267 -0.81950748 0.45319656 9.7756485e-05
0.16618709 0.41811612 0.046070173 -0.36209357 -0.84192938 0.40005401 0.00015663746
0.1751366 0.41466948 0.046813603 -0.36051911 -0.84321189 0.39877278 0.00014029448
0.18134224 0.41193044 0.046631265 -0.35998732 -0.8433702 0.3989183 0.00028226333
-0.14317143 0.42149782 0.045202006 0.35059175 -0.82016325 0.45212579 0.0002239876
-0.13388205 0.42548394 0.04524127 0.34980929 -0.82217824 0.44906178 0.00016571311
-0.12568206 0.42894465 0.045174807 0.34316468 -0.82596892 0.44722843 0.00018974558
0.13495135 0.42853841 0.04035069 -0.33843324 -0.84481943 0.41441897 0.00039040358
0.14230271 0.4271847 0.043826591 -0.34771866 -0.84284526 0.41073546 0.00022893307
0.15720934 0.42261836 0.047412537 -0.35961047 -0.84295541 0.40013316 0.00023142753
0.16460463 0.4202534 0.048992645 -0.36188731 -0.84442085 0.39495692 0.00019907404
-0.12512599 0.43045163 0.047392659 0.34317383 -0.82596195 0.44723439 0.0001760539
-0.11404549 0.43213707 0.042078517 0.27736658 -0.84883952 0.45004365 0.0014663461
-0.10179739 0.43814546 0.045586511 0.21057303 -0.87193358 0.44203025 0.0015994218
-0.09436433 0.43859413 0.044546571 0.16964069 -0.88451976 0.43456501 0.00097881956
-0.085906021 0.43935838 0.043836907 0.13359077 -0.88703001 0.44196296 0.00040916147
-0.077985831 0.43862388 0.040382344 0.12201025 -0.88645202 0.4464485 6.2047977e-05
0.085462011 0.43986994 0.040855881 -0.12337653 -0.89362067 0.43153256 0.00012091953
0.095322728 0.43983865 0.043466244 -0.13139756 -0.89537758 0.42548066 0.00027423358
0.10292932 0.43784049 0.04153432 -0.14022204 -0.89131433 0.43115723 0.00025188667
0.11431748 0.43634138 0.041624814 -0.20497836 -0.88230896 0.4236919 0.0017159207
0.12415975 0.43466857 0.043505758 -0.26384643 -0.87036395 0.41575456 0.0017526444
0.13339779 0.43171734 0.045315094 -0.33984363 -0.84672433 0.40934607 0.00037663252
-0.087877043 0.44022867 0.046009779 0.14397971 -0.88893455 0.4348163 0.0005362567
-0.073255427 0.44205499 0.045710709 0.11939964 -0.88931572 0.44143078 6.0425533e-05
-0.065196499 0.44271287 0.044879764 0.12261528 -0.88946974 0.44023746 0.00025446867
-0.057332546 0.44508576 0.047375143 0.1208011 -0.89498258 0.42943379 0.00030741227
-0.044647276 0.44518143 0.04427202 0.1214205 -0.8880741 0.44337502 0.00020155981
-0.034763824 0.44642961 0.044095892 0.12097569 -0.88919097 0.44125304 0.0001714574
-0.02593651 0.44634926 0.041655824 0.12060484 -0.88602394 0.4476786 0.00010515673
-0.016609333 0.44854861 0.04344077 0.1135577 -0.88870329 0.44419715 0.00011968505
0.011364901 0.44946799 0.040054042 -0.023029644 -0.89539486 0.4446772 0.0017870071
0.023644852 0.44872147 0.04181001 -0.084062122 -0.8946467 0.43879479 0.00091588299
0.035745136 0.44841748 0.044463996 -0.11854152 -0.89772391 0.42431089 0.00027419359
0.047003057 0.44643307 0.043549258 -0.12315035 -0.89595574 0.42672855 5.6803376e-05
0.055732343 0.44595894 0.044967804 -0.12137869 -0.89650005 0.42609245 0.00035040299
0.063414887 0.44252473 0.040186115 -0.11881109 -0.89212483 0.43588665 1.0364506e-05
0.07865794 0.44181192 0.042893171 -0.1246874 -0.89549088 0.42725775 0.00022956629
0.086455673 0.44278389 0.046949614 -0.12331291 -0.89743555 0.42356041 0.00034184864
-0.025538668 0.45046008 0.04940477 0.12220557 -0.8955543 0.42784137 0.00041644389
-0.016260086 0.45113245 0.04828554 0.11432428 -0.89638758 0.42827469 0.00037603235
-0.0028936383 0.45091715 0.044412009 0.057696544 -0.895576 0.44115156 0.0011950146
0.0034405582 0.45119798 0.043385979 0.037422366 -0.89452052 0.44545788 0.0014814851
0.015164865 0.45116884 0.044425432 -0.059966639 -0.89847296 0.43491414 0.0011069492
0.023163438 0.45199126 0.048196811 -0.10317999 -0.90290684 0.41726869 0.00044891352
0.035751976 0.45095611 0.049540043 -0.11982045 -0.90315294 0.41225934 0.00047468068
0.0040787254 -0.45065796 0.05911104 0.013624585 0.8881135 0.45942217 0.0016335321
-0.054856449 -0.44112954 0.055849064 0.12043396 0.87170011 0.47501013 0.00041205407
-0.04373211 -0.44301599 0.056651536 0.12148012 0.87351114 0.47140309 0.00037713541
-0.033701822 -0.44353956 0.055154547 0.12002975 0.87119472 0.47603863 0.00041163311
-0.025596017 -0.44403017 0.053974595 0.11916646 0.86947352 0.47939038 0.00043473582
-0.014785826 -0.44563836 0.054278374 0.10593595 0.86977935 0.48193511 0.00053067412
-0.003929818 -0.44865209 0.057186406 0.060684502 0.88058776 0.46998146 0.0013023382
0.0048866244 -0.44791356 0.053747751 0.0062719514 0.87983626 0.47523555 0.0018600068
0.014813573 -0.44668648 0.053013593 -0.053317681 0.88004053 0.47189596 0.0014500067
0.024133498 -0.44713104 0.05630108 -0.10314342 0.88134688 0.46107402 0.00051302498
0.03812848 -0.44537771 0.056501284 -0.11439043 0.87889344 0.46309963 0.00036938893
0.042461667 -0.44386944 0.054968376 -0.11767372 0.87410235 0.4712728 0.00052706292
0.054158766 -0.44192642 0.054051787 -0.11744789 0.87318504 0.47302642 0.00058920885
0.066452436 -0.44177902 0.057039738 -0.12235569 0.88071346 0.45757282 0.00056573207
0.070484065 -0.44106495 0.056664698 -0.11777524 0.87965322 0.4608027 0.00056919263
-0.10451481 -0.43466303 0.056734562 0.21186109 0.85590315 0.47174644 0.0014874436
-0.095868327 -0.43556324 0.055899963 0.15120429 0.86261702 0.48273095 0.00087222207
-0.08771541 -0.43545762 0.053862661 0.12772271 0.86724961 0.4812122 0.00039060452
-0.07472413 -0.43819824 0.055520028 0.11845012 0.87482953 0.46972632 0.00038232602
-0.067063853 -0.43623137 0.050364453 0.11179102 0.86444396 0.49014208 0.00037593639
-0.056901563 -0.4384816 0.051750496 0.11651413 0.87008005 0.47894177 0.00041281249
0.059223909 -0.43906558 0.050388291 -0.11841585 0.86807531 0.4821026 0.00059632235
0.067003749 -0.4388172 0.051701464 -0.11823264 0.87060523 0.47756436 0.00052560173
0.079840042 -0.43957564 0.056185126 -0.12054578 0.87701494 0.46509513 0.00053659064
0.084678315 -0.43808028 0.054548029 -0.11933587 0.87759697 0.4643085 0.00061084033
0.095821269 -0.43743321 0.056261819 -0.1252048 0.87892222 0.46023852 0.00040104397
0.10387556 -0.43529716 0.054265846 -0.1459752 0.87006646 0.47082445 0.00097092864
0.11737318 -0.43330291 0.054027114 -0.22282225 0.86113214 0.45694819 0.0016989005
0.12198096 -0.43515041 0.059869781 -0.24449295 0.86254728 0.44298464 0.0017523598
0.13099125 -0.43120793 0.059570663 -0.30267033 0.84578508 0.43936121 0.001181531
-0.14076123 -0.42006725 0.056146733 0.34456533 0.80648339 0.48047814 0.00025785904
-0.13295913 -0.42263377 0.054941159 0.34314123 0.80571961 0.48277327 0.00033176003
-0.1148895 -0.4291265 0.052874696 0.27199149 0.82954693 0.48772174 0.0015226371
-0.10849765 -0.42992592 0.050043091 0.24670812 0.83390224 0.49370259 0.0017027254
0.13594426 -0.42553774 0.052931853 -0.32413357 0.82385164 0.4649795 0.00058651547
0.14717771 -0.42333105 0.05761509 -0.34998626 0.82217848 0.44892317 0.00022132532
-0.16202907 -0.41045028 0.055126943 0.34383324 0.80661601 0.48078004 0.00032456635
-0.15519524 -0.41327438 0.055081125 0.34278625 0.80647779 0.48175836 0.00040516508
-0.14508262 -0.41628838 0.052926313 0.34032795 0.80131078 0.49201417 0.00031171666
-0.13760491 -0.41850799 0.051477313 0.34106538 0.79804599 0.49678668 0.00034908205
0.15408777 -0.41871393 0.054716706 -0.34759429 0.81912559 0.45630205 0.00019713068
0.16448411 -0.41467676 0.05530167 -0.34515926 0.81974232 0.45704213 0.00025721616
0.17190601 -0.41206062 0.05616539 -0.34836802 0.81867784 0.45651537 0.00034469899
-0.18038955 -0.40423548 0.058171596 0.3469601 0.80859447 0.47517747 0.00030265891
-0.17566895 -0.40369076 0.053602308 0.34194615 0.80604678 0.48307502 0.00025135305
-0.16915405 -0.40753713 0.055525709 0.34450832 0.80727094 0.47919479 0.00023836282
0.17948148 -0.40838954 0.05528111 -0.3502638 0.81825721 0.45581841 0.00032331535
0.18616018 -0.40611315 0.056535091 -0.35394272 0.81852603 0.45248178 0.00028151309
0.19132814 -0.40165782 0.052435063 -0.34964114 0.81557018 0.46108186 0.0002516185
-0.20531018 -0.39049566 0.052784909 0.40254959 0.77302092 0.49029842 0.0012314664
-0.19807166 -0.39254594 0.051235478 0.35977173 0.7917468 0.49366108 0.00073126669
-0.18430485 -0.39894041 0.052012175 0.34255627 0.8017087 0.48981473 0.00041609354
0.20532489 -0.39638853 0.053695232 -0.35253394 0.81664628 0.45695579 0.00026595598
0.21562926 -0.39271545 0.054914813 -0.38899696 0.8015449 0.45410052 0.00086751505
0.2228871 -0.39163625 0.058842223 -0.43247622 0.78578347 0.44216368 0.0012301976
-0.2214469 -0.3811492 0.053455703 0.48579931 0.72312617 0.49100673 0.0013335914
-0.21714079 -0.3855879 0.055010963 0.46762654 0.73679984 0.48831487 0.0013632016
-0.207665 -0.38787273 0.050370045 0.41527334 0.75939661 0.50086403 0.0013051117
0.22719693 -0.38630962 0.053457916 -0.45647642 0.76373583 0.45643935 0.0015721689
0.23369959 -0.38286239 0.055798911 -0.50958657 0.73414826 0.44871807 0.0009119286
-0.23046091 -0.37533814 0.055288512 0.52952796 0.69337076 0.48870972 0.00027946255
-0.2264934 -0.37642789 0.052510001 0.51820773 0.69647568 0.49636921 0.0003717418
0.2361995 -0.37821066 0.051569581 -0.51657045 0.72680527 0.4526687 0.00091362733
0.2427799 -0.37524304 0.055048268 -0.54758078 0.71178204 0.43991107 0.00016956932
-0.25195026 -0.36098889 0.059270345 0.54342318 0.68909907 0.47940966 0.00010482621
-0.24432032 -0.36364123 0.054286946 0.5408082 0.68504322 0.48810071 7.7161014e-05
-0.23730953 -0.36662641 0.050827414 0.53710932 0.68209004 0.49625257 0.00017542692
0.25497943 -0.36493397 0.054023832 -0.5571382 0.70212984 0.44340813 0.00016453494
-0.26190332 -0.35173526 0.0571866 0.54293525 0.68722314 0.48264435 0.00012257317
-0.25612608 -0.3553817 0.055912565 0.54176956 0.68757278 0.48345572 0.00013012276
-0.24877009 -0.35969418 0.053643595 0.54384279 0.68528414 0.48437658 0.00011174016
0.25965929 -0.35868889 0.050094403 -0.55476499 0.70257258 0.44567651 4.5586316e-05
0.26712301 -0.35629445 0.055584662 -0.55628926 0.70483446 0.44017106 6.6265413e-05
-0.27343789 -0.34240589 0.056931417 0.5443176 0.6843282 0.48519403 6.9078931e-05
-0.26561368 -0.34700075 0.054545775 0.54246587 0.68419182 0.48745498 0.00015149402
0.27864203 -0.34477139 0.05173273 -0.55480027 0.70346469 0.44422302 2.3827668e-05
0.28496048 -0.34254286 0.056125004 -0.556077 0.70614058 0.43834206 5.4360702e-05
-0.28371376 -0.33241826 0.054135039 0.54165173 0.68374199 0.48898891 8.7750719e-05
0.29543823 -0.3341527 0.055896245 -0.55618191 0.70568353 0.43894476 3.0181407e-05
0.30069536 -0.33015099 0.056141175 -0.56530577 0.69834143 0.43903136 0.00023318146
-0.29715723 -0.32321686 0.056220803 0.58230907 0.65650409 0.47949815 0.0010275169
0.30647391 -0.32463762 0.05466418 -0.59100497 0.67990941 0.43409255 0.00098553009
-0.31191984 -0.31069633 0.058938518 0.65968531 0.57061923 0.48908991 0.0011935438
-0.306999 -0.3131429 0.055146769 0.64340711 0.58576971 0.4928501 0.001437099
0.31769577 -0.31417155 0.05347915 -0.65905464 0.61543214 0.43230817 0.0017133816
0.3234809 -0.31132951 0.05915362 -0.68208754 0.5940944 0.42639005 0.0013569234
-0.31353223 -0.30312648 0.05326112 0.67995459 0.53922284 0.49689093 0.00044115036
0.32619235 -0.3040604 0.054445375 -0.69976038 0.57359731 0.42581868 0.0008021181
0.33072019 -0.30025408 0.057391409 -0.72272998 0.54789919 0.42126942 0
-0.32459357 -0.29208943 0.057259142 0.69599652 0.5201472 0.49501094 0
-0.31946477 -0.2963509 0.054490771 0.69529682 0.52102131 0.49507493 0
0.32965299 -0.297903 0.052489404 -0.72329426 0.5476442 0.42063183 2.8548315e-05
0.33358079 -0.29101101 0.050398566 -0.72739679 0.54341865 0.41903472 1.1490198e-05
-0.33100393 -0.28047273 0.054091025 0.69639874 0.51878232 0.49587664 8.599025e-05
-0.32700956 -0.28605828 0.054328322 0.69638956 0.51886123 0.49580705 0
0.33853784 -0.28693014 0.053725701 -0.72825176 0.54245716 0.41879532 0
0.34290919 -0.28306484 0.056322496 -0.72821242 0.54241085 0.41892377 0.00010302561
-0.34126273 -0.27130708 0.058940839 0.69676381 0.51930863 0.49481174 0
-0.33614415 -0.27492744 0.05551824 0.69661814 0.51905787 0.49527997 0
0.34600633 -0.2780526 0.055213481 -0.72818696 0.54252338 0.41882226 4.8491761e-06
-0.34412116 -0.26476094 0.056091487 0.69673979 0.51875454 0.49542636 5.7616788e-05
0.35635906 -0.26388797 0.05486951 -0.72813398 0.54257601 0.41884619 0
0.36054313 -0.26141161 0.058941007 -0.72816378 0.54267168 0.4186703 0
-0.35235977 -0.25324965 0.0556174 0.6966759 0.51899695 0.49526241 0
-0.34696922 -0.25770232 0.052715804 0.69648325 0.51866984 0.49587563 0
0.36384383 -0.2539562 0.055018395 -0.72799492 0.54275852 0.41885144 0
-0.36249262 -0.24372151 0.059905581 0.69823289 0.51807296 0.49403569 4.1707081e-05
-0.35711971 -0.24679852 0.055563465 0.69692928 0.51888746 0.49502066 4.0853902e-05
0.36640474 -0.24834892 0.052210804 -0.72773081 0.54349458 0.41835561 0
0.37260365 -0.24434923 0.057809066 -0.72725016 0.54347879 0.41921127 0.00010445355
-0.36672303 -0.23411831 0.055773053 0.70817041 0.50629121 0.49210155 0.00028251033
0.37559289 -0.23605815 0.052266758 -0.73541796 0.53507441 0.41575921 0.0002415872
-0.37304765 -0.22385399 0.054003019 0.73798698 0.46189007 0.49196827 0.0013403918
-0.36698186 -0.22928737 0.051091325 0.72206587 0.48148489 0.49678278 0.0011039814
0.38597766 -0.2241772 0.055224575 -0.78153545 0.46919942 0.41116193 0.0018651769
-0.37735817 -0.21535867 0.054251179 0.77767092 0.39191735 0.49155745 0.0013726107
0.3886669 -0.21781042 0.053830441 -0.80739564 0.42210633 0.41223592 0.0020043056
0.39038387 -0.21643421 0.05621488 -0.81078476 0.41922441 0.40850827 0.0018999653
-0.38179883 -0.20568173 0.055145193 0.80185157 0.34040037 0.4910821 0.00039180479
0.39378971 -0.20522882 0.053880747 -0.84065342 0.35572961 0.40836057 0.00044835804
-0.38575083 -0.19640459 0.055541988 0.80707258 0.32627207 0.49211821 7.4351148e-05
0.39752904 -0.19605753 0.054002028 -0.84914732 0.34220526 0.40229893 0
-0.39217463 -0.1815245 0.056270901 0.80848706 0.32451326 0.49095803 4.8548041e-05
-0.3897599 -0.18567045 0.055089567 0.80844897 0.32482517 0.49081442 3.1681277e-05
0.40321553 -0.18324728 0.055118177 -0.84972036 0.34105396 0.4020665 0
-0.39410999 -0.17431387 0.05469539 0.80867153 0.32472897 0.49051148 4.7410998e-05
0.40719387 -0.1757793 0.057076421 -0.84779894 0.34121513 0.40596703 0
-0.40126225 -0.16439687 0.059752483 0.80469829 0.32468149 0.49703383 8.52511e-05
-0.39787075 -0.166361 0.055582497 0.80730456 0.32515451 0.49247721 0
0.41191947 -0.16314897 0.056379728 -0.84852356 0.34267861 0.40321088 0.000122514
-0.40233928 -0.15306939 0.054114308 0.80784374 0.32607949 0.49097922 0.00010475193
-0.39945146 -0.15666842 0.051753037 0.8094492 0.3260096 0.48837456 8.4122701e-05
0.41535372 -0.15360582 0.055487968 -0.84857333 0.34149811 0.40410677 9.7692333e-05
-0.40803224 -0.14344242 0.057133161 0.80776137 0.32459465 0.49209744 3.1037034e-05
0.41808492 -0.14575112 0.054615099 -0.85027975 0.34274825 0.39943457 0.00012890912
-0.41065574 -0.13637874 0.056790035 0.81035912 0.32059419 0.4904463 0.00011634012
-0.40739149 -0.13465309 0.05018571 0.81372595 0.32175246 0.48407176 0.00011868574
0.42381102 -0.13325806 0.056048468 -0.8492204 0.34183195 0.40246201 0.00013623496
-0.41322529 -0.12454244 0.053145744 0.82510608 0.28865522 0.48567286 0.00072264601
-0.40947708 -0.12998864 0.050546341 0.81587988 0.31308371 0.48612618 0.00035911723
0.42658979 -0.12467084 0.054672368 -0.87073612 0.29788402 0.39125916 0.0014355014
-0.42100105 -0.11271747 0.058914274 0.84544367 0.22010858 0.48659766 0.0017800932
-0.41713262 -0.11598253 0.054049291 0.84265506 0.23829798 0.48285255 0.0018575122
0.42819148 -0.11647762 0.051045842 -0.88715732 0.25482652 0.38472766 0.0018305428
0.43052486 -0.11410923 0.054094426 -0.89108479 0.22796942 0.39242578 0.0022474618
-0.42188635 -0.10647887 0.058579672 0.85601062 0.18231028 0.48374447 0.0016350771
-0.41873813 -0.1082931 0.053490128 0.84816897 0.21647699 0.48347393 0.0018294627
0.43253911 -0.10302359 0.054424331 -0.89922184 0.16678253 0.4044548 0.0015148121
-0.42222154 -0.094558567 0.056556158 0.86939961 0.12759608 0.47735062 0.00053193461
0.43419573 -0.096022889 0.056387648 -0.90229666 0.14910379 0.40451047 0.0011543604
-0.42244416 -0.086948827 0.055212699 0.86815888 0.11636124 0.48245227 0.00027418474
-0.41983566 -0.089235306 0.050949026 0.87318522 0.11662615 0.47322917 0.0002162305
0.43475384 -0.085507743 0.054519076 -0.91235203 0.12263615 0.39060745 0.00039869972
-0.4232136 -0.076843098 0.054243349 0.86948282 0.11170879 0.48116606 0.00013602845
0.43629384 -0.073636495 0.0544402 -0.91405541 0.11605433 0.38863119 0.0003442046
-0.42402709 -0.067439318 0.053648889 0.86972272 0.11189557 0.48068884 8.9262321e-05
0.43765706 -0.064972065 0.054866154 -0.91513717 0.11523046 0.38632366 0.0002288442
-0.42727992 -0.053645451 0.056286376 0.86785102 0.11069735 0.48433527 0
0.43845591 -0.055198725 0.054199159 -0.91685587 0.11724428 0.38161376 0.00012719902
0.44044876 -0.052075699 0.057721969 -0.91189045 0.11774866 0.39318058 0.00018278751
-0.43066984 -0.042818923 0.059665151 0.86496234 0.11153659 0.48928493 0.00014325327
-0.42743713 -0.046344846 0.054742329 0.86773044 0.11165301 0.48433197 9.247048e-05
0.44101495 -0.044672512 0.056927614 -0.91071361 0.11554792 0.39654696 0.00025484015
-0.43057466 -0.036386762 0.058124915 0.86788422 0.1087093 0.48472592 0.00017734953
-0.4285835 -0.03586768 0.054563165 0.86823827 0.10973199 0.48386073 0.00016043869
0.44263494 -0.034300137 0.057542883 -0.91179293 0.11823694 0.39326033 0.00026866631
-0.43195045 -0.022602841 0.057477042 0.86681479 0.1045449 0.48754746 0.00014734191
-0.42929524 -0.022644125 0.052791595 0.87091595 0.10841707 0.47932348 0.00021328939
0.44285315 -0.024955006 0.055372696 -0.91205549 0.11568356 0.39341095 0.00012701184
-0.43199733 -0.012557231 0.055287663 0.87280595 0.094086334 0.4789128 0.00057622668
-0.42996639 -0.012207096 0.05150459 0.87702084 0.086595558 0.47258413 0.00080454827
0.44367203 -0.015652532 0.05439005 -0.91545171 0.10709053 0.38791716 0.00038004157
-0.43377757 -0.0050635464 0.056781027 0.8769412 0.052391984 0.4777334 0.0013171937
0.44650772 -0.0041374876 0.057502534 -0.91783756 0.047967188 0.39404759 0.0017841092
-0.43431976 0.0069904639 0.056309387 0.87199259 -0.016502962 0.48924071 0.002301607
0.44641739 0.0049453252 0.055745542 -0.92329025 -0.00012922262 0.38410291 0.0022617234
-0.43327656 0.013338556 0.05573399 0.87985831 -0.037782181 0.47373185 0.0021776285
0.44593909 0.014907693 0.056935824 -0.92097926 -0.060980584 0.38480982 0.0017072986
-0.43282464 0.021817496 0.056927264 0.87420732 -0.10019952 0.47510156 0.00043195262
-0.42939311 0.026161145 0.05160246 0.87846959 -0.11144695 0.46461886 0.00017593551
0.44304368 0.025320603 0.053107589 -0.91908556 -0.10156673 0.38074401 0.0006565933
-0.43144095 0.036142077 0.057745233 0.87333512 -0.11163738 0.47415489 0.00017259862
0.44141039 0.035564646 0.052484147 -0.91802043 -0.1167158 0.37896696 0.00033470901
-0.43050909 0.049126074 0.058996752 0.87292391 -0.11092407 0.47507876 0.00011943663
-0.42796251 0.046522915 0.053895071 0.87601644 -0.11220177 0.46904796 9.7228512e-05
0.43950558 0.046561331 0.051082484 -0.9216187 -0.11960717 0.3692061 0.0004308905
0.44158286 0.046340261 0.056268081 -0.91320193 -0.11957407 0.38956928 0.00042182108
-0.42533717 0.054254178 0.050665665 0.87873727 -0.11180256 0.46402675 7.0835747e-05
0.4385803 0.056239318 0.051957179 -0.92055058 -0.11588546 0.37303793 0.00043273519
0.44227365 0.054321285 0.059888639 -0.91111022 -0.11413852 0.39604354 0.00020150526
-0.42765334 0.064510204 0.057414789 0.87382811 -0.11196219 0.47316891 0.00022679591
0.43857351 0.065975457 0.055062573 -0.91664356 -0.11587412 0.38254109 0.00035304544
0.44016016 0.069500998 0.059521571 -0.90939671 -0.11680863 0.39919075 0.00034904393
-0.42526326 0.073953122 0.055325169 0.87485838 -0.10931493 0.47188231 0.00018783701
0.43722284 0.07665702 0.055240795 -0.91610545 -0.11893206 0.38289165 0.0004790297
-0.42464653 0.082592294 0.056198508 0.87379169 -0.11120015 0.47341594 9.7084085e-05
0.43607593 0.087067366 0.055393495 -0.9172852 -0.11901115 0.38003179 0.00040644614
-0.42335349 0.09293171 0.056212664 0.87317842 -0.11262425 0.47421017 6.489511e-05
0.43493646 0.09479145 0.05513446 -0.91558892 -0.11547849 0.38517746 0.00041747349
-0.42141655 0.10597914 0.055765901 0.87195045 -0.15673037 0.46382973 0.0013215996
-0.41942182 0.10440795 0.051661074 0.87465173 -0.13555199 0.46541384 0.00081428356
0.433864 0.10556819 0.055870619 -0.91396689 -0.13159074 0.38385984 0.00066424091
-0.42114905 0.11380628 0.057115734 0.86051208 -0.19467305 0.47076675 0.0020168021
-0.41860467 0.11207959 0.051989816 0.86538643 -0.18258443 0.46665767 0.0018781761
0.43157032 0.11646289 0.0538853 -0.9007324 -0.20151527 0.38480225 0.0022571455
-0.42067206 0.12065052 0.057799928 0.85235351 -0.22833616 0.47048497 0.0025192495
-0.41602865 0.12593454 0.052792206 0.84390229 -0.25810641 0.47032952 0.001520609
0.43276095 0.1231976 0.059160672 -0.89159411 -0.24011353 0.38393411 0.0025299666
-0.4133839 0.13436329 0.054199208 0.8354615 -0.29122859 0.46603641 0.0011034072
-0.40930808 0.13941617 0.050387796 0.83372062 -0.31213301 0.45550302 0.00049606303
0.4258379 0.13544351 0.054855976 -0.86594254 -0.3290765 0.37663248 0.00056689582
-0.41087016 0.14784804 0.0592421 0.82076955 -0.32988849 0.46638075 0.00010656932
-0.40815187 0.14545871 0.052774299 0.82497758 -0.32998326 0.45882809 3.2660697e-05
0.42190889 0.14616001 0.055616241 -0.85931605 -0.34519419 0.37738162 0.00030732522
-0.40559652 0.1547486 0.054912284 0.82345033 -0.33014888 0.46144471 9.558798e-05
0.41849038 0.15441872 0.055432554 -0.8592307 -0.3462708 0.37658882 0.00019982876
0.42198026 0.1506616 0.059699632 -0.8542915 -0.34611386 0.38780296 0.00016240939
-0.40103489 0.16662434 0.055359162 0.82341492 -0.33069083 0.46111971 3.3514731e-05
0.41379523 0.16506983 0.054558709 -0.8597225 -0.34792614 0.37393129 0.00016052708
-0.40032518 0.17167374 0.057603344 0.8225829 -0.33135501 0.46212682 1.8050594e-05
-0.39785999 0.17392291 0.054867145 0.82304633 -0.33184707 0.4609471 7.5187535e-07
0.40866742 0.17526683 0.052201524 -0.86317885 -0.34791079 0.36589649 0.00029523444
0.41155517 0.17449422 0.057973787 -0.85917521 -0.34519377 0.37770253 0.00020766626
-0.39157268 0.18710975 0.05308903 0.82352263 -0.33284357 0.45937544 5.5684428e-05
0.40623721 0.18611397 0.056479778 -0.85867327 -0.34537393 0.37867811 0.00025865657
-0.39056545 0.19273254 0.055380616 0.82339001 -0.33200574 0.46021852 0
-0.38792285 0.19641767 0.053305954 0.8242119 -0.3320266 0.45872983 6.6432025e-05
0.40281796 0.19195278 0.054134116 -0.86220568 -0.3465451 0.36946955 0.00021500274
-0.38444218 0.20493558 0.053135183 0.82379794 -0.33490109 0.45738193 9.5206306e-05
0.39708272 0.20688808 0.054744821 -0.86147988 -0.34480372 0.37277713 7.2815179e-05
0.40128791 0.20120461 0.05894424 -0.85572827 -0.34469897 0.38589078 0.00023719687
-0.38232622 0.21254282 0.054883733 0.8159852 -0.34950921 0.46044698 0.00060664042
0.39362741 0.21588378 0.055149563 -0.84193212 -0.38270807 0.38037452 0.0011800574
-0.37693679 0.2272979 0.05582159 0.78577322 -0.408535 0.46439171 0.0018381313
0.38952565 0.22416954 0.053556602 -0.81861269 -0.43341985 0.37685627 0.00169113
0.39146259 0.22258414 0.056395579 -0.83038658 -0.41181436 0.37532261 0.0014105124
-0.37291014 0.23389241 0.055214334 0.75403064 -0.46723604 0.46165821 0.0017421837
-0.36807379 0.23802799 0.052461401 0.74006432 -0.49171305 0.45882797 0.0015285425
0.37921998 0.23862092 0.05004473 -0.77851135 -0.50232887 0.376279 0.0016438266
0.382678 0.23806459 0.056016047 -0.78211057 -0.48637447 0.38954195 0.0015395024
-0.37025806 0.2410306 0.059473455 0.72513765 -0.51604968 0.45592555 0.00047073147
-0.36736083 0.24155192 0.055495199 0.72760046 -0.50938445 0.45948344 0.00081124192
-0.3589853 0.24869898 0.050668553 0.71700656 -0.53226787 0.4501026 2.2903429e-05
0.37334448 0.24807677 0.05240453 -0.74910593 -0.54078758 0.38260838 0.00027547311
0.38052791 0.24177706 0.057220466 -0.76614261 -0.51523745 0.38413 0.0011769721
-0.35652199 0.25602952 0.055399694 0.71490854 -0.53388518 0.45152214 0
0.36990079 0.25386375 0.054156173 -0.74158686 -0.55228794 0.38082424 0
0.37222281 0.25239158 0.056464929 -0.74053317 -0.55240613 0.38269833 2.6839913e-05
-0.35321158 0.26224774 0.057497151 0.71521938 -0.53317982 0.45186341 0
-0.34756431 0.26516581 0.051998317 0.71523863 -0.5330475 0.45198905 5.1860101e-05
0.36293671 0.26364356 0.054762326 -0.74124432 -0.55182916 0.38215384 3.2628013e-05
-0.34744486 0.27015913 0.057698593 0.71540385 -0.53299189 0.45179302 0
-0.33741069 0.27866179 0.051840406 0.71514177 -0.53270072 0.45255068 9.7104894e-05
0.354664 0.27445331 0.054227382 -0.7407043 -0.55232513 0.38248408 0
-0.33386049 0.28630978 0.055232368 0.71513212 -0.53297901 0.45223829 0
0.34702945 0.28652906 0.056863386 -0.74065334 -0.55189848 0.38319802 9.2725779e-05
0.35074496 0.28258404 0.058369502 -0.7398482 -0.55221575 0.38429469 3.9563285e-05
-0.33135 0.29225901 0.058283374 0.71539062 -0.53306282 0.45173043 5.3244192e-05
-0.32311079 0.29804173 0.052054867 0.71515638 -0.53275418 0.45246476 1.6497561e-05
0.33836713 0.29548663 0.053063519 -0.74090761 -0.55216885 0.38231599 1.3563968e-05
0.34270567 0.29195362 0.056387559 -0.74103302 -0.551516 0.38301462 0
-0.32429063 0.30170232 0.058243591 0.71534878 -0.53311002 0.45174083 1.491842e-05
-0.31773323 0.30657098 0.053596545 0.71224701 -0.53734827 0.45162046 0.00010771599
0.329238 0.30619991 0.050767872 -0.73931921 -0.55732495 0.37788364 4.7505509e-05
0.33345038 0.30375823 0.055454023 -0.73959953 -0.55456126 0.38138494 0
-0.31450298 0.31399682 0.057249907 0.68629491 -0.56945062 0.45246565 0.0010037138
-0.30833212 0.31975991 0.054256275 0.65956813 -0.59918052 0.45382008 0.0017351239
0.32340515 0.31672728 0.054746501 -0.70156431 -0.60296267 0.379794 0.0013493858
0.33031964 0.31096202 0.059704036 -0.72358572 -0.57388443 0.38351056 0.00056078896
-0.30259958 0.32833818 0.057631399 0.61100572 -0.65683711 0.44185641 0.0014777153
-0.29776645 0.3295882 0.053528253 0.58451909 -0.67750329 0.44646025 0.0008333755
0.30875823 0.32947767 0.050777044 -0.61639905 -0.68927795 0.3807205 0.0012025267
0.31763437 0.32400683 0.054674216 -0.66062999 -0.64787585 0.37924251 0.002082546
-0.29394883 0.33480516 0.057041876 0.58078438 -0.68203378 0.44443148 0.00076344027
-0.28574771 0.33834133 0.05234858 0.55837208 -0.70048404 0.44445768 1.5701704e-05
0.29831696 0.33836839 0.051970869 -0.57489717 -0.72632372 0.37675858 0
0.30524471 0.3345522 0.055188168 -0.59486413 -0.71083534 0.37529963 0.00054673321
0.31034607 0.33235094 0.058824752 -0.61045873 -0.69503707 0.37982041 0.0012308751
-0.28136167 0.34374437 0.055412356 0.55492431 -0.7038222 0.44350132 0
-0.27461702 0.347965 0.053642284 0.5551157 -0.70229554 0.44567642 1.6798394e-05
0.28719595 0.3497124 0.056929879 -0.57455802 -0.7274105 0.3751761 7.8343488e-05
0.29649553 0.34254906 0.057308599 -0.57463956 -0.72752905 0.3748211 0
-0.26769617 0.35517514 0.056387212 0.55627096 -0.70287621 0.44331443 0
0.27635521 0.35615125 0.052798923 -0.57485598 -0.72703636 0.37544474 9.6836149e-05
0.28238225 0.35387361 0.05765073 -0.57493919 -0.72838175 0.37269962 2.6376651e-05
-0.25595781 0.36417031 0.05593136 0.55519307 -0.70285201 0.44470188 3.6520214e-05
-0.24622957 0.36927751 0.051891677 0.552737 -0.70189607 0.4492479 9.1085458e-06
0.2598868 0.36904562 0.052534588 -0.57466441 -0.72753143 0.37477848 6.815073e-05
0.26562455 0.36594424 0.055341184 -0.57555878 -0.72779053 0.37289813 8.0878999e-06
0.2729128 0.3615419 0.058021557 -0.57552397 -0.72825789 0.37203848 3.0185789e-05
-0.24483843 0.37284806 0.055830676 0.55546439 -0.70264512 0.44468999 0
-0.23830189 0.37772587 0.055239055 0.5537672 -0.70465136 0.4436309 7.6347314e-05
0.24671042 0.3784526 0.05064759 -0.57157743 -0.72867364 0.37727156 0
0.2541275 0.37331977 0.052013941 -0.57386285 -0.7277056 0.37566742 0
-0.23181923 0.38255006 0.054823238 0.54988134 -0.70792162 0.44325781 0.00017451374
0.23753114 0.38819674 0.055387843 -0.54550511 -0.74734002 0.3793509 0.00068564783
0.24415679 0.38344625 0.056413293 -0.57023013 -0.73138565 0.37404898 9.158389e-05
-0.2217906 0.39136705 0.056225915 0.51753402 -0.73548037 0.43729529 0.00081727118
-0.21477565 0.3952179 0.054074816 0.46121448 -0.76750779 0.44521123 0.0019207195
-0.20591031 0.39816299 0.051199786 0.40437058 -0.80070895 0.44198382 0.0010792364
0.21664341 0.3993876 0.051667284 -0.40423575 -0.82740259 0.38986969 0.00080598542
0.22592436 0.39551231 0.052780788 -0.46832103 -0.79416442 0.38727018 0.0018201269
0.23233441 0.39159453 0.05398073 -0.52984166 -0.75818008 0.38004038 0.0010185131
-0.20200321 0.40250954 0.056208845 0.38170955 -0.82025939 0.4259958 0.00055647542
-0.1937333 0.40531272 0.054955341 0.35682997 -0.82790786 0.43271342 0.00020468977
-0.18788406 0.40813094 0.0553248 0.35213333 -0.83087742 0.43086514 0.00018031152
0.19454174 0.40887329 0.05177791 -0.35985351 -0.84827816 0.38849658 0.00014019273
0.20519905 0.40557525 0.054422218 -0.3649604 -0.84794033 0.38444915 0.00024850335
0.21590699 0.40199065 0.056642812 -0.401418 -0.83171058 0.38356376 0.00084965437
-0.18369155 0.41018412 0.055891801 0.35295075 -0.83073086 0.43047884 0.00028646729
-0.17301835 0.41419899 0.05496823 0.35323143 -0.83221769 0.42736554 0.00021687082
-0.16634196 0.41656545 0.05415903 0.35350972 -0.83216524 0.42723745 0.00024564343
