# .PCD v0.7 - Point Cloud Data file format
VERSION 0.7
FIELDS x y z normal_x normal_y normal_z curvature
SIZE 4 4 4 4 4 4 4
TYPE F F F F F F F
COUNT 1 1 1 1 1 1 1
WIDTH 598
HEIGHT 1
VIEWPOINT 0 0 0 1 0 0 0
POINTS 598
DATA ascii
0.16327515 0.41103402 0.13659853 -0.33361292 -0.91800827 0.21439028 0.087617159
-0.13766778 0.42036694 0.1368805 0.3055619 -0.91697299 0.25650033 0.089040145
-0.12783846 0.42169538 0.13117838 0.30085167 -0.92039686 0.24971554 0.091680653
-0.11159807 0.42775556 0.13597703 0.27681226 -0.9277876 0.25017023 0.080705956
-0.10709818 0.42911315 0.13685441 0.24025352 -0.94098651 0.23837471 0.083233252
-0.09881793 0.42908913 0.13004081 0.2479326 -0.92657053 0.28283644 0.088761553
-0.08161068 0.4200592 0.13215172 0.066053525 -0.92678517 0.36973789 0.088401951
-0.061751127 0.42476341 0.1375448 0.07087104 -0.95355904 0.29274985 0.088938832
-0.05618139 0.42521349 0.13599992 0.18454891 -0.93732637 0.29556882 0.088860258
-0.04666096 0.42664763 0.13736406 0.087701716 -0.95401406 0.28664529 0.087737896
-0.037426602 0.426339 0.13298371 0.11741406 -0.96144539 0.2486698 0.094997868
-0.025029859 0.42824212 0.13616498 0.051610213 -0.97215253 0.22859514 0.085397035
-0.014945555 0.42900252 0.13779204 0.062641464 -0.97521031 0.21222827 0.092721887
-0.00034229225 0.42967659 0.13859291 0.019650294 -0.98021924 0.19693691 0.088636585
0.029850295 0.42660016 0.13129681 0.0097118393 -0.95827144 0.2856946 0.090282552
0.03466725 0.42634842 0.13205162 -0.049436398 -0.95599097 0.28920096 0.096285738
0.048393428 0.42694542 0.13907507 -0.13459173 -0.96897668 0.2072902 0.081690855
0.054558642 0.42547876 0.13619754 -0.10641692 -0.95835698 0.26500458 0.085534059
0.066564143 0.42303205 0.13398057 -0.26895276 -0.95015484 0.1577031 0.083916388
0.07553798 0.42261195 0.13766299 -0.20850042 -0.93941349 0.27208444 0.08386194
0.10494484 0.42926693 0.13566409 -0.21112351 -0.94237649 0.2595256 0.098982044
0.11765473 0.42624336 0.13686183 -0.20103104 -0.94834274 0.24542315 0.087694295
0.12600063 0.42375252 0.13662544 -0.27801636 -0.92776912 0.24890043 0.085069284
0.1363641 0.42083365 0.13699125 -0.29705805 -0.91786355 0.26321653 0.086908422
-0.10105345 0.43112978 0.13927279 0.27253357 -0.93517494 0.22621532 0.088863865
-0.096936226 0.43134937 0.13672629 0.24775802 -0.92726523 0.28070468 0.093650922
-0.073443979 0.43610457 0.13716377 0.13371685 -0.93340868 0.33296853 0.078911655
-0.066659898 0.43611607 0.13325407 0.1606624 -0.9377569 0.30789548 0.09067829
-0.054428801 0.43777961 0.13245085 0.162187 -0.95528549 0.24723496 0.092738234
-0.044510573 0.43889496 0.13310994 0.043442901 -0.97719455 0.20785473 0.08990863
-0.032729618 0.43928453 0.13042572 0.10829014 -0.96215141 0.25007588 0.085534208
0.054022204 0.43861818 0.13559307 -0.10605209 -0.9608779 0.2558645 0.08955615
0.074451372 0.43485817 0.13316652 -0.1923651 -0.95386213 0.23052706 0.083362184
0.083392464 0.43389598 0.13502026 -0.20926476 -0.93906718 0.27269226 0.086533263
0.096065193 0.43188614 0.1379694 -0.20380744 -0.95744604 0.20435143 0.089711785
-0.04835926 0.44019383 0.13927405 0.035462562 -0.9716987 0.233547 0.094308428
-0.034444362 0.44085467 0.1368475 0.16576369 -0.96581161 0.19932468 0.10376199
-0.013900816 0.44154102 0.13543311 0.060675539 -0.97566491 0.21070497 0.081917889
-0.0020071503 0.44166926 0.13451916 0.0010073984 -0.97388434 0.22704253 0.091608502
0.015803924 0.44190782 0.1370209 -0.058237035 -0.96478981 0.25649354 0.081522323
0.030824307 0.44113111 0.13660383 -0.10387006 -0.95325172 0.28376436 0.094347045
-0.062803037 -0.44022545 0.14684333 0.21936662 0.94547927 0.2407226 0.083392382
-0.054181993 -0.44142854 0.14660704 0.13998784 0.95122796 0.27489763 0.088146508
-0.044466253 -0.44116655 0.14151594 0.038115311 0.96430278 0.26204464 0.098416753
-0.036541883 -0.44285116 0.14533296 0.0038114309 0.97286588 0.23133835 0.08995796
-0.027826112 -0.44266763 0.1412552 0.067785889 0.97181958 0.22576961 0.092685468
-0.011934731 -0.44444615 0.146703 0.058367308 0.97318 0.22251715 0.08717984
-0.0058878753 -0.44437194 0.14547561 0.073077515 0.97071749 0.22883879 0.080616906
0.0027657563 -0.44431731 0.14520086 0.0036447451 0.96533972 0.26097116 0.078081295
0.021939795 -0.4440906 0.14659852 -0.072001599 0.97654635 0.20291157 0.084908307
0.036497399 -0.44311669 0.14668405 -0.059181575 0.98245847 0.17684181 0.092742093
0.048470221 -0.44073707 0.14132684 -0.12997022 0.98207986 0.13648008 0.092605248
0.057534136 -0.44094533 0.14632455 -0.066717915 0.97597528 0.20741494 0.087744169
0.062742621 -0.44071892 0.14920661 -0.088800453 0.98192662 0.16713603 0.080215871
-0.11118954 -0.43040863 0.14545076 0.21905689 0.94854766 0.2286296 0.083587065
-0.1041129 -0.43165061 0.14397594 0.23641692 0.94975013 0.20513844 0.090564579
-0.095005885 -0.43384355 0.14462608 0.1476744 0.97330046 0.17572278 0.091582611
-0.088186711 -0.43469653 0.14178295 0.16202343 0.97729355 0.13654919 0.082146183
-0.076717861 -0.43743145 0.1442396 0.17369705 0.95498699 0.2404771 0.085391976
-0.023528241 -0.43097594 0.14614102 0.037714154 0.97888517 0.20090172 0.088044278
-0.017172867 -0.43129176 0.14657323 0.053114433 0.98153758 0.18374668 0.08092469
-0.0054242695 -0.43191272 0.14773408 0.091356792 0.97020489 0.22440244 0.081433766
0.0040674056 -0.43154716 0.14599086 0.055910695 0.97448593 0.21737309 0.088505052
0.010051689 -0.43115366 0.14522621 -0.0052119116 0.96829921 0.24973878 0.081951559
0.020567816 -0.43129566 0.14723483 -0.11633155 0.97532725 0.18762624 0.084116116
0.040921871 -0.43023175 0.14923452 -0.15720853 0.96985722 0.18617848 0.089523412
0.055617839 -0.43977776 0.14028955 -0.073465116 0.97036749 0.23019515 0.094908975
0.065463476 -0.43945366 0.14513186 -0.085639596 0.98717326 0.13473989 0.081430703
0.072241977 -0.43748015 0.14152297 -0.0939769 0.97257233 0.21277092 0.082913548
0.084703431 -0.43608874 0.14435962 -0.26450747 0.9490841 0.17109972 0.083268784
0.091970302 -0.43451643 0.14429401 -0.32976347 0.93224365 0.14892191 0.095451981
0.10493089 -0.43171704 0.14513245 -0.29239595 0.92332041 0.24896604 0.090005383
-0.14194523 -0.42155486 0.14726377 0.33642679 0.90713114 0.2528441 0.079761833
-0.13821039 -0.42156667 0.14176849 0.38493383 0.89370853 0.23045804 0.081872784
-0.12439432 -0.42555517 0.14140268 0.3408303 0.9117769 0.22912376 0.090649948
-0.11054177 -0.42924261 0.14019722 0.19366498 0.96138501 0.19553171 0.084529534
-0.093237847 -0.42102712 0.14511457 0.20019899 0.96148676 0.1883177 0.088737987
-0.085445032 -0.42326146 0.14707875 0.13514338 0.96755368 0.21348579 0.085594699
-0.079433218 -0.42477173 0.14824495 0.1869494 0.95774412 0.21857747 0.086797252
-0.062737584 -0.42765191 0.14937137 0.15920359 0.97190595 0.17335862 0.089499503
-0.059798017 -0.42675263 0.14372338 0.12752986 0.97196096 0.19755544 0.088295735
-0.045406319 -0.42850024 0.14379245 0.095212378 0.95513451 0.28045103 0.088456698
-0.030483576 -0.42927644 0.14144062 0.035113391 0.98041469 0.19378859 0.088466547
-0.02651535 -0.42982185 0.14219488 0.028518677 0.98077595 0.1930424 0.090480611
-0.017926812 -0.42969856 0.14073141 0.0036169554 0.99115998 0.13262324 0.083053268
0.024433021 -0.42981839 0.14193849 -0.048778411 0.97341144 0.22380981 0.084660329
0.043460973 -0.42862445 0.14357135 -0.1064868 0.95703453 0.26971364 0.0944435
0.05184111 -0.42826343 0.1451696 -0.088794924 0.97827047 0.18735646 0.10385599
0.062457912 -0.42678535 0.14568633 -0.1075995 0.97698325 0.18419033 0.093523808
0.083228968 -0.42202699 0.14061767 -0.24753425 0.93856019 0.2404819 0.080192879
0.095635012 -0.42076463 0.1463545 -0.37476617 0.91768938 0.13189538 0.078611895
0.12778284 -0.42611647 0.14791696 -0.25334218 0.94556946 0.20424545 0.081074297
0.13656078 -0.42291394 0.14535873 -0.22984524 0.95127499 0.20554085 0.091208369
0.1434886 -0.42078924 0.14628674 -0.18536335 0.9491244 0.25456503 0.077731863
-0.16577502 -0.41190043 0.14349622 0.31639645 0.91279662 0.25825509 0.082694918
-0.15594757 -0.4158712 0.14433204 0.34962752 0.90238905 0.25190192 0.091619924
-0.13121182 -0.4117316 0.14832814 0.3393853 0.90636581 0.251632 0.084516816
-0.12701119 -0.41258237 0.1467455 0.3230755 0.91972589 0.22299422 0.085024953
-0.11815901 -0.4146615 0.14487423 0.25569168 0.94690311 0.19492613 0.092048734
-0.10417372 -0.41863018 0.14534944 0.2298229 0.95369023 0.1940527 0.086325064
0.094831556 -0.41984665 0.14211914 -0.3586044 0.90573001 0.22595611 0.082215317
0.10250436 -0.41974884 0.14837959 -0.3247025 0.93125916 0.16530165 0.081487902
0.11794981 -0.41445103 0.14390427 -0.16696584 0.95360905 0.25050366 0.079698049
0.12299498 -0.41312385 0.14456706 -0.25891742 0.94380021 0.20543353 0.084577158
0.13087079 -0.41122091 0.14577715 -0.21318847 0.95073503 0.22506364 0.088474832
0.14716065 -0.41884676 0.1435287 -0.26093721 0.92956042 0.2604402 0.095398195
0.15455566 -0.41680309 0.14627852 -0.31976295 0.90730774 0.27302805 0.084909528
0.16452248 -0.41316596 0.1467728 -0.36267626 0.87380296 0.32393572 0.086628705
0.17214298 -0.41036433 0.14857341 -0.39318979 0.88250697 0.25803745 0.089068629
-0.19126768 -0.40115407 0.14525475 0.43833587 0.85007209 0.29195741 0.081974044
-0.18465716 -0.40444073 0.14653374 0.39086905 0.89695579 0.20661955 0.09407948
-0.15487619 -0.40188816 0.14274842 0.35229993 0.905379 0.23700973 0.091147654
-0.14056857 -0.40739554 0.14399692 0.34773862 0.91089231 0.22215553 0.089219466
-0.13655129 -0.40845892 0.14265522 0.33944786 0.9245351 0.17323364 0.087054797
0.14602838 -0.40493128 0.14224994 -0.27587289 0.92324489 0.26741919 0.086816102
0.15538044 -0.40217954 0.14460543 -0.41696653 0.87734532 0.2374955 0.097751155
0.17691891 -0.40763369 0.14556071 -0.4481 0.85676795 0.25525478 0.09709058
0.18735909 -0.40307882 0.14542067 -0.44695652 0.88059694 0.1574133 0.079563878
0.19302201 -0.40088904 0.14780664 -0.42355046 0.88036579 0.21345048 0.09121006
-0.21338402 -0.39006519 0.14582904 0.41922069 0.87798828 0.2310641 0.083032221
-0.20214786 -0.39576539 0.14571917 0.40601212 0.88784945 0.2165118 0.084100142
-0.19488265 -0.39895058 0.14356093 0.44484442 0.85747755 0.25854549 0.08473818
-0.18360685 -0.39115787 0.14796078 0.42414352 0.88475144 0.1931763 0.082097985
-0.17453343 -0.39403695 0.14406487 0.40243903 0.87227857 0.27780014 0.089334637
-0.16931848 -0.39741427 0.14824446 0.36102039 0.91480905 0.18107633 0.082621627
0.16442987 -0.39752182 0.14103246 -0.40018779 0.87250769 0.28032148 0.097285487
0.17716427 -0.39240307 0.14237192 -0.44365144 0.87227482 0.20569417 0.097271614
0.18191129 -0.39189228 0.1479151 -0.49248418 0.84774518 0.19694528 0.083800204
-0.2304256 -0.38095146 0.149647 0.57613873 0.7875787 0.21859555 0.090232819
-0.22445308 -0.38272676 0.14299716 0.50176126 0.82131988 0.27142099 0.089995593
-0.21429938 -0.38893831 0.14374048 0.45901704 0.85476696 0.24223308 0.086786583
-0.19559485 -0.38484773 0.14689352 0.4207477 0.87765229 0.22956008 0.084836617
-0.18780138 -0.38748568 0.14245437 0.41086999 0.86820984 0.27820396 0.089719787
0.19777595 -0.38293105 0.14420532 -0.49841598 0.84082431 0.21117775 0.082385115
0.20187962 -0.38178539 0.14751008 -0.46850169 0.86036271 0.20070425 0.082271583
0.22301434 -0.38414502 0.14458463 -0.44657913 0.88111973 0.15554796 0.081163883
-0.24269354 -0.37303999 0.14841591 0.60662162 0.75625795 0.24512084 0.084192604
-0.23805708 -0.37552458 0.14575836 0.59807438 0.74382746 0.29837504 0.080862589
-0.21228857 -0.37499934 0.1436799 0.51469362 0.79023588 0.33259243 0.085913338
-0.20531259 -0.37851247 0.14247817 0.45733115 0.85298383 0.25152886 0.090745158
0.2144713 -0.37437934 0.14599225 -0.48698601 0.86444962 0.12478592 0.087183334
0.23616008 -0.37538683 0.14126724 -0.55353147 0.80397975 0.21730067 0.091313303
-0.25941581 -0.36106664 0.1459258 0.59395516 0.77733779 0.20727582 0.086454414
-0.23013754 -0.36537558 0.14666739 0.57699144 0.75915974 0.30125949 0.085411757
-0.2256085 -0.36679012 0.14261609 0.59301972 0.7286073 0.34272271 0.087343462
0.22377849 -0.36812237 0.14341754 -0.50548291 0.8484816 0.15673557 0.086391918
0.23318174 -0.36306179 0.14571442 -0.54941291 0.79908192 0.24415898 0.086133637
0.24831107 -0.36947173 0.14943579 -0.47675827 0.84562546 0.24004005 0.078798585
0.25249672 -0.36580583 0.14607696 -0.5391947 0.77965969 0.31843352 0.077211708
0.26139107 -0.36011928 0.14754133 -0.55799252 0.79136592 0.24976824 0.081067257
-0.26860544 -0.35484695 0.14874291 0.55753767 0.80112904 0.21758671 0.085280143
-0.24596509 -0.35456637 0.14641973 0.62902671 0.73536783 0.25211018 0.081972465
-0.23754337 -0.35893205 0.14198005 0.54866546 0.81126046 0.2020463 0.082556218
0.2399077 -0.35782826 0.14352939 -0.49842164 0.80115098 0.33125985 0.084757455
0.24507028 -0.35409585 0.14283961 -0.53164142 0.80319458 0.26876721 0.086105883
0.26442456 -0.35691535 0.14435233 -0.53734136 0.77773875 0.32616973 0.083462045
-0.28076634 -0.34459665 0.14554946 0.5838145 0.79203421 0.17844422 0.093011171
-0.27794302 -0.34607482 0.14343154 0.56653279 0.79798019 0.20559272 0.089780718
-0.26587555 -0.34089798 0.14995524 0.57939351 0.79387379 0.18457425 0.076849937
0.25758037 -0.34692144 0.1483499 -0.54620928 0.78348857 0.29631242 0.091450647
0.26206547 -0.34203285 0.14384505 -0.54645032 0.80061656 0.24577463 0.082806535
0.27900323 -0.34521437 0.14311481 -0.62130815 0.7524907 0.21848083 0.091783695
-0.29310957 -0.33358473 0.14420748 0.55472571 0.81736231 0.15555789 0.088751018
-0.28786844 -0.33772188 0.14265715 0.58415908 0.78365439 0.21129127 0.096503288
-0.27348009 -0.33368543 0.14562373 0.57752824 0.79086059 0.20248604 0.085480437
-0.26878238 -0.33671957 0.14352298 0.6135425 0.77677476 0.14207949 0.085398637
0.27417031 -0.33363548 0.14708835 -0.64281589 0.74034137 0.19667849 0.085444584
0.29435271 -0.33169717 0.14179671 -0.68833309 0.70121914 0.1857127 0.091496341
-0.30620754 -0.32301518 0.14831477 0.6482572 0.73595297 0.19528386 0.084448598
-0.29866463 -0.3295683 0.14730431 0.61250359 0.76761138 0.18871172 0.09415637
-0.28420603 -0.32387981 0.14394289 0.64159822 0.73093772 0.23255484 0.090520337
0.28394014 -0.32516664 0.14705433 -0.63596988 0.73391896 0.23854801 0.090105332
0.30107957 -0.32609659 0.14271827 -0.66602606 0.70227087 0.25144541 0.084480941
-0.31484532 -0.31338662 0.14516093 0.7306726 0.64926773 0.21111396 0.087592483
-0.29268447 -0.31520078 0.14051421 0.60071898 0.75605434 0.25984335 0.081225023
0.29166877 -0.31642687 0.14143786 -0.65846694 0.7172631 0.2279364 0.080950797
0.31480175 -0.31476367 0.14951278 -0.71536875 0.65189213 0.25156349 0.091781862
-0.32613289 -0.30208039 0.14573163 0.74127114 0.63331318 0.22233231 0.081945062
-0.31917998 -0.30906481 0.14489548 0.77842885 0.57714927 0.24687487 0.086794056
-0.30362406 -0.30482593 0.14143705 0.68720418 0.69450337 0.21310927 0.086811759
0.30655742 -0.3035962 0.14626239 -0.70408547 0.68258667 0.19580385 0.08338999
0.31882367 -0.30935341 0.14465867 -0.68706536 0.6887719 0.23137501 0.089867525
-0.31384403 -0.29652306 0.14705409 0.77829796 0.58394194 0.23079014 0.083810002
0.31466213 -0.29516208 0.14560288 -0.69057184 0.69298172 0.20709136 0.083648764
0.32880783 -0.29789647 0.14267226 -0.72960585 0.64231277 0.2347544 0.094801471
0.33597752 -0.29093409 0.14579773 -0.76907754 0.59864718 0.22392248 0.089621782
-0.3450774 -0.28039613 0.14630584 0.72802067 0.64619297 0.22895512 0.096424662
-0.32314873 -0.28594553 0.14646205 0.75985742 0.57275492 0.30752006 0.077464491
0.32371843 -0.28544033 0.14682905 -0.7489081 0.6305722 0.20375285 0.08551567
-0.35078663 -0.27176419 0.14281465 0.79358894 0.57186139 0.20782457 0.087485597
-0.34754524 -0.27703002 0.14586867 0.71973133 0.65415478 0.23252591 0.09986908
-0.33356589 -0.27324146 0.14468306 0.72372323 0.66832858 0.17193474 0.091261178
0.3297196 -0.27891481 0.14726916 -0.7547645 0.62145257 0.21006501 0.084058121
0.3354283 -0.27124804 0.14535117 -0.7746073 0.6115433 0.16123997 0.079182006
0.35113871 -0.27143911 0.14317171 -0.80010587 0.56944484 0.18858249 0.084885322
-0.35738611 -0.26532605 0.14872503 0.76857769 0.60209739 0.21625678 0.078482889
-0.34035927 -0.26418179 0.14373215 0.78053278 0.60572064 0.15450257 0.088434823
-0.3370949 -0.26819044 0.14327644 0.75984985 0.62708181 0.1714543 0.088966139
0.34179175 -0.26393482 0.14768898 -0.76091361 0.60771531 0.22736032 0.084637515
0.35817483 -0.26176709 0.14185916 -0.80619615 0.58216506 0.10550632 0.089593731
-0.36320031 -0.25647122 0.14646785 0.74991405 0.61993313 0.23089343 0.087417394
-0.34625387 -0.25698838 0.1446587 0.78583109 0.5908255 0.18274201 0.092732638
0.34744009 -0.25504732 0.14375317 -0.79588437 0.59531885 0.11028841 0.084078707
0.35166851 -0.25116768 0.14855172 -0.81176364 0.53151476 0.24193348 0.094583347
0.36424628 -0.2543973 0.14516242 -0.84811038 0.50414646 0.16292675 0.098607056
-0.36938334 -0.24506822 0.14101425 0.83685714 0.50048625 0.22177388 0.091645785
-0.35375169 -0.24710208 0.14630745 0.80104804 0.55885845 0.21447428 0.087431885
0.35569108 -0.2448328 0.14759594 -0.86251861 0.49132651 0.12107785 0.081405066
0.36780524 -0.24820594 0.1429489 -0.84487516 0.50847852 0.16623938 0.089811541
0.37222767 -0.24370183 0.14789635 -0.84033984 0.489609 0.23261978 0.084462881
-0.37558001 -0.23754379 0.14533231 0.82823777 0.5095855 0.23311943 0.094076283
-0.36058253 -0.23650241 0.14488444 0.87705827 0.43438807 0.20512383 0.080746338
-0.35905448 -0.23816474 0.14365764 0.86068171 0.4648256 0.2077599 0.087398633
0.35905954 -0.23968165 0.14685492 -0.83779627 0.53006989 0.13085616 0.082287587
0.36089617 -0.23467056 0.14201622 -0.84009612 0.50403613 0.20046473 0.087202281
-0.37018445 -0.22331992 0.14992149 0.83751774 0.5047763 0.20920035 0.079439715
-0.36567867 -0.22679383 0.14130053 0.82575357 0.51579815 0.22821754 0.090827741
0.36872923 -0.22339801 0.14464146 -0.84957856 0.5021795 0.16134466 0.077748626
0.37110692 -0.22095409 0.14789283 -0.80061048 0.56862128 0.18892467 0.078641124
0.38409445 -0.22356804 0.14584681 -0.80892718 0.56451148 0.16420613 0.079560526
-0.39117718 -0.21185505 0.14729579 0.84061426 0.50219554 0.2028975 0.092818424
-0.38871178 -0.21342018 0.14092848 0.83916521 0.49222204 0.23134221 0.088525496
-0.3730458 -0.21565092 0.14388995 0.80594492 0.50157523 0.31444404 0.078604184
0.37363902 -0.21483424 0.14421037 -0.77486432 0.57947552 0.25257367 0.074370146
0.38980049 -0.21356842 0.14507681 -0.81853628 0.5002408 0.28241387 0.089188792
-0.39428085 -0.20467003 0.14507736 0.86902046 0.40711492 0.28117764 0.093569607
-0.38031977 -0.20561126 0.14942996 0.82594693 0.50556266 0.24943562 0.091242239
0.38246152 -0.20087922 0.14824322 -0.83315885 0.48938128 0.25758934 0.085249916
0.39356539 -0.20478851 0.14246772 -0.82092714 0.50071013 0.27453247 0.095691413
-0.3979637 -0.19753869 0.14505772 0.84657329 0.45703846 0.27281788 0.091304637
-0.38328981 -0.19818915 0.1460942 0.87810403 0.38117534 0.28920364 0.092988901
0.3831985 -0.19798836 0.14545183 -0.83936226 0.48794767 0.23953737 0.093427561
0.3968944 -0.19867474 0.1434305 -0.88171065 0.44850695 0.14638233 0.092652008
-0.39005613 -0.18265529 0.14247179 0.9007535 0.35781518 0.24619396 0.08627148
0.38942185 -0.18441088 0.14314672 -0.87182873 0.4267486 0.24041691 0.089366354
0.40220076 -0.18661398 0.1409702 -0.88999301 0.40476537 0.20994611 0.0809099
-0.40717584 -0.17671287 0.14345756 0.88542002 0.36328679 0.28992096 0.091095135
-0.39487991 -0.17511296 0.14822491 0.88024849 0.38110384 0.28270555 0.078658171
0.40846342 -0.17610712 0.14773166 -0.90114886 0.3817842 0.20535704 0.082986668
-0.39844027 -0.16496855 0.14496797 0.90201283 0.33350638 0.27412838 0.077310197
0.3990972 -0.1619446 0.14274094 -0.91623884 0.33012024 0.22699571 0.090579875
0.413286 -0.16268381 0.14405806 -0.917193 0.36201769 0.16643368 0.088780127
-0.40127671 -0.15859658 0.14529905 0.9014014 0.32479444 0.28632873 0.077496745
0.40235549 -0.15454555 0.14396876 -0.91952306 0.29022288 0.26504365 0.090804636
0.41667244 -0.15254077 0.14275867 -0.92525405 0.25754765 0.27852109 0.087731011
-0.42117259 -0.14062348 0.14343163 0.89509594 0.32013944 0.31034479 0.091370314
-0.40532061 -0.14616245 0.14378308 0.86738372 0.39531243 0.30228049 0.082235388
0.40634394 -0.14504129 0.14604786 -0.91858613 0.34648544 0.19012445 0.090722449
0.42058048 -0.14298823 0.14508145 -0.93595654 0.26111162 0.23623292 0.085937843
-0.42260176 -0.13717616 0.14511192 0.91431981 0.31130105 0.25905788 0.091107778
-0.41014677 -0.13284761 0.14399004 0.90780079 0.28899932 0.30393586 0.087678149
-0.40811458 -0.13900593 0.14454508 0.89239287 0.32308191 0.31504446 0.093042843
0.4099755 -0.13691829 0.14895757 -0.92430884 0.35339209 0.14410853 0.090743825
0.41082698 -0.13013187 0.14360081 -0.93860221 0.27180406 0.21248175 0.084621675
0.42381579 -0.13472676 0.14679383 -0.93716687 0.32123545 0.13611074 0.081888705
-0.42589408 -0.12637278 0.14494264 0.93976676 0.23865743 0.24470612 0.091173641
-0.41287297 -0.12259701 0.14308922 0.92738003 0.25639933 0.27244362 0.092241593
0.41252419 -0.12709102 0.14651094 -0.91680473 0.32762834 0.22831738 0.084756054
0.42746934 -0.1211319 0.14516573 -0.95456237 0.2454668 0.16898723 0.088317379
-0.41486996 -0.1158938 0.14326644 0.96165937 0.18638955 0.20117219 0.087397523
0.4151125 -0.11590729 0.14422771 -0.95463145 0.20264588 0.21820487 0.087733395
0.42820802 -0.11654806 0.14283799 -0.95139319 0.2265168 0.20866521 0.090150043
-0.43248799 -0.10351946 0.14715351 0.94341552 0.20753451 0.25864372 0.082608156
-0.4202815 -0.10017981 0.14844249 0.95303774 0.19074576 0.23523439 0.08268664
-0.41871148 -0.10672794 0.14792943 0.92579061 0.27585435 0.25848827 0.07711374
0.41798487 -0.10538 0.14403726 -0.93979037 0.24385811 0.23943113 0.093680054
0.43179557 -0.10594033 0.14640628 -0.96647674 0.15471411 0.20490544 0.088180147
-0.42118177 -0.09565223 0.14797378 0.92426431 0.29854891 0.23791595 0.077743091
0.41898155 -0.097405925 0.14106639 -0.9784708 0.13341179 0.15746801 0.084957838
0.42214167 -0.092474103 0.14910722 -0.94588864 0.19382535 0.26024324 0.081574045
-0.43528152 -0.087802581 0.14359674 0.94083411 0.25860608 0.21898422 0.081258461
-0.42038906 -0.089812152 0.14001292 0.96066624 0.20392706 0.18850482 0.082244292
0.42298406 -0.0871135 0.14739008 -0.92728627 0.21398048 0.30716854 0.085268714
0.43586427 -0.082815155 0.14173907 -0.93747568 0.23595996 0.25585595 0.089388199
-0.43795839 -0.07363797 0.14424427 0.95800978 0.20103003 0.2044607 0.10186828
-0.42405251 -0.077646255 0.14421816 0.95280439 0.22903095 0.19927014 0.090173639
0.43728548 -0.075053841 0.142445 -0.93677032 0.26694879 0.22627333 0.076835372
-0.44055659 -0.061034597 0.14709267 0.9803977 0.066425808 0.18549374 0.093805045
-0.43914127 -0.065139934 0.14376748 0.97585166 0.12851374 0.17662902 0.10604266
-0.42660576 -0.062163286 0.14456105 0.96169543 0.071198836 0.26471227 0.089781791
0.43782184 -0.069343075 0.141091 -0.93778384 0.22884965 0.26113081 0.075001873
-0.4411729 -0.057487644 0.14735892 0.97702742 0.086553156 0.19474617 0.093509033
-0.43992007 -0.05787231 0.14212626 0.97512984 0.034387425 0.2189507 0.092577465
-0.42861789 -0.05399397 0.14740564 0.97710067 0.043547168 0.20827343 0.082715981
0.42721644 -0.058170374 0.14448109 -0.97398102 0.050895106 0.22084056 0.080425479
0.4424246 -0.050102703 0.14954346 -0.94840676 0.0096547902 0.31690922 0.084245093
-0.44183648 -0.045793455 0.14480631 0.96394873 0.10269849 0.24547046 0.089907356
-0.42977327 -0.045453981 0.14908636 0.97283924 0.047979631 0.22645484 0.088
0.42878559 -0.046156261 0.14519535 -0.96448821 0.066308223 0.25566724 0.088772781
0.43003422 -0.04250044 0.14899647 -0.96859336 0.064276233 0.24019895 0.087060541
0.44341782 -0.040443908 0.14993839 -0.96539915 0.11165661 0.23566359 0.09433943
-0.43067154 -0.035097495 0.14868909 0.96699899 0.070429504 0.24485217 0.079319954
-0.42907661 -0.034347564 0.14205393 0.96451473 0.082854189 0.25069222 0.078876816
0.42915165 -0.035615362 0.14277649 -0.96944916 0.12551062 0.21074945 0.091484509
0.43028289 -0.034518395 0.14677517 -0.97352254 0.092380084 0.20909262 0.093821973
0.4428283 -0.035440221 0.14499825 -0.97551036 0.082507804 0.20389225 0.098555751
-0.4304826 -0.024382394 0.14441523 0.95603621 0.13850437 0.25847876 0.081373416
0.42965928 -0.024722219 0.14152054 -0.96753716 0.058839135 0.24578395 0.09050364
0.43094501 -0.023045905 0.14596954 -0.96217096 0.083728358 0.25926149 0.098627314
0.44390169 -0.024285264 0.14627586 -0.95728904 0.11076333 0.26707542 0.10241264
-0.44363365 -0.013193685 0.14333157 0.96655136 0.13310663 0.21922828 0.090536937
-0.42972535 -0.010885175 0.14000764 0.96584022 0.058597717 0.25242618 0.087296493
0.42977613 -0.01275659 0.14041546 -0.98433298 0.074869066 0.15963472 0.083719693
0.44368505 -0.017275551 0.14380798 -0.95947337 0.10983707 0.25951219 0.083561376
-0.44431689 -0.0017517852 0.14481884 0.97707087 0.047760751 0.20748843 0.089079492
-0.43111283 -0.0082038082 0.14515242 0.97562647 0.05813254 0.21159738 0.091879666
-0.42999882 -0.003259124 0.14013341 0.97241735 0.024835126 0.23192155 0.092765644
0.43173787 -0.0043479162 0.1468339 -0.97307485 -0.012147682 0.23016901 0.085949793
0.44462994 -0.0049299379 0.14652339 -0.95153874 0.016506998 0.30708554 0.08262638
-0.4447794 0.0043244502 0.14716791 0.97782904 0.041527867 0.20524563 0.087300487
-0.43117332 0.0072878124 0.14504237 0.98169303 -0.013718812 0.18997529 0.085681416
0.43118942 0.0062828753 0.14508931 -0.95816791 -0.013532375 0.28588647 0.09054938
0.44445601 0.0063227043 0.1460188 -0.96668208 -0.02833816 0.25440639 0.09220022
-0.44420713 0.01530258 0.14619704 0.97549903 -0.052432291 0.21366431 0.090837173
-0.43127477 0.015232231 0.14647439 0.96289051 -0.013775045 0.26954049 0.088413358
0.43060747 0.01687165 0.14399099 -0.96729606 -0.068313353 0.24427795 0.093997382
0.4441523 0.012698705 0.14536932 -0.95386773 -0.12567839 0.27265593 0.086068094
-0.44398028 0.025696592 0.14653799 0.96952105 -0.1219177 0.21252063 0.096317664
-0.43064469 0.02647648 0.14525302 0.98428172 -0.035906877 0.17291667 0.089062862
-0.42907825 0.029770225 0.14045577 0.96191597 -0.07562121 0.26267666 0.091074437
0.42967865 0.020984529 0.14101502 -0.97625715 -0.052977182 0.21003675 0.096960559
0.4435198 0.024095314 0.14443511 -0.96251911 -0.076990962 0.26005626 0.08777833
-0.44335416 0.034305632 0.14676857 0.9797681 -0.027444491 0.19824553 0.092071973
-0.43077904 0.032946326 0.14825386 0.98171836 -0.068824112 0.17746107 0.091513894
-0.42910719 0.034599304 0.1422554 0.96293169 -0.09973076 0.25063181 0.09128876
0.44328773 0.032378532 0.14564022 -0.97798908 -0.032149985 0.20616432 0.081529386
-0.44251859 0.040746499 0.1459177 0.9755702 -0.11433106 0.18759289 0.094590008
-0.42798439 0.048094165 0.14282201 0.95669973 -0.15065622 0.24905501 0.083090045
0.42915499 0.044070389 0.14588611 -0.95878386 -0.077334702 0.27340958 0.084963366
0.44282433 0.043418579 0.14840093 -0.96978796 -0.07714498 0.23143052 0.079531364
-0.42858142 0.052176178 0.14646593 0.96014303 -0.10259429 0.25999942 0.076880798
0.42788294 0.058377735 0.14715756 -0.97924769 -0.088404164 0.1823695 0.091225706
0.4411574 0.0532507 0.14477025 -0.94981909 -0.18231097 0.25417778 0.080367401
-0.44014874 0.061896145 0.14576715 0.96800333 -0.08347059 0.23664773 0.084617034
-0.43986839 0.062765472 0.14515665 0.96788937 -0.12317494 0.21913056 0.086481795
-0.42549205 0.066619031 0.14306049 0.95829034 -0.12779051 0.25563505 0.090435505
0.42608371 0.063660145 0.14359838 -0.94493711 -0.093213819 0.31369579 0.084086709
0.44064084 0.0625128 0.1486474 -0.95842201 -0.1086545 0.26385897 0.085436933
-0.43666142 0.079172038 0.14254873 0.96701127 -0.14055677 0.21244517 0.084500909
-0.42489114 0.075126976 0.1459991 0.96767944 -0.090046681 0.23555923 0.082523383
0.42430893 0.077953786 0.14531168 -0.94708377 -0.19527039 0.25475809 0.086864792
0.43746227 0.075426176 0.14353856 -0.96663922 -0.1584729 0.20123316 0.077835329
-0.43603283 0.086019635 0.14535874 0.93494654 -0.26775399 0.23277204 0.086691506
-0.42321026 0.080745161 0.14296222 0.94312894 -0.19728801 0.26755416 0.083717167
0.42293742 0.084760152 0.14522037 -0.93337208 -0.26726362 0.23955555 0.090039454
0.43587604 0.081586629 0.14106686 -0.94563204 -0.17672752 0.27303374 0.079716988
-0.43389753 0.093860872 0.14363648 0.94963044 -0.21785665 0.22525661 0.089360528
-0.42064145 0.09477637 0.14510581 0.9476161 -0.17420545 0.26772413 0.089187361
-0.4197883 0.099792913 0.14593728 0.93410385 -0.212504 0.28686571 0.082858503
0.41996631 0.095094875 0.14276795 -0.91394711 -0.32558283 0.24227384 0.082879998
0.43452266 0.094110221 0.14669968 -0.94619131 -0.26121074 0.19102591 0.089323878
-0.43145528 0.10349679 0.14244053 0.93187433 -0.27322438 0.23866013 0.087777644
-0.41594011 0.10909691 0.14003174 0.93547362 -0.25422001 0.24548143 0.084734045
0.41992599 0.10130695 0.14794292 -0.90203804 -0.30892769 0.3014814 0.084077716
0.43177277 0.10371819 0.14380756 -0.92222345 -0.32488215 0.20965546 0.081207298
-0.43032658 0.1132561 0.14786798 0.93486392 -0.25839937 0.24343207 0.086791068
-0.4293088 0.11583177 0.14667307 0.93375969 -0.26907566 0.23598985 0.088327512
0.41515225 0.11916336 0.14798096 -0.93492085 -0.2273895 0.27242801 0.082555011
-0.42592555 0.12569344 0.14439543 0.92038846 -0.22370157 0.32069072 0.092622034
-0.41245088 0.12414607 0.14318916 0.90460104 -0.20852287 0.371773 0.087420896
0.41355735 0.12006061 0.14290142 -0.95182669 -0.1839081 0.24536464 0.083127044
-0.42488769 0.13274062 0.14892185 0.93341124 -0.26609027 0.24070595 0.089263074
-0.40956634 0.13493527 0.14449689 0.89038587 -0.28296995 0.35656837 0.083613709
0.40690696 0.13929734 0.14068154 -0.93493634 -0.26854017 0.23190567 0.084177986
0.41142917 0.13149048 0.14727639 -0.9432314 -0.25552067 0.21218786 0.086560406
0.42305365 0.13653508 0.14575845 -0.92035985 -0.27959266 0.27343324 0.082478501
-0.42141229 0.14170519 0.14619836 0.9110232 -0.3350625 0.24035354 0.082121164
-0.41809979 0.14981812 0.14437611 0.89940894 -0.33060858 0.2859399 0.086218141
-0.4052372 0.14651194 0.14393172 0.89849705 -0.32926029 0.29032886 0.093654841
0.40604544 0.14468381 0.14460377 -0.92775643 -0.29437038 0.22937772 0.089406975
0.41962928 0.14725491 0.14719869 -0.93612164 -0.23178992 0.26448026 0.080387391
-0.41754264 0.15215096 0.14569142 0.89800799 -0.31280813 0.30940706 0.083079606
-0.40315971 0.15495992 0.14765343 0.90373915 -0.35665348 0.23675694 0.093434714
0.40362006 0.15424266 0.14840734 -0.89590085 -0.41924468 0.14695452 0.083844818
0.41484696 0.15813872 0.14336234 -0.88987756 -0.4017919 0.21605827 0.096640728
-0.41248101 0.16472599 0.14423446 0.90217346 -0.3324995 0.27482215 0.089445665
-0.40059283 0.16099957 0.14645477 0.88861674 -0.36894882 0.27246481 0.08559192
-0.39847422 0.16446 0.14433196 0.87752497 -0.40909994 0.25017425 0.091931075
0.39908722 0.16577718 0.14888205 -0.89675897 -0.38856182 0.21176206 0.093781985
0.40524188 0.16409273 0.14246519 -0.89916879 -0.39262387 0.19324088 0.0938484
0.41087937 0.16968597 0.14608578 -0.8795858 -0.42640677 0.2109649 0.090968914
-0.41019616 0.17164311 0.1468285 0.89248681 -0.39630261 0.21543355 0.086983338
-0.39549428 0.17228247 0.14589202 0.90047127 -0.38776085 0.1969595 0.090483814
0.39431319 0.17529523 0.14642574 -0.86401272 -0.44033822 0.24409892 0.093687333
0.40853512 0.1752383 0.14635104 -0.89374363 -0.39031667 0.22107746 0.096210919
-0.40440559 0.18504587 0.14687102 0.88035059 -0.42423671 0.21214642 0.096558571
-0.38928714 0.18522243 0.14407839 0.87175685 -0.37367898 0.31686595 0.088204987
0.3876158 0.18852444 0.14410856 -0.87141889 -0.43237832 0.23168543 0.082928956
0.39308992 0.18016975 0.14992996 -0.89215279 -0.4094919 0.19073495 0.08040873
0.40376219 0.18769202 0.14914754 -0.91225004 -0.34606624 0.21917607 0.08633589
-0.40083921 0.19309247 0.1477453 0.86015123 -0.43510744 0.266123 0.086911961
-0.39771187 0.19571 0.14084983 0.8561784 -0.46012446 0.23504041 0.091628939
-0.38608503 0.19221039 0.14542207 0.84982949 -0.44125408 0.28824386 0.10011033
0.38191456 0.19840646 0.14189847 -0.86882204 -0.3880755 0.30748281 0.086733535
0.39748487 0.19855088 0.14522016 -0.85158896 -0.43673381 0.28993076 0.086736523
-0.39353657 0.2050488 0.14279953 0.88989162 -0.3688466 0.26841217 0.091834031
-0.38188308 0.20257065 0.14949171 0.90068376 -0.36408815 0.23708335 0.087463804
0.37767532 0.20712535 0.1428546 -0.83722961 -0.46357843 0.2900717 0.094005994
0.39296216 0.20571268 0.14200075 -0.83064628 -0.47191745 0.29550061 0.095116399
-0.39113396 0.21172556 0.14681494 0.88713378 -0.41007203 0.21174152 0.091086373
-0.38851056 0.21480131 0.14312558 0.87251586 -0.42072177 0.2484137 0.092428721
-0.37262878 0.21677716 0.14474291 0.83172053 -0.49951717 0.24232921 0.083359897
0.37572068 0.21335784 0.14840922 -0.81420267 -0.51057148 0.27638885 0.084701106
0.38953599 0.21431641 0.14563607 -0.81698346 -0.48433849 0.31297627 0.083562844
-0.38261271 0.22501726 0.14331827 0.83683908 -0.50227696 0.21775712 0.078349054
0.36826929 0.22546764 0.14730394 -0.74931067 -0.59228069 0.29620445 0.078098558
0.37510461 0.22565737 0.14502792 -0.77209365 -0.5214389 0.36328068 0.08003924
0.38517863 0.22312999 0.14927475 -0.82483619 -0.48144066 0.29641208 0.082694948
-0.36380249 0.23192224 0.14521691 0.80786467 -0.5611099 0.18030633 0.095673069
0.35989785 0.23937988 0.14944468 -0.80518585 -0.49924979 0.32003954 0.07607802
0.36486232 0.23212907 0.14959535 -0.7938388 -0.48820645 0.36259395 0.072750501
0.37718382 0.23617467 0.14808214 -0.79881841 -0.50918412 0.32034454 0.08154995
-0.37156036 0.24423224 0.14664136 0.80866265 -0.53693938 0.24033494 0.090044528
-0.36784163 0.24890433 0.14472406 0.79806381 -0.56145465 0.21877593 0.082191691
-0.35441586 0.24663989 0.14735143 0.82906574 -0.5089277 0.23160867 0.082402177
0.35530213 0.24556199 0.14783183 -0.85063934 -0.45210302 0.26835713 0.076156169
0.37063885 0.24559927 0.14667216 -0.79310971 -0.51523703 0.32481983 0.086461402
-0.34915766 0.25214213 0.14245458 0.81296766 -0.53677487 0.22573523 0.081452198
0.34886962 0.25235575 0.14205873 -0.82553387 -0.46721303 0.31655288 0.081479296
0.36443388 0.25526389 0.14815709 -0.81722271 -0.48353258 0.31359723 0.082492165
-0.35493165 0.26664978 0.14333804 0.76714021 -0.58941203 0.25315884 0.080858365
-0.34445488 0.26078185 0.14841531 0.77874476 -0.57296401 0.25547776 0.086998247
-0.33940977 0.26755893 0.14924255 0.7982679 -0.55536681 0.23310128 0.0898026
0.33848396 0.26588973 0.14211254 -0.75708038 -0.61274076 0.22666733 0.084604338
0.34129649 0.2625137 0.14268279 -0.78003734 -0.57869506 0.23802046 0.085111886
0.35454369 0.2668238 0.14279242 -0.81614757 -0.52954048 0.2312791 0.082735091
-0.34918198 0.27431884 0.1440758 0.77998769 -0.57745129 0.24118294 0.084811114
-0.33242771 0.27453813 0.14447056 0.73532319 -0.5862183 0.34007034 0.08868219
-0.32883522 0.27879465 0.14439394 0.66463149 -0.68560034 0.29701397 0.084120303
0.33427122 0.27392471 0.14845823 -0.74502873 -0.63911229 0.1909654 0.090004608
0.34638932 0.27888009 0.14683706 -0.74901658 -0.62598598 0.2170615 0.08972349
0.35205361 0.27137265 0.14640179 -0.79974794 -0.55863225 0.21984829 0.075122796
-0.34253079 0.28389806 0.14754277 0.72468686 -0.62898129 0.28144538 0.08936438
-0.33737072 0.28918362 0.14524972 0.69741285 -0.67062581 0.25273782 0.085162953
-0.3218348 0.28594524 0.14244884 0.67257559 -0.70386112 0.22852066 0.082126677
0.32527843 0.28414646 0.14790386 -0.7144205 -0.68717229 0.13189965 0.08397682
0.3385843 0.28826347 0.14673342 -0.76371855 -0.627123 0.1531359 0.085638613
0.34377217 0.2826865 0.14848922 -0.69546497 -0.69006515 0.20034602 0.094610922
-0.3346456 0.29258895 0.14626881 0.71928376 -0.66454077 0.20252481 0.086603098
-0.31797493 0.29216623 0.14731073 0.64312625 -0.70971853 0.28755584 0.08194568
0.31015426 0.29884961 0.14289549 -0.72821897 -0.6711964 0.13853697 0.084958255
0.3335923 0.29396376 0.14685766 -0.74697167 -0.64826947 0.14758094 0.079555601
-0.32372338 0.30418792 0.14447112 0.71849871 -0.66275215 0.2109959 0.086156525
-0.30398595 0.30544612 0.14402296 0.66539764 -0.71409029 0.21753412 0.092209838
0.30381253 0.30523738 0.14301671 -0.65604061 -0.70054603 0.28079534 0.088931546
0.326877 0.30235398 0.1493862 -0.72158659 -0.67781609 0.14098981 0.082392097
-0.31283712 0.31552735 0.14547156 0.6993826 -0.67447501 0.23653211 0.09518908
-0.29745311 0.31297046 0.14690505 0.73312569 -0.6494962 0.20169638 0.086129159
-0.28872195 0.31988764 0.14384787 0.68835145 -0.69849789 0.19563481 0.090464063
0.29457444 0.31506976 0.14518309 -0.67570251 -0.71064168 0.195996 0.086020999
0.31487319 0.3146621 0.14940745 -0.76814806 -0.61731327 0.16992053 0.085196353
-0.30718741 0.32011166 0.14216457 0.72950435 -0.66123611 0.17490059 0.084320419
-0.28338999 0.32581264 0.1474116 0.63772762 -0.7473377 0.18652031 0.086065643
0.27902025 0.32899266 0.14538921 -0.57029808 -0.78172481 0.25232184 0.092084713
0.28342271 0.32493675 0.14493079 -0.6016013 -0.75258642 0.26774898 0.099510826
0.29900444 0.32877505 0.14559007 -0.62574226 -0.75585991 0.19267181 0.088234641
0.3068493 0.32035697 0.14192003 -0.64494044 -0.72523546 0.24100909 0.081075534
-0.29605323 0.33221039 0.14856455 0.63128591 -0.75308508 0.18531311 0.085929282
-0.28766027 0.33748737 0.14148949 0.62370449 -0.768255 0.14414215 0.086653806
-0.2725611 0.33355728 0.14284268 0.61776447 -0.76551694 0.17986359 0.10347365
-0.26848388 0.33724684 0.14439324 0.57899439 -0.773157 0.25883138 0.094635203
0.27360415 0.3337051 0.14575116 -0.63975245 -0.73798555 0.21469544 0.097926036
0.28828961 0.33897209 0.14825739 -0.5801912 -0.77427542 0.25273651 0.086722724
0.29579225 0.33202645 0.14702912 -0.63185912 -0.74915743 0.19878949 0.095453545
-0.28624964 0.34117651 0.14976302 0.6581406 -0.72902429 0.1880814 0.074484013
-0.26291525 0.34047973 0.14119607 0.55264258 -0.79467505 0.25115275 0.095750712
-0.25825784 0.34533113 0.1448409 0.55213052 -0.79388505 0.25475171 0.089322552
0.25738159 0.34675172 0.14735806 -0.55180734 -0.7798807 0.29545689 0.07924068
0.26284146 0.34193838 0.14567661 -0.57675207 -0.75949329 0.30087712 0.086218141
0.27555722 0.34893703 0.14672086 -0.62548685 -0.73778957 0.25383624 0.08567664
0.28097236 0.34484309 0.14713681 -0.61782324 -0.75711823 0.21228872 0.08899229
-0.27318978 0.35006753 0.1439628 0.56328863 -0.7798171 0.27311403 0.090028889
-0.26240295 0.35905024 0.14636812 0.51033181 -0.82822841 0.23151471 0.084321104
-0.23940581 0.35903713 0.14620197 0.50818121 -0.81995457 0.26348862 0.077606708
0.23882173 0.35913885 0.14531671 -0.55391949 -0.79558605 0.24538946 0.087757923
0.24634834 0.35362947 0.14407836 -0.53992242 -0.79863763 0.26582259 0.081852183
0.26272604 0.3581773 0.14393653 -0.5283007 -0.80042714 0.28322223 0.07853359
-0.25539729 0.36338606 0.1444567 0.52247602 -0.80361968 0.2849811 0.091333963
-0.248404 0.3681854 0.14495116 0.49527314 -0.82786727 0.26332551 0.085902445
-0.23318359 0.36254221 0.14407903 0.57620078 -0.77012694 0.27367371 0.087830611
-0.22884494 0.36549169 0.14458929 0.52772349 -0.81117535 0.25199696 0.08829397
0.22839229 0.36689806 0.14870174 -0.47673017 -0.85376143 0.20933159 0.086088464
0.23414317 0.36152565 0.14285114 -0.54217201 -0.79500741 0.27205297 0.081965521
0.25136617 0.36683062 0.14720894 -0.61750782 -0.74106264 0.26364803 0.083249539
-0.23673385 0.37559712 0.14316091 0.55297029 -0.78668088 0.27451238 0.089708172
-0.21484724 0.3728765 0.14172581 0.50309807 -0.82917631 0.24363682 0.08530283
0.21876492 0.37241048 0.14793067 -0.47832456 -0.8506459 0.21819043 0.085534208
0.23603426 0.37619987 0.14383191 -0.52427715 -0.81009477 0.26244977 0.087498508
0.24362905 0.37168026 0.14545514 -0.48682168 -0.82783586 0.27873364 0.088736467
-0.22567855 0.38298208 0.14634097 0.52041751 -0.82804978 0.20856461 0.087826818
-0.21826363 0.38589916 0.14103764 0.47081834 -0.85778415 0.20624408 0.093991451
-0.20563582 0.38042539 0.14995039 0.44154456 -0.86407644 0.24168226 0.086411029
-0.19591242 0.38433096 0.14582887 0.50769335 -0.83689356 0.20458873 0.081948027
0.1864284 0.38839805 0.14316052 -0.42332503 -0.87549567 0.23303056 0.091137372
0.19506896 0.38322476 0.14060338 -0.44329017 -0.8706969 0.2130273 0.085412547
0.20180973 0.38218313 0.14910549 -0.44591632 -0.87060583 0.20785601 0.080356851
0.21464418 0.38872835 0.14324513 -0.49839845 -0.83518374 0.23252319 0.087777644
0.22692811 0.38122874 0.14259711 -0.49790561 -0.8494007 0.17495212 0.082755916
-0.21245369 0.39068073 0.14645238 0.4111158 -0.89500958 0.17303686 0.087009825
-0.20559511 0.39430529 0.14702493 0.47649711 -0.85026681 0.22359967 0.088830218
-0.17639348 0.393116 0.14366847 0.3302016 -0.9329477 0.14344186 0.084003337
-0.16160285 0.39935127 0.1431039 0.34333882 -0.92615455 0.15606518 0.087237105
0.16567743 0.3975842 0.1430908 -0.41121671 -0.88763869 0.20736009 0.093873337
0.17621511 0.39432436 0.14776576 -0.3966257 -0.89588189 0.20020889 0.091771223
0.18496598 0.39048204 0.1478568 -0.40245712 -0.87977022 0.25304666 0.090470739
0.1988176 0.39619645 0.1410753 -0.44876549 -0.87212497 0.19495526 0.082612202
0.20502372 0.39385468 0.14402378 -0.43978089 -0.86970872 0.22405228 0.091769829
-0.18376994 0.40475863 0.14602047 0.34283912 -0.91051203 0.23114747 0.083928756
-0.15551639 0.40211546 0.14435244 0.3314015 -0.91824043 0.21681249 0.093077488
-0.14269292 0.40643516 0.14331169 0.37308389 -0.90869176 0.1873171 0.08842767
-0.1377185 0.40821135 0.1432602 0.3336198 -0.92924458 0.1587525 0.087001875
0.13764979 0.40852806 0.14435753 -0.29710689 -0.92078632 0.25274494 0.085523732
0.14265233 0.40706071 0.14552324 -0.35468721 -0.90625083 0.23001407 0.090173259
0.1522527 0.40330076 0.14462078 -0.35005981 -0.92822456 0.12592517 0.094437674
0.17624171 0.40738979 0.14332058 -0.40509132 -0.90154219 0.15206167 0.085030206
0.18244229 0.40525758 0.14592963 -0.4011873 -0.87169629 0.28141457 0.085755028
0.19137798 0.4006128 0.14315128 -0.39236912 -0.87410796 0.28632444 0.088436723
-0.16821961 0.41115674 0.14446494 0.40337339 -0.8843261 0.2350686 0.087756649
-0.1515725 0.4177928 0.14621302 0.33787125 -0.90791875 0.24804543 0.090372421
-0.14864326 0.41734546 0.14013879 0.35393751 -0.92059332 0.16503401 0.092082143
-0.13186114 0.41020033 0.14315647 0.35077187 -0.90707248 0.23276278 0.08639963
-0.12088691 0.41318777 0.14243832 0.35546315 -0.90949923 0.21553893 0.082493231
-0.11150988 0.41621763 0.14353096 0.28526291 -0.93236774 0.22207101 0.08172892
0.096237108 0.41969541 0.14271115 -0.22206813 -0.93823475 0.26533273 0.086454429
0.103452 0.41815391 0.14302003 -0.24083351 -0.94135499 0.23632598 0.093233801
0.11392023 0.41588786 0.14490511 -0.24142928 -0.94177485 0.23403431 0.091350928
0.1204996 0.41354853 0.14332598 -0.22256751 -0.94528663 0.23853077 0.083743043
0.13218187 0.41091734 0.14607832 -0.33608887 -0.908324 0.24898155 0.090473279
0.14602974 0.41923785 0.1434724 -0.40517989 -0.8891601 0.21265814 0.084358357
0.1574402 0.4147853 0.14227627 -0.32071805 -0.92863345 0.18649319 0.090891264
0.16937448 0.41175207 0.14943427 -0.43977225 -0.86366141 0.24635227 0.08740437
-0.14299861 0.42133278 0.14799491 0.3463262 -0.90731978 0.23838837 0.08797393
-0.13407868 0.42348397 0.14444605 0.28919834 -0.94305152 0.16437201 0.085139483
-0.11607089 0.42856261 0.14370437 0.28869459 -0.92863208 0.23301888 0.082110137
-0.095678985 0.42101347 0.14738742 0.29099861 -0.93360478 0.20905006 0.08524695
-0.087789848 0.42186338 0.14372794 0.15567562 -0.95137107 0.26581606 0.085952669
-0.075923771 0.42464367 0.14549384 0.10492964 -0.95281345 0.28484434 0.085538127
-0.054254383 0.42849049 0.14764546 0.017547308 -0.95870203 0.28387031 0.083344676
-0.048715673 0.42879373 0.14604032 0.071599066 -0.97061652 0.2297325 0.086662441
-0.039874267 0.4294796 0.14548469 0.028143333 -0.96418643 0.26372793 0.089480162
-0.026681602 0.42933986 0.14042039 0.078700945 -0.98301929 0.1657688 0.083862267
0.032113295 0.42909479 0.14133817 -0.11185921 -0.9630003 0.24518944 0.089195415
0.07375066 0.4244729 0.14362542 -0.17874454 -0.9475801 0.26484406 0.083889306
0.086007498 0.42261589 0.14512172 -0.24433672 -0.93907195 0.24175088 0.096036062
0.094602533 0.42101276 0.14637546 -0.2313841 -0.95151269 0.20269442 0.093081363
0.10051376 0.4200964 0.14790945 -0.20939972 -0.95800155 0.19592017 0.096141815
0.1167201 0.42851993 0.14436735 -0.20371124 -0.9591077 0.19650482 0.093050525
0.12283464 0.42693117 0.14509431 -0.23312861 -0.94350266 0.23548649 0.084287055
0.1335969 0.42484936 0.14992101 -0.35582635 -0.89963526 0.2530691 0.09230525
0.14526413 0.42064935 0.14861006 -0.31115839 -0.93576211 0.16592102 0.086017527
-0.10193253 0.43287274 0.14710817 0.21001361 -0.95743716 0.19801073 0.086235277
-0.094596267 0.4338302 0.14435476 0.22301017 -0.93604839 0.27217656 0.087969512
-0.074208632 0.43785846 0.14426072 0.10483305 -0.93865925 0.32852527 0.08005698
-0.063680373 0.43997696 0.1463083 -0.0347372 -0.96015102 0.2773146 0.081720755
-0.05793409 0.43942505 0.14034154 0.080259852 -0.96134025 0.26340681 0.088196822
-0.034486499 0.43041959 0.14736755 0.14220181 -0.97110492 0.19166049 0.084423199
-0.026983134 0.43066907 0.14586407 0.089131385 -0.96984011 0.22686061 0.090060405
-0.014054674 0.43116882 0.14580478 0.072952189 -0.99338561 0.08867339 0.091567129
-0.0043529295 0.43149114 0.14599739 0.067696184 -0.99000901 0.12369063 0.089181319
0.004013991 0.43232554 0.14955512 -0.023778018 -0.96804577 0.24964361 0.088518314
0.022799734 0.43135676 0.14785129 -0.067616969 -0.96951479 0.23551875 0.081620537
0.068161674 0.4385058 0.14291844 -0.13495168 -0.96275514 0.2342876 0.084140956
0.075632662 0.43831569 0.14744034 -0.14986894 -0.93366361 0.32528666 0.087059915
0.098417692 0.43411732 0.14932266 -0.24704203 -0.93247551 0.26355219 0.089875884
0.10279836 0.43204457 0.14433798 -0.23132901 -0.96040952 0.15524338 0.098834313
-0.032439172 0.44228816 0.14145929 0.057481524 -0.98154914 0.18236564 0.096345633
-0.025660919 0.44424385 0.14783491 0.13623446 -0.97345263 0.18392955 0.084679447
-0.015102305 0.44440466 0.14698993 0.089006141 -0.99027538 0.10692278 0.09371151
-0.0025410079 0.44430983 0.1449019 0.10242902 -0.95048374 0.29340905 0.082530782
0.0036089625 0.44456252 0.14609277 0.054879311 -0.98464686 0.16570692 0.088487841
0.017843749 0.44386715 0.14475942 -0.010158078 -0.97821587 0.20734116 0.084003627
0.026608065 0.44392514 0.14678353 -0.107758 -0.97505099 0.19407178 0.085681513
0.032729425 0.4437058 0.14776616 -0.13699403 -0.97093087 0.19627969 0.090119965
0.044284239 0.44210839 0.14537035 -0.079034023 -0.9586612 0.2733539 0.084140718
0.053835779 0.44067246 0.14319387 -0.17569287 -0.96092725 0.21389447 0.082796261
-0.067955494 -0.4420203 0.15959448 0.15532948 0.9324528 0.32619712 0.094094984
-0.054553028 -0.44285262 0.1537215 0.1732405 0.96841192 0.17934892 0.084961273
-0.044357561 -0.44385535 0.15391317 0.043289907 0.97627765 0.21215069 0.080782861
-0.035098292 -0.44488007 0.15464905 0.0050155744 0.95012134 0.31184015 0.10255212
-0.0247014 -0.44591793 0.1559598 0.04303975 0.9401288 0.33809072 0.097074062
-0.010544679 -0.44702065 0.15921071 -0.0018500362 0.91032261 0.41389552 0.099953435
-0.0006268429 -0.44735175 0.15930682 0.065777242 0.89875835 0.43348208 0.096548758
0.0058690314 -0.44630367 0.15494125 0.036759425 0.94539297 0.32385331 0.089541584
0.01613952 -0.44634652 0.15674822 -0.017500913 0.93181914 0.36250085 0.080442555
0.026673427 -0.44618267 0.15779285 -0.079620861 0.92006153 0.38359797 0.083482936
0.031381242 -0.44502422 0.15362905 -0.079799123 0.96534622 0.24847303 0.083495088
0.049668446 -0.44309717 0.1526524 -0.14338449 0.96224481 0.2313565 0.092071295
0.051726412 -0.44346681 0.15542948 -0.078254975 0.93903041 0.33481038 0.11097492
-0.11634457 -0.43096843 0.15517662 0.23066665 0.93196249 0.27971223 0.098510332
-0.10185931 -0.43400922 0.15251334 0.16554686 0.9558531 0.24277367 0.095059656
-0.094911672 -0.4351477 0.15051295 0.17850168 0.96340346 0.19997734 0.08545652
-0.08162275 -0.43905079 0.15566379 0.16131356 0.91245461 0.37603807 0.096241981
-0.043717761 -0.43142238 0.1563967 0.047051206 0.97246516 0.2282494 0.078604825
-0.03552828 -0.43185058 0.15469363 0.059135731 0.9669807 0.24789388 0.083912365
-0.026190918 -0.43313617 0.15700579 0.029838789 0.95671916 0.28947905 0.088809796
-0.019478031 -0.4331944 0.15625089 0.03263247 0.95156854 0.30569983 0.08213342
-0.0015672843 -0.43322489 0.1536199 0.022288565 0.9638778 0.2654106 0.082119502
0.0041691219 -0.43311656 0.15348861 0.051565789 0.96562368 0.25477809 0.080217458
