# .PCD v0.7 - Point Cloud Data file format
VERSION 0.7
FIELDS x y z normal_x normal_y normal_z curvature
SIZE 4 4 4 4 4 4 4
TYPE F F F F F F F
COUNT 1 1 1 1 1 1 1
WIDTH 583
HEIGHT 1
VIEWPOINT 0 0 0 1 0 0 0
POINTS 583
DATA ascii
0.079178177 -0.40964192 0.080514528 -0.12167113 0.91431791 0.38628861 0.0001916063
0.080966592 -0.40994292 0.081719644 -0.12232793 0.91591626 0.38227379 0.00020680302
0.099867322 -0.40846786 0.083995886 -0.1904092 0.90679264 0.37612697 0.0014195475
0.10405326 -0.40815401 0.084719099 -0.1994938 0.90507889 0.37554547 0.0013774046
0.11820707 -0.40386966 0.085056454 -0.30974963 0.87515998 0.37168559 0.00092453574
0.12549429 -0.40173712 0.086920448 -0.32757869 0.87122476 0.36559474 0.00066069874
0.22400032 -0.40289101 0.086123444 -0.42343301 0.84233522 0.33343032 0.0017986369
-0.24447274 -0.39123496 0.089661509 0.54609722 0.77209932 0.32502386 0.00085671811
-0.2332311 -0.3975082 0.084458172 0.48630476 0.80370885 0.34286997 0.0012585998
-0.15009443 -0.39034063 0.084126592 0.35578865 0.85158753 0.38498467 0.00018975968
-0.14588702 -0.39279562 0.085866541 0.35306531 0.85547298 0.37882829 0.0002648326
-0.13817033 -0.3970243 0.0883056 0.35624883 0.85968244 0.36610511 0.00029466988
0.13691078 -0.39739299 0.087911353 -0.35614309 0.86040825 0.36449954 0.00016514523
0.14739813 -0.39250624 0.086513542 -0.35674402 0.85528719 0.37578925 0.00011938431
0.23446891 -0.39611852 0.083485216 -0.52472067 0.78324419 0.33346179 0.001216009
0.24156815 -0.39136496 0.085019775 -0.55872941 0.759422 0.3333163 0.00046862135
-0.24436498 -0.38798422 0.082289405 0.55482364 0.75654727 0.34613147 0.00031769526
-0.16673034 -0.38384399 0.084951758 0.35141712 0.85791081 0.37482667 0.00017735946
0.16338034 -0.38591045 0.086760357 -0.35577589 0.85811532 0.3702181 0.00016708653
0.17911175 -0.38061845 0.089728884 -0.35469085 0.86094773 0.36464149 0.00016943448
0.24737138 -0.38587987 0.082737133 -0.56422269 0.75226378 0.34022325 0.00037658183
0.25395262 -0.38223481 0.085844241 -0.5737347 0.74714428 0.33556506 6.4660038e-05
-0.26212808 -0.37577334 0.085428081 0.57247198 0.74724603 0.33748952 3.6546793e-05
-0.19273768 -0.37264517 0.084071718 0.36919346 0.84945148 0.37699914 0.00046113023
-0.18854344 -0.37412703 0.083631262 0.36041436 0.85497069 0.37299678 0.00023967455
0.17799939 -0.37825137 0.083015867 -0.34933454 0.85748947 0.37772629 0.00017986413
0.18736252 -0.37657323 0.088112429 -0.35946783 0.85982662 0.3626031 0.00013883736
0.19372986 -0.37336889 0.086763777 -0.36449337 0.85654855 0.36533424 0.00024461313
0.25709474 -0.37916145 0.084379449 -0.57436389 0.74463558 0.34003535 0.00011014406
0.26655143 -0.37167034 0.083860278 -0.57258302 0.748025 0.33556992 6.5639746e-05
0.27050114 -0.37019658 0.087303743 -0.57369065 0.74833864 0.33296925 0.00012350979
-0.28004506 -0.36144999 0.084156029 0.57569373 0.74461597 0.33782217 0.0001988204
-0.27679774 -0.36476457 0.085975751 0.57418972 0.74729115 0.33445796 2.3746414e-05
-0.26708207 -0.36999804 0.081062496 0.5713917 0.74475473 0.34474894 0.0001764582
-0.21515918 -0.36301684 0.086700626 0.47393376 0.79622465 0.37604928 0.0018603328
-0.20455068 -0.36706081 0.082612559 0.42214951 0.82409942 0.37769023 0.001417691
0.20410934 -0.36822152 0.084712073 -0.42347395 0.82420504 0.37597328 0.0016028302
0.21158041 -0.36637697 0.087999284 -0.46836889 0.8002063 0.374567 0.0019029544
0.28163713 -0.3607609 0.085333742 -0.5769248 0.74664938 0.33116823 0.00020969832
-0.28502271 -0.3582716 0.085573941 0.5747692 0.74649256 0.33524498 0.00016032644
-0.22306547 -0.35781065 0.088266 0.54093498 0.75406778 0.37252012 0.00063057861
0.228082 -0.35316464 0.08658383 -0.55311877 0.74438775 0.37409422 0.00034266463
0.2872785 -0.357535 0.087772891 -0.57707548 0.74868762 0.32626763 0.00013677101
0.2923187 -0.35234675 0.084851906 -0.57459366 0.74895787 0.33000633 0.00012452086
-0.30422518 -0.34336469 0.08519274 0.57383978 0.74764508 0.33426741 9.7674601e-05
-0.29654437 -0.34764606 0.081627041 0.56936198 0.74651843 0.34429228 7.4717333e-05
-0.24356402 -0.34203371 0.088160172 0.56315416 0.73925048 0.36927795 0.00015399653
-0.23086332 -0.3484318 0.081642933 0.5633955 0.73612612 0.37510508 0.00015044495
0.23479575 -0.34653643 0.083659969 -0.55968022 0.73689902 0.3791278 0.00016692087
0.24361184 -0.34019846 0.084612131 -0.56335026 0.73753095 0.37240386 0.00013501057
0.30708805 -0.34157133 0.086084805 -0.57637656 0.74741668 0.33039123 0
-0.31918055 -0.33126304 0.08380831 0.61370295 0.71384519 0.33733338 0.0011451718
-0.30832154 -0.33905923 0.082622401 0.57510048 0.74367476 0.34089178 0.00019167157
-0.25586614 -0.33093032 0.084859125 0.56499654 0.73732322 0.3703151 0.00013250408
-0.24646932 -0.33678803 0.082238168 0.56252104 0.73799318 0.37274143 0.00010282562
0.2517809 -0.33519083 0.086970605 -0.56764066 0.73716241 0.36657277 0.00011622679
0.30703974 -0.33943054 0.081268266 -0.5721159 0.74460173 0.3438774 5.539733e-05
0.31453326 -0.33543476 0.085147925 -0.60156721 0.72580457 0.33365348 0.0009222792
0.3224937 -0.33101964 0.0888924 -0.65264332 0.68508637 0.32359451 0.0014385021
-0.32620445 -0.32529745 0.08372391 0.65961921 0.67106885 0.33848047 0.0024140456
-0.26560035 -0.32354799 0.085134804 0.56541014 0.7357868 0.37273192 0.00013824459
0.26612863 -0.32483748 0.088421486 -0.56745768 0.73850846 0.3641389 0.00012789399
0.33084497 -0.32273009 0.088907212 -0.68645489 0.65184033 0.32231009 0.0010738131
-0.33514047 -0.31571341 0.086499892 0.72834522 0.599572 0.3317025 0.00088148809
-0.28325352 -0.31122926 0.087417901 0.56992871 0.73379707 0.36976093 0.00013537356
0.27530655 -0.31613886 0.08509133 -0.56409299 0.73784852 0.3706463 0.00012852887
0.33348688 -0.31670943 0.084532946 -0.70626348 0.61979842 0.3421137 0.0012109256
-0.34047616 -0.3097952 0.088256925 0.74813306 0.58097595 0.32056797 0.00023371291
-0.29350919 -0.30424637 0.089347668 0.62906682 0.68674684 0.36421663 0.0014489911
0.28681511 -0.30636144 0.083194129 -0.59339517 0.71556032 0.36858585 0.0006799688
0.2936663 -0.30120498 0.083375096 -0.63120061 0.68688375 0.36024487 0.0012139261
-0.35205805 -0.2944591 0.087845758 0.75063223 0.57466847 0.32604823 3.4835968e-05
-0.34987479 -0.29432726 0.082793579 0.74736053 0.57354951 0.33540022 0.0001014519
0.3544628 -0.29246974 0.089788057 -0.74963576 0.57727957 0.32371983 9.0903988e-05
-0.3631416 -0.28057644 0.08879894 0.74958676 0.57757431 0.32330719 0.00011151631
-0.35714895 -0.28886369 0.089609221 0.75052953 0.57586646 0.3241654 0.00016434648
-0.30834618 -0.28596407 0.085725069 0.7202211 0.58839935 0.3675158 0.00047231148
0.31037426 -0.28485158 0.088207915 -0.72190297 0.58581024 0.36835092 0.00036556483
0.35502887 -0.28924784 0.085572295 -0.74866301 0.57491672 0.33011276 0.00011387922
-0.36667874 -0.27419388 0.085790493 0.75043714 0.57496804 0.32596901 0.00023188182
0.31622994 -0.27474666 0.084376723 -0.73794287 0.56274641 0.37250084 9.7253986e-05
0.36569005 -0.27530873 0.085495576 -0.74847227 0.57335669 0.33324358 2.6775153e-05
-0.37388122 -0.26437032 0.085048586 0.7479502 0.57394415 0.33340472 0
-0.32194149 -0.26944008 0.087636389 0.73512191 0.56886804 0.36876142 0.00018325749
0.36797702 -0.26909631 0.080010861 -0.74333674 0.56997222 0.35011759 0.00014956463
0.37462914 -0.26344138 0.085126117 -0.74843317 0.57447219 0.33140534 0.00015166766
-0.38256761 -0.25254667 0.084194481 0.74750173 0.57437789 0.33366308 1.3163522e-05
-0.33459213 -0.25272527 0.08724919 0.73968357 0.56152314 0.37089095 0.00023763755
-0.3286157 -0.25750589 0.082770914 0.73585516 0.56370777 0.37516767 0.00019000865
0.38186964 -0.25327292 0.083883248 -0.74676794 0.57110465 0.34084779 0.00014920635
-0.39045233 -0.24025446 0.080772266 0.76675934 0.53724229 0.35135558 0.00109739
-0.38878611 -0.24385302 0.083194047 0.76278692 0.55109626 0.33830297 0.00080991397
-0.33823556 -0.24697345 0.085689932 0.73830545 0.56633133 0.36629751 9.7425043e-05
0.33953348 -0.24444063 0.084415078 -0.73303801 0.56935728 0.37213916 0.00013746142
0.34325832 -0.24144776 0.087277129 -0.73719954 0.56758267 0.36658788 0.00017540526
0.38791206 -0.2466715 0.086043835 -0.7590704 0.55945396 0.33290136 0.00023854182
0.39267763 -0.24029386 0.0857604 -0.78286338 0.52818334 0.32885751 0.0011974998
-0.39610469 -0.23640479 0.086739995 0.79365432 0.5037353 0.34112105 0.0018602147
0.3453376 -0.2363303 0.083718449 -0.73512036 0.56577337 0.37349498 9.954979e-05
0.39595059 -0.23508295 0.084155947 -0.79296792 0.49921709 0.34926242 0.0015046179
-0.40289438 -0.2242112 0.086357184 0.83605081 0.437621 0.33091822 0.0017068011
-0.39959213 -0.22795643 0.081847794 0.83408999 0.43680507 0.33689043 0.0015951573
-0.35597593 -0.22318454 0.084699094 0.75282884 0.53233653 0.38712609 0.00058773177
0.3531749 -0.22627001 0.083833322 -0.74003786 0.55799955 0.37547386 0.00036111861
0.39981249 -0.22591385 0.080236152 -0.82325518 0.44010749 0.35854754 0.0016151188
0.40150976 -0.22398901 0.082553975 -0.83747423 0.41997367 0.34965551 0.0014671899
-0.40348864 -0.21986026 0.083246104 0.84339857 0.41249117 0.34428173 0.001368869
-0.36158612 -0.21751887 0.087203182 0.78030568 0.49691957 0.3797287 0.0012922114
0.36561754 -0.21157472 0.08603169 -0.80696315 0.45838991 0.37241009 0.0020675855
0.40534341 -0.21935126 0.087479889 -0.85491747 0.39546785 0.33573976 0.00082171109
-0.41118047 -0.20407782 0.086219564 0.87029499 0.35953319 0.33663425 3.4372937e-05
-0.40960959 -0.20723639 0.085543349 0.87006915 0.36364803 0.33277592 5.2271458e-05
-0.36803716 -0.20542739 0.085638106 0.82724762 0.42551428 0.36687729 0.0016082834
0.36638168 -0.20708951 0.083545431 -0.81282216 0.44404018 0.37702575 0.0020376572
0.41023624 -0.20795777 0.08792676 -0.871804 0.36124086 0.33085158 0.0001759086
-0.41377014 -0.19432588 0.082485929 0.86712265 0.35923254 0.34503669 0.00025485255
-0.36945218 -0.1961762 0.080357067 0.84312081 0.3821395 0.37830773 0.0005844413
0.37317073 -0.19049667 0.083216563 -0.85314834 0.35870865 0.37876895 0.00022449662
0.41595817 -0.19178954 0.085415207 -0.87181866 0.35973814 0.33244649 6.8451933e-05
-0.42113328 -0.1802886 0.086474523 0.87086993 0.36153492 0.33298358 0.00014288253
-0.41811466 -0.18442923 0.083117448 0.86925 0.35897461 0.33991417 0.00017408497
-0.37482983 -0.18489194 0.081829891 0.85651082 0.35822833 0.3715665 0.00011361956
0.3783102 -0.18380542 0.088791214 -0.8579458 0.35656163 0.3698552 0.00023490918
0.41921556 -0.1872091 0.088918097 -0.87077951 0.36209491 0.33261117 6.9150577e-05
0.4203639 -0.18422003 0.088686965 -0.87116492 0.36290446 0.33071443 5.9610415e-05
-0.42250821 -0.17378283 0.08307533 0.86821043 0.36285436 0.33844864 0.00017851904
-0.37822106 -0.17505799 0.080401987 0.85714477 0.35268706 0.37538603 0.00013688055
0.37868285 -0.17974462 0.085432261 -0.85484487 0.35710147 0.37645549 0.00015481247
0.38214812 -0.17315666 0.087315597 -0.85847646 0.3578468 0.36737418 0.00020816026
0.41952005 -0.17915599 0.081111386 -0.86751121 0.35983694 0.34342641 9.0801805e-05
0.42338687 -0.17668043 0.088429317 -0.87260729 0.36063829 0.32938829 0.00015080042
-0.42674851 -0.16743568 0.087224975 0.87307447 0.36073411 0.32804269 0.00015972958
-0.38407075 -0.16366845 0.082812481 0.8554787 0.35488316 0.37711284 0.00022266273
0.38160524 -0.16815734 0.081502706 -0.85210919 0.35212317 0.3871941 9.8614742e-05
0.42497972 -0.16878204 0.08410567 -0.86845881 0.35857004 0.34235486 0.00012617986
-0.4325487 -0.15062021 0.084224552 0.87074363 0.35986176 0.33511931 5.4713852e-05
-0.39014998 -0.15250403 0.085892044 0.85688132 0.35890013 0.37006089 0.00012513965
0.39270973 -0.15007657 0.089895032 -0.85919058 0.35589859 0.36759728 0.00013287722
0.42957234 -0.15614927 0.082457259 -0.87043285 0.35802057 0.33788741 5.8458503e-05
0.43379727 -0.15291433 0.089887336 -0.87338251 0.36106831 0.32685262 8.3995146e-05
-0.43578976 -0.14437485 0.085909292 0.87006956 0.3610566 0.33558476 2.9728351e-05
-0.3948819 -0.14068547 0.08575692 0.85898912 0.35559958 0.36835667 0.00025827222
0.38994336 -0.14639753 0.080089509 -0.85478473 0.35192373 0.3814351 0.00013493944
0.39071333 -0.14748895 0.082647666 -0.85514003 0.35145766 0.38106811 0.00016247843
0.43389386 -0.14688796 0.083707333 -0.86973822 0.36037025 0.33717757 0.00020679909
-0.4389385 -0.1382312 0.087464638 0.87860662 0.34922948 0.32571355 0.00035947005
-0.39631602 -0.13850981 0.086843573 0.86069167 0.35468224 0.36525372 0.00034706626
0.43724811 -0.13939577 0.084353507 -0.87580138 0.34877273 0.33366072 0.00027616104
-0.44179487 -0.12658384 0.082395911 0.88974142 0.30768907 0.33717591 0.00090203539
-0.40125632 -0.12554832 0.085900545 0.87187362 0.32648945 0.36502185 0.00049826229
-0.39909625 -0.12860349 0.083906658 0.8661164 0.33676818 0.36936367 0.0003308797
0.40129614 -0.12451017 0.085040599 -0.86210334 0.34382904 0.37223572 0.00030800595
0.44371235 -0.12558474 0.086268313 -0.89591861 0.29544672 0.33172429 0.0018505105
-0.44705772 -0.11315799 0.08628846 0.91901255 0.21010417 0.33357489 0.0016064114
0.40585074 -0.11397534 0.085644066 -0.88536209 0.26833326 0.37964624 0.0016592668
0.44829646 -0.11324929 0.089745283 -0.92590088 0.19779468 0.3218461 0.0017001336
-0.41000384 -0.10277433 0.088954531 0.90775752 0.20929791 0.36355293 0.001597924
-0.40725702 -0.10434388 0.082599849 0.90315992 0.2177951 0.3699559 0.0016576885
0.44831777 -0.10325915 0.086169131 -0.93265766 0.14146122 0.3318713 0.00019261477
-0.45043615 -0.091392137 0.087706067 0.93776459 0.12420654 0.32429978 0.00018312778
-0.41143382 -0.092261858 0.089081742 0.92288494 0.12248847 0.36507541 0.00026620229
-0.40785256 -0.098577812 0.082232349 0.90958512 0.18678959 0.37116653 0.0016328732
0.40875199 -0.095461987 0.083331309 -0.91494906 0.14556064 0.37640432 0.00043375976
0.41029018 -0.093845174 0.086496934 -0.9157787 0.14651836 0.37400776 0.00037908912
0.4481461 -0.095300637 0.082799017 -0.93323809 0.12509082 0.33677742 0.00015141207
0.45032173 -0.097710848 0.089688912 -0.9357819 0.13649072 0.3250885 0.0003011298
-0.45065123 -0.087276004 0.08680281 0.93558323 0.12197096 0.33137152 0
-0.41107714 -0.08550074 0.085764833 0.92119032 0.12136823 0.36970013 0.00018463298
-0.40988863 -0.087201841 0.083441675 0.91989559 0.12332083 0.37226877 0.00026606093
0.40978864 -0.088274293 0.0835343 -0.91703749 0.13335019 0.37584555 0.00024483309
0.4518249 -0.082044654 0.088143073 -0.9369359 0.12242608 0.32735756 6.7474502e-05
-0.45198631 -0.074396096 0.085806206 0.93702215 0.11730864 0.32898062 0
-0.41159332 -0.070576303 0.082354315 0.9188956 0.1191865 0.37606585 0.0002200681
0.41307876 -0.077358283 0.08820501 -0.92501575 0.11752186 0.36129537 0.0002675108
0.45191994 -0.077248573 0.086660698 -0.93645626 0.12360637 0.32828519 0.00012778191
-0.4521068 -0.065832771 0.083023392 0.93229824 0.12216496 0.34043473 8.5567568e-05
-0.41256711 -0.061865188 0.081965528 0.91861576 0.12107893 0.37614471 0.00024407388
0.45168841 -0.063398674 0.080981329 -0.9308328 0.12250249 0.34430113 3.5411304e-05
-0.45317847 -0.055840295 0.082349353 0.9327631 0.12321015 0.3387804 0
-0.41627401 -0.051539902 0.08764185 0.92177361 0.12308371 0.36767364 0.00013592503
0.41590738 -0.054686069 0.087807953 -0.92206419 0.12796268 0.36527157 0.00015458881
0.45492211 -0.0561416 0.087278023 -0.93644655 0.12690315 0.32705274 0.00013956334
-0.45459479 -0.044119 0.08199887 0.9319762 0.12418401 0.34058586 0.00018461338
-0.41570324 -0.044020601 0.083911628 0.92019218 0.12032238 0.3725169 0.00011832451
0.41729137 -0.044842456 0.088016659 -0.92093253 0.12567814 0.36890137 8.9528614e-05
0.4557898 -0.047509994 0.086535528 -0.93531656 0.12231155 0.33199844 1.4293834e-05
-0.4561086 -0.035191059 0.082934223 0.93167001 0.12336036 0.34172088 0
-0.41719827 -0.034775186 0.084586471 0.92285663 0.11351858 0.36803415 0.00017650468
0.45673621 -0.036700234 0.085217804 -0.93478239 0.12242661 0.33345705 0.00014624278
-0.45726886 -0.025533244 0.082626902 0.93386304 0.11921636 0.33717564 0.00010606867
-0.41837323 -0.026686734 0.08470422 0.92138267 0.11797553 0.3703185 4.2135165e-05
0.41844565 -0.027667861 0.085057378 -0.91773021 0.11836656 0.37915793 0.00016986894
0.45751506 -0.027361292 0.083972394 -0.93384707 0.11987434 0.33698633 0.00013196997
0.46001533 -0.021079315 0.088596918 -0.93687677 0.11195615 0.3312518 0.00030739067
-0.45936066 -0.010291411 0.082862288 0.93642789 0.066760786 0.34444997 0.00096690014
0.45906559 -0.013133883 0.083080947 -0.93857175 0.086072691 0.33417743 0.00089883554
-0.46073312 -0.0074142627 0.085608572 0.93786341 0.065378763 0.34079015 0.0009287718
-0.42252851 -0.00099494017 0.086536705 0.93029207 -0.0069355629 0.36675391 0.0021763067
-0.4193463 -0.004827627 0.080325812 0.922777 0.04340183 0.38288245 0.0017586445
0.42269722 -0.0049778577 0.088452213 -0.9297772 0.048266765 0.36494473 0.0010819904
0.45884672 -0.0073290006 0.08036381 -0.93975198 0.044875823 0.33889875 0.0016681539
-0.46185198 0.0033915197 0.087237164 0.94261914 -0.01206333 0.33365172 0.0015913319
-0.42143479 0.0048518586 0.08513993 0.92980081 -0.064610668 0.36234772 0.0010665571
-0.41927052 0.0061563635 0.08054848 0.92081553 -0.066690788 0.38425407 0.0010111232
0.41948143 0.0057680458 0.080907449 -0.92235285 -0.034999486 0.38476005 0.0011704961
0.42180431 0.0073279641 0.086839437 -0.92868191 -0.057697821 0.36636174 0.0010888743
0.45988774 0.0018915234 0.081262499 -0.9402563 -0.0073245862 0.34038866 0.0018952456
0.46129355 0.0037710585 0.085831843 -0.94268715 -0.031303167 0.33220622 0.0017590792
-0.45937544 0.011253757 0.083253264 0.9350543 -0.09049724 0.34275904 0.00069991802
-0.42133969 0.013981757 0.087976396 0.92316413 -0.099939927 0.37118727 0.00054446969
-0.41812292 0.017627859 0.081363156 0.92044216 -0.10495108 0.3765254 0.00036122772
0.4188512 0.015507831 0.082372196 -0.91961819 -0.099135488 0.38009804 0.00035275766
0.45932317 0.015110239 0.084511898 -0.93805671 -0.085864983 0.33567366 0.000924967
0.4604336 0.019452915 0.089161128 -0.93824899 -0.10916493 0.32828611 0.00021446777
-0.45864582 0.022985389 0.085505389 0.93441069 -0.11910104 0.33569571 0
-0.42003292 0.022558987 0.087485649 0.92155325 -0.11247379 0.37160358 0.00044392556
0.41792127 0.029125175 0.084310412 -0.92075372 -0.12030659 0.37113196 0.00017645808
0.45831454 0.026678553 0.085933521 -0.9352662 -0.12714902 0.33031842 0.0002462859
-0.45839638 0.035178479 0.089252546 0.93812215 -0.1234054 0.32357067 0.00018937612
0.45687422 0.035425682 0.085135557 -0.93480617 -0.12520932 0.33235541 0
-0.45477438 0.049634207 0.084502056 0.93194163 -0.12387772 0.34079185 0.00014469982
-0.41505384 0.046692736 0.083164439 0.91851455 -0.11957876 0.3768712 0.00016149692
0.41655299 0.047294173 0.087020241 -0.91971779 -0.11927193 0.37402329 0.0001336476
0.45583838 0.044361055 0.085523948 -0.93466032 -0.12332206 0.33346924 2.360442e-05
-0.41339129 0.057065994 0.08239761 0.91867095 -0.12078179 0.37610567 0.00020257373
0.45329452 0.055138201 0.08241456 -0.93339109 -0.12223327 0.3374019 5.3859378e-05
-0.45320159 0.064413607 0.08553274 0.93392414 -0.12283134 0.33570534 0.00013319614
-0.41378272 0.066351779 0.086279713 0.92235935 -0.11884152 0.3676002 0.0001310778
0.41296634 0.065164886 0.083838142 -0.91956848 -0.12284417 0.37323326 0.00015223968
0.45442826 0.061716326 0.08794152 -0.93605471 -0.11999646 0.33076048 7.8160054e-05
-0.45146555 0.077638038 0.085546583 0.93465585 -0.1217819 0.33404738 0
-0.44991404 0.078723133 0.081653245 0.93202263 -0.12121727 0.34152642 8.0215541e-05
-0.41161656 0.070564866 0.082403064 0.91830271 -0.11896606 0.3775807 0.00021820034
0.41263345 0.073586822 0.085930385 -0.92013955 -0.12004261 0.37273705 0.00029851912
0.45161721 0.073186286 0.084345818 -0.9334414 -0.1227568 0.33707261 9.7008291e-05
-0.45090288 0.085980549 0.087026909 0.93467724 -0.12073539 0.33436707 3.1632597e-05
-0.44943163 0.08359018 0.082090937 0.93102932 -0.12304432 0.34357616 0
-0.41152519 0.086806484 0.087358251 0.92237425 -0.13622004 0.36148286 0.00031366959
-0.40827078 0.088793561 0.080278158 0.91299731 -0.13998914 0.38319579 0.00049031799
0.44918439 0.083892509 0.081517637 -0.93046159 -0.12409118 0.34473559 0.00012854034
-0.44863775 0.095192313 0.084118448 0.93126029 -0.12876341 0.3408435 0.00020588424
-0.40845644 0.096985541 0.083117969 0.91361743 -0.16821381 0.37014502 0.00099126657
0.40873814 0.096617632 0.083652414 -0.91267651 -0.17603225 0.36882827 0.0011006397
0.41127214 0.091834679 0.08847934 -0.92094064 -0.14061131 0.36345124 0.00037848015
0.447505 0.099299751 0.082482263 -0.92762023 -0.14582685 0.3438825 0.00042125987
0.45051983 0.090912946 0.087762922 -0.93473214 -0.12356186 0.333179 0
-0.4080283 0.10702909 0.085243806 0.89691448 -0.22464974 0.38088971 0.0019125956
0.40892577 0.10173994 0.085598484 -0.91139215 -0.18667148 0.36676726 0.00091572042
0.44632137 0.10619217 0.081718728 -0.92259246 -0.17233138 0.34514493 0.00082108093
-0.44558373 0.1135937 0.082373239 0.91868961 -0.1923518 0.34497854 0.0016462274
-0.40476394 0.11587788 0.084745899 0.88269645 -0.2770943 0.37955987 0.0022859862
0.40535212 0.11477244 0.085074961 -0.88947624 -0.2679491 0.37018275 0.0015978414
0.44668716 0.11082524 0.084415406 -0.92113733 -0.18437304 0.342801 0.00095721625
-0.44312215 0.1244124 0.083497733 0.89949489 -0.27367827 0.34060115 0.0022798229
-0.4036237 0.12126463 0.087267287 0.88031119 -0.3100979 0.35901463 0.0013333522
0.39757681 0.1297271 0.08161407 -0.85508418 -0.34966469 0.3828389 0.0001282717
0.40312842 0.1235124 0.088389479 -0.87309563 -0.31926659 0.36847386 0.00090125011
0.44087872 0.12852143 0.082103238 -0.89167058 -0.29013202 0.34748679 0.0016116634
-0.44058359 0.13429901 0.087506741 0.88358021 -0.32764274 0.33456895 0.0008040276
-0.39919412 0.13215703 0.08747898 0.85848117 -0.35764778 0.36755702 4.0852206e-05
0.3936328 0.13999394 0.082260184 -0.85272604 -0.35730863 0.38103658 0.0001503231
0.43986091 0.13636111 0.087845266 -0.87875348 -0.34255534 0.33233732 0.00049257028
0.44052276 0.13060087 0.083404794 -0.88890272 -0.30681935 0.34016725 0.0012187421
-0.43286949 0.14918035 0.083514757 0.86969024 -0.36023059 0.3374505 0.0001165547
-0.39257473 0.14067604 0.080636792 0.85485607 -0.35597104 0.37749925 0.00016146236
0.38955364 0.14909126 0.081609413 -0.85324711 -0.3553603 0.38169152 0.00019694588
0.43561354 0.14549947 0.086655051 -0.87259924 -0.36372197 0.32600141 0.0001513857
-0.43452749 0.15076074 0.089470737 0.87354547 -0.36329585 0.32393602 8.1652746e-05
-0.42721161 0.1599973 0.080482438 0.86767268 -0.35954493 0.34332415 0.00023366533
0.38713706 0.15639862 0.082907148 -0.8564015 -0.35141027 0.37826884 0.00017723331
0.431858 0.1502877 0.082090855 -0.86929309 -0.3592059 0.33955941 0.00011667993
-0.42710739 0.16315795 0.08358591 0.87060171 -0.36276865 0.33234265 0.00013807445
-0.38449058 0.16381131 0.084025554 0.85614431 -0.35515499 0.37534234 0.00013112964
0.3822194 0.16806519 0.082824357 -0.85551232 -0.35331649 0.37850514 0.00012694774
0.42609102 0.1667501 0.084800206 -0.8692084 -0.36108035 0.33778343 1.5253547e-05
-0.42149237 0.17520316 0.081974283 0.86686432 -0.36291981 0.34181193 8.7463195e-05
-0.38112152 0.17266014 0.084394388 0.857961 -0.35243741 0.3737523 0.00014783799
0.37861991 0.17749035 0.083345905 -0.85543072 -0.35407969 0.37797588 0.00015492187
0.38291371 0.1722227 0.088291019 -0.86155039 -0.35339424 0.36447689 0.00023717925
-0.42042205 0.18177524 0.086228721 0.86925322 -0.36182278 0.3368724 0.0001109743
-0.37366152 0.18893129 0.082886577 0.85607159 -0.35672507 0.37401691 0.0001792125
0.37742853 0.18391591 0.086736478 -0.85834527 -0.36189476 0.36369696 0.00020029776
0.41849518 0.18420583 0.083858967 -0.86946476 -0.35820058 0.3401812 9.821495e-05
0.42024773 0.18119882 0.085164756 -0.86940181 -0.35833219 0.34020373 0.00016019838
-0.41613394 0.19407624 0.088307425 0.87302625 -0.35887799 0.33019978 7.4319658e-05
-0.37275606 0.19281536 0.084671125 0.85010153 -0.36969468 0.3750377 0.00035732065
0.36936677 0.19893575 0.082571052 -0.83770609 -0.40696657 0.3641794 0.0011423597
0.37221766 0.19230755 0.082791679 -0.85274851 -0.36880359 0.36987004 0.00025452508
0.41245106 0.19821398 0.083236374 -0.86762083 -0.36126614 0.34164429 8.0490034e-05
-0.41003329 0.20410317 0.083292149 0.86856967 -0.35825694 0.34240118 5.5978446e-05
-0.36648294 0.20643799 0.083039291 0.80821103 -0.4482778 0.38189256 0.0016774388
0.3666079 0.20529538 0.082310103 -0.80969125 -0.44510627 0.38246626 0.0015894225
-0.40609533 0.21618909 0.086043209 0.8584969 -0.38568071 0.33798462 0.0007882035
-0.36117411 0.21692783 0.085326567 0.77863181 -0.50703526 0.36965889 0.0012183363
0.36209416 0.21475054 0.084156752 -0.78103709 -0.49595687 0.37948352 0.0017024952
0.40600657 0.21675649 0.086419731 -0.85098106 -0.40116072 0.33897114 0.00078352832
-0.40174884 0.22365871 0.082817517 0.83762515 -0.42752779 0.34000602 0.0016779157
-0.3999078 0.22871253 0.083467335 0.82719803 -0.45034027 0.3360613 0.0019433683
-0.35192019 0.22695179 0.082518265 0.74139667 -0.55575544 0.37612072 0.0001895459
0.35615081 0.225169 0.088164769 -0.75141233 -0.54757041 0.36816591 0.00052923698
0.36032543 0.22034582 0.089212306 -0.75946999 -0.52724123 0.38108 0.00086568622
0.40482947 0.22199304 0.088974483 -0.84622818 -0.4187437 0.32947159 0.00088595704
-0.35021317 0.23050591 0.084352113 0.74147749 -0.5569669 0.37416443 0.00023904382
-0.34687936 0.23513025 0.084965967 0.73927832 -0.56298167 0.36948496 0.00023553502
0.34437487 0.23700118 0.082960092 -0.73725373 -0.56326842 0.37307602 0.00016677723
0.39313817 0.23697433 0.081145637 -0.78143555 -0.51954228 0.34559265 0.0015290816
-0.38789952 0.24658045 0.085861668 0.75939244 -0.55815446 0.33434495 0.00037028428
-0.34287032 0.24237025 0.08798451 0.74021983 -0.56861025 0.35882723 0.00018936854
-0.33639336 0.24828321 0.084030688 0.73312277 -0.56947154 0.3717972 0.00027301346
0.33834106 0.24711753 0.086151704 -0.73640472 -0.56711465 0.36890256 0.00012356987
0.34359321 0.24162044 0.08831083 -0.73718113 -0.56569391 0.36953261 0.0002447266
0.38625157 0.24970217 0.087514557 -0.7508859 -0.57400584 0.32663062 6.0084374e-05
0.39169216 0.24229552 0.08697769 -0.77306861 -0.54535919 0.32395729 0.0010805536
-0.37707824 0.257557 0.08055681 0.74337173 -0.57198846 0.34673864 0.00021086
-0.33408135 0.25403529 0.088342696 0.74001336 -0.56766504 0.36074448 0.0001936284
0.32932192 0.25875434 0.085825004 -0.73548245 -0.56554866 0.37312251 0.00022279522
0.33314234 0.2544663 0.086997345 -0.73481435 -0.56844443 0.37002546 0.00016185764
0.3782641 0.25989938 0.087154366 -0.74951535 -0.57371962 0.33026123 0.00012919024
0.38203359 0.25396603 0.08542195 -0.74974656 -0.57426918 0.32877809 1.6505543e-05
-0.37278098 0.26525271 0.084112771 0.74844325 -0.57183772 0.33590844 8.3682418e-05
-0.32307935 0.26464108 0.082660638 0.7347315 -0.56147456 0.3806783 0.00016766624
0.37528199 0.26260227 0.085146002 -0.74641967 -0.57275438 0.33883646 0.0001128701
-0.31616288 0.27437884 0.083833337 0.73304105 -0.56314927 0.38146275 0.00015014064
0.31560674 0.27653295 0.085943177 -0.73514593 -0.56856585 0.36917928 0.00016771641
0.36813194 0.2722429 0.085693158 -0.74648952 -0.57282013 0.33857143 0.00011589967
-0.35721609 0.28621128 0.085256524 0.74718851 -0.57605302 0.33146986 0.0001698147
-0.31080422 0.28494424 0.089316115 0.72823679 -0.57928604 0.36619508 0.00024926846
-0.30571139 0.28673905 0.081920825 0.70928985 -0.5940488 0.3794916 0.00070998596
0.3088094 0.28464809 0.084605545 -0.71949828 -0.58172107 0.3793717 0.00036389969
0.3130773 0.28068069 0.087107845 -0.73023772 -0.57447273 0.36977535 0.0002204324
0.3610135 0.28227931 0.086982131 -0.7475583 -0.57614434 0.33047584 0.00011863526
-0.35401541 0.29086816 0.086080782 0.74757254 -0.57324523 0.33544785 4.3325534e-05
-0.30055663 0.29853156 0.089710467 0.66874236 -0.64865273 0.36336398 0.0018983198
0.30583435 0.29093063 0.088483706 -0.69772172 -0.61255348 0.37143326 0.00089797715
0.35366774 0.29086512 0.085306555 -0.74992967 -0.57293546 0.33068162 0.00011148601
-0.34244049 0.30269971 0.080560014 0.74506283 -0.57098967 0.34474924 0.00010197469
-0.33818889 0.30835891 0.080760956 0.73671371 -0.58003199 0.34758565 0.00022295708
-0.29449308 0.30280527 0.087830186 0.64127231 -0.67133772 0.37158516 0.0017241446
-0.2870073 0.30720624 0.084977821 0.59023809 -0.71406883 0.37646326 0.00095640094
0.28407153 0.30726141 0.081027746 -0.5873751 -0.71694642 0.37547073 0.000492992
0.29362088 0.30191007 0.084936164 -0.6404202 -0.67522049 0.36597732 0.0011689888
0.34410575 0.30356097 0.085704371 -0.74823284 -0.57521242 0.33057258 0.00011861497
-0.33702639 0.31247959 0.085182808 0.72971028 -0.59533679 0.33629876 0.00068804156
-0.27529231 0.3156662 0.084155343 0.56492364 -0.73581964 0.37340447 0.0002233757
0.2682578 0.31910712 0.08050894 -0.56212825 -0.73374444 0.38161629 0.00014308719
0.27407151 0.31726828 0.08537019 -0.56851989 -0.7374478 0.36463106 0.0001299107
0.28268403 0.31160641 0.087339416 -0.57702321 -0.73257577 0.36107752 0.0002265341
0.33565012 0.31217459 0.081621245 -0.72308451 -0.60045892 0.34146419 0.00072184025
0.34051284 0.31056142 0.089638218 -0.73885965 -0.58913958 0.32711017 0.0003160098
-0.26890272 0.3218843 0.086598001 0.56600958 -0.73810375 0.36720017 0.0002520933
-0.25887641 0.32640654 0.080690131 0.56555521 -0.73172712 0.38042441 0.00018405705
0.25832278 0.32883218 0.08428669 -0.56292379 -0.7383917 0.37134144 0.00019594349
0.26926267 0.32303423 0.089751951 -0.56657833 -0.73979139 0.36290175 0.00023685962
0.32301411 0.3278372 0.0827372 -0.65700608 -0.67179668 0.3420997 0.0022662969
-0.32005659 0.33218879 0.087342307 0.63778925 -0.69156951 0.33905217 0.0018378934
-0.312244 0.33812645 0.087215938 0.58651447 -0.73657 0.33684638 0.00036183663
-0.25414485 0.33198905 0.084244326 0.56443924 -0.73593032 0.37391815 0.00013018837
-0.24766994 0.33703676 0.084341288 0.56521547 -0.7372846 0.370058 0.00012755388
0.24398969 0.33876497 0.082371652 -0.5664466 -0.73336428 0.3759189 0.00016488369
0.25177693 0.33502617 0.086599715 -0.56664616 -0.73803556 0.3663547 0.00010413523
0.30870444 0.33872801 0.082539558 -0.57501006 -0.74322248 0.34202895 9.2137961e-05
0.31604889 0.33377463 0.084048241 -0.59991187 -0.71959376 0.34970057 0.0012773898
0.32141352 0.33129829 0.087675482 -0.63820267 -0.69434536 0.33253846 0.0023671347
-0.302039 0.34393892 0.082752682 0.57068402 -0.74707794 0.34087285 1.2023204e-05
-0.24077827 0.34120306 0.082324669 0.56111467 -0.73595977 0.37883174 0.00021809101
-0.23778139 0.34496453 0.084952496 0.56447524 -0.73658592 0.3725709 0.0001128785
0.23798493 0.34361008 0.082798503 -0.56455374 -0.73378015 0.37794936 0.00019761002
0.2980836 0.3471722 0.083190918 -0.57151592 -0.74456882 0.34494454 8.0726699e-05
-0.29442388 0.35223332 0.088173553 0.57450503 -0.74862868 0.33090657 0.00015985513
-0.22558263 0.35347271 0.083478622 0.53891736 -0.75123942 0.38106096 0.00042452384
0.21845202 0.35915235 0.083794601 -0.508573 -0.77486527 0.37541604 0.0012243475
0.22968206 0.35087067 0.084397629 -0.56008172 -0.74157929 0.3692812 0.00020324826
0.2326739 0.35014558 0.087619558 -0.56527698 -0.73975939 0.36499029 0.00021352577
0.28477532 0.35772845 0.083952516 -0.57268077 -0.74965543 0.33174306 0.00011692742
-0.28179243 0.36261323 0.089693882 0.57292271 -0.75244856 0.3249318 0.00016658287
-0.27783513 0.36216259 0.081981659 0.57426906 -0.74568278 0.33789384 0.00016579439
-0.21577764 0.36248362 0.086320795 0.49780545 -0.78296083 0.37304437 0.0012905975
-0.20118347 0.36834538 0.082381822 0.41560063 -0.8275522 0.3774035 0.0011174555
0.2727564 0.36645797 0.082862496 -0.57221603 -0.74837625 0.33541262 0
-0.26138139 0.37607265 0.084822811 0.57421362 -0.74835187 0.33203647 0.00010285571
-0.19140938 0.37204099 0.081642985 0.36345491 -0.85148281 0.37799135 0.0001012112
-0.18196878 0.37569523 0.081106775 0.35664442 -0.8536768 0.37952703 0.00012307675
0.17923975 0.3792007 0.086213998 -0.35443887 -0.86059308 0.36572236 0.00019407758
0.1841072 0.37669632 0.085404485 -0.35478783 -0.85949802 0.36795196 0.00021506943
0.19432412 0.37332711 0.087260477 -0.37519372 -0.85374737 0.36103341 0.00033183361
0.26568568 0.37175983 0.082588948 -0.57158989 -0.74957371 0.33380273 9.6545467e-05
-0.25281191 0.38487512 0.089747734 0.57304752 -0.75058442 0.32899779 9.0713409e-05
-0.24197325 0.38967574 0.081971347 0.54009587 -0.76835531 0.34340447 0.00064056128
-0.17325287 0.38180336 0.086687587 0.3565408 -0.85723311 0.37152401 0.00020317541
-0.16372317 0.38516358 0.085299969 0.35700026 -0.85758853 0.37026054 0.00014891558
-0.15365648 0.38854226 0.08345066 0.35579678 -0.85480893 0.37777016 0.00027788244
0.15276605 0.3885473 0.082689002 -0.35377643 -0.85958326 0.36872602 0.00017906519
0.17565264 0.38024163 0.085147172 -0.35630125 -0.8597194 0.36596712 0.0001782474
0.24367435 0.38936657 0.084174305 -0.54950154 -0.76471704 0.33653501 0.00077531964
-0.23316607 0.39624467 0.081553295 0.49888462 -0.79724956 0.3398636 0.0021805826
-0.14645302 0.39102021 0.082391798 0.35435393 -0.85494667 0.37881324 0.0002268836
-0.13493732 0.39800563 0.087383896 0.35376656 -0.85782707 0.37280291 0.00015899116
-0.12703222 0.39835849 0.080913819 0.3488068 -0.85618091 0.38116673 7.1755298e-05
0.12794136 0.39929903 0.083670832 -0.34787637 -0.86023635 0.37279415 0.00016522997
0.13608357 0.39549309 0.082763769 -0.35484928 -0.85659754 0.37459657 0.00014282198
0.14878452 0.39102525 0.084444053 -0.35478467 -0.85847211 0.37034249 0.00010409649
0.23761564 0.39311561 0.082183935 -0.51279539 -0.79076368 0.33426604 0.0015426506
0.24229968 0.39203018 0.08773227 -0.54444557 -0.77035457 0.33186251 0.00071256404
-0.22570513 0.40361249 0.089800172 0.42353633 -0.84433305 0.32820532 0.0014610535
-0.21251279 0.40838316 0.088013463 0.37717032 -0.8660112 0.32827905 0.00030305312
-0.20574981 0.40926379 0.083066791 0.36019355 -0.87017292 0.33624345 5.8648886e-05
-0.12537532 0.40219662 0.087976947 0.3487722 -0.86291975 0.36568779 0.00011660534
-0.10722976 0.40819478 0.085803941 0.22550093 -0.89881003 0.37588573 0.001806758
-0.079678312 0.40946466 0.080264293 0.11982292 -0.91875523 0.37620649 0.00010835619
0.10553002 0.4080902 0.08482223 -0.22066511 -0.89725733 0.38240829 0.0020408717
0.11321082 0.40591949 0.084899247 -0.28322282 -0.87816268 0.38550636 0.0015761493
0.20720991 0.40870053 0.083173648 -0.36311382 -0.86642671 0.34271443 2.3934106e-05
0.21513931 0.40544024 0.083235972 -0.37790203 -0.86262232 0.33626312 0.00045232428
0.22469595 0.40343654 0.088270403 -0.43807846 -0.84230161 0.31403065 0.0013843813
-0.2047691 0.41157734 0.087978929 0.36172837 -0.87375188 0.32513127 0
-0.19462886 0.41467232 0.085132502 0.35760772 -0.86996925 0.33951458 0.00014318002
-0.09114629 0.41100213 0.087482601 0.14939998 -0.91944259 0.36373746 0.00050364144
-0.081989095 0.41116634 0.084951252 0.11829887 -0.92292583 0.36635146 0.00012563694
-0.072688304 0.41061854 0.080789089 0.11700954 -0.91772246 0.37959746 8.0702252e-05
-0.05114476 0.41554609 0.085842788 0.12143042 -0.92145717 0.36901399 0.00015013192
-0.031897105 0.41735852 0.083866023 0.12739693 -0.91803849 0.37546664 0.00014179818
-0.024210274 0.41955191 0.086757042 0.12141496 -0.92042923 0.37157562 0.00014474297
-0.015106834 0.41925666 0.083176829 0.094410971 -0.91746825 0.38644338 0.0003904349
-0.0062273503 0.4195033 0.081092417 0.048603989 -0.92823863 0.3687962 0.0014626979
0.0072314972 0.41927436 0.080875129 -0.056907896 -0.92390245 0.37837255 0.0012843842
0.02780683 0.41696364 0.081769302 -0.11929314 -0.91767442 0.37900233 7.2210903e-05
0.032485534 0.41596735 0.080914989 -0.12036339 -0.91735244 0.37944338 0.00015147529
0.046325866 0.41641372 0.086367585 -0.11750691 -0.92217791 0.36848336 7.0665628e-05
0.05543083 0.41461957 0.084751718 -0.12083127 -0.91892678 0.37546423 0.00015385495
0.065534644 0.41314748 0.084448636 -0.12138365 -0.91780025 0.37803245 0.0001339631
0.071412049 0.41346475 0.087108344 -0.12563416 -0.91909486 0.37347111 0.00020726331
0.08237581 0.41243291 0.088245764 -0.12454533 -0.9220475 0.36649254 0.00018820616
0.17905146 0.4193269 0.080502331 -0.36016315 -0.86768323 0.34264916 0.00017217209
0.18838352 0.41687661 0.084147051 -0.36051446 -0.87118995 0.33325273 1.8769566e-05
0.19422528 0.41431618 0.083784714 -0.36051467 -0.86931306 0.33811828 7.3555668e-05
0.20316574 0.4129543 0.089814827 -0.36151955 -0.87299138 0.3273986 2.6505935e-05
-0.17990917 0.42025661 0.08381182 0.35784718 -0.8703835 0.3381981 0.00012655533
-0.15760681 0.42940402 0.083578676 0.36171877 -0.8704648 0.33384207 0
-0.0066735782 0.42100868 0.084606014 0.042500619 -0.92772043 0.3708483 0.0013097677
0.018066101 0.42124152 0.089191169 -0.10185491 -0.92421317 0.3680428 0.00043405619
0.16420563 0.42708188 0.084637567 -0.36030495 -0.87147909 0.3327229 1.5725209e-05
0.1744712 0.42296064 0.084974766 -0.3603068 -0.87323016 0.3280977 0.0001317951
0.18040419 0.42176202 0.088216946 -0.36190441 -0.87413579 0.32390085 3.9305664e-06
-0.15204181 0.43225008 0.08497189 0.36133841 -0.87082678 0.33330944 0
-0.14340417 0.43605414 0.085554659 0.35693905 -0.87191361 0.33520326 0
-0.13296303 0.43919393 0.082502574 0.31409428 -0.88566637 0.34196478 0.001136318
0.14295235 0.43606669 0.085104868 -0.35571682 -0.87276065 0.33429673 0
0.15649864 0.4304243 0.085024208 -0.36053759 -0.87018728 0.33583719 0.00017695039
-0.12636003 0.44279769 0.084739871 0.29086632 -0.89642084 0.33440465 0.0013516523
-0.11668481 0.44669041 0.086556643 0.22823706 -0.91377586 0.33603817 0.001520879
-0.10396089 0.44628334 0.080801755 0.17446089 -0.92338336 0.3419452 0.00084595213
-0.092321649 0.4491246 0.084419407 0.12145433 -0.93432689 0.33508503 5.8981099e-05
0.09636803 0.44739282 0.081105471 -0.12760741 -0.9284361 0.34888777 0.00021828075
0.11542054 0.44637313 0.08526843 -0.2312368 -0.90937579 0.34578186 0.002025455
-0.095409527 0.45043132 0.089154482 0.12736787 -0.93776035 0.32308343 0
-0.074821122 0.4519251 0.085791588 0.12150293 -0.93430775 0.33512118 0
-0.066226818 0.45358515 0.087252595 0.12294012 -0.93448913 0.33408943 4.8019298e-05
-0.056780171 0.45357797 0.083795421 0.1256741 -0.93122667 0.34208617 9.3304094e-05
-0.035158865 0.4557215 0.08185263 0.12246696 -0.93065244 0.34480119 0.00016102829
-0.025967227 0.45771939 0.084029794 0.11937349 -0.9326728 0.34039891 0.00022607675
-0.010830644 0.45968625 0.083958253 0.080983229 -0.93955284 0.33268937 0.001204128
-0.0071005668 0.4593226 0.081596024 0.054723643 -0.93741745 0.34388041 0.0018586942
0.0034994148 0.45947951 0.08071921 -0.030793043 -0.93758136 0.34640011 0.0019998373
0.03257212 0.45678294 0.083844952 -0.12172975 -0.9336133 0.33696935 0.00013574075
0.05482382 0.45327774 0.082253881 -0.12306648 -0.93274754 0.33887553 0.00021521433
0.066924535 0.4519949 0.083111346 -0.12173226 -0.9340958 0.33562818 0.00016512151
0.079273023 0.45126405 0.085584566 -0.12015745 -0.93433541 0.33552855 5.9633669e-05
0.085114136 0.4507041 0.086162359 -0.12335385 -0.93687105 0.32719481 3.7602749e-05
-0.01781247 0.4601565 0.087798402 0.11088392 -0.93875623 0.32625359 0.00022685513
-0.0036594789 0.46130744 0.085829616 0.031657189 -0.94179308 0.33469921 0.002017387
0.0012059694 0.46154225 0.085585862 -0.00018191562 -0.93930566 0.34308138 0.0020925889
0.01379594 0.46082842 0.088193908 -0.091490075 -0.93744427 0.33589855 0.00061777257
-0.049060926 -0.46022287 0.099352039 0.12575169 0.94414371 0.30459693 0.00011011808
-0.025245722 -0.46150756 0.094237126 0.11827207 0.9425472 0.31243601 0.00023040651
-0.013219608 -0.46300259 0.093993329 0.077135824 0.94646508 0.3134549 0.00092188339
-0.0032587897 -0.46446836 0.094420031 0.017101398 0.95111799 0.30835402 0.0019404502
0.0042867851 -0.46587664 0.098686181 -0.014049326 0.95192248 0.30601701 0.0016218121
0.01477598 -0.4643091 0.098170549 -0.085772336 0.94801015 0.30646324 0.00095223804
0.044233087 -0.46103534 0.099842004 -0.1267204 0.94319582 0.30712137 0.00015870253
-0.11403497 -0.45138988 0.098580904 0.18999448 0.93211716 0.30831748 0.0013931291
-0.10597318 -0.45216322 0.097784847 0.15837261 0.9375335 0.30975646 0.00066905416
-0.091810301 -0.45320952 0.095523283 0.12387524 0.94154632 0.31328169 5.8774251e-05
-0.08764495 -0.4535138 0.094848685 0.12278736 0.94268984 0.31025648 0.0001528554
-0.074212089 -0.45561939 0.095780343 0.12537511 0.94163382 0.31242105 0.00015846681
-0.064915612 -0.4574284 0.097397499 0.12416993 0.94231218 0.310853 0.00013683503
-0.054416679 -0.45802692 0.095231459 0.12689696 0.93948865 0.31821111 0.00010418197
-0.048804529 -0.45819169 0.093645006 0.12484074 0.93952191 0.31892538 3.2885964e-05
-0.030590633 -0.45936337 0.090255894 0.11986528 0.9373973 0.32698408 0.00021227077
0.040906344 -0.45803148 0.090328336 -0.12611327 0.93714809 0.32534435 5.7996738e-05
0.054262333 -0.45743728 0.09354566 -0.12534706 0.94022214 0.31665501 0.00015609637
0.062041163 -0.45805815 0.098092154 -0.1258873 0.94155139 0.31246337 0.00011002793
0.084951483 -0.45336521 0.093457915 -0.1203412 0.94252843 0.31170174 0.00010542795
0.096019618 -0.45183751 0.093262888 -0.12437971 0.93982106 0.31822333 0.00024848376
0.10349669 -0.45182499 0.095948972 -0.14790809 0.93928862 0.3096129 0.00067127409
0.11471434 -0.45013553 0.095361225 -0.19264716 0.92988276 0.31337696 0.0019037235
-0.13399325 -0.44393989 0.095824599 0.32571933 0.89314955 0.31014633 0.00072949874
-0.1266723 -0.44527504 0.091453277 0.29747966 0.90152425 0.3142606 0.0013133489
-0.11379558 -0.4494611 0.093163028 0.18646666 0.93019491 0.31617653 0.0013489645
0.12268198 -0.44744235 0.092778206 -0.26621103 0.90369147 0.33537048 0.002311216
0.13502413 -0.44354436 0.09590555 -0.34213638 0.88773948 0.30799544 0.00045429883
-0.16369852 -0.43122536 0.094768167 0.35920745 0.87697357 0.3191981 8.4603409e-05
-0.15455906 -0.43554944 0.096154667 0.36337829 0.87629378 0.31633109 3.4174362e-05
-0.14243153 -0.43874961 0.091459095 0.36167723 0.87578726 0.31966594 0.00013625267
0.14607657 -0.4374927 0.092110448 -0.3625088 0.87598753 0.3181715 0.00022441358
0.15251718 -0.43569866 0.094360806 -0.36029658 0.8786521 0.31329983 8.1689541e-05
0.1618695 -0.43106031 0.092391819 -0.36290351 0.87566334 0.31861377 5.9640854e-05
-0.18448396 -0.42407352 0.098522596 0.36663812 0.87878829 0.30546293 0.00025221211
-0.17203397 -0.42815641 0.095756367 0.3634313 0.87689555 0.31459799 8.8642286e-05
-0.16822739 -0.42855793 0.092729613 0.36140454 0.87531877 0.32125354 6.0165024e-05
-0.03506441 -0.42081556 0.094198912 0.12312966 0.92906487 0.34882322 0.00018875778
-0.021639051 -0.42374843 0.09741994 0.11138953 0.93285614 0.34259576 0.0002745759
-0.010825252 -0.42290786 0.091161974 0.054758418 0.92938918 0.36501691 0.0010250927
0.0068764323 -0.42423803 0.093401574 -0.028827013 0.93591774 0.35103697 0.0014665945
0.013323175 -0.42395985 0.094978385 -0.07391464 0.934618 0.34788758 0.0010538171
0.027529705 -0.42362848 0.09923175 -0.12748982 0.9317534 0.33997342 8.1486942e-05
0.033064801 -0.42202544 0.09681531 -0.12635413 0.93091613 0.34268028 0.00016917322
0.16817497 -0.42914605 0.094188377 -0.36103567 0.87851137 0.31284329 4.0559884e-05
0.17393728 -0.42628452 0.092965662 -0.36015067 0.87820816 0.31470942 4.0548053e-05
0.18365273 -0.42309254 0.095110372 -0.36230263 0.87837571 0.31175795 9.2093906e-05
0.19103543 -0.42116907 0.098031215 -0.36391142 0.88006008 0.30506203 8.8561035e-05
-0.21503335 -0.41114813 0.097823501 0.37344447 0.87444502 0.3096534 0.00026197921
-0.208855 -0.41367948 0.097751908 0.36568409 0.87829626 0.30801103 0.0002536742
-0.19701974 -0.41762599 0.095290191 0.36296386 0.8768059 0.31538665 0.00015133928
-0.18893036 -0.41924724 0.090836026 0.36131564 0.8724001 0.32919455 7.3330899e-05
-0.10142559 -0.41349047 0.098100185 0.17495808 0.92128879 0.3472991 0.0012899542
-0.096045166 -0.41370398 0.096732587 0.15749529 0.92493129 0.34597313 0.00091154914
-0.086782224 -0.41410616 0.094473645 0.1337271 0.92746222 0.349186 0.00039987176
-0.072327822 -0.41532892 0.092593737 0.12229943 0.92757261 0.35306078 0.00013430431
-0.06816943 -0.4160769 0.093147896 0.12245724 0.92775017 0.352539 7.65109e-05
-0.05193029 -0.41916847 0.095783636 0.12034342 0.92971355 0.34806645 0.00018337001
-0.049123131 -0.41934454 0.095248781 0.12173583 0.92738724 0.35374194 0.00014246914
0.057413507 -0.41666573 0.090861648 -0.11666814 0.92528874 0.36087307 0.00019811469
0.063447505 -0.41710475 0.094270602 -0.11699984 0.93023866 0.34780321 0.00014829345
0.086650789 -0.41373554 0.093401544 -0.12626708 0.92560166 0.35681674 0.0001936794
0.099452771 -0.41301852 0.096077897 -0.18600763 0.91574514 0.35610682 0.0013853953
0.10702778 -0.41149312 0.094618343 -0.20370556 0.91041708 0.36006224 0.0016289339
0.11068622 -0.4112556 0.095637895 -0.25719109 0.90137929 0.34837937 0.0018783041
0.2041188 -0.41457185 0.094997607 -0.36394024 0.87596363 0.31659955 0.00016667039
0.2131775 -0.41220152 0.098566547 -0.38177115 0.8721537 0.30593917 0.00042392957
-0.23219104 -0.40290871 0.095488034 0.47407043 0.81954694 0.3218697 0.001798973
-0.22426692 -0.40688717 0.096699849 0.42406225 0.84973937 0.31323183 0.001211899
-0.21467164 -0.40902215 0.091962218 0.37475768 0.86896217 0.32320493 0.00027326075
-0.13343547 -0.40145355 0.094661862 0.35702896 0.86779398 0.34563568 0.0002405422
-0.12531407 -0.40455794 0.093993135 0.32779884 0.87877625 0.34684318 0.00079698238
-0.11559837 -0.40908051 0.095276207 0.28934771 0.89248043 0.34605852 0.0018924873
0.11842244 -0.40919966 0.098595798 -0.29756224 0.89112949 0.34255648 0.0010621349
0.12505068 -0.40519935 0.095364094 -0.3282924 0.87709361 0.35061496 0.00057414192
0.13612807 -0.40193582 0.098776177 -0.35854444 0.86853933 0.34217721 0.00019454669
0.21833211 -0.40864983 0.094908282 -0.38553086 0.8682934 0.31214181 0.00037306212
0.22802073 -0.40468425 0.095030792 -0.443589 0.83893883 0.31529421 0.001715145
0.23398563 -0.40092278 0.09329012 -0.50601208 0.80137628 0.3189795 0.0015991533
-0.24557213 -0.39415777 0.09799163 0.55258477 0.77467829 0.30744708 0.00060822041
-0.23643044 -0.39782569 0.090589605 0.50039709 0.80214345 0.32583553 0.0015339822
-0.15481697 -0.39221582 0.093679808 0.35881424 0.86298531 0.3556805 0.0002038188
-0.14036486 -0.39712587 0.0909082 0.35936567 0.86152941 0.35864103 0.00028936271
-0.1386171 -0.39992243 0.096246094 0.35771433 0.86832434 0.34358895 0.00019730399
0.15651724 -0.39273199 0.096823171 -0.35900441 0.86754072 0.3442224 0
0.23969837 -0.39941582 0.099651992 -0.50981659 0.80311191 0.30838004 0.001510986
-0.26144162 -0.38280007 0.09980341 0.57727569 0.75708765 0.30589384 0.0001594487
-0.25332534 -0.38703945 0.095405877 0.57566589 0.75561392 0.31250042 9.4471412e-05
-0.18075328 -0.38120118 0.092980735 0.35769385 0.8651858 0.35143799 8.9438916e-05
-0.17351921 -0.38541752 0.096122637 0.35988554 0.86647326 0.34598601 0.00020481703
-0.16212799 -0.38874885 0.09255024 0.35903326 0.86140227 0.35927874 0.00017559186
0.16825768 -0.38637787 0.092983007 -0.35507706 0.86414951 0.35660324 0.00015176456
0.17425457 -0.38459134 0.094779253 -0.36009982 0.86264038 0.35521778 0.00011325972
0.18213689 -0.38243997 0.097647309 -0.36034775 0.86777139 0.34223124 0.00032429982
0.25478891 -0.38446373 0.09219297 -0.57645518 0.75258875 0.3182916 5.9141235e-05
-0.27229658 -0.37243485 0.095300891 0.58151722 0.75060546 0.31373441 0.00013738133
-0.206063 -0.37112164 0.094021469 0.42287835 0.83419448 0.35396808 0.0015937503
-0.19361916 -0.3757942 0.09278053 0.3691487 0.85834247 0.35633895 0.00013876983
-0.18843757 -0.37704808 0.09048219 0.35971841 0.86146581 0.35844028 0.00015666359
0.19199589 -0.37805021 0.09685906 -0.36709616 0.86295503 0.34720173 0.00025345493
0.20521629 -0.37178469 0.094825864 -0.40992746 0.84065038 0.35393006 0.0015991072
0.26529494 -0.37869382 0.097261146 -0.57833201 0.75583661 0.30699047 0.00017850945
0.27340755 -0.37143216 0.094968498 -0.57735437 0.75213701 0.31772923 2.3663279e-05
-0.28124124 -0.36704206 0.098553307 0.5820145 0.75099474 0.31187513 0.00019289456
-0.27623841 -0.36851048 0.093311079 0.58197457 0.74909419 0.31648615 4.0145049e-05
-0.22448885 -0.3611024 0.097961515 0.54914224 0.76121628 0.344953 0.00059556041
-0.21311578 -0.36969709 0.097876474 0.46007213 0.81757373 0.34627569 0.0016836255
0.21410686 -0.36771202 0.095243275 -0.4816325 0.80360985 0.3496303 0.0019459688
0.22318801 -0.36217472 0.098125428 -0.54408187 0.76420581 0.34635878 0.00069807866
0.27857593 -0.36541122 0.090423435 -0.57712132 0.75051254 0.32196575 0.00015031525
0.28492713 -0.36212754 0.093939386 -0.57762414 0.7515136 0.31871253 9.2354749e-05
