# .PCD v0.7 - Point Cloud Data file format
VERSION 0.7
FIELDS x y z normal_x normal_y normal_z curvature
SIZE 4 4 4 4 4 4 4
TYPE F F F F F F F
COUNT 1 1 1 1 1 1 1
WIDTH 572
HEIGHT 1
VIEWPOINT 0 0 0 1 0 0 0
POINTS 572
DATA ascii
-0.23439938 0.056104824 -0.10725316 0.23718816 -0.05038622 0.97015613 0.0001280283
0.22687681 0.056219805 -0.10908231 -0.23056647 -0.054437842 0.97153264 0.0001335407
0.2355984 0.053476047 -0.10706244 -0.24241392 -0.045174021 0.96912068 0.00010933741
0.24340396 0.055304457 -0.1049065 -0.25364161 -0.050993171 0.96595323 0.00012991442
0.25435355 0.054702967 -0.10199384 -0.26883525 -0.044258088 0.96216881 6.5792228e-05
0.35998929 0.056067437 -0.10797025 -0.53382933 -0.064829662 0.84310341 0.00029779586
0.36735526 0.056887742 -0.10326217 -0.54552889 -0.065004133 0.8355673 0.00030494618
-0.3652637 0.064796843 -0.10392381 0.5530647 -0.073872022 0.82985687 0.00014214289
-0.24586931 0.06502901 -0.10383157 0.25319827 -0.065542802 0.9651916 0.00015197524
-0.23916519 0.065961003 -0.10553843 0.24265628 -0.073070176 0.96735656 0.00011814749
-0.22832787 0.064511895 -0.10830808 0.22946903 -0.067984119 0.97093886 0.00014190005
0.22568424 0.0642519 -0.10889362 -0.22405043 -0.067252807 0.97225434 0.00013083826
0.23427364 0.06451191 -0.10690024 -0.23534444 -0.062929593 0.96987259 0.00015696934
0.24383059 0.067626745 -0.10420127 -0.25202614 -0.07174667 0.96505713 0.00016548726
0.25808695 0.064527899 -0.10061455 -0.2700296 -0.058138609 0.96109515 0.0001758381
0.35586917 0.063849121 -0.10992031 -0.51412785 -0.069150053 0.85492152 0.00028477653
-0.36680251 0.074149005 -0.10217883 0.55664134 -0.075706862 0.82729614 0.0002031911
-0.25406003 0.074229084 -0.10093144 0.26401681 -0.083692148 0.96088016 0.00018454425
-0.24616075 0.076724105 -0.1026786 0.24922404 -0.097977065 0.96347702 7.3558898e-05
-0.22461195 0.079413906 -0.1077808 0.22648984 -0.088849664 0.96995258 5.752805e-05
-0.21831463 0.074450165 -0.10956303 0.2184367 -0.082478821 0.97235942 0.00010093202
0.2259699 0.077536397 -0.10761363 -0.22577365 -0.087621957 0.97023124 4.9456768e-05
0.24405031 0.073684871 -0.10351987 -0.24896437 -0.082445137 0.96499717 0.00013727817
0.25192064 0.070670485 -0.10186651 -0.26107362 -0.076219715 0.96230507 0.00018169385
0.35875425 0.070865586 -0.10752101 -0.53216922 -0.073240347 0.84346414 0.00029338343
0.36527309 0.076557107 -0.10294261 -0.55202204 -0.078560576 0.83012044 0.00022506206
-0.36010689 0.083097085 -0.10565454 0.53369153 -0.089152671 0.84096676 0.00050662871
-0.35949704 0.089559868 -0.10550272 0.52598137 -0.10820655 0.84358454 0.00077885756
-0.25041884 0.085462779 -0.10068902 0.25934544 -0.10477013 0.96008497 5.4936285e-05
-0.24002016 0.088015929 -0.10304399 0.24859583 -0.1011424 0.96331215 5.3069849e-05
-0.2385571 0.087034896 -0.10351074 0.24674788 -0.10032157 0.96387297 5.4003427e-05
-0.22125115 0.085725114 -0.10794412 0.22393072 -0.092106216 0.97024298 6.6613036e-05
-0.21759684 0.084572613 -0.10882344 0.21770217 -0.089592829 0.9718945 6.6961496e-05
0.22710693 0.084016748 -0.10665761 -0.23008601 -0.093605608 0.96865803 5.7111905e-05
0.23793995 0.08341372 -0.10403936 -0.23887467 -0.093643166 0.96652466 6.9891008e-05
0.2421025 0.082434647 -0.10310128 -0.24810562 -0.092301682 0.96432567 6.8474328e-05
0.35694611 0.086458541 -0.10736686 -0.52291065 -0.11288961 0.84487891 0.00062022771
0.36365876 0.086841248 -0.10310665 -0.54128933 -0.10937141 0.83369279 0.00062859629
-0.36549422 0.094490312 -0.101316 0.55144042 -0.13411635 0.82336283 0.00097092276
-0.35505968 0.096916452 -0.10740291 0.50833714 -0.1420887 0.8493551 0.00071252143
-0.24518132 0.094361797 -0.10107607 0.25536042 -0.10628814 0.9609859 7.4475931e-05
-0.23587419 0.094584055 -0.10339988 0.24264491 -0.1021416 0.96472299 4.4699307e-05
-0.22346167 0.093490601 -0.10661216 0.23120816 -0.096688569 0.96808791 6.9067166e-05
-0.21702667 0.093860924 -0.10812598 0.22403654 -0.092204779 0.97020924 6.3839529e-05
-0.20722106 0.097578347 -0.10988514 0.21280169 -0.092644751 0.97269338 5.3770018e-05
0.21480167 0.094960928 -0.10850256 -0.21922021 -0.090541087 0.97146529 5.2612682e-05
0.2348368 0.096550807 -0.10345549 -0.24363542 -0.10558864 0.96410209 7.1082541e-05
0.24525106 0.094447643 -0.10105057 -0.25703809 -0.10779765 0.9603703 4.7804944e-05
0.35122064 0.097395822 -0.1095399 -0.49901184 -0.14431991 0.85449344 0.00055618101
0.3667216 0.09155675 -0.10078621 -0.54740715 -0.11548398 0.82885998 0.00057235849
-0.35699201 0.10473391 -0.10436784 0.51606357 -0.18244435 0.83689451 0.00057946262
-0.23188972 0.10827393 -0.10297891 0.24497807 -0.10540394 0.96378201 4.8778606e-05
-0.22864017 0.10815492 -0.10380257 0.24264237 -0.10491234 0.96442628 4.3569293e-05
-0.21015789 0.10612126 -0.10850701 0.21946412 -0.10572003 0.96987569 4.6365647e-05
-0.20928665 0.10361217 -0.10891363 0.21534453 -0.095361471 0.97187084 6.3966821e-05
0.20648035 0.10204159 -0.10964934 -0.20859337 -0.094373018 0.9734385 7.4616415e-05
0.2140501 0.10700127 -0.10753229 -0.22028068 -0.10162834 0.97012782 8.8259469e-05
0.22307625 0.10164271 -0.1058653 -0.22976954 -0.096540369 0.96844512 4.4677054e-05
0.23752473 0.10845348 -0.10155336 -0.25461003 -0.1067469 0.96113414 6.8270732e-05
0.24396405 0.10207619 -0.10056645 -0.26087561 -0.10755686 0.95936203 3.6485548e-05
0.3509849 0.1072251 -0.10728838 -0.50475883 -0.1867553 0.84281737 0.00037623648
-0.35568348 0.11839581 -0.10181414 0.52156138 -0.20997222 0.82697362 0.00020527863
-0.24007061 0.11291718 -0.10039493 0.25986588 -0.10896346 0.95947725 4.6597361e-05
-0.23267853 0.11373309 -0.10221735 0.24785922 -0.10683566 0.96288729 7.8035904e-05
-0.21549815 0.11340652 -0.10654077 0.2253591 -0.10797304 0.9682743 6.821211e-05
0.20200983 0.11356832 -0.10958465 -0.20112358 -0.11416361 0.9728905 0.0001325824
0.21391973 0.1181822 -0.10644098 -0.21777868 -0.11818311 0.9688164 0.00013706846
0.34802905 0.11488673 -0.10716055 -0.49809521 -0.19908537 0.84395868 0.00031156492
0.35576877 0.11534197 -0.10250667 -0.51750922 -0.20087063 0.83176637 0.00037292475
-0.3533507 0.12303195 -0.10205625 0.52319843 -0.21794873 0.82387 0.00014374909
-0.34270212 0.12470207 -0.10790087 0.49466628 -0.20010279 0.84573287 0.00025262436
-0.23012128 0.12606902 -0.10158005 0.24142797 -0.12846521 0.96187794 0.00017276466
-0.21893777 0.12100561 -0.10489604 0.2249099 -0.12118516 0.96681416 0.00011403325
-0.20420682 0.12293763 -0.10797082 0.20477179 -0.12695706 0.9705413 8.3958177e-05
0.18926316 0.1296134 -0.10982359 -0.18498175 -0.13612594 0.97326845 5.5885528e-05
0.19820009 0.12610281 -0.10868261 -0.19598556 -0.1307773 0.97184724 0.00010877896
0.20376264 0.12379827 -0.10795845 -0.2052906 -0.12238375 0.97101903 0.00013735105
0.22338015 0.12639989 -0.10321191 -0.22821234 -0.133112 0.96446896 0.00014320851
0.34340405 0.12752214 -0.10680319 -0.49122754 -0.19976109 0.84781545 0.00021681302
0.3518452 0.12502909 -0.10245442 -0.51558673 -0.20977029 0.83076274 0.00027765951
-0.34547439 0.13532707 -0.10369016 0.51236427 -0.21070862 0.83251709 0.00025385214
-0.23351572 0.13200015 -0.10000723 0.24431138 -0.13569885 0.96015513 0.0001977403
-0.22661434 0.13386503 -0.10144045 0.23571353 -0.14005288 0.96167791 0.00017510256
-0.21769644 0.13385913 -0.10337734 0.22315881 -0.13961078 0.96473259 0.00013929696
-0.20361884 0.13520974 -0.10617348 0.20569248 -0.14614299 0.9676429 6.2086234e-05
-0.19567157 0.13782057 -0.10742734 0.19624496 -0.14697568 0.96947724 7.711121e-05
-0.18709873 0.13630597 -0.10928062 0.19069254 -0.14659812 0.97064173 3.4007557e-05
0.18540499 0.13604841 -0.10962629 -0.18544596 -0.14260562 0.97225171 6.405099e-05
0.19566841 0.13561089 -0.10774574 -0.19668475 -0.14888862 0.96909612 3.8660342e-05
0.20898208 0.13226098 -0.10550871 -0.20774175 -0.14832808 0.96687233 9.2446513e-05
0.21515711 0.13503134 -0.10372896 -0.21448684 -0.14888582 0.96531254 7.9327714e-05
0.22942564 0.13515487 -0.10061736 -0.24023263 -0.14310713 0.96010864 0.00020353041
0.35006291 0.13761109 -0.1004286 -0.52647692 -0.216506 0.82216012 0.00021038469
-0.34298107 0.14932412 -0.10175042 0.52010846 -0.21497357 0.82660359 0.00024828524
-0.22499171 0.1434931 -0.10013276 0.234125 -0.16272843 0.95849103 0.00011751425
-0.21440211 0.14384314 -0.10244109 0.21498591 -0.1601653 0.96339411 5.2757099e-05
-0.2063209 0.14566801 -0.10387353 0.20586829 -0.15790403 0.96575594 6.3965919e-05
-0.19210848 0.14607602 -0.10685366 0.19593866 -0.15007392 0.96906447 5.7209276e-05
-0.18449321 0.14108393 -0.10908676 0.18911967 -0.14598718 0.97104144 4.6163092e-05
-0.17858766 0.14438137 -0.10970363 0.18605407 -0.1439261 0.97194093 4.6816782e-05
0.1914385 0.14348523 -0.10742356 -0.19651556 -0.15100452 0.96880305 5.0022951e-05
0.20418948 0.14272311 -0.10481504 -0.20626384 -0.15318097 0.96643209 7.0834656e-05
0.21621327 0.14394629 -0.10203581 -0.22014545 -0.16013581 0.96223307 6.2910811e-05
0.33876157 0.1454156 -0.10517765 -0.49357048 -0.20726402 0.84464777 0.00022450583
-0.3400442 0.15244624 -0.10271524 0.51638252 -0.21114287 0.82992023 0.00019383215
-0.33476281 0.15286396 -0.10571388 0.50798386 -0.20894367 0.83564049 0.0001773749
-0.21263218 0.15221955 -0.1014425 0.22076041 -0.16932377 0.9605177 4.4666234e-05
-0.20351766 0.1575686 -0.10251668 0.21183246 -0.16540779 0.96320671 8.4583626e-05
-0.19398113 0.15509552 -0.10496826 0.20392625 -0.15554507 0.96655053 8.9675479e-05
0.16725519 0.15793064 -0.10987463 -0.16851583 -0.15326373 0.97371078 0.00014037758
0.17502293 0.15613714 -0.10870653 -0.1846851 -0.15397055 0.97066188 8.5189218e-05
0.18315291 0.15364128 -0.10752916 -0.19269848 -0.14998043 0.96972835 5.4810578e-05
0.20493323 0.15539153 -0.10257135 -0.21505938 -0.1626603 0.96295959 5.7358935e-05
0.21322115 0.1556606 -0.10073329 -0.22351086 -0.17182796 0.9594363 9.6106662e-05
0.22031668 0.15008488 -0.10003827 -0.22797038 -0.17045248 0.95863205 9.7352786e-05
0.33594358 0.15561852 -0.10435105 -0.50285208 -0.20928416 0.83865362 0.00028039131
0.34211081 0.15311679 -0.10133915 -0.52207369 -0.21923807 0.82424122 0.00033123145
-0.33746907 0.16378915 -0.10146888 0.51754373 -0.21801846 0.82741553 0.00017104199
-0.32409158 0.16528562 -0.10895771 0.48472434 -0.21065427 0.84892118 0.00031919958
-0.20183553 0.16759913 -0.10121963 0.2203407 -0.1722798 0.96008837 4.0277046e-05
-0.19690022 0.16176845 -0.10324454 0.20856453 -0.16143465 0.96459299 8.0542537e-05
-0.18339655 0.16604143 -0.10543685 0.18931523 -0.16069579 0.96867776 5.1843013e-05
-0.17616391 0.16469771 -0.10720866 0.18153903 -0.1605576 0.97018808 0.00011214421
-0.16521198 0.16698202 -0.10887162 0.16472843 -0.1676645 0.97198415 0.00012316425
0.16109617 0.1647324 -0.10989177 -0.15973985 -0.16981415 0.97244352 0.00014329993
0.17424537 0.16489428 -0.10758764 -0.17771894 -0.16606978 0.96996742 0.00014814861
0.19957073 0.16149372 -0.10271718 -0.21382818 -0.1636629 0.96306384 7.8496021e-05
0.20444241 0.16271882 -0.1014711 -0.22109224 -0.16903999 0.96049136 7.8900477e-05
0.21010226 0.16095793 -0.10049991 -0.22431202 -0.17152335 0.95930386 6.3773128e-05
0.32883579 0.16445242 -0.10637543 -0.49355775 -0.20915882 0.84418803 0.00027221156
0.33743408 0.16201872 -0.10191992 -0.51781046 -0.2167602 0.8275792 0.00021155474
-0.33053714 0.17843926 -0.10197581 0.49722522 -0.24730693 0.8316288 0.00050321349
-0.31806391 0.17747152 -0.10953305 0.46121827 -0.24498145 0.85279644 0.00062848243
-0.18679106 0.17582114 -0.10310007 0.20440046 -0.18030047 0.96213937 0.00012501502
-0.1741512 0.17848694 -0.10515527 0.17135511 -0.18804416 0.9670971 0.00016021117
-0.15477811 0.17507176 -0.10888819 0.14736214 -0.18557355 0.9715178 5.4262084e-05
-0.14856146 0.17529452 -0.10971928 0.14650047 -0.18399905 0.97194749 4.8226706e-05
0.14930964 0.17449261 -0.1097609 -0.14108382 -0.17991316 0.97351259 8.5900028e-05
0.15376931 0.1730836 -0.10939301 -0.14704703 -0.1795194 0.97270238 7.3016956e-05
0.18701492 0.17482996 -0.10321514 -0.19603136 -0.17508814 0.96483982 0.00010341335
0.1938539 0.17407922 -0.10187232 -0.20977174 -0.17497598 0.96196634 9.9129429e-05
0.31846443 0.17867875 -0.10900445 -0.46488833 -0.24229138 0.85157132 0.00067134207
0.32259142 0.17723602 -0.10693268 -0.48038521 -0.24061231 0.84340715 0.00065351941
0.33274165 0.17482592 -0.10156039 -0.51601523 -0.22935326 0.8253032 0.00027027586
-0.32218856 0.1875452 -0.10444272 0.46322113 -0.28574982 0.83891189 0.00075125846
-0.18707193 0.18809311 -0.10090028 0.20031971 -0.19448771 0.96023256 0.00017029165
-0.1755719 0.18640596 -0.10322365 0.16901678 -0.20328861 0.96442062 0.00010658281
-0.16661412 0.18420544 -0.10516921 0.16301574 -0.19402622 0.96735698 7.718234e-05
-0.15478186 0.1858317 -0.10676717 0.15109259 -0.19507256 0.96908081 6.5597735e-05
-0.14044181 0.18145141 -0.10973271 0.14082092 -0.18216687 0.97313142 5.4839787e-05
0.14444733 0.18723685 -0.10808702 -0.15011282 -0.19557473 0.96913195 3.703394e-05
0.15723912 0.18804437 -0.10588846 -0.15456948 -0.1967952 0.96818382 3.7703627e-05
0.17471232 0.18265876 -0.10416848 -0.17394575 -0.18952104 0.96634603 7.2076087e-05
0.18705887 0.18610889 -0.10130953 -0.19664994 -0.19129245 0.96163201 0.00018420472
0.32189417 0.18684222 -0.10486308 -0.46821719 -0.27011165 0.84131587 0.00079296535
-0.32258174 0.19662628 -0.10073204 0.46959385 -0.31662458 0.82415444 0.0004366854
-0.31417871 0.19250056 -0.10656361 0.43908939 -0.2973519 0.84781033 0.00047804866
-0.30827925 0.19651136 -0.10798606 0.43162578 -0.31284288 0.84606647 0.00024987163
-0.15495674 0.19668914 -0.10441048 0.16089818 -0.20568736 0.9653002 8.3601764e-05
-0.14361207 0.19587339 -0.10645181 0.1487585 -0.19607295 0.96924007 3.8658938e-05
-0.12396476 0.1957552 -0.10942923 0.12996686 -0.19304891 0.97254348 0.00013454795
0.12002636 0.19968034 -0.10926418 -0.12598254 -0.20068596 0.97152132 0.00011317942
0.14589977 0.1942693 -0.10641934 -0.151512 -0.19705227 0.9686147 5.8770715e-05
0.15479985 0.19239187 -0.10535762 -0.15666434 -0.19971533 0.96724868 5.4931879e-05
0.16585445 0.19101074 -0.10383505 -0.16431871 -0.20177501 0.96554971 6.556882e-05
0.17385891 0.19572797 -0.10150674 -0.17553808 -0.21205419 0.96136332 8.6622313e-05
0.30788633 0.19767073 -0.10773575 -0.42596954 -0.31341794 0.8487162 0.00032290834
0.31636387 0.19244209 -0.1054848 -0.4496322 -0.30102938 0.84095907 0.00060267816
0.32316113 0.19325088 -0.10174561 -0.47298321 -0.30046031 0.82825756 0.0007434485
-0.3168419 0.2038423 -0.10082731 0.4498997 -0.32829913 0.83054793 0.00032219492
-0.30144212 0.2067401 -0.10747609 0.42476478 -0.32804292 0.84377885 0.00021359931
-0.29971087 0.20417126 -0.10934238 0.41947609 -0.31867236 0.84999281 0.00031383563
-0.16164377 0.20313554 -0.10192815 0.16525163 -0.21518841 0.96248943 4.557478e-05
-0.15067306 0.20134605 -0.10411676 0.16181584 -0.21001305 0.96421474 5.8902708e-05
-0.1436239 0.20250183 -0.10502869 0.15320964 -0.20446777 0.96680903 7.1941096e-05
-0.13579026 0.20332018 -0.10614201 0.14745489 -0.20343882 0.96792024 3.8816292e-05
-0.12729463 0.20075485 -0.10804857 0.13655756 -0.20178647 0.969863 9.0681482e-05
-0.11356229 0.20394902 -0.10916729 0.10802633 -0.20754349 0.97224277 9.7929609e-05
-0.094811216 0.20872279 -0.10980943 0.091262832 -0.2118528 0.97303104 5.4781773e-05
0.10412943 0.20889695 -0.10895094 -0.10046825 -0.21292947 0.97188848 8.8433335e-05
0.13267604 0.20123819 -0.10710075 -0.14132695 -0.19837102 0.96988428 6.8812078e-05
0.14948162 0.20051673 -0.10449056 -0.15868998 -0.20486231 0.96584105 9.4569674e-05
0.15926389 0.20993942 -0.10086073 -0.17006834 -0.2207448 0.96038979 6.2944207e-05
0.29758117 0.20694643 -0.1093426 -0.4210079 -0.32028633 0.84862769 0.00024769874
0.30447787 0.20695512 -0.10586274 -0.42636436 -0.32814184 0.84293318 0.00032079787
0.3157284 0.20529036 -0.10081683 -0.45720503 -0.33290571 0.82470441 0.00030647084
-0.30623737 0.21411335 -0.10220701 0.44038811 -0.34265965 0.82984501 0.00024688683
-0.29540327 0.21489905 -0.10736435 0.42663988 -0.32519355 0.84393579 0.0002954402
-0.15473223 0.21161544 -0.1012471 0.16955702 -0.2212607 0.96036142 3.0369318e-05
-0.14533305 0.21924977 -0.1011566 0.16180375 -0.22442649 0.96096426 6.5077154e-05
-0.13610308 0.21520102 -0.1035432 0.15075544 -0.21691692 0.96447909 8.4354717e-05
-0.12376897 0.21379513 -0.10576329 0.12414207 -0.21992286 0.96758598 0.00015375901
-0.11701073 0.21491258 -0.1063142 0.11463908 -0.22057901 0.96860868 9.8269782e-05
-0.10563327 0.21500398 -0.10742202 0.1005065 -0.21983263 0.97034633 6.4591353e-05
-0.09401644 0.21549092 -0.10843909 0.092630289 -0.22177665 0.97068775 3.751121e-05
-0.088441595 0.21463117 -0.1091135 0.090594843 -0.2202446 0.97122854 3.39256e-05
-0.077837244 0.21805942 -0.1093187 0.084789149 -0.21832947 0.97218466 2.9880144e-05
0.079362914 0.21548682 -0.10973172 -0.08872702 -0.21180077 0.97327691 5.4314773e-05
0.085791215 0.21689525 -0.1088653 -0.09064541 -0.21331701 0.97276884 4.1866777e-05
0.10071058 0.21664581 -0.10756722 -0.099284783 -0.22900596 0.9683485 6.1242441e-05
0.11596774 0.21449187 -0.1065271 -0.11187175 -0.22561681 0.96777153 4.8989663e-05
0.13511521 0.21457177 -0.10384062 -0.14822836 -0.2138523 0.96555454 6.1014591e-05
0.14824969 0.21440187 -0.10171615 -0.16855299 -0.21953696 0.96093363 5.2187974e-05
0.15535039 0.21383582 -0.1006349 -0.17126592 -0.22067203 0.96019363 5.0214567e-05
0.16240837 0.21020938 -0.10019887 -0.1726369 -0.22266574 0.95948762 5.5561413e-05
0.28745538 0.21886255 -0.1098377 -0.41192359 -0.31644887 0.85450512 0.00020987881
0.29773164 0.21869422 -0.10472278 -0.43387362 -0.33432892 0.83664685 0.00030365837
0.30447626 0.21394789 -0.1031588 -0.44115442 -0.33993363 0.83055884 0.00020637571
-0.29709497 0.22112648 -0.10410287 0.43562657 -0.33734262 0.8345235 0.00020472489
-0.28695795 0.2234962 -0.10829612 0.41813523 -0.32509404 0.84821981 0.00029110827
-0.13437526 0.22355504 -0.10203631 0.1462369 -0.22939932 0.96228409 0.00014844687
-0.12543033 0.22797723 -0.10218143 0.12599283 -0.24200019 0.96206117 0.00016421631
-0.11067235 0.22346908 -0.10483332 0.1043047 -0.23561287 0.96623349 9.4208139e-05
-0.098072134 0.22748983 -0.10513255 0.098871075 -0.23405337 0.96718329 3.7554186e-05
-0.08319129 0.22561902 -0.10713865 0.089146785 -0.22383943 0.97054046 2.8392718e-05
-0.078367263 0.22878757 -0.10684643 0.086200826 -0.2270222 0.9700672 4.4603512e-05
-0.06857083 0.22234243 -0.10922406 0.074573584 -0.22207357 0.97217399 9.6565149e-05
-0.057247177 0.22787362 -0.10882373 0.05682883 -0.22972777 0.97159433 0.00013479184
-0.049561098 0.2281912 -0.1089823 0.044110514 -0.22835909 0.97257721 0.0001115764
-0.032230541 0.22857425 -0.10941593 0.029945502 -0.23073404 0.97255594 6.703689e-05
-0.026608866 0.22753993 -0.10982119 0.030865939 -0.22625507 0.97357893 9.2467664e-05
-0.0098901158 0.22993602 -0.10977667 0.015090975 -0.22964968 0.97315639 0.000107949
0.015390881 0.22869709 -0.1098942 -0.023334464 -0.22525224 0.97402102 9.14435e-05
0.024075143 0.22923508 -0.10951021 -0.03226272 -0.23037434 0.97256714 7.0273156e-05
0.046864182 0.22543783 -0.10969224 -0.040499814 -0.22698247 0.97305638 7.3650473e-05
0.057297848 0.22937262 -0.10847985 -0.051586151 -0.22799785 0.97229409 0.00015307746
0.066410542 0.22415572 -0.10902803 -0.066632345 -0.22515398 0.97204202 0.00014371706
0.073742099 0.22932485 -0.10719062 -0.081505701 -0.23067975 0.9696101 0.00010212546
0.093073457 0.22553737 -0.10613701 -0.096528232 -0.23073922 0.9682157 5.0523598e-05
0.1053182 0.22628796 -0.10468324 -0.10148943 -0.24041834 0.96534908 6.8781781e-05
0.11600356 0.22774799 -0.10321359 -0.11206007 -0.24365622 0.96336609 7.6929471e-05
0.13332476 0.22526759 -0.1018419 -0.13914438 -0.23210378 0.96268725 0.0001532965
0.28275445 0.22955349 -0.10807217 -0.42040139 -0.32204065 0.84826434 0.0002357428
0.29495907 0.22676647 -0.1029981 -0.43925261 -0.3376438 0.83249855 0.00027099278
-0.29172054 0.2359563 -0.10107594 0.4450092 -0.34432179 0.82668573 0.00019300517
-0.28523511 0.23717645 -0.10387317 0.43757787 -0.33603823 0.83402866 0.00012253449
-0.12680203 0.2314714 -0.10116712 0.12760149 -0.24504454 0.96107805 0.00017492015
-0.11345877 0.23512717 -0.10161921 0.10659947 -0.25521031 0.96099126 6.1542152e-05
-0.10452803 0.23425412 -0.10277595 0.10170326 -0.2480987 0.96338135 7.1924573e-05
-0.08588025 0.23344947 -0.10490543 0.095268056 -0.23802273 0.96657598 5.5423156e-05
-0.072363891 0.23536256 -0.10582565 0.079516485 -0.23512268 0.96870762 0.0001034071
-0.06210655 0.23890734 -0.10587136 0.062321573 -0.24639845 0.96716273 0.00016700284
-0.056110092 0.23429129 -0.10731971 0.055682015 -0.23285247 0.97091675 0.00014839701
-0.047762949 0.23170269 -0.10823439 0.040095851 -0.23093589 0.9721424 8.174291e-05
-0.037188951 0.23229797 -0.10841638 0.031591762 -0.23412502 0.97169304 5.870215e-05
-0.022730019 0.23593476 -0.10801554 0.027807187 -0.23705235 0.97109884 4.3892247e-05
-0.014471635 0.23637752 -0.10815211 0.022947518 -0.23761962 0.97108722 7.6346128e-05
-0.0020520596 0.23538327 -0.10876824 0.00034485309 -0.23818552 0.9712196 0.00012955451
0.0041091787 0.2374481 -0.10822929 -0.0052853143 -0.23909427 0.97098202 0.00013177279
0.012953271 0.23186736 -0.10924346 -0.016582027 -0.22693411 0.97376895 0.00011459551
0.023583325 0.23446931 -0.10832956 -0.032691915 -0.23689599 0.97098482 3.2650125e-05
0.034588203 0.23175895 -0.10861768 -0.030376879 -0.23428828 0.97169244 3.5625533e-05
0.047359519 0.23988913 -0.1061285 -0.039773181 -0.24822801 0.96788478 8.7892389e-05
0.05454161 0.23814408 -0.10634271 -0.04589279 -0.24846658 0.96755272 0.00011185226
0.060075987 0.2361349 -0.10668583 -0.055035722 -0.23824301 0.96964496 0.00015791149
0.071403906 0.23242185 -0.10665917 -0.077103771 -0.23622277 0.96863502 0.000145674
0.10276947 0.23184271 -0.10355991 -0.1017136 -0.24226789 0.96486306 6.5499764e-05
0.11390786 0.23811699 -0.10083827 -0.11076295 -0.25493211 0.96059424 3.9841289e-05
0.12391035 0.23430972 -0.10069856 -0.11504119 -0.25127065 0.96105593 6.3823951e-05
0.28510106 0.23277625 -0.10564277 -0.4286069 -0.32594681 0.84264749 0.00024110117
0.29364768 0.23401333 -0.10083422 -0.45071268 -0.344412 0.82355231 0.00023599336
-0.27602169 0.24393025 -0.10590515 0.43094912 -0.33120871 0.83939487 0.00023315288
-0.26913744 0.2486521 -0.10754895 0.42146981 -0.33498588 0.84270263 0.00037379848
-0.086369544 0.24284023 -0.10251014 0.099045008 -0.2484912 0.963557 7.3556846e-05
-0.074652031 0.24528861 -0.10311066 0.086834818 -0.25295177 0.96357411 0.00014812803
-0.061989784 0.24432561 -0.1044237 0.061329767 -0.25275049 0.96558571 0.00017104884
-0.057071537 0.24110265 -0.10546075 0.057328615 -0.24983312 0.96659029 0.00015327481
-0.047820915 0.24323516 -0.10521568 0.038637303 -0.251757 0.9670189 8.9006142e-05
-0.033983607 0.24867532 -0.10424615 0.03415215 -0.26090613 0.96475995 5.1739375e-05
-0.022445634 0.24259268 -0.10628295 0.030890711 -0.24646696 0.96865875 5.3834046e-05
-0.016756795 0.24407141 -0.10608742 0.029099904 -0.24720398 0.96852642 6.6771878e-05
-0.00060680817 0.24642771 -0.10602577 0.0015533491 -0.24475524 0.96958369 0.00013212457
0.0056398632 0.24503288 -0.10622195 -0.0072059762 -0.24953763 0.96833825 0.00015364071
0.015723845 0.24770799 -0.10514946 -0.028344162 -0.25391912 0.96681005 7.0728267e-05
0.023875901 0.24375081 -0.10592218 -0.031484481 -0.24927127 0.96792179 6.3851076e-05
0.03259344 0.24553601 -0.10513634 -0.032920782 -0.2530266 0.9668991 3.9485356e-05
0.047047172 0.24625751 -0.10443317 -0.039646339 -0.25621462 0.96580654 6.4563435e-05
0.059172716 0.24830925 -0.1034557 -0.054029837 -0.26017129 0.96404964 0.00012900612
0.063814491 0.24410769 -0.10441773 -0.059859656 -0.25465065 0.96517873 0.00015897118
0.073362716 0.24549496 -0.10319249 -0.079577938 -0.25660455 0.9632349 0.00014896046
0.086862281 0.24875127 -0.10097715 -0.10202704 -0.25926626 0.96040171 5.4494714e-05
0.094644025 0.24558106 -0.10097003 -0.10535298 -0.25651926 0.9607802 6.3825653e-05
0.10586803 0.24353978 -0.1002371 -0.10765596 -0.25638884 0.96055979 5.7286008e-05
0.27216139 0.24563435 -0.10719194 -0.41599131 -0.33500919 0.84541124 0.00025458622
0.2824887 0.24249029 -0.10320231 -0.43694243 -0.33799583 0.83357066 0.00020673494
-0.27296734 0.25805944 -0.10197973 0.42269972 -0.35921067 0.83204126 0.00052246905
-0.26993084 0.25019667 -0.10655159 0.42164031 -0.33821583 0.841326 0.00035718834
-0.075600795 0.25547469 -0.10041013 0.083512314 -0.26657334 0.96018982 0.00018718313
-0.06612692 0.25433636 -0.10158834 0.067465134 -0.26368198 0.96224755 0.00016741479
-0.04534414 0.25297809 -0.10269253 0.033853162 -0.26453981 0.9637804 2.2745295e-05
-0.021478467 0.25404713 -0.10324794 0.034534048 -0.26120767 0.96466464 6.266038e-05
-0.014435814 0.25469884 -0.10332175 0.027468387 -0.2650612 0.96384031 8.8422166e-05
-0.0090140374 0.25544372 -0.10331343 0.022171652 -0.2654781 0.96386188 0.00012833173
0.036735915 0.25506324 -0.1024375 -0.032213278 -0.26877433 0.96266437 5.1230818e-05
0.055527929 0.2541838 -0.10201024 -0.051979735 -0.27213106 0.96085531 0.00011873937
0.069884568 0.25625509 -0.10086561 -0.071134791 -0.2715818 0.95978296 0.00013867377
0.079021752 0.25390112 -0.10045512 -0.090631902 -0.26521921 0.95991904 0.00011498485
0.26544973 0.25403294 -0.10732663 -0.39850333 -0.35518581 0.84559923 0.00037032357
0.27066031 0.25385895 -0.10476741 -0.40637934 -0.35766673 0.84079152 0.00043735182
-0.2711885 0.26200944 -0.10134855 0.40869492 -0.38388541 0.8280099 0.00078818377
-0.26798472 0.26180929 -0.1030409 0.40064251 -0.388906 0.82960099 0.00075667718
-0.25145176 0.26462927 -0.1087385 0.34611973 -0.39588907 0.85057217 0.00041013464
-0.24529541 0.26906747 -0.10888252 0.33367199 -0.41430092 0.84676898 0.00027968513
-0.026327658 0.26488942 -0.10006787 0.037113082 -0.27931499 0.95948201 4.5140539e-05
-0.013948661 0.26434237 -0.10073896 0.030534038 -0.27589867 0.96070158 7.6378499e-05
-0.0050709466 0.26347771 -0.10129988 0.012338649 -0.27543017 0.9612419 0.00015223151
0.00064689893 0.26818332 -0.10009468 0.0014648502 -0.2820183 0.95940787 0.00019584088
0.03706627 0.26083896 -0.10087828 -0.035472706 -0.27846062 0.95979232 4.6357924e-05
0.054048434 0.26060045 -0.10026502 -0.049179431 -0.27773464 0.95939815 0.00010624716
0.24642929 0.26719332 -0.1093887 -0.33546832 -0.3983216 0.85369837 0.00035382909
-0.25549302 0.27861604 -0.10006207 0.35714921 -0.43722731 0.82539487 0.00024037153
-0.24505478 0.27365273 -0.10666429 0.33670714 -0.41906768 0.84321433 0.00026388824
0.23804425 0.27951217 -0.10642232 -0.32474676 -0.41767374 0.84858012 0.00012845418
0.24968548 0.27100891 -0.1062059 -0.34342524 -0.40997717 0.84497201 0.00041425842
0.25401545 0.27444604 -0.10279858 -0.35226366 -0.42752433 0.83254629 0.0003734676
-0.24227774 0.28366515 -0.1026914 0.34144184 -0.44385764 0.82849729 0.00024764004
-0.23167247 0.286147 -0.10554236 0.33054435 -0.42534217 0.84251076 0.00020392342
0.22707945 0.2865791 -0.1071011 -0.32413217 -0.42408806 0.84562862 0.00017957253
0.23579879 0.28396156 -0.10504803 -0.33285955 -0.43057454 0.83893394 0.00023768515
-0.22405438 0.29342249 -0.10482159 0.33065405 -0.43290672 0.83860588 0.00025883978
-0.21542078 0.29866844 -0.10551659 0.335262 -0.43054053 0.83799416 0.00025797318
-0.20456225 0.29829746 -0.1099036 0.31546536 -0.41209471 0.85478628 0.00022781725
0.21750869 0.29813346 -0.10497873 -0.32525629 -0.42843384 0.84300232 0.00021594996
0.2228817 0.29585996 -0.10404652 -0.33395159 -0.43553942 0.83593172 6.8587258e-05
-0.22469521 0.30222991 -0.10007259 0.34362558 -0.45157984 0.82340574 0.00026483755
-0.21311694 0.30315757 -0.10414483 0.33569792 -0.43317997 0.83645809 0.00027967111
-0.20396017 0.30508187 -0.1067166 0.32628608 -0.42984298 0.84188622 0.00026858557
0.2134259 0.30561751 -0.10278537 -0.34449545 -0.4406918 0.82892311 0.00017963025
-0.20491678 0.316008 -0.10083897 0.33249199 -0.45248541 0.82746971 0.00038451765
-0.19357529 0.31524289 -0.10561144 0.30172363 -0.44508129 0.84312838 0.00047500557
0.1861846 0.31376952 -0.10920171 -0.27494746 -0.45373365 0.84766132 0.00083348021
0.19695339 0.31614229 -0.10385149 -0.31841061 -0.45857143 0.82965475 0.00027794155
0.20314436 0.31537217 -0.10184512 -0.32653871 -0.45298293 0.82956553 0.00017568877
-0.19451895 0.32218483 -0.10174716 0.29961476 -0.46285257 0.83426529 0.00064779894
-0.18504523 0.326159 -0.10292578 0.26351419 -0.48233891 0.83540976 0.00069837633
-0.17952636 0.32797986 -0.10321259 0.24678276 -0.49632779 0.83232021 0.0005631969
-0.16599368 0.3234565 -0.10915829 0.21288382 -0.48532096 0.84802371 0.00034663038
0.16431743 0.32910603 -0.10624954 -0.20516948 -0.50037116 0.84115052 0.00022190443
0.17441702 0.32486647 -0.10628253 -0.23435958 -0.48570123 0.84212226 0.00062942336
0.18515396 0.32747114 -0.10214291 -0.27352008 -0.4904449 0.82743609 0.0006055925
-0.17880559 0.33287573 -0.10051263 0.24343814 -0.50845045 0.82596362 0.00044808968
-0.15553792 0.33554938 -0.10460193 0.21169943 -0.50983262 0.83381885 0.00021952698
0.13929671 0.33516163 -0.1087786 -0.20237157 -0.48742002 0.84939229 0.00031590203
0.15472174 0.33498332 -0.10513268 -0.20442979 -0.50002503 0.8415364 0.00024276078
0.16516733 0.33530116 -0.10239227 -0.20529076 -0.50998116 0.83532923 0.00022039135
0.17532383 0.33254129 -0.10155687 -0.22925261 -0.50097722 0.83454478 0.0004057514
-0.1524484 0.34418565 -0.10024578 0.21857227 -0.52550912 0.82223254 0.00030309748
-0.14385447 0.34374309 -0.10263295 0.21586132 -0.51322359 0.83066565 0.00021905123
-0.13677876 0.34386215 -0.10428352 0.21076789 -0.50999677 0.83395463 0.00020918976
-0.12604569 0.34263006 -0.10761648 0.20505691 -0.49041981 0.84701836 0.00024877585
-0.11670551 0.34308296 -0.1096217 0.19479984 -0.47942558 0.85568929 0.00017283687
-0.10407922 0.34829789 -0.10963056 0.1623783 -0.48570818 0.85890675 0.00048543038
0.10681546 0.34825963 -0.10898772 -0.17566629 -0.4959814 0.85037863 0.00053908012
0.11514822 0.34516543 -0.10877793 -0.19723563 -0.49202311 0.84794539 0.0002460817
0.12054335 0.3459447 -0.10700865 -0.21444908 -0.50416851 0.8365559 0.00014233403
0.13543667 0.34557852 -0.10359174 -0.21745259 -0.50861859 0.83307958 0.00018348878
-0.12223771 0.35572004 -0.10085843 0.214876 -0.52252764 0.82510191 0.00023195577
-0.11174511 0.35521638 -0.10370532 0.19169624 -0.51751649 0.833924 0.00042252752
-0.10713577 0.35556889 -0.10461917 0.17587213 -0.51334465 0.83996797 0.00050573848
-0.098262884 0.3569335 -0.10597555 0.14072919 -0.51604825 0.84491986 0.00054669636
-0.084738433 0.35683995 -0.10757637 0.10089979 -0.51948088 0.84850389 0.00047048391
-0.069714457 0.35501572 -0.10997154 0.073933803 -0.51553494 0.85367298 0.00024900661
-0.052588001 0.35891354 -0.10893649 0.070033014 -0.52444071 0.84856194 0.00025201298
-0.039108735 0.35950366 -0.10968262 0.068880387 -0.52695668 0.84709626 0.00019141892
0.065884531 0.35942358 -0.10751247 -0.068669878 -0.52938342 0.84559894 0.0002539327
0.078069501 0.35537615 -0.10905157 -0.086611576 -0.51528275 0.85263246 0.00043411754
0.083906084 0.35499114 -0.10881006 -0.093927801 -0.51729971 0.85063422 0.00037877826
0.096949995 0.35564643 -0.10705036 -0.14637221 -0.51224482 0.84627438 0.00071257574
0.10448527 0.355019 -0.10558645 -0.1701811 -0.51388264 0.84081095 0.00064158702
0.11403297 0.35357481 -0.1041127 -0.19880089 -0.5135181 0.83473188 0.00036176361
0.12540421 0.35335916 -0.10147438 -0.22115281 -0.52091259 0.82446432 0.00020909897
-0.10117691 0.36243445 -0.10203789 0.154543 -0.52768868 0.83526105 0.00060456706
-0.083633617 0.36482093 -0.10264044 0.095990814 -0.54766345 0.83117419 0.00041451925
-0.077646695 0.36528668 -0.10283044 0.079698108 -0.55168545 0.83023572 0.00018327817
-0.065871179 0.36564037 -0.10359737 0.073631823 -0.54899478 0.83257616 0.00020990366
-0.054542433 0.36348015 -0.10589771 0.071525179 -0.54199952 0.83732951 0.00022729902
-0.046146445 0.36462826 -0.10587078 0.068138756 -0.53328526 0.84318686 0.00031363717
-0.038739242 0.36705467 -0.1049566 0.068092607 -0.54037493 0.83866459 0.00021646364
-0.025495183 0.36587381 -0.10679881 0.065961957 -0.53617269 0.8415271 0.00023393494
-0.0048871604 0.36536455 -0.10882869 0.017435454 -0.53149873 0.84687966 0.00065037905
0.0052454728 0.36578256 -0.10853563 -0.028651519 -0.52487612 0.85069621 0.00058118004
0.016226863 0.36485016 -0.10821229 -0.064655863 -0.52654845 0.84768301 0.00026448569
0.026836291 0.363354 -0.10827492 -0.065837257 -0.52738011 0.84707481 0.0001898654
0.036202371 0.36475959 -0.10661273 -0.068573743 -0.5287959 0.84597433 0.00028517761
0.043796211 0.3643713 -0.10622758 -0.072987452 -0.53584892 0.84115326 0.0002176462
0.053322617 0.36314365 -0.10621086 -0.070502691 -0.53947634 0.83904392 0.00022569926
0.064621858 0.36376607 -0.10488168 -0.076208822 -0.5490554 0.8323043 0.0002272579
0.073667832 0.36138088 -0.10563399 -0.077907301 -0.54021817 0.83791095 0.00022734499
0.085866585 0.36309141 -0.10354476 -0.1044968 -0.54074502 0.83467084 0.00045918129
0.090336531 0.36097366 -0.1045081 -0.11756802 -0.53657931 0.83561981 0.00066897069
0.1017786 0.3643353 -0.10077582 -0.16816834 -0.53425473 0.82842702 0.00075692765
-0.051566176 0.37199464 -0.10078089 0.074826829 -0.55322838 0.8296622 0.00015469847
-0.026313972 0.37331766 -0.10204172 0.070364401 -0.55336612 0.8299607 0.00018504991
-0.015674124 0.37419418 -0.10236944 0.058200736 -0.55817908 0.82767677 0.00022566113
0.0080798622 0.37721297 -0.10109493 -0.03719629 -0.56405562 0.8248986 0.00048310647
0.019977737 0.37205902 -0.1033601 -0.064768255 -0.54299235 0.83723617 0.00021622598
0.023921648 0.37310228 -0.10237581 -0.067405403 -0.55022061 0.83229429 0.00035468797
0.037312429 0.37385237 -0.10079151 -0.077737965 -0.56001908 0.82482457 0.00032384854
0.048261113 0.370215 -0.10217607 -0.075354427 -0.55262065 0.83001935 0.00028945829
0.0034988653 -0.39236766 -0.090572283 -0.0074294885 0.60334986 0.79744208 0.00082312681
0.015115967 -0.390522 -0.090803072 -0.064111732 0.59952867 0.79778129 0.00041591685
-0.096498668 -0.38057786 -0.090241089 0.12710443 0.59315842 0.79498905 0.00073645375
-0.08474046 -0.38216573 -0.090211973 0.10085256 0.59811217 0.7950412 0.0004587658
-0.064388216 -0.38306522 -0.091510929 0.080497846 0.59182638 0.80203593 0.0002595766
-0.055677224 -0.3839525 -0.091700338 0.078571036 0.59701931 0.79837 0.00029178272
-0.042838767 -0.38654137 -0.091044523 0.080165558 0.60079068 0.79537672 0.00031451686
-0.035956785 -0.38413876 -0.093459077 0.073258705 0.58611315 0.80691051 0.00032284393
-0.023839559 -0.38396975 -0.094746634 0.072140694 0.58191586 0.81004304 0.0003748216
-0.016343776 -0.38220775 -0.096752718 0.060500454 0.57344913 0.81700414 0.00032857861
-0.0018617444 -0.38649392 -0.095016152 0.011607534 0.57597977 0.81738156 0.00076872698
0.0033890761 -0.38408551 -0.096626997 -0.00946486 0.57610476 0.817321 0.00086536183
0.011552386 -0.38355947 -0.096226588 -0.04797443 0.57801169 0.8146171 0.00057158415
0.024336567 -0.38609993 -0.09314432 -0.07795503 0.5864448 0.80622917 0.00028753464
0.034420595 -0.38254279 -0.094771415 -0.075381666 0.57888669 0.81191605 0.0003583979
0.055085137 -0.38031816 -0.09440951 -0.071782313 0.58450574 0.80820805 0.00023281966
-0.11039349 -0.375157 -0.091030024 0.18488371 0.57059115 0.8001523 0.00070705783
-0.10539149 -0.37385213 -0.09332642 0.16136406 0.56259912 0.8108291 0.00066015642
-0.094837785 -0.37502977 -0.094449498 0.12406659 0.57331306 0.8098886 0.0006141364
-0.081442915 -0.37375212 -0.096668825 0.092319779 0.56945521 0.81682169 0.00030203981
-0.075079679 -0.37665817 -0.095159426 0.073773697 0.58429158 0.80818367 0.00034933648
-0.069391757 -0.37395608 -0.097677842 0.069240525 0.57729757 0.81359279 0.00023131115
-0.055963151 -0.37676483 -0.096918263 0.073731042 0.56866527 0.81925803 0.00026738766
-0.027326336 -0.37999722 -0.097310707 0.075220145 0.56604385 0.82093626 0.00014327743
0.014678432 -0.37947795 -0.098904833 -0.069645241 0.56017977 0.82543814 0.00019052521
0.047349133 -0.37927914 -0.095911033 -0.070376366 0.58060282 0.81113964 0.00030833177
0.051588614 -0.3760688 -0.097846523 -0.07214579 0.56944513 0.81885731 0.00021615153
0.074612714 -0.37447393 -0.096798293 -0.078929238 0.56876504 0.81870413 0.00015959534
0.084159762 -0.3735981 -0.096520215 -0.091072366 0.57083291 0.81599981 0.00034813568
0.094317861 -0.3709057 -0.097509116 -0.12810957 0.56102026 0.81782889 0.00052392023
0.10454315 -0.37495384 -0.092816196 -0.17873922 0.56807548 0.80333221 0.00059314293
0.11094487 -0.37122631 -0.093547806 -0.19091654 0.55353981 0.81064451 0.00042383571
-0.14650843 -0.36053309 -0.090801939 0.23312962 0.56310982 0.79281646 0.0002221469
-0.13344607 -0.36165899 -0.093715765 0.22785881 0.54549015 0.80654871 0.00030308391
-0.12399708 -0.36229268 -0.095946454 0.22314319 0.53440762 0.81523967 0.00033717227
-0.11685868 -0.36986697 -0.092806362 0.21631536 0.54951453 0.80699533 0.00045645493
0.082034774 -0.36951238 -0.099706054 -0.093019247 0.5601331 0.82316369 0.00045600001
0.11595722 -0.3619546 -0.098441079 -0.20636033 0.52588451 0.82514292 0.0002903046
0.12442611 -0.36498189 -0.093996868 -0.22040263 0.53219938 0.81742674 0.00015453363
0.13694227 -0.36124378 -0.093013346 -0.22646838 0.54979843 0.80401105 0.0002518094
-0.15394291 -0.35690516 -0.091174915 0.2312897 0.55511385 0.7989704 0.00020504427
-0.13127482 -0.35582235 -0.098296523 0.2194014 0.52488387 0.82241118 0.00023126205
-0.11667562 -0.35982615 -0.099686123 0.21081512 0.52505761 0.82454324 0.00019387905
0.12510452 -0.35743406 -0.098938622 -0.21555232 0.52402192 0.82397705 0.00014559066
0.13765594 -0.3527939 -0.098558605 -0.21682709 0.53177959 0.81865531 0.00017049442
0.14463474 -0.35175642 -0.097298346 -0.22038892 0.53117692 0.81809521 0.00019191438
0.15440993 -0.35270202 -0.093901768 -0.23339309 0.5492382 0.80241203 0.00025164676
0.16433643 -0.35258967 -0.091181993 -0.23176852 0.55642831 0.79791659 0.0001449765
-0.17686999 -0.34452295 -0.09313719 0.24199428 0.54688925 0.80146796 0.00023523709
-0.16519666 -0.34312698 -0.097374722 0.22047998 0.53025216 0.81867045 0.00020747633
-0.15164822 -0.34612772 -0.099150434 0.22211555 0.5258745 0.8210485 0.00017225248
0.16138847 -0.34252813 -0.098854713 -0.22125991 0.52895576 0.81929845 0.00033547476
0.17665033 -0.34200323 -0.094912648 -0.23468764 0.54127347 0.80743086 0.00035482022
0.18326871 -0.34401122 -0.091682792 -0.2581346 0.54033792 0.80087543 0.00046614083
-0.20160358 -0.33096677 -0.093638316 0.33261943 0.49185762 0.8046369 0.00066023652
-0.19723223 -0.33213541 -0.094914645 0.3085357 0.49201509 0.81408042 0.00084505626
-0.18519017 -0.33725446 -0.095736407 0.26926208 0.52326268 0.80851352 0.00058414659
0.17530322 -0.33714199 -0.098598011 -0.23291938 0.52234584 0.8203069 0.00031250535
0.18625608 -0.33815703 -0.094822422 -0.26257136 0.52775306 0.80779517 0.00048186345
0.19245832 -0.33555424 -0.094806589 -0.29369089 0.5065521 0.81064826 0.00066167174
0.20531708 -0.33217254 -0.091270223 -0.34355798 0.48847514 0.80209726 0.00043007621
-0.2114023 -0.32567209 -0.092339493 0.35750481 0.48346236 0.7990334 0.00032612629
-0.20290114 -0.32478669 -0.096665874 0.34108898 0.4646993 0.81713694 0.00032632949
-0.19478828 -0.32647243 -0.099316813 0.29488713 0.47855929 0.82705659 0.00062535767
0.20443392 -0.32461497 -0.096079387 -0.33191496 0.47097543 0.8173216 0.00025546041
-0.22416733 -0.31677827 -0.091813289 0.36284584 0.47187251 0.80354166 0.00033559775
-0.21452495 -0.31033951 -0.099894062 0.35118818 0.45150188 0.82025176 0.00025319349
0.21504505 -0.31633997 -0.096156977 -0.35463244 0.46800295 0.80944991 0.0001624632
0.22463626 -0.31350422 -0.093515188 -0.35772207 0.47475117 0.80414313 0.00017425911
-0.23861423 -0.30643821 -0.091377981 0.36882266 0.48653358 0.79199433 0.00022611553
-0.22575679 -0.30800319 -0.096225455 0.35144952 0.46582592 0.8120895 0.00030037132
-0.21508941 -0.30987477 -0.099912524 0.35150453 0.45046532 0.82068598 0.00026909087
0.22857308 -0.30134138 -0.098853879 -0.34969434 0.45187378 0.82068503 0.00021974763
0.23653574 -0.30140448 -0.095249005 -0.35972899 0.4588829 0.81241715 0.00023917809
0.24335665 -0.30316079 -0.091166869 -0.36586142 0.4823437 0.79592079 0.00024340971
-0.25285348 -0.29227838 -0.093266398 0.36571169 0.46639243 0.80543971 0.00034491756
-0.24472582 -0.29383138 -0.096001446 0.35339004 0.45731771 0.81607354 0.00022234335
-0.033743806 -0.29179221 -0.091274463 0.040665515 0.31583425 0.94794255 4.1250409e-05
-0.0060189394 -0.2948837 -0.09146978 0.015904311 0.32000551 0.94728214 0.0002015099
0.003759319 -0.29316312 -0.092175305 -0.018846048 0.31285757 0.94961303 0.00015662564
0.024634494 -0.2916809 -0.091732658 -0.039584056 0.31556684 0.94807738 5.614859e-05
0.037626699 -0.29395396 -0.090339988 -0.041491572 0.32050392 0.94633806 6.3188025e-05
0.053782802 -0.29158542 -0.090424411 -0.043629065 0.31802648 0.94707745 6.1380553e-05
0.23705035 -0.29602265 -0.09816125 -0.35291374 0.4528119 0.81878769 0.0003517333
0.24743995 -0.29738259 -0.092711508 -0.36029726 0.46711338 0.80745953 0.00019919546
0.2526224 -0.29352131 -0.092644095 -0.36399955 0.46767464 0.80547172 0.00029077675
-0.26256984 -0.28479746 -0.093281195 0.37851161 0.45984453 0.80328822 0.000263945
-0.25505558 -0.28446051 -0.096845068 0.36108932 0.44774267 0.81801033 0.00025500628
-0.24912372 -0.28702781 -0.098003894 0.35119945 0.45461324 0.81852657 0.00028377667
-0.075437754 -0.28633851 -0.091226831 0.076907799 0.31103089 0.94728291 0.00022807432
-0.061342418 -0.28347266 -0.092873313 0.054393642 0.30642149 0.95034057 8.435257e-05
-0.045738041 -0.28676486 -0.092451796 0.037364829 0.31293944 0.94903779 5.799573e-05
-0.034974612 -0.28241882 -0.094312467 0.041257326 0.30802086 0.95048463 7.8947684e-05
-0.01045414 -0.2823391 -0.095332347 0.020568594 0.30101892 0.95339638 0.00014931659
-0.0081469184 -0.28138837 -0.095719106 0.019848658 0.29935369 0.95393574 0.00014282606
0.0060393303 -0.28620896 -0.094318435 -0.021415314 0.30417201 0.95237637 0.00011401589
0.016471511 -0.28507692 -0.094244003 -0.030638419 0.30788729 0.95092934 5.7291119e-05
0.035462257 -0.28588322 -0.093197495 -0.041839857 0.3071987 0.9507252 5.5213088e-05
0.04283822 -0.28519806 -0.093104541 -0.042208504 0.30977371 0.94987291 3.825963e-05
0.053125519 -0.2861279 -0.09235657 -0.043408621 0.3130424 0.94874668 4.4935747e-05
0.074663647 -0.28411382 -0.092075437 -0.078867868 0.30781141 0.94817299 0.00020346983
0.084380269 -0.28118333 -0.091849148 -0.10644609 0.29880133 0.94836015 0.00016042263
0.2551387 -0.28359455 -0.097313583 -0.35644764 0.45380318 0.81670541 0.00028104347
0.26516622 -0.28497851 -0.092012018 -0.3834188 0.45738658 0.80236375 0.00054025487
0.27139318 -0.28203785 -0.090938985 -0.39817464 0.45213431 0.79814255 0.00053291419
-0.27933103 -0.27224177 -0.092139505 0.43698096 0.41412461 0.79846632 0.00067927927
-0.26336238 -0.27786416 -0.096974932 0.37572861 0.43710136 0.81717217 0.00041046541
-0.25754094 -0.2799215 -0.098382041 0.36233887 0.44441774 0.81927007 0.00029130097
-0.11147796 -0.2741093 -0.090497106 0.12728126 0.30245024 0.94462872 0.00013744278
-0.10575769 -0.27299717 -0.091631308 0.12159698 0.29528046 0.94764107 6.3649182e-05
-0.095001496 -0.27554226 -0.092250086 0.11749135 0.2902236 0.94971901 4.7421046e-05
-0.086335331 -0.27515161 -0.093479559 0.10590228 0.29343626 0.9500947 8.9973546e-05
-0.076597542 -0.27154362 -0.095623039 0.083522692 0.2878657 0.95402169 0.00014851314
-0.051254183 -0.27796385 -0.095025174 0.042144373 0.3015891 0.95250607 4.7419297e-05
-0.045973632 -0.2744922 -0.096309848 0.040499937 0.29895481 0.95340747 3.7853046e-05
-0.037604231 -0.27703619 -0.09586525 0.03949913 0.30016032 0.95307058 7.4418538e-05
-0.016639462 -0.27641901 -0.096906483 0.030341983 0.28939092 0.95673001 4.5213299e-05
-0.0056637507 -0.27558672 -0.097608566 0.010078691 0.28382182 0.95882404 0.00014241511
0.0061334968 -0.27675867 -0.097228169 -0.017540732 0.29331842 0.95585388 0.00010786553
0.01693178 -0.27250972 -0.098099843 -0.028834147 0.28743592 0.95736575 7.4195799e-05
0.027456984 -0.27239579 -0.097707771 -0.03842042 0.29315531 0.95529252 7.0840455e-05
0.030225594 -0.27971563 -0.095338657 -0.041215755 0.30106357 0.95271301 4.9674298e-05
0.046002746 -0.27117139 -0.097332515 -0.040860429 0.29468814 0.95471948 6.4657135e-05
0.053629473 -0.27408987 -0.096123144 -0.045313254 0.29733762 0.95369655 3.7577898e-05
0.065410867 -0.27770478 -0.094530419 -0.05291063 0.30158055 0.95197147 8.8205721e-05
0.077540874 -0.27763343 -0.093813121 -0.082110465 0.29874459 0.95079416 0.00020780426
0.086570159 -0.27771479 -0.092674136 -0.10822584 0.29671052 0.94881499 0.00012227141
0.09906318 -0.27713761 -0.091185831 -0.12150942 0.29660562 0.94723839 6.0809543e-05
0.10176271 -0.275967 -0.091202907 -0.12201622 0.29523438 0.94760162 6.9580849e-05
0.11494478 -0.27184668 -0.090766408 -0.12492783 0.29907987 0.94601494 0.00011817017
0.26266328 -0.27825686 -0.0970589 -0.37527883 0.44077948 0.81540132 0.00050780259
0.27667511 -0.27384362 -0.092972636 -0.43579692 0.40943661 0.80152524 0.00070130575
-0.27637076 -0.26569992 -0.096799567 0.42382726 0.38742569 0.81870133 0.00065491605
-0.13117027 -0.26421562 -0.091062933 0.13124666 0.29652846 0.94596255 0.00010572948
-0.12609597 -0.26039192 -0.092988364 0.12617312 0.28923473 0.94890654 6.4826483e-05
-0.11211445 -0.26770949 -0.092493646 0.12175336 0.2919538 0.94865119 6.1572937e-05
-0.10670096 -0.26752725 -0.093234904 0.11831604 0.28861037 0.95010805 5.8932557e-05
-0.085060336 -0.26627907 -0.09618035 0.10195579 0.28262898 0.95379549 0.00011516925
-0.074749388 -0.26527116 -0.097696945 0.080020964 0.28378975 0.95554167 0.00016718777
-0.064223647 -0.26297843 -0.099118844 0.064497232 0.2771368 0.95866334 0.00013205534
-0.05675045 -0.26481879 -0.098854817 0.050178848 0.28443691 0.95738065 9.5743562e-05
-0.048418626 -0.26571521 -0.09891662 0.040416967 0.28272304 0.95834976 6.5126849e-05
-0.038402259 -0.26719204 -0.098867871 0.036037892 0.28409499 0.95811868 6.3104017e-05
-0.028349675 -0.26726484 -0.099253438 0.035849769 0.28293186 0.95846975 5.8614893e-05
0.028133893 -0.26817313 -0.09898217 -0.037490454 0.28385577 0.95813382 6.8866284e-05
0.044044167 -0.2655797 -0.099135965 -0.038451891 0.28576097 0.95752919 4.8025995e-05
0.05894839 -0.26477826 -0.098778076 -0.055075493 0.28233707 0.95773292 0.00016967765
0.064671181 -0.26459137 -0.098603427 -0.066571705 0.27492094 0.95915931 0.00014888227
0.076985918 -0.26150846 -0.09851183 -0.089230493 0.27155605 0.95827723 0.00013505062
0.081295922 -0.26657623 -0.096542954 -0.09480302 0.27702323 0.95617491 0.00013470056
0.093423523 -0.26048246 -0.096850455 -0.11091758 0.27355444 0.95543981 7.8081495e-05
0.10950898 -0.26703933 -0.093052492 -0.12047239 0.28991985 0.94943821 4.9316724e-05
0.11330736 -0.26545376 -0.09298677 -0.11971761 0.29038101 0.94939274 3.7717895e-05
0.12312137 -0.26653621 -0.091393083 -0.12338772 0.29468784 0.94759411 7.1007082e-05
0.27564725 -0.26545659 -0.097331159 -0.42797327 0.38462278 0.81786561 0.00054913992
0.28228515 -0.26437956 -0.093937367 -0.45022634 0.38198942 0.8070814 0.00048593662
-0.27904707 -0.25694129 -0.099161379 0.44384089 0.35722765 0.82182336 0.0003616529
-0.15390526 -0.25243446 -0.091182396 0.16840397 0.26717854 0.94881809 0.00017677348
-0.12632918 -0.25414658 -0.09475489 0.12639241 0.28263602 0.95086372 6.8207897e-05
-0.11565167 -0.25312138 -0.09632007 0.11362731 0.2784822 0.95369619 3.5284782e-05
-0.10483117 -0.25536025 -0.096964516 0.11502548 0.27877623 0.95344263 3.5706755e-05
-0.094067983 -0.25563926 -0.098165207 0.11019495 0.26654875 0.95750135 7.5068609e-05
-0.086726062 -0.25764054 -0.098463945 0.10664025 0.26939338 0.95710766 7.4814918e-05
0.086915299 -0.25482517 -0.099250279 -0.10341213 0.26925847 0.9574998 8.3645311e-05
0.09404698 -0.25208598 -0.099188551 -0.11119016 0.26536551 0.95771492 8.2493461e-05
0.10382187 -0.25469252 -0.097276457 -0.11239746 0.27107692 0.95597285 5.1352006e-05
0.11508845 -0.25615847 -0.095514551 -0.11668573 0.28383672 0.9517464 5.016899e-05
0.12626237 -0.25579029 -0.094290614 -0.12429192 0.2810553 0.9516089 6.9977934e-05
0.13120431 -0.25764033 -0.093171008 -0.12595783 0.28204387 0.95109719 6.2296655e-05
0.14425039 -0.25278789 -0.092990257 -0.1498611 0.26907852 0.95138764 0.00023042671
0.15259036 -0.25345683 -0.091178693 -0.16840883 0.27417925 0.94681787 0.00027436079
0.27734047 -0.25751829 -0.099899523 -0.43026519 0.36193857 0.82696575 0.00041285504
0.28639224 -0.25623673 -0.095187709 -0.46795419 0.35942966 0.80735934 0.00032811859
