# .PCD v0.7 - Point Cloud Data file format
VERSION 0.7
FIELDS x y z normal_x normal_y normal_z curvature
SIZE 4 4 4 4 4 4 4
TYPE F F F F F F F
COUNT 1 1 1 1 1 1 1
WIDTH 586
HEIGHT 1
VIEWPOINT 0 0 0 1 0 0 0
POINTS 586
DATA ascii
-0.31426537 -0.22372727 -0.0035461858 0.52605271 0.40362945 0.74856651 0
-0.30634373 -0.22555512 -0.0081274342 0.52504498 0.40207708 0.75010794 4.9606035e-05
0.31390607 -0.22425684 -0.0035131122 -0.52604795 0.40362829 0.74857056 7.559363e-06
-0.32187232 -0.21527655 -0.0027573903 0.52608144 0.4035731 0.74857676 0
-0.31586108 -0.21571469 -0.0067454861 0.52577293 0.4030475 0.74907649 3.4887129e-05
-0.3092767 -0.21831957 -0.0099679958 0.52462453 0.40210822 0.75038534 4.1019011e-05
0.31491449 -0.21521243 -0.0076815407 -0.52572149 0.40299037 0.74914324 1.6393347e-05
0.32372081 -0.21445975 -0.0018987991 -0.52742207 0.40184242 0.74856442 1.0203043e-05
-0.33336473 -0.20149967 -0.0021101199 0.55524534 0.35719728 0.75107437 0.00095616304
-0.32459834 -0.20507406 -0.0063432269 0.53689808 0.38760766 0.74933344 0.00032952311
0.31880739 -0.20772448 -0.0089835804 -0.53037441 0.3927764 0.75128537 0.00019989831
0.32537541 -0.20368348 -0.0065469923 -0.54263723 0.37901986 0.74959236 0.00037259073
0.33094978 -0.20315027 -0.0029171435 -0.54686421 0.37338853 0.74934673 0.00057580124
-0.34007078 -0.19052085 -0.0021523165 0.5908407 0.29932758 0.74920642 0.00077164301
-0.33180153 -0.19498974 -0.0067190495 0.56689692 0.33746776 0.75149399 0.0010583448
-0.32678998 -0.19888584 -0.0081399968 0.54727829 0.36640084 0.75248706 0.00077334041
0.32839224 -0.19806859 -0.0074546849 -0.55378956 0.35808262 0.75172734 0.00067683065
0.3335962 -0.19574617 -0.0049994015 -0.56400299 0.34322819 0.75106263 0.00086663634
0.34109533 -0.19315431 -0.0004211776 -0.576087 0.32115468 0.75165373 0.00087138708
-0.34445584 -0.18323188 -0.0010345335 0.60024464 0.27411094 0.75137848 0.00042893874
-0.33635649 -0.18598634 -0.0067290873 0.59452409 0.28640926 0.75133938 0.00054545916
0.3368451 -0.18405803 -0.0069828574 -0.59241176 0.29027238 0.75152522 0.00069061894
0.34541488 -0.18185395 -0.00071676169 -0.60103953 0.27438128 0.75064403 0.00031742032
-0.34522316 -0.17406794 -0.0035129066 0.60909373 0.26036376 0.74914312 0.00014070685
-0.33882302 -0.17686611 -0.0078020818 0.60534108 0.26601827 0.75019765 0.00020098034
0.33749962 -0.1786509 -0.0082800835 -0.59825402 0.27771205 0.7516436 0.00036136896
0.34392446 -0.17410606 -0.0045628366 -0.6071555 0.26169407 0.75025225 8.4086474e-05
-0.35214877 -0.16285089 -0.0016476023 0.61263114 0.2537564 0.74852574 0
-0.34366328 -0.16819532 -0.0067802016 0.61068445 0.25431508 0.74992561 4.8230046e-05
0.34810746 -0.16620116 -0.0038191993 -0.61260515 0.25373995 0.74855256 0
0.35434353 -0.16223457 -6.0399063e-05 -0.61266923 0.25376976 0.74849004 0
-0.35379621 -0.15508066 -0.0029333311 0.6126889 0.25379106 0.74846667 0
-0.3485035 -0.15446338 -0.0074739289 0.61097962 0.25346872 0.74997169 0
0.34709531 -0.15621504 -0.0080325846 -0.61055005 0.25277397 0.75055575 2.9770983e-06
0.35424367 -0.156146 -0.0022059991 -0.61257249 0.25374019 0.7485792 1.3802448e-05
-0.36053783 -0.14461166 -0.00096498727 0.61266464 0.2537747 0.74849212 0
-0.35632187 -0.14679164 -0.0036762105 0.6127463 0.25378326 0.74842238 0
-0.34879273 -0.14828669 -0.009330974 0.60900503 0.25307721 0.75170797 4.7904206e-05
0.34824187 -0.14967728 -0.0093104187 -0.61006534 0.25372931 0.75062758 3.5513927e-05
0.35444424 -0.14454786 -0.0059733572 -0.61209875 0.25353232 0.74903709 1.6890534e-05
-0.36144468 -0.13343295 -0.0040121335 0.6125164 0.25373372 0.74862731 4.5687309e-05
-0.35730308 -0.13687965 -0.0062331436 0.61194539 0.25369227 0.7491082 0
0.35693696 -0.13807939 -0.0061261044 -0.61181045 0.25365481 0.7492311 1.3245481e-05
0.36090621 -0.13451114 -0.0040873569 -0.61264127 0.25376216 0.74851543 0
-0.36301312 -0.12472555 -0.0056802053 0.61265081 0.2537339 0.74851733 0
-0.35852176 -0.12494116 -0.0092827044 0.61091435 0.25216523 0.75046402 5.2006762e-05
0.36358505 -0.12480964 -0.0051836236 -0.61227095 0.25356594 0.74888486 1.3369368e-05
-0.3714385 -0.11546528 -0.0019242208 0.61474884 0.24138528 0.7508775 0.00018863173
-0.36606091 -0.11301281 -0.0071563474 0.61636668 0.2250575 0.75461322 0.00046540095
0.36697581 -0.11585587 -0.005443919 -0.61596203 0.24519297 0.74864626 0.00010408634
0.37128982 -0.11467714 -0.0023130409 -0.61638325 0.24442971 0.74854904 8.7347631e-05
-0.37424895 -0.1059652 -0.0028445504 0.63094682 0.19032842 0.75211787 0.00089004287
-0.36788756 -0.10558075 -0.0081808036 0.62276566 0.21045856 0.75357157 0.00067109516
0.36723435 -0.10803552 -0.0078832628 -0.62563866 0.21185508 0.75079536 0.00075504894
0.3738336 -0.10609245 -0.0031413105 -0.63711977 0.1902706 0.74691069 0.00095827831
-0.37566271 -0.093616679 -0.0043005613 0.64157593 0.13225357 0.7555722 0.0007575315
-0.36997643 -0.092953496 -0.0093710348 0.64639592 0.1333725 0.75125504 0.00073631911
0.36876464 -0.099828988 -0.0094127366 -0.64149231 0.17099456 0.74782914 0.0011876582
0.37545487 -0.095583372 -0.0042557288 -0.64921963 0.13668555 0.74821848 0.00063808862
-0.37432137 -0.085472666 -0.0064201765 0.64733595 0.11354598 0.75369984 0.00048374527
0.37704319 -0.083753631 -0.0042285556 -0.65306038 0.10451423 0.75005931 0.00024115316
0.38062 -0.082507864 -0.0012314077 -0.65371644 0.098395333 0.75031531 0.00022255682
-0.38237533 -0.078987919 -9.683799e-05 0.65601528 0.091950238 0.74912566 7.5383898e-05
-0.37586868 -0.073758744 -0.0064156451 0.6557312 0.087519273 0.74990469 6.0274186e-05
0.3760536 -0.074497901 -0.0061677489 -0.65552151 0.087260082 0.7501182 5.0462972e-05
0.38152492 -0.07603655 -0.0011849122 -0.65677708 0.090414807 0.74864471 4.8648039e-06
-0.38125938 -0.066713639 -0.0024960116 0.65730429 0.086533152 0.74864089 5.0967992e-05
-0.37418088 -0.065973766 -0.0087979743 0.65506941 0.086091489 0.75064796 4.7559977e-05
0.37520656 -0.063345335 -0.0082010748 -0.65440667 0.086680084 0.75115812 2.4176945e-05
0.38387853 -0.067897111 -5.8997422e-05 -0.65744191 0.086542502 0.74851888 0
-0.38263446 -0.056210745 -0.0025027392 0.65739048 0.08653181 0.74856526 4.6635614e-06
-0.37880257 -0.056276806 -0.0058603194 0.65745538 0.086550206 0.74850619 0
0.3785466 -0.05281483 -0.0064853262 -0.65732229 0.086571559 0.74862063 4.0465849e-05
0.38217971 -0.05421561 -0.0031327144 -0.65736318 0.086564898 0.74858534 1.7664008e-05
-0.38303974 -0.044486936 -0.0035023377 0.65733999 0.086549535 0.74860764 3.1620177e-05
-0.37763268 -0.048328541 -0.0078067142 0.65538555 0.086459324 0.75032955 5.1610219e-05
0.37902796 -0.044276208 -0.0070498232 -0.65750319 0.086514965 0.74846828 0
0.38226065 -0.043157134 -0.0043401895 -0.65749764 0.086562172 0.74846762 0
-0.3833777 -0.032627877 -0.0045766621 0.65740013 0.086511455 0.74855918 0
-0.37868169 -0.030969389 -0.0088924868 0.6523084 0.086449519 0.75300747 6.225898e-05
0.37780273 -0.036030661 -0.0090791667 -0.65513539 0.086052202 0.75059485 3.9421222e-05
0.38208041 -0.035811108 -0.00534784 -0.65746462 0.08654052 0.74849916 0
-0.38524806 -0.025344739 -0.0037761503 0.65732312 0.086534716 0.74862415 0
0.38549939 -0.022331228 -0.0039037769 -0.65841788 0.079919197 0.74839747 1.7123308e-05
-0.38459715 -0.014742373 -0.0055735856 0.65873468 0.062652633 0.74976218 0.00027436286
-0.37937963 -0.019793147 -0.0095717125 0.65265465 0.076214463 0.75381249 0.00018817322
0.38459429 -0.014790963 -0.0055704275 -0.65719169 0.074386276 0.75004387 0.00010219917
-0.39009404 -0.0070885145 -0.00163109 0.65692002 0.038043953 0.75299984 0.00063828169
-0.38447687 -0.0070539783 -0.0065681939 0.65476024 0.038345277 0.75486332 0.00060787133
0.38356397 -0.005324991 -0.0075697228 -0.66089982 0.022726197 0.75012988 0.00072546594
-0.39009702 0.0093229478 -0.0013701236 0.65526313 -0.045957137 0.75400138 0.00063857844
-0.38589984 0.005910547 -0.0054506939 0.65498662 -0.023539985 0.7552737 0.00074428588
0.38625747 0.0047358647 -0.005272374 -0.65930027 -0.027395643 0.75138044 0.00075131404
-0.39120781 0.012361977 -4.3238513e-05 0.65368003 -0.05147291 0.75501853 0.00049430702
-0.38563752 0.01529882 -0.0045956057 0.65727133 -0.066692881 0.75069737 0.00013679547
0.38445088 0.015489362 -0.0056156339 -0.65478218 -0.06487371 0.75302821 0.00021782651
0.39006415 0.019470977 -0.00022565294 -0.65856349 -0.074132755 0.74886471 0.00015071587
-0.38460615 0.024997562 -0.0043800129 0.6577878 -0.084946185 0.74839789 3.3616561e-05
-0.37849349 0.026496034 -0.0095750028 0.65408456 -0.085663542 0.75155509 4.9882721e-05
0.38771826 0.02492092 -0.0016557036 -0.65743935 -0.086563773 0.74851871 0
-0.38451421 0.036056593 -0.003182129 0.65727478 -0.086556487 0.74866402 7.2725423e-05
-0.37821501 0.035716012 -0.0087535391 0.65456963 -0.085302174 0.75117385 8.1680802e-05
0.37922025 0.030715235 -0.0084488466 -0.65540808 -0.085531518 0.75041634 2.4027888e-05
0.3838914 0.035715453 -0.0037684657 -0.65720785 -0.086416207 0.74873906 2.3530809e-05
-0.38327631 0.045516413 -0.0031755143 0.65732962 -0.086552203 0.74861634 4.3758133e-05
-0.37805182 0.0443988 -0.0078929905 0.65506351 -0.08658421 0.75059646 6.2828069e-05
0.37900722 0.049376357 -0.0064783809 -0.65717411 -0.086608246 0.74874634 0
0.38261834 0.045645706 -0.0037383803 -0.65730661 -0.086545393 0.74863732 4.7911199e-05
-0.38270229 0.053343993 -0.0027746367 0.65736896 -0.086541019 0.7485832 1.8388115e-05
-0.37783688 0.053789273 -0.006995983 0.657538 -0.086542353 0.74843454 0
0.37653238 0.055194307 -0.0079791779 -0.65592301 -0.087123193 0.74978304 0
0.38313881 0.055951651 -0.0020897342 -0.6574707 -0.0865646 0.74849105 0
-0.38150764 0.06560263 -0.002406443 0.65738052 -0.086565875 0.74857014 6.3389425e-06
-0.37910452 0.060823452 -0.0050694598 0.65739012 -0.086551659 0.74856329 2.8925517e-06
0.37854174 0.065946527 -0.0049713594 -0.65712982 -0.086718522 0.7487725 0
0.38198796 0.063610099 -0.0022149254 -0.65740156 -0.086545199 0.74855399 0
-0.3813234 0.078534797 -0.0010730568 0.65679336 -0.091487095 0.74850023 5.5091343e-05
-0.37718827 0.074740835 -0.0051432261 0.65651757 -0.08955431 0.74897587 0
0.37468055 0.074188709 -0.0074093738 -0.65564668 -0.088904992 0.74981558 0
0.38151884 0.073097855 -0.0015300015 -0.65736324 -0.086543202 0.74858791 1.8528292e-05
-0.38042808 0.085594065 -0.0010431474 0.65349883 -0.11002161 0.74888891 0.0003837001
-0.37497181 0.084632158 -0.0059461496 0.65590227 -0.10372057 0.74768603 0.0002148371
0.37502107 0.084583938 -0.0059084506 -0.6529417 -0.11198252 0.74908423 0.0003698066
0.38058189 0.088836625 -0.00053315028 -0.65008527 -0.1224234 0.74993449 0.00062498922
-0.37407103 0.09297546 -0.0057725245 0.64950538 -0.13914986 0.74751592 0.00089330354
-0.3694132 0.098544583 -0.0092037003 0.63792044 -0.16411798 0.75241137 0.0010107643
0.36976385 0.094642513 -0.0093624052 -0.64300728 -0.14783697 0.75145584 0.00075764256
0.37310305 0.096494339 -0.0062157847 -0.6454581 -0.14803399 0.74931282 0.0007896488
-0.37292579 0.10491572 -0.0042831004 0.63412082 -0.19550115 0.74811101 0.0010088395
-0.36788717 0.10977223 -0.0067602536 0.62141383 -0.2200744 0.75193894 0.0006993126
0.36649352 0.10909441 -0.0081305504 -0.62302464 -0.22212358 0.75000089 0.00060615502
0.37403643 0.10377818 -0.0037597821 -0.63526183 -0.19446355 0.7474131 0.00095306814
-0.37310067 0.11483855 -0.00077635655 0.61631608 -0.24318707 0.74900901 0.00014247106
-0.36531442 0.1167981 -0.0064841188 0.61370897 -0.24653089 0.75005585 7.0724476e-05
0.36624846 0.11392695 -0.0066929623 -0.61863846 -0.23480166 0.74976975 0.00036821765
0.37110195 0.11410127 -0.0026620105 -0.62246609 -0.22875942 0.7484684 0.00050254905
-0.3642661 0.12556134 -0.0043714796 0.61270493 -0.25345072 0.74856889 0
-0.35756236 0.12814461 -0.008981891 0.61060119 -0.25279409 0.75050741 2.3911556e-05
0.35848022 0.12615503 -0.008905191 -0.60969836 -0.25243115 0.75136304 4.1957697e-05
0.3632161 0.12489294 -0.0054573505 -0.61216074 -0.25344118 0.74901718 0
-0.36206669 0.13532543 -0.0028615836 0.61251909 -0.25368688 0.74864095 1.3874109e-05
-0.35564852 0.13692443 -0.0075719533 0.61070728 -0.25295052 0.75036836 4.398821e-05
0.35647812 0.13649525 -0.0070385132 -0.61187786 -0.25358289 0.7492004 1.7593067e-05
0.36219871 0.13834518 -0.0017299112 -0.61253023 -0.25374296 0.74861288 3.7813003e-05
-0.36199674 0.14019345 -0.0012686793 0.61257887 -0.25378498 0.74855882 1.2225772e-06
-0.35252383 0.14523479 -0.0073120757 0.61126614 -0.25305861 0.74987668 0
-0.34897497 0.14754042 -0.0094347848 0.61108333 -0.25281033 0.75010931 2.4234258e-05
0.34839588 0.14965492 -0.0091919117 -0.60757768 -0.25274748 0.75297278 5.8850888e-05
0.35618365 0.14528486 -0.0043000109 -0.61261946 -0.25376472 0.74853247 0
-0.35258234 0.15640153 -0.0034789238 0.61259669 -0.25375745 0.74855351 0
-0.34724236 0.15259475 -0.0091393944 0.61107635 -0.25261927 0.75017947 1.5454649e-05
0.34962827 0.15248172 -0.0072251782 -0.61093962 -0.25363645 0.74994755 0
0.35378557 0.15615852 -0.0025766187 -0.612692 -0.25382429 0.74845278 0
-0.35138813 0.16460437 -0.00167566 0.61266202 -0.25370798 0.74851692 0
-0.34579802 0.16639259 -0.0056442423 0.61236632 -0.25397816 0.74866724 3.6577933e-06
0.34616894 0.16538699 -0.0056815767 -0.61151993 -0.25336814 0.74956512 3.6575828e-05
0.35116485 0.16455132 -0.0018763585 -0.61252475 -0.25375381 0.74861366 2.9383236e-05
-0.35001349 0.17116117 -0.00057800114 0.61126 -0.25646886 0.74872214 2.5479583e-05
-0.34419918 0.17582233 -0.0037561983 0.60579526 -0.26514956 0.75013852 0.00014647128
-0.33805138 0.17488888 -0.0091037909 0.60487396 -0.26575798 0.75066656 0.00016463334
0.33755887 0.17697223 -0.0088006081 -0.5992704 -0.27017245 0.75357932 0.00028021607
0.34556898 0.17191266 -0.0039604851 -0.61189461 -0.25515601 0.74865234 1.9666801e-05
-0.34297195 0.18246062 -0.0025102512 0.5955568 -0.27828902 0.75356972 0.00046756168
-0.33738369 0.18386097 -0.0066088452 0.59359783 -0.28990123 0.75073218 0.00054178084
0.33555415 0.18315272 -0.0083461609 -0.58979088 -0.29088593 0.75334728 0.00072263728
0.34187475 0.18512325 -0.0025056337 -0.59920794 -0.28364182 0.7486636 0.00049185165
-0.3373175 0.19531892 -0.0024474405 0.56696212 -0.33352607 0.75320274 0.00086867745
-0.32588139 0.19704889 -0.0097689964 0.55177981 -0.34775072 0.75802928 0.00082598417
0.3274748 0.1961313 -0.0091440147 -0.5513109 -0.35344675 0.75573248 0.00072781526
0.3357555 0.19655617 -0.0029735051 -0.56237334 -0.34475628 0.75158453 0.00087996089
0.34066397 0.19531772 -4.0799641e-05 -0.57145751 -0.32785657 0.75229406 0.00087431062
-0.32766849 0.20731494 -0.0029772916 0.53869796 -0.38737154 0.74816298 0.00038033535
0.31912887 0.20804428 -0.0085851643 -0.53183007 -0.391985 0.75066942 0.00021381438
0.3255741 0.20497105 -0.0057129925 -0.53544295 -0.38617611 0.75111169 0.00028205669
0.33307782 0.20139316 -0.0023691319 -0.55453795 -0.35853422 0.75095993 0.00080593425
-0.32391703 0.21465258 -0.0016568894 0.5272373 -0.40228429 0.74845725 8.2040233e-06
-0.31592944 0.21547112 -0.0068287398 0.52655452 -0.40320271 0.74844372 0
0.31494859 0.21658115 -0.0069194641 -0.52621907 -0.4031854 0.74868882 0
0.32269019 0.2140688 -0.0028338516 -0.52774382 -0.40164527 0.74844348 1.7709572e-05
-0.31493756 0.22436376 -0.002730544 0.52603501 -0.40360597 0.74859154 2.2114591e-05
-0.30799061 0.2245191 -0.0075287498 0.52606863 -0.40365884 0.74853945 0
0.3146742 0.22308362 -0.0036059218 -0.52606183 -0.40371978 0.74851143 0
-0.31145498 0.23006423 -0.0021040058 0.52598399 -0.40359145 0.74863529 5.1488445e-05
-0.30500048 0.23687838 -0.002965447 0.52603179 -0.40360337 0.74859524 1.7463984e-05
0.30693382 0.23463377 -0.0028171716 -0.52601004 -0.40362141 0.74860072 2.6094918e-05
0.31161779 0.23098099 -0.001495258 -0.52604282 -0.40365329 0.74856061 5.6641284e-07
-0.30125555 0.24323387 -0.0021700738 0.52599257 -0.40359396 0.74862796 4.4435033e-05
-0.29569739 0.24617434 -0.0044904528 0.52602786 -0.40362385 0.74858701 9.7709062e-06
-0.28981638 0.24868372 -0.0072701834 0.52544373 -0.40330255 0.74917006 2.8096558e-05
0.2946915 0.24374518 -0.0065072207 -0.52529925 -0.40293071 0.74947155 4.856553e-06
0.30476078 0.2422612 -0.00023128069 -0.52610284 -0.40367699 0.74850559 0
-0.29126689 0.25350189 -0.0036526974 0.52560294 -0.40411747 0.74861914 3.3392633e-05
-0.28510413 0.25531438 -0.007006173 0.52104616 -0.40829 0.74954003 0.00014539101
-0.27846506 0.25861213 -0.0098935142 0.50941926 -0.41787434 0.75224537 0.00030764568
0.27791375 0.25982732 -0.0096256305 -0.4967978 -0.42481318 0.75678647 0.00051298522
0.28747869 0.25584707 -0.0050501726 -0.52567011 -0.40394205 0.74866664 0
0.2920666 0.25548053 -0.0020237407 -0.52570105 -0.40382025 0.74871057 6.4861665e-06
-0.29046184 0.26076096 -0.00030407123 0.51934963 -0.4099634 0.74980396 0.00017074116
-0.28404993 0.26522243 -0.0024042374 0.50993234 -0.42604133 0.74730039 0.00057304342
-0.27829042 0.2652019 -0.0064627784 0.49363938 -0.43684125 0.75199068 0.00066820328
0.27693835 0.26681921 -0.0065407939 -0.48415267 -0.44320077 0.75443316 0.00095036789
0.28479964 0.2626738 -0.0032516948 -0.51261044 -0.41698897 0.75056696 0.00033490916
-0.2811071 0.2728655 -0.00035088882 0.48508123 -0.44517702 0.75267094 0.00091912691
-0.27324718 0.27406818 -0.0049921544 0.46383378 -0.47133696 0.75013322 0.0010934848
-0.26616323 0.27699336 -0.0068558916 0.44148692 -0.48695546 0.75363362 0.00088631542
0.26586887 0.27662936 -0.0072703897 -0.43841445 -0.49358258 0.75111187 0.00072119921
0.27528125 0.27232209 -0.0047329445 -0.47058997 -0.46154869 0.75200933 0.0010645795
0.2803607 0.27157885 -0.0015691925 -0.477357 -0.45516995 0.75163198 0.0010480814
-0.27189612 0.28173375 -0.00043321215 0.44657317 -0.4862583 0.75108272 0.00096721761
-0.2654295 0.28288406 -0.0031118707 0.42114693 -0.50701076 0.75204748 0.0004835026
-0.25906152 0.28449348 -0.0054146964 0.41476008 -0.51668745 0.74900472 0.00018537063
-0.24822167 0.28828689 -0.0085941097 0.40266594 -0.5241552 0.75041425 1.8286066e-05
0.24804616 0.28950557 -0.0078323036 -0.40283155 -0.52504545 0.74970251 0
0.25603643 0.28523096 -0.006527626 -0.41202709 -0.52171743 0.74702376 0.00011739881
0.26696086 0.28326306 -0.0020197611 -0.43537891 -0.4956899 0.7514897 0.00064857595
-0.25326279 0.29461834 -0.0014263877 0.40378773 -0.52584136 0.74862957 1.580517e-05
-0.24414356 0.29523483 -0.0059105521 0.40368718 -0.52610528 0.74849844 0
-0.23960267 0.29400432 -0.0092238821 0.40281621 -0.52452618 0.75007433 2.9670528e-05
0.23478091 0.29886308 -0.0084094601 -0.40106297 -0.52226526 0.75258714 4.496214e-05
0.24635941 0.29413977 -0.0054851938 -0.40366659 -0.52610111 0.74851245 0
0.25435582 0.29087889 -0.0034648229 -0.40551889 -0.52457362 0.74858326 4.9831733e-06
-0.24234752 0.30165142 -0.002369809 0.40358952 -0.5260402 0.74859685 2.4615338e-05
-0.23569353 0.30446634 -0.0039797155 0.40364042 -0.52606142 0.74855447 0
-0.22647679 0.30705422 -0.0071310578 0.40358922 -0.52603257 0.74860239 0
0.22810833 0.307798 -0.0057285503 -0.40345532 -0.52583975 0.74880999 0
0.23380208 0.30431762 -0.0051041306 -0.40310782 -0.52548301 0.74924737 1.8870331e-07
0.241909 0.30241871 -0.0020670486 -0.40363529 -0.52599955 0.74860066 3.1929092e-05
-0.23090354 0.31323692 -0.0003991304 0.40371171 -0.52615047 0.74845338 0
-0.22113228 0.31668907 -0.0032421295 0.4036822 -0.52606404 0.74853009 0
-0.21499643 0.31632024 -0.006810002 0.4024134 -0.52564341 0.74950826 3.2447431e-05
-0.20584637 0.31965572 -0.0094000371 0.39408699 -0.53099394 0.75016057 0.00010437516
0.20668706 0.3188414 -0.0095189456 -0.39373767 -0.5292877 0.75154853 0.00013516427
0.21601574 0.31775591 -0.0052514332 -0.4029074 -0.52621472 0.74884152 1.6302414e-05
0.22563398 0.31548291 -0.0016622839 -0.40369099 -0.52606916 0.74852175 0
0.23062289 0.31133536 -0.0018867549 -0.40365362 -0.52606529 0.74854469 0
-0.21423607 0.32157239 -0.0035290762 0.40308258 -0.52654731 0.7485134 0
-0.2025988 0.32727885 -0.0057941177 0.36963439 -0.54635739 0.7515744 0.00067063945
-0.1977303 0.3276664 -0.0081470143 0.35811198 -0.55483824 0.75093961 0.00079706748
0.19607325 0.32785043 -0.008911225 -0.34157103 -0.56052053 0.7544176 0.00069923303
0.2048436 0.32369533 -0.0071019363 -0.3910996 -0.53465706 0.74912143 0.00014276129
0.21369731 0.3241663 -0.0019967302 -0.40003949 -0.52874029 0.74860007 2.8120181e-05
-0.20364706 0.33208469 -0.0018515555 0.37403581 -0.54845494 0.74785995 0.00050558173
-0.19326133 0.33490112 -0.0052043758 0.34116301 -0.56945205 0.74788511 0.00098255067
-0.18738596 0.33461985 -0.0076756529 0.30700734 -0.58274466 0.75243288 0.00072309596
-0.17781344 0.3368254 -0.009115601 0.27782691 -0.59804237 0.75176966 0.00045546787
0.16976893 0.33929262 -0.0098234601 -0.25739065 -0.6044597 0.75390875 0.00011551063
0.17668033 0.3369574 -0.0093917046 -0.27108842 -0.5965116 0.7554369 0.00034350459
0.18570475 0.33604479 -0.007079476 -0.30555904 -0.58523971 0.75108469 0.00073107501
0.19435799 0.33632237 -0.0035618353 -0.32611376 -0.57173669 0.75283927 0.00083256722
0.20347223 0.33228803 -0.0018029455 -0.36336848 -0.54838222 0.75315362 0.00067436759
-0.19146901 0.34136856 -0.00076872203 0.30428192 -0.58507317 0.75173259 0.00069238577
-0.18219066 0.34174192 -0.0036083041 0.28149304 -0.59923452 0.74945289 0.00052328123
-0.17447597 0.34505901 -0.0035088672 0.25988251 -0.60876292 0.74957907 0.00012866159
-0.16411966 0.34472302 -0.0072944071 0.25369564 -0.61236036 0.74876785 2.1793861e-05
-0.15626705 0.34817454 -0.0071316697 0.25372523 -0.61249453 0.74864817 3.1579635e-05
-0.14921045 0.3491677 -0.0087109227 0.25337863 -0.60964185 0.75108993 4.4602599e-05
0.15527527 0.34924957 -0.0065880972 -0.25349811 -0.61217499 0.7489863 1.4623609e-05
0.16603065 0.34461278 -0.0067368401 -0.25400379 -0.61111253 0.74968231 0
0.17635176 0.34201598 -0.005363333 -0.26833311 -0.60404843 0.75041509 0.0002868117
0.18701287 0.34251288 -0.0013427701 -0.29201007 -0.59106922 0.75190902 0.00053242943
0.19116352 0.34129444 -0.00093293953 -0.31270662 -0.57964087 0.75248331 0.00090250681
-0.15570357 0.35370824 -0.0027941221 0.25374296 -0.61253238 0.74861109 3.3764703e-05
-0.14418055 0.35446545 -0.0060804868 0.25340316 -0.6120227 0.74914283 0
-0.13722444 0.3561835 -0.0070324657 0.25340918 -0.61190307 0.74923861 1.6362641e-05
-0.12909073 0.35949466 -0.0070798872 0.25313002 -0.61106747 0.75001448 1.3729908e-05
0.12890968 0.35647944 -0.009608781 -0.25311837 -0.61086476 0.75018346 3.2482021e-05
0.13465348 0.35621628 -0.0078771515 -0.25272569 -0.61077249 0.75039107 4.0150338e-05
0.14446962 0.3556188 -0.0050386316 -0.25377133 -0.61263132 0.74852055 0
0.15235661 0.35355347 -0.004055284 -0.25374606 -0.6125592 0.74858814 1.7914368e-05
-0.14289619 0.36054859 -0.0015376329 0.2537367 -0.61261475 0.74854589 0
-0.13393056 0.36219513 -0.0032293289 0.25371152 -0.61257911 0.74858356 1.3870416e-05
-0.12576553 0.36397886 -0.0045373724 0.25374854 -0.61264074 0.74852049 0
-0.1152135 0.36761338 -0.0051399092 0.24126343 -0.61753231 0.74862933 0.00014210718
-0.10672519 0.36756429 -0.0080574146 0.2090411 -0.62807834 0.74954611 0.00072491879
0.10520937 0.36671901 -0.0092629865 -0.20202591 -0.6267786 0.75255173 0.00079404376
0.11920737 0.36554328 -0.0054801628 -0.24906738 -0.61384511 0.74910593 3.1087129e-06
0.12423091 0.36460394 -0.0045460006 -0.25213844 -0.61248362 0.74919289 6.9501166e-06
0.13317236 0.36420065 -0.0018450742 -0.25373191 -0.61262852 0.74853611 0
-0.11982933 0.3703658 -0.0013227612 0.24248032 -0.61572409 0.74972475 0.00012537792
-0.10480871 0.37414289 -0.0033153233 0.19207214 -0.6331107 0.74985266 0.00083063048
-0.094190218 0.3745133 -0.0052437172 0.13881162 -0.64979738 0.74732506 0.00062382722
-0.086166687 0.37512103 -0.0056376862 0.1136936 -0.65205848 0.74959552 0.00029540301
-0.075654343 0.37577865 -0.0062755956 0.089888841 -0.656757 0.74872571 8.293986e-06
-0.066087499 0.37583831 -0.0073292521 0.086663365 -0.657094 0.74881035 3.6974339e-05
-0.055532821 0.37795129 -0.0066939471 0.086546741 -0.65743572 0.74852383 0
-0.044622488 0.37690026 -0.008878408 0.085455447 -0.65540934 0.75042379 3.0784675e-05
-0.038379878 0.37810501 -0.0085421698 0.086127967 -0.65544194 0.75031853 5.8777681e-05
0.020183645 0.37924254 -0.0096469037 -0.072561309 -0.65233892 0.75444591 0.0001527908
0.043238934 0.37660214 -0.0093001565 -0.086781047 -0.65499306 0.75063515 2.0121986e-05
0.053926807 0.37859043 -0.0063182781 -0.086597234 -0.65710437 0.74880886 0
0.065693721 0.37518993 -0.0079441853 -0.086667784 -0.65633482 0.74947536 7.4403747e-06
0.075136848 0.37501493 -0.0070060492 -0.08801192 -0.65562123 0.7499432 1.1611581e-05
0.086039223 0.37695074 -0.0040455153 -0.11146409 -0.65287733 0.74921757 0.00033217322
0.095489152 0.37678036 -0.003102557 -0.14928462 -0.64308363 0.7511043 0.00079542992
0.10607674 0.37408456 -0.0029412655 -0.19428325 -0.62642932 0.75487769 0.00090974022
0.11509929 0.37253976 -0.0011470276 -0.23405746 -0.61838824 0.7502088 0.00037783495
0.12235389 0.37030023 -0.00052064005 -0.24882799 -0.61358917 0.74939507 9.8140386e-05
-0.084105819 0.38082215 -0.00086916913 0.10074589 -0.65247422 0.75108421 0.0001674314
-0.071512945 0.38239807 -0.00094111264 0.086559631 -0.65755564 0.7484169 0
-0.06478513 0.38221541 -0.0018794029 0.086566187 -0.65763938 0.74834263 0
-0.05623145 0.38228393 -0.0028082172 0.086551234 -0.65747499 0.74848872 0
-0.042639732 0.38349923 -0.0033123337 0.086545393 -0.65738076 0.74857235 7.9516731e-06
-0.032122675 0.38520816 -0.0030274759 0.08654476 -0.65747625 0.74848837 0
-0.026822923 0.38202065 -0.0064395731 0.085809536 -0.65742719 0.74861616 0
-0.016096937 0.38679695 -0.0034850352 0.07741598 -0.65692174 0.74997371 9.9784418e-05
-0.0037230868 0.38536879 -0.0061699194 0.020653835 -0.65069008 0.75906247 0.0010100669
0.0051217396 0.38612223 -0.0053465157 -0.03490321 -0.65626013 0.75372708 0.00071524334
0.015234364 0.38569531 -0.0045522065 -0.07063821 -0.65623862 0.75123978 0.00015786568
0.023396032 0.38387126 -0.0052104942 -0.080157854 -0.65832478 0.74845392 3.660746e-05
0.037632115 0.38430592 -0.0031827879 -0.086548641 -0.6574164 0.74854058 0
0.045585196 0.38473287 -0.0018883399 -0.086553827 -0.65736777 0.74858272 1.5863416e-05
0.05651512 0.38102871 -0.0038777022 -0.086560585 -0.65743524 0.74852258 0
0.073616259 0.38163581 -0.0013673126 -0.086593218 -0.65758884 0.748384 0
-0.015263976 0.39022386 -0.00057181064 0.077319711 -0.65704918 0.74987197 7.3970237e-05
-0.0053051799 0.39107573 -0.00097508833 0.029335076 -0.64887029 0.76033342 0.0011852455
0.0011221898 0.39077413 -0.0017235642 -0.0053577893 -0.65691042 0.75394958 0.0010502971
-0.014735769 -0.40225163 0.0099299969 0.059857149 0.65574449 0.75260633 0.00041631062
-0.0028903286 -0.40211076 0.0084367227 0.0067457156 0.65720767 0.75367934 0.0010847566
0.0024522047 -0.40393174 0.0099852802 -0.010310488 0.65984201 0.75133365 0.00099802855
-0.1020671 -0.3900671 0.0093265222 0.15479557 0.63703591 0.75513154 0.00097641477
-0.096280277 -0.39095804 0.0094398782 0.13016173 0.64216208 0.75543749 0.00075492501
-0.08363843 -0.39077583 0.0078182379 0.095713951 0.65589261 0.74876148 0.00015317118
-0.067733906 -0.3934128 0.0082952045 0.086559534 0.65747887 0.74848437 0
-0.054512501 -0.39163125 0.0052020052 0.086561538 0.65738147 0.74856973 5.7264833e-06
-0.042564809 -0.39438027 0.0062348372 0.086550884 0.65736771 0.74858314 1.5170557e-05
-0.034721259 -0.39347932 0.00453672 0.086550057 0.65742201 0.74853551 0
-0.027265819 -0.39259458 0.0028977206 0.086546786 0.65739554 0.74855906 0
-0.013395093 -0.39447704 0.002947242 0.055825297 0.65912545 0.74995816 0.00043595847
-0.0055893688 -0.39518821 0.00266931 0.027195815 0.65590143 0.7543565 0.00085294491
0.0050017289 -0.39648128 0.0037369237 -0.02213975 0.65728569 0.75331616 0.0007763555
0.011374526 -0.39427891 0.0025396245 -0.044471931 0.65632021 0.75317061 0.00075917237
0.025537362 -0.39512673 0.004921711 -0.084830701 0.65766406 0.74851972 4.9498605e-05
0.035146624 -0.3944152 0.0054078414 -0.086561717 0.65743774 0.74852037 0
0.042598836 -0.39663154 0.0082158567 -0.086557582 0.65751678 0.74845135 0
0.054397415 -0.39322147 0.0065852064 -0.086545624 0.65741098 0.74854571 0
0.06532038 -0.39086297 0.0057768859 -0.086560823 0.65744591 0.74851328 0
0.077412009 -0.39268789 0.0087775569 -0.086743131 0.65748936 0.74845397 0
0.082951799 -0.39153278 0.0084036049 -0.090604365 0.6557833 0.74949259 2.0575847e-06
0.09924984 -0.39117587 0.0099745179 -0.14719002 0.64766854 0.74756968 0.00082550588
-0.1123802 -0.38584027 0.0088158622 0.20608073 0.62537897 0.7526167 0.00074785796
-0.10329064 -0.38503566 0.005287746 0.16187209 0.63500911 0.75535476 0.00090081507
-0.094591558 -0.38433436 0.003427645 0.12514915 0.64358932 0.75506991 0.00060344831
-0.084954783 -0.38610438 0.0038678774 0.1047667 0.65200114 0.75094503 0.00025696107
-0.075471081 -0.38614869 0.002810363 0.087155119 0.65732825 0.74854767 1.4430086e-05
-0.0664801 -0.38584805 0.0015067778 0.086546287 0.65763098 0.74835235 0
-0.05477494 -0.38754272 0.0016417386 0.086545862 0.65745246 0.74850923 0
-0.045424879 -0.38813642 0.0010820751 0.08654625 0.65736336 0.74858743 2.0551373e-05
0.023763804 -0.38980117 3.9652921e-05 -0.08055827 0.65716273 0.74943143 3.598884e-05
0.038251117 -0.38881233 0.00084622833 -0.08654689 0.65752524 0.74844527 0
0.045356601 -0.38822898 0.0011554655 -0.086553618 0.65747499 0.74848855 0
0.050179586 -0.38817814 0.0016684619 -0.086555682 0.65748501 0.74847943 0
0.067944758 -0.38707811 0.0027563786 -0.086542048 0.65744042 0.74852026 0
0.074746713 -0.3863734 0.0029239252 -0.08652585 0.65748274 0.74848503 0
0.085400596 -0.3855381 0.003422138 -0.10712418 0.65433508 0.74857867 0.00039279775
0.09696465 -0.38505745 0.0043370742 -0.14720273 0.64528203 0.74962825 0.00092185562
0.10690639 -0.38527727 0.0064996653 -0.19393508 0.63806832 0.74515641 0.00085843494
0.11451437 -0.38384062 0.0079028737 -0.22041154 0.62517369 0.74871659 0.00049694529
0.12115235 -0.38332689 0.0097325668 -0.23706588 0.61970836 0.74817199 0.00018313326
-0.15065542 -0.37009317 0.0089033972 0.25376767 0.61257243 0.74857002 5.3511349e-06
-0.14240983 -0.37121654 0.0070276735 0.25375575 0.61255771 0.748586 1.7042919e-05
-0.13504195 -0.37247619 0.0055610128 0.25374547 0.61252356 0.74861753 4.1481344e-05
-0.12489379 -0.37551838 0.0046106386 0.25193357 0.61359662 0.74835068 2.7718709e-06
-0.11528669 -0.37668395 0.0023078942 0.23282029 0.62274414 0.74698365 0.00030741
-0.10711417 -0.37851214 0.0010337339 0.19642219 0.63105929 0.7504549 0.00091031549
0.11383408 -0.37705296 0.0021174736 -0.22344589 0.62350005 0.74921268 0.00049994141
0.12412506 -0.37415895 0.0032375336 -0.24352127 0.61564952 0.74944848 0.00010054914
0.13400719 -0.37376928 0.0062684882 -0.25376931 0.61263418 0.74851882 0
0.14258459 -0.37143964 0.0072695231 -0.25375077 0.61270094 0.74847049 0
-0.16319065 -0.36291146 0.0072753765 0.25372508 0.61260539 0.74855751 0
-0.15446934 -0.36721241 0.0078387521 0.2537567 0.61252964 0.74860871 3.9592214e-05
-0.14748326 -0.3608835 0.00029127486 0.25371543 0.61257666 0.74858421 1.6692178e-05
-0.1363575 -0.366705 0.0012840233 0.25378498 0.61259437 0.74854612 0
0.13609435 -0.36688048 0.0013384024 -0.253764 0.61258972 0.74855703 0
0.14682476 -0.36447588 0.003007947 -0.2537837 0.61265123 0.74849999 0
0.15609713 -0.36339834 0.0052692709 -0.2537393 0.61255252 0.74859583 2.2785349e-05
0.16526884 -0.36311078 0.0081429379 -0.25371709 0.61259615 0.7485677 3.9550259e-06
0.1728975 -0.36047125 0.0085688001 -0.25382781 0.61277515 0.74838364 0
-0.19089055 -0.35073197 0.0066977595 0.29118559 0.59268409 0.75095713 0.00056755345
-0.17600897 -0.35418266 0.0044771233 0.25728086 0.61113912 0.74854225 0
-0.16614808 -0.35969362 0.0056444872 0.25378904 0.61270612 0.7484532 0
-0.15551211 -0.35840729 0.00098641519 0.2537623 0.61275035 0.7484262 0
0.15376094 -0.35910872 0.00096685719 -0.25375819 0.61263227 0.74852419 0
0.16814707 -0.35551471 0.0029022302 -0.25373146 0.61262447 0.74853969 0
0.17490625 -0.35436058 0.0042489865 -0.25568438 0.61172324 0.74861211 0
0.18424395 -0.35335475 0.006591131 -0.27035743 0.6032843 0.75030327 0.00031621361
0.19140595 -0.35342574 0.0090769837 -0.28226572 0.60004109 0.74851638 0.0004378919
-0.21303733 -0.34130636 0.0096923904 0.38591421 0.53765398 0.7496655 0.00031407285
-0.20428362 -0.34603545 0.0083248541 0.34097797 0.55981249 0.75521123 0.00095983257
-0.19353418 -0.34488341 0.0028076197 0.31950569 0.57561696 0.75271595 0.0008226909
-0.18325765 -0.34813133 0.001982132 0.27162582 0.60361046 0.74958241 0.00019371242
-0.17809877 -0.34870759 0.00070492411 0.26544231 0.60646355 0.74949467 0.00017658342
0.17979082 -0.34997645 0.0023168968 -0.26661792 0.60464352 0.75054723 0.0002868312
0.18699464 -0.34674338 0.0021130138 -0.28339311 0.59656078 0.75086862 0.00054089271
0.19450812 -0.34566382 0.0037764336 -0.30970767 0.58746904 0.74763709 0.00082656549
0.20743205 -0.34120205 0.0065965517 -0.36097711 0.55828053 0.7470063 0.00071951299
-0.22444293 -0.33252668 0.0096728168 0.40358436 0.52613157 0.74853539 0
-0.21474981 -0.33439502 0.0057589165 0.39327016 0.53305507 0.74912673 0.00021804599
-0.20696856 -0.3369264 0.003341896 0.36945367 0.54249948 0.75445235 0.00050439499
0.19911572 -0.33848241 0.00020083832 -0.34603664 0.56390232 0.74984854 0.00095673191
0.2060415 -0.3338781 0.00069982558 -0.37315682 0.54738235 0.74908388 0.00050658098
0.2152836 -0.33357775 0.0054724179 -0.39733401 0.53027165 0.74895775 7.9364276e-05
0.22581467 -0.33127245 0.0095311143 -0.40355983 0.52617836 0.74851573 0
-0.23382564 -0.32244658 0.007648563 0.40364712 0.52600795 0.74858844 1.8251692e-05
-0.2235167 -0.32604098 0.0046155392 0.40358612 0.52614146 0.74852741 0
-0.21617053 -0.32742667 0.0016280101 0.4003962 0.52844173 0.74862015 3.2551467e-05
0.21754031 -0.32813177 0.0028621673 -0.39791319 0.52973706 0.74902856 3.8700455e-05
0.22714913 -0.32543567 0.0061489423 -0.40366217 0.5260784 0.74853081 0
0.23472065 -0.32236585 0.0080744568 -0.4036617 0.52606368 0.74854141 0
-0.24262758 -0.31532818 0.0073924372 0.40366539 0.52609175 0.74851966 0
-0.23744738 -0.3152031 0.0045112045 0.40368819 0.52609581 0.74850452 0
-0.22862615 -0.31610656 0.00038935617 0.40364668 0.52601522 0.74858361 1.8307979e-05
0.22726755 -0.31792194 0.00093255215 -0.40363646 0.52604967 0.7485649 3.9697438e-06
0.23591909 -0.31623346 0.0044111731 -0.40367556 0.52603424 0.74855453 0
0.24596769 -0.31259802 0.0072749741 -0.40362754 0.52599663 0.74860698 2.5863135e-05
-0.26180148 -0.30400658 0.009775484 0.4048931 0.52500445 0.74861991 6.7387746e-06
-0.25385174 -0.30588725 0.0068103164 0.40366021 0.52610511 0.74851316 0
-0.24544625 -0.30797571 0.003745459 0.40362251 0.52615368 0.74849933 0
-0.23972341 -0.3075617 0.00036855415 0.40369025 0.52609307 0.74850523 0
0.24601167 -0.30687532 0.0032770776 -0.40363917 0.52596629 0.748622 3.5764806e-05
0.25313935 -0.30286169 0.0042999992 -0.40366358 0.52604789 0.74855149 0
-0.27500516 -0.29229069 0.0086620748 0.43034887 0.50092626 0.75091451 0.00051648042
-0.26190579 -0.29586664 0.0041114106 0.40573832 0.52458233 0.74845827 0
-0.25842932 -0.29490957 0.001564227 0.40507013 0.52502978 0.74850655 0
0.25938454 -0.29653749 0.0032233112 -0.40494689 0.52440363 0.74901187 3.5316451e-05
0.26387438 -0.29453138 0.0042346185 -0.41017473 0.51981395 0.7493664 0.00017172711
0.27168256 -0.29282308 0.0072445599 -0.41423711 0.51576477 0.74992961 0.00015618496
-0.28357497 -0.28357846 0.0074715056 0.45797807 0.47884211 0.74897689 0.0009187489
-0.27556729 -0.28710723 0.0053225337 0.43791142 0.49243253 0.75215942 0.00073128036
-0.26762733 -0.28665999 0.00072673289 0.4303917 0.50375712 0.74899387 0.00047897181
0.26838636 -0.28771251 0.0018757042 -0.42511579 0.50746095 0.74950647 0.00048340828
0.27531773 -0.28672832 0.0049217115 -0.43484962 0.49817365 0.75015247 0.00064929703
0.28214607 -0.28328103 0.0063593709 -0.46207735 0.47334376 0.74995351 0.00099790108
-0.29242736 -0.27393603 0.008181598 0.50252682 0.42893884 0.75065184 0.0006080445
-0.28480279 -0.27582684 0.003843067 0.48887637 0.43929806 0.75366914 0.00057615613
0.27864254 -0.27711886 0.00033874298 -0.46828425 0.46021178 0.75426459 0.0011484314
0.28459468 -0.27502599 0.0032649958 -0.49088532 0.44301373 0.7501803 0.00086132705
0.29436925 -0.27281612 0.0089423861 -0.51083094 0.41828236 0.75106025 0.00035564738
-0.29409924 -0.26483718 0.0044500865 0.52140236 0.40908563 0.74885815 6.6890774e-05
-0.28781906 -0.26952943 0.0025669415 0.50176889 0.42471215 0.75355667 0.0004883486
0.28969389 -0.26869303 0.0034334967 -0.50887305 0.42176333 0.75044245 0.00050732383
0.29474649 -0.26335719 0.0041068993 -0.52425766 0.40670925 0.74815881 2.4374765e-05
0.30332142 -0.26211309 0.0094620427 -0.52603084 0.40361941 0.74858731 2.0975098e-05
-0.31027555 -0.25280848 0.0093315979 0.52598214 0.40360355 0.74863005 4.959225e-05
-0.30214968 -0.25516263 0.0048906179 0.52604949 0.40368095 0.748541 0
-0.29815656 -0.25576669 0.0024102083 0.52606887 0.40360755 0.74856693 5.483023e-06
0.29607043 -0.25730366 0.0017729992 -0.52488542 0.40544385 0.74840534 7.1945301e-06
0.30453405 -0.25658509 0.007333287 -0.52598351 0.40363583 0.74861175 3.4340617e-05
0.31152546 -0.25154892 0.0095307669 -0.52601814 0.40367353 0.74856704 5.4161087e-06
-0.31314927 -0.24593137 0.0076427152 0.5260486 0.4036161 0.74857658 1.2911391e-05
-0.30576926 -0.24759302 0.003352446 0.5261218 0.40362602 0.74851984 0
0.30733401 -0.24592791 0.003554184 -0.52605778 0.40366805 0.74854219 0
0.31254771 -0.24461766 0.0065115849 -0.52603346 0.40368462 0.74855036 0
-0.32452706 -0.23388451 0.0091423094 0.52605224 0.40359539 0.74858516 1.9712443e-05
-0.31456587 -0.23524529 0.002875912 0.52601969 0.40359238 0.74860966 2.8727272e-05
0.30836466 -0.2388896 0.0004831776 -0.52600032 0.40363854 0.74859846 2.4502839e-05
0.31721604 -0.23649651 0.0054130186 -0.52599561 0.40364021 0.74860078 2.4669805e-05
0.32285833 -0.23192732 0.0069142315 -0.52614188 0.40364748 0.74849409 0
-0.3310889 -0.22615314 0.0095845852 0.5260154 0.40363768 0.74858832 1.6767861e-05
-0.32475853 -0.22568882 0.0048855757 0.5260815 0.40368658 0.74851543 0
-0.31910586 -0.22640298 0.0012982802 0.52606136 0.40362424 0.74856329 4.9184041e-07
0.31993675 -0.22811703 0.0028064549 -0.52615547 0.40365902 0.74847829 0
0.32542187 -0.22512037 0.005045217 -0.52602863 0.40363672 0.7485795 1.2895476e-05
0.33324116 -0.22169504 0.0086930981 -0.52671081 0.40295237 0.74846852 2.799456e-05
-0.33400309 -0.21602312 0.0061700279 0.53084832 0.3959564 0.74927878 7.8785044e-05
-0.32588518 -0.21853319 0.0018187452 0.52601039 0.40365934 0.7485801 1.4686067e-05
0.32707015 -0.21761458 0.0021561284 -0.52712077 0.40181461 0.74879146 0
0.33354893 -0.21437214 0.0049606413 -0.53218108 0.39533737 0.74865991 0.00013772839
0.34086144 -0.21339069 0.0095702326 -0.54056501 0.38276973 0.74918419 0.00033882025
-0.34435508 -0.20176394 0.0057557817 0.56752294 0.34046337 0.74966818 0.0009818743
-0.3372989 -0.20605935 0.0031133541 0.55024105 0.37165144 0.74773651 0.0006968255
0.33763951 -0.2050308 0.0027980702 -0.55304152 0.36249468 0.75016177 0.00074236217
0.34323078 -0.20413364 0.0062435269 -0.5642494 0.35012397 0.74768692 0.00071410206
-0.3516646 -0.19707716 0.0095580965 0.58211434 0.31018516 0.75161695 0.00083991367
-0.34614334 -0.19394635 0.003986137 0.59079444 0.30391911 0.74739224 0.00079620176
0.34542659 -0.19331233 0.0031769429 -0.59059554 0.30096182 0.7487449 0.00063836371
0.35211313 -0.19466949 0.0091090556 -0.58929241 0.29441565 0.75236547 0.00056654122
-0.35446221 -0.18486188 0.0077068713 0.60380495 0.26492372 0.7518211 0.00021775774
-0.34707579 -0.18579654 0.0019788796 0.60098898 0.2781162 0.74930888 0.00035691203
0.34793931 -0.18632285 0.0028639808 -0.59557819 0.28700468 0.75027657 0.00060569355
0.35323897 -0.18222459 0.0058118603 -0.6069206 0.26634699 0.74880344 0.00023445
-0.36067158 -0.17258012 0.0086251451 0.61259753 0.25375909 0.74855226 0
-0.35610348 -0.17472795 0.0056148376 0.61192274 0.2551035 0.74864727 1.1110765e-05
-0.34879601 -0.17789726 0.00070899585 0.60851669 0.26109272 0.74935842 0.00012936404
0.34986651 -0.17341977 6.7275949e-05 -0.61139381 0.25526485 0.74902433 0
0.35560718 -0.17437764 0.0050899871 -0.61264396 0.25375479 0.74851578 0
-0.36237335 -0.16230316 0.006534189 0.61255199 0.25374687 0.74859375 2.1840038e-05
-0.35580271 -0.16738392 0.0028792669 0.61258817 0.25378421 0.74855143 0
0.35512626 -0.16624452 0.001939452 -0.61253983 0.25375792 0.74859995 2.3900233e-05
0.36063027 -0.16680056 0.0066322335 -0.6126374 0.25374535 0.74852437 0
-0.36533195 -0.15450871 0.0063132355 0.61260587 0.25377995 0.74853843 0
-0.35767284 -0.15767124 0.0011173235 0.61264855 0.25373325 0.7485193 0
0.36354989 -0.15376139 0.0046015275 -0.6126346 0.25376603 0.7485196 0
-0.37287378 -0.14268021 0.0084756147 0.61252183 0.25376362 0.74861276 4.0295392e-05
-0.36417362 -0.14701106 0.0028237666 0.61262125 0.2537525 0.74853522 0
0.36486131 -0.14609802 0.0030770649 -0.61256379 0.25375575 0.74858099 1.5595124e-05
0.37219468 -0.14364542 0.0082470402 -0.61257625 0.25376275 0.74856853 6.6794046e-06
-0.37408617 -0.13809027 0.0079119308 0.61254799 0.25378338 0.74858469 1.6113918e-05
-0.36869216 -0.13526645 0.0025404345 0.61258811 0.25371301 0.74857569 9.0915819e-06
0.36736217 -0.13581073 0.0016365085 -0.61261314 0.25373387 0.74854803 0
0.37172195 -0.13691226 0.0055777943 -0.61255962 0.25375617 0.74858433 1.9294679e-05
-0.38328218 -0.12149629 0.0098126195 0.61545897 0.24243949 0.74995553 0.00025187293
-0.37430632 -0.12641351 0.0041339095 0.61283255 0.25336054 0.74849498 0
0.36931145 -0.12714572 0.00029448513 -0.61294967 0.253454 0.74836743 0
0.37481326 -0.12498382 0.0040641376 -0.614259 0.24951741 0.74861664 6.9825078e-06
0.38139355 -0.12304705 0.0087926863 -0.61405349 0.24805625 0.74927056 8.807367e-05
-0.38343498 -0.11308794 0.0070874235 0.62716126 0.20856683 0.75044566 0.00090652751
-0.37864435 -0.11047304 0.002280541 0.62385744 0.20933938 0.75297999 0.00085856358
0.37677678 -0.11697738 0.0029570162 -0.61567235 0.2441044 0.74923998 7.3454161e-05
0.38652095 -0.1119763 0.0092360117 -0.6320194 0.20764065 0.7466169 0.00075839239
-0.39002281 -0.10485632 0.0096883308 0.63649547 0.1696319 0.75239527 0.00094596442
-0.38482934 -0.10326803 0.0050854525 0.6384536 0.16666916 0.75139773 0.00078995264
-0.37968618 -0.10451753 0.00111433 0.63328362 0.17618173 0.75359923 0.00090480875
0.37904525 -0.1057537 0.0010088918 -0.64304936 0.17764893 0.74493515 0.00098770892
0.38389429 -0.10354677 0.0043536453 -0.63912588 0.17313175 0.74936211 0.00095228647
-0.39043278 -0.09352617 0.0086601954 0.64782333 0.12793896 0.75097042 0.00075530156
-0.38479701 -0.095521934 0.0039415373 0.64501047 0.13350962 0.75242066 0.00074448303
0.38372055 -0.096390732 0.0030966513 -0.64814788 0.14835083 0.74692458 0.00086312823
-0.39133105 -0.084829725 0.0084436033 0.65338022 0.10189453 0.75014114 0.00025917776
-0.38417622 -0.083846077 0.0020464151 0.6539467 0.10184371 0.74965429 0.00023030626
0.38425723 -0.085683249 0.0023300175 -0.65325618 0.10401062 0.74995875 0.00021478583
0.39173841 -0.086949088 0.009046426 -0.65346122 0.10208527 0.75004464 0.0001724918
-0.38416681 -0.072389677 0.00071354228 0.65733176 0.086552344 0.74861449 3.5308603e-05
0.38595337 -0.079706632 0.0031285547 -0.65527606 0.092887193 0.74965674 6.4165026e-05
0.39224431 -0.074109904 0.0080062691 -0.65735072 0.08690007 0.74855751 2.1068701e-05
-0.39383441 -0.063476041 0.0081731975 0.65747917 0.086531289 0.74848747 0
-0.386482 -0.066179007 0.0020287477 0.6573301 0.086563587 0.74861467 3.7501592e-05
0.38801363 -0.066453055 0.0034055493 -0.65738946 0.086537793 0.74856544 3.5910625e-06
0.39375901 -0.062184624 0.0079577016 -0.65742117 0.086552419 0.74853599 0
-0.39276829 -0.056065924 0.0063801957 0.65740347 0.086549394 0.74855185 0
-0.38681501 -0.051541753 0.00062884297 0.65743905 0.086550564 0.74852049 0
0.38733524 -0.055579185 0.0015525378 -0.65753549 0.086557128 0.74843496 0
0.39261508 -0.053060096 0.0058981306 -0.65739465 0.086557418 0.7485587 0
-0.39275303 -0.044463575 0.0050253496 0.65727431 0.086559199 0.74866414 6.147664e-05
-0.38746923 -0.046942048 0.00067154795 0.65749955 0.086546078 0.74846786 0
0.3889274 -0.044453878 0.0016645243 -0.65743619 0.0865371 0.74852461 0
0.39394575 -0.044472776 0.0060739112 -0.65736461 0.086557597 0.74858505 1.8409177e-05
-0.39403862 -0.035284095 0.0050930441 0.6572988 0.086548947 0.74864388 5.4165557e-05
-0.38972437 -0.031905308 0.00091355597 0.6574077 0.086549103 0.74854815 0
0.38839564 -0.03588438 0.00020671007 -0.65735632 0.086548254 0.74859345 2.4672368e-05
0.39353991 -0.032797255 0.0043675387 -0.65735322 0.086548045 0.74859613 2.4805946e-05
-0.39609832 -0.023895262 0.0055851303 0.65734875 0.083839886 0.74890822 0
0.39431003 -0.024404697 0.0040735546 -0.65763426 0.082651563 0.74878967 4.5223911e-05
0.40142387 -0.02035735 0.0098530827 -0.65688115 0.081180699 0.7496112 7.0586859e-05
-0.40097255 -0.015597054 0.0089063309 0.65579206 0.068047076 0.75186855 0.00028396025
-0.39419699 -0.014971728 0.0028836008 0.65676504 0.057412446 0.75190651 0.0004533772
0.39728349 -0.014639778 0.0055559007 -0.65512007 0.062813729 0.75290918 0.00038677402
-0.40180749 -0.0038996718 0.0082871588 0.65411025 0.007472096 0.75636232 0.0010071548
-0.39437625 -0.0023380888 0.0015803911 0.65635675 0.01195544 0.75435585 0.00090890838
0.39474973 -0.005720628 0.0022994808 -0.66073191 0.016319025 0.75044453 0.00093158288
0.40235797 -0.0060196812 0.0090157408 -0.65693247 0.027315054 0.75345439 0.00098681892
-0.39568973 0.0039968719 0.0029256698 0.65623206 -0.01561436 0.75439757 0.0008867351
0.3959929 0.0047962246 0.0032844024 -0.65981203 -0.017283935 0.75123185 0.00096484646
0.40153402 0.0011186819 0.0077254688 -0.65353853 -0.010197598 0.75682455 0.00087045698
-0.40176058 0.015525349 0.0095900455 0.65732431 -0.075279728 0.74983841 7.0873859e-05
-0.39552125 0.014277432 0.0039663296 0.65619415 -0.063129507 0.75194681 0.00041346796
0.39512447 0.014957792 0.0036965709 -0.65939558 -0.060633171 0.74934721 0.00041931673
0.40118563 0.016062908 0.0091473293 -0.65776646 -0.072393887 0.74973494 0.00015377661
-0.40030417 0.026769232 0.0096110366 0.65743935 -0.085738599 0.7486136 4.0414339e-05
-0.39324772 0.023689557 0.0030578719 0.65750879 -0.082132153 0.74895698 9.5124044e-05
0.38994753 0.026030099 0.00043031666 -0.65746474 -0.086552337 0.74849778 0
0.39479241 0.024810027 0.0045440523 -0.65747488 -0.086545512 0.74848956 0
0.40079466 0.021377774 0.0094184633 -0.65687013 -0.074314542 0.75033265 0.00017636793
-0.39343134 0.035757676 0.004614451 0.65740049 -0.086548112 0.74855465 0
0.39564586 0.033770345 0.0063295313 -0.65743619 -0.086550049 0.74852306 0
-0.39422855 0.044749528 0.0063542081 0.65744829 -0.086539902 0.74851364 0
-0.38872817 0.045408342 0.0015998656 0.65744549 -0.086544096 0.74851555 0
0.38902116 0.044590771 0.0017626919 -0.65734696 -0.086546712 0.74860185 2.7212202e-05
0.39602751 0.043856528 0.0078308629 -0.65748703 -0.086531326 0.74848056 0
-0.39240539 0.057458326 0.0062224511 0.65738392 -0.086552404 0.74856871 5.8661908e-06
-0.38800061 0.054491751 0.0020111031 0.65735245 -0.08658196 0.74859285 2.6856778e-05
0.38961375 0.055460773 0.0035398845 -0.65746021 -0.086548612 0.74850208 0
0.39413249 0.055073798 0.0074635604 -0.6575467 -0.086547643 0.74842626 0
-0.39362431 0.067248262 0.0084248437 0.65742314 -0.086537004 0.74853605 0
-0.38627127 0.066776656 0.0019127866 0.65741765 -0.086538747 0.74854058 0
0.38620245 0.065245584 0.0016753478 -0.6574046 -0.086569123 0.74854857 0
0.39364591 0.065600798 0.0082533211 -0.65744323 -0.086541496 0.74851787 0
-0.39329046 0.073891163 0.0088996887 0.65741223 -0.086551651 0.74854398 0
-0.3858681 0.075927779 0.0026167734 0.65700322 -0.089174815 0.74859512 0
0.38362658 0.075002179 0.0005411976 -0.65731537 -0.086545482 0.74862969 4.7996717e-05
0.39204103 0.074411027 0.0078625418 -0.6573897 -0.086541094 0.74856508 5.0652038e-06
-0.39019239 0.084644966 0.0074222828 0.65359312 -0.095713139 0.75076962 0.00010080337
-0.38451445 0.085549042 0.0025403819 0.65498507 -0.096880279 0.74940562 9.8190554e-05
0.38632852 0.084374264 0.0039977087 -0.65370041 -0.10324689 0.74967724 0.00024478859
-0.38488102 0.096461765 0.0041239816 0.64927745 -0.13436136 0.74858922 0.00075735874
0.38426498 0.095201366 0.0034372602 -0.64428753 -0.134333 0.75289333 0.00060201634
0.39072296 0.09390422 0.0089587709 -0.65067732 -0.11727147 0.75024426 0.00042257961
