# .PCD v0.7 - Point Cloud Data file format
VERSION 0.7
FIELDS x y z normal_x normal_y normal_z curvature
SIZE 4 4 4 4 4 4 4
TYPE F F F F F F F
COUNT 1 1 1 1 1 1 1
WIDTH 583
HEIGHT 1
VIEWPOINT 0 0 0 1 0 0 0
POINTS 583
DATA ascii
0.033957668 0.1453182 -0.26194453 0.042406559 0.18171647 0.98243624 0.0012095597
0.047221109 0.14470977 -0.26272038 0.045050252 0.14874639 0.98784864 0.0017864553
0.072504155 0.14448296 -0.2644003 0.052883085 0.080223985 0.99537307 0.0015803273
0.083277464 0.14219046 -0.2644003 0.051996745 0.061468311 0.99675375 0.001513995
0.09354227 0.14662589 -0.2644003 0.015544001 0.020977991 0.999659 0.00032691521
0.10757098 0.14262849 -0.2644003 0.010467731 0.012646707 0.99986523 0.00022539873
0.11823881 0.14336847 -0.2644003 5.4969887e-06 -4.8975173e-05 1 2.1617321e-05
0.12508364 0.14543194 -0.2644003 -4.2940217e-05 5.98002e-06 1 2.1589198e-05
0.13276543 0.14785655 -0.2644003 -4.4033018e-06 -4.282816e-05 1 0
0.15676044 0.1466915 -0.2644003 -0.10210374 -0.18332222 0.97773606 0.031129563
0.17018229 0.14277261 -0.2644003 -0.24010935 -0.34612325 0.90694332 0.092720464
0.18220747 0.14073424 -0.2644003 -0.43665862 -0.49260613 0.75277376 0.094668239
-0.17485644 0.15307046 -0.26405212 0.62017894 -0.39022097 0.68051869 0.11866514
-0.16367698 0.1520586 -0.2644003 0.34169939 -0.30253458 0.88978332 0.10044146
-0.13489281 0.15669885 -0.2644003 0.0014227196 -0.00066031382 0.99999875 1.5628493e-05
-0.12583862 0.15551725 -0.2644003 2.453753e-05 1.0907867e-06 1 1.9709585e-05
-0.11220386 0.15812784 -0.2644003 -1.406778e-05 3.6569691e-07 1 1.7120714e-05
-0.092830703 0.15301552 -0.2644003 -0.004965432 0.011442916 0.99992222 0.00020820645
-0.084838107 0.15811485 -0.2644003 -0.010714796 0.016519599 0.99980611 0.00038366349
-0.072630621 0.15191853 -0.2644003 -0.024765747 0.035561904 0.99906057 0.00071386492
-0.060888208 0.15724888 -0.2644003 -0.026067665 0.046135601 0.99859506 0.00095781329
-0.044741858 0.15819742 -0.2644003 -0.022161016 0.074255235 0.99699295 0.0016698794
-0.023785243 0.15640575 -0.26422095 -0.0043867673 0.11681557 0.99314398 0.0016961371
-0.018475151 0.1525825 -0.26317847 0.00059817231 0.1271693 0.99188089 0.0013651705
-0.00066322705 0.1541684 -0.26299927 -0.0045672869 0.13991576 0.9901529 0.0018071473
0.0016257097 0.1591932 -0.26421562 -0.0014873537 0.096004128 0.99537987 0.0023294115
0.017406043 0.15501848 -0.26372045 0.025934136 0.11524217 0.99299878 0.0025124885
0.023994183 0.1529166 -0.26342893 0.024185589 0.13917814 0.989972 0.0023072534
0.03312014 0.15613496 -0.26401001 0.015927432 0.091704175 0.99565893 0.001977063
0.043421745 0.15419134 -0.2644003 0.013936613 0.089604855 0.99587989 0.0016623373
0.053528842 0.15299033 -0.2644003 0.016019784 0.097611763 0.99509561 0.0019423335
0.072203904 0.15550287 -0.2644003 0.017092058 0.042134579 0.99896574 0.0010873794
0.10456286 0.15742366 -0.2644003 -3.8724029e-05 -8.6439758e-07 1 0
0.11287902 0.15958376 -0.2644003 -0 -0 1 1.9140378e-05
0.12612826 0.15817524 -0.2644003 -3.8884566e-05 -1.202874e-05 1 0
0.13720907 0.15387815 -0.2644003 -0.0013626055 -0.0012661067 0.99999827 0
0.15498346 0.15388605 -0.2644003 -0.22593355 -0.26599151 0.93712467 0.045861669
0.17640452 0.15407844 -0.26269069 -0.2972787 -0.49279648 0.81778795 0.081952669
-0.16676697 0.16760182 -0.26367277 0.57118112 -0.51139843 0.64204663 0.078406386
-0.14548202 0.16043769 -0.2644003 0.12380497 -0.158292 0.97959995 0.048575375
-0.1325462 0.16486195 -0.2644003 0.12030394 -0.083408661 0.98922694 0.03229744
-0.12744182 0.16142595 -0.2644003 -2.6724787e-05 -2.0567575e-05 1 0
-0.11382593 0.16176984 -0.2644003 -4.9571604e-06 -2.2588672e-05 1 1.789775e-05
-0.096151873 0.16332074 -0.2644003 1.2181206e-05 3.3452412e-05 1 1.6430509e-05
-0.084990337 0.16069645 -0.2644003 -0.0035477877 0.0093678776 0.99994987 0.00013171133
-0.07582736 0.16889112 -0.2644003 -0.00066232088 0.0012897049 0.99999893 3.7751495e-05
-0.056262661 0.16801712 -0.2644003 7.8444493e-05 0.001846511 0.99999833 3.6794594e-05
-0.049765311 0.16279143 -0.2644003 -0.011711679 0.045963906 0.99887449 0.001015523
-0.03601991 0.16611637 -0.2644003 -0.0064233816 0.041783363 0.99910605 0.0010045458
-0.022930406 0.16446522 -0.2644003 -0.010903508 0.065831684 0.99777114 0.0015495394
-0.013991825 0.16403195 -0.2644003 -0.010718281 0.071913287 0.99735326 0.0012804095
0.019221842 0.16366756 -0.2644003 0.014079395 0.058169398 0.99820745 0.0011196093
0.02655535 0.1641933 -0.2644003 0.0092511931 0.043908782 0.99899274 0.00085442286
0.056430027 0.16302419 -0.2644003 0.0062707877 0.035720374 0.9993422 0.00067953166
0.06821283 0.16271915 -0.2644003 0.0099636065 0.026982812 0.99958622 0.00065002393
0.078030199 0.16521509 -0.2644003 -3.1732652e-06 -2.2945274e-05 1 1.890878e-05
0.081459723 0.16691098 -0.2644003 -0 -0 1 1.8446488e-05
0.096539363 0.16698614 -0.2644003 0 0 1 1.7824204e-05
0.12623012 0.16241969 -0.2644003 -0 -0 1 0
0.13119857 0.1648187 -0.2644003 -0.0017935733 -0.0011121851 0.99999774 3.4117067e-05
0.14354864 0.16119868 -0.2644003 -0.27332845 -0.10640886 0.95601714 0.043886501
-0.16013981 0.17177293 -0.26412562 0.38926589 -0.46618167 0.79444742 0.08760491
-0.15094893 0.17567115 -0.2644003 0.35258511 -0.35654467 0.86519337 0.093008503
-0.14245006 0.17480476 -0.2644003 0.23912084 -0.2870855 0.92757916 0.081176892
-0.13426116 0.17348555 -0.2644003 0.1951495 -0.17490944 0.965051 0.057249278
-0.1169774 0.17506512 -0.2644003 0.05946653 -0.10357642 0.9928422 0.021354023
-0.094808139 0.17630045 -0.2644003 -3.9064091e-07 -1.6854074e-05 1 1.6276437e-05
-0.074627437 0.17415579 -0.2644003 -0.00027493495 0.00094824977 0.99999946 1.4770974e-05
-0.066664949 0.17133021 -0.2644003 -3.883259e-05 0.0013667578 0.99999905 3.7354286e-05
-0.055357739 0.17327574 -0.2644003 2.1588894e-06 -2.3538645e-05 1 0
-0.04191906 0.17022926 -0.2644003 -0.0046960381 0.035083618 0.99937338 0.0009075001
-0.031014644 0.17840791 -0.2644003 -0.0025685488 0.0063552554 0.99997646 7.4858697e-05
-0.025568282 0.17593643 -0.2644003 -0.0029946559 0.0093427356 0.9999519 0.00019826343
-0.01113744 0.17122772 -0.2644003 -0.013374514 0.036632702 0.99923933 0.00087954948
-0.0033812118 0.17183988 -0.2644003 -0.0063597108 0.036588475 0.9993102 0.00081191678
0.0062983776 0.17995584 -0.2644003 0.0011197192 0.010545769 0.99994373 0.00016521283
0.010922999 0.17401995 -0.2644003 6.4820459e-05 0.023334231 0.99972773 0.00039286463
0.029410282 0.17255734 -0.2644003 0.012674775 0.038573902 0.99917543 0.00087798503
0.044202201 0.17428032 -0.2644003 0.0020202093 0.012808587 0.99991596 0.00021667194
0.057703894 0.17419928 -0.2644003 3.8615572e-06 2.3513614e-05 1 0
0.063482374 0.17218836 -0.2644003 -2.0337045e-06 -1.9888981e-05 1 2.0498452e-05
0.074836485 0.17338568 -0.2644003 -6.5501472e-06 -1.7833614e-05 1 1.865559e-05
0.082011364 0.17735036 -0.2644003 -1.2332122e-05 -1.7639319e-05 1 0
0.090735286 0.17274719 -0.2644003 6.5509957e-06 -2.2581606e-05 1 1.7500672e-05
0.10397547 0.17530009 -0.2644003 2.451669e-05 0.00011580307 1 7.090142e-05
0.11470737 0.17482948 -0.2644003 -0.0026029481 -0.0089679817 0.99995643 0.00018555613
0.13949218 0.17965445 -0.2644003 -0.39829773 -0.34908795 0.84823138 0.10535979
0.14535052 0.17533812 -0.2644003 -0.43267578 -0.39366838 0.81105906 0.12297542
0.15252134 0.17770769 -0.26408425 -0.45775786 -0.5365237 0.70894301 0.10733978
-0.15187541 0.18148956 -0.26162282 0.5404824 -0.67784899 0.49839705 0.094961174
-0.14251852 0.1823287 -0.2644003 0.30651522 -0.39409375 0.86645168 0.09890978
-0.13990304 0.18079281 -0.2644003 0.28779361 -0.33147973 0.89849657 0.091222756
-0.12902625 0.18927231 -0.2644003 0.39003897 -0.43036127 0.81403857 0.086445495
-0.11385307 0.18357906 -0.2644003 0.10435238 -0.19940847 0.97434431 0.051474232
-0.10533287 0.18543194 -0.2644003 0.125191 -0.15977468 0.97918296 0.054960229
-0.075719237 0.18502647 -0.2644003 1.404623e-05 -4.4841454e-05 1 0
-0.063778147 0.18258776 -0.2644003 -0 -0 1 1.9532252e-05
-0.056035347 0.18345918 -0.2644003 1.8040564e-05 -2.8793023e-05 1 0
-0.039228521 0.18660524 -0.2644003 1.0134364e-05 -6.9504829e-05 1 0
-0.024861295 0.18359992 -0.2644003 1.6142261e-05 0.0010063302 0.99999952 0
-0.015636401 0.18673258 -0.2644003 4.742355e-06 -1.6728933e-05 1 0
-0.0045203418 0.18777981 -0.2644003 -0.00029335855 0.0008725014 0.99999958 0
0.002774193 0.18808666 -0.2644003 -0.00010886358 0.0010281563 0.99999946 0
0.01933755 0.1845977 -0.2644003 0.000537296 0.004092969 0.99999148 9.352716e-06
0.023153819 0.18240559 -0.2644003 -0.00027961264 0.0095182499 0.99995464 0.00010113775
0.033991061 0.18781722 -0.2644003 1.4400777e-06 -6.788889e-05 1 0
0.044026937 0.18351027 -0.2644003 0.00084330555 0.0020610918 0.9999975 3.1906362e-05
0.058565721 0.18603015 -0.2644003 -9.2401351e-06 -1.7693304e-06 1 0
0.065556981 0.18482518 -0.2644003 -1.757121e-05 -2.2816103e-06 1 0
0.074569196 0.18546987 -0.26440027 -2.1536456e-05 -2.6068568e-05 1 0
0.10754122 0.18378589 -0.2644003 -0.11061694 -0.16251308 0.98048627 0.034881156
0.11141223 0.18280639 -0.2644003 -0.021199072 -0.23193197 0.97250104 0.029646741
0.12944368 0.18555266 -0.2644003 -0.27299941 -0.38842902 0.88011044 0.1037607
0.13715081 0.18314046 -0.2644003 -0.38146782 -0.32980099 0.86354703 0.092353076
-0.13591354 0.19410245 -0.26120049 0.47378212 -0.54033679 0.69538951 0.07805004
-0.12242816 0.19067582 -0.2644003 0.22749656 -0.31109065 0.92275023 0.056961797
-0.11464745 0.19444698 -0.2644003 0.21773399 -0.33369747 0.91719025 0.071797654
-0.094787851 0.19471304 -0.2644003 0.061448194 -0.33102483 0.94161922 0.074307159
-0.071019389 0.19678687 -0.2644003 0.025562644 -0.09101785 0.99552119 0.021847557
-0.052337766 0.1925371 -0.2644003 9.2548698e-06 -1.7430142e-05 1 0
-0.044175785 0.19691508 -0.2644003 4.4472154e-06 3.1527288e-05 1 0
-0.0376486 0.19091651 -0.2644003 1.1388136e-05 -3.5104575e-05 1 0
-0.02678147 0.19285065 -0.2644003 5.7996094e-06 -1.9201876e-05 1 0
-1.3166091e-05 0.19260237 -0.2644003 3.8128044e-07 -3.9993127e-05 1 0
0.00039882705 0.19543509 -0.2644003 -1.6610734e-06 -3.6574795e-05 1 0
0.019392598 0.19837445 -0.2644003 -2.499226e-06 -3.7154885e-05 1 0
0.027929386 0.19438238 -0.2644003 2.3875714e-06 -3.6245008e-05 1 0
0.038180154 0.19126046 -0.2644003 -5.3916297e-06 -4.0116167e-05 1 0
0.053705215 0.19511467 -0.2644003 -7.5022599e-06 -2.1750167e-05 1 0
0.060369723 0.19619666 -0.2644003 -2.198851e-05 -7.8958605e-05 1 0
0.081326842 0.19912341 -0.2644003 -0.17359506 -0.19508295 0.96530169 0.049940608
0.096463941 0.1926045 -0.2644003 -0.1504703 -0.21470633 0.96501803 0.045508247
0.12832321 0.19763164 -0.26345307 -0.52177984 -0.61288142 0.59339887 0.11285976
-0.12686355 0.20188954 -0.26022547 0.44978911 -0.59340876 0.66749966 0.10582583
-0.11309946 0.20871441 -0.26210862 0.3330583 -0.71237451 0.6177336 0.10085612
-0.10895229 0.20636743 -0.2644003 0.2407822 -0.56823683 0.78684866 0.099929154
-0.09153448 0.20650108 -0.2644003 0.0752078 -0.43495995 0.89730352 0.074857861
-0.087672614 0.20046128 -0.2644003 0.036781065 -0.28015649 0.95924944 0.059188817
-0.073141605 0.20205614 -0.2644003 0.10628191 -0.21718881 0.97032636 0.041156054
-0.058443494 0.20583549 -0.2644003 0.089512892 -0.1848022 0.97869074 0.035036594
-0.04457945 0.20623532 -0.2644003 -0.011901013 -0.17394806 0.98468286 0.038116377
-0.034066536 0.20503154 -0.2644003 0.0022416145 -0.004774855 0.99998617 0.00010912981
-0.023545282 0.20618455 -0.2644003 0.0002746465 -0.015064721 0.99988651 0.00068414205
-0.012827884 0.20670561 -0.2644003 0.00014081126 -0.0015670294 0.99999875 1.7047987e-05
-0.0035596553 0.2006976 -0.2644003 5.5385699e-06 -6.2787345e-05 1 0
0.0066127391 0.20417458 -0.2644003 -4.3293785e-06 -6.048779e-05 1 0
0.018463179 0.20391607 -0.2644003 6.0106995e-06 -8.6109074e-05 1 0
0.026725831 0.20289439 -0.2644003 3.1174011e-06 -0.00010433159 1 0
0.034783967 0.20528738 -0.2644003 -0.0032996153 -0.012408954 0.99991757 0.00018749083
0.045108777 0.20353873 -0.2644003 -4.2664888e-05 -0.011282181 0.99993634 0.00025759728
0.053048715 0.20402476 -0.2644003 0.0019515146 -0.0087984093 0.99995941 0.00016029639
0.06408485 0.20734163 -0.2644003 -0.072993949 -0.28852287 0.95468658 0.060527861
0.079852037 0.20670727 -0.2644003 -0.14978592 -0.2966488 0.94316685 0.070361979
0.085798062 0.20428467 -0.2644003 -0.20036806 -0.32059044 0.92578316 0.07590881
0.091871664 0.20581223 -0.2644003 -0.36136425 -0.45216164 0.81545436 0.086607404
0.12349421 0.20435697 -0.26036209 -0.37324172 -0.71263713 0.59400243 0.10394575
-0.11165754 0.21068776 -0.2602545 0.28249413 -0.76598608 0.57746208 0.091611698
-0.10509573 0.21135615 -0.26301613 0.24322727 -0.62978435 0.73770732 0.097711734
-0.090230882 0.21029821 -0.2644003 0.075196832 -0.43496904 0.89730006 0.074857876
-0.075531572 0.21788952 -0.2644003 0.28368247 -0.54388589 0.78975463 0.082302406
-0.059389956 0.21231595 -0.2644003 0.15536447 -0.24663779 0.95657283 0.049237408
-0.049503632 0.2182091 -0.2644003 0.054992318 -0.39522704 0.91693586 0.08025939
-0.024171958 0.21456856 -0.2644003 0.016649438 -0.20925593 0.97771919 0.03957412
-0.011164981 0.2151594 -0.2644003 0.063029498 -0.1575105 0.98550379 0.03089967
-0.0053075557 0.21741869 -0.2644003 0.0037803308 -0.2076232 0.97820163 0.046233896
0.0081408853 0.2186794 -0.2644003 -0.076830253 -0.26516226 0.96113795 0.053601231
0.012275857 0.21269211 -0.2644003 -0.031284429 -0.17201363 0.98459768 0.041186526
0.026233446 0.21880683 -0.2644003 -0.10108143 -0.38494501 0.91738749 0.091100544
0.045363933 0.21583259 -0.2644003 -0.06197387 -0.26707438 0.96168113 0.05816707
0.054651882 0.21588983 -0.2644003 -0.09214095 -0.37249565 0.92344844 0.082602158
0.068924233 0.21480387 -0.2644003 -0.15833369 -0.35192952 0.9225378 0.066434115
0.079418249 0.21386239 -0.2644003 -0.19685888 -0.41638193 0.88762188 0.079617381
0.10355722 0.21242221 -0.26213458 -0.23489973 -0.77015817 0.59302491 0.085810013
-0.08192762 0.22310308 -0.26011866 0.30846402 -0.67987227 0.66529959 0.091447465
-0.06506528 0.2289294 -0.26167923 0.27493802 -0.77449602 0.5697062 0.096760027
-0.055800218 0.22976302 -0.26335287 0.04181898 -0.76966679 0.63707465 0.095407546
-0.041405059 0.22144198 -0.2644003 0.14025442 -0.50203222 0.85340053 0.10476331
-0.034054283 0.22337304 -0.2644003 0.10792448 -0.4082078 0.90648711 0.073181495
-0.022141589 0.22664452 -0.2644003 0.16579135 -0.57978076 0.79772645 0.095027804
-0.014359491 0.22089873 -0.2644003 0.0375452 -0.2467393 0.96835428 0.037537687
-0.0054846769 0.22696094 -0.2644003 -0.043193236 -0.42007583 0.90646052 0.078382961
0.0089847306 0.22782122 -0.2644003 -0.019503716 -0.53408229 0.84520757 0.090724744
0.017078921 0.22238325 -0.2644003 -0.011212915 -0.3211188 0.94697249 0.058412835
0.022316772 0.22236152 -0.2644003 -0.12483418 -0.38487625 0.91448712 0.081381418
0.036875591 0.22294772 -0.2644003 -0.078386806 -0.41156435 0.90800339 0.083528981
0.043752756 0.22552773 -0.2644003 -0.036519788 -0.59131318 0.80561471 0.10046294
0.060472805 0.22615309 -0.2644003 -0.15683536 -0.59321964 0.78961587 0.098426841
0.075206555 0.22543237 -0.26073128 -0.32569909 -0.72000611 0.61278975 0.085501492
-0.056517541 0.23185265 -0.26044905 0.098228671 -0.81430405 0.57206643 0.09157262
-0.045593135 0.230882 -0.26348364 0.09014231 -0.69975603 0.70867187 0.11854401
-0.023034064 0.23577642 -0.26114935 0.18690787 -0.77950871 0.59785575 0.085259974
-0.01444025 0.23325779 -0.2641193 0.093080491 -0.57382733 0.81366962 0.086561568
-0.0014626856 0.23558573 -0.26412728 -0.13131133 -0.72965497 0.67108935 0.080067992
0.0059045623 0.23376603 -0.2644003 -0.12443503 -0.65124959 0.7485919 0.084713973
0.012876388 0.23131774 -0.2644003 -0.10590019 -0.62547261 0.77302599 0.088980034
0.038616136 0.2318479 -0.26313615 -0.091520362 -0.76671052 0.63543618 0.10305085
0.044444442 0.2315336 -0.26289248 -0.097514056 -0.70535827 0.70211154 0.1075846
-0.01297798 -0.2401969 -0.25492936 0.078465626 0.88324726 0.4622958 0.075292177
-0.0055394624 -0.24056272 -0.25640509 -0.012791213 0.87977266 0.47522247 0.072113931
0.0032614868 -0.24131839 -0.25590485 -0.024026524 0.87499183 0.48354116 0.072505094
-0.064960591 -0.23197713 -0.2576313 0.08912456 0.88337994 0.46010506 0.061415747
-0.033809513 -0.23597279 -0.25517502 0.17535427 0.86758959 0.46533769 0.053040948
-0.02991534 -0.23765846 -0.25684035 0.17487648 0.89970064 0.39994612 0.058454651
-0.013512246 -0.23679787 -0.25095716 0.05024356 0.84823525 0.52723104 0.066042811
-0.0076708938 -0.23925814 -0.25903913 0.039406203 0.86338991 0.50299603 0.074006468
0.015869545 -0.23846908 -0.25462401 -0.085455775 0.85286361 0.51509315 0.05714504
0.029458029 -0.23618853 -0.25236601 -0.081640266 0.88412768 0.46005759 0.062595271
0.035083469 -0.2357792 -0.25281447 -0.0062842844 0.88213307 0.47095841 0.059732977
0.04377972 -0.23387326 -0.25416937 -0.11468174 0.8276484 0.54940534 0.075524323
0.055230249 -0.23349591 -0.2553224 -0.22432055 0.85756904 0.46287754 0.05487306
0.066752754 -0.23070204 -0.25613043 -0.29845479 0.84905612 0.43592256 0.057199281
-0.091778167 -0.22045076 -0.2531091 0.37012339 0.73899096 0.56293964 0.083227091
-0.083649777 -0.22282167 -0.25230476 0.33605185 0.80076385 0.49582911 0.069040738
-0.074994951 -0.22553563 -0.25146383 0.24598247 0.83960402 0.4843117 0.062708661
0.076821201 -0.22640151 -0.25852436 -0.43215212 0.82524312 0.36361849 0.047070399
-0.11215635 -0.21267448 -0.25487512 0.41415384 0.7499935 0.51573861 0.052991178
-0.10542523 -0.21439147 -0.25504968 0.37431335 0.81490594 0.44251308 0.064468697
-0.096700624 -0.21716267 -0.2555548 0.27081928 0.74464405 0.61005086 0.099706843
0.11506119 -0.21118599 -0.25694025 -0.34461603 0.79467452 0.4997322 0.10114787
-0.12674905 -0.20407887 -0.25607577 0.5591889 0.68775135 0.46293166 0.078992628
0.11147547 -0.20934609 -0.25051337 -0.32856336 0.79482347 0.51019794 0.060270838
0.12129825 -0.2083306 -0.257714 -0.48856631 0.7683658 0.41342103 0.073714606
-0.14073075 -0.1926465 -0.25860837 0.49084583 0.71019447 0.50467241 0.093896218
-0.1354073 -0.19728258 -0.25797054 0.54131484 0.6648531 0.51473141 0.10929523
0.12924546 -0.19788897 -0.25013685 -0.578583 0.65071815 0.4917393 0.051044203
-0.15227422 -0.18218896 -0.25406355 0.59514296 0.63256818 0.49564335 0.06892924
0.15622061 -0.18023115 -0.25922045 -0.5456059 0.78111935 0.30358994 0.065502681
-0.16121292 -0.17502862 -0.25139973 0.49529245 0.66523594 0.55870068 0.04811053
0.15696536 -0.17859513 -0.2550807 -0.52869916 0.77919221 0.33665487 0.062576309
0.16712828 -0.17340672 -0.25645474 -0.68305075 0.64396209 0.34460774 0.076447129
-0.1759758 -0.16241613 -0.25304204 0.54619372 0.63275468 0.54890239 0.047675047
0.17649944 -0.16240415 -0.25607985 -0.67670149 0.57739407 0.45682728 0.056689747
-0.18267068 -0.1551861 -0.25508124 0.72194022 0.45111901 0.52468461 0.048360746
-0.17546873 -0.15924016 -0.2505874 0.54624909 0.63266855 0.54894668 0.047683302
-0.18672606 -0.14396971 -0.25023931 0.72343332 0.43201154 0.53852606 0.054267742
0.18757001 -0.14760014 -0.25439763 -0.63108259 0.58743721 0.50660861 0.063052483
-0.039122831 -0.13559124 -0.25997609 -0.059170447 -0.19746864 0.97852182 0.00052427623
-0.011774145 -0.13502333 -0.25882423 -0.02030718 -0.21168713 0.97712648 0.000146958
-0.008780296 -0.13533548 -0.25880486 -0.014018964 -0.21309729 0.97693044 0.00018574759
0.00419852 -0.13923068 -0.25958216 0.0087625356 -0.21586578 0.97638375 0.0002245584
0.015510574 -0.13396391 -0.25869027 0.025147257 -0.21812093 0.97559774 2.730596e-05
0.020908128 -0.13293473 -0.25861505 0.032733541 -0.21676233 0.97567546 0.00011717517
0.049833685 -0.13012744 -0.25975004 0.070361175 -0.19458202 0.97835946 0.00026832428
0.1947445 -0.13769543 -0.25887561 -0.62686574 0.60218972 0.49437517 0.076357663
-0.20668599 -0.12207797 -0.25263175 0.65454054 0.51197129 0.55629307 0.062749699
-0.056619629 -0.12688044 -0.25965407 -0.086515069 -0.19894603 0.97618425 0.00012943381
-0.044704527 -0.12309887 -0.25773615 -0.078311317 -0.20155652 0.97634131 4.6195219e-05
-0.036801655 -0.12190746 -0.2567538 -0.063872822 -0.20597696 0.97647005 0.00011603166
-0.024706166 -0.12528335 -0.25692651 -0.038923733 -0.2117513 0.97654819 3.6668149e-05
-0.012645226 -0.12290874 -0.25609869 -0.025050715 -0.20945057 0.97749829 1.1388447e-05
-0.0051815007 -0.12865287 -0.25711513 -0.010303184 -0.21519025 0.97651786 9.5052194e-05
0.0094892578 -0.12730199 -0.25693011 0.016458428 -0.20994918 0.97757375 6.4404507e-05
0.037858132 -0.12523256 -0.25758171 0.059854046 -0.20561913 0.97680002 0.00011594169
0.041043367 -0.12948486 -0.25880757 0.063362375 -0.2023378 0.97726381 0.00017271122
0.065117292 -0.12052242 -0.2590296 0.1010582 -0.19140917 0.97629392 0.00029392345
0.20565096 -0.12395027 -0.25800541 -0.81986958 0.39601263 0.41350675 0.097398162
-0.21122718 -0.11676948 -0.25493902 0.66932362 0.50578839 0.54422784 0.07209792
-0.20904745 -0.11930248 -0.25310704 0.63279748 0.53311163 0.56156856 0.071284465
-0.080383226 -0.11212444 -0.25941569 -0.11939226 -0.17396671 0.97748715 0.00030953114
-0.030252604 -0.11091753 -0.25429812 -0.052601319 -0.19476439 0.97943854 6.2133215e-05
-0.026258055 -0.11086363 -0.25416389 -0.044462282 -0.19809487 0.97917396 0.00014768341
-0.013484548 -0.11688147 -0.2549777 -0.021730665 -0.20264906 0.97901034 9.2123249e-05
-0.0066079786 -0.11415562 -0.25429618 -0.015895054 -0.19794782 0.9800837 8.2390376e-05
0.0097181257 -0.11794309 -0.25508389 0.01531576 -0.20705904 0.9782086 4.1851486e-05
0.029961757 -0.11421549 -0.25488448 0.053805158 -0.19951344 0.97841674 4.9998594e-05
0.047035784 -0.11267697 -0.25582168 0.082683913 -0.19289386 0.97772974 7.6953853e-05
0.0579881 -0.1142305 -0.2569955 0.091690853 -0.196881 0.97613043 4.3577224e-06
0.064332619 -0.11052114 -0.25680718 0.11206182 -0.18513866 0.97630215 0.00017843529
0.07174819 -0.11372668 -0.25846648 0.11418262 -0.18968819 0.97518229 0.00015318539
0.21094705 -0.11418203 -0.25836414 -0.79375201 0.3731339 0.48034254 0.078970708
-0.090707958 -0.10342277 -0.25926846 -0.14926599 -0.16276522 0.97530872 0.00017611044
-0.085084543 -0.10769715 -0.25926077 -0.13831781 -0.17420647 0.97494632 6.2029358e-05
-0.07252866 -0.10045311 -0.25615248 -0.123468 -0.1682567 0.9779802 6.7768546e-05
-0.065906018 -0.10934703 -0.25679201 -0.11253749 -0.18379924 0.97650051 0.00013816782
-0.048754066 -0.10113145 -0.25392693 -0.089039244 -0.1792962 0.97975761 7.155542e-05
-0.034778632 -0.10529624 -0.25360912 -0.057487961 -0.18833342 0.98042119 0.00016635525
-0.029434167 -0.10085104 -0.25219822 -0.055585172 -0.18770984 0.98065048 0.00016414654
-0.011909935 -0.10492232 -0.25249526 -0.019501131 -0.18729652 0.98210979 4.7512793e-05
-0.0046243621 -0.10481267 -0.25221938 -0.010387855 -0.1902625 0.98167831 0.00013422266
0.0045163995 -0.10219686 -0.25157577 0.0080093239 -0.18804847 0.98212713 9.1745474e-05
0.012102149 -0.10365283 -0.25217414 0.01669519 -0.1880627 0.98201507 0.00011693282
0.023714872 -0.10607275 -0.25317773 0.042888544 -0.19172905 0.98051035 7.0162794e-05
0.046963315 -0.108317 -0.25505388 0.08199878 -0.18893188 0.97856069 7.4638068e-05
0.055118315 -0.10510738 -0.25508332 0.090635955 -0.18640894 0.97828257 0.00016277378
0.063709967 -0.10711499 -0.25613672 0.11217519 -0.17755304 0.97769719 0.00012627465
0.073614053 -0.10424612 -0.25698671 0.12426454 -0.17460382 0.97676605 7.336706e-05
0.092331998 -0.10152837 -0.25914598 0.14621921 -0.15996246 0.9762336 5.7261008e-05
0.21619622 -0.10232999 -0.25626412 -0.81695837 0.24189721 0.52351207 0.059767969
-0.084060639 -0.092100926 -0.25625437 -0.14448255 -0.15512528 0.97727221 0.00011905117
-0.074509621 -0.093598723 -0.25535131 -0.12669919 -0.16139595 0.97872293 0.00012469378
-0.066116273 -0.091128141 -0.25401306 -0.12084613 -0.16156748 0.97943461 9.8488686e-05
-0.056344353 -0.09634459 -0.25367039 -0.098719127 -0.17291898 0.97997624 0.00010157284
-0.033188906 -0.093252115 -0.25098476 -0.065362453 -0.17689954 0.9820562 0.00012719382
-0.025937 -0.09383145 -0.25063971 -0.04225675 -0.18240717 0.98231459 0.00017377747
-0.014684051 -0.095852889 -0.25066832 -0.02345573 -0.18074216 0.9832508 0.00013665106
0.0010007613 -0.094301775 -0.25011623 0.00098319747 -0.17872143 0.98389924 0.00019488561
0.015054231 -0.096614838 -0.25080186 0.023199288 -0.18140468 0.98313481 0.00015803216
0.028437002 -0.094273023 -0.25083941 0.053754296 -0.1780279 0.9825561 9.2816932e-05
0.036480773 -0.096519992 -0.25185853 0.059857789 -0.17959572 0.98191768 4.909253e-05
0.045873538 -0.090260081 -0.25133187 0.082420386 -0.16540937 0.98277497 0.00016179694
0.052860983 -0.092351541 -0.25248995 0.1033517 -0.16199672 0.98136407 0.00012572473
0.066275239 -0.098902017 -0.2551989 0.11505079 -0.16833313 0.97899294 0.00014031092
0.099666446 -0.099464826 -0.25982827 0.14463232 -0.14839847 0.97829413 0.00052780763
0.10365762 -0.094975568 -0.25993147 0.15732209 -0.14168802 0.97733021 0.00052908459
-0.11186761 -0.082842514 -0.2597236 -0.16810137 -0.12712985 0.97753769 0.00026634638
-0.10560934 -0.083095044 -0.25857779 -0.17074896 -0.13539214 0.97596812 0.00010047137
-0.08807604 -0.087548971 -0.25602457 -0.1531565 -0.14884834 0.97692752 9.6210752e-05
-0.07672257 -0.087144852 -0.25463706 -0.13792865 -0.15154283 0.97878015 0.00019398368
-0.065468602 -0.08346507 -0.25262353 -0.11816067 -0.14724447 0.9820168 0.00013783279
-0.055685736 -0.08984898 -0.25239167 -0.097672328 -0.16316098 0.98175287 0.00011572483
-0.047413461 -0.086143814 -0.25080273 -0.092295095 -0.16071583 0.98267597 8.7101071e-05
-0.03386721 -0.086569756 -0.25000238 -0.062010907 -0.16632344 0.98411947 0.00019684674
-0.029709501 -0.08910618 -0.25012738 -0.055602491 -0.17166144 0.98358554 0.00021038068
0.039454475 -0.087120384 -0.25044203 0.073836967 -0.16589044 0.98337609 0.00016987648
0.046109088 -0.086237065 -0.25072944 0.089906998 -0.15666538 0.98355108 0.00017056749
0.064868666 -0.084281266 -0.25269705 0.11856412 -0.14987433 0.9815703 0.00011894482
0.078180097 -0.084404893 -0.25439352 0.13861528 -0.14802977 0.97922063 7.9919999e-05
0.082156457 -0.084669046 -0.25489146 0.14132001 -0.14609642 0.97912437 8.250786e-05
0.096431844 -0.084222324 -0.25703955 0.16476533 -0.13623154 0.97687936 5.8935999e-05
0.10353757 -0.084458977 -0.25838411 0.16675475 -0.13696928 0.97643858 7.3502917e-05
0.11491594 -0.080252789 -0.25992411 0.16228399 -0.12362759 0.97896892 0.00038191944
0.22275679 -0.087741636 -0.25443143 -0.76693654 0.32177767 0.5552184 0.047647998
-0.22709852 -0.076789603 -0.25404799 0.79113901 0.38769221 0.47306854 0.068228647
-0.11022983 -0.073217496 -0.25801873 -0.1801711 -0.11654843 0.97670609 0.00011560598
-0.10625246 -0.073115192 -0.25725245 -0.17695324 -0.12088771 0.97676694 6.3105123e-05
-0.09340176 -0.077314958 -0.25564504 -0.16057551 -0.13226941 0.97812086 0.00011028893
-0.084390976 -0.077657938 -0.25433126 -0.15302189 -0.13729207 0.97863942 0.00012181803
-0.073593378 -0.073805034 -0.25198346 -0.13068558 -0.13531815 0.98214573 0.00013739921
-0.067314804 -0.072972015 -0.25098747 -0.12383042 -0.13755468 0.98272312 0.00017799226
0.057316631 -0.073922105 -0.25010169 0.11056897 -0.1395577 0.98402143 0.00014171003
0.067420252 -0.074385017 -0.25128469 0.12528931 -0.14040579 0.98213476 0.00012482685
0.08841566 -0.073195964 -0.25442147 0.15889646 -0.12813905 0.97894448 0.00010399544
0.11630043 -0.077074237 -0.25972486 0.16574459 -0.11547701 0.97938442 0.00035107907
-0.12136189 -0.065473549 -0.25924671 -0.19163287 -0.10876857 0.97542113 0.0001410532
-0.11348148 -0.062956497 -0.25728345 -0.18934196 -0.10378273 0.97641116 0.00011075493
-0.092882998 -0.063185252 -0.25393879 -0.16637138 -0.11381722 0.97947246 9.4869072e-05
-0.077591598 -0.066480801 -0.25162557 -0.14522143 -0.12449765 0.98153502 0.00016088734
-0.066466637 -0.069719478 -0.25047308 -0.12327002 -0.13593382 0.98301905 0.00013495392
0.067481145 -0.065771088 -0.25010782 0.12681429 -0.12605885 0.98388374 0.00011929179
0.076659068 -0.064521678 -0.2511909 0.14521116 -0.11769497 0.98237556 0.00012942083
0.082842194 -0.065828472 -0.25255185 0.15011144 -0.11951222 0.98141903 8.3943021e-05
0.10584144 -0.06461563 -0.25605994 0.18357331 -0.1087925 0.97696728 8.6513835e-05
0.11682165 -0.06652239 -0.25834334 0.189238 -0.10797469 0.97597671 0.00014448288
0.22821867 -0.064575575 -0.25002527 -0.80649012 0.26755014 0.52724808 0.060865197
0.23017104 -0.066687703 -0.25910062 -0.77723253 0.30877793 0.54823875 0.084454551
-0.23414162 -0.054109059 -0.25752294 0.88329715 0.16182718 0.43999785 0.048098143
-0.11578044 -0.05323587 -0.25692472 -0.19550548 -0.089013569 0.97665459 0.00015428125
-0.10309152 -0.056598168 -0.2548379 -0.17874366 -0.10276331 0.97851437 0.00010567816
-0.092623368 -0.051183768 -0.25238603 -0.16686319 -0.094552442 0.98143595 9.4201314e-05
-0.081635758 -0.056406435 -0.25102612 -0.15183768 -0.10108873 0.98322237 8.9493813e-05
-0.076978043 -0.057572469 -0.2505303 -0.1476005 -0.10967656 0.98294717 0.00016056388
0.076560885 -0.056169901 -0.25033349 0.14600129 -0.1074717 0.98342943 0.00014524501
0.089649826 -0.057512574 -0.25263998 0.16074817 -0.10779805 0.98109102 0.00015249787
0.096482255 -0.052466612 -0.25338259 0.17143945 -0.088713922 0.98119235 9.0709553e-05
0.10221079 -0.051162966 -0.2542901 0.17682664 -0.091448188 0.97998446 8.7815737e-05
0.11482362 -0.050171848 -0.25642419 0.19563682 -0.084200986 0.97705501 5.3018935e-05
0.23388094 -0.057676904 -0.25729525 -0.7973752 0.26044607 0.54439008 0.080876589
-0.23418649 -0.047047596 -0.25462475 0.88919222 0.14498749 0.43395382 0.05438799
-0.13118277 -0.044022471 -0.25945252 -0.191342 -0.070919305 0.97895795 0.00027988394
-0.12622991 -0.048471794 -0.25876829 -0.20458077 -0.081178047 0.97547776 5.540207e-05
-0.11428715 -0.04458281 -0.25592548 -0.19599102 -0.07708586 0.97757113 0.00012027058
-0.10305771 -0.049204156 -0.25429636 -0.18304668 -0.088072315 0.97915125 7.4335818e-05
-0.093138076 -0.042633653 -0.25169629 -0.16798271 -0.080306746 0.98251337 8.5902859e-05
-0.085376456 -0.043976597 -0.25046185 -0.16125169 -0.080402747 0.98363268 6.5047869e-05
0.093449399 -0.04357221 -0.2518478 0.17197976 -0.076006398 0.98216391 9.8250581e-05
0.11185352 -0.045429278 -0.2555612 0.19449551 -0.074830964 0.97804493 0.00013145107
0.12511025 -0.042992484 -0.25802258 0.20521283 -0.069789618 0.97622591 8.8288994e-05
0.23431559 -0.047066949 -0.25467473 -0.84328306 0.21979231 0.49047422 0.0716151
-0.23626217 -0.03471157 -0.25822386 0.89496535 0.18276767 0.40698054 0.079426304
-0.13458569 -0.032952856 -0.25937915 -0.20522869 -0.045556828 0.97765326 0.00026349706
-0.11794385 -0.034538683 -0.25583738 -0.20180933 -0.060813662 0.97753501 7.8003635e-05
-0.10252339 -0.033831768 -0.2529836 -0.1883231 -0.062579006 0.98011136 6.5442699e-05
-0.091902576 -0.033671007 -0.25080827 -0.16823936 -0.069572404 0.98328793 0.00016178451
0.11603482 -0.036071427 -0.25561458 0.19981237 -0.061565269 0.97789812 0.00014288523
0.12317593 -0.036503136 -0.25700554 0.20491385 -0.061149769 0.97686797 8.3369516e-05
0.13228244 -0.03484761 -0.25895 0.21384557 -0.052297741 0.97546649 0.00012527338
0.235021 -0.033244312 -0.25198606 -0.8783949 0.094336219 0.46853283 0.067459844
-0.13316199 -0.024430189 -0.25877807 -0.21655838 -0.042442925 0.97534668 0.00014464963
-0.12764439 -0.025767293 -0.25751686 -0.21524844 -0.047122717 0.97542179 0.00012553169
-0.11836974 -0.025903596 -0.25556386 -0.19933046 -0.045681484 0.97886693 0.00017057377
-0.10142719 -0.023521435 -0.2519877 -0.18605182 -0.040778138 0.98169345 9.8005978e-05
-0.093024462 -0.02452236 -0.25041771 -0.17882563 -0.04535313 0.98283499 0.00014869028
0.093402989 -0.02774772 -0.25066203 0.17846778 -0.051551741 0.98259437 9.9949313e-05
0.10490694 -0.025634537 -0.25294375 0.18674004 -0.049145814 0.9811793 0.00010241871
0.11980246 -0.025529651 -0.25582349 0.20696697 -0.039680067 0.97754294 0.00017303164
0.12597126 -0.026600227 -0.25715628 0.21162391 -0.041423067 0.97647303 8.4485437e-05
0.13537446 -0.028277347 -0.25942007 0.20615198 -0.041075975 0.97765744 0.00038526006
0.23829406 -0.024642887 -0.25720233 -0.8310051 0.038391881 0.55493826 0.075221196
-0.23943979 -0.016750704 -0.25571162 0.87942189 0.062265035 0.47195375 0.076796152
-0.13317212 -0.015528103 -0.25850374 -0.21523918 -0.025725065 0.97622252 0.00012612587
-0.12656944 -0.013293772 -0.25688532 -0.21205352 -0.01662726 0.97711664 0.0001315564
-0.11668129 -0.016019972 -0.25500274 -0.20270273 -0.025383363 0.97891128 9.3312861e-05
0.10533874 -0.016586425 -0.2527616 0.18977752 -0.033758834 0.98124653 8.16916e-05
0.11339693 -0.012644267 -0.25430292 0.20152383 -0.020500574 0.97926909 7.7041273e-05
0.13347541 -0.015730245 -0.25858164 0.21524297 -0.025901895 0.97621697 2.5880498e-05
-0.24120542 -0.0017560819 -0.25411785 0.91822261 0.037156995 0.39431801 0.045718078
-0.23846334 -0.0044144653 -0.25273812 0.86035258 0.011960342 0.50955904 0.076414078
-0.14090836 -0.0008802712 -0.25987506 -0.20342764 -0.0019940513 0.97908801 0.00033992471
-0.12493494 -0.0078155845 -0.25634909 -0.20785286 -0.01369215 0.9780643 0.00011978705
-0.10905702 -0.00097278011 -0.25319076 -0.19336236 -0.0001791316 0.98112744 5.9363767e-05
0.096865743 -0.008213317 -0.25069481 0.18346038 -0.014468486 0.98292071 0.00013395738
0.10850159 -0.0059548528 -0.25318658 0.19566222 -0.010241373 0.98061788 3.8167076e-05
0.12259136 -0.0036133907 -0.2558054 0.21043056 -0.0093041612 0.97756457 0.00012524558
0.13551004 -0.0057612285 -0.25875217 0.21920501 -0.011920673 0.97560602 6.8269219e-05
0.14054695 -0.00096497923 -0.25979236 0.2285479 -0.0039549111 0.97352457 0.00015558403
0.23781686 -0.0016302295 -0.25044164 -0.84240836 0.060968343 0.53537929 0.063441858
0.24070796 -0.0040340121 -0.25371888 -0.85936004 0.054586262 0.50844926 0.055921808
-0.24084222 0.0029316759 -0.25363517 0.91783381 -0.11324891 0.38046783 0.060609009
-0.23840776 0.0050375019 -0.25265831 0.87766981 -0.14766575 0.45595017 0.067532122
-0.13942474 0.0029836693 -0.25959012 -0.20301631 0.00079572463 0.97917503 0.00035810718
-0.12760377 0.002845305 -0.25679469 -0.21334589 0.0037862549 0.97696936 0.00012899125
-0.11433706 0.0025873506 -0.25423086 -0.20104609 0.0048745633 0.97956967 0.00012082901
-0.10949267 0.0097675566 -0.25349909 -0.19670154 0.013158877 0.98037511 0.00012030417
-0.09805803 0.0059656203 -0.25084239 -0.1848758 0.0079125166 0.98273003 0.00010200435
0.11884107 0.0031839258 -0.25509092 0.20354344 0.004358273 0.97905624 3.9338418e-05
0.12478381 0.0059665088 -0.25627503 0.20828213 0.007490064 0.9780401 0.00013549619
0.13381732 0.0055182716 -0.25834492 0.21905997 0.008134299 0.97567749 0.00015136178
-0.23774488 0.016117908 -0.25358811 0.85968184 -0.080973886 0.50437129 0.069356531
-0.12181279 0.014150788 -0.25591964 -0.21025358 0.024480477 0.97734034 4.9391492e-05
-0.1156424 0.017451199 -0.25484312 -0.20777987 0.031562001 0.97766632 8.7703891e-05
-0.094398469 0.019681793 -0.25053713 -0.18025941 0.02814756 0.98321629 0.00013183476
0.11226454 0.016053118 -0.25417459 0.19255002 0.027915407 0.98088998 0.00012560221
0.12366109 0.016126927 -0.25631535 0.20823772 0.029321326 0.97763866 0.00013011112
0.13286597 0.011302151 -0.2583001 0.22254759 0.018518848 0.97474587 9.6426294e-05
0.23711507 0.017954597 -0.25289378 -0.85288763 -0.062196422 0.51837653 0.062514015
-0.23632701 0.028725835 -0.25926954 0.88030833 -0.11403958 0.46049118 0.080027945
-0.13257556 0.025310678 -0.25866699 -0.21630508 0.040542696 0.97548372 9.128105e-05
-0.12810424 0.022736195 -0.2575312 -0.21358848 0.035354163 0.97628379 0.0001180066
-0.11528935 0.026584405 -0.25500253 -0.20266242 0.041865766 0.97835332 9.0702779e-05
-0.10749543 0.028026296 -0.25357538 -0.19011943 0.049339216 0.98052037 0.0001585883
-0.097987264 0.025077257 -0.25124511 -0.18564913 0.047212821 0.98148113 0.00014563119
0.099899709 0.026022103 -0.25167844 0.18263271 0.048123073 0.98200279 0.000168762
0.11253957 0.025098002 -0.25444973 0.19849236 0.049159385 0.97886884 0.00013660117
0.12213173 0.028591007 -0.2563363 0.20811975 0.049035236 0.97687346 9.4746516e-05
0.13009998 0.020821968 -0.25794291 0.21543396 0.03634337 0.97584188 8.5525135e-05
0.23874344 0.021510435 -0.25697368 -0.87563598 -0.15062197 0.45888412 0.057099812
-0.23586357 0.035780922 -0.25389972 0.89882666 -0.047890231 0.43568018 0.058499556
-0.13504082 0.038633853 -0.25981033 -0.20811313 0.064704403 0.97596228 0.00017157888
-0.11545074 0.033318523 -0.25531298 -0.19687128 0.061620846 0.97849095 0.0001678636
0.095592245 0.035297297 -0.2515175 0.17647716 0.065982684 0.98209071 0.00018749388
0.1036825 0.031822555 -0.25311708 0.18659601 0.058050469 0.98072016 0.00012594632
0.11312517 0.034492847 -0.25499132 0.19409344 0.063907601 0.97889918 8.3283194e-05
0.1321018 0.035699949 -0.25894964 0.21438359 0.059145555 0.97495717 0.00015758438
0.23704202 0.035645686 -0.25598556 -0.86437786 -0.1195254 0.48843074 0.067590334
-0.23586518 0.043946445 -0.25650591 0.87539428 -0.19378307 0.44286898 0.061090231
-0.13005196 0.040082753 -0.25884467 -0.20660125 0.06555102 0.97622693 0.00011114845
-0.11477622 0.045644745 -0.25608796 -0.19597997 0.079225801 0.97740221 0.00010089041
-0.084813185 0.041032877 -0.25018829 -0.16092637 0.081779987 0.98357242 0.00012216436
0.087169364 0.045255832 -0.25081831 0.16199733 0.085993834 0.98303711 0.00013379
0.093015328 0.047692508 -0.25213253 0.17361176 0.086284965 0.98102695 0.00014090017
0.10311083 0.04408931 -0.2539351 0.18406326 0.075339839 0.98002279 0.00011980695
0.11416908 0.043528337 -0.25582847 0.19655676 0.076518022 0.97750211 0.00011731944
0.12857144 0.048523746 -0.25928822 0.19594741 0.077474296 0.9775492 0.00026333993
0.23484629 0.042028781 -0.25279534 -0.86168069 -0.1321456 0.48994282 0.059613373
-0.10627557 0.052925583 -0.25512871 -0.18586162 0.087884918 0.9786377 9.2898372e-05
-0.094658531 0.054715045 -0.25322932 -0.16949317 0.092034765 0.9812246 0.00010898266
-0.075663745 0.056544445 -0.25025314 -0.14245926 0.10591137 0.98411798 0.00018041322
0.094472252 0.053965818 -0.25311399 0.17047687 0.099223569 0.98035312 0.00010117766
0.10570129 0.053701874 -0.25508451 0.18714783 0.093663171 0.97785628 6.7680827e-05
0.117714 0.056804162 -0.25765398 0.19515656 0.092447527 0.97640532 7.623581e-05
0.23406406 0.055935863 -0.25705281 -0.8762393 -0.22533128 0.42594662 0.052106988
-0.11436232 0.065646335 -0.25783512 -0.18877275 0.1069892 0.97617525 7.5526186e-05
-0.10551375 0.065697812 -0.25614303 -0.17630842 0.11741237 0.97730744 5.5550598e-05
-0.095154464 0.067287549 -0.2547527 -0.16854957 0.11365138 0.97911924 0.00010371044
-0.082103185 0.065690629 -0.25237739 -0.15453444 0.11203025 0.98161519 6.4703323e-05
-0.068769366 0.064542837 -0.25015336 -0.13319756 0.12247928 0.98349237 0.00017294852
0.067617074 0.065486871 -0.25009698 0.13550444 0.12345033 0.98305571 0.0001517916
0.073904812 0.065879554 -0.2509653 0.13974494 0.1222205 0.98261565 0.0001457364
0.093824856 0.063966416 -0.25417027 0.16475424 0.11278887 0.9798646 0.00010922706
0.1015532 0.065524608 -0.25551051 0.1726062 0.11454091 0.97830844 0.00012189225
-0.22771277 0.074114978 -0.25815928 0.89684516 -0.25077063 0.36439374 0.072323404
-0.11497974 0.075423241 -0.25923598 -0.18049806 0.11715259 0.97657347 0.00014435469
-0.07279624 0.070002526 -0.25123608 -0.13355434 0.12933539 0.98256582 0.00013929815
-0.067226864 0.078279331 -0.25183117 -0.12022044 0.14544711 0.98203474 7.8352619e-05
0.057644404 0.078141458 -0.25069082 0.10589502 0.14935361 0.98309702 9.3231705e-05
0.067757063 0.07515841 -0.2513203 0.1295183 0.13531831 0.98230034 0.00018969976
0.077393726 0.076972276 -0.2531907 0.1402581 0.13083939 0.98143202 0.00015136895
0.094516158 0.076089516 -0.2556712 0.15916054 0.1298164 0.97868061 0.00010576611
0.10891862 0.078310877 -0.25850946 0.17496359 0.12642685 0.97642416 8.9387271e-05
0.11417177 0.073313855 -0.2587775 0.18452291 0.11127591 0.97650856 8.1431834e-05
0.2270402 0.075948998 -0.25552708 -0.85355133 -0.2562311 0.45364705 0.061200216
-0.22330172 0.085528567 -0.25565493 0.8158657 -0.36171228 0.45114014 0.06727083
-0.11214262 0.082712591 -0.25975674 -0.16854456 0.1263424 0.9775635 0.00036501439
-0.1052634 0.084568359 -0.25872606 -0.1713887 0.13883495 0.97537214 0.00015404861
-0.090217024 0.089487381 -0.25659639 -0.15306182 0.15133131 0.97656077 0.00021945224
-0.081473961 0.08314798 -0.25458437 -0.14267534 0.14597847 0.97894537 0.00015668762
-0.05293037 0.083506145 -0.25092113 -0.099562228 0.15690298 0.98258269 0.00014835646
-0.045245629 0.085216485 -0.25051793 -0.083653457 0.16447417 0.98282772 8.3344225e-05
0.041674152 0.084596604 -0.25019577 0.084743597 0.16392189 0.98282659 0.00011492722
0.055232905 0.083341554 -0.25118768 0.10213132 0.16007437 0.98180717 7.7685669e-05
0.068832703 0.085034929 -0.25336984 0.12228736 0.1586044 0.97973996 0.00012072724
0.072201408 0.083479643 -0.25356561 0.1358487 0.14673123 0.97980362 0.00011834387
0.084155619 0.085696526 -0.25528619 0.14893687 0.14701802 0.97785652 0.00011565958
0.097743914 0.081751741 -0.25689697 0.16219732 0.13717733 0.97717673 0.00010314018
0.22319755 0.083577894 -0.25277376 -0.7902236 -0.39353034 0.46976641 0.050240215
-0.21786423 0.097688399 -0.25298709 0.76623279 -0.41729525 0.48862255 0.061161503
-0.092825748 0.090893909 -0.25729319 -0.15545726 0.15069143 0.97628129 0.00016332963
-0.083711348 0.097245604 -0.25709629 -0.13646339 0.16588098 0.97665823 5.6196499e-05
-0.07220947 0.095066458 -0.25530672 -0.11915533 0.16997519 0.97821796 4.7702782e-05
-0.06231536 0.09222687 -0.25374004 -0.1092078 0.16885805 0.97957164 5.7128116e-05
-0.051163845 0.09927588 -0.25377697 -0.092276804 0.17904338 0.97950417 7.9395526e-05
-0.033262428 0.094737001 -0.25128734 -0.062632456 0.17696172 0.9822228 0.00016947226
-0.025594503 0.095108122 -0.25086191 -0.048236437 0.1775807 0.98292333 0.00014699016
-0.014654416 0.095041484 -0.250534 -0.022788417 0.17987615 0.98342526 0.00017057448
-0.0053730495 0.097332738 -0.25071016 -0.0086247446 0.18472843 0.98275179 0.0002077253
0.0059791049 0.095099553 -0.25035554 0.01208927 0.17781892 0.98398894 0.00015220832
0.025273789 0.094254598 -0.250653 0.044316117 0.18131334 0.98242635 0.00010722824
0.038683865 0.093522146 -0.25149977 0.063431613 0.17630367 0.98228991 0.00012423909
0.043643389 0.095118433 -0.252235 0.085375816 0.17363085 0.98110306 0.00011585806
0.06884931 0.094814412 -0.25488159 0.11603288 0.16884097 0.97878957 3.452073e-05
0.079335071 0.097414449 -0.25648442 0.13541274 0.16575414 0.97682595 3.3529592e-05
0.085281961 0.092860982 -0.25648624 0.1484696 0.15768619 0.97626424 0.00012462497
0.10707173 0.090469599 -0.25992328 0.16364364 0.14311559 0.97608334 0.00015128136
-0.085965745 0.1018824 -0.25828987 -0.14175572 0.16793662 0.9755525 0.00014208966
-0.061434861 0.10296049 -0.2552506 -0.10543881 0.17971724 0.9780513 0.00014131641
-0.053316757 0.10862189 -0.25556743 -0.091672458 0.18402867 0.97863662 7.1063172e-05
-0.042419005 0.10697533 -0.25448999 -0.077013426 0.18661439 0.97941005 0.00010851498
-0.028693182 0.10352118 -0.25276658 -0.053288564 0.18629605 0.98104745 0.00013563728
-0.0029411269 0.10396989 -0.25194469 -0.0051680715 0.1920556 0.98137045 0.00015900991
0.0074701789 0.10132071 -0.25141484 0.013143557 0.18605471 0.9824515 0.00017510432
0.012310475 0.10498338 -0.25247544 0.02410176 0.18990165 0.98150724 0.00015016005
0.03764984 0.10870862 -0.25444764 0.061087873 0.19167385 0.97955573 5.4484641e-05
0.046199881 0.10818982 -0.2549763 0.082542263 0.1878677 0.97871983 0.0001251997
0.053338267 0.10755514 -0.25538242 0.095593527 0.18353996 0.9783532 3.9543804e-05
0.075470641 0.10837619 -0.25799522 0.11932015 0.17829192 0.97671634 5.1317325e-05
0.085271686 0.10686655 -0.25913092 0.13046904 0.16746671 0.97720665 0.00018929232
0.095682032 0.10227466 -0.25977263 0.14759603 0.15792529 0.97635806 0.00033601088
0.2154386 0.10386831 -0.25712726 -0.7727232 -0.38099214 0.50768477 0.054883387
-0.21079059 0.11583342 -0.25778499 0.74475217 -0.34337601 0.57222122 0.083946906
-0.20925099 0.11578216 -0.25354165 0.72489029 -0.38821489 0.56905484 0.072900951
-0.075405687 0.11492962 -0.25922397 -0.11935296 0.17156015 0.97791719 0.00016035308
-0.069228373 0.11870647 -0.25904199 -0.10628133 0.17781493 0.97830778 0.00026110761
-0.05251608 0.11324778 -0.25634885 -0.087969743 0.19221444 0.97740215 6.3780652e-05
-0.041505866 0.11239649 -0.25537193 -0.069405735 0.19547887 0.97824889 0.00018751773
-0.034458242 0.11491126 -0.25530118 -0.061003201 0.19706003 0.9784916 0.00010709019
-0.012162965 0.11481582 -0.25455737 -0.024371414 0.20155939 0.97917306 3.6053334e-05
0.0046747406 0.11487107 -0.25438267 0.012948186 0.19942178 0.97982824 5.1678238e-05
0.018400468 0.11145096 -0.25407991 0.036363937 0.19421928 0.98028386 6.494172e-05
0.02919724 0.11792794 -0.25556228 0.051116399 0.20227401 0.97799402 9.9351746e-05
0.032051325 0.11276016 -0.25475061 0.054217033 0.19580886 0.97914219 8.9987938e-05
0.048592694 0.11033025 -0.25552395 0.087313309 0.19088328 0.97772181 4.1075924e-05
0.053335041 0.11406533 -0.25653502 0.088591129 0.19550651 0.9766928 7.6220298e-05
-0.2023403 0.12917554 -0.25363523 0.7554217 -0.49269676 0.43195814 0.055334713
-0.044335186 0.12530595 -0.25818801 -0.075846061 0.20419188 0.97598827 0.00010757538
-0.024548363 0.12170094 -0.25615555 -0.045670055 0.20542789 0.97760606 5.0645398e-05
-0.01327836 0.1211927 -0.25578174 -0.024132753 0.2092734 0.97755933 7.1615301e-05
0.0015453452 0.1224704 -0.25573164 0.0019472598 0.21255927 0.97714627 5.0677834e-05
0.018574268 0.12313396 -0.25627691 0.034020223 0.21026509 0.97705227 0.00012122747
0.026424292 0.12473041 -0.2568492 0.048318118 0.21016937 0.97647029 0.00010735204
0.039178748 0.12094062 -0.25675756 0.067208089 0.20663895 0.97610629 9.6591466e-05
0.055432633 0.12561361 -0.25926715 0.084092155 0.19895823 0.9763934 9.6324191e-05
0.20454046 0.12595333 -0.25455946 -0.74721545 -0.42129713 0.51398224 0.062756784
-0.19904205 0.13273895 -0.25830364 0.70485944 -0.51628572 0.48643839 0.056048431
-0.033632077 0.13358057 -0.2591629 -0.043405559 0.20541835 0.9777112 0.00018094797
-0.024265103 0.1336966 -0.25889912 -0.039596405 0.21661901 0.9754529 0.00010798093
-0.014184398 0.13933331 -0.25991672 -0.015720708 0.20786607 0.97803092 0.00036008577
0.0074916505 0.13301614 -0.25821716 0.014679718 0.21705954 0.97604793 9.119873e-05
0.01411535 0.13177183 -0.25812927 0.022480298 0.21731456 0.97584277 0.00011206758
0.031486448 0.1343388 -0.25927526 0.050233334 0.21199907 0.97597802 0.0001403169
0.043144498 0.13210869 -0.25957629 0.067794792 0.20797999 0.97578079 0.00011840236
0.19771598 0.13342369 -0.25433701 -0.7383365 -0.50122589 0.45125571 0.079968736
0.20151624 0.13099161 -0.25630075 -0.73598742 -0.47042653 0.48684847 0.07373707
-0.1861331 0.14868975 -0.25907823 0.69482076 -0.56000012 0.45124716 0.063096635
0.1864337 0.146162 -0.25129098 -0.62236404 -0.59554702 0.50792396 0.058270656
0.19275603 0.14083527 -0.25838864 -0.61199057 -0.58524168 0.53193951 0.080141202
-0.17839473 0.1593982 -0.25620943 0.72481722 -0.49968022 0.4742991 0.064373769
0.18227105 0.15485084 -0.25756404 -0.57856876 -0.60317916 0.54902923 0.059026171
-0.17360687 0.16459727 -0.25401247 0.72605687 -0.51131451 0.45978132 0.064202331
0.17236042 0.16295272 -0.25039104 -0.64007467 -0.53402466 0.55237859 0.044945151
-0.16501963 0.17494737 -0.25622496 0.66096109 -0.61730725 0.42668748 0.054220531
-0.15778056 0.17749862 -0.25127587 0.55397737 -0.68639112 0.47114366 0.051376559
0.1576566 0.17663442 -0.25055 -0.5903753 -0.64408517 0.48642704 0.046605323
0.16336964 0.17663777 -0.25435835 -0.58670384 -0.65667629 0.47387227 0.04833363
-0.15343297 0.18243416 -0.25248617 0.53178751 -0.67919761 0.50585842 0.070718564
-0.14543605 0.18834913 -0.25572035 0.55867767 -0.64804596 0.51760584 0.089240156
0.15560108 0.18174137 -0.25336462 -0.58149272 -0.62973416 0.51507378 0.051410355
-0.14117499 0.1919331 -0.25658831 0.49962583 -0.67941552 0.53737199 0.072769254
-0.13267085 0.19733289 -0.25511289 0.5214535 -0.67754537 0.51867002 0.064851508
0.13563567 0.19718252 -0.25635999 -0.56378263 -0.72437316 0.39677781 0.06351345
-0.13009763 0.20211649 -0.25672761 0.57551551 -0.70225847 0.41906449 0.062474098
-0.12114479 0.20709608 -0.25565085 0.4215818 -0.75913656 0.49596414 0.094733529
-0.11618611 0.20809056 -0.25112647 0.35231423 -0.75863087 0.5480454 0.073484585
0.11933731 0.20712982 -0.25143012 -0.47167617 -0.72031116 0.50859958 0.081095926
