# .PCD v0.7 - Point Cloud Data file format
VERSION 0.7
FIELDS x y z normal_x normal_y normal_z curvature
SIZE 4 4 4 4 4 4 4
TYPE F F F F F F F
COUNT 1 1 1 1 1 1 1
WIDTH 584
HEIGHT 1
VIEWPOINT 0 0 0 1 0 0 0
POINTS 584
DATA ascii
0.14489917 0.37786892 -0.018460933 -0.11418369 -0.70023555 0.70472151 0.16773421
0.15454701 0.37801757 -0.015452662 -0.21131085 -0.62977284 0.74748498 0.15802836
0.16679189 0.3745113 -0.015093781 -0.37215674 -0.63653451 0.67551714 0.17156067
0.17329425 0.37381181 -0.012671685 -0.40323791 -0.5607444 0.72316313 0.17877701
-0.15431611 0.38324016 -0.010580413 0.19642955 -0.72447443 0.66072106 0.16394858
-0.14523657 0.38524133 -0.013046734 0.1674974 -0.71270776 0.68116975 0.1467135
-0.13502744 0.38613692 -0.015144245 0.15520678 -0.71202767 0.68478274 0.15742025
-0.12698598 0.38391247 -0.019413345 0.2313869 -0.77538282 0.58757269 0.18275146
-0.11722674 0.3891969 -0.016461857 0.083685718 -0.7254613 0.68315637 0.19223674
-0.056616865 0.38221467 -0.010493666 0.13291138 -0.60964829 0.78144962 0.17224187
-0.034803465 0.3841466 -0.012665366 0.20248196 -0.63851774 0.74249321 0.19254816
-0.026204349 0.38436773 -0.012199882 0.010595968 -0.75783151 0.65236419 0.19281116
-0.01595748 0.38413835 -0.012076093 -0.046016145 -0.70905721 0.70364785 0.18887727
-0.0026591811 0.38214731 -0.013539067 -0.013668825 -0.68112308 0.73204124 0.18779863
0.0012415834 0.38351256 -0.012157938 -0.094015613 -0.69120133 0.71652055 0.17116959
0.017140968 0.38284597 -0.012261725 -0.067607261 -0.73003376 0.68005878 0.17024748
0.023005279 0.38162073 -0.013247251 -0.028590664 -0.6725769 0.73947471 0.15594596
0.03784661 0.38154748 -0.012864634 0.044339787 -0.70357323 0.70923805 0.16758277
0.047782697 0.38120109 -0.012883481 0.056421198 -0.65601182 0.75263888 0.18099049
0.050872941 0.38009885 -0.013809157 0.049966604 -0.6282348 0.77641773 0.18125847
0.069005191 0.38152695 -0.010460667 -0.13107897 -0.65258753 0.74628931 0.17915681
0.10842202 0.3891007 -0.01830329 -0.13565552 -0.76155812 0.63374037 0.1917568
0.1145148 0.38589108 -0.019614652 -0.26084781 -0.73379773 0.62729532 0.16984077
0.12517211 0.38790202 -0.014256914 -0.14395133 -0.73636913 0.66108894 0.16376658
0.14346716 0.38442677 -0.012012074 -0.1618278 -0.65917659 0.73436916 0.16258287
0.15415081 0.38157594 -0.01157073 -0.24517462 -0.67149335 0.69927543 0.16865571
-0.11511861 0.3911517 -0.014901751 0.14447489 -0.71336848 0.68573493 0.21245497
-0.10465747 0.39272866 -0.015598391 0.11063104 -0.69624829 0.70922428 0.16301928
-0.091922812 0.3930755 -0.018442295 0.20619307 -0.68963015 0.69418639 0.18110271
-0.083507687 0.39553991 -0.017949082 0.36561608 -0.65554446 0.66074687 0.18470098
-0.076243147 0.39669204 -0.018479798 0.3760041 -0.6051625 0.70171171 0.18744415
-0.068373509 0.39814305 -0.018855687 0.28002363 -0.7648918 0.58010972 0.19464062
0.088608891 0.39729708 -0.016198313 -0.12564167 -0.63662803 0.7608673 0.17671826
0.095817856 0.39493942 -0.016208399 -0.029968929 -0.673114 0.73893124 0.19196871
0.10271385 0.39479595 -0.014168851 -0.10011708 -0.65424222 0.74962902 0.18454714
0.11196031 0.39353895 -0.012517787 -0.39079466 -0.65202361 0.64972675 0.17374232
-0.072172463 0.40280986 -0.013008117 0.23534913 -0.63555104 0.7353133 0.19266637
-0.068836525 0.40218151 -0.01462371 0.19776964 -0.54218709 0.81665188 0.19415902
-0.0576142 0.40402672 -0.01549094 -0.017906616 -0.72543991 0.68805254 0.18777277
-0.047311973 0.40555835 -0.016363429 0.1918422 -0.74078071 0.64377058 0.16207893
-0.036519907 0.4078362 -0.01556876 0.12379733 -0.727117 0.67525929 0.17021756
-0.025045749 0.40609747 -0.017055631 -0.079768911 -0.74380004 0.66362524 0.16555555
-0.016412593 0.40289754 -0.019991033 -0.21738929 -0.74727994 0.62794477 0.18878545
-0.0084413979 0.40890941 -0.013320586 -0.18420455 -0.73292196 0.65490013 0.18844524
0.003561557 0.40587401 -0.016167138 -0.089207716 -0.59673804 0.79746199 0.18487969
0.014070504 0.40585244 -0.01591922 0.084281594 -0.6354937 0.76749223 0.18828127
0.024417769 0.40176526 -0.019782329 -0.10348735 -0.71392858 0.69252896 0.17776254
0.036312856 0.40563381 -0.015254948 0.056313694 -0.59754729 0.79985374 0.16647805
0.042379737 0.40404093 -0.016869919 0.21315317 -0.63902861 0.73905891 0.19067161
0.055632133 0.40462869 -0.015649889 0.21288042 -0.72219634 0.65811425 0.15718408
0.065910786 0.40288201 -0.017073873 -0.10184721 -0.77902311 0.61866802 0.17784099
0.075575627 0.40673706 -0.010081221 -0.14181015 -0.78465676 0.6034928 0.16504879
-0.047054015 0.41099742 -0.010327652 -0.011846659 -0.76322943 0.64601886 0.16085359
-0.026335403 0.41205281 -0.01030609 -0.013962296 -0.70834172 0.70573163 0.17603025
-0.0040300619 0.41021502 -0.011610239 0.090313472 -0.63185042 0.76981068 0.18629849
0.017467277 -0.42015445 -0.00040898286 0.13469684 0.64875227 0.74898422 0.17793363
0.028604593 -0.42035535 -0.00060300902 0.020451497 0.69355416 0.72011417 0.1889275
0.043891229 -0.42002386 -0.0008025649 -0.22413824 0.64805371 0.72786564 0.17749788
-0.088777117 -0.4115997 -6.8296678e-05 0.16069528 0.7260766 0.66857302 0.15347068
-0.076040938 -0.41137165 -0.0046890662 0.021329459 0.7212584 0.69233757 0.176108
-0.064637996 -0.41564879 -0.0025454944 -0.082716651 0.58399004 0.80753559 0.13922516
-0.054926801 -0.41414255 -0.0046974644 0.066113576 0.60445702 0.79388964 0.1471837
-0.045110229 -0.41651458 -0.002280097 -0.076432943 0.61177689 0.78732908 0.14957249
-0.032455742 -0.41173083 -0.0084110303 0.019842807 0.65224183 0.75775123 0.1855288
-0.025250878 -0.41525322 -0.0045359358 -0.058413666 0.70882338 0.70296311 0.18008816
-0.017822595 -0.41495314 -0.0051772501 0.032992367 0.65317136 0.75649101 0.19021843
-0.0049754819 -0.41655722 -0.0037827145 -0.067923628 0.74274623 0.66611892 0.17829902
0.00086292066 -0.41989949 -6.7177694e-05 -0.061625227 0.80828679 0.58555502 0.1714009
0.017326824 -0.41512242 -0.0063376389 -0.044738639 0.80775619 0.5878166 0.19801661
0.026306547 -0.41676697 -0.0047457605 0.062101573 0.71421665 0.6971643 0.21260324
0.032584693 -0.41693038 -0.0047959723 0.12645519 0.78402883 0.60770708 0.19384477
0.047357541 -0.41316018 -0.0077611431 -0.18474247 0.77976501 0.59819466 0.18398631
0.056152683 -0.41430131 -0.0040942095 -0.16165911 0.71584803 0.67928481 0.18467632
0.0632037 -0.41319576 -0.0034760034 0.033749614 0.67212492 0.73966825 0.18245547
0.070178375 -0.41149262 -0.0035649622 -0.1195906 0.72077966 0.68276995 0.16104369
0.087941051 -0.41030431 -0.00017283997 -0.10705604 0.84485579 0.52417326 0.16196783
-0.11539023 -0.40165606 -0.0021778976 0.33248645 0.67065716 0.66307747 0.15062787
-0.1049106 -0.40350547 -0.0036800269 0.36021289 0.63972914 0.67896497 0.1551078
-0.094590008 -0.40526915 -0.0052244514 0.18433319 0.62828779 0.75582784 0.16232333
-0.085270867 -0.40805972 -0.0052663824 0.20493703 0.58441126 0.78515238 0.17464778
-0.072680973 -0.40881947 -0.0087217288 0.11727975 0.64047527 0.75897092 0.1678361
0.073203422 -0.4079566 -0.0068179243 -0.053821832 0.81802803 0.57265455 0.15841417
0.086558908 -0.40548483 -0.0060810931 -0.050842334 0.72029197 0.69180524 0.17196962
0.093823232 -0.40583268 -0.0037356783 -0.24594168 0.66992056 0.70051336 0.17760819
0.1042284 -0.40566844 -0.0011375109 -0.23850006 0.66733176 0.70553952 0.18769605
0.11631212 -0.40159211 -0.0025850849 -0.26831222 0.66674656 0.69531107 0.1877223
-0.15387484 -0.39088768 -0.001151687 0.1281486 0.7197448 0.68230879 0.18812914
-0.14027606 -0.39440393 -0.0018404415 0.19931124 0.66372108 0.72093648 0.1660044
-0.13119933 -0.39857665 -0.0002387641 0.16100956 0.67807281 0.7171424 0.16784011
-0.12383308 -0.3957957 -0.0059021842 0.18142106 0.66754079 0.72213274 0.16790977
-0.11505646 -0.39639345 -0.008234119 0.16327925 0.60476607 0.7794857 0.19614521
-0.05520631 -0.39147985 -0.0017638515 0.13067527 0.62167531 0.77229774 0.17049548
-0.036522381 -0.39358953 -0.00012814812 0.015401299 0.63907677 0.76898879 0.17925718
-0.024904115 -0.3915382 -0.0027866622 -0.15904196 0.73610115 0.65792155 0.16857925
-0.016563226 -0.39298451 -0.00150507 0.14175804 0.70347196 0.69644237 0.16535182
-0.0055646575 -0.39201522 -0.0029587951 0.043480303 0.70768064 0.70519334 0.15194073
0.0075692479 -0.3900547 -0.0055724415 0.02253654 0.75594395 0.65424824 0.16924793
0.023383655 -0.3945854 -0.0011879364 0.079796471 0.75058728 0.65593535 0.17966717
0.035328191 -0.39281416 -0.0035520419 -0.11906236 0.69761103 0.7065146 0.20435318
0.050840661 -0.39199907 -0.0015158365 -0.0035276022 0.68889707 0.72485059 0.1578933
0.099312045 -0.39959469 -0.0094336057 -0.22054484 0.70745558 0.67146593 0.16601887
0.1199827 -0.39576361 -0.0082994271 -0.35769236 0.76435846 0.53648156 0.17582925
0.12332273 -0.39711261 -0.0058546825 -0.27275744 0.71167868 0.64739227 0.16703577
0.13295159 -0.39603245 -0.004516881 -0.15926263 0.72199237 0.67332184 0.16699304
0.14627816 -0.39357468 -0.0037716869 -0.13134532 0.65883309 0.7407344 0.16497104
0.15353827 -0.39234039 -0.001543148 -0.25333655 0.62087899 0.74184233 0.16744563
-0.17610858 -0.38058171 -0.004150914 0.35686943 0.62680447 0.69264728 0.17485037
-0.16479063 -0.38425511 -0.0049006585 0.28493237 0.62148082 0.72977746 0.16161783
-0.15454432 -0.38664109 -0.0057170354 0.12308911 0.6688351 0.73314983 0.1838287
-0.14510882 -0.38666314 -0.0089246565 0.18224174 0.71182835 0.67829812 0.19678985
-0.13761741 -0.38972634 -0.0080325734 0.20011522 0.69932157 0.68622386 0.182779
-0.094154641 -0.38042337 -0.0036305049 0.31429702 0.60234624 0.73375493 0.17305036
-0.084166005 -0.38073266 -0.0064782579 0.17345484 0.67697775 0.71527225 0.18737236
-0.073363736 -0.38648728 -0.0038864713 0.11200664 0.66214734 0.74095565 0.18171258
-0.063168824 -0.38791543 -0.0053738458 0.10082187 0.65910488 0.74526215 0.18496087
-0.054408468 -0.38714194 -0.0065333527 0.032252457 0.71087295 0.70258051 0.16755334
-0.043045625 -0.38748536 -0.0065654977 -0.043229837 0.62427855 0.78000474 0.16284834
-0.036415841 -0.38612986 -0.0082846843 -0.02103227 0.79566193 0.60537571 0.16617018
-0.025039254 -0.38673165 -0.008034911 0.0087584537 0.63498533 0.77247453 0.17695867
-0.01691325 -0.38711691 -0.0079052486 0.032463998 0.62518239 0.77980322 0.17928006
-0.0082104877 -0.38896629 -0.0061961152 0.065906495 0.73258007 0.67748272 0.16883579
0.022538312 -0.38841578 -0.0079004141 -0.088969827 0.71633601 0.69206011 0.18445776
0.031073492 -0.38852251 -0.0080898358 0.0059407009 0.72839457 0.68513209 0.18813787
0.049719676 -0.38996488 -0.0039603612 -0.079706065 0.68167579 0.72729993 0.15773405
0.05440012 -0.38739574 -0.0055345539 -0.072506741 0.65389884 0.75309968 0.17192192
0.06575378 -0.38512084 -0.0051388838 0.048292954 0.67014879 0.74065405 0.15176906
0.078906827 -0.38520831 -0.0017807833 -0.13347733 0.71102458 0.6903823 0.17855088
0.083396152 -0.38067037 -0.0054990854 -0.41610244 0.48897696 0.76665539 0.16597047
0.092583671 -0.38314137 -0.0005869912 -0.40828854 0.60311258 0.68524134 0.16683407
0.10000873 -0.38051951 -0.0015360396 -0.074271724 0.76242697 0.64279765 0.19477873
0.15642586 -0.38663024 -0.0058793747 -0.17274761 0.6339981 0.75379354 0.1832764
0.16465123 -0.38503847 -0.0029614761 -0.31681168 0.70554632 0.6339044 0.16290687
0.17569132 -0.38032258 -0.001729259 -0.31045994 0.69881833 0.64441252 0.16562836
-0.18590045 -0.37446007 -0.0041826773 0.47360688 0.59046084 0.65349257 0.17215164
-0.17140938 -0.37996086 -0.0074816458 0.3823851 0.56212801 0.73334426 0.1625344
-0.13194463 -0.37025675 -0.0022702822 0.18244477 0.72418052 0.66503876 0.1877299
-0.12549365 -0.37288505 -0.0015682755 0.13685022 0.76390469 0.63065177 0.19550489
-0.11259073 -0.37283829 -0.0057138838 0.21688755 0.74366099 0.63239866 0.16466412
-0.1051927 -0.37501073 -0.0057895929 0.11690734 0.65680242 0.74494517 0.17455848
-0.097072922 -0.37607804 -0.0072507821 0.31483313 0.68096042 0.66119063 0.17760229
-0.085574627 -0.37990087 -0.0069014216 0.32430145 0.54030436 0.77646625 0.20214967
0.088914469 -0.37774125 -0.0072486382 -0.25508127 0.5791325 0.77429903 0.18776201
0.097195178 -0.37561917 -0.0074530379 -0.054539274 0.77048028 0.63512641 0.2012845
0.10415917 -0.37886354 -0.0022693241 -0.10721692 0.7523132 0.65002263 0.18332183
0.11694223 -0.37610832 -0.0020303798 -0.15053941 0.86609578 0.47667176 0.18812717
0.1261304 -0.37233913 -0.0037635707 -0.23206964 0.78872919 0.56925392 0.17670536
0.13464734 -0.37182122 -0.0022010219 -0.3485795 0.75090247 0.5609259 0.19099988
0.16688457 -0.37935215 -0.0076367613 -0.42774546 0.64117801 0.63712221 0.15954694
0.17936842 -0.37517941 -0.0050364174 -0.28631341 0.58878005 0.75588536 0.17403689
0.18698518 -0.37230575 -0.0037909746 -0.25169879 0.58017719 0.77462393 0.18841301
0.19150577 -0.37106273 -0.0025704727 -0.3120732 0.6242699 0.71616846 0.18076277
-0.20650682 -0.36243656 -0.0033886146 0.32992569 0.77123547 0.54437566 0.16331887
-0.19613472 -0.36767846 -0.0045999233 0.4173075 0.67378694 0.60980791 0.17523365
-0.15424599 -0.36209643 -0.0037284382 0.2187331 0.55908811 0.79973507 0.18517584
-0.14383706 -0.36579514 -0.0031629824 0.17702715 0.63717598 0.75011206 0.18233491
-0.13900395 -0.36380243 -0.0067826207 0.2001638 0.65446907 0.72911227 0.17991002
-0.11984184 -0.36780876 -0.0086744661 0.16464126 0.6679979 0.72572166 0.17779294
0.12711294 -0.36831868 -0.0078012529 -0.49606642 0.68067896 0.53906786 0.17789446
0.13543633 -0.36860222 -0.0054245833 -0.36909413 0.75433654 0.54290509 0.17574117
0.14404307 -0.36425197 -0.0060649379 -0.23786077 0.6626423 0.71016014 0.1879565
0.15522519 -0.36193633 -0.0025349343 -0.22832143 0.74360985 0.62842166 0.16997659
0.16085728 -0.36006626 -0.0014356906 -0.30955875 0.69293815 0.65116054 0.18863402
0.18684171 -0.36779776 -0.0085618114 -0.29463309 0.7097255 0.63990706 0.19872351
0.19509101 -0.36742377 -0.0043634144 -0.38267455 0.48454031 0.78662634 0.18233797
0.20241293 -0.36497551 -0.002839173 -0.42476755 0.6146118 0.6646992 0.18367121
-0.22062507 -0.3529337 -0.004112104 0.2823334 0.72381574 0.62958604 0.15805577
-0.2167412 -0.35490429 -0.0045578917 0.3530784 0.69701719 0.62410158 0.14163664
-0.17394418 -0.35507464 -0.001433738 0.33271253 0.68378621 0.64941424 0.17630738
-0.16511782 -0.35653973 -0.0051706396 0.27421474 0.68473947 0.67523187 0.18054585
-0.15537433 -0.35863805 -0.0069889068 0.31193626 0.57057208 0.7596994 0.17852215
0.16529006 -0.35447556 -0.0045428206 -0.37008569 0.68988818 0.62216634 0.19706824
0.17721897 -0.35190836 -0.00087050977 -0.33040717 0.68713468 0.64705253 0.2098771
0.20655635 -0.35875839 -0.00700462 -0.50132322 0.58170754 0.64053988 0.15407212
0.21700408 -0.35676676 -0.0032669227 -0.38482732 0.50808537 0.77055645 0.18027017
0.22350822 -0.35491586 -0.001575922 -0.31739193 0.7397052 0.5933789 0.19700101
0.23258573 -0.35058016 -0.0010395036 -0.25767472 0.67523324 0.69113219 0.18409932
-0.24228229 -0.34270811 -0.00086193159 0.50013328 0.50960416 0.70012164 0.17216843
-0.23605134 -0.34576321 -0.0016837073 0.52284992 0.52327764 0.67291039 0.16554745
-0.22522137 -0.34639642 -0.0077978522 0.49636471 0.55639541 0.66636801 0.16138753
-0.1878608 -0.34261891 -0.004962632 0.22634493 0.6512152 0.72435266 0.18060587
-0.17845671 -0.3466275 -0.0066713314 0.18270566 0.64292115 0.74382186 0.1636204
0.16832253 -0.34972596 -0.0075604301 -0.27851638 0.70697528 0.65008807 0.19226763
0.17911613 -0.34524345 -0.0063204099 -0.47829211 0.56469768 0.67257202 0.18463412
0.18562217 -0.34306082 -0.0050721853 -0.4297387 0.44524273 0.78554666 0.17369346
0.22348171 -0.34826273 -0.0085140178 -0.29284459 0.60419238 0.74107605 0.16758724
0.23495492 -0.34451932 -0.0060289619 -0.43826425 0.5735606 0.69206405 0.19823767
0.24471836 -0.34187606 -0.0030307416 -0.40254554 0.5496093 0.73204279 0.19595921
-0.25419068 -0.33318558 -0.0029821664 0.46968287 0.5793162 0.66617626 0.16581775
-0.24487585 -0.33523312 -0.0067351777 0.51392561 0.59587884 0.61709726 0.19760306
-0.23507392 -0.33896524 -0.0091038346 0.43140969 0.60919368 0.66540879 0.17629452
-0.19718748 -0.33365396 -0.007900808 0.31296903 0.65558106 0.68721455 0.19053783
0.19802329 -0.3352136 -0.0062486217 -0.43479121 0.60695678 0.66525185 0.16915403
0.20444351 -0.33362341 -0.0044732527 -0.30697507 0.68854362 0.65701908 0.14938594
0.24890296 -0.33576941 -0.0052913404 -0.49078891 0.46003994 0.73992527 0.16703263
0.25179347 -0.33438945 -0.004148596 -0.49853423 0.59736204 0.62818962 0.17894137
-0.27217531 -0.32244241 -0.00075021031 0.62271816 0.60069019 0.50139153 0.18143196
-0.25730836 -0.32790953 -0.0063256668 0.34672377 0.59693921 0.72349578 0.16796
-0.22203711 -0.32214263 -0.0042388793 0.41243261 0.61658555 0.67061281 0.17605537
-0.21861349 -0.32364264 -0.0048231962 0.42528728 0.56566989 0.70650434 0.17697684
-0.20767528 -0.32803878 -0.007058036 0.36773878 0.59463483 0.71496683 0.18699642
0.20454165 -0.32947564 -0.0084228637 -0.26267394 0.57154238 0.77739412 0.16332538
0.21498431 -0.32693762 -0.0054884581 -0.38163313 0.50112295 0.77668011 0.17494014
0.22419116 -0.32231683 -0.0051996466 -0.31250685 0.52151465 0.79395336 0.18252271
0.26434332 -0.3244122 -0.0026197149 -0.42900699 0.57160044 0.69944686 0.17559016
0.2700786 -0.32093811 -0.00098618725 -0.42459124 0.65770721 0.62220854 0.16693352
-0.27580449 -0.31337592 -0.004936866 0.67060387 0.4852165 0.56111979 0.18308897
-0.23547754 -0.31224525 -0.0056671728 0.27395365 0.56288087 0.77981699 0.1843655
-0.22649537 -0.3184022 -0.0051374016 0.5377754 0.45757341 0.70811319 0.16160338
0.22518866 -0.31859088 -0.0082788561 -0.39303192 0.48605701 0.78056031 0.17470339
0.23475024 -0.31361312 -0.005818571 -0.6036976 0.426718 0.67339516 0.19110686
0.27474886 -0.31553009 -0.0018770676 -0.58262908 0.5772205 0.57215369 0.16497883
-0.28538156 -0.3058311 -0.0027738044 0.61355776 0.54505575 0.5713678 0.18375982
-0.27918813 -0.30621535 -0.0077978289 0.62263846 0.66098183 0.41883695 0.15659752
-0.24674451 -0.30612496 -0.0048434543 0.36379701 0.58606648 0.72400129 0.1815666
0.23845908 -0.30711272 -0.0082347561 -0.4357259 0.58246696 0.68620342 0.16596811
0.24338955 -0.3075968 -0.0041631558 -0.51641566 0.52942628 0.6730696 0.17531361
0.25009108 -0.30323389 -0.0026364119 -0.39293015 0.64190239 0.65845829 0.1601409
0.27580884 -0.30673301 -0.0085984617 -0.62179917 0.50611186 0.59767592 0.17184313
0.28577179 -0.30653936 -0.00073007983 -0.65231574 0.35828176 0.66792083 0.16548912
0.29020807 -0.30150235 -0.0014901729 -0.59327281 0.55449599 0.58357656 0.16260773
-0.29538262 -0.29416922 -0.0035660095 0.63714319 0.43451715 0.63658726 0.17675008
-0.28833634 -0.29613352 -0.0080501931 0.6494481 0.59737331 0.47049165 0.16754775
-0.2642796 -0.29210249 -0.0023268596 0.57191837 0.41724047 0.70627171 0.19680274
-0.25871906 -0.290582 -0.0079015289 0.51898879 0.47787663 0.70872033 0.2013714
0.25467715 -0.29238972 -0.0078639146 -0.37854806 0.59970999 0.70501721 0.17520374
0.29312325 -0.29716429 -0.0028751446 -0.65892798 0.48486423 0.5750832 0.16699971
-0.31102541 -0.28161094 -0.00022234616 0.58280188 0.60054761 0.54743457 0.19685037
-0.29859215 -0.28508002 -0.0081323488 0.62728959 0.54675806 0.55458397 0.15563448
-0.27279654 -0.28372464 -0.0017909935 0.63675231 0.42370164 0.64422309 0.18533885
-0.26672295 -0.28519076 -0.0055428189 0.55010653 0.38346416 0.74184769 0.18036851
0.26653194 -0.28657278 -0.0036459744 -0.54094893 0.47163573 0.69637197 0.1890597
0.27205539 -0.28456125 -0.0011229935 -0.62626088 0.37617758 0.68285257 0.17802578
0.29796162 -0.28494868 -0.0094933324 -0.56379968 0.72577178 0.39418936 0.17213742
0.30511543 -0.2815212 -0.0066756085 -0.48990169 0.59630084 0.63594162 0.19550759
0.31215045 -0.28158778 -0.00094447844 -0.51888037 0.45748201 0.72213113 0.20346425
-0.31265944 -0.27552819 -0.0037208737 0.48781368 0.70375949 0.51648855 0.16407855
-0.30501622 -0.27759179 -0.0086391 0.62358749 0.52435076 0.57982326 0.18088439
-0.27389705 -0.27465641 -0.0076905852 0.61262274 0.39549261 0.68430912 0.18833901
0.26850212 -0.27698952 -0.0098222699 -0.54869837 0.43379843 0.71466708 0.17276837
0.27563912 -0.27683118 -0.0046141683 -0.52129602 0.39006773 0.75901091 0.15071796
0.28527358 -0.27172577 -0.0014878492 -0.46874261 0.58843839 0.65880245 0.17317829
0.3198722 -0.27373397 -0.00148074 -0.53922564 0.47700819 0.69404531 0.18027276
0.32004237 -0.27123564 -0.0034951251 -0.54494232 0.5750764 0.61018449 0.18536021
-0.32124868 -0.2693899 -0.0012741692 0.58663493 0.52761179 0.61439824 0.18218179
-0.31572348 -0.26926818 -0.0061307391 0.62864316 0.49002707 0.60388851 0.18254846
-0.28496695 -0.26703796 -0.0045494619 0.56185645 0.34664989 0.7511 0.17126133
-0.2790488 -0.26752707 -0.008907455 0.44999787 0.50364465 0.73745775 0.1803534
0.2792829 -0.26904225 -0.0081074154 -0.44514593 0.49408251 0.74681163 0.15597421
0.29581422 -0.263004 -0.00057063723 -0.49020189 0.59465885 0.63724637 0.19301385
0.31676823 -0.26951945 -0.0076137753 -0.56151116 0.49881056 0.66022217 0.19683276
0.32511848 -0.26550213 -0.0037865702 -0.59893596 0.41127127 0.68711835 0.1817704
-0.33120558 -0.25793061 -0.0019410008 0.63592738 0.35053763 0.68754619 0.17929317
-0.32775649 -0.2571747 -0.0055211042 0.57951242 0.38157889 0.7201131 0.18346448
-0.29381809 -0.25510564 -0.0064035878 0.39055306 0.50497311 0.76972097 0.16646574
0.28982395 -0.25831673 -0.0087892311 -0.50649989 0.39419153 0.7668578 0.18129522
0.29566944 -0.25498575 -0.00707867 -0.57282329 0.48586226 0.66016012 0.16439207
0.30323443 -0.25390831 -0.0022490944 -0.46275991 0.50802708 0.72647202 0.17917202
0.32953417 -0.25252533 -0.0076783565 -0.5666551 0.42337376 0.706864 0.17478351
0.3343015 -0.25189215 -0.0032964044 -0.68665993 0.40956953 0.6006254 0.18001929
-0.34100664 -0.24462026 -0.0042349547 0.42278382 0.49714026 0.75769746 0.16245598
-0.31260872 -0.24302027 -0.0004388853 0.6122489 0.45439067 0.64705515 0.1701785
-0.30348429 -0.24562886 -0.0057718214 0.59512097 0.41306859 0.6893515 0.15991127
0.30593795 -0.24756192 -0.0045450116 -0.51479852 0.42508182 0.74450523 0.18827192
0.31346038 -0.24138561 -0.0011268985 -0.62324107 0.33822787 0.70510447 0.16815154
0.33584794 -0.24476293 -0.006189514 -0.63754743 0.44119558 0.63156927 0.18586572
-0.3443847 -0.2348932 -0.0062034056 0.44312456 0.46424985 0.76688504 0.15986456
-0.31508347 -0.23333114 -0.0057057231 0.58769107 0.53406894 0.60777426 0.17471677
-0.30890012 -0.23512405 -0.0093008922 0.56656832 0.51407987 0.64398938 0.17490186
0.31574646 -0.23441933 -0.0030272275 -0.59937817 0.55528569 0.57654452 0.17270592
0.34461036 -0.23396224 -0.0041405465 -0.58124375 0.51102054 0.63325655 0.16813278
-0.352395 -0.22469594 -0.0035386726 0.54389888 0.33509016 0.76934308 0.17095371
-0.3475439 -0.22615325 -0.0077763358 0.59282738 0.505198 0.62716079 0.16274603
-0.32063824 -0.22465956 -0.0065770359 0.57255507 0.5509845 0.60712165 0.18645968
-0.31887779 -0.22776851 -0.0066724936 0.53273547 0.56790674 0.62743509 0.17045783
0.317837 -0.22576249 -0.006085421 -0.60580659 0.41701716 0.67756557 0.18310049
0.32226044 -0.22389871 -0.003054406 -0.61403048 0.43079877 0.66134626 0.17493273
0.34562305 -0.22839284 -0.0065964609 -0.59641558 0.45621496 0.66042131 0.15994841
0.35280529 -0.2213562 -0.0037851792 -0.64954287 0.51346642 0.56075519 0.17041653
-0.35496953 -0.21716501 -0.0050476436 0.67260939 0.43716815 0.59705997 0.17900038
-0.32918239 -0.21154599 -0.0050956788 0.54453266 0.30434445 0.78157443 0.17661725
0.32475278 -0.21665069 -0.0049258959 -0.43512633 0.63482225 0.6384871 0.17024621
0.33169132 -0.21192689 -0.0012111011 -0.63434887 0.53785938 0.55525559 0.18028408
0.3479616 -0.21998779 -0.0094909016 -0.63023764 0.60425216 0.48752427 0.15328492
0.36123702 -0.21206364 -0.0011278016 -0.72960454 0.32139823 0.60363936 0.18458098
-0.36109942 -0.20575464 -0.0050143683 0.6701535 0.34877792 0.65517038 0.17076637
-0.35800403 -0.20275575 -0.0099032046 0.76694494 0.090538695 0.63529378 0.18322384
-0.33453956 -0.20402102 -0.0038074937 0.54609603 0.27829233 0.79014713 0.14875436
0.32810348 -0.20621902 -0.0078389458 -0.45240614 0.32470164 0.83060068 0.18624179
0.33396024 -0.20600408 -0.0025247287 -0.61665726 0.41556919 0.66860741 0.18063061
0.35701674 -0.20890132 -0.0073267571 -0.682697 0.29130927 0.67012209 0.15744764
0.36391929 -0.20461053 -0.003084671 -0.62659824 0.40911305 0.66332579 0.19421753
-0.36670601 -0.19404162 -0.0056939195 0.55263233 0.29649854 0.77890056 0.16849543
-0.33855551 -0.19104716 -0.0066211675 0.62463361 0.22953594 0.74642223 0.18360814
0.36531803 -0.1963578 -0.0068258755 -0.68532175 0.4626306 0.56241173 0.17028207
0.37210736 -0.19631425 -5.062134e-05 -0.60231185 0.53264749 0.59456462 0.16265643
-0.37355751 -0.18408296 -0.0041023903 0.60836387 0.27437323 0.74472326 0.18900323
-0.35031122 -0.18094361 -0.00049117254 0.61543995 0.28249454 0.73581976 0.17089233
-0.34224999 -0.18479638 -0.0062797959 0.70893252 0.17997909 0.68192536 0.18600167
-0.33991221 -0.18217692 -0.009884431 0.72159714 0.17919631 0.66871977 0.18857172
0.33734283 -0.18870498 -0.0093741976 -0.6717751 0.30333623 0.67579979 0.1741935
0.34534058 -0.18477367 -0.0042182347 -0.60488296 0.2826862 0.7444495 0.19510083
0.36775765 -0.18922007 -0.0088293543 -0.66819692 0.35473317 0.65397042 0.16298683
0.37263453 -0.18575881 -0.0060999617 -0.5998705 0.45475945 0.65829271 0.17416295
-0.38050717 -0.17791703 -0.00029943977 0.59983957 0.24613348 0.76132166 0.18869548
-0.37632045 -0.1758236 -0.0058204075 0.61544567 0.30351067 0.72739798 0.17845304
-0.3527385 -0.17423782 -0.0016063806 0.64036417 0.34941301 0.68399149 0.17519903
-0.34558073 -0.17597346 -0.0076148869 0.64281815 0.20457429 0.73819655 0.17932643
0.35440192 -0.17542978 -0.0012004588 -0.5398156 0.35560355 0.7629844 0.19175822
0.37960213 -0.1778819 -0.0040273266 -0.73988664 0.32228759 0.59050709 0.18281649
0.38189101 -0.17615968 -0.0028072451 -0.73028535 0.26742274 0.62862426 0.17955783
-0.3827056 -0.16553275 -0.0048988545 0.64488143 0.36674857 0.67053974 0.18589316
-0.35574511 -0.16697511 -0.0024499916 0.56111062 0.36871594 0.74108261 0.17110965
0.35618657 -0.16578099 -0.005045047 -0.5574246 0.33815292 0.75824165 0.18160605
0.37971008 -0.16683847 -0.0093307542 -0.71353626 0.23415947 0.66032976 0.18709596
0.38385007 -0.16618764 -0.0048793936 -0.7695353 0.24091077 0.5914197 0.15899055
-0.39193523 -0.15049008 -0.0036599445 0.73318481 0.25057089 0.63218218 0.14663818
-0.3883875 -0.15810913 -0.00311465 0.72974199 0.34043568 0.592942 0.16381808
-0.36076236 -0.15360597 -0.0045016813 0.71113425 0.43918273 0.54900515 0.17469168
-0.35831887 -0.15944031 -0.0038512209 0.66527945 0.39402848 0.6341489 0.16322395
0.3580026 -0.15383187 -0.0081435572 -0.70885968 0.014730144 0.70519567 0.18809503
0.36514354 -0.15463768 -0.00041553983 -0.64579177 0.1283661 0.75264537 0.19396603
0.38620391 -0.15610038 -0.0056775711 -0.74365425 0.053343926 0.66643286 0.17236432
-0.39323258 -0.14468035 -0.0045567569 0.73765963 0.30429128 0.60271484 0.17732698
-0.3898685 -0.14335647 -0.0088129751 0.75906694 0.34619823 0.55132955 0.17869841
-0.3636269 -0.14585444 -0.005734195 0.53616345 0.45417097 0.71151787 0.17091388
0.35872433 -0.14962636 -0.0087236231 -0.56710941 0.29490834 0.76903576 0.19068199
0.36569858 -0.14644484 -0.0024360167 -0.66304249 0.064816251 0.74577039 0.18284458
0.39215302 -0.14705379 -0.0020598706 -0.6911884 0.27727297 0.66736668 0.15108915
-0.39598459 -0.13089204 -0.005123483 0.80279791 0.27377623 0.52968109 0.15957798
-0.36610937 -0.13694909 -0.0077124448 0.61569077 0.30099627 0.72823489 0.1871915
0.36539921 -0.13826296 -0.0053470498 -0.66876423 0.2151494 0.71166366 0.19626813
0.39219356 -0.13426867 -0.0063942019 -0.69152117 0.12710656 0.71108544 0.16834559
-0.39606947 -0.12489863 -0.0066312882 0.80174774 0.23123249 0.55111903 0.15094967
-0.37442756 -0.12886071 -0.00086180167 0.68622178 0.33607194 0.64510101 0.18442255
0.36679667 -0.12711072 -0.0074255951 -0.68901533 0.32142794 0.64957052 0.15848593
0.37190402 -0.12307809 -0.0033617308 -0.73250055 0.27507752 0.62271607 0.1851052
0.39604288 -0.1272306 -0.0044591678 -0.68102491 0.27155223 0.68004745 0.17432173
-0.40312302 -0.11133236 -0.0021597049 0.65129828 0.17843863 0.73754334 0.14786179
-0.39622885 -0.11410892 -0.0093380548 0.82986015 -0.0338705 0.5569424 0.17051335
-0.37777844 -0.11100348 -0.00172592 0.78405112 -0.071626015 0.61654979 0.1655852
0.373557 -0.11677452 -0.0036334926 -0.69708985 0.26006594 0.66815525 0.17681216
0.39714998 -0.11854315 -0.006185445 -0.6671136 0.19126691 0.71998358 0.16642517
-0.4024893 -0.10119545 -0.00560296 0.58756286 0.20806414 0.78197134 0.1541713
-0.37583834 -0.10325388 -0.0057156524 0.67389888 0.030799925 0.73818129 0.17597522
0.37698135 -0.10634486 -0.0033616666 -0.69287992 0.22561742 0.68484616 0.18176517
0.38054994 -0.10337077 -0.0005719047 -0.69240803 0.18680142 0.69690484 0.19002472
0.39834625 -0.10773444 -0.00853776 -0.68213212 0.21606407 0.69857866 0.1989684
0.40171161 -0.10507137 -0.0056503066 -0.78316736 0.22509253 0.57963985 0.18610871
-0.40367964 -0.093977146 -0.0061685159 0.6170671 0.072125413 0.78359818 0.15671021
-0.38168904 -0.09347254 -0.0019130084 0.62700415 0.10662349 0.77168465 0.21305868
-0.3752014 -0.093136653 -0.0089053605 0.60663706 0.054566897 0.79310393 0.19422254
0.37772354 -0.098387279 -0.0051116534 -0.76160365 0.16692676 0.62617517 0.17615663
0.38224924 -0.091559738 -0.0025438205 -0.72591335 0.15432563 0.67024881 0.19352135
0.40676609 -0.094663687 -0.0035090677 -0.76962727 0.20927854 0.60322171 0.2012676
0.4108941 -0.090403885 -0.00030760956 -0.74686289 0.24901061 0.61659515 0.18775865
-0.41214946 -0.080473557 -5.2684336e-05 0.71717453 0.11891701 0.68667281 0.17670369
-0.40554768 -0.085324064 -0.0063396152 0.6135909 0.30325994 0.72906762 0.16822132
-0.38364545 -0.086693987 -0.0015121598 0.54094845 0.12675244 0.83144969 0.19149108
-0.37834927 -0.085877381 -0.0073549883 0.57349086 0.16702604 0.8020041 0.19783692
0.37735224 -0.086025275 -0.0094251353 -0.76773793 0.1226375 0.62891847 0.20332116
0.38580841 -0.082804054 -0.0015995181 -0.69622785 0.10690378 0.70981568 0.18522409
0.41147479 -0.083126411 -0.0021451314 -0.73981762 0.11878765 0.66223818 0.17628661
-0.41068923 -0.076840781 -0.0027036709 0.72387952 0.048537813 0.68821687 0.17366368
-0.38375708 -0.07776849 -0.0036088284 0.68419349 0.20657055 0.69943392 0.19110516
0.3859168 -0.074985467 -0.0039684414 -0.71094185 -0.0045423317 0.70323616 0.17677538
0.40863013 -0.078144968 -0.0070635658 -0.73456687 0.10783469 0.6699127 0.17508486
0.41273451 -0.075432412 -0.0033587608 -0.66523743 0.2189704 0.71380049 0.17483485
-0.41161025 -0.060514703 -0.0060181227 0.631423 0.11641385 0.76665032 0.17889902
-0.38275337 -0.06538868 -0.0077507272 0.70437735 0.17471182 0.68798864 0.15798174
0.3897796 -0.068162017 -0.0020929887 -0.72088188 0.15592022 0.67529118 0.16909587
0.41373658 -0.061943568 -0.0049047237 -0.76723123 0.021985771 0.64099365 0.17086831
-0.41395891 -0.055540696 -0.0046515404 0.70388031 0.061580818 0.70764422 0.18633693
-0.39066535 -0.05977473 -0.00071845681 0.65535986 0.16569102 0.73691922 0.17781539
-0.3891018 -0.055446297 -0.0034579511 0.7417829 0.1232379 0.65921968 0.17579955
0.38450196 -0.055024058 -0.0093964897 -0.64021909 0.19069302 0.7441476 0.1702752
0.39157957 -0.057440385 -0.0015747151 -0.75236034 0.077746809 0.6541478 0.16871688
0.41045821 -0.052096132 -0.009151875 -0.8116039 -0.061185919 0.5809952 0.17254089
-0.41440478 -0.047447018 -0.0063070199 0.65246797 0.024255604 0.75742805 0.18781196
-0.38880265 -0.046541642 -0.0059869657 0.69629306 0.099134862 0.71087843 0.2001956
0.38702509 -0.049357068 -0.0068422058 -0.604285 0.14544626 0.78338051 0.16230789
0.39136344 -0.046353441 -0.002208468 -0.76271266 0.17769013 0.62184858 0.16544832
0.41309536 -0.048326492 -0.0061877668 -0.73580611 0.095519543 0.67042178 0.17718916
-0.41462964 -0.034798779 -0.0075948145 0.74887806 -0.14003515 0.6477437 0.18086459
-0.39234582 -0.035421096 -0.0040671951 0.72923219 -0.022250203 0.68390441 0.16849558
-0.38848308 -0.03893562 -0.0082152598 0.76417762 0.026067019 0.64447898 0.18186224
0.39127275 -0.036097419 -0.0026753794 -0.84315437 -0.013931042 0.53749102 0.18301612
0.41407555 -0.034238689 -0.0055769803 -0.76681775 -0.13162102 0.62822485 0.18156539
-0.41626433 -0.025599154 -0.0053111045 0.69035971 -0.29409376 0.66099346 0.17591439
-0.39061737 -0.025124824 -0.0055869799 0.70960927 0.022674555 0.70423049 0.16896023
-0.38870597 -0.026109628 -0.0077113099 0.66786647 0.10094783 0.73740357 0.16458547
0.38810933 -0.023329742 -0.0065905093 -0.66090393 -0.13766639 0.73773569 0.17409362
0.39277393 -0.02125873 -0.0015668278 -0.75149751 -0.024668837 0.65927452 0.18132105
0.41611558 -0.021351624 -0.0036698871 -0.5935486 -0.067824483 0.80193508 0.16524912
-0.39001194 -0.014314642 -0.0058609927 0.76322401 -0.064088136 0.64294767 0.1513806
-0.38737196 -0.019779216 -0.0089422185 0.71377969 0.14073133 0.68608552 0.16756076
0.38536707 -0.015612861 -0.0098643191 -0.76618689 -0.18868485 0.6142928 0.16757753
0.39231309 -0.013662809 -0.0023428723 -0.74967116 -0.086906351 0.65607965 0.17535409
-0.39493847 -0.0093830349 -0.0003000116 0.73658627 -0.091564484 0.6701169 0.1685513
-0.38742355 -0.0087842513 -0.0084916111 0.79446578 -0.042538241 0.60581744 0.16357602
0.38938677 -0.006523089 -0.0057970886 -0.71736872 0.049685679 0.69491982 0.16809671
0.39234948 -0.0042825374 -0.0026394664 -0.61914808 0.17856905 0.7647016 0.17297263
0.41642848 -0.0037511599 -0.0039818934 -0.73164666 0.13187961 0.66880566 0.17429999
-0.41972464 0.001357655 -0.00018740492 0.76183891 0.0019862277 0.64776349 0.18658237
-0.39099753 0.0063201031 -0.0040439335 0.72151703 -0.081128016 0.68762738 0.16042905
-0.38865432 0.004213036 -0.0066803931 0.74513417 -0.141813 0.65166253 0.1500483
0.38753933 0.005410593 -0.0082440488 -0.66880292 0.14859626 0.7284379 0.15425171
0.39247257 0.0035151877 -0.0027845595 -0.69207048 0.2103 0.69051605 0.16122927
0.41883463 0.0038515308 -0.0014385893 -0.7938984 -0.10286323 0.59928668 0.17602411
-0.41593763 0.013677344 -0.0041766427 0.73475152 0.15663218 0.66000497 0.20204799
-0.39235616 0.010328913 -0.0024153681 0.75256956 0.026109565 0.65799481 0.16231143
-0.38809368 0.014258992 -0.0069328905 0.70921206 0.0084533645 0.70494455 0.1705358
0.39210346 0.011917343 -0.0034892345 -0.72085309 0.11248719 0.68389875 0.15810068
0.41299045 0.014173658 -0.0087297577 -0.80132973 0.087169774 0.59183794 0.18534486
-0.41520065 0.024647294 -0.0046212464 0.65673876 -0.067186497 0.7511192 0.19339293
-0.39248818 0.020146165 -0.0019190222 0.69891971 -0.059583578 0.71271384 0.17309768
-0.38804334 0.024067406 -0.0066361725 0.69948584 -0.11381228 0.70552558 0.16787943
0.38699579 0.027754726 -0.0096393423 -0.62683713 -0.097441219 0.77303326 0.18839967
0.39225116 0.024373962 -0.0037744835 -0.75118661 -0.034449425 0.65919036 0.18851526
0.41569263 0.026048478 -0.00600272 -0.84108937 -0.11057156 0.52947384 0.19286841
-0.41612244 0.03445318 -0.0031547833 0.82435071 0.10182487 0.5568462 0.18708687
-0.39001703 0.03121746 -0.0042227283 0.69133967 0.035981275 0.72163337 0.15801071
-0.38596106 0.037736431 -0.0084217666 0.75081974 0.055326946 0.65818596 0.16088046
0.38792393 0.034532785 -0.0088680405 -0.68348241 -0.25792614 0.68288064 0.1861193
0.39141965 0.034582708 -0.0050493442 -0.58993393 -0.24236079 0.77022028 0.17771249
0.41940284 0.037691221 -0.0020778496 -0.7886551 -0.034503046 0.61386693 0.19595778
0.42092729 0.035423607 -0.00019241776 -0.8178938 0.052981354 0.57292461 0.18857884
-0.41476798 0.048004486 -0.0042277351 0.66786963 -0.041307356 0.7431311 0.17487356
-0.38994259 0.043076757 -0.0038788277 0.68078417 -0.037468098 0.73152512 0.16292286
0.38652089 0.046532601 -0.0084191095 -0.59397179 0.011789716 0.80439949 0.17571847
0.39313054 0.043222021 -0.0022019658 -0.57195538 -0.27464393 0.77294105 0.16628453
0.41645944 0.047690168 -0.0038808822 -0.81010938 -0.11857912 0.57416183 0.19848214
-0.41332147 0.051906746 -0.0057826187 0.64350879 -0.080170505 0.76122868 0.16537431
-0.39020804 0.056558318 -0.0031052956 0.6454044 -0.029408667 0.76327473 0.16664647
-0.38850367 0.057191946 -0.0049452623 0.64422452 -0.0049604666 0.7648204 0.17071348
0.38418868 0.057989836 -0.0080587827 -0.63582641 0.023659427 0.77146941 0.17129259
0.39128864 0.053074297 -0.0017179042 -0.62516952 -0.05162451 0.77877986 0.1660801
0.41340345 0.054311771 -0.0056189853 -0.6905362 -0.14295843 0.70902938 0.16487874
-0.41275057 0.065095581 -0.0059455349 0.64999962 0.027117033 0.75945061 0.16132653
-0.38591796 0.065244965 -0.0070599029 0.74435836 -0.13435741 0.65412438 0.18290763
0.38726592 0.065999724 -0.0027934369 -0.6767025 -0.23739901 0.69693297 0.18091533
0.41320366 0.060612366 -0.0041609574 -0.73342156 -0.22098972 0.6428501 0.16089256
-0.39020157 0.073185675 -5.63832e-05 0.69653279 -0.1505224 0.70155907 0.19746177
-0.38542247 0.075026311 -0.0044727861 0.56207341 -0.18782367 0.80547857 0.18597801
0.37946659 0.075197004 -0.0088162366 -0.62986052 -0.15699646 0.76067591 0.19062935
0.38457084 0.075260028 -0.003364898 -0.73406321 -0.14981481 0.66234946 0.18845977
0.40700471 0.076290697 -0.0070848381 -0.76640242 -0.12627311 0.62982726 0.18360506
0.41079938 0.071316846 -0.004056613 -0.78454727 -0.19374186 0.58902419 0.17902268
-0.41239077 0.082090899 -0.0014657087 0.68335783 -0.13043542 0.71833742 0.15651827
-0.40492305 0.083573788 -0.0093892729 0.70197606 -0.15142675 0.6959163 0.17745315
-0.38531131 0.083811104 -0.001799906 0.73889565 -0.015042103 0.67365199 0.1789653
-0.37923712 0.082957119 -0.008426982 0.77286196 -0.0874006 0.62852645 0.18870552
0.37910393 0.086119644 -0.0064911963 -0.56694514 -0.20929703 0.79672319 0.17867434
0.38364369 0.080399595 -0.0030765031 -0.70779705 -0.16698977 0.68639475 0.1843773
0.40726641 0.084435306 -0.0046026702 -0.76633602 -0.02832393 0.64181525 0.17991149
-0.41065699 0.091128938 -0.00032692868 0.67272311 -0.29446536 0.6787737 0.17371114
-0.40537083 0.093001962 -0.005653705 0.61260563 -0.23458186 0.75477529 0.15942405
-0.38141409 0.095893979 -0.0020415527 0.75255084 -0.022583013 0.65814674 0.18839346
-0.37668809 0.09048935 -0.008702728 0.71313941 -0.058747739 0.69855636 0.18847932
0.37834457 0.093240418 -0.0055322722 -0.72230881 -0.055736687 0.68932098 0.17939791
0.38201705 0.09363272 -0.0015239357 -0.67032707 -0.028743727 0.74150896 0.16515362
0.4019925 0.094722778 -0.0079075079 -0.73771226 -0.10968468 0.66614556 0.16423488
-0.40411428 0.10516085 -0.0029069034 0.70501107 -0.22368626 0.67299616 0.15871333
-0.39949095 0.10581645 -0.0079023503 0.72378844 -0.14282204 0.67507929 0.15331681
-0.37484735 0.10466166 -0.0061291265 0.59566134 -0.24941088 0.76353246 0.18841252
0.37536469 0.10628758 -0.0054670498 -0.61884201 -0.20614 0.75798476 0.16297162
0.39896446 0.10402358 -0.0088958507 -0.72051322 -0.1516079 0.67666513 0.17430873
0.40136373 0.10416064 -0.0061021415 -0.64735961 -0.11350926 0.753685 0.18286736
-0.39602491 0.1190364 -0.0072867484 0.73359334 -0.24468806 0.6340099 0.15693325
-0.37417305 0.11323036 -0.0041141231 0.72663867 -0.20554951 0.65554988 0.17854767
0.36881226 0.11658479 -0.0098889582 -0.66643703 -0.37342098 0.64530498 0.16605639
0.37758705 0.11256465 -0.0015422461 -0.74602365 -0.2786555 0.60481387 0.17783281
0.39777985 0.11872347 -0.0063198428 -0.73495859 -0.12572744 0.6663546 0.18096714
0.40247983 0.11322795 -0.0023910487 -0.69837302 -0.28001606 0.65868521 0.16744998
-0.40012836 0.12123647 -0.0018999376 0.71563703 -0.3117694 0.62503076 0.1823259
-0.3953054 0.12713574 -0.0053243395 0.72270513 -0.31408584 0.61566836 0.17610011
-0.37104881 0.12822133 -0.0026236337 0.6400404 -0.32295939 0.6971696 0.16465838
-0.36806375 0.12749267 -0.0059785014 0.60855424 -0.37262136 0.70058197 0.16955613
0.36888385 0.12442584 -0.0078663807 -0.70450616 -0.12171751 0.69918233 0.19845486
0.37314272 0.12598976 -0.0029427488 -0.52914435 -0.14292468 0.8364082 0.19689423
0.39632294 0.12816523 -0.005465081 -0.69198316 -0.14731859 0.70672238 0.16930883
-0.39742574 0.13276711 -0.0010010938 0.7809999 -0.31269661 0.54061073 0.15857734
-0.36131701 0.13829112 -0.0096095977 0.68546849 -0.094347194 0.7219637 0.17462729
0.36717591 0.13423246 -0.0072509511 -0.50508672 -0.25370023 0.82493854 0.18586808
0.37164444 0.13420093 -0.0025000817 -0.60232526 -0.12074245 0.7890662 0.19345436
0.39363366 0.13681826 -0.0062376969 -0.68798608 -0.080972597 0.72119242 0.16120037
-0.39368501 0.14215958 -0.0020068458 0.71723366 -0.18216519 0.67260063 0.17035967
-0.38850605 0.14321154 -0.0074938769 0.59503549 -0.22615598 0.77122396 0.18953669
-0.36477113 0.14403524 -0.0041715666 0.75326002 -0.1199413 0.64669418 0.21033442
0.35861546 0.14865209 -0.0091253826 -0.6323536 -0.2587491 0.73019028 0.20448847
0.36561227 0.14235067 -0.0056253104 -0.63153946 -0.08891546 0.77022856 0.18308158
0.37079424 0.14166136 -0.00098301424 -0.53149062 -0.026745802 0.84664184 0.20299976
0.3898679 0.1420664 -0.0091592204 -0.5810864 -0.2464157 0.77564031 0.17763264
0.39222246 0.14350337 -0.0060687028 -0.69355202 -0.14551534 0.70555717 0.15881431
-0.39016646 0.15667059 -0.0010081913 0.67036939 -0.19896513 0.71485502 0.16793586
-0.38497707 0.15889671 -0.0061047189 0.62972951 -0.17995954 0.75568205 0.17108242
-0.36351627 0.15540034 -0.0018762099 0.67148542 -0.048252985 0.73944509 0.19441769
0.3643887 0.15379265 -0.00090817601 -0.56111217 -0.38987586 0.73017114 0.19342385
0.38839856 0.15466174 -0.005020265 -0.6283052 -0.29819268 0.71854979 0.14851813
-0.38420963 0.16425921 -0.0051340936 0.68621027 -0.25705451 0.68046933 0.1710967
-0.35565192 0.16256976 -0.007466461 0.62862396 -0.027863862 0.77721018 0.17112303
0.35300237 0.16549012 -0.0058604125 -0.5562107 -0.17464598 0.81248283 0.18592192
0.38574937 0.16161586 -0.0039097387 -0.64814556 -0.46404782 0.60379386 0.14593707
-0.38321137 0.1765898 -0.0012162802 0.71225536 -0.26361248 0.65053874 0.15160556
-0.37674427 0.17735583 -0.0072185732 0.70672578 -0.18523122 0.682809 0.15465339
-0.35260424 0.17326163 -0.0041218302 0.58202338 -0.41984227 0.69640595 0.22318849
-0.34430015 0.17923813 -0.0083811171 0.45857093 -0.56629002 0.68485647 0.1891049
0.34469068 0.17705837 -0.0079140766 -0.39776906 -0.40537602 0.82307351 0.18714763
0.35183617 0.17512968 -0.0020169127 -0.62327534 -0.3559109 0.69631541 0.18473412
0.37711892 0.17506182 -0.0054131751 -0.72731227 -0.33625647 0.59828794 0.15181434
-0.37299395 0.18492585 -0.00625889 0.53476292 -0.34111628 0.77309006 0.14605559
-0.34500614 0.18227348 -0.0059726355 0.6869933 -0.57042825 0.45016858 0.17275429
0.34643072 0.18231778 -0.0035252841 -0.4418503 -0.3307586 0.83388674 0.18189628
0.36851662 0.18490759 -0.0088893818 -0.70082283 -0.28691748 0.65308928 0.14153272
0.37276626 0.18354872 -0.0052228514 -0.72804326 -0.26789469 0.63101929 0.16125289
-0.34220454 0.19109979 -0.0034768004 0.77458942 -0.50876117 0.37573045 0.18581708
-0.33688006 0.19546311 -0.0059010149 0.59735334 -0.60140705 0.53054547 0.1688204
0.33667731 0.19625744 -0.0057471301 -0.52437127 -0.34827372 0.77700716 0.19031239
0.34149334 0.19718093 -0.00062655518 -0.56101257 -0.44079855 0.70068645 0.19383487
0.36413527 0.19621539 -0.0071601807 -0.7367112 -0.35825107 0.57350922 0.17235821
0.37149951 0.19201368 -0.0018334702 -0.70224762 -0.43575832 0.56299466 0.16744354
-0.36274913 0.20513833 -0.0039282087 0.6439479 -0.52882665 0.55287749 0.16639796
-0.35806376 0.20945778 -0.0059309755 0.70890957 -0.43598136 0.55440742 0.17173296
-0.33443928 0.20467961 -0.0028448578 0.55850518 -0.34844258 0.75276804 0.19069283
-0.3281118 0.20676148 -0.0075179092 0.74214309 -0.36526844 0.56196314 0.1909465
0.32874537 0.20703879 -0.00784011 -0.64410734 -0.42856771 0.63360506 0.17161563
0.35979131 0.20786557 -0.0052016648 -0.7134217 -0.36028799 0.60101748 0.16363086
0.36472666 0.20478678 -0.0017779763 -0.72095847 -0.30293408 0.6232574 0.16444243
-0.35865432 0.21741343 -0.00038177473 0.59909242 -0.44456321 0.66592181 0.18383811
-0.33209798 0.21155936 -0.001045748 0.58838993 -0.35374027 0.7270937 0.18479219
-0.32996076 0.21651837 -0.00016644876 0.57468331 -0.46900705 0.67065001 0.17916842
0.32559577 0.21544608 -0.0065445504 -0.62389457 -0.44804254 0.64032292 0.16796024
0.35658443 0.21494098 -0.0046039973 -0.65268612 -0.38003317 0.65542024 0.17928679
0.36066067 0.21108887 -0.0025044344 -0.7056815 -0.37428957 0.60159874 0.17167597
-0.35186788 0.22600324 -0.0018286164 0.68631256 -0.38115633 0.61943114 0.17626643
-0.3432796 0.2294686 -0.0082740756 0.46637622 -0.45079303 0.76110363 0.17019889
-0.31567457 0.22749853 -0.0070907916 0.67944986 -0.44465253 0.58363694 0.18210772
0.32484582 0.22498851 -0.0023496686 -0.58313817 -0.63773972 0.50322771 0.1692777
0.34763062 0.2234211 -0.0092055174 -0.61319357 -0.32738039 0.71889889 0.16464961
0.35354099 0.22734171 -0.00087475666 -0.63964695 -0.56504649 0.52112782 0.16404836
-0.34421283 0.23648599 -0.0029662338 0.55976391 -0.5043931 0.65745872 0.17025585
-0.31392443 0.23434395 -0.0047625885 0.6279127 -0.53687757 0.56346083 0.16997358
-0.30911911 0.23639858 -0.0080380095 0.73998404 -0.46377766 0.48716918 0.1820358
0.31354436 0.23637688 -0.0046576234 -0.61382079 -0.44435447 0.65251297 0.16730401
0.32044232 0.23042116 -0.0036035744 -0.64340997 -0.49118978 0.58715945 0.18241712
0.34601718 0.23635224 -0.0036931909 -0.56052262 -0.41685241 0.71557558 0.16964412
-0.34186834 0.24114513 -0.0024119008 0.56581831 -0.41931614 0.70994616 0.18101786
-0.33325842 0.24827127 -0.0065978258 0.55580151 -0.47132635 0.68478918 0.17551541
-0.31200498 0.24457331 -0.00063739019 0.62610668 -0.53656483 0.56576383 0.18484163
-0.30715418 0.24810466 -0.003102211 0.67135191 -0.4459962 0.59192395 0.17357929
0.30475739 0.24703735 -0.0037028918 -0.58390325 -0.32448918 0.74415308 0.16328907
0.31245318 0.2418339 -0.0014497335 -0.62024832 -0.51523912 0.59145641 0.15727121
0.33502829 0.24678645 -0.0076366225 -0.58229446 -0.46003342 0.6703003 0.16761787
0.34285417 0.2446062 -0.002394448 -0.69018161 -0.36578953 0.62437761 0.15930122
-0.3335889 0.25468257 -0.0022715526 0.63583553 -0.40978083 0.65405881 0.175666
-0.32342237 0.25878727 -0.0098998463 0.52594078 -0.53849441 0.6583389 0.17137642
-0.30538163 0.25256494 -0.0017515515 0.60346228 -0.51525503 0.6085602 0.1806968
-0.29457465 0.25621676 -0.0069144387 0.51442015 -0.51914752 0.68253762 0.17285711
0.29325223 0.25700617 -0.0054347017 -0.61543751 -0.34412795 0.70909286 0.1838425
0.32502988 0.25842339 -0.0068622618 -0.6346997 -0.4601965 0.62078619 0.15889539
-0.32457539 0.26589993 -0.0040430529 0.54974735 -0.31735808 0.77269769 0.16827655
-0.31866676 0.26565355 -0.0094119804 0.54968888 -0.48437315 0.68060619 0.15166971
-0.29097277 0.2664234 -0.0014601399 0.45721781 -0.59959382 0.65684032 0.17170507
-0.28572497 0.26634064 -0.0054486119 0.52733892 -0.57643062 0.62421268 0.16333027
0.28766307 0.26410291 -0.0045912876 -0.4336645 -0.58495229 0.6853947 0.19178224
0.29062513 0.26098657 -0.004556397 -0.52192307 -0.57922822 0.62617165 0.20164514
0.31586111 0.26790422 -0.0071122521 -0.60881972 -0.56230742 0.55959707 0.17677465
-0.31451368 0.27592707 -0.0039136508 0.3926957 -0.61848086 0.6806404 0.16552296
-0.27672946 0.27713707 -0.0035550417 0.45014378 -0.52060556 0.72549325 0.1821381
0.27553368 0.274948 -0.006166338 -0.43690586 -0.64055008 0.63151318 0.19253266
0.28304189 0.27057546 -0.0034418055 -0.44275215 -0.65082306 0.61676562 0.18700878
0.30697498 0.27878943 -0.0059862104 -0.47770777 -0.63773924 0.60422176 0.1638301
0.31062233 0.27510631 -0.0058155069 -0.58129376 -0.47401795 0.66136575 0.17010854
-0.30295065 0.28775734 -0.003050762 0.47926491 -0.65139294 0.5882113 0.17351714
-0.2980032 0.285519 -0.0089686317 0.4852978 -0.60167003 0.63441259 0.18513331
-0.27286273 0.28252476 -0.0021449814 0.5702163 -0.54332083 0.61616218 0.17669718
-0.26523238 0.2857092 -0.0053065373 0.43544856 -0.55592066 0.70805138 0.17269766
0.26377398 0.28489926 -0.0081143919 -0.56879866 -0.49124447 0.65965664 0.17685737
0.27535182 0.28228962 -0.00082404446 -0.44276658 -0.506661 0.73976511 0.18000284
0.29703027 0.28539616 -0.0092224898 -0.59974706 -0.5336144 0.59628785 0.18824726
0.30236176 0.28539625 -0.0046307971 -0.52673262 -0.4338623 0.73096937 0.18266787
-0.2878378 0.29834324 -0.0061225547 0.52946192 -0.64437199 0.55177414 0.17932381
-0.24537149 0.2987175 -0.0097687859 0.5470466 -0.29942882 0.78171754 0.17583044
0.26359218 0.29129887 -0.0034761284 -0.53394568 -0.60681784 0.58879054 0.17203555
0.28730884 0.2975063 -0.0078279255 -0.43920329 -0.52417141 0.72961962 0.18341739
