# .PCD v0.7 - Point Cloud Data file format
VERSION 0.7
FIELDS x y z normal_x normal_y normal_z curvature
SIZE 4 4 4 4 4 4 4
TYPE F F F F F F F
COUNT 1 1 1 1 1 1 1
WIDTH 565
HEIGHT 1
VIEWPOINT 0 0 0 1 0 0 0
POINTS 565
DATA ascii
0.034312565 0.12647484 -0.10268626 -0.060609329 -0.21698229 0.9742921 0.00017512908
0.044936154 0.12571236 -0.10200496 -0.07842353 -0.21802518 0.9727872 0.00019610069
0.054750871 0.12367243 -0.10159269 -0.09857554 -0.21432804 0.97177482 0.00017053535
0.063548811 0.12257192 -0.10106909 -0.11106546 -0.2166723 0.96990597 0.00018248823
0.072387077 0.12042365 -0.10062441 -0.12544806 -0.21141635 0.96931207 0.00022984479
-0.043938607 0.13168214 -0.10087384 0.078887865 -0.22997642 0.96999359 0.00019914778
-0.032644223 0.13717876 -0.10045134 0.054194022 -0.23951089 0.96938002 0.00024367844
-0.02327041 0.13376255 -0.10149466 0.040250912 -0.23428236 0.97133499 0.00017944485
-0.014669326 0.13434242 -0.10161535 0.027691243 -0.23554955 0.97146773 0.00019340783
-0.0050412803 0.13597731 -0.10153516 0.0086458242 -0.23844793 0.97111672 0.00025369349
0.0038368907 0.13567759 -0.10163511 -0.0058947979 -0.23714314 0.97145677 0.00023678836
0.014707881 0.13585068 -0.10126685 -0.025486359 -0.23914276 0.97064984 0.00015596933
0.023482922 0.13574553 -0.10105536 -0.040253192 -0.2432351 0.96913177 0.00015175912
0.035013448 0.13539985 -0.10076953 -0.058101449 -0.24033023 0.96895075 0.00027454112
0.043544322 0.13300131 -0.10061214 -0.075269915 -0.23359281 0.9694168 0.00025499199
0.05011804 0.13153772 -0.10032272 -0.087577835 -0.23155408 0.96887195 0.00024062018
-0.014464008 0.14018002 -0.10027476 0.023986598 -0.24703538 0.96870959 0.00022287313
-0.0052395244 0.14078629 -0.10045154 0.0088825813 -0.24632907 0.96914554 0.00024361724
0.0024897619 0.14153367 -0.10033929 -0.0065556555 -0.24834481 0.96864957 0.00027572009
-0.034665301 -0.17232706 -0.090158977 0.050119568 0.29041559 0.95558715 0.00011406904
-0.027675284 -0.17258473 -0.090351649 0.045583248 0.29021737 0.95587444 8.4713829e-05
-0.010935117 -0.17232545 -0.091067769 0.01889766 0.28974468 0.95691741 0.00015365637
-0.0044095721 -0.17416829 -0.090781897 0.0087376013 0.29072106 0.95676798 0.0002463655
0.0062206062 -0.17325416 -0.090978026 -0.011749806 0.28489304 0.95848733 0.00018793299
0.017250553 -0.17282759 -0.090679921 -0.030264679 0.28853765 0.95699012 8.493205e-05
0.021033321 -0.17181915 -0.090828232 -0.036949709 0.28953335 0.95645446 8.5890693e-05
0.041705985 -0.17018311 -0.090512551 -0.066834621 0.28635582 0.95578945 0.00021080312
-0.065883994 -0.1604189 -0.090732493 0.11183858 0.27052429 0.95619494 7.5707598e-05
-0.052977312 -0.16492273 -0.090960495 0.09025228 0.27848071 0.95619196 0.00015594657
-0.045415182 -0.16709779 -0.091125697 0.077753142 0.28107455 0.95653099 0.00020758261
-0.033691689 -0.16551289 -0.092176631 0.052128423 0.28197703 0.95800394 9.3671515e-05
-0.025286611 -0.16515352 -0.092602789 0.043486174 0.2808685 0.95876056 1.9423185e-05
-0.016105637 -0.16469619 -0.093087099 0.031440176 0.28147849 0.95905232 2.9669041e-05
-0.0059751491 -0.16586445 -0.093135238 0.0099542234 0.28325453 0.95899314 0.00015695432
0.0047182394 -0.16619398 -0.093087316 -0.0096398499 0.28224596 0.95929366 0.00014360205
0.014267796 -0.16274616 -0.093723983 -0.025559464 0.27923629 0.9598822 6.120302e-05
0.023616061 -0.16483635 -0.092758797 -0.038052253 0.28203395 0.9586494 4.0946845e-05
0.034421757 -0.16553135 -0.09214326 -0.049987987 0.28243437 0.95798331 8.9544643e-05
0.047194276 -0.16518629 -0.091537803 -0.082139745 0.27470705 0.95801312 0.00019462293
0.055426948 -0.16279531 -0.091261864 -0.099978529 0.26981306 0.9577083 8.4376239e-05
0.066673025 -0.16089807 -0.090514213 -0.11144082 0.27076778 0.95617247 7.090564e-05
-0.084780097 -0.15152466 -0.091014996 0.14045362 0.25587985 0.95645094 0.00017944492
-0.071687579 -0.155678 -0.091365442 0.11793359 0.26506603 0.95699096 0.000123808
-0.064972661 -0.15451109 -0.092434682 0.110243 0.26178983 0.95880789 3.6781057e-05
-0.054624718 -0.15615086 -0.093151331 0.096496984 0.26691723 0.95887613 9.6534903e-05
-0.044951808 -0.15391625 -0.09484157 0.080029592 0.26556388 0.96076596 0.00018179827
-0.037097223 -0.15201727 -0.09596847 0.063875496 0.2671546 0.96153438 0.00017170618
-0.025393318 -0.15316702 -0.096082278 0.046280157 0.26976356 0.96181375 0.00010462357
-0.015927402 -0.15450196 -0.096056558 0.02963442 0.27429003 0.96119028 6.2143197e-05
-0.0098462775 -0.15683731 -0.095610552 0.020272231 0.27646771 0.96080929 0.00011029633
0.0035228117 -0.15322857 -0.096901029 -0.0070051299 0.27236271 0.96216911 0.00014307031
0.01825214 -0.15412186 -0.096077934 -0.031461682 0.27229485 0.96169937 8.0286372e-05
0.024897447 -0.15383618 -0.095906697 -0.042144682 0.27199697 0.96137476 5.4461983e-05
0.03672839 -0.15486737 -0.095154233 -0.062400918 0.26990992 0.96086144 0.00017439191
0.044522177 -0.15407868 -0.094839871 -0.078999341 0.26638377 0.9606241 0.00017625961
0.055612691 -0.15541364 -0.093240157 -0.10278457 0.26486459 0.95879191 4.1119194e-05
0.067913771 -0.15255836 -0.092633627 -0.1151882 0.25878099 0.95904332 4.8312362e-05
0.074554399 -0.15558498 -0.091069065 -0.12422743 0.26277077 0.95682758 0.00016273932
0.086497456 -0.15241502 -0.09050779 -0.14369237 0.25147286 0.95713836 0.00020208939
-0.1012799 -0.14251599 -0.090351425 0.17385441 0.23753113 0.95569533 0.00010399606
-0.09912324 -0.14200395 -0.09085539 0.17102106 0.23748577 0.95621783 0.00012812221
-0.08383777 -0.14614165 -0.09255901 0.14298129 0.24866609 0.95797789 0.00015377112
-0.075303949 -0.14350308 -0.094257057 0.13111714 0.24706452 0.96008718 0.0001529432
-0.064594366 -0.14453354 -0.095179282 0.10910631 0.25490996 0.96078968 6.2907035e-05
-0.053654287 -0.14715996 -0.095695153 0.095038489 0.25894046 0.96120632 8.8931636e-05
-0.041974097 -0.14310808 -0.098102719 0.074482456 0.25477722 0.96412706 0.00024712694
-0.036333315 -0.14384237 -0.098361857 0.062132291 0.26117852 0.96328878 0.0002026743
-0.025070082 -0.14419055 -0.098703399 0.045085389 0.26002252 0.96454948 0.00018010531
-0.015157121 -0.146713 -0.098349646 0.029299513 0.26469132 0.96388799 0.00013572327
-0.0077493703 -0.14409372 -0.099394299 0.015300516 0.26193666 0.96496373 0.00021548748
0.0051667169 -0.14361769 -0.09963122 -0.012685764 0.25246301 0.9675234 0.00028409559
0.013141143 -0.14834023 -0.0979537 -0.02070329 0.26560774 0.96385884 0.00016792976
0.025016267 -0.14520332 -0.098411039 -0.04289363 0.26029176 0.96457678 0.00016124464
0.035501286 -0.14472315 -0.098145522 -0.064945325 0.25434849 0.96492946 0.00022130464
0.044370405 -0.14459336 -0.09743166 -0.081452511 0.25770333 0.96278471 0.00017713026
0.057250023 -0.14621663 -0.095547281 -0.10327461 0.25705847 0.9608618 2.0215266e-05
0.063969001 -0.14443415 -0.095276341 -0.10685564 0.25328878 0.96147108 6.3726897e-05
0.073446386 -0.14624606 -0.09372256 -0.12298227 0.24944533 0.96054798 0.00014114304
0.083765067 -0.14516351 -0.092770278 -0.1404721 0.24420579 0.95949525 0.00018018173
0.095222704 -0.14460595 -0.090946384 -0.16338232 0.2409213 0.95669389 0.00014671189
-0.1111581 -0.13279641 -0.090848796 0.1863907 0.2240223 0.95659423 0.00012854599
-0.10538051 -0.13572119 -0.091199733 0.17719865 0.22901185 0.95715946 8.2907973e-05
-0.09381704 -0.13566205 -0.093277134 0.16046117 0.23278278 0.95919985 9.3989154e-05
-0.085443519 -0.13446569 -0.09504959 0.14898621 0.23432466 0.96067423 0.0001518286
-0.07560128 -0.13626756 -0.096172437 0.13038518 0.24095805 0.96173751 0.0001773191
-0.066880517 -0.13516557 -0.097459905 0.1185735 0.23981667 0.96354979 0.00019633988
-0.056375671 -0.13460745 -0.098789431 0.10059194 0.24180822 0.96509588 0.00017110535
-0.047235291 -0.13752529 -0.099024504 0.087778494 0.24529393 0.96546668 0.00020752332
-0.036056738 -0.13918582 -0.09973745 0.062962897 0.24536972 0.96738267 0.00027311392
0.027956173 -0.1399489 -0.099825591 -0.046442758 0.24769628 0.96772397 0.00020024367
0.047585148 -0.1364492 -0.099276692 -0.086884268 0.24411322 0.96584678 0.00015356264
0.054218318 -0.13713883 -0.098345853 -0.096626095 0.24447237 0.96482986 0.00013337113
0.063863069 -0.13560842 -0.097678445 -0.11365177 0.24226756 0.96352983 0.00013260996
0.072642699 -0.13539222 -0.096752189 -0.12412739 0.24130127 0.96247911 0.00014363203
0.08615388 -0.13317415 -0.095223173 -0.15127902 0.23327553 0.96057129 0.00011677692
0.095618702 -0.13466443 -0.09318763 -0.1645173 0.22907002 0.95940655 6.861741e-05
0.10551614 -0.137162 -0.090840474 -0.17900875 0.23117657 0.95630193 9.6142052e-05
0.11570352 -0.1310202 -0.090450652 -0.19427513 0.22257107 0.95536345 0.00017867924
-0.12377913 -0.12339564 -0.090748191 0.20609537 0.21041885 0.95564044 0.00021631182
-0.11571155 -0.12378147 -0.092132598 0.19296195 0.20990042 0.95849228 0.00018288752
-0.1048809 -0.12347523 -0.094136715 0.18149084 0.21247591 0.96016407 9.5815485e-05
-0.091947541 -0.1215813 -0.096885219 0.16127814 0.21639973 0.96289176 0.00010406746
-0.08691363 -0.12542789 -0.096888989 0.15466487 0.22356085 0.96234053 0.00011162269
-0.074947059 -0.1275271 -0.098511077 0.13069022 0.22879787 0.96466136 0.00022836322
-0.066326931 -0.12792474 -0.099483006 0.11997528 0.22744092 0.96637291 0.0002380607
-0.058896024 -0.12926885 -0.099952534 0.1055503 0.22766265 0.96800256 0.00022522644
0.067349322 -0.12711176 -0.099588498 -0.12101138 0.227355 0.96626395 0.00023608313
0.075716421 -0.12718025 -0.098405458 -0.13460299 0.22864778 0.96415883 0.00020621615
0.087225951 -0.12380727 -0.097210132 -0.15662517 0.21750589 0.96341044 0.00013144372
0.094878793 -0.12607561 -0.095316984 -0.16515931 0.22095065 0.96119887 8.0165926e-05
0.10442256 -0.12462962 -0.09395007 -0.17953961 0.21652265 0.95962673 7.506652e-05
0.11651985 -0.12516798 -0.091665901 -0.19482403 0.21002024 0.95808929 0.00015514161
0.12318452 -0.12586141 -0.090245761 -0.20131674 0.21639422 0.95532459 0.00019008569
-0.13176572 -0.111742 -0.090984136 0.22059262 0.18639973 0.95738918 0.00015929535
-0.12318752 -0.11386929 -0.092599399 0.20767753 0.18766493 0.96002704 0.00014487604
-0.11469783 -0.1134636 -0.09460713 0.20049073 0.19141598 0.96081388 0.00013996035
-0.10300647 -0.1146138 -0.096531972 0.17900708 0.20603073 0.96203321 0.00013270347
-0.095070794 -0.11369716 -0.098161325 0.16825676 0.20302142 0.96460974 0.00017153917
-0.08513803 -0.1181514 -0.098897979 0.15065198 0.21268257 0.96543777 0.00015001639
0.084854484 -0.11612017 -0.099420942 -0.14959687 0.20776692 0.96667141 0.00016515458
0.096338473 -0.1155706 -0.097499438 -0.17126203 0.20592088 0.96346551 0.00011390425
0.10527389 -0.11713966 -0.095539935 -0.18236662 0.20656104 0.96128815 0.00012061036
0.11518043 -0.1136784 -0.094495602 -0.19511089 0.19782801 0.96062267 0.00016197584
0.12566756 -0.11514527 -0.091794938 -0.21219072 0.19631562 0.95730621 0.00017142433
-0.13541979 -0.10554796 -0.091239795 0.22994456 0.17647101 0.95707029 6.1463805e-05
-0.12504897 -0.10450289 -0.093838021 0.21442042 0.17823647 0.96034133 7.4013114e-05
-0.11465132 -0.10563843 -0.096053451 0.20314102 0.18385625 0.96173316 0.00013890365
-0.10317034 -0.10598294 -0.098509856 0.18302576 0.18869615 0.96482915 0.00017669458
-0.095993564 -0.10908059 -0.099070251 0.17203417 0.19442001 0.96571481 0.00018957698
0.099786133 -0.10965643 -0.098259553 -0.17555249 0.19385165 0.96519572 0.00016529681
0.10416656 -0.10511564 -0.098519601 -0.18324266 0.18727867 0.96506411 0.00015193591
0.11375329 -0.10450146 -0.096465193 -0.20201522 0.18235497 0.96225595 0.00014380878
0.12433288 -0.10376762 -0.094135761 -0.21570809 0.17984097 0.95975375 7.4963726e-05
0.13459483 -0.10463955 -0.091593742 -0.22507858 0.1764386 0.95823216 1.9826153e-05
-0.14428297 -0.093173325 -0.091387108 0.23785281 0.15965143 0.95809054 0.00012876101
-0.13493416 -0.094007425 -0.09341225 0.22937953 0.16522439 0.95921111 4.6966616e-05
-0.12576103 -0.093413524 -0.095651396 0.2219063 0.1633848 0.9612819 7.1788112e-05
-0.11503025 -0.094358511 -0.097978301 0.20283155 0.16747893 0.96478498 0.00011974955
0.10721756 -0.098608166 -0.099036857 -0.1907832 0.17394039 0.96609861 0.00018036837
0.11575202 -0.096044302 -0.097509608 -0.20669834 0.17169766 0.96322149 0.00011854379
0.12279204 -0.095034838 -0.096052513 -0.21761106 0.16642466 0.96174228 9.2938521e-05
0.13472405 -0.095410973 -0.093210623 -0.22945437 0.16490942 0.95924741 7.2377472e-05
0.14529581 -0.093290001 -0.091130756 -0.2432404 0.16013807 0.95665562 0.00021845548
0.1507322 -0.090936683 -0.090286531 -0.25093827 0.15422796 0.95563787 0.00027478003
-0.15086341 -0.081482574 -0.09157066 0.25516123 0.13477442 0.95745951 0.0001854243
-0.14487351 -0.084803343 -0.092725322 0.24661742 0.14094307 0.95880908 0.00021271879
-0.13502434 -0.08480794 -0.095033005 0.23485453 0.15231507 0.96002263 0.00014445996
-0.12586962 -0.084584311 -0.097201787 0.22542545 0.15212458 0.96231049 0.00017804322
-0.11734965 -0.085245691 -0.099065147 0.2093401 0.15519539 0.96544868 0.00016802817
0.11672614 -0.086461984 -0.098993085 -0.20669381 0.15887868 0.96541971 0.00012988926
0.12599158 -0.083995417 -0.09727852 -0.22453427 0.15246156 0.96246552 0.00012121833
0.1337942 -0.082705386 -0.095694281 -0.23181628 0.14428824 0.96199906 0.00017689839
0.14403622 -0.087863684 -0.09239205 -0.23818707 0.15311231 0.95907432 0.00016683883
0.15097061 -0.085563757 -0.091083825 -0.25815618 0.13627806 0.95644325 0.00020264395
-0.1518323 -0.076364934 -0.091882326 0.25756267 0.12743825 0.95782089 0.00013292185
-0.14582317 -0.075500108 -0.09360674 0.25324953 0.12603986 0.95915514 0.00012070956
-0.13700461 -0.073297553 -0.096232831 0.24424641 0.12415655 0.96173227 0.00013273091
-0.12542634 -0.073469043 -0.099245146 0.225182 0.1272745 0.96596807 0.00023172282
0.12478628 -0.076930046 -0.098819688 -0.22475612 0.14093213 0.9641695 0.00020846358
0.13806243 -0.07705842 -0.095533729 -0.24090472 0.13284792 0.96141368 0.00018258851
0.14490038 -0.075906277 -0.093811095 -0.25037494 0.12591398 0.95992607 0.00015229966
0.15244722 -0.075476311 -0.091815464 -0.25843251 0.12544778 0.95784938 0.00013175661
-0.16160162 -0.064936921 -0.09051843 0.27059686 0.11173692 0.95618623 7.3151074e-05
-0.15574081 -0.064855173 -0.092114858 0.2645576 0.11175288 0.95787293 5.937093e-05
-0.14850678 -0.065863475 -0.093960926 0.2573337 0.11377674 0.95960104 5.6132769e-05
-0.13551198 -0.063988969 -0.097690471 0.24381208 0.11111061 0.9634366 0.00014763226
-0.12703367 -0.067213409 -0.099624895 0.22906406 0.12277413 0.96563774 0.00023757083
0.12826611 -0.066699021 -0.099348821 -0.22971703 0.11904266 0.96594977 0.00023719783
0.13810089 -0.064711489 -0.096908294 -0.24617831 0.10933618 0.96303779 0.0001126739
0.14225221 -0.067317873 -0.095491655 -0.25066763 0.11640356 0.96104944 8.859513e-05
0.15528375 -0.065759987 -0.092137158 -0.26282322 0.11473856 0.95799732 4.8457201e-05
0.16270667 -0.062362164 -0.090507962 -0.27210784 0.10380726 0.95665109 0.00013069647
-0.16420282 -0.054141216 -0.09102492 0.27718872 0.092124626 0.95638883 0.00019516223
-0.1558132 -0.057614982 -0.092907399 0.26610786 0.10141052 0.95859402 8.6107022e-05
-0.14580353 -0.055433106 -0.095863014 0.25780967 0.10006479 0.96100008 4.2930475e-05
-0.13504557 -0.054297198 -0.098903932 0.24503982 0.096261308 0.96472234 0.00015379538
0.13522403 -0.055255316 -0.09874814 -0.24542168 0.10258372 0.9639734 9.9762961e-05
0.14391558 -0.056094117 -0.09630017 -0.25131699 0.099859029 0.96273983 8.2211031e-05
0.15552519 -0.057131808 -0.093039595 -0.26492545 0.099793918 0.95909101 6.2749983e-05
0.16220704 -0.052416936 -0.091758847 -0.27024445 0.089273632 0.95864391 0.00015743817
-0.17134668 -0.043912284 -0.09008994 0.28621662 0.072883219 0.95538896 0.00022865285
-0.16576543 -0.045539238 -0.091501892 0.27800193 0.077349789 0.95746118 0.00017589179
-0.15430552 -0.043457493 -0.094903775 0.26542541 0.076217964 0.96111399 0.00015171275
-0.14634255 -0.045727599 -0.096805714 0.26014996 0.084943868 0.9618246 0.00013587532
-0.13822918 -0.044094365 -0.099186219 0.24646913 0.080719151 0.9657833 0.00019275834
0.13722 -0.047628328 -0.099063113 -0.24555042 0.084595941 0.96568549 0.00016085664
0.14764573 -0.043178149 -0.096738756 -0.25809917 0.076321825 0.96309906 0.00012876496
0.15565696 -0.044868566 -0.094363309 -0.26761886 0.07667461 0.96046925 0.00013910391
0.16701378 -0.046877734 -0.091070615 -0.2803205 0.078462429 0.95669436 0.00021251988
0.1710643 -0.040090021 -0.09031827 -0.28929141 0.065349475 0.95500779 0.00022539367
-0.17174612 -0.035853699 -0.090282246 0.28834167 0.054485392 0.95597619 0.00013364003
-0.16616291 -0.033073179 -0.092011273 0.28284088 0.051027533 0.95780849 0.00010570355
-0.15529239 -0.033573251 -0.095151424 0.2706553 0.055439889 0.96107864 0.00011900656
-0.1457217 -0.034888964 -0.097882591 0.26033464 0.057207379 0.96382213 0.00014581658
0.14483888 -0.03481748 -0.098141901 -0.2586683 0.058763627 0.96417713 0.00014160125
0.15781921 -0.033679891 -0.09441296 -0.27167016 0.057712533 0.96065843 0.00010726961
0.16417117 -0.033107597 -0.09258882 -0.27709967 0.05226665 0.95941859 0.00014521486
0.17041701 -0.034995586 -0.090701342 -0.28851658 0.056472234 0.9558081 0.00019388465
-0.17092042 -0.026514551 -0.090879656 0.28945079 0.042471547 0.95625019 9.5453164e-05
-0.16558827 -0.024701536 -0.092498668 0.27967769 0.040335264 0.95924634 5.1456016e-05
-0.15668468 -0.023433385 -0.095134795 0.2751407 0.039312616 0.96059984 2.2830496e-05
-0.14573079 -0.026885105 -0.098186217 0.2589936 0.04814304 0.96467847 0.00013988151
0.14537069 -0.024319826 -0.098389044 -0.26215625 0.039382931 0.96422154 0.00011040848
0.15540853 -0.026376793 -0.095393047 -0.27101392 0.045006189 0.96152264 5.6360856e-05
0.16218501 -0.025041968 -0.093474694 -0.27664241 0.040206842 0.96013141 3.130026e-05
0.17246597 -0.025221795 -0.090479992 -0.29148281 0.041233238 0.95568699 0.00015222147
-0.17295131 -0.014673776 -0.090742655 0.29129478 0.025970969 0.95628071 0.0001373569
-0.1651253 -0.01470519 -0.093015835 0.28159353 0.025923721 0.95918357 7.107859e-05
-0.1557301 -0.015615307 -0.095711425 0.27418488 0.030940352 0.96117914 4.3095493e-05
-0.1451157 -0.013115054 -0.098891906 0.25866479 0.025332823 0.96563488 0.00018957151
0.14381851 -0.017773356 -0.099090666 -0.25731844 0.032890417 0.96576673 0.00012709046
0.15517199 -0.012951303 -0.095975578 -0.2748121 0.020584593 0.96127754 0.00012458634
0.16538443 -0.015633745 -0.092904992 -0.28044954 0.027984172 0.95946074 6.3780557e-05
0.17255878 -0.015035099 -0.09084291 -0.29069227 0.027423853 0.95642352 0.00012389064
-0.17470248 -0.0052291192 -0.090595245 0.29567245 0.015887536 0.95515734 0.00018608755
-0.16366667 -0.0050916448 -0.093807705 0.28182259 0.012723887 0.95938212 0.00016264059
-0.15557504 -0.0029813233 -0.096240044 0.27407837 0.0037741896 0.9616999 0.00017064027
-0.14440763 -0.0091324653 -0.099250093 0.25433376 0.018503999 0.96693951 0.00022297859
0.1466893 -0.0057110772 -0.098717913 -0.2620492 0.01439821 0.96494704 0.00017163879
0.15818807 -0.0060395533 -0.095363595 -0.2765182 0.016709063 0.96086341 0.00010935274
0.16767846 -0.0042413385 -0.092674345 -0.28344148 0.0076598511 0.95895892 0.00016240658
0.1733709 -0.0053869104 -0.090976186 -0.28661105 0.012989094 0.957959 0.00019459031
-0.17302521 0.0017478568 -0.091215648 0.29098698 -0.00031371898 0.95672697 0.00020745528
-0.16617532 0.0050236904 -0.093080997 0.28313324 -0.011639783 0.95900995 0.000149056
-0.15512127 0.0054818541 -0.096275955 0.27284649 -0.012734127 0.96197331 0.00017599176
-0.14521991 0.0040131491 -0.099209689 0.25686449 -0.0079830503 0.96641445 0.00024112633
0.14577517 0.0052843587 -0.098999679 -0.25886691 -0.0088591781 0.96587235 0.00021945286
0.15406577 0.0050382758 -0.096599668 -0.27599818 -0.011841005 0.96108514 0.00012700968
0.16243879 0.0037987628 -0.094213769 -0.2794888 -0.0066485866 0.96012592 0.00013870062
0.1729804 0.0031657899 -0.091174416 -0.28821489 -0.0071998225 0.95753872 0.00017140506
-0.17309916 0.014310029 -0.090713419 0.29184178 -0.02624551 0.95610648 0.00012595003
-0.16735037 0.013992419 -0.092396252 0.28627697 -0.023824139 0.95785064 0.00011830121
-0.15156505 0.014458815 -0.096965931 0.26675847 -0.026174141 0.96340793 0.00010294485
-0.14278328 0.01460515 -0.099512585 0.25222734 -0.026546862 0.96730381 0.00019772864
0.14788952 0.012644442 -0.098103561 -0.26501253 -0.025722446 0.96390182 0.00013461933
0.15682179 0.016160922 -0.095373064 -0.27540478 -0.028265424 0.96091276 7.5462864e-05
0.16343291 0.015315022 -0.093484133 -0.28031832 -0.027932215 0.95950055 6.2432235e-05
0.17175439 0.013604706 -0.091131225 -0.28874117 -0.023892149 0.95710903 0.0001191019
-0.16526067 0.024372941 -0.092606306 0.27962786 -0.039250553 0.95930582 3.9967377e-05
-0.15412173 0.024047023 -0.095856048 0.26936185 -0.039343864 0.96223503 6.5842825e-05
-0.14494365 0.02482092 -0.098493874 0.25780082 -0.039731931 0.96538079 0.0001315293
-0.13947462 0.029924216 -0.099888101 0.24523605 -0.051214434 0.96810973 0.00019505096
0.1438078 0.024188902 -0.098848172 -0.25781241 -0.042753916 0.96524858 0.00013800386
0.15617682 0.024946816 -0.095224343 -0.27288467 -0.041762818 0.96113992 2.1180305e-05
0.16583434 0.023862962 -0.092459112 -0.27991834 -0.041376419 0.95913184 4.3378011e-05
0.17145614 0.022965014 -0.090859674 -0.2911582 -0.035173748 0.95602816 9.0664093e-05
-0.17118493 0.037516035 -0.090381652 0.29104272 -0.058661137 0.95490998 0.00020356389
-0.16215442 0.034086455 -0.093137398 0.27528286 -0.053949885 0.95984828 0.00011992078
-0.15494591 0.035262071 -0.095187448 0.26935616 -0.059088979 0.96122617 0.00015345222
-0.14303069 0.035133779 -0.098650418 0.25031069 -0.06661851 0.9658708 0.00023130365
0.14457284 0.034447998 -0.098233327 -0.25592342 -0.059071586 0.9648906 0.00019746399
0.15253751 0.035394553 -0.095882334 -0.26842138 -0.063089237 0.96123338 0.00015159839
0.16427237 0.037077975 -0.092407413 -0.27539903 -0.064227074 0.95918202 0.00014753375
0.17115346 0.034396552 -0.090510167 -0.28766686 -0.059255168 0.95589572 0.00018828642
-0.17096904 0.04432705 -0.090074457 0.28542164 -0.074799493 0.95547867 0.00027983941
-0.16290814 0.043879081 -0.092452966 0.27137157 -0.076643705 0.95941818 0.00016040656
-0.15513583 0.045227338 -0.094467759 0.26607049 -0.080292627 0.96060383 0.00015765282
-0.14635016 0.045014072 -0.096883692 0.25795665 -0.082195662 0.96265376 0.00014508107
-0.13692354 0.045287572 -0.099405974 0.24492675 -0.081223495 0.96613336 0.00017165698
0.13963529 0.044088781 -0.098806038 -0.24951595 -0.078869797 0.96515357 0.00016836099
0.14671515 0.044085231 -0.096889026 -0.26177526 -0.075296082 0.96218723 0.00015410117
0.1538855 0.047811877 -0.094529092 -0.26492536 -0.083943702 0.96060812 0.00012789524
0.16465865 0.044565029 -0.091936447 -0.27368635 -0.069131963 0.95933133 0.0001709863
-0.15432853 0.056173414 -0.093471192 0.26382712 -0.10264076 0.95909339 4.7293212e-05
-0.14574531 0.056050383 -0.095809534 0.25484139 -0.10041904 0.96175456 7.116652e-05
-0.13472946 0.054592848 -0.098956384 0.24172819 -0.096834712 0.96550018 0.00015235186
0.13479039 0.056201585 -0.098759428 -0.24243283 -0.10096382 0.96490031 0.00013664929
0.14448854 0.055209417 -0.096244238 -0.25470495 -0.098443709 0.96199489 8.1318743e-05
0.15611553 0.055255007 -0.093090236 -0.26597011 -0.099264488 0.95885682 6.5815089e-05
0.16677375 0.0536507 -0.090383664 -0.28335744 -0.090869606 0.95469958 0.0001946108
-0.15410216 0.06467586 -0.092578769 0.26182991 -0.1075708 0.95910037 4.1666317e-05
-0.14437538 0.064772651 -0.095202155 0.25239024 -0.11146264 0.96118426 5.3543383e-05
-0.13602692 0.066004619 -0.097324923 0.24054378 -0.12029035 0.96315575 0.00016102359
-0.12901482 0.0628241 -0.099580713 0.22974838 -0.11247084 0.96672958 0.00017020325
0.12989575 0.068989031 -0.098650604 -0.22937648 -0.12319662 0.96550977 0.00017479058
0.13390183 0.064440593 -0.098075874 -0.23582077 -0.11293171 0.9652124 0.00014504317
0.14346392 0.064120248 -0.095522188 -0.25276724 -0.10963662 0.96129525 6.7429311e-05
0.15542068 0.063260689 -0.092380412 -0.26198587 -0.10607307 0.95922464 3.1024625e-05
0.16226697 0.062498942 -0.090611711 -0.27262467 -0.10564033 0.9563033 0.00010141767
-0.15259768 0.073910475 -0.091950357 0.25836641 -0.1208301 0.95846057 9.2451926e-05
-0.14588127 0.075442433 -0.093597472 0.24696545 -0.13470739 0.95961547 0.00017806127
-0.13350323 0.07457649 -0.09698189 0.2331104 -0.13043505 0.96366292 0.00017695292
-0.12476096 0.074251987 -0.099260502 0.22363372 -0.13324484 0.96552247 0.00021646496
-0.1190782 0.078419417 -0.099881336 0.21355331 -0.14049113 0.96677673 0.00018331732
0.12780574 0.074966624 -0.098454379 -0.22601798 -0.13572866 0.96462095 0.00016468026
0.13464954 0.075614303 -0.096526645 -0.23429576 -0.13166618 0.9632079 0.00017199534
0.14436705 0.07648696 -0.093890399 -0.24745406 -0.13105386 0.95999545 0.00016942155
0.1545362 0.075947732 -0.091196835 -0.26217034 -0.1219942 0.95727956 9.9057666e-05
-0.15268917 0.085186034 -0.090620734 0.25642526 -0.13906844 0.95650727 0.00019417419
-0.14584351 0.08469981 -0.09245196 0.24300751 -0.14136936 0.95966762 0.00018244905
-0.13506855 0.0838577 -0.095192306 0.23361978 -0.14564003 0.96135879 0.00016764729
-0.12616038 0.086875916 -0.096725218 0.22658877 -0.15349442 0.96181965 0.00010032677
-0.11742402 0.088733852 -0.098425359 0.2114532 -0.15885869 0.96439177 0.00013507345
0.11626756 0.087728024 -0.098873802 -0.20899792 -0.15835138 0.96501023 0.0001366745
0.12508591 0.085867099 -0.097155124 -0.21966383 -0.15397593 0.96334791 0.00011130716
0.13655789 0.084789507 -0.09467794 -0.23618104 -0.14500381 0.96082902 0.00014820142
0.14542833 0.083179437 -0.092821941 -0.24660529 -0.13569422 0.95956916 0.00023110767
0.15014932 0.087399743 -0.091053277 -0.25307712 -0.14767218 0.95610923 0.00023647753
-0.14395575 0.094695114 -0.09119162 0.23885947 -0.16154999 0.95752162 0.00011624604
-0.13448448 0.094387464 -0.093448997 0.22951283 -0.16277227 0.95959836 7.8999416e-05
-0.12308263 0.092991196 -0.096349649 0.21871871 -0.16259907 0.96214533 0.00010438645
-0.11447548 0.094748743 -0.098037675 0.20376675 -0.1696343 0.96421123 0.00016521962
-0.10563511 0.097209513 -0.099654466 0.1920349 -0.17545325 0.96557695 0.00021464136
0.10773065 0.096567646 -0.099281669 -0.19310538 -0.16932578 0.96645701 0.00022272112
0.11528192 0.092921764 -0.098176174 -0.20679623 -0.16222498 0.96484113 0.00013238152
0.12663424 0.094644979 -0.09522856 -0.22169326 -0.16833162 0.96047723 4.2744425e-05
0.13627493 0.094303139 -0.093047686 -0.22737095 -0.16434149 0.95984083 4.2235693e-05
0.14649336 0.09520781 -0.090510018 -0.24293803 -0.1666801 0.95561445 0.00018106779
-0.1408768 0.10392754 -0.090259992 0.23564219 -0.17641792 0.95569319 0.00010843045
-0.13261621 0.10217604 -0.092493504 0.22591677 -0.17317362 0.95863056 3.6549394e-05
-0.12488655 0.10470609 -0.093839511 0.21615162 -0.17787974 0.96001947 7.0120746e-05
-0.11548842 0.103672 -0.09620969 0.20253749 -0.1826349 0.96209311 0.00014354916
-0.10438524 0.10439916 -0.098575711 0.18466577 -0.18321247 0.96557325 0.00022744009
-0.096152037 0.10878855 -0.099109881 0.17205358 -0.19175947 0.96624315 0.00019356015
0.098685265 0.10723644 -0.099018775 -0.17509216 -0.18908331 0.96622473 0.00022405261
0.10502318 0.10485625 -0.098303735 -0.18717374 -0.18694012 0.96437508 0.00018613784
0.11534856 0.10782897 -0.09550038 -0.20338888 -0.18761885 0.96095371 0.00013938018
0.126563 0.10486245 -0.093421735 -0.2200314 -0.17798543 0.95911801 4.6324334e-05
0.13513455 0.10286818 -0.091784358 -0.22670496 -0.17395143 0.95830357 4.9408281e-05
-0.13292588 0.1130914 -0.090473533 0.22390333 -0.18642955 0.95661449 0.00011852889
-0.12268058 0.11741306 -0.092084885 0.20717146 -0.19714604 0.95823455 0.00017422313
-0.11336758 0.11668925 -0.094137058 0.19181179 -0.20202287 0.96041399 0.00016672659
-0.10960094 0.11270211 -0.095799655 0.1892228 -0.19911185 0.96153486 0.00014924342
-0.094514534 0.11527555 -0.097893551 0.16911431 -0.20561679 0.9639098 0.00012372063
-0.084298991 0.11842558 -0.098983943 0.15375918 -0.21020088 0.96549135 0.0001688343
-0.078231171 0.11963604 -0.099785239 0.1364298 -0.21265322 0.96755648 0.00024950338
0.079525396 0.1191823 -0.099659801 -0.14061572 -0.2111595 0.9672842 0.00020634763
0.086760774 0.11312453 -0.0997774 -0.15458216 -0.19774084 0.96798909 0.0001716089
0.093249656 0.1114172 -0.099016517 -0.164433 -0.19617245 0.9666841 0.00019983028
0.1055824 0.11469726 -0.096052855 -0.18683137 -0.19948003 0.9619261 0.00015791242
0.11428636 0.11612711 -0.094163254 -0.19459863 -0.20044453 0.96018404 0.0001528452
0.1259187 0.11478904 -0.091800101 -0.21368463 -0.18907838 0.95843005 0.00014228605
0.13123152 0.11698081 -0.090173438 -0.22255319 -0.19267252 0.95569205 0.00017243685
-0.12464184 0.12525502 -0.09009552 0.2065704 -0.2074713 0.95618218 0.00023703439
-0.11636741 0.12398369 -0.091968514 0.19160132 -0.21007188 0.95872772 0.00016136345
-0.1032882 0.12362441 -0.094386265 0.17702906 -0.21579219 0.96025753 6.5125212e-05
-0.096724257 0.12523139 -0.095183983 0.17021562 -0.22055909 0.96040636 5.2897649e-05
-0.084403351 0.12660235 -0.097063825 0.1540868 -0.22590864 0.96188492 0.0001298803
-0.076407403 0.12403433 -0.099087864 0.13498305 -0.22184771 0.96569312 0.00025944333
-0.064425185 0.12777033 -0.099738151 0.10951893 -0.2254537 0.96807867 0.00016973527
0.060089689 0.12893093 -0.099910155 -0.11016405 -0.23135442 0.96661216 0.00019431219
0.07243181 0.12879375 -0.098562866 -0.1273163 -0.22986864 0.96485794 0.00017649878
0.087884009 0.12590294 -0.096605353 -0.15639241 -0.22433406 0.96188128 9.8530727e-05
0.0952508 0.12125973 -0.096370526 -0.1684625 -0.21448044 0.96209067 6.4650791e-05
0.10404819 0.12601349 -0.093695045 -0.17659816 -0.22013375 0.959351 4.7446112e-05
0.11727776 0.12389141 -0.091827512 -0.19835725 -0.21073768 0.95720631 0.00019430321
0.12128308 0.12689012 -0.090415344 -0.20382302 -0.21569176 0.95495194 0.00024308109
-0.11276712 0.13271001 -0.09058173 0.18646538 -0.22386868 0.95661563 0.0001432385
-0.10316008 0.13432698 -0.091920242 0.17337853 -0.22745717 0.95822912 2.7021504e-05
-0.093979791 0.13704252 -0.092927061 0.16472705 -0.2301771 0.95910555 6.5718887e-05
-0.084798642 0.13727692 -0.09451092 0.14787985 -0.23641565 0.96033287 0.00014176981
-0.074446432 0.13459465 -0.096747197 0.13535108 -0.24171486 0.96086103 0.00017670625
-0.064283349 0.13675418 -0.097321004 0.11168144 -0.24420342 0.96327144 0.00010729644
-0.055661414 0.13735162 -0.098126359 0.10135788 -0.24543199 0.96410054 0.00011981234
-0.044354212 0.1378001 -0.099273264 0.078803845 -0.24534373 0.96622789 0.00022852629
-0.032021414 0.13901964 -0.099940166 0.054167695 -0.24319138 0.96846467 0.00024930635
0.039769854 0.13804211 -0.099721961 -0.070574909 -0.24362452 0.96729845 0.000264125
0.045511238 0.13706988 -0.099341244 -0.084574372 -0.24277872 0.96638793 0.00024570184
0.055966556 0.13417621 -0.098952107 -0.10636897 -0.23870702 0.96524847 0.00016751845
0.065315373 0.13548276 -0.09754958 -0.11557504 -0.24108051 0.96359879 0.00013373273
0.07479313 0.13577825 -0.096406423 -0.1289684 -0.24159902 0.96176767 0.0001278253
0.084498234 0.13705327 -0.094616532 -0.14557438 -0.23725896 0.96047711 0.00012995483
0.10667147 0.13537519 -0.091049813 -0.18167873 -0.22984493 0.95611936 0.00010354345
0.11778895 0.13032092 -0.090241089 -0.19752514 -0.22343664 0.9544946 0.00019512016
-0.10247837 0.14085145 -0.090524629 0.17493586 -0.23712063 0.95560002 0.00011716026
-0.094439797 0.14683472 -0.090567797 0.16156679 -0.24819298 0.95514208 0.00021203046
-0.083890133 0.14508125 -0.092764266 0.13794699 -0.24639611 0.95930159 0.00016341676
-0.073178545 0.14313126 -0.094596162 0.12744644 -0.24786109 0.96037608 0.00013917118
-0.062577963 0.14262789 -0.095921554 0.10932463 -0.25198227 0.96153688 5.0618608e-05
-0.055618566 0.1445182 -0.096190266 0.098570824 -0.25596318 0.96164787 6.7582812e-05
-0.043116506 0.14523885 -0.097397499 0.077279888 -0.25950187 0.96264559 0.00016780924
-0.035059832 0.14406727 -0.098341107 0.06289272 -0.25441268 0.96504855 0.00022516254
-0.026610829 0.14467709 -0.098503053 0.049243312 -0.25718987 0.96510541 0.00019329712
-0.015599493 0.14502613 -0.098822951 0.026898446 -0.26020214 0.96517938 0.00019855751
-0.006330933 0.14621021 -0.098833494 0.016591078 -0.26372033 0.96445644 0.00020382016
0.0045929928 0.14580403 -0.099017739 -0.012400142 -0.26027673 0.96545446 0.00025603711
0.014141761 0.14634238 -0.09849593 -0.023255104 -0.25965443 0.96542156 0.0001710276
0.024607688 0.14506143 -0.098467804 -0.042148691 -0.25938824 0.96485293 0.00013918335
0.034997325 0.14429368 -0.098293453 -0.061685778 -0.25710809 0.96441191 0.0002124969
0.044722226 0.14545943 -0.097157642 -0.083503343 -0.26132408 0.96163237 0.00014710237
0.054608837 0.14305046 -0.096701033 -0.10186655 -0.25514311 0.96152228 7.8455174e-05
0.063592367 0.14333829 -0.095615365 -0.11236542 -0.2514365 0.96132916 7.5404721e-05
0.073254645 0.14531417 -0.093996435 -0.12075219 -0.25159502 0.96027023 0.00010291221
0.08400093 0.14294346 -0.093272053 -0.14101672 -0.24046311 0.96036023 0.00015893768
0.094227567 0.14529541 -0.090963639 -0.15932164 -0.24240918 0.95700276 0.00018349555
0.10095131 0.14281583 -0.090340339 -0.17195162 -0.23965728 0.95550877 0.00017074759
-0.085680746 0.15188211 -0.090781383 0.13965797 -0.2548039 0.95685446 0.00022128259
-0.075628698 0.1544905 -0.091244973 0.12261615 -0.25926599 0.95799077 0.00012839278
-0.0672547 0.15559494 -0.091885172 0.11407342 -0.26569238 0.95728517 7.6461809e-05
-0.056475375 0.15593122 -0.093003221 0.10174995 -0.263524 0.95927167 4.7568999e-05
-0.042987905 0.15695725 -0.094198972 0.078126572 -0.26837453 0.9601413 0.00016274869
-0.031998288 0.1559885 -0.095009483 0.051869083 -0.27344081 0.96048927 0.00010728191
-0.024718959 0.15752821 -0.094840631 0.039346643 -0.27567139 0.96044624 3.7508915e-05
-0.013502465 0.1536786 -0.096388645 0.023972774 -0.27489272 0.96117598 9.4882642e-05
-0.0038374539 0.1536777 -0.096758716 0.0073872819 -0.27360794 0.96181285 0.00018608809
0.0067781657 0.1536575 -0.09665174 -0.016894413 -0.2716327 0.96225274 0.00013915416
0.013612051 0.15487474 -0.096036464 -0.023208838 -0.27731416 0.96049893 9.2434995e-05
0.025021983 0.15647398 -0.095135108 -0.043185569 -0.27412155 0.96072489 6.0903956e-05
0.031881403 0.15635006 -0.094908692 -0.051208902 -0.27333322 0.96055543 7.4215153e-05
0.045534078 0.15604521 -0.094180189 -0.083792582 -0.26922074 0.9594264 0.0001447301
0.053715631 0.15630421 -0.09321177 -0.092463374 -0.26747206 0.95911896 0.00011060308
0.06411612 0.15344273 -0.092820093 -0.11038116 -0.26109564 0.95898122 1.6603712e-05
0.073327817 0.15385555 -0.091675021 -0.12063061 -0.2605415 0.95789689 0.00011691465
0.084251419 0.15481722 -0.090189278 -0.13944846 -0.25922635 0.95569658 0.00022589373
0.09160085 0.15024154 -0.090282165 -0.15458275 -0.24837194 0.95625079 0.00026022919
-0.065645933 0.16144474 -0.090481356 0.11013333 -0.27264762 0.95578969 0.00011755416
-0.054742303 0.16384929 -0.091053218 0.09297882 -0.2710728 0.9580577 0.00012612758
-0.043695491 0.1654647 -0.091697387 0.074149631 -0.27461717 0.9586904 0.00018414797
-0.037066467 0.16816908 -0.091275498 0.061156243 -0.28615728 0.95622897 0.00018530826
-0.026675723 0.16639425 -0.092189021 0.045489844 -0.28427917 0.95766175 6.6277527e-05
-0.013165903 0.16552581 -0.092958502 0.021508824 -0.28101581 0.95946211 9.7919547e-05
-0.005795815 0.16350028 -0.093829177 0.012597579 -0.28122231 0.95955992 0.00011191495
0.007033037 0.16367929 -0.093729474 -0.01570214 -0.28165942 0.95938593 0.0001001717
0.014151235 0.16529544 -0.092987396 -0.026623866 -0.2829999 0.95875037 6.2499254e-05
0.025570935 0.16419815 -0.092869259 -0.046684511 -0.27764472 0.95954883 6.5515909e-05
0.033211932 0.16664287 -0.091866374 -0.048775326 -0.278404 0.95922488 6.6578403e-05
0.043741342 0.16611004 -0.09156806 -0.073650174 -0.27777454 0.95781881 0.00021384205
0.053948622 0.1653813 -0.090727344 -0.091009371 -0.27668196 0.95664227 0.00018372842
0.071975186 0.16027686 -0.090087697 -0.11848559 -0.26946259 0.95569396 0.00012294448
-0.015412112 0.17354789 -0.090541132 0.032217093 -0.29284155 0.95561802 0.00010743709
-0.0056244549 0.17302024 -0.091069058 0.011487426 -0.29204106 0.9563368 0.00018057783
0.0069131665 0.17260246 -0.091140844 -0.01679641 -0.28658211 0.95790839 0.00010320102
0.025791176 0.1736601 -0.090111017 -0.043263447 -0.29554304 0.95434934 0.00014515482
0.036207583 0.17184016 -0.090241283 -0.057851065 -0.28907913 0.95555568 0.00018128553
-0.024579367 -0.20245849 -0.080370456 0.042981856 0.33803913 0.94015002 4.5081426e-05
-0.016123902 -0.20150305 -0.081127219 0.037381243 0.33706057 0.94074053 6.1562001e-05
-0.0050642337 -0.20389527 -0.080785014 0.006441345 0.33824766 0.94103515 0.00023099293
0.0048649628 -0.20361277 -0.080897622 -0.010728817 0.33766606 0.94120479 0.00023962246
0.014155659 -0.20273156 -0.080772452 -0.03507622 0.34004593 0.93975443 4.6206911e-05
0.023406547 -0.2023627 -0.0804618 -0.040526483 0.33985111 0.93960571 3.2590269e-05
0.032873549 -0.20202935 -0.080127783 -0.050444625 0.34045392 0.93890703 2.8004686e-05
0.041277345 -0.2001631 -0.080405682 -0.062332995 0.33588794 0.93983716 0.00012780093
-0.063804001 -0.19105622 -0.081478655 0.11480037 0.31565675 0.94190329 0.00013440383
-0.053116094 -0.1912068 -0.082936078 0.09219294 0.31872714 0.94335216 0.00022774971
-0.042738337 -0.19422293 -0.082508005 0.06115444 0.32750511 0.94286829 0.0001709413
-0.037003379 -0.19364567 -0.082995348 0.058364458 0.32546079 0.94375253 0.00017299838
-0.022961369 -0.19539322 -0.083032578 0.039918389 0.32992887 0.94316137 8.0904567e-05
-0.016687442 -0.19500823 -0.083475612 0.039120901 0.32885921 0.94356829 8.6012267e-05
-0.0036340589 -0.19373021 -0.084571861 0.0084543275 0.32801336 0.94463527 0.00023751878
0.005074915 -0.19452077 -0.084212989 -0.01231617 0.32730302 0.94483918 0.00022385073
0.017051797 -0.19550706 -0.08327537 -0.037709203 0.33069134 0.9429853 0.00010244177
0.029900646 -0.19251642 -0.083750367 -0.04686904 0.32504591 0.94453609 9.406871e-05
0.036591135 -0.19519441 -0.082448646 -0.057165302 0.32971007 0.94234997 0.00013422877
0.044172145 -0.19515964 -0.082096294 -0.068997204 0.32871866 0.94190407 0.00021886588
0.05490898 -0.19504635 -0.0813298 -0.092655644 0.32646197 0.94065803 0.00023353472
0.06293878 -0.19297814 -0.080945745 -0.11128104 0.32033625 0.940745 0.00015181674
0.071336329 -0.19106165 -0.080413513 -0.12432706 0.31759572 0.94004029 5.3112897e-05
-0.096805945 -0.18041635 -0.08044631 0.15987982 0.30086672 0.94016898 0.00023761753
-0.085326016 -0.18318398 -0.08112359 0.13458233 0.30944768 0.94134474 4.4458953e-05
-0.075194232 -0.18334782 -0.082497984 0.12764633 0.30730617 0.94301081 7.6961653e-05
-0.06510856 -0.18352766 -0.083860427 0.11529044 0.30868161 0.94415241 0.00016132109
-0.052983575 -0.1845441 -0.085225604 0.090532072 0.30599633 0.94771838 0.00026342098
-0.046081893 -0.1852171 -0.08564084 0.074246079 0.31159765 0.94730908 0.0002996808
-0.0367659 -0.18723063 -0.085353129 0.058744468 0.31995395 0.94561011 0.00019818879
-0.024534946 -0.1854784 -0.086519539 0.041820142 0.31743026 0.94735903 0.0001231838
-0.01690473 -0.18318157 -0.087684184 0.032237668 0.30907255 0.95049191 0.00015268938
-0.0037993847 -0.18553732 -0.087441444 0.0083327852 0.31188545 0.9500832 0.00028568288
0.0052122194 -0.1856419 -0.087349653 -0.014089799 0.31559759 0.94878846 0.00025478657
0.013176426 -0.18453066 -0.087376617 -0.027919846 0.31159803 0.94980371 0.0002033186
0.02668741 -0.18429516 -0.086861715 -0.043117907 0.3152709 0.94802171 0.00012186002
0.035629135 -0.18565679 -0.085983433 -0.054444838 0.31998071 0.94585842 0.00015236868
0.045396574 -0.18325835 -0.086381659 -0.075589091 0.31152958 0.94722521 0.00030371084
0.055169441 -0.18363757 -0.085226014 -0.091724075 0.30742732 0.94714051 0.00022795614
0.064744696 -0.18447472 -0.083589017 -0.11354476 0.31021097 0.94386268 0.00013860577
0.075027525 -0.18376656 -0.082378812 -0.1287955 0.30796126 0.94264072 4.5345285e-05
0.085116036 -0.182721 -0.081311025 -0.13706698 0.30931845 0.94102854 7.7322584e-05
-0.10637856 -0.17514892 -0.080451816 0.18137001 0.2887395 0.94007146 0.00025977028
-0.095783874 -0.17547448 -0.082274929 0.15644012 0.29503578 0.94259238 0.00022893462
-0.084801033 -0.17412245 -0.084286109 0.13250998 0.29659617 0.94576526 0.00010748835
-0.074346304 -0.17550963 -0.08528915 0.12502263 0.29825008 0.94626433 9.7527918e-05
-0.066746496 -0.17364901 -0.086957999 0.12077679 0.29445419 0.94800305 9.3002433e-05
-0.055311628 -0.17372665 -0.088314325 0.095660217 0.28944048 0.95240402 0.0002079282
-0.046745803 -0.17469966 -0.08891505 0.083609313 0.28980744 0.95342606 0.00023236765
-0.036230445 -0.17669316 -0.088830173 0.051828664 0.29609659 0.95375079 0.00017916152
-0.023550926 -0.17553717 -0.089651465 0.036847979 0.29919091 0.9534815 0.00013278655
-0.014372453 -0.17758353 -0.089408055 0.028019777 0.30223435 0.95282179 0.00016977101
-0.0085710278 -0.17792886 -0.089529745 0.019735424 0.29702443 0.9546659 0.0001878872
0.0083753075 -0.17797311 -0.089524165 -0.019662591 0.29482469 0.95534909 0.00018770686
0.015535627 -0.178859 -0.088992663 -0.028848717 0.30260608 0.95267898 0.00017849465
0.033584844 -0.17629005 -0.089048505 -0.050446067 0.30072299 0.95237643 0.00016221766
0.046430804 -0.17556778 -0.08869911 -0.073239349 0.29660794 0.95218682 0.00024654731
0.055302478 -0.17276223 -0.08857654 -0.099072345 0.2921418 0.95122963 0.00020238524
0.064227663 -0.17445302 -0.0870298 -0.11472425 0.296244 0.94819719 0.00013862769
0.076588988 -0.17487398 -0.085189216 -0.12573881 0.29951155 0.94577092 9.9478544e-05
0.085388161 -0.17546 -0.083747365 -0.13971861 0.30177334 0.94308621 0.00012701513
0.094917983 -0.17533548 -0.082444519 -0.15775561 0.29619408 0.94200969 0.00027340965
0.1033663 -0.17535329 -0.081057526 -0.16930245 0.29354718 0.94083303 0.00023244839
-0.11546184 -0.16281316 -0.082021967 0.19979866 0.27010152 0.94187349 6.9272304e-05
-0.10340784 -0.16500942 -0.08408653 0.17547663 0.27613619 0.94496387 0.00022526742
-0.095457971 -0.1655845 -0.085563496 0.15823722 0.28023222 0.94680035 0.00025478439
-0.082751095 -0.16073813 -0.08875405 0.13730554 0.2731733 0.9521153 0.0002013607
-0.074422739 -0.16400534 -0.088796817 0.12254011 0.28201309 0.95155269 0.00012535117
-0.067961976 -0.16442922 -0.0894133 0.11544327 0.27821261 0.95355678 0.00012134741
-0.057470549 -0.16817851 -0.089574732 0.10067039 0.28150177 0.9542653 0.00016532227
0.065718658 -0.1648788 -0.089543179 -0.11449078 0.28229436 0.95247144 0.00011408365
0.076296553 -0.16621235 -0.087995507 -0.12465772 0.28165272 0.95138431 0.00017712441
0.084523171 -0.16607064 -0.086983055 -0.1378122 0.28558922 0.94839156 0.00020632884
0.094657436 -0.16345222 -0.08641205 -0.1585567 0.27353182 0.94870442 0.00026690023
0.10640045 -0.16364469 -0.083813809 -0.18052927 0.27309278 0.94489658 0.00019701908
0.11453436 -0.1653986 -0.081473604 -0.19885142 0.27247605 0.94138986 0.00010049578
0.12092383 -0.16423456 -0.080379188 -0.20564656 0.27229467 0.93998146 4.72233e-05
-0.13453245 -0.1528126 -0.080665514 0.22078137 0.26051506 0.93988699 0.00014920966
-0.12399184 -0.15549563 -0.082247719 0.20299536 0.26436481 0.94281715 8.725193e-05
-0.11669578 -0.15603347 -0.083729006 0.20105496 0.26280895 0.94366747 7.9691148e-05
-0.106029 -0.15491295 -0.08644516 0.18640804 0.2620571 0.94687814 0.0001425277
-0.09823896 -0.15740004 -0.087408543 0.16867781 0.26194552 0.9502275 0.00022933191
-0.087188244 -0.15797104 -0.089005731 0.14585915 0.26683611 0.95264035 0.00024627187
-0.075848199 -0.15919214 -0.08994703 0.12715335 0.26876247 0.95477682 0.00018029455
0.077439882 -0.15912002 -0.08978802 -0.12643206 0.27077809 0.95430303 0.00017644705
0.08550036 -0.15686293 -0.089495167 -0.14287037 0.2638697 0.95391864 0.00026699231
0.09435486 -0.15550929 -0.088553958 -0.16217735 0.26411334 0.95075893 0.00026705995
0.10385054 -0.15463401 -0.086958937 -0.17617199 0.26036194 0.94930243 0.00017102496
0.11616651 -0.15709183 -0.083538152 -0.20044184 0.26479533 0.94324255 8.9836649e-05
0.1253082 -0.15420929 -0.082328543 -0.20726365 0.26209491 0.94252211 7.5448595e-05
0.13431236 -0.15157998 -0.081075706 -0.21648218 0.25785354 0.9416194 0.00012429664
-0.15082774 -0.14001861 -0.080014214 0.25541893 0.22581108 0.94009066 0.00016746351
-0.14330967 -0.14329267 -0.081393048 0.23881979 0.2359415 0.94196433 0.0002617444
-0.13574865 -0.14620459 -0.082326308 0.22323711 0.24831972 0.94260412 0.00022993177
-0.12387796 -0.1435954 -0.085756108 0.20570317 0.24672762 0.9470014 0.00015740996
-0.11656814 -0.14440773 -0.087125137 0.19712593 0.25093514 0.94771981 0.0001359242
-0.10421404 -0.14558741 -0.089113519 0.17681591 0.24224082 0.95396829 0.00012888212
0.10646766 -0.14611253 -0.088589206 -0.1854943 0.24701139 0.95109266 0.00016472653
0.11590996 -0.14623031 -0.086717039 -0.19692321 0.249593 0.94811636 0.00014504638
0.12341202 -0.14425728 -0.085667044 -0.20409809 0.24843906 0.94690126 0.0001466487
0.1359847 -0.14371401 -0.083002202 -0.22329102 0.24395818 0.94372958 0.00024893641
0.1441036 -0.1409518 -0.081739284 -0.24234614 0.23319644 0.94174713 0.00023212533
-0.1545177 -0.13144031 -0.08086098 0.26286599 0.21649809 0.94022876 0.0001042516
-0.1455652 -0.13429104 -0.082840815 0.24963005 0.21954006 0.9431262 0.00021121149
-0.13513571 -0.13430047 -0.085785829 0.2263926 0.22642544 0.94735307 0.00025293176
-0.12227079 -0.13335808 -0.088734932 0.2021023 0.22586891 0.9529627 0.00021845846
-0.11630699 -0.13543105 -0.089317203 0.19504809 0.23121795 0.9531498 0.00018901886
0.10833947 -0.13895796 -0.089918949 -0.18381409 0.23620136 0.95415998 0.0001258554
0.11614316 -0.13572899 -0.089277156 -0.1941814 0.2305858 0.95347983 0.00015032095
0.12541643 -0.13454904 -0.087896585 -0.2064497 0.23045893 0.9509297 0.00016037267
0.13561726 -0.13372503 -0.085796043 -0.23054995 0.22176239 0.9474535 0.00023150613
0.1447123 -0.13574699 -0.082763419 -0.24535954 0.22237295 0.94358307 0.0002396029
0.15657282 -0.13101497 -0.080355048 -0.26903573 0.2132068 0.93923509 4.2821848e-05
-0.1615182 -0.12035153 -0.081302717 0.27153 0.20450871 0.94045079 4.1160802e-05
-0.15444677 -0.1246477 -0.082407378 0.26283249 0.20689967 0.9423967 7.8940793e-05
-0.14468113 -0.12432005 -0.085339054 0.24794187 0.20352921 0.94715393 0.00015691057
-0.13475871 -0.12748089 -0.08741986 0.23290579 0.21330501 0.94881815 0.00023675563
-0.12794796 -0.12903281 -0.088701904 0.21561863 0.2203431 0.95129257 0.0002644737
0.13310431 -0.12309331 -0.088647112 -0.22599146 0.20677315 0.951931 0.00023745252
0.14201885 -0.12539984 -0.08587569 -0.24164541 0.20854509 0.94769013 0.00019853955
0.15590222 -0.1244601 -0.082023546 -0.26877275 0.20898005 0.94025981 3.2201435e-05
0.16168457 -0.12542221 -0.080115147 -0.27173978 0.20898455 0.93940562 1.11908e-05
-0.17100126 -0.11199065 -0.080405205 0.28161213 0.18829319 0.94087207 0.00016035509
-0.1647279 -0.11342704 -0.08191859 0.27518022 0.19732246 0.94092488 7.3363422e-05
-0.15520972 -0.11147277 -0.085143194 0.26262733 0.19151777 0.94569963 0.00012344815
-0.14268336 -0.11565115 -0.087735988 0.24428461 0.19351915 0.95019758 0.00014528341
-0.13524646 -0.1175082 -0.089145675 0.23301253 0.19825007 0.95205152 0.00018451911
0.13853656 -0.11464468 -0.088891618 -0.23681968 0.19249822 0.95229244 0.00013164
0.14440966 -0.11657172 -0.087112136 -0.24733636 0.19705555 0.94867998 0.00013254056
0.15377414 -0.11631273 -0.084476277 -0.2605021 0.19768335 0.94501853 0.00010026217
0.16401783 -0.11301094 -0.082219869 -0.27374265 0.19439146 0.94195378 9.9024859e-05
-0.16599892 -0.10464872 -0.083518237 0.27952135 0.18135715 0.94285595 0.00020935452
-0.15522446 -0.10412784 -0.08673346 0.26276216 0.17938803 0.94803798 0.00018556749
-0.14467865 -0.10492742 -0.089197457 0.24504119 0.1772729 0.95316792 0.00015488217
0.14764154 -0.10316035 -0.088823818 -0.24526788 0.17605373 0.95333558 0.00018080728
0.15389594 -0.10482503 -0.08695706 -0.25910848 0.18485983 0.94799244 0.00017412876
0.16475435 -0.10448059 -0.083920248 -0.27787691 0.17972642 0.943654 0.00020416964
0.17323141 -0.10244647 -0.081873879 -0.28746942 0.17305523 0.94202614 0.00020549989
-0.18113358 -0.097924367 -0.080043972 0.29955322 0.15949619 0.94065344 0.00021072412
-0.17683129 -0.09429834 -0.082022175 0.29981986 0.15318421 0.94161713 0.00018274209
-0.16444422 -0.095416754 -0.085932709 0.2790049 0.16148217 0.94661486 0.00021859151
