# .PCD v0.7 - Point Cloud Data file format
VERSION 0.7
FIELDS x y z normal_x normal_y normal_z curvature
SIZE 4 4 4 4 4 4 4
TYPE F F F F F F F
COUNT 1 1 1 1 1 1 1
WIDTH 593
HEIGHT 1
VIEWPOINT 0 0 0 1 0 0 0
POINTS 593
DATA ascii
-0.21747358 0.094728351 -0.16300933 0.39929825 -0.18923905 0.89707839 0.21104772
-0.20498633 0.094236948 -0.16706054 0.40593401 -0.13546523 0.90380681 0.18549375
-0.13671854 0.092195824 -0.16041753 0.064522542 0.1510645 0.98641592 0.20637211
-0.1206893 0.097643808 -0.16104428 -0.021459039 -0.13559246 0.99053234 0.19484976
-0.11369252 0.09649124 -0.16146116 -0.20351888 -0.066455156 0.97681314 0.20380108
-0.10760003 0.095746025 -0.16181368 -0.039293759 -0.22032984 0.97463369 0.18564953
-0.094126284 0.097108066 -0.1624344 0.16164711 -0.073804565 0.98408484 0.1773451
-0.082592443 0.097829483 -0.16286439 0.44032022 -0.22521719 0.86913478 0.17933722
-0.079672381 0.092613429 -0.16303773 0.34181169 -0.1733624 0.92363966 0.20653561
-0.056157336 0.094512999 -0.16230536 -0.040456284 0.19645342 0.97967821 0.20434773
-0.045752648 0.09479025 -0.16207178 -0.34932634 0.14753203 0.92531365 0.16821569
-0.035544865 0.096632272 -0.1619457 0.00030661174 0.018476687 0.99982923 0.22405578
-0.026009344 0.094837114 -0.16164261 0.10412328 0.096671566 0.98985493 0.19652635
-0.016888991 0.097189642 -0.16169889 0.0086439112 0.14510486 0.98937851 0.20597914
-0.0066886395 0.09786126 -0.16166084 0.083413541 -0.089809313 0.99245983 0.25377277
0.00023322928 0.095510587 -0.1614794 -0.13136527 0.035272826 0.99070632 0.22714698
0.015294615 0.099315159 -0.16180751 0.40272865 0.10022743 0.90981549 0.21269971
0.027337287 0.093660355 -0.16161621 -0.03985231 0.31754071 0.94740683 0.19547813
0.04714033 0.09415596 -0.16206864 -0.35046253 -0.26531732 0.89821088 0.25125125
0.05687562 0.098743021 -0.16252398 -0.12593685 0.22736043 0.96563309 0.19187197
0.066513836 0.095674179 -0.16271855 -0.041747406 0.22577743 0.97328395 0.20686896
0.072658561 0.093802787 -0.16284756 0.067468338 -0.069199972 0.99531871 0.20729731
0.082997277 0.098395325 -0.16281801 0.11778186 -0.10102529 0.98788726 0.23041749
0.096364394 0.09783271 -0.16230524 0.15937322 -0.29810482 0.94113427 0.19657733
0.10736235 0.095846184 -0.16182218 0.020136639 -0.26374963 0.96438104 0.1969886
0.11923067 0.09841463 -0.16109014 -0.14805774 -0.12194219 0.98143214 0.22387528
0.12402064 0.09346278 -0.16103777 -0.30802014 -0.13062468 0.94236976 0.20175257
0.13204727 0.097257391 -0.16045916 -0.39754194 -0.21478809 0.89209104 0.18996927
0.19801411 0.09248428 -0.16951799 -0.33125696 0.14461806 0.93239182 0.19993179
0.20455387 0.093368471 -0.16731343 -0.46083212 -0.12129303 0.87915969 0.19990066
0.21402517 0.095002003 -0.16407397 -0.59457386 -0.21079889 0.77591604 0.17835568
0.22280234 0.091167919 -0.16177908 -0.47013086 -0.32701665 0.81977874 0.20550931
-0.22189847 0.10632455 -0.16006349 0.17061485 -0.10839619 0.97935736 0.19231322
-0.21695569 0.10532273 -0.1617738 0.28804937 -0.2832171 0.91477627 0.19621478
-0.20407087 0.10355152 -0.16612113 0.52463347 -0.19185336 0.82942867 0.18457639
-0.19354348 0.10643712 -0.16910017 0.2084773 -0.27861726 0.93750179 0.20780469
-0.12505068 0.10428288 -0.16054411 -0.03460208 0.030631918 0.99893165 0.22701687
-0.11307389 0.10493398 -0.16115122 -0.12972586 -0.082876444 0.98808038 0.19723326
-0.10598908 0.10705525 -0.1614195 0.063820712 -0.013882018 0.99786484 0.18770926
-0.093097389 0.10439019 -0.16209097 0.0010695822 0.046096146 0.99893647 0.17579019
-0.083258003 0.1024389 -0.16259354 0.31196529 0.073031403 0.94728249 0.18078597
-0.07759805 0.10203971 -0.16284439 0.25781766 -0.051475201 0.96482146 0.22642329
-0.063471787 0.10388055 -0.16291066 -0.012127435 0.32173938 0.94675064 0.19728562
-0.051265962 0.10633726 -0.16280243 -0.16905351 0.028649017 0.98519039 0.20627017
-0.042260367 0.10422475 -0.16249377 0.080339357 0.038256932 0.99603313 0.21607088
-0.036363214 0.10188879 -0.16224131 -0.051420182 0.25128341 0.96654677 0.21250212
-0.0052324622 0.10706392 -0.16217168 -0.17489702 0.26522279 0.94819188 0.24154906
0.0034049314 0.10828362 -0.1622272 -0.13887879 0.014499048 0.99020326 0.24009994
0.010526498 0.10374001 -0.16202275 0.31254399 -0.016223814 0.94976473 0.22916587
0.023757439 0.104631 -0.16217202 -0.10359969 -0.064368278 0.99253398 0.22709484
0.035262167 0.10368403 -0.16231206 0.13485579 0.24192281 0.96087843 0.23197469
0.048883609 0.10581949 -0.16272295 -0.18583454 0.049916584 0.98131233 0.23072413
0.052819431 0.10234868 -0.16262572 -0.12245122 0.089303248 0.98844862 0.20297706
0.079881437 0.1069746 -0.16249068 -0.11276625 -0.085608564 0.98992682 0.18147832
0.082416363 0.10529208 -0.16247679 -0.036904775 -0.1368542 0.98990351 0.19280335
0.093335763 0.10428262 -0.16208698 0.13202436 -0.14613734 0.98041499 0.19465566
0.1021025 0.1027841 -0.16181043 -0.042895637 -0.31005594 0.94975013 0.19499958
0.11891963 0.10861249 -0.16069268 -0.027179252 -0.26873764 0.96282995 0.20155817
0.1216794 0.10491979 -0.16069658 -0.098631755 -0.11463292 0.9884994 0.22550018
0.19478202 0.10539834 -0.16884217 -0.14672384 -0.23101975 0.96182227 0.18803665
0.20985912 0.10278426 -0.16437486 -0.54965442 -0.11570443 0.8273406 0.16965333
0.21524325 0.10609087 -0.1622189 -0.62974727 -0.036327317 0.77595019 0.17692517
-0.2106614 0.11046679 -0.16310291 0.44498992 -0.091023214 0.89089775 0.18031323
-0.20455602 0.11632429 -0.16427737 0.2786364 -0.25229976 0.92666417 0.18249406
-0.19282524 0.1165486 -0.16758463 0.23090649 -0.080002099 0.96968132 0.21625741
-0.12094442 0.11835701 -0.16000405 0.068361789 -0.4276973 0.90133321 0.18343934
-0.11480831 0.11436476 -0.16064757 -0.14019725 -0.23627576 0.96151888 0.20203075
-0.10885046 0.11471075 -0.16090566 0.082669131 -0.11394856 0.9900412 0.20868991
-0.097461224 0.11389209 -0.16141123 0.15893528 0.20202659 0.96639782 0.15839036
-0.085947067 0.11472765 -0.16183439 0.28344804 0.04997582 0.95768452 0.16941251
-0.073128961 0.11640584 -0.16226587 0.018095257 0.031654641 0.99933505 0.2076132
-0.067475356 0.11583404 -0.16252559 0.033303898 0.049640901 0.99821174 0.21555343
-0.045039799 0.11517303 -0.16300529 0.05129537 0.49595696 0.86683071 0.19205588
-0.031930596 0.11885588 -0.16304374 -0.093830958 0.26984611 0.9583208 0.19184488
-0.027567774 0.11232219 -0.16263649 -0.060002618 0.10511985 0.99264771 0.21593721
-0.01929035 0.11255402 -0.16258785 0.16805969 0.021193376 0.98554897 0.21160245
-0.0044642873 0.11357369 -0.16253503 -0.18973209 0.097110815 0.97702157 0.2175985
0.017186133 0.11947356 -0.16296445 0.15492821 0.18543318 0.97036684 0.21974729
0.040191121 0.11692743 -0.16311955 -0.37980431 -0.22727688 0.89671284 0.22096024
0.054516166 0.11697638 -0.1627949 -0.0020798999 -0.02995529 0.99954909 0.18332702
0.074553713 0.11581491 -0.16223931 -0.069476791 0.083102934 0.99411613 0.20965804
0.085448444 0.11241421 -0.16197699 0.21344423 0.085329354 0.9732216 0.23025504
0.091263741 0.1139002 -0.16166234 -0.15087029 -0.038065188 0.98782045 0.22200158
0.10125939 0.11262864 -0.1613239 -0.0055945693 -0.1320231 0.99123091 0.20649427
0.11645019 0.11807993 -0.160403 0.072606422 -0.20419942 0.97623301 0.20099001
0.18597324 0.11657164 -0.16945806 -0.038612034 -0.17271264 0.98421514 0.16709591
0.19604988 0.11055127 -0.16775608 -0.17615867 -0.18473324 0.96687222 0.16892055
0.20276904 0.11638642 -0.16483961 -0.48391736 -0.17377061 0.85768747 0.17303729
0.21548915 0.11238842 -0.16130768 -0.47260687 -0.048898499 0.87991571 0.18238114
-0.21009301 0.12282339 -0.16153127 0.11165791 -0.27618352 0.95459688 0.18773164
-0.19200033 0.12418543 -0.16620441 0.43360123 -0.27244934 0.85893035 0.18115693
-0.186147 0.12705344 -0.16720566 0.33409718 -0.29800275 0.89418876 0.16753523
-0.10596804 0.12366412 -0.16054906 0.24768786 -0.15664871 0.956092 0.17263906
-0.094340377 0.12508401 -0.16094589 0.11510058 0.22194929 0.96824086 0.16311815
-0.073948644 0.12479193 -0.16178901 0.19289009 -0.020202704 0.98101234 0.21280125
-0.068095148 0.12497058 -0.16195601 -0.067566581 0.0093494533 0.99767101 0.22434977
-0.044332419 0.12251922 -0.1627133 0.072841525 0.27664852 0.95820647 0.19069593
-0.034942992 0.12890401 -0.16253965 -0.1708692 -0.0014639655 0.98529261 0.20494267
-0.0054527968 0.12376859 -0.16292442 -0.074107386 0.21986537 0.97271132 0.18453149
0.0017538427 0.12563324 -0.16293627 -0.22580285 0.089534521 0.97004986 0.21958505
0.018197736 0.12424399 -0.16302013 0.13158004 -0.11548033 0.98455626 0.20934899
0.023942392 0.12646109 -0.16282359 0.35418996 -0.14632428 0.92365509 0.19681147
0.035950091 0.12288433 -0.16288534 -0.32564867 -0.28612775 0.9011569 0.18140849
0.065730445 0.12590869 -0.16195856 -0.022915415 0.082921624 0.99629259 0.15929008
0.075432017 0.127859 -0.16156659 -0.39288238 -0.28167117 0.87538838 0.16368602
0.085560158 0.1241333 -0.16135256 -0.2205347 -0.16629285 0.96109897 0.19642556
0.095305309 0.1255955 -0.16087967 0.00043886903 -0.011393635 0.99993497 0.18166801
0.1031408 0.12502593 -0.16059178 -0.05037386 -0.022682426 0.99847281 0.19402333
0.19790514 0.12271325 -0.16489543 -0.26200905 -0.27663344 0.92456758 0.19525369
0.20580783 0.1250717 -0.16223302 -0.44662499 -0.10315464 0.88875484 0.19014615
0.2100524 0.12727655 -0.16060573 -0.29477686 -0.11719559 0.94835216 0.1942378
-0.19400643 0.13786516 -0.16277707 0.38138881 0.021708054 0.92415982 0.17397091
-0.18089586 0.13424291 -0.16713288 0.28776076 -0.11450253 0.95083278 0.19189709
-0.10028976 0.1324553 -0.1603145 0.32890105 0.00021297349 0.94436437 0.18414465
-0.086884044 0.13636404 -0.16065186 0.16327825 0.16288295 0.9730413 0.22120711
-0.072935857 0.13525908 -0.16119874 0.037293181 0.3244184 0.94517827 0.2336071
-0.048850734 0.13308987 -0.16194689 -0.071794152 -0.0089592319 0.99737924 0.1934679
-0.024935745 0.13987413 -0.1619283 0.043817066 -0.13583691 0.98976177 0.21175875
-0.012734714 0.13716476 -0.16221358 0.25873837 -0.17088772 0.95071125 0.19704649
0.0079271877 0.13612545 -0.16232412 -0.37570608 0.021588778 0.92648739 0.21096106
0.038379434 0.13071805 -0.16236018 -0.087795481 -0.043077122 0.99520665 0.20089389
0.043388437 0.13822532 -0.16176991 0.024289524 -0.27465016 0.96123743 0.19337574
0.066587463 0.13314816 -0.16149074 -0.21927388 -0.21109918 0.9525525 0.18052213
0.07199806 0.13892776 -0.16099668 -0.24052142 -0.085780703 0.96684599 0.19818507
0.088428766 0.13362968 -0.1607338 0.062316466 -0.081960551 0.99468547 0.19273499
0.09073095 0.13052174 -0.16080476 0.12162722 -0.12165503 0.98509228 0.1891465
0.19584075 0.13782421 -0.16228285 -0.228158 -0.17586674 0.95760894 0.18078902
-0.18250838 0.14437273 -0.16456012 0.25775158 -0.056084599 0.96458209 0.16331914
-0.17183584 0.14446691 -0.16746591 0.17824703 -0.17903596 0.96756095 0.19176011
-0.16700123 0.14700773 -0.16825674 0.15216725 -0.081096381 0.98502207 0.18300547
-0.08237838 0.14182484 -0.1605459 0.31414762 -0.034023494 0.94876426 0.20001781
-0.068081707 0.14400029 -0.16078414 -0.0061599319 -0.079248808 0.99683589 0.2315359
-0.046562657 0.14552486 -0.1612393 0.024457302 -0.34288761 0.93905795 0.20647869
-0.035485502 0.14421633 -0.16154724 -0.039313603 -0.30698633 0.95090163 0.23477541
-0.02448754 0.14853665 -0.16135958 0.054171503 -0.50443202 0.86175042 0.2182568
-0.012574666 0.14659163 -0.16159183 0.12379947 -0.072810166 0.98963243 0.24394536
-0.0036162378 0.14522964 -0.16175982 0.07250803 -0.26154509 0.96246392 0.23602077
0.0030035186 0.14600205 -0.16171408 -0.085830159 -0.12493314 0.98844576 0.2094399
0.017430495 0.14214905 -0.16184323 -0.20056693 -0.05750142 0.97799104 0.20181748
0.022622988 0.14488351 -0.16161728 -0.11506595 -0.046124987 0.99228644 0.21084049
0.034568392 0.14671639 -0.16139217 -0.12110549 -0.088913627 0.98864955 0.21072648
0.041934986 0.14326154 -0.16149679 0.047094069 0.036629356 0.99821866 0.20236938
0.055947561 0.14274551 -0.16117103 0.13874127 -0.089177407 0.98630542 0.19976258
0.060981408 0.1410652 -0.1611461 -0.077601761 -0.15060528 0.98554355 0.20176734
0.077688411 0.14624685 -0.16040064 0.028577678 -0.047449686 0.99846476 0.22304223
0.16287738 0.14575434 -0.16965085 -0.53124452 -0.055586386 0.84539306 0.19744648
0.1721655 0.14260782 -0.1677666 -0.10573761 -0.094502047 0.98989338 0.21113768
0.18445732 0.14564659 -0.16375794 -0.24318343 -0.22718635 0.94299954 0.17350802
-0.19196016 0.15354335 -0.1600402 0.39134872 -0.19317202 0.89973921 0.17705864
-0.18518232 0.15553242 -0.1614798 0.31722322 -0.17738265 0.9316141 0.18133637
-0.17696957 0.15351219 -0.16415603 0.31098676 -0.3163299 0.89622688 0.17353089
-0.16708006 0.1531816 -0.16693652 0.16887929 -0.30621263 0.93686372 0.18847968
-0.15926795 0.15787832 -0.16809009 0.1653308 -0.45424369 0.87540191 0.16588284
-0.055292912 0.15059887 -0.16070399 0.10096812 -0.33081657 0.93827814 0.22188255
-0.044549029 0.15303446 -0.1608281 -0.1909105 -0.36749664 0.91021943 0.22744392
-0.0343704 0.15710482 -0.16070718 0.048259646 0.066475183 0.9966203 0.24877892
-0.0243049 0.15856197 -0.16069844 0.17504323 0.024346393 0.98425967 0.23083802
-0.019018855 0.15661004 -0.1608735 -0.073966898 0.062208872 0.99531853 0.22405456
0.0055712922 0.1582651 -0.1608811 0.12195501 -0.19101472 0.97398168 0.20783688
0.016241051 0.15619859 -0.16092485 -0.070474468 -0.26085141 0.96280313 0.22936198
0.028023647 0.15217942 -0.161088 -0.017816 -0.10839237 0.99394858 0.2082874
0.035909817 0.15377326 -0.160914 -0.073241323 -0.11247466 0.99095154 0.22537592
0.044039898 0.15059581 -0.1609913 0.09562967 -0.13985723 0.98554301 0.21867158
0.050919607 0.15878509 -0.16031133 -0.13233279 -0.27409789 0.95255363 0.19269133
0.15682755 0.15778469 -0.16861345 -0.29720351 -0.16604318 0.94026572 0.19344068
0.16421384 0.15286276 -0.16778928 -0.095634468 -0.078034028 0.9923532 0.22385402
0.17473626 0.15656886 -0.16412529 -0.22860408 0.02911387 0.97308403 0.20696917
0.18114227 0.15734558 -0.16220587 -0.21617834 -0.042624369 0.97542304 0.18046956
0.1923116 0.15211013 -0.16024534 -0.24258323 -0.095287673 0.96543956 0.19039668
-0.16406438 0.16653374 -0.16479717 0.26257104 -0.31906477 0.91063392 0.17985663
-0.15755859 0.16061683 -0.16778758 0.16553822 -0.42985979 0.88759094 0.16270062
-0.14785914 0.16591679 -0.16837494 0.19846876 -0.40153831 0.89407897 0.193758
-0.050688371 0.16023262 -0.16011935 -0.20890523 -0.39303306 0.89547956 0.2119149
-0.039786961 0.16060857 -0.16042843 0.22480325 0.013655758 0.97430843 0.23935217
-0.021715887 0.16134581 -0.16053696 -0.035381611 -0.073073871 0.99669874 0.20410907
-0.0032338193 0.16454504 -0.16048633 -0.14472385 -0.032597382 0.98893493 0.20203382
0.0065903738 0.16348886 -0.16052693 0.081730254 0.033048067 0.99610639 0.20812419
0.019472331 0.16003266 -0.16064328 0.023287909 -0.23230346 0.97236454 0.21155728
0.03587845 0.16287234 -0.1603128 0.20081645 -0.19254445 0.96052039 0.21415836
0.15370721 0.16028455 -0.16868877 -0.26232412 -0.19521229 0.94502807 0.18294005
0.16325036 0.16244406 -0.16597143 -0.095062546 -0.20137636 0.97489005 0.21577086
0.17368352 0.16511545 -0.16261616 -0.088969246 -0.23128371 0.96880978 0.20476562
-0.16390045 0.1747887 -0.16256879 0.25863501 -0.28147039 0.92405748 0.16654605
0.12980165 0.17453222 -0.1698115 -0.26107293 -0.35558373 0.89744145 0.18831103
0.13620438 0.17638245 -0.16795754 -0.33855119 -0.22028631 0.91479886 0.17665732
0.14281985 0.17375898 -0.16728517 -0.25829646 -0.3882165 0.88463032 0.19310716
0.15391961 0.17546028 -0.16448408 -0.084143557 -0.24069503 0.96694666 0.20210442
0.1629111 0.17340925 -0.16315502 -0.016784964 -0.35002178 0.93659121 0.20885861
0.1738355 0.17537732 -0.16031039 0.016579011 -0.3030709 0.95282382 0.18760079
-0.16222112 0.18282959 -0.16071782 0.24760291 -0.26756814 0.93118215 0.18239282
-0.15208058 0.18391649 -0.16255286 0.26155019 -0.39935657 0.87869555 0.18939699
-0.14739743 0.18609525 -0.16294067 0.15954815 -0.34402692 0.92530537 0.19372623
-0.1352374 0.18156892 -0.1667392 0.14846992 -0.23171617 0.96138668 0.18710627
-0.12729958 0.18774268 -0.16671649 0.38020244 -0.17295858 0.90858763 0.17269027
-0.11680838 0.18712308 -0.16909307 0.21273933 -0.17197143 0.96185642 0.20721854
0.11358179 0.18665962 -0.16989881 -0.13061608 -0.19056757 0.97294575 0.19519576
0.14760575 0.18653773 -0.16277556 -0.33277729 -0.18427889 0.92482466 0.19059695
0.15475476 0.18451302 -0.16182683 -0.20385091 -0.25920799 0.94406348 0.18517074
-0.14341539 0.19425714 -0.16154088 0.13861804 -0.36593577 0.92025876 0.22827031
-0.13584562 0.19552822 -0.1627847 0.44930735 -0.14761896 0.88109678 0.19652283
-0.1138855 0.19575293 -0.16734225 0.18454891 -0.23306352 0.95478958 0.18595763
-0.10621431 0.19406804 -0.16896218 -0.04253177 -0.34715039 0.93684453 0.20953658
-0.098110542 0.19631419 -0.16931671 -0.26488745 -0.13711475 0.95448112 0.20834187
0.10915965 0.19976541 -0.16675401 -0.1332031 -0.15979949 0.97812122 0.15281558
0.11638025 0.19701986 -0.16636099 -0.13832933 -0.18920745 0.97214478 0.17716648
0.12492085 0.19299237 -0.16577779 -0.12754023 -0.21196669 0.96891874 0.16467854
0.13373436 0.19604322 -0.16308762 -0.36806011 -0.24681848 0.89644426 0.15985149
0.14792171 0.19374749 -0.16073273 -0.28516999 0.042945981 0.95751429 0.17326251
-0.13248561 0.20586488 -0.16065793 0.44757673 -0.36506858 0.81633323 0.16992348
-0.12651886 0.20515737 -0.16210693 0.1681273 -0.48261321 0.85954499 0.17115517
-0.11455595 0.20352592 -0.16479787 0.18673874 -0.18869343 0.96411794 0.19225642
-0.10480527 0.20396209 -0.1659901 -0.12424141 -0.37315926 0.91941077 0.16238634
-0.09433791 0.20711482 -0.16636774 -0.10615352 -0.17802054 0.97828424 0.21010962
-0.089193828 0.2062287 -0.1673308 -0.10639935 -0.21669632 0.97042358 0.1949183
0.073887073 0.20872539 -0.16855775 0.068389758 -0.10559408 0.99205476 0.18953122
0.086318135 0.20676705 -0.16753919 -0.03298831 -0.19299738 0.98064458 0.16566266
0.093748495 0.20424351 -0.16736227 0.064977765 -0.34474719 0.93644398 0.18594454
0.10272215 0.20190552 -0.16692206 -0.071419224 -0.23190494 0.9701131 0.17200857
0.11370043 0.20464547 -0.16459577 -0.23528853 -0.2345801 0.94319212 0.1873285
0.12673014 0.20726037 -0.16148601 -0.08089263 -0.18466474 0.9794668 0.19115429
0.13750395 0.20250148 -0.16052434 -0.25012246 -0.18886083 0.94961596 0.17283662
0.14041248 0.20124567 -0.16025682 -0.14973547 -0.18577713 0.97111589 0.15865502
-0.11603963 0.21159565 -0.1620678 0.15400359 -0.23426406 0.95989746 0.17000224
-0.10317007 0.21536164 -0.16256732 -0.058755543 -0.1495163 0.98701197 0.20249808
-0.09608791 0.21294905 -0.16427392 -0.03501451 -0.37123483 0.92787862 0.20297407
-0.081725061 0.21865699 -0.16435096 -0.021741938 -0.27502921 0.96118999 0.19810039
-0.044491787 0.21602909 -0.16894618 0.010297175 -0.10497946 0.99442106 0.18528047
-0.027652219 0.21742103 -0.16922882 -0.15098569 -0.12647688 0.98041159 0.18402722
0.023482241 0.21743326 -0.16941269 -0.034039382 -0.34395143 0.93837029 0.21995792
0.055800602 0.2164458 -0.1682934 -0.24126026 -0.13500746 0.96102363 0.20124844
0.062007297 0.21422261 -0.16837373 -0.091563992 -0.13225409 0.98697764 0.20113628
0.076604605 0.21534078 -0.16608664 -0.025330214 -0.18825617 0.98179328 0.20999707
0.086478785 0.21548884 -0.16473375 -0.033595096 -0.34225908 0.93900484 0.189573
0.097065859 0.21429151 -0.16371606 -0.17736661 -0.47297001 0.86304134 0.19120088
0.10607865 0.2158677 -0.16202119 -0.1383613 -0.52448636 0.8401013 0.17065631
0.1168052 0.21572959 -0.16064693 -0.083889559 -0.4578115 0.88508254 0.16729823
0.1203528 0.21191683 -0.16139495 -0.080978133 -0.4104223 0.90829295 0.17709398
-0.10103413 0.22362852 -0.16021076 -0.029157994 -0.48555765 0.87371826 0.18131115
-0.074833222 0.22057065 -0.16465136 0.045844536 -0.33304793 0.94179475 0.1932133
-0.06501653 0.22476955 -0.164609 0.45722461 -0.43003446 0.77847028 0.18082115
-0.059981741 0.22505879 -0.16515431 0.37118888 -0.37984997 0.84730911 0.17263323
-0.046239197 0.22168443 -0.16693005 -0.0094027352 -0.38390422 0.92332506 0.16444068
-0.033137351 0.2261481 -0.16599181 -0.0045034704 -0.15485257 0.98792732 0.19721003
-0.025072327 0.22931737 -0.16526985 -0.27098292 -0.15078968 0.95070016 0.17905843
-0.01278439 0.22506289 -0.16728149 -0.0015208923 -0.076056942 0.99710226 0.17258805
0.0094181104 0.22244705 -0.16832942 0.092120595 -0.30523622 0.94781047 0.19143406
0.017381951 0.22642808 -0.16660649 -0.028748803 -0.37942865 0.92477423 0.22518903
0.029680671 0.22616085 -0.16614333 -0.04980066 -0.25676182 0.96519077 0.20014365
0.03546552 0.22154641 -0.16746323 0.0050864406 -0.42790908 0.90380752 0.1984898
0.047446817 0.22463711 -0.16586407 -0.20176893 -0.32415372 0.92423689 0.20535164
0.056124769 0.224977 -0.16535625 -0.059368782 -0.24716601 0.96715271 0.19794659
0.065720178 0.22175118 -0.1654795 0.24244486 -0.21832755 0.9452796 0.22547241
0.071286052 0.22736779 -0.16295061 -0.085234731 -0.20350723 0.97535628 0.20105605
0.08496815 0.22279882 -0.16259998 -0.25472361 -0.42409593 0.86905605 0.19894662
0.099265173 0.22472377 -0.16009504 -0.14066719 -0.59093487 0.79436064 0.17923617
-0.064500585 0.23468366 -0.1615124 0.1685272 -0.074185029 0.98290139 0.18504779
-0.042906843 0.23274034 -0.16329291 0.19270839 -0.2342336 0.95288926 0.17440562
-0.038831487 0.23739254 -0.16188303 0.049309842 -0.37144923 0.92714292 0.17061158
-0.024058457 0.23772195 -0.16243644 -0.11803962 -0.20336692 0.9719612 0.19355565
-0.01590489 0.23603678 -0.16338144 -0.12514752 -0.06621293 0.98992622 0.16909321
-0.0046183085 0.23487385 -0.16428885 -0.020244606 -0.32620409 0.94508255 0.18653493
0.0061763171 0.23324731 -0.16477579 -0.018247573 -0.17653957 0.9841243 0.20833516
0.014682326 0.23578146 -0.16352406 0.030833589 -0.40420872 0.9141469 0.22147425
0.025061216 0.23423429 -0.16358599 -0.18871926 -0.44348818 0.87618673 0.19970456
0.03113482 0.23254453 -0.16389091 -0.050332453 -0.42319933 0.90463746 0.1912436
0.042190958 0.23430893 -0.16278785 0.0013860309 -0.42245957 0.90638065 0.18399647
0.056119896 0.23030913 -0.16352987 0.11480851 -0.27785093 0.95373887 0.19889966
0.066421792 0.23182486 -0.16217098 -0.20866685 -0.25600845 0.94388437 0.22242779
0.074735641 0.23380621 -0.16043918 -0.070578657 -0.50070107 0.86273819 0.18219732
-0.041820135 0.24189886 -0.1602045 0.20056513 -0.39783713 0.89526492 0.16723487
-0.032558106 0.2420816 -0.16055962 0.066632599 -0.32278624 0.94412351 0.20629723
-0.02382433 0.24265882 -0.16075578 -0.0038737562 -0.25293186 0.96747631 0.22230281
-0.01592521 0.24419697 -0.16058511 -0.11032458 -0.075284854 0.99104023 0.16684109
-0.00051837385 0.24781409 -0.16004084 -0.11945678 -0.25327215 0.95999128 0.13821378
0.0079731969 0.24462368 -0.16079757 -0.17728204 -0.38654262 0.90507227 0.18375556
0.014048167 0.24365157 -0.1608566 0.064982988 -0.34365582 0.93684465 0.17518865
-0.034372304 -0.26086938 -0.15237424 -0.023470704 0.39405972 0.91878515 0.18067518
-0.023882028 -0.26233423 -0.15233251 0.096512891 0.40115643 0.9109109 0.16813804
-0.0067699393 -0.26720601 -0.15102826 -0.014362331 0.49228221 0.87031716 0.17829807
0.003538263 -0.26535523 -0.15216184 -0.13599701 0.42851692 0.89324021 0.18177293
0.015948333 -0.26190037 -0.15306874 -0.04728147 0.42704809 0.90299189 0.18857236
0.03429481 -0.26159918 -0.15201586 -0.057937775 0.27919722 0.95848429 0.18257819
0.049975201 -0.26213497 -0.15072097 -0.10186058 0.27258027 0.95672584 0.15819423
-0.084514529 -0.25368774 -0.15056837 0.2369452 0.48061258 0.84431535 0.20297609
-0.073411182 -0.25333437 -0.15286669 -0.013175966 0.47845861 0.87801123 0.19240184
-0.063036434 -0.25379574 -0.15401763 0.12136535 0.43707523 0.89119905 0.1804516
-0.032350451 -0.25474444 -0.15555707 0.13429318 0.32459822 0.93626988 0.2009147
-0.014168138 -0.25389111 -0.15705192 0.1806507 0.45023319 0.8744458 0.17253518
-0.0054115662 -0.25169194 -0.15849175 -0.038601272 0.42221794 0.90567213 0.18111579
0.0031441064 -0.25658149 -0.15650174 -0.060981069 0.42207369 0.90450823 0.177949
0.012538785 -0.2579658 -0.15525174 -0.066043384 0.4293564 0.90071714 0.19481696
0.026656345 -0.2559835 -0.15531333 0.036334835 0.14426018 0.98887247 0.18869859
0.035709113 -0.2536695 -0.1558722 -0.25938123 0.29629993 0.91919953 0.19875613
0.045652173 -0.25725907 -0.15343265 -0.085223146 0.27673021 0.95716113 0.19727996
0.05438944 -0.2548019 -0.15408349 -0.043729965 0.27076125 0.96165276 0.19673353
0.074405074 -0.2512677 -0.15363473 -0.2450241 0.17150907 0.95422626 0.19739185
-0.10445786 -0.24340431 -0.15150698 0.19374315 0.32247886 0.9265371 0.19387509
-0.096827723 -0.24403331 -0.1526818 0.05333953 0.39969698 0.91509408 0.1910817
-0.084432982 -0.24538162 -0.15443867 0.12106498 0.32039344 0.9395166 0.20275182
-0.076200321 -0.24696624 -0.15526864 -0.072764941 0.3686142 0.92673016 0.16031608
-0.063232839 -0.24615473 -0.1576902 -0.10244079 0.29889116 0.94877285 0.1868757
-0.052929208 -0.24944086 -0.15684904 0.14025231 0.18973298 0.97176677 0.18852587
-0.043033797 -0.24387251 -0.15947366 0.10502671 0.26489934 0.95853937 0.19888319
-0.012603162 -0.24805744 -0.15941244 0.054661378 0.48735985 0.87148863 0.18260325
-0.004649898 -0.24885233 -0.15949884 -0.028564688 0.34649342 0.93761736 0.18887946
0.013808127 -0.24931099 -0.15892869 -0.17900103 0.36211193 0.91478604 0.18311653
0.037056908 -0.24683961 -0.15872678 -0.15362602 0.37072831 0.91594738 0.16816272
0.047515146 -0.24567939 -0.15865257 -0.14939857 0.3753486 0.91476411 0.18759848
0.066542089 -0.24811806 -0.15660784 0.037167296 0.26321465 0.96402103 0.19559726
0.073893942 -0.245208 -0.1565451 -0.24212395 0.43066362 0.86942792 0.18536052
0.08888191 -0.24174683 -0.15527028 0.0031141446 0.38284764 0.92380625 0.19452618
0.095208839 -0.24710429 -0.15156785 -0.10693324 0.275913 0.95521587 0.19939855
0.10384725 -0.24343035 -0.1516123 -0.069862582 0.32302165 0.94380945 0.20588067
-0.13365626 -0.23204152 -0.15103865 0.084458359 0.4481411 0.88996422 0.14345323
-0.12020588 -0.23785689 -0.15105423 0.080198728 0.37669411 0.92285961 0.19638886
-0.1150464 -0.23397271 -0.15384854 0.20262273 0.3702344 0.90657079 0.19445561
-0.10465647 -0.23762017 -0.15415308 0.19429862 0.31073505 0.93042558 0.19297943
-0.095893607 -0.23461707 -0.15711989 0.094983555 0.41688254 0.90398401 0.17962684
-0.084698483 -0.23651662 -0.15825659 0.1729407 0.39125371 0.90388715 0.20899518
-0.072666243 -0.23945588 -0.15890929 -0.025271447 0.3345311 0.94204575 0.18599482
0.076980785 -0.23820594 -0.15873781 -0.105615 0.42918375 0.89702111 0.21604219
0.084492162 -0.23791911 -0.15782255 0.071155466 0.4791452 0.87484676 0.20695288
0.098195896 -0.23046628 -0.15840328 -0.18844914 0.29020503 0.93822598 0.21306746
0.1060559 -0.23219869 -0.15640002 -0.029666115 0.3771311 0.92568469 0.19373913
0.11591619 -0.23512788 -0.15314528 -0.16530463 0.45118603 0.87698662 0.20793656
0.12480153 -0.23577842 -0.15113541 -0.17555416 0.40217167 0.8985759 0.16716883
-0.15016574 -0.22223389 -0.1500631 0.19409928 0.37502581 0.90646631 0.17557493
-0.14443907 -0.22369978 -0.15123007 0.3477886 0.32789004 0.8783685 0.18036929
-0.13349199 -0.22309583 -0.15481818 0.11973587 0.29652518 0.94748938 0.1659237
-0.12157667 -0.22402206 -0.15721107 0.13380027 0.31049499 0.94111121 0.15790664
-0.11509565 -0.22582693 -0.15747714 0.052395921 0.48002595 0.8756882 0.19682574
-0.10596914 -0.22518745 -0.15906057 0.14465094 0.44514042 0.88370025 0.18777137
-0.096158385 -0.22948316 -0.15898652 0.20364925 0.3339425 0.92033124 0.18508972
0.098394036 -0.22966102 -0.15863413 -0.2554653 0.21843462 0.94181937 0.19990914
0.1006721 -0.22671267 -0.1592741 -0.14961569 0.28355664 0.9472121 0.21550626
0.11639114 -0.22654919 -0.15699425 -0.049658429 0.49822867 0.86562246 0.18990144
0.1228096 -0.22435983 -0.15666738 -0.13162322 0.37589553 0.91726655 0.17747973
0.1333431 -0.22367659 -0.15463227 -0.11860691 0.2905646 0.94947594 0.17032078
-0.1651509 -0.21082565 -0.15002713 0.14152059 0.21361949 0.96661198 0.15006471
-0.15320152 -0.21903196 -0.15041079 0.30008757 0.29425997 0.90739107 0.16308816
-0.14494842 -0.21687691 -0.15379326 0.40587881 0.22188762 0.88658243 0.18143143
-0.13737233 -0.21319255 -0.15757816 0.12297935 0.2938959 0.94789308 0.15615849
-0.014752376 -0.21276152 -0.15021224 0.13760726 0.28636369 0.94818783 0.19741976
0.0061230836 -0.21293561 -0.1505418 -0.19804528 0.42307135 0.88418818 0.20219204
0.015543624 -0.21202452 -0.15042904 -0.20136593 0.31260952 0.92829257 0.19801199
0.12740222 -0.21999978 -0.15785249 -0.20245932 0.4036006 0.8922537 0.17082681
0.13429755 -0.21213055 -0.15855923 -0.17048213 0.24255431 0.95504099 0.16800158
0.15590268 -0.21464847 -0.15133168 -0.33288449 0.10533179 0.93706632 0.17374861
-0.15373954 -0.20928091 -0.15413213 0.38243246 0.165335 0.90907085 0.15404528
-0.14596523 -0.20782241 -0.1570906 0.28962576 0.18905427 0.93828321 0.16909695
-0.052614704 -0.20699999 -0.15047838 -0.045747232 0.5200085 0.85293514 0.18624805
-0.026451763 -0.20317531 -0.1525387 0.1015197 0.22614034 0.96879011 0.20666236
-0.003558984 -0.20578694 -0.15261941 -0.074482925 0.033293795 0.99666631 0.21345328
0.007264188 -0.20483774 -0.15271199 -0.20466569 0.12656231 0.97061521 0.18810631
0.015783306 -0.20019914 -0.15341771 -0.15869626 0.29936486 0.94084865 0.20668311
0.034493633 -0.2082292 -0.15087456 0.048483372 0.5115031 0.8579126 0.19207895
0.044965252 -0.20637284 -0.15099749 -0.013801117 0.35306227 0.935498 0.21043651
0.0570754 -0.20151234 -0.1518887 -0.032399535 0.12003578 0.99224073 0.21463585
0.064037055 -0.20178486 -0.1508812 0.19094849 0.23138 0.95394021 0.20626442
0.13773932 -0.20976107 -0.15848482 -0.40397537 0.0037617541 0.91476214 0.16036083
0.14845325 -0.20912859 -0.15580928 -0.34473515 0.16346215 0.92435801 0.16923641
0.16673777 -0.20376657 -0.15235499 -0.084471673 0.18979459 0.97818333 0.20416498
-0.17215168 -0.19623753 -0.15369985 0.18835814 0.18140619 0.96520102 0.15037882
-0.15131724 -0.19824375 -0.15878595 0.37971103 0.21354258 0.90012169 0.16553712
-0.07231658 -0.19438349 -0.15191589 0.15035069 0.21081993 0.96589315 0.21445106
-0.051124007 -0.19776331 -0.15297286 -0.023653911 0.23964565 0.97057223 0.20387736
-0.03026339 -0.19418487 -0.15424196 -0.047558635 0.077183254 0.99588203 0.20801553
-0.026175397 -0.19636725 -0.15391207 -0.00093808654 0.10410927 0.99456537 0.21177956
-0.01600422 -0.19838174 -0.15377653 -0.0094705932 0.058686022 0.99823159 0.22164388
-0.001209534 -0.19505931 -0.154834 0.1023202 0.22477336 0.969024 0.2111595
0.0042295298 -0.19108821 -0.15555105 -0.16086321 0.23144685 0.95945573 0.24895783
0.016030423 -0.19790614 -0.15387127 -0.22834523 0.29480258 0.92787391 0.20522355
0.023204084 -0.19333702 -0.15459858 0.080539517 0.17021094 0.98211086 0.19993572
0.035780851 -0.19880679 -0.15316881 0.16596067 0.035649203 0.98548782 0.19163322
0.065374777 -0.19566217 -0.15235728 0.20128407 0.1369867 0.96990687 0.19563343
0.15233611 -0.19537954 -0.15935682 -0.29384822 0.37595323 0.87881303 0.19474491
0.16484207 -0.19664127 -0.15574056 -0.18566304 0.12088777 0.97514898 0.18947212
0.18119188 -0.19409141 -0.15179077 -0.3247509 0.44482285 0.83466727 0.20255224
-0.19194722 -0.18617649 -0.15112098 0.45478165 0.22324796 0.86216819 0.16335736
-0.18311518 -0.18399177 -0.15522739 0.35773328 0.40784609 0.8400526 0.16216797
-0.17325529 -0.18432364 -0.15782185 0.15021501 0.35264182 0.92362291 0.17197119
-0.1639882 -0.18443607 -0.15990573 0.23789474 0.30082464 0.92353165 0.19006602
-0.10222115 -0.18393344 -0.15147145 0.12636134 0.1619138 0.97868103 0.21930328
-0.092133664 -0.18281108 -0.1526877 0.15732251 0.10822568 0.98159909 0.20270889
-0.084045365 -0.18658453 -0.15256654 0.32217711 0.11896449 0.93917483 0.19106472
-0.076123066 -0.18663383 -0.15321295 0.24887174 0.24964073 0.9358111 0.20533051
-0.064964727 -0.18523321 -0.15433905 0.064435549 0.08858905 0.9939819 0.20850649
-0.043154757 -0.18565078 -0.15561381 -0.26687291 0.008364372 0.96369541 0.19844437
-0.033499736 -0.18435463 -0.15612894 -0.27429768 -0.13899846 0.95154619 0.2009301
-0.026267027 -0.18706425 -0.15577632 -0.17077653 -0.1131223 0.97879457 0.18869567
-0.015299864 -0.18561077 -0.15635769 0.041700222 0.020920355 0.99891114 0.1994095
-0.0074866326 -0.1804526 -0.15759909 0.10524745 0.28196082 0.95363575 0.19391011
0.002842915 -0.18338126 -0.1571341 0.09177348 0.2997492 0.9495936 0.23113321
0.012904258 -0.1862174 -0.15629925 0.10078745 0.43076408 0.896819 0.22053777
0.023707062 -0.18598235 -0.15606104 -0.084960647 0.49714461 0.86349797 0.19016607
0.039162386 -0.18646018 -0.15555689 -0.046358034 0.13970758 0.98910701 0.18689226
0.047837265 -0.18708701 -0.15520194 0.36730954 0.28961894 0.88385773 0.1973567
0.054412037 -0.18307319 -0.15556023 0.12162896 0.062267385 0.99062061 0.22129068
0.063214287 -0.18444404 -0.15462218 -0.17346145 0.043256085 0.9838903 0.22496077
0.078769013 -0.18520844 -0.15327454 -0.13713607 0.10281049 0.98520237 0.21347086
0.092198953 -0.18645495 -0.15178137 0.030909603 0.4761602 0.87881517 0.19126765
0.10230929 -0.18262751 -0.15189981 -0.24255487 0.25073552 0.93717599 0.21983206
0.16456865 -0.18922904 -0.15846978 -0.11985352 0.30748305 0.94397533 0.17668858
0.18395357 -0.18650694 -0.15392768 -0.43098536 0.34584227 0.83345354 0.19926633
0.19059145 -0.18672878 -0.15149239 -0.32215732 0.42575124 0.84554744 0.19587106
-0.19529313 -0.1760598 -0.15288115 0.56340408 0.35644722 0.74533302 0.20278016
-0.1835995 -0.17548385 -0.15755281 0.33202124 0.32143167 0.88681656 0.20853074
-0.17860487 -0.17412025 -0.15937302 0.23683475 0.22387069 0.9454053 0.18374668
-0.12347357 -0.17130309 -0.15083316 0.035351381 0.12309979 0.99176449 0.20823798
-0.11258569 -0.1791846 -0.15096283 -0.05949875 0.17752434 0.98231608 0.21142536
-0.1050461 -0.17776309 -0.15252104 0.2420457 0.16260618 0.95654225 0.21347424
-0.095180497 -0.17695506 -0.15354669 0.095281199 0.23216578 0.96799821 0.20086081
-0.07313022 -0.17299944 -0.15599409 0.16463122 -0.092222974 0.98203439 0.19907519
-0.054573659 -0.1745249 -0.15714607 0.12609258 -0.16781904 0.9777205 0.21405652
-0.04589482 -0.17445342 -0.15774731 -0.12869248 0.010099119 0.99163312 0.21474247
-0.034923684 -0.17759344 -0.15744801 -0.26624748 0.082808167 0.96034116 0.1772588
-0.023536723 -0.17344376 -0.15858145 -0.084003039 0.016842853 0.99632317 0.19643639
-0.014675556 -0.17689627 -0.15812278 0.044185001 0.16579919 0.98516917 0.19801754
-0.0054530818 -0.17397828 -0.15895191 0.15982142 -0.032036234 0.98662597 0.20484768
0.0052206875 -0.17614412 -0.15852346 0.29088071 0.3412427 0.89383548 0.20872122
0.010653791 -0.17514764 -0.15857989 -0.14946097 0.22253519 0.96339995 0.22299559
0.026089229 -0.17570527 -0.15806024 -0.036305796 0.066086121 0.99715322 0.19212353
0.035773061 -0.17769015 -0.15740615 -0.18591401 0.32012126 0.9289555 0.22115737
0.045254499 -0.17688388 -0.15731747 0.12926026 0.22604842 0.9655019 0.21042757
0.054106157 -0.17401874 -0.15727691 -0.1317969 -0.10678889 0.98550785 0.20817843
0.06440495 -0.17645793 -0.1560232 -0.043387357 0.028677965 0.99864662 0.1997527
0.073729619 -0.17176065 -0.15617931 0.024062807 -0.090238124 0.99562949 0.20433462
0.084500775 -0.1778619 -0.15420428 -0.25648719 0.14630023 0.9554112 0.21165693
0.096119583 -0.17020327 -0.15473641 -0.26110366 -0.022360492 0.96505171 0.19549926
0.11752895 -0.17724603 -0.15045449 -0.3490032 0.019355549 0.9369216 0.19236873
0.12023023 -0.17578289 -0.15028736 -0.32945862 -0.02057069 0.94394583 0.19032268
0.18537013 -0.17328708 -0.15742761 -0.32826233 0.34914467 0.87769121 0.20496216
0.19287787 -0.17610532 -0.15382975 -0.15414514 0.47024691 0.86896908 0.20283124
0.20220217 -0.17239776 -0.15124765 -0.43466493 0.39704838 0.80834341 0.18184026
-0.20567922 -0.16328193 -0.15264949 0.38589025 0.2586076 0.88555676 0.19043218
-0.19239955 -0.16775852 -0.15657267 0.39673883 0.30270571 0.86658388 0.1763477
-0.1862963 -0.1647974 -0.15922561 0.14102697 0.18636346 0.97230655 0.20908095
-0.12225761 -0.1639888 -0.15261215 0.12014913 0.22612511 0.96666002 0.20856312
-0.11309852 -0.16250013 -0.15397961 -0.19226901 0.24513365 0.95023268 0.18750463
-0.10141082 -0.16486661 -0.15503962 0.10408201 0.11997741 0.98730564 0.19279486
-0.090439357 -0.16363978 -0.15640357 0.36642677 0.006038419 0.93042731 0.19834267
-0.084053531 -0.16611126 -0.15643606 0.068887755 -0.023789272 0.99734068 0.19006188
-0.073708907 -0.16374598 -0.1576795 0.12391559 0.080674462 0.98900789 0.21223161
-0.066927291 -0.16701233 -0.15759398 0.078649104 0.098719671 0.99200237 0.23340258
-0.053452265 -0.16635343 -0.15876082 -0.1748876 -0.32978866 0.92771429 0.22801675
-0.044740271 -0.16649164 -0.15939875 -0.01396798 -0.14774901 0.98892623 0.225536
0.021578981 -0.16666314 -0.15999374 -0.25902602 -0.03643832 0.96518278 0.17598459
0.036263779 -0.16693966 -0.15955032 -0.024528483 -0.1075137 0.99390101 0.19961399
0.051943507 -0.16618997 -0.15890823 -0.016298963 -0.1776024 0.9839673 0.21454944
0.065076098 -0.16056846 -0.15894224 -0.016248835 -0.073681906 0.99714935 0.1870399
0.073950395 -0.16625163 -0.15719229 -0.08556094 0.025252605 0.99601293 0.21480212
0.08460404 -0.16654117 -0.15631303 -0.079901382 -0.16721603 0.98267716 0.19288869
0.10178848 -0.16429062 -0.15508558 -0.09374278 0.037183817 0.9949019 0.18478031
0.12330568 -0.1645409 -0.15231688 -0.22544883 0.1741183 0.95856953 0.18962248
0.13272035 -0.16089554 -0.15174112 -0.082386099 0.2048782 0.97531408 0.18997811
0.18849486 -0.16627733 -0.15827362 -0.23571225 0.30355623 0.92319733 0.20795257
0.19714934 -0.16607785 -0.15519378 -0.31781462 0.2997998 0.89950758 0.18231657
0.20176366 -0.16175005 -0.15467831 -0.4769372 0.40300643 0.78109962 0.17163306
-0.21713966 -0.15422653 -0.15085144 0.33446345 0.39109853 0.85742408 0.18081956
-0.2081359 -0.15508348 -0.15417746 0.37130165 0.37236592 0.85057545 0.18454036
-0.19390181 -0.15873438 -0.15841606 0.29330972 0.18992208 0.93696266 0.2005603
-0.14472787 -0.1538994 -0.15113325 0.31781492 0.23266356 0.91916341 0.20745338
-0.13407598 -0.15270707 -0.15294917 -0.23915488 0.17846705 0.95443934 0.22993506
-0.12039625 -0.155186 -0.15425488 0.2175965 5.500095e-05 0.97603887 0.19696049
-0.11481962 -0.15474245 -0.15501317 0.017002819 0.14120372 0.98983455 0.20721921
-0.10304856 -0.15306556 -0.15673266 -0.02253603 0.27434155 0.96136826 0.1997097
-0.094467856 -0.1539712 -0.15764444 0.09295366 0.27402979 0.95721853 0.21055017
-0.086141974 -0.15497604 -0.15835635 0.12583889 0.32487875 0.93734646 0.21984535
-0.0771036 -0.15665939 -0.15874162 0.13222237 -0.26054943 0.95636356 0.2051703
-0.056573138 -0.159279 -0.1598419 0.1174795 0.026435683 0.99272335 0.2149473
0.075044826 -0.15683387 -0.15886845 -0.10500345 0.16028002 0.98147064 0.19155915
0.089094222 -0.15369084 -0.15835151 -0.078377053 -0.097209543 0.99217308 0.20167899
0.099399254 -0.1555994 -0.15677544 -0.048020139 0.11029243 0.99273849 0.18890102
0.10394132 -0.1560889 -0.15613723 -0.19066854 -0.012769731 0.98157144 0.17442475
0.11056289 -0.15373088 -0.15570003 -0.082426667 0.046746634 0.99550015 0.17516261
0.12489664 -0.15387642 -0.1539107 -0.10287384 0.13876407 0.98496771 0.17585671
0.13320318 -0.15457425 -0.15277524 -0.14395049 0.1199571 0.98228747 0.18274659
0.14540382 -0.15262568 -0.15134023 -0.03007827 0.090730131 0.99542123 0.19797871
0.19607134 -0.15668435 -0.15825255 -0.31379533 0.4218334 0.85064042 0.19881444
0.20352834 -0.1530506 -0.15663522 -0.44666851 0.4728305 0.75955158 0.17879871
0.21123102 -0.1506466 -0.15430078 -0.30793619 0.4306944 0.84833813 0.16433127
-0.22160587 -0.14677295 -0.15135083 0.26881623 0.12967171 0.95442289 0.19547358
-0.21782917 -0.14168505 -0.15441167 0.48591506 0.21793579 0.84639859 0.18599559
-0.20713332 -0.14399791 -0.15788868 0.47274634 0.1862141 0.86129862 0.17893906
-0.19630368 -0.14929137 -0.15974392 0.16712727 0.25737825 0.95174837 0.19186044
-0.14390667 -0.14675187 -0.15271252 0.37102911 0.12225292 0.92053872 0.18458402
-0.1376272 -0.14307012 -0.15407731 0.19265464 0.19386196 0.96192604 0.20263433
-0.12775707 -0.14708699 -0.15464841 0.068348922 0.12316224 0.99003005 0.20502365
-0.11612386 -0.14492601 -0.15642864 0.20415975 0.12352266 0.97111326 0.21850957
-0.10311158 -0.14327043 -0.15829763 0.0068882247 0.064569615 0.99788952 0.19132963
-0.092660822 -0.14446773 -0.15939297 0.00021531958 0.10100827 0.99488562 0.20836286
0.087532058 -0.14655355 -0.15968996 -0.27727234 0.27673915 0.92007369 0.19688529
0.09641552 -0.14373313 -0.15904832 -0.043543819 0.14287049 0.98878306 0.20257498
0.10231806 -0.1426574 -0.15849385 -0.033762943 0.19736731 0.97974801 0.21360327
0.11464536 -0.1466427 -0.15633518 -0.028934659 -0.18671596 0.98198777 0.18883801
0.12470786 -0.1464632 -0.15512423 -0.08689668 0.23237874 0.96873581 0.1604628
0.13474973 -0.14260203 -0.154507 -0.0086704148 0.22940649 0.97329205 0.20350541
0.14603128 -0.14508291 -0.1526833 -0.16660966 0.11043963 0.97981858 0.18491766
0.15406147 -0.14267349 -0.15148436 -0.11113876 -0.054370146 0.99231648 0.19156098
0.20337729 -0.14637265 -0.15838879 -0.47765866 0.27064586 0.83581877 0.19138762
0.21395792 -0.14306992 -0.15553091 -0.3434076 0.25555024 0.90375066 0.17662741
0.22109792 -0.1423184 -0.15291539 -0.40157849 0.15448572 0.9027009 0.16866782
-0.22613339 -0.13386306 -0.15348198 0.45028019 0.21824695 0.86580372 0.21207392
-0.21495573 -0.1319606 -0.15827121 0.34436688 0.12055866 0.93106234 0.20378704
-0.20886102 -0.13281371 -0.1597676 0.3940061 -0.042796146 0.91811091 0.17988828
-0.14679988 -0.13838983 -0.15338451 0.34017876 0.25531176 0.9050383 0.21753731
-0.13333267 -0.13547553 -0.15582269 -0.02520418 0.093637288 0.99528736 0.18487659
-0.11259976 -0.13174456 -0.15897927 0.15546997 0.025718221 0.98750579 0.18806107
-0.10369482 -0.13617335 -0.15936531 0.023394462 0.12150974 0.99231446 0.20053387
0.1020545 -0.13611265 -0.15957716 -0.072388016 0.23865256 0.96840328 0.20392878
0.11588095 -0.13395253 -0.1582205 -0.085523576 0.060391229 0.99450421 0.18309212
0.13088034 -0.13565484 -0.15609917 -0.1536705 0.13975225 0.97818947 0.17958412
0.14327644 -0.13633436 -0.15420347 0.0011464144 0.12329006 0.99237007 0.18252005
0.15665621 -0.13253023 -0.15252388 -0.18089111 0.21154951 0.96048182 0.2069632
0.21570337 -0.13422483 -0.15742254 -0.37992111 0.13528275 0.91507298 0.18644567
-0.23639648 -0.12346892 -0.15110475 0.55493021 0.2456549 0.79479945 0.20837568
-0.22321633 -0.12954646 -0.15597664 0.31244451 0.18221551 0.93229598 0.18223968
-0.21628202 -0.12753686 -0.15884328 0.15550607 0.086767547 0.9840169 0.18863957
-0.16047525 -0.12555155 -0.15277046 0.12978905 0.27188674 0.95353681 0.17806286
-0.15624112 -0.12643361 -0.15334165 0.44561049 0.34942594 0.82421654 0.1622255
-0.13244188 -0.12486859 -0.15735576 -0.045486111 0.22201195 0.97398239 0.1849803
-0.12547533 -0.12594202 -0.15832461 -0.0018929365 0.11747959 0.99307352 0.19628201
-0.11414216 -0.1290985 -0.15921411 0.18555205 -0.039088044 0.98185664 0.18704702
0.11464994 -0.12825423 -0.15928711 -0.054546487 0.25679132 0.9649263 0.18993908
0.12595284 -0.1263949 -0.15815644 -0.14390744 0.23291816 0.96178991 0.17974554
0.13427997 -0.12785231 -0.15669301 -0.2647247 0.19664852 0.9440605 0.18989827
0.14137328 -0.12988584 -0.15530355 -0.20244545 0.32445753 0.92398226 0.17638463
0.1553503 -0.12222704 -0.15400295 -0.15116952 0.21197614 0.96551228 0.17633714
0.16634035 -0.12581503 -0.15168154 -0.42302781 0.22225806 0.87843549 0.19513898
0.21456091 -0.12680548 -0.1594689 -0.23410603 0.080590591 0.96886504 0.16622029
0.22423469 -0.1272276 -0.15602617 -0.39262679 0.052851535 0.91817802 0.17351168
0.23204757 -0.12608778 -0.15261953 -0.35709521 0.22149131 0.90742743 0.1743964
-0.24186972 -0.11464073 -0.15026176 0.40329537 0.28898805 0.86823887 0.19408441
-0.23317766 -0.11207768 -0.15478817 0.31360653 0.24984786 0.91609323 0.18084542
-0.2278779 -0.11743145 -0.15621851 0.17798619 0.26462439 0.94778425 0.18297844
-0.17414784 -0.11761396 -0.15128589 0.56931418 0.24854869 0.78364843 0.1826019
-0.16608849 -0.11800231 -0.15279929 0.33403543 0.27747712 0.9007923 0.21096905
-0.15936983 -0.11718304 -0.153979 0.25481042 0.025633445 0.96665126 0.19683929
-0.1436666 -0.11520346 -0.15674426 -0.051577218 -0.07724604 0.99567705 0.19485912
-0.13517588 -0.11995139 -0.15752259 0.038843043 0.0092066815 0.99920291 0.18524881
-0.12936527 -0.11047751 -0.15962277 -0.16381195 0.031870957 0.98597664 0.19283324
0.12425054 -0.11477217 -0.1599149 -0.0039690477 0.10696678 0.99425471 0.19287819
0.13620648 -0.11782093 -0.1576196 0.14571774 0.40095291 0.90443528 0.17260939
0.14861074 -0.11202744 -0.1563417 -0.07111308 0.23842955 0.96855259 0.20337859
0.15582854 -0.11410999 -0.15492621 -0.32928112 0.09148214 0.93978995 0.19169311
0.16736449 -0.11562695 -0.15288706 -0.47174105 0.2246439 0.85264033 0.18017556
0.18097095 -0.11117191 -0.15077055 -0.17186213 0.15046024 0.97356313 0.17700562
0.21824765 -0.11748976 -0.15975256 -0.28190896 0.2775698 0.91841292 0.18946461
0.227557 -0.11525705 -0.1567854 -0.39239442 0.36848798 0.84275919 0.17234145
0.23389956 -0.11773003 -0.15336666 -0.36534387 0.24174237 0.8989352 0.19139935
0.24152914 -0.11253224 -0.15082514 -0.4120582 0.24416536 0.87783331 0.17809369
-0.24272631 -0.10434614 -0.15184313 0.43143523 0.15573996 0.88859928 0.21728626
-0.22699755 -0.10289209 -0.15888961 0.30428463 0.11991206 0.94500369 0.18943387
-0.17523339 -0.10518729 -0.15290982 0.37307319 0.37071061 0.85052341 0.1893933
-0.16501753 -0.10253849 -0.15487647 0.10703297 0.37249637 0.92184079 0.20865472
-0.15797187 -0.1046555 -0.15574691 0.048517507 0.1367195 0.98942101 0.20926814
-0.14229952 -0.10698944 -0.15797576 -0.0028538064 0.2055539 0.97864163 0.19043158
-0.1345862 -0.10214172 -0.1598115 -0.052557126 0.023399854 0.99834371 0.19628005
0.13500641 -0.10589409 -0.15928172 -0.095618755 0.089631654 0.99137443 0.21762235
0.16559774 -0.10576759 -0.15438545 -0.38763323 0.078483731 0.91846657 0.1986296
0.17505234 -0.1050566 -0.152955 -0.19190031 -0.11608014 0.97452533 0.19560674
0.18391375 -0.10531624 -0.15105368 -0.10021123 0.28089628 0.95449209 0.18397492
0.22551072 -0.10133991 -0.15956947 -0.43750966 0.13232301 0.8894245 0.18025357
0.23608109 -0.10832038 -0.15416302 -0.44591439 0.34705648 0.82505286 0.18002056
0.24592024 -0.10358398 -0.15050742 -0.51259089 0.34852549 0.78471678 0.19117261
-0.24356191 -0.094820619 -0.1532864 0.38958526 0.014390514 0.92087805 0.18106511
-0.2357785 -0.092624523 -0.15716769 0.46177095 0.0025960568 0.88699532 0.19338937
-0.2282227 -0.093619779 -0.15972456 0.21828853 0.1616718 0.96239924 0.20381853
-0.19157317 -0.094504982 -0.15011235 0.15141258 0.26352456 0.95269573 0.20982951
-0.18660508 -0.095916152 -0.15151167 0.40719712 0.30461231 0.86104697 0.20437816
-0.17440487 -0.093239211 -0.15417387 0.36933592 -0.028486168 0.92885917 0.197578
-0.15625663 -0.094236836 -0.15730593 -0.067877367 -0.10600835 0.99204576 0.19218062
-0.14476188 -0.094627596 -0.15910344 -0.041154783 -0.036754824 0.99847656 0.20128736
0.13802622 -0.098797187 -0.15967122 -0.16606858 0.16518582 0.97218049 0.20157392
0.14570807 -0.09436141 -0.1589843 -0.24063224 0.054443758 0.96908826 0.20159537
0.15881237 -0.092039622 -0.15716627 -0.31135532 0.013262316 0.95020103 0.1808549
0.16421129 -0.095800661 -0.15580009 -0.16081849 0.080866575 0.98366559 0.18865198
0.17785256 -0.098508596 -0.15312111 -0.15863828 0.26021782 0.95242876 0.19982581
0.22823012 -0.093398169 -0.1597515 -0.39265019 0.11832575 0.91204435 0.15734872
0.23898527 -0.097495481 -0.15489611 -0.47964817 0.10135134 0.87158787 0.17660379
0.24174774 -0.097859077 -0.15354422 -0.55580002 0.16172653 0.81543297 0.1853732
-0.25638476 -0.080863863 -0.15001851 0.26465529 0.2706567 0.92558229 0.21490154
-0.24462236 -0.086082481 -0.15447395 0.35854387 0.14852734 0.92162138 0.18486832
-0.23417862 -0.084610581 -0.15901454 0.24859905 0.074427068 0.96574277 0.17706589
-0.19307648 -0.089493126 -0.15029515 0.16005047 0.40625829 0.89963216 0.22326744
-0.18643041 -0.081382275 -0.15284367 -0.057192955 0.22209756 0.97334558 0.21982509
-0.17480308 -0.085342355 -0.15471102 0.36875379 0.0018533324 0.9295252 0.21084629
-0.16475505 -0.084683552 -0.15664083 0.14562587 0.24088515 0.9595663 0.22168966
0.14891233 -0.080976769 -0.15989017 -0.36007574 -0.028082306 0.93250036 0.21258698
0.15914194 -0.084517621 -0.15770322 -0.048961498 0.069476917 0.99638128 0.20900838
0.16669065 -0.086105898 -0.15616874 -0.13231231 0.22981833 0.96419764 0.19487497
0.17761137 -0.085742339 -0.15415496 0.037525386 0.22020285 0.97473198 0.19805892
0.19398832 -0.084723383 -0.15063475 0.04392805 0.28245482 0.95827425 0.17858137
