# .PCD v0.7 - Point Cloud Data file format
VERSION 0.7
FIELDS x y z normal_x normal_y normal_z curvature
SIZE 4 4 4 4 4 4 4
TYPE F F F F F F F
COUNT 1 1 1 1 1 1 1
WIDTH 593
HEIGHT 1
VIEWPOINT 0 0 0 1 0 0 0
POINTS 593
DATA ascii
-0.20335263 0.42744192 0.004827104 0.37354353 -0.88012826 0.29298368 0.0017251286
-0.076627396 0.42372516 0.0075673815 0.15869445 -0.94661677 0.2805934 0.0001280733
-0.069202162 0.42283547 0.00036435947 0.15490679 -0.94717669 0.28082061 0
-0.058726337 0.42506242 0.0019526832 0.14123908 -0.94814891 0.28471944 6.1382387e-05
-0.045353517 0.42757326 0.0037392154 0.12269388 -0.94988978 0.28749886 4.4397989e-06
-0.038555618 0.42892534 0.0057259686 0.11840066 -0.9498927 0.28928375 4.1840456e-05
-0.022685688 0.42981565 0.0030299854 0.075065978 -0.95250791 0.29511645 0.0003286523
0.01646141 0.4295103 0.0013745239 -0.10986894 -0.94917792 0.29494095 0.00084585085
0.021848615 0.42820954 0.00010077842 -0.1186967 -0.94652092 0.30001542 0.00077588717
0.03320637 0.4293496 0.0098527214 -0.15136248 -0.94359529 0.29447806 7.0139795e-05
0.045614421 0.42589128 0.0054380037 -0.15742759 -0.94281477 0.29379731 0.00010196104
0.062171537 0.42253909 0.0035916208 -0.14296705 -0.94688916 0.28803003 6.0940569e-05
0.19807538 0.42889023 0.0031213933 -0.36218587 -0.88941652 0.27885425 0.0012777415
0.21273828 0.42372724 0.0038221374 -0.42391869 -0.84438157 0.32758623 0.0019342126
-0.19724254 0.43047929 0.0077104061 0.34403053 -0.90118945 0.2636295 0.00055959541
-0.18525818 0.43429065 0.0057019694 0.33061531 -0.90854502 0.2554203 1.027584e-05
-0.17241649 0.43876493 0.004943464 0.32014003 -0.91015017 0.26293939 8.8800407e-05
-0.16970216 0.43999159 0.0057861209 0.32158887 -0.90937734 0.26384342 0.00017157078
-0.035692342 0.43019974 0.0088440366 0.11497332 -0.95007366 0.29007098 1.7592232e-05
-0.020593062 0.430639 0.0049592108 0.070132822 -0.95323527 0.29397941 0.00022555541
-0.015531023 0.43100068 0.0043506767 0.057792787 -0.95469958 0.29190528 0.0002511499
-0.0038095487 0.43202785 0.0068611056 -0.0028937887 -0.95535678 0.29544047 0.00082940503
0.004126492 0.43113732 0.0037708916 -0.030678404 -0.95501757 0.29495797 0.0014486682
0.017415402 0.43062896 0.0054703914 -0.11202523 -0.9495253 0.29300529 0.00076853466
0.021607529 0.43115729 0.0094143189 -0.11050235 -0.94928694 0.29435292 0.00090102351
0.18150812 0.4355728 0.0053931591 -0.33090478 -0.90855473 0.2550106 0
0.19282819 0.4311946 0.004511612 -0.35293257 -0.89761132 0.2640692 0.000599892
-0.17044835 0.44049537 0.0085576614 0.32211769 -0.90892518 0.26475522 0.00023546486
-0.15333319 0.44463804 0.0017113652 0.29258323 -0.91076702 0.29137346 0.0002546258
-0.14607449 0.44671461 0.0018315159 0.27829906 -0.90916646 0.30978367 0.00028529562
-0.13942538 0.44846487 0.001525057 0.262768 -0.91128719 0.31703103 0.00016014487
0.14185554 0.44873434 0.0041282573 -0.27749851 -0.90942323 0.30974829 0.00031418964
0.15148443 0.44610354 0.004308397 -0.29147771 -0.91059387 0.2930178 0.00050434138
0.16337055 0.44230857 0.0058083492 -0.31282395 -0.90916526 0.27488136 0.00030700036
-0.13499129 0.45172095 0.0070445584 0.26718652 -0.9109084 0.31441569 8.4758925e-05
-0.12722786 0.45296875 0.0045064678 0.25962967 -0.90976799 0.32390526 1.1538237e-05
-0.11291789 0.45706683 0.0047548781 0.25350165 -0.90890092 0.33111334 0.00015430104
-0.1058641 0.45813131 0.0022589564 0.24230044 -0.90956497 0.33761239 0.00020332006
0.097569644 0.45980847 0.00048988499 -0.22535017 -0.91079825 0.34592468 0.00038274843
0.1256253 0.45424631 0.0067772889 -0.25855905 -0.90939486 0.32580417 0.00016629609
0.13033219 0.45174301 0.0035298783 -0.26258507 -0.90853149 0.32499161 9.3818213e-05
-0.095422626 0.46156883 0.0036659017 0.21383512 -0.91024947 0.35457078 0.00036195948
-0.086991206 0.4642508 0.0049710507 0.20466428 -0.90882975 0.36351198 0.00040684329
-0.075859524 0.4662447 0.0049111112 0.17609252 -0.91057485 0.37395844 0.00020419499
-0.064616367 0.46790212 0.0041538049 0.15676831 -0.91107285 0.38127396 0.00012272157
-0.054623194 0.46898651 0.0025659958 0.13321865 -0.91274679 0.38619444 0.000217475
0.06569764 0.46788287 0.004556404 -0.1597089 -0.91170752 0.37852666 0.00011842426
0.079500318 0.4640449 0.0012432188 -0.17775668 -0.91051525 0.37331569 0.00026054052
0.083778292 0.46674645 0.0095540546 -0.19916831 -0.91053337 0.36229959 0.00039076118
0.094937749 0.46093845 0.0015665703 -0.21473491 -0.91156912 0.35061488 0.00040348613
0.10171779 0.46078646 0.0063525313 -0.23687519 -0.90963882 0.34124392 0.00025479172
-0.060609542 0.47089368 0.0095329667 0.14101993 -0.92190987 0.36082631 0.00054840086
-0.033348206 0.47351962 0.0063525382 0.066921741 -0.94007808 0.33432731 0.0011478806
-0.026167881 0.47184953 0.001745454 0.055816781 -0.93153077 0.35935342 0.0010834808
-0.01040358 0.47351748 0.0033271261 0.034364138 -0.93844366 0.34371895 0.0013117502
-0.0048305648 0.47471625 0.0052217762 0.020180607 -0.94631553 0.32261366 0.0013134388
0.0051607853 0.47492513 0.0057232585 0.00095545471 -0.94272625 0.3335661 0.0019113147
0.015130478 0.47376579 0.0044939192 -0.036737848 -0.93753761 0.34593853 0.0017799353
0.023461368 0.47174484 0.0011594994 -0.053598974 -0.92531669 0.375388 0.00098955201
0.035203613 0.47214055 0.0035730398 -0.080098741 -0.9222371 0.37823668 0.00073747232
0.048067674 0.47126916 0.0052215019 -0.12658998 -0.91669858 0.378997 0.00047719732
0.05624947 0.47086158 0.0076515251 -0.14061266 -0.91704017 0.37318292 0.00060457602
-0.076533042 -0.47107002 0.018633654 0.17309907 0.93583131 0.30701208 0.00037583231
-0.062989078 -0.47171238 0.014868937 0.13434537 0.93621439 0.3247368 0
-0.054304142 -0.47272739 0.014187492 0.12394606 0.93588382 0.32978594 6.8501911e-05
-0.044543058 -0.47510347 0.016970444 0.10383323 0.93810618 0.33041716 0.00020650434
-0.035266478 -0.47485676 0.013319027 0.085273847 0.93606466 0.34133771 0.00045629308
-0.025105439 -0.47701475 0.017758386 0.06275171 0.93658233 0.34478363 0.00011152997
-0.016313333 -0.47599733 0.013877161 0.042663869 0.93640471 0.34831879 2.5046542e-05
-0.0072626676 -0.47649133 0.0140081 0.029892042 0.9361614 0.35029739 0.00011285466
0.0030682895 -0.47635266 0.01308467 -0.0099304048 0.9375782 0.34763268 0.0001342897
0.024925679 -0.47683692 0.017258601 -0.05287753 0.93687415 0.34564546 1.1585854e-05
0.036633529 -0.47415328 0.011645958 -0.088031933 0.9352026 0.34299639 0.00030396011
0.04225162 -0.47303128 0.010068313 -0.098161876 0.93670881 0.33606678 0.00025126728
0.055155594 -0.47301298 0.015360549 -0.12787358 0.93610871 0.32764128 7.4625714e-05
0.064606503 -0.47211495 0.016695421 -0.14554295 0.9357211 0.32131481 0
0.0730711 -0.47074687 0.01627134 -0.1634618 0.93626934 0.31093398 0.00030905806
-0.10364155 -0.46461925 0.016858656 0.21134625 0.9362644 0.28060955 0.00012038685
-0.095345557 -0.4653165 0.012825605 0.19882107 0.93521273 0.29299724 0.00017129496
-0.082154237 -0.46845546 0.013450792 0.17275696 0.93615705 0.3062107 0.0002718246
-0.076950356 -0.4693231 0.013787902 0.1659852 0.93521947 0.31275141 0.00029129835
-0.06510818 -0.46981013 0.010281853 0.13737431 0.93584818 0.32452497 0
0.065754794 -0.46997353 0.011019059 -0.14440034 0.93664467 0.31913203 0
0.075999469 -0.46954119 0.01402051 -0.1637796 0.93742305 0.30726907 0.00049277727
0.086959004 -0.46844253 0.016848458 -0.18597317 0.93760318 0.29379305 0.00023268939
0.093411207 -0.46578464 0.01290742 -0.18697195 0.93801779 0.29182899 0.00024731024
0.1040449 -0.46381226 0.014468438 -0.20976064 0.93575424 0.28348634 1.6302522e-06
0.11703581 -0.46128833 0.015992785 -0.22389454 0.93568504 0.27269903 0.00014098854
-0.15669471 -0.45162168 0.018189935 0.26982284 0.93564695 0.22750908 7.3251358e-05
-0.1496754 -0.45313621 0.015645543 0.25987694 0.93715906 0.23280236 0.00024107998
-0.13573623 -0.45706987 0.01634307 0.24080631 0.93818688 0.24863143 0.0002432898
-0.12825221 -0.45722079 0.010991621 0.22539701 0.93526107 0.27291554 0.00017604273
0.12659851 -0.45853874 0.014131999 -0.22852589 0.93661934 0.26555619 0.00022467038
0.13462763 -0.45728743 0.016106684 -0.24197407 0.93665838 0.25321877 0.00010773489
0.14663112 -0.45442361 0.017290939 -0.25087982 0.93617994 0.24622445 0.00014518516
0.15698013 -0.45017028 0.012233938 -0.27307901 0.93233556 0.23701984 0.00013796234
0.16045415 -0.45068324 0.0189979 -0.27610737 0.93274075 0.23186076 0.00013971074
-0.18191487 -0.44347829 0.015552919 0.36749455 0.8859809 0.28281727 0.0021758839
-0.17341697 -0.4466528 0.018318836 0.32158291 0.91176635 0.2554732 0.0014299568
-0.1660454 -0.44841492 0.016394639 0.30157351 0.92316228 0.2383796 0.00062225899
0.16175078 -0.44853014 0.011300311 -0.28441057 0.92819566 0.23992401 0.00035200632
0.17584391 -0.44481552 0.013471248 -0.34775925 0.89872068 0.26714164 0.0022455987
0.18485135 -0.44248307 0.016545665 -0.37316489 0.88472497 0.27930206 0.0020510261
-0.20177861 -0.43297863 0.015758939 0.44858384 0.83053046 0.33013889 0.00054545823
-0.19098738 -0.43747488 0.011968062 0.4145751 0.85271752 0.31780547 0.0017258389
-0.072148412 -0.43067703 0.01899974 0.091477089 0.95544636 0.28063169 9.8829056e-05
-0.057149276 -0.43045563 0.013428621 0.090650015 0.95564133 0.2802361 0
-0.046240386 -0.43166625 0.013985644 0.091305964 0.95551932 0.28043914 0
-0.039761618 -0.43334857 0.0175969 0.091627933 0.95546407 0.28052217 0
-0.025134113 -0.43387112 0.014594862 0.089298941 0.95577908 0.28020021 0
-0.015933814 -0.43539152 0.016765114 0.082551375 0.95608431 0.28122628 4.0662262e-06
-0.0053308965 -0.43552256 0.013745472 0.036914736 0.96092206 0.27434632 0.00089246617
0.0025173386 -0.43660632 0.016516626 -0.014220432 0.9597702 0.28042647 0.0012375537
0.036775604 -0.43274543 0.014566693 -0.091539972 0.95546651 0.28054255 0
0.042272933 -0.43225592 0.014696717 -0.091542035 0.95546621 0.28054294 4.3861255e-05
0.055069659 -0.43132234 0.015700493 -0.090865806 0.95557404 0.28039551 6.7372923e-05
0.064912461 -0.43030691 0.015417642 -0.0904494 0.95566595 0.28021702 9.8988976e-06
0.2021697 -0.43237513 0.01488988 -0.45486316 0.82182139 0.34308755 0.0001014781
-0.22290713 -0.42135796 0.016744524 0.48093754 0.81333405 0.32739398 0.00047072422
-0.21502645 -0.4257836 0.016585378 0.47390839 0.81175464 0.34126994 0.0002513045
-0.12099032 -0.42065093 0.017078824 0.30585358 0.91033554 0.278824 0.00029330366
-0.11345513 -0.42248333 0.014421804 0.28253707 0.91829461 0.27732265 0.00064227846
-0.10645183 -0.42399827 0.013077076 0.23155668 0.9304868 0.2838586 0.0007252568
-0.097029604 -0.42735505 0.016080424 0.18604362 0.94264936 0.2771281 0.0012317604
-0.086127155 -0.4279969 0.014328388 0.12909004 0.95283371 0.27466992 0.0007526307
-0.075487174 -0.42828512 0.011903274 0.094308093 0.95497245 0.28130722 0
0.058564216 -0.42942226 0.010363076 -0.090471022 0.95563817 0.28030452 4.9786177e-05
0.085404634 -0.42799303 0.014083547 -0.1274908 0.94939762 0.28703701 0.00050013553
0.10440834 -0.42537394 0.015731955 -0.2416559 0.93036616 0.27571955 0.0019234776
0.11597916 -0.42068285 0.011123948 -0.34439376 0.89662731 0.27830282 0.00079145841
0.20998567 -0.42793447 0.014930302 -0.46507907 0.81748074 0.33974501 0.00015388634
0.21280916 -0.42646486 0.015252312 -0.47190806 0.81465429 0.33710703 8.7977314e-05
0.22236714 -0.42034349 0.013723059 -0.4760724 0.81310588 0.33498362 0.00023065615
-0.24166836 -0.41146588 0.019114919 0.49921665 0.81380534 0.29749554 0.00077477185
-0.22433773 -0.41804707 0.011044528 0.47314256 0.81415993 0.33657053 0.00031045527
-0.14188458 -0.41199344 0.01424754 0.33688676 0.90154916 0.27150762 0
-0.13570592 -0.41491136 0.016273109 0.33459157 0.90235275 0.27167633 0
-0.12435079 -0.41920039 0.01643038 0.31335092 0.90971506 0.27245155 0.00020783195
-0.11983892 -0.41975379 0.01267124 0.30743325 0.91112816 0.27446371 0.00028151585
0.12249152 -0.41978058 0.018369187 -0.36441132 0.89069074 0.2717984 0.00056311867
0.13648637 -0.41333717 0.018725658 -0.37897813 0.88473392 0.27133289 0.00020818546
0.22434855 -0.41835213 0.0117556 -0.4745197 0.81335735 0.33657232 0.00024945036
0.23108834 -0.41473877 0.012283718 -0.48303711 0.8127436 0.32576534 0.00051206956
0.24171954 -0.41107184 0.017806161 -0.50686008 0.81370932 0.28455245 0.00075094955
-0.25382981 -0.40253338 0.016010717 0.51476294 0.81420857 0.26848379 0.00075279229
-0.24532893 -0.40745246 0.014351083 0.49775609 0.8159973 0.293917 0.00077559176
-0.17747469 -0.40019611 0.019219384 0.36462212 0.88786602 0.28061473 0.00015545607
-0.16241995 -0.40411162 0.013547035 0.34464198 0.89795059 0.27369064 3.0321669e-05
-0.15611431 -0.40678209 0.014593317 0.33677346 0.90159178 0.27150688 1.7896482e-05
0.14763254 -0.40722075 0.01369587 -0.3609041 0.89193374 0.27240139 0.00021492786
0.15822907 -0.40518719 0.019743523 -0.34189168 0.89631122 0.2823762 2.1534657e-05
0.1647511 -0.40133238 0.015286341 -0.33632261 0.89761603 0.28490791 0
0.24703614 -0.4065468 0.014968127 -0.50746983 0.81228471 0.2875205 0.0005594322
0.25500965 -0.40240407 0.018389195 -0.51578176 0.81590533 0.26128069 0.00065554294
-0.26078629 -0.39740571 0.014169118 0.5190779 0.81323546 0.2630707 0.00047013778
-0.25654039 -0.3998175 0.01268412 0.51361948 0.80830652 0.28781199 0.00094296678
-0.18876958 -0.39521104 0.019175135 0.39283487 0.87334752 0.28800136 0.00039682441
0.17490186 -0.39836052 0.01786248 -0.33538955 0.89770675 0.28572083 0
0.18409036 -0.3940123 0.014984697 -0.34534124 0.89350426 0.287036 0.00012808456
0.26566121 -0.39430034 0.014651918 -0.51286113 0.81433558 0.27171853 0.00071943708
-0.28401923 -0.38126418 0.011593325 0.53679597 0.80917853 0.23891456 0.00030044164
-0.27680382 -0.38655722 0.013410796 0.52515453 0.8131212 0.25109097 0.00029440693
-0.19974923 -0.38858628 0.014686946 0.46636653 0.83707041 0.28603414 0.0010347432
0.19637549 -0.38863456 0.01250663 -0.38551724 0.87312502 0.29837739 0.0014446601
0.20472334 -0.38584387 0.015065468 -0.4480094 0.8450985 0.29171264 0.0019152135
0.27636358 -0.38695133 0.013780258 -0.53014529 0.8118546 0.24461807 0.00022802946
-0.29719484 -0.37367955 0.015836295 0.58512342 0.77532184 0.23771116 0.0015574093
-0.28932762 -0.37810165 0.012914698 0.55744916 0.79850042 0.22726126 0.00054930412
-0.22406358 -0.37315953 0.016226184 0.55112863 0.78414708 0.28525531 0
-0.21911271 -0.37738752 0.018140826 0.54961252 0.78506386 0.2856586 1.8124072e-05
0.28909707 -0.37925813 0.016561447 -0.54472375 0.8070029 0.22808425 0.00017440258
0.29331347 -0.37657639 0.016994117 -0.55361724 0.8000927 0.23099691 0.00056409498
0.30021873 -0.37057456 0.011851767 -0.59318382 0.76272458 0.25765142 0.0023022841
-0.31170553 -0.36142227 0.014448756 0.65825164 0.69874001 0.2801199 0.0021460564
-0.30465811 -0.36850947 0.015063965 0.61794651 0.74060088 0.26391745 0.0019283462
-0.2404384 -0.36189735 0.017350875 0.55649257 0.78044671 0.28498954 6.9363872e-05
-0.23509061 -0.36592761 0.017948525 0.55643821 0.78052127 0.2848914 0
-0.22839126 -0.36837345 0.011565223 0.55645686 0.78050083 0.28491101 5.1858842e-05
0.2353107 -0.36423451 0.016320853 -0.57051086 0.77029443 0.28489286 2.4447416e-05
0.24003465 -0.36107385 0.017284416 -0.56797391 0.7718569 0.28573179 5.3497024e-05
0.30408555 -0.36811805 0.01225903 -0.61052614 0.75037038 0.25338131 0.0021927727
-0.3206892 -0.35182628 0.015630882 0.70955682 0.63865983 0.29772934 8.2848579e-05
-0.31667575 -0.35567957 0.014176017 0.70081735 0.64918327 0.29566208 0.00054138055
-0.24804698 -0.35704952 0.018928722 0.55712265 0.77984357 0.28540903 3.2903536e-05
0.24875855 -0.35374936 0.015036181 -0.56338233 0.77440441 0.28792033 4.8363963e-05
0.25203547 -0.3527301 0.018674374 -0.56258982 0.77511442 0.28755903 1.0485628e-05
0.31451291 -0.35827512 0.014500951 -0.68224233 0.67733514 0.27524993 0.0015081172
-0.32750347 -0.34193799 0.010951069 0.71503574 0.63320512 0.29626882 0
-0.26668045 -0.3414444 0.01312525 0.56726426 0.77112639 0.2890943 4.4603639e-05
-0.25637913 -0.34972948 0.015146151 0.56130153 0.77620715 0.28712893 0
0.25631642 -0.34809947 0.014463265 -0.56186384 0.77516502 0.28883937 5.9777863e-05
0.26400349 -0.34302521 0.0155445 -0.55624247 0.77837795 0.29107052 6.3453401e-05
0.32667333 -0.34378615 0.012896302 -0.714966 0.63336015 0.29610559 3.5138197e-05
0.33047038 -0.34240711 0.019116296 -0.71489328 0.63338959 0.2962181 7.6728815e-05
-0.33560112 -0.33452857 0.014666796 0.71520478 0.63302857 0.29623824 6.2780523e-06
-0.28153503 -0.3309412 0.014586553 0.57124186 0.76742959 0.29109186 6.2117469e-05
-0.27384707 -0.33818981 0.018606141 0.56878281 0.76984274 0.28953099 0
0.27168739 -0.33792859 0.016560085 -0.55528784 0.77872473 0.29196423 0
0.2827791 -0.33026397 0.017205492 -0.55511832 0.7788257 0.29201728 0
0.33407098 -0.3356916 0.013458125 -0.71504527 0.63320303 0.29625028 0
-0.33980283 -0.32942343 0.013901128 0.71499807 0.63328677 0.2961852 0
-0.29425648 -0.32143831 0.014499645 0.59179294 0.75137335 0.29192305 0.00064436108
-0.28920957 -0.32714167 0.019627912 0.57926446 0.76020557 0.29417711 0.00012119334
0.28660128 -0.32789296 0.018148556 -0.55507916 0.77885932 0.2920022 0
0.29676646 -0.32094288 0.018938184 -0.60934013 0.73143357 0.30612037 0.0014562102
0.33980793 -0.32918227 0.013398066 -0.71511573 0.63312602 0.29624459 0
0.34162015 -0.32719365 0.013523639 -0.71503115 0.63322228 0.29624301 0
-0.3544625 -0.31336975 0.014986603 0.71519989 0.63303381 0.29623875 0
-0.30452436 -0.31380874 0.014828136 0.64870125 0.70627761 0.28347588 0.0019704562
-0.29750758 -0.3181904 0.01231879 0.60337496 0.74064243 0.29561362 0.00078135438
0.29856992 -0.31851083 0.01588068 -0.61035323 0.73075438 0.30572367 0.0016921679
0.35301834 -0.31351531 0.011811143 -0.71509695 0.6331203 0.29630241 8.8034758e-05
-0.3622745 -0.30473086 0.01538547 0.71508366 0.63316727 0.29623395 0
-0.30702794 -0.30945274 0.01004345 0.67767888 0.68130076 0.27673203 0.0013665623
0.31445691 -0.30374658 0.017417856 -0.71365398 0.64389986 0.2758458 0.0010638054
0.36431062 -0.30395481 0.018642645 -0.71507412 0.63314968 0.29629472 0.00010198998
-0.3714754 -0.29424694 0.015194546 0.71509331 0.63314897 0.29624987 0
-0.36825749 -0.29844052 0.016387425 0.71512109 0.6331315 0.29622012 0
-0.32069397 -0.29444051 0.013519811 0.73877525 0.61655742 0.27215475 0
0.31707776 -0.29973382 0.015551319 -0.71760541 0.63673699 0.28214991 0.00084083708
0.32405022 -0.29123902 0.015458151 -0.74192518 0.61196154 0.27395287 8.6838852e-05
0.36867741 -0.29896647 0.018525068 -0.71520972 0.63302124 0.29624161 0
-0.3837837 -0.28240794 0.019609943 0.72091222 0.62502396 0.29938379 9.9571553e-05
-0.33168375 -0.28070164 0.012591816 0.7424224 0.61129212 0.27409998 0
-0.32756892 -0.2888788 0.019716257 0.7419194 0.61199707 0.27388918 6.985159e-06
0.3298347 -0.2839337 0.01480471 -0.74194705 0.61194003 0.2739417 7.984633e-05
0.37750515 -0.28636885 0.012916466 -0.71709698 0.63056177 0.29692376 0
0.38131723 -0.28294304 0.014798814 -0.71697885 0.63036877 0.29761809 0.00010222079
-0.39145288 -0.27150133 0.014817778 0.77156425 0.55240977 0.31548709 0.0017169146
-0.38424289 -0.27797771 0.011251275 0.73034775 0.61395329 0.29942188 0.00045491508
-0.33411163 -0.27785867 0.012816403 0.74237686 0.6113261 0.27414781 0
0.33728033 -0.27516586 0.015383309 -0.74413586 0.60832274 0.27605304 4.6656878e-05
0.34318072 -0.27005056 0.019937083 -0.74848539 0.60276616 0.27648225 4.2247575e-05
0.38365185 -0.2783424 0.010603649 -0.73027086 0.6117304 0.30412242 0.00052283274
-0.39664969 -0.26417103 0.013678186 0.79180372 0.51032662 0.33557966 0.0020176372
-0.34352669 -0.26632866 0.01255808 0.75025862 0.60078138 0.27599594 8.7807937e-05
0.34134114 -0.26823491 0.010897111 -0.74869221 0.60197455 0.27764487 5.1746807e-05
0.3970356 -0.26492554 0.015910635 -0.79190129 0.51861024 0.32239068 0.0022733812
-0.39980242 -0.2549054 0.010201205 0.81717765 0.46282545 0.3435306 0.0011693642
-0.35591635 -0.25318837 0.018242992 0.76720947 0.57628024 0.28158596 0.00012085163
0.35349053 -0.255588 0.016513839 -0.76238841 0.58368599 0.2794182 0.00012718853
0.40335298 -0.25259903 0.016047761 -0.82509786 0.44856256 0.34351861 0.00090813544
-0.40530467 -0.24816492 0.01552016 0.8349216 0.42611867 0.34832296 0.00029187306
-0.36016309 -0.24356787 0.010450661 0.78397554 0.54894245 0.28990427 0.00045919139
-0.35986841 -0.24412569 0.010772228 0.78401297 0.54890501 0.28987402 0.00040502741
0.35788795 -0.24791324 0.013010832 -0.78192091 0.55377692 0.28623563 0.00040169214
0.360091 -0.24763295 0.018372364 -0.78094965 0.55733573 0.28194761 0.00043594639
0.40744907 -0.24425927 0.016082238 -0.83874196 0.41902262 0.34775275 0.00011862112
-0.41150838 -0.23484905 0.014762945 0.84178561 0.41209817 0.34867191 0
-0.40963915 -0.23875196 0.014862023 0.84171462 0.41219059 0.34873426 5.0804581e-05
-0.36692137 -0.2351605 0.013840593 0.80890197 0.5074144 0.29699865 0.0005954873
0.36750054 -0.23528427 0.015678754 -0.81016541 0.50908875 0.29062092 0.00047562469
0.40854323 -0.23875484 0.012219705 -0.8413648 0.41299745 0.34862357 0
-0.41725576 -0.22341897 0.015132347 0.84180129 0.41205516 0.34868494 0
-0.37220073 -0.22611971 0.014198209 0.82720011 0.47882548 0.29405114 2.4241628e-05
0.3724876 -0.22672963 0.015993275 -0.82349777 0.48622066 0.29230279 0.00020309436
0.41712585 -0.22296548 0.014282916 -0.84180969 0.41199118 0.34873998 5.0598937e-05
-0.42260593 -0.2143188 0.017295904 0.8422702 0.41227338 0.34729189 0
-0.41971347 -0.21889457 0.015719699 0.84220427 0.41232869 0.347386 0
-0.37752542 -0.21580918 0.012636609 0.84110016 0.45669097 0.28979978 0.00019895022
0.38102865 -0.21318012 0.018308273 -0.84506077 0.45034257 0.28820804 0.00020260019
0.42255315 -0.21518636 0.018193642 -0.84288454 0.41290784 0.34504011 6.3264235e-07
-0.42753583 -0.20042165 0.012776701 0.84180617 0.41204104 0.34868973 0
-0.38009441 -0.20979649 0.010209121 0.8466509 0.4493368 0.28509423 0.00012500533
0.38195455 -0.20956132 0.015092479 -0.84995282 0.44058186 0.28890818 0.00027530329
0.42664444 -0.20503508 0.016075982 -0.84181106 0.41197467 0.34875634 8.019583e-05
0.4304654 -0.20006029 0.019422315 -0.84647113 0.4118129 0.33748588 0.00016994667
-0.43128723 -0.19237138 0.012321007 0.84178066 0.41204569 0.348746 6.5920598e-05
-0.39062724 -0.19054388 0.013894661 0.87062395 0.40864217 0.27390775 8.7562999e-05
-0.38709643 -0.19896589 0.014881499 0.86375022 0.41964257 0.27899054 0.00025060755
0.38795152 -0.19548929 0.012558509 -0.86535949 0.41529682 0.28050241 0.00015553217
0.39081192 -0.19323772 0.018388653 -0.8688522 0.40899035 0.27896708 6.9235364e-05
-0.43628547 -0.18451639 0.015106212 0.84274709 0.41129994 0.34728909 1.2536029e-05
-0.39572656 -0.18169966 0.017283121 0.87472045 0.39899233 0.2750802 0
0.39218846 -0.1857295 0.011876906 -0.87381041 0.40089092 0.27521232 0
0.43320647 -0.18926603 0.013285113 -0.84180135 0.4120504 0.34869048 0
-0.44062117 -0.17406708 0.013226405 0.84333783 0.41248283 0.34444031 7.6957695e-05
-0.40045881 -0.17003606 0.015415274 0.87518692 0.39707652 0.27636597 3.7738431e-07
-0.39792457 -0.17535345 0.015068535 0.87472999 0.39894044 0.27512521 5.7179841e-05
0.43852305 -0.17791158 0.012703959 -0.8424983 0.41164163 0.34748772 0
0.44204891 -0.17140543 0.013528275 -0.84425205 0.40882567 0.34655446 6.0425195e-05
-0.44565499 -0.16376857 0.01321034 0.84980786 0.39346752 0.35072783 0.00075871637
-0.40325522 -0.16562 0.017903093 0.87504411 0.39748874 0.27622545 7.4535106e-05
0.44436261 -0.16626729 0.013042719 -0.84639841 0.40316552 0.3479473 0.00013935102
-0.45021865 -0.15529513 0.014215504 0.87516904 0.33845899 0.34572324 0.0021064668
-0.44934398 -0.15543565 0.01226997 0.87423813 0.33478463 0.35160631 0.0021797151
-0.40553537 -0.15595448 0.011135794 0.89081538 0.36053053 0.27652442 0.00067481451
0.40786624 -0.15254715 0.013605946 -0.90400666 0.32209796 0.28111365 0.0018170201
0.44980118 -0.1542135 0.011929629 -0.87181628 0.34686804 0.34585983 0.0014925192
0.45336744 -0.15165804 0.017519854 -0.88228291 0.32412276 0.34135193 0.0020417194
-0.45627514 -0.14516307 0.018556265 0.90805739 0.26910594 0.32095757 0.0012645593
0.41309375 -0.14345957 0.017398227 -0.92505115 0.2631788 0.27389288 0.0015652342
0.45396903 -0.14540023 0.013336908 -0.88380426 0.30187944 0.3574338 0.0023341589
-0.4560492 -0.13451514 0.013265049 0.9134444 0.20491868 0.35160714 0.00083018217
-0.41301867 -0.13395357 0.012185558 0.92845768 0.21963401 0.29954505 0.0013746514
0.41341385 -0.13612138 0.014555223 -0.93228459 0.21010149 0.29445344 0.0006871387
0.4574362 -0.13496837 0.016810406 -0.91133767 0.21003987 0.35404357 0.0021464913
-0.46027264 -0.12654476 0.019999504 0.919186 0.17757961 0.35151476 0.00046560451
-0.45801163 -0.12456791 0.013682356 0.91781127 0.1730036 0.35734046 0.00036669825
-0.41613787 -0.12687203 0.01822038 0.93698859 0.18681125 0.29521847 0.00071048929
0.41588196 -0.12507294 0.016479049 -0.9385125 0.18098143 0.29400709 0.00043619852
0.45894152 -0.12429568 0.015808985 -0.91368306 0.16907145 0.36959192 0.00024369093
-0.46254995 -0.11268207 0.019476207 0.92541218 0.17305359 0.3371419 0.00069837947
-0.4163332 -0.11145602 0.010757483 0.9404763 0.15767102 0.30107179 0
0.41601935 -0.11754737 0.012967045 -0.94046414 0.15768525 0.30110213 3.2660395e-05
0.46098912 -0.11102422 0.014987949 -0.91407287 0.16361082 0.37108254 0
-0.46167126 -0.10612013 0.014504845 0.91926914 0.16276488 0.35840172 0.00046038226
-0.41792166 -0.10150252 0.010506853 0.94014847 0.15926892 0.30125451 9.8920835e-05
0.41889226 -0.10521233 0.015481453 -0.94045651 0.15765904 0.3011398 7.2698625e-05
0.42017871 -0.10145877 0.017534187 -0.94048172 0.15851657 0.30061045 0.00012505933
0.46145955 -0.10562573 0.01377889 -0.91329068 0.16425364 0.37272093 6.125748e-05
-0.46483374 -0.094710268 0.017183945 0.9271155 0.15877023 0.33948326 0.001168445
-0.41885018 -0.09532164 0.010170295 0.94023377 0.16295868 0.29900637 2.1498456e-05
0.41905797 -0.097352482 0.011882816 -0.94065899 0.16010992 0.29920813 0
0.42110163 -0.092926942 0.0159491 -0.94043928 0.16375148 0.29792503 6.7324712e-05
0.46517795 -0.092774048 0.017173894 -0.92311114 0.16770567 0.34603557 0.00065032265
-0.46560755 -0.084524035 0.014627687 0.91910928 0.16170873 0.35928875 0.00018605027
-0.42163721 -0.080726594 0.011232946 0.93999153 0.1742532 0.29334581 0.0001182065
0.42212734 -0.084648103 0.01481757 -0.9407497 0.1682817 0.29439989 0
0.46412542 -0.083950281 0.010800353 -0.91819477 0.16452214 0.36034817 0.00029241137
-0.42432144 -0.072725505 0.014956534 0.93889242 0.18186468 0.29224345 4.6334866e-05
0.46684369 -0.077648193 0.014625601 -0.91787809 0.16773497 0.35967326 0.00032894823
-0.47104192 -0.060757227 0.017424582 0.92545736 0.17386833 0.33659849 0.0011227034
-0.46808392 -0.063029632 0.011270284 0.91644388 0.1660271 0.3640956 0.00032118306
-0.4262971 -0.063933611 0.015397895 0.9384557 0.18855874 0.28938985 2.6506712e-05
0.42596665 -0.065505058 0.015393769 -0.9396221 0.18623112 0.28710344 0.0001609607
0.46977246 -0.06597054 0.016624168 -0.92528975 0.17275745 0.33762965 0.00084529491
0.47055042 -0.067025825 0.018960658 -0.92847908 0.17532374 0.32739598 0.0011494781
-0.47193202 -0.057485837 0.018152526 0.93008924 0.16736445 0.32699108 0.0013884738
-0.42904598 -0.050726086 0.015337683 0.9383989 0.19532928 0.28505108 0.0001018509
0.47224125 -0.056013379 0.018259518 -0.92989784 0.1703468 0.32599363 0.00098910765
-0.47385603 -0.044123448 0.016993608 0.92579108 0.16399509 0.3406119 0.00099365693
-0.43039846 -0.045627676 0.01627636 0.93838096 0.19660348 0.28423283 0
-0.42776567 -0.049186919 0.010046043 0.93838286 0.19661391 0.28421935 0
0.43057272 -0.046471983 0.017435716 -0.9383747 0.19662237 0.28424025 2.8439374e-05
0.47171569 -0.046844982 0.013008486 -0.92399615 0.16416851 0.34536901 0.00089706446
-0.47429675 -0.03653558 0.014761947 0.92162412 0.1453792 0.35982481 0.00056644512
-0.43063921 -0.036012609 0.010420404 0.94627231 0.16003673 0.28099293 0.00094747741
0.43223768 -0.034475438 0.014634598 -0.94453633 0.17539327 0.27764782 0.00040369155
0.47536242 -0.034074679 0.016265836 -0.92799181 0.14473648 0.34334019 0.00098249863
-0.47588968 -0.02685903 0.014404701 0.92345208 0.1122146 0.36693892 0.0013549057
-0.4341799 -0.027179219 0.015999973 0.94684494 0.13924669 0.2899915 0.0012210552
0.43515196 -0.021978024 0.015611663 -0.95179176 0.067061663 0.2993246 0.0028703727
0.47585025 -0.028832706 0.015166818 -0.93110555 0.092125833 0.35292399 0.001429501
-0.47705358 -0.015691547 0.014463805 0.93226475 0.028616086 0.36064336 0.0027048362
-0.43638998 -0.013378107 0.018453043 0.95287806 0.001838065 0.30334809 0.0017502459
0.47739315 -0.014206099 0.015440765 -0.93678093 0.016601188 0.34952229 0.0021553962
-0.47465438 -0.0064646499 0.010753887 0.92745453 -0.053492129 0.37009019 0.0010608542
-0.43583864 -0.0083632227 0.018222701 0.95159483 -0.0067486865 0.30728132 0.0015229495
0.47445393 -0.0015439866 0.011493655 -0.93020028 -0.064669959 0.36131042 0.00058928184
-0.43223438 0.007013882 0.011212893 0.95285988 -0.09146592 0.28929576 0
0.43229008 0.006896589 0.013328684 -0.95124304 -0.10793212 0.28894156 6.3826425e-05
0.47340977 0.0072853598 0.011168616 -0.92581785 -0.092305228 0.36652559 0.0003261083
-0.47354844 0.015055327 0.013435582 0.92379242 -0.092351139 0.37158954 0.00020393891
-0.43330118 0.010518678 0.015834618 0.95285976 -0.091466114 0.289296 0
0.4308193 0.018374622 0.013019463 -0.9506501 -0.11330333 0.28883684 0
0.47497001 0.017649254 0.017512759 -0.93453848 -0.088345729 0.34472153 0.0011321284
-0.47283322 0.023678537 0.013853429 0.92332077 -0.094228312 0.37228984 0.00013953158
-0.43281531 0.023156565 0.018229919 0.95282382 -0.091563992 0.28938335 5.5347464e-05
0.43067643 0.028065361 0.016376963 -0.95041746 -0.10913378 0.29119831 2.9953484e-05
0.47433639 0.02063835 0.016726257 -0.93500876 -0.086977743 0.34379268 0.0012324301
-0.47359252 0.034133323 0.018286401 0.93858272 -0.10270326 0.32941532 0.0014137716
-0.43207288 0.032772362 0.018824659 0.95229876 -0.092980683 0.29065722 0
-0.42974263 0.036214463 0.01223773 0.95215726 -0.093838409 0.29084516 0
0.42909724 0.037612915 0.014948044 -0.95058 -0.10406343 0.29252085 7.8468518e-05
0.47177106 0.032072976 0.013376683 -0.92334592 -0.094096541 0.37226099 0.00013778869
-0.47152534 0.043442592 0.015610884 0.93218827 -0.10154158 0.34743971 0.00086069637
-0.46962914 0.045389876 0.01151729 0.92152399 -0.095914043 0.37628981 0.00011308406
-0.4290247 0.049948514 0.01422295 0.95067507 -0.10179819 0.29300871 8.7642016e-05
0.42851031 0.046389263 0.016004784 -0.95037276 -0.100534 0.29442254 6.9837901e-05
0.46965933 0.043391459 0.011093256 -0.92241532 -0.093645841 0.37467369 0
-0.47071347 0.054650746 0.016438048 0.93915242 -0.10878069 0.32582116 0.0013775685
-0.46882859 0.056513041 0.012350765 0.92117465 -0.09457022 0.37748334 0.00014872229
-0.43003958 0.050183516 0.017632134 0.95067 -0.10195753 0.29296955 0
-0.42874122 0.055241589 0.015345279 0.94975066 -0.10709528 0.29411611 0
0.42725599 0.05206814 0.013742662 -0.9506042 -0.097000033 0.29486039 9.7042801e-05
0.46957916 0.054443851 0.013648193 -0.92517263 -0.098183773 0.36662728 0.00024253481
0.47099411 0.052348342 0.016543046 -0.92489451 -0.099146269 0.3670696 0.0002115184
-0.46789178 0.061981838 0.011449032 0.9246226 -0.098554134 0.36791319 0.00013820871
0.42630574 0.067729428 0.015506733 -0.950234 -0.091472454 0.29780561 7.3963449e-05
0.46969664 0.065238841 0.016616277 -0.93627864 -0.092119344 0.33896366 0.0012148953
-0.46800628 0.075582772 0.015107845 0.93125325 -0.090293638 0.35300756 0.00059057475
-0.42594281 0.073370218 0.013353333 0.94816846 -0.11334312 0.29686692 0
0.42460924 0.075592726 0.012503009 -0.95022309 -0.091219313 0.29791805 0
0.46899718 0.074298009 0.017180594 -0.93311667 -0.098062202 0.34594354 0.00097607856
-0.46684843 0.084133968 0.014439138 0.93167961 -0.089548789 0.35207123 0.0004662206
-0.42592278 0.081687555 0.016475344 0.94807172 -0.11391511 0.2969569 0
0.42494723 0.083079845 0.015873296 -0.94993311 -0.093118735 0.29825485 0
0.46686852 0.087917566 0.01542848 -0.9276287 -0.10681494 0.35790446 0.00072712818
-0.46552834 0.091224037 0.01301518 0.92541355 -0.099890031 0.36555663 0.00038325784
-0.42431718 0.099738657 0.01826261 0.94424397 -0.16310874 0.28600508 0.00094084849
0.42394319 0.094169907 0.016066229 -0.94715303 -0.11883944 0.29795679 0.00049594749
0.46575975 0.095158115 0.014552275 -0.92583066 -0.11258569 0.36077973 0.00075320504
-0.465933 0.10680134 0.017866032 0.91319394 -0.20320335 0.35324961 0.0021369972
-0.42308515 0.10433587 0.016089428 0.93655366 -0.20654418 0.28320798 0.0020177611
0.42282662 0.10410094 0.015545227 -0.93820971 -0.18492046 0.29251847 0.0019684704
0.46514136 0.10564997 0.015668521 -0.91897833 -0.1791839 0.35124326 0.0020048725
-0.46369204 0.11557079 0.017524628 0.9090836 -0.25535068 0.3291854 0.0019297723
-0.42034721 0.11515326 0.016522139 0.92193037 -0.26499966 0.28252369 0.0014705529
0.41969228 0.11654289 0.016083002 -0.9206177 -0.27493444 0.27726179 0.0012987257
0.42137903 0.11040559 0.014124554 -0.93533123 -0.20812951 0.28607273 0.0021662405
0.46157801 0.11726429 0.014059963 -0.89333731 -0.26647618 0.36185482 0.0022380326
-0.46096462 0.1243534 0.019439667 0.8940506 -0.31060079 0.3228012 0.0014913138
-0.45956236 0.12467004 0.01636078 0.88625932 -0.30501249 0.34858534 0.0011670876
-0.41790891 0.12121621 0.015961131 0.90551817 -0.31680089 0.28226578 0.0004901588
0.4151932 0.12499463 0.011744838 -0.9094283 -0.30739072 0.28009135 0.00076635892
0.4580653 0.12533249 0.013387572 -0.88459504 -0.30068716 0.35648128 0.001176041
-0.45568275 0.13438429 0.016395655 0.87905681 -0.34283718 0.33124274 0.00080093567
-0.41355005 0.13231744 0.015275677 0.90170693 -0.32970205 0.27968055 6.4432779e-06
0.41314834 0.13062315 0.011931162 -0.90211219 -0.32873461 0.27951244 0.00012543827
-0.45215678 0.14188585 0.015142965 0.86755627 -0.34805006 0.35525671 0
-0.40885234 0.1453388 0.015813455 0.89972019 -0.33619604 0.27834466 0
0.40883735 0.14546116 0.015912747 -0.89974886 -0.33613542 0.27832529 0
0.45203465 0.14398469 0.016879318 -0.87108868 -0.34591287 0.34863847 5.8115973e-05
-0.44566163 0.15818854 0.01523949 0.86913645 -0.34641829 0.35298178 1.703915e-05
-0.40520975 0.15402055 0.014521759 0.89824623 -0.33987099 0.27864197 3.5821533e-05
0.40591615 0.15431401 0.017159751 -0.8984893 -0.33891192 0.27902651 4.6972516e-05
0.44563225 0.15769082 0.01468686 -0.86929268 -0.34665415 0.35236517 0
-0.44316638 0.16483805 0.015650665 0.86767864 -0.34728098 0.35571006 0
-0.40219694 0.16053605 0.012650166 0.89448589 -0.35206512 0.27558172 0.00011685619
-0.39999908 0.16834486 0.014974616 0.88751888 -0.36496985 0.28126022 9.495132e-05
0.40340307 0.16237958 0.018775271 -0.89788687 -0.34000382 0.27963647 0
0.44377738 0.16683972 0.019062884 -0.87234199 -0.34619394 0.34520891 0.00024290253
-0.44011155 0.17477338 0.017890716 0.87468266 -0.34768981 0.33770084 0.00048242585
-0.43817416 0.17537002 0.013790764 0.86781812 -0.34631547 0.3563107 1.6304855e-05
-0.39711869 0.17520201 0.014604753 0.88323313 -0.37341645 0.28365344 0.00016393999
0.3972609 0.1747667 0.014558594 -0.87958997 -0.37553504 0.29205289 0.00010097597
0.43633947 0.17942089 0.013281723 -0.8667388 -0.34729362 0.35798204 0
0.44049066 0.17338309 0.017460417 -0.86894745 -0.34546426 0.35437924 0
-0.43251339 0.18617648 0.010582672 0.86651754 -0.34722513 0.35858339 0
-0.39227861 0.18780805 0.017652959 0.87110138 -0.39242887 0.29526606 0
-0.3894704 0.18868193 0.01064872 0.8696456 -0.39489105 0.2962729 9.2337796e-05
0.43473214 0.18446247 0.014280454 -0.8665837 -0.34742922 0.35822567 0
-0.43235013 0.19082168 0.014683958 0.86728472 -0.34785202 0.35611275 0
-0.42968124 0.19623515 0.013479711 0.86639023 -0.34726131 0.35885566 0
-0.39101517 0.19197842 0.01964695 0.8683213 -0.39821503 0.29570737 9.4019924e-05
0.38770819 0.19634393 0.015943639 -0.86592811 -0.40323439 0.29592317 0.00010893327
0.4302277 0.19989356 0.01833953 -0.86718088 -0.34712306 0.35707539 0
-0.42700523 0.20399544 0.014529394 0.86633408 -0.34739152 0.35886529 0
-0.38475478 0.20403014 0.017795555 0.86234617 -0.4112612 0.29533601 0
0.42626238 0.20604664 0.014721063 -0.86632496 -0.3474108 0.35886875 0
-0.42274332 0.21575423 0.015620013 0.86058855 -0.36463347 0.35556966 0.00033266901
-0.38098288 0.21307418 0.019108601 0.85353291 -0.43185183 0.29152274 0.00063473359
-0.37762585 0.21760707 0.015487309 0.84297585 -0.45548019 0.28623337 0.00079504523
0.37799019 0.21519385 0.013263239 -0.84513921 -0.44491711 0.29629123 0.00079032121
0.42305315 0.21357903 0.014262918 -0.86499488 -0.35261446 0.35699713 7.5777381e-05
-0.42061484 0.22180578 0.016337819 0.8528018 -0.39015576 0.34714204 0.0011343384
-0.41937354 0.22509605 0.016525313 0.84304601 -0.41059324 0.34739968 0.0016318904
-0.37317526 0.22832517 0.019546255 0.82073456 -0.49767113 0.28056753 0.0010192964
0.37654135 0.22230341 0.018719941 -0.82878703 -0.48120862 0.28557006 0.00091212924
0.41803068 0.22771288 0.015815865 -0.83992773 -0.41435707 0.35047045 0.0016193389
0.42028442 0.22040032 0.014180066 -0.85179085 -0.38285676 0.35759333 0.00089965214
-0.4141582 0.23480777 0.014442987 0.81388438 -0.48098809 0.32594892 0.0019787056
-0.36641136 0.23606478 0.015891077 0.80131453 -0.53389555 0.26990849 0.00041815641
0.36423865 0.23830335 0.01419948 -0.79717469 -0.53869754 0.27261215 0.00039718294
0.41447389 0.23312908 0.012470624 -0.82886779 -0.45836815 0.32074404 0.0026279234
-0.41067174 0.24203381 0.019055456 0.7915765 -0.51947653 0.32179287 0.0018631696
-0.40741184 0.24418846 0.015164495 0.77933502 -0.53917581 0.31925923 0.0010668417
-0.36184812 0.24261487 0.016201641 0.79080427 -0.54858178 0.27145302 0.00019261407
-0.35757568 0.24767996 0.014261251 0.78501576 -0.55838096 0.26825535 0
0.35832673 0.24715748 0.015371218 -0.78544337 -0.55796939 0.26785991 1.5062059e-05
0.36207661 0.24011011 0.011636822 -0.79315096 -0.54543066 0.27095568 0.00032594509
0.40612885 0.24526559 0.014056336 -0.77922392 -0.53591281 0.32497326 0.0011441871
-0.40232253 0.25134102 0.016087353 0.75529236 -0.57602531 0.31261525 8.0792715e-06
-0.39805126 0.25786343 0.017821135 0.75510716 -0.57596284 0.31317735 7.7524464e-07
-0.35525036 0.25291502 0.01838465 0.78454524 -0.55934709 0.26761827 0
-0.34816721 0.25946528 0.011307769 0.78509849 -0.55867511 0.26739946 0
0.34800321 0.25935903 0.010604978 -0.7846607 -0.55918902 0.2676101 2.2761384e-07
0.39703092 0.25692555 0.013625775 -0.75500047 -0.57629949 0.31281501 0.00013057876
0.40085173 0.25379497 0.017068483 -0.7563377 -0.57306945 0.31550717 0.00010425342
-0.39330429 0.2636534 0.01705385 0.75436407 -0.5772832 0.31253621 0
-0.3891131 0.26758891 0.014203649 0.75440913 -0.57723439 0.31251785 0
0.34268188 0.26958406 0.016373288 -0.76264018 -0.58313012 0.27989143 0.0008091639
0.38619351 0.26916832 0.010072041 -0.75449836 -0.57709914 0.31255198 7.7472265e-05
0.39211023 0.26569945 0.017949903 -0.75445276 -0.57718378 0.31250602 0
-0.38293985 0.27798241 0.018494954 0.75446224 -0.57715672 0.31253305 4.1772466e-05
-0.33647233 0.27766246 0.01505146 0.73469061 -0.61976939 0.27589071 0.0019537311
0.33857679 0.27464139 0.014907241 -0.73693234 -0.61151284 0.28806719 0.001331456
0.38422966 0.27385017 0.013977468 -0.75447124 -0.57714146 0.31253919 3.1256041e-05
-0.37525344 0.28695703 0.016512742 0.75440371 -0.57721788 0.31256136 6.0000508e-05
-0.33369425 0.28198725 0.015558012 0.719576 -0.6349957 0.28105307 0.0019836696
-0.3285332 0.2882095 0.017449215 0.67913115 -0.67355996 0.29171541 0.0015939922
0.37524411 0.28612006 0.014944498 -0.75443959 -0.57719558 0.31251574 0
-0.37246156 0.29063836 0.016571237 0.75443512 -0.57719314 0.31253111 3.4884615e-05
-0.3212328 0.29189241 0.01159817 0.63448328 -0.71300662 0.29841685 0.00061171287
-0.31732234 0.29641858 0.014852162 0.62295073 -0.72393668 0.29639187 0.00030697964
0.31654656 0.29503584 0.014230236 -0.60921937 -0.73366833 0.30096945 2.3842025e-05
0.36898625 0.29371682 0.013866559 -0.75449449 -0.57709652 0.3125661 6.7474648e-05
-0.3048324 0.30782002 0.017602351 0.60813451 -0.73711801 0.29466847 0
0.30315331 0.30626753 0.014677874 -0.60786033 -0.73472273 0.30114499 0
0.35960943 0.30670935 0.015223613 -0.75438708 -0.5772593 0.31252486 0
0.36055291 0.30455434 0.013521597 -0.75446999 -0.57715774 0.31251225 0
-0.34972686 0.31704903 0.010460441 0.75445849 -0.57714218 0.31256899 9.0590307e-05
-0.2941097 0.31539273 0.014420668 0.60931242 -0.73649943 0.2937806 9.9341423e-06
-0.28919455 0.31964132 0.014906955 0.61136645 -0.73499507 0.29328024 0
0.28959996 0.31626841 0.011818301 -0.63466376 -0.71668828 0.28906733 0.00032728817
0.29661265 0.31299153 0.017902637 -0.61328584 -0.73147541 0.29803389 0.00011284815
0.34936494 0.31946158 0.014042219 -0.75358671 -0.57858968 0.31199527 7.5877018e-05
0.35440665 0.31368428 0.015544519 -0.75447476 -0.57714123 0.31253135 2.3994216e-05
-0.34567046 0.32662797 0.018357862 0.74233377 -0.5952372 0.30762514 0.00052330032
-0.2842105 0.32392335 0.015334703 0.61380756 -0.73351997 0.29187092 0.00010367218
-0.27833432 0.32696605 0.010667652 0.6183933 -0.73035157 0.29013154 1.3826567e-05
0.28441888 0.32213742 0.015689671 -0.63517123 -0.71607906 0.28946215 0.00028685699
0.34674966 0.32522801 0.01837798 -0.74967271 -0.58681935 0.30599657 0.00018502018
-0.33608556 0.33627817 0.013040148 0.6926685 -0.65635228 0.29901844 0.0021938791
-0.27189124 0.3359375 0.019368503 0.62076837 -0.7290464 0.28833655 0
-0.26880586 0.33742091 0.01638259 0.62188613 -0.72824621 0.28794992 0
0.26711953 0.337345 0.012496034 -0.64002758 -0.71523583 0.28071761 0.00020653079
0.27050811 0.33704957 0.019166932 -0.6452055 -0.71148527 0.27838555 0.00015664728
0.33618021 0.33567443 0.012153606 -0.70558995 -0.64561325 0.29210663 0.0019199795
-0.33029339 0.34251946 0.013512041 0.64949465 -0.70822132 0.27672949 0.0022131235
-0.32333791 0.34777921 0.013240556 0.61005384 -0.75027478 0.2547982 0.00075049017
-0.26303485 0.34103748 0.01293873 0.62494469 -0.72655672 0.28558609 0
-0.25750822 0.3461526 0.013840638 0.62549591 -0.72605979 0.28564319 0
0.25966623 0.34613043 0.018511161 -0.63141209 -0.72143477 0.28434259 6.2851897e-05
0.26264256 0.34297299 0.017001264 -0.63685727 -0.71791941 0.28107727 0.00016460684
0.32571808 0.34698161 0.016481517 -0.61611503 -0.74176812 0.26491949 0.00087641756
0.33465981 0.34114364 0.01973214 -0.67747861 -0.67741728 0.28658062 0.0021617415
-0.3206611 0.35106781 0.017107543 0.60199165 -0.75944895 0.24666451 0.00031741915
-0.31213331 0.35755622 0.016899386 0.59098828 -0.76862502 0.24484381 1.8621166e-05
-0.30775002 0.35969087 0.013021966 0.5907743 -0.76872504 0.24504566 9.91579e-05
-0.25126299 0.35116291 0.012902185 0.62550539 -0.72606742 0.28560296 8.3803759e-05
-0.24657944 0.35418081 0.010317825 0.62550217 -0.72605187 0.28564975 0.00015282989
0.24578172 0.35656261 0.014627016 -0.62540978 -0.7261675 0.28555807 7.9546007e-06
0.25243255 0.3525092 0.018887408 -0.62592971 -0.72570407 0.28559691 4.2583855e-05
0.30881068 0.35844961 0.011683874 -0.59083748 -0.76871562 0.24492332 1.2849294e-05
0.31175071 0.35746905 0.015701866 -0.59100282 -0.76863939 0.24476315 0
-0.30282927 0.3638517 0.014211081 0.59015292 -0.76898032 0.24574114 6.8852045e-05
-0.29698417 0.36814958 0.013599304 0.58852714 -0.76934057 0.24849731 0
-0.24042305 0.36204514 0.016831331 0.62153155 -0.73004007 0.28414789 0.00011046113
-0.23603439 0.3648594 0.014374869 0.60088503 -0.74599946 0.28709215 0.00077177858
0.23562859 0.36562675 0.015437447 -0.59944451 -0.74625224 0.28943729 0.0010729148
0.24032278 0.36231714 0.017303361 -0.61996728 -0.7310133 0.28506148 0.00025076847
0.29816896 0.36756572 0.014625636 -0.59056658 -0.76852518 0.24617088 0
0.30153301 0.36584479 0.017341848 -0.59089059 -0.7687313 0.24474582 0
-0.29406992 0.37115559 0.016005294 0.58868355 -0.76921475 0.24851617 0
-0.28920996 0.37542099 0.017669763 0.58867848 -0.76874763 0.24996954 0
-0.22651267 0.37266517 0.01336833 0.53611082 -0.79266477 0.29028913 0.0025081674
0.21935487 0.37927383 0.01971009 -0.49041861 -0.8293618 0.26767272 0.0023958178
0.22961169 0.37148365 0.017151766 -0.55110282 -0.78475499 0.28362873 0.0024789185
0.28697881 0.37653691 0.015788229 -0.58755857 -0.76931542 0.25085604 4.7631242e-05
0.2922014 0.37165517 0.013063509 -0.58759278 -0.76885796 0.25217474 9.7546079e-05
-0.27410245 0.38769126 0.01973707 0.58548552 -0.76709741 0.26223701 0.00014825352
-0.21417665 0.38098025 0.017567463 0.45067388 -0.85077828 0.27031356 0.0017424516
-0.20524196 0.38564953 0.019510653 0.41056654 -0.87123114 0.26905665 9.4400464e-05
-0.19360752 0.38921416 0.013815817 0.39985356 -0.87649494 0.26809287 1.867408e-05
0.1950949 0.38781121 0.011446659 -0.39972493 -0.87655747 0.26808023 1.2591723e-05
0.20621094 0.38387644 0.015158262 -0.42072126 -0.86555815 0.27166638 0.0004065703
0.27829579 0.38288257 0.01475687 -0.58087748 -0.77025169 0.26323706 0.00023802248
-0.26833019 0.39044201 0.014441635 0.57405472 -0.76791376 0.28419977 0.00065931928
-0.19296785 0.39056674 0.017284425 0.39982453 -0.87650108 0.26811597 6.2201791e-05
-0.18619092 0.3932083 0.015815323 0.39975548 -0.87651455 0.2681748 0.00015390232
-0.17339039 0.39954874 0.017457783 0.39032188 -0.87992144 0.27090037 6.4068263e-05
0.17491612 0.3992607 0.018791161 -0.39600417 -0.87779909 0.26953569 0
0.18458726 0.39406121 0.016212597 -0.39990914 -0.87648779 0.26803339 0
0.2579982 0.3973875 0.01131336 -0.56075418 -0.77196413 0.29937604 0.001028095
0.26011336 0.39618373 0.012638878 -0.55450428 -0.77744091 0.29683435 0.0011004688
-0.25263673 0.40368146 0.018138543 0.56779885 -0.76717198 0.29841518 0.00079614372
-0.24650009 0.40676668 0.014073549 0.55672669 -0.76407468 0.32595289 0.00088699471
-0.16140756 0.4036372 0.012956208 0.35543332 -0.89360023 0.27412719 0.00043294509
-0.15500781 0.40728191 0.016656831 0.33794376 -0.89747763 0.28342178 0.00057681539
-0.14850146 0.4072569 0.010169812 0.31362605 -0.90383285 0.29107523 0.00036264482
0.14297216 0.4096778 0.012213536 -0.301844 -0.90796286 0.29067808 0.00011618448
0.15704127 0.40626311 0.015507695 -0.34271654 -0.89465302 0.28660318 0.00047796255
0.16172987 0.40285695 0.010885656 -0.3602255 -0.88901919 0.28263479 0.00041853491
0.24716201 0.40810856 0.018826779 -0.55290967 -0.77875513 0.2963635 0.00065407646
-0.2441453 0.41054702 0.019202726 0.56123108 -0.77163702 0.29932576 0.0011562939
-0.23552942 0.41528511 0.016245235 0.51534134 -0.79389971 0.32271722 0.0014399884
-0.14507951 0.41102037 0.018443897 0.29942784 -0.90853727 0.29138115 7.9387712e-05
-0.13278264 0.41495669 0.018509734 0.28414878 -0.9125787 0.29404008 0.00010444149
-0.12558955 0.41609487 0.014945402 0.26968008 -0.91865295 0.28870296 0.00023537895
-0.11758962 0.41957694 0.017838825 0.23078229 -0.92907065 0.28908008 0.00065666024
-0.10749204 0.41934988 0.010264067 0.20602697 -0.9363631 0.28421307 0.00038114656
0.11628117 0.41877872 0.01407975 -0.19889753 -0.93913841 0.28010479 0.0015901608
0.12551002 0.41633344 0.015605185 -0.25306118 -0.92133927 0.2951169 0.00073508726
0.22594824 0.41877007 0.010639782 -0.46371114 -0.82545626 0.32186002 0.002193816
0.23614512 0.41540414 0.017289774 -0.51245695 -0.80020797 0.31153637 0.00087579724
-0.2229799 0.4220891 0.013324711 0.44251254 -0.83740753 0.32082886 0.0022989553
-0.21382456 0.4258846 0.012913534 0.39840317 -0.86727476 0.29851183 0.0020367601
-0.2064376 0.42818561 0.011503146 0.36609384 -0.88557911 0.2858758 0.0015276663
-0.11349488 0.42053908 0.01767295 0.21587746 -0.93445408 0.28318256 0.00066011562
-0.093405567 0.42343414 0.016077163 0.16182661 -0.94594336 0.28107518 6.2070205e-05
-0.088191688 0.42493236 0.018183323 0.16003926 -0.94639009 0.28059435 1.4549782e-05
-0.078127347 0.42585 0.015586097 0.15871477 -0.94662911 0.28054047 2.8494864e-05
-0.06570565 0.42688179 0.012040522 0.15338974 -0.94710338 0.28189859 7.4228574e-06
0.056915861 0.42565107 0.010737941 -0.15743172 -0.9428733 0.29360712 0
0.065643027 0.42600438 0.016556794 -0.14774556 -0.94472456 0.29268858 6.5922097e-05
0.076112881 0.42356792 0.014374623 -0.1321401 -0.94948441 0.28463718 9.5902782e-05
0.086649127 0.42219293 0.013654621 -0.11653245 -0.95382929 0.27682111 0.0001342711
0.092994206 0.42175955 0.014549259 -0.11797298 -0.95440584 0.27421141 3.6036806e-07
0.10015735 0.42027932 0.012091815 -0.13135467 -0.95198488 0.27653354 0.00046441061
0.11412068 0.42085105 0.019397005 -0.17994358 -0.94262743 0.28120077 0.0014104645
0.21375355 0.42585808 0.012726238 -0.41138017 -0.86510092 0.28699607 0.0014718485
