# .PCD v0.7 - Point Cloud Data file format
VERSION 0.7
FIELDS x y z normal_x normal_y normal_z curvature
SIZE 4 4 4 4 4 4 4
TYPE F F F F F F F
COUNT 1 1 1 1 1 1 1
WIDTH 592
HEIGHT 1
VIEWPOINT 0 0 0 1 0 0 0
POINTS 592
DATA ascii
-0.26920909 -0.36742342 0.32530388 0.52154356 0.69516885 -0.49470457 0.020685269
-0.055151381 -0.36115733 0.32885841 0.057589877 0.97648895 -0.20773272 0.13153785
-0.041792203 -0.36418539 0.32334203 -0.038564295 0.96737933 -0.25037998 0.052618016
-0.02319837 -0.36396337 0.32645828 0.079268277 0.97357744 -0.21415776 0.10401058
-0.015416948 -0.36476701 0.32558098 0.15039431 0.97341526 -0.17275552 0.098739065
-0.005962607 -0.36691943 0.32165399 0.053207401 0.97409111 -0.2198077 0.082421981
0.00361574 -0.36580002 0.3257046 0.013891219 0.97091764 -0.23901027 0.058577068
0.02672708 -0.36742768 0.32435292 -0.078503497 0.98596168 -0.14736608 0.090849996
0.035155941 -0.36781114 0.32018083 -0.071876973 0.96916533 -0.23569554 0.053765304
0.040815104 -0.36396557 0.32654995 -0.074298821 0.97562498 -0.20648374 0.070506401
0.06007462 -0.36201352 0.321657 -0.26122338 0.95166659 -0.16153334 0.075094603
0.27374882 -0.36524802 0.32553267 -0.58364993 0.65792632 -0.47590506 0.017052025
-0.075599439 -0.35756999 0.32997003 0.1905403 0.98088175 -0.039563838 0.16930641
0.068667538 -0.35764581 0.32781708 -0.29192826 0.94893807 -0.1195594 0.077370897
0.086267956 -0.35526574 0.32476795 -0.11631648 0.98820573 -0.099598564 0.095825911
0.094649069 -0.35310608 0.32576481 -0.15312973 0.98583674 -0.068390198 0.16318502
0.279156 -0.35924935 0.32766765 -0.5775122 0.65296179 -0.49002099 0.015262002
-0.30544364 -0.34132767 0.32463676 0.62990928 0.63723457 -0.44401172 0.0050526145
-0.12447368 -0.34258893 0.32732281 0.39104524 0.90698385 -0.1564092 0.087319411
-0.11645281 -0.34571615 0.32620978 0.39601335 0.91428137 -0.085223302 0.085400753
0.10704789 -0.34893921 0.32955846 -0.27616856 0.95940119 0.057273593 0.1935249
0.11296275 -0.34836301 0.32800016 -0.15973361 0.98538917 -0.059104782 0.13655926
0.1248237 -0.34681356 0.32354921 -0.31449592 0.94137228 -0.12210827 0.10079014
0.29689783 -0.34446239 0.32577088 -0.6173504 0.61976659 -0.48452842 0.012956106
-0.1531273 -0.33429614 0.32463637 0.44770795 0.87586641 -0.18004391 0.073589779
-0.1473573 -0.3351486 0.3270691 0.46108454 0.87937349 -0.11875719 0.12553987
0.14973384 -0.33196166 0.32855728 -0.59741133 0.79538375 -0.10229599 0.060126577
0.15216045 -0.33252248 0.32467589 -0.56880349 0.80576932 -0.16491938 0.050617166
0.31149489 -0.33272868 0.32342428 -0.58575147 0.66383612 -0.46499127 0.0070840879
-0.32231003 -0.32499382 0.32046807 0.6649543 0.60988533 -0.43113306 0.0031871404
-0.17631018 -0.3228302 0.32170656 0.54790604 0.79158545 -0.27053905 0.063055769
-0.16882342 -0.32713592 0.32293844 0.44139081 0.86822277 -0.22663464 0.063605949
0.1637864 -0.32720152 0.32350799 -0.44216853 0.87993664 -0.17377712 0.093707815
0.1743587 -0.32110897 0.3251746 -0.40986109 0.88722438 -0.21177074 0.060508635
-0.32404208 -0.31832522 0.32813796 0.61904603 0.56510842 -0.54537547 0.023443734
-0.19028899 -0.31300309 0.32304955 0.50895184 0.8220855 -0.25523224 0.063507259
-0.18241948 -0.3168675 0.32569221 0.5770303 0.81190193 -0.088607214 0.12671159
0.18367268 -0.31539229 0.32740295 -0.44618163 0.8720383 -0.2011743 0.074864909
0.19556272 -0.31122893 0.32342619 -0.52287078 0.84079909 -0.14022493 0.10728582
0.336907 -0.31181398 0.32022545 -0.60670632 0.66909361 -0.42921001 0.0022412839
-0.33684462 -0.30394563 0.32818818 0.57061595 0.57142425 -0.58980656 0.026569862
-0.19510789 -0.30749977 0.32782364 0.4871709 0.84845752 -0.20684388 0.089491591
0.20752056 -0.30452025 0.32478222 -0.61492682 0.76262248 -0.20067874 0.10885755
0.21263164 -0.30048382 0.3238295 -0.63550025 0.73456675 -0.23780489 0.090260096
0.33469561 -0.30914006 0.32867548 -0.53971243 0.66523385 -0.51592094 0.019109981
-0.34574026 -0.29541004 0.32586098 0.65532911 0.6117481 -0.44306663 0.0067785978
-0.2168844 -0.29582852 0.32250303 0.6097092 0.75465995 -0.24236983 0.071833484
0.21742652 -0.29460892 0.32673287 -0.58351564 0.78999674 -0.18818773 0.13364956
0.22035879 -0.29071817 0.32905021 -0.66287935 0.73236275 -0.15567848 0.14862801
0.35098431 -0.29563612 0.32348368 -0.70042872 0.5883376 -0.40405244 0.0021463681
-0.35469446 -0.28664693 0.3237966 0.69140732 0.6014865 -0.40021247 0.00064821745
-0.22697991 -0.28623432 0.32856137 0.56894153 0.80493355 -0.16848597 0.11010213
0.22362532 -0.28804582 0.32860982 -0.5708763 0.80805337 -0.14542994 0.11886586
0.23051095 -0.28317213 0.3263005 -0.60842931 0.78559875 -0.1124645 0.11181687
0.35471538 -0.28679556 0.32769591 -0.66737515 0.52756304 -0.52563071 0.023351077
0.36051539 -0.28277594 0.32124895 -0.76089871 0.5067969 -0.40520367 0.00080562098
-0.36391786 -0.27668217 0.32319224 0.69409949 0.57853431 -0.42839691 0.0032510217
-0.24062383 -0.27844319 0.32590207 0.52668869 0.84346026 -0.10570604 0.13982894
0.36138144 -0.27547017 0.32924813 -0.7134493 0.46365321 -0.52537209 0.025071116
-0.3716425 -0.26562029 0.32709312 0.69087017 0.50445199 -0.51790607 0.014981673
-0.25267366 -0.26369604 0.32791731 0.72814691 0.68313074 -0.055985723 0.12479251
0.24519616 -0.26876789 0.32866687 -0.6098488 0.78873461 -0.077345066 0.10493962
0.25190955 -0.26537675 0.32394123 -0.70897502 0.68161428 -0.18098727 0.08799281
0.37097529 -0.26077768 0.3293345 -0.75879651 0.47498575 -0.44566393 0.0050870208
-0.37871179 -0.25784427 0.32638246 0.71301073 0.50039989 -0.49113712 0.0061199735
0.25824204 -0.25941682 0.32450452 -0.7472772 0.64272994 -0.16874516 0.080143526
0.37761363 -0.25438002 0.32435739 -0.74743253 0.49830392 -0.43936071 0.0055485126
-0.38566801 -0.24641521 0.32428831 0.763556 0.45266435 -0.46051836 0.0063128322
-0.26919359 -0.24746785 0.32420713 0.75392419 0.63718909 -0.15996388 0.048369221
0.27552608 -0.241363 0.32929075 -0.69026059 0.70974445 -0.14072311 0.11346874
0.38246784 -0.2449145 0.32711625 -0.71542042 0.4928019 -0.49529776 0.019202979
-0.38976574 -0.23408711 0.32888842 0.72219449 0.43262112 -0.53969818 0.024505941
-0.28188321 -0.23187491 0.32643121 0.75288475 0.62799066 -0.19695775 0.050545763
0.28267428 -0.23603186 0.32371804 -0.78504914 0.59229672 -0.18133515 0.081624329
0.38854396 -0.23861174 0.32315788 -0.74703604 0.50033373 -0.43772516 0.0065451316
0.3928293 -0.23235959 0.32278132 -0.75934893 0.49056643 -0.42747378 0.0063920491
-0.39841646 -0.22457388 0.32049313 0.81110358 0.41044492 -0.41670853 0.0030920343
-0.29065886 -0.2221745 0.32621214 0.79490203 0.58322716 -0.16726291 0.091717944
-0.28449947 -0.22719947 0.32925954 0.7502178 0.64501792 -0.14534496 0.096633025
0.28440237 -0.22926183 0.32924473 -0.73886615 0.6532101 -0.16550957 0.096398413
0.29058808 -0.22012642 0.32884902 -0.80808651 0.58682406 -0.051320549 0.11453855
-0.2945368 -0.21635795 0.32859758 0.76215923 0.6299361 -0.14931121 0.087043673
0.29646006 -0.21369857 0.32547393 -0.81982356 0.56561446 -0.089272469 0.12545936
0.40205145 -0.21948591 0.32119423 -0.76637816 0.49152529 -0.41360301 0.0048961458
-0.40573925 -0.20612638 0.3247844 0.79839879 0.40730262 -0.44346797 0.0065243929
-0.30728188 -0.20180525 0.32517087 0.8463822 0.5134269 -0.1415277 0.086863205
-0.41208264 -0.1912785 0.3272602 0.79785347 0.38057789 -0.46753642 0.014307512
-0.40907234 -0.19677494 0.32778454 0.77116752 0.42878887 -0.47057503 0.013009392
-0.31455415 -0.19116077 0.32101601 0.83938658 0.47665608 -0.26120707 0.050106119
-0.30934206 -0.19662349 0.32636926 0.83408487 0.52460802 -0.17055464 0.10045503
0.30628121 -0.19846933 0.32581446 -0.8545332 0.51861542 0.02847811 0.10576805
0.31173277 -0.1930429 0.32195765 -0.82943594 0.53093749 -0.17361273 0.075159572
-0.41846442 -0.18125117 0.32436654 0.80891019 0.39319867 -0.43710321 0.0092408014
-0.31650957 -0.18378004 0.32485351 0.87554866 0.42926431 -0.22169033 0.05445312
0.31158358 -0.18741135 0.32978824 -0.65747356 0.59962839 0.45626125 0.17414881
-0.32149047 -0.1721687 0.32674557 0.90392071 0.39918578 -0.15355159 0.054930586
-0.31969714 -0.17473289 0.32783681 0.8867054 0.43260637 -0.16311094 0.054105382
0.31989878 -0.17892821 0.32418129 -0.90497494 0.4192251 -0.07259988 0.1333662
-0.42715904 -0.16278951 0.32568783 0.80858713 0.34266067 -0.47829965 0.013294852
-0.32654464 -0.16312063 0.32566744 0.86939561 0.45820647 -0.18492725 0.066931188
0.32635969 -0.16691828 0.32706657 -0.84568459 0.50458956 -0.17380172 0.10524143
0.42653 -0.16251874 0.32264018 -0.86249304 0.28027743 -0.42136726 0.0044837031
-0.43192542 -0.15351367 0.32548583 0.82184041 0.28233123 -0.49484086 0.014705884
-0.33272326 -0.15342218 0.32285538 0.85201478 0.47485593 -0.22041509 0.052135505
-0.3282083 -0.15961389 0.32589206 0.85334325 0.48323545 -0.1956754 0.056539122
0.33587545 -0.15277587 0.32124987 -0.88991743 0.41292 -0.19376305 0.06771291
0.42743242 -0.15492629 0.3263489 -0.81610352 0.26349562 -0.51433951 0.019494846
-0.33727071 -0.14364955 0.32367456 0.8547557 0.50633699 -0.11408574 0.092567943
0.33553082 -0.14871825 0.32514551 -0.89495772 0.4237743 -0.13952066 0.094880074
0.43236351 -0.14335066 0.32377541 -0.83122784 0.29722634 -0.46980503 0.012847565
-0.43748745 -0.13321613 0.32393563 0.85281479 0.22827779 -0.46967664 0.0092727821
-0.34289151 -0.13328673 0.32280493 0.89531112 0.43021488 -0.11546902 0.1235401
-0.33883977 -0.13565934 0.32902116 0.92659199 0.36620042 -0.085583389 0.14093345
0.33864313 -0.13479961 0.32857019 -0.94797635 0.31616649 -0.037142098 0.11398643
0.34072897 -0.13730268 0.32183194 -0.94805753 0.29681942 -0.11439055 0.072944671
0.4342066 -0.13751231 0.32396784 -0.83395952 0.28341639 -0.47348347 0.013667542
-0.44027215 -0.12461682 0.3215555 0.88992929 0.19145918 -0.4139677 0.0028929582
0.34285963 -0.12228905 0.32836437 -0.92985535 0.36711198 -0.024450777 0.11561445
0.43773702 -0.12022629 0.328996 -0.79569501 0.27330682 -0.54053015 0.022967348
-0.4415535 -0.11561439 0.32296243 0.87859082 0.18569835 -0.4399935 0.0058011287
-0.34912419 -0.11060599 0.32735258 0.9641223 0.25434613 -0.076001622 0.11940254
0.34670377 -0.11740921 0.32319406 -0.94159913 0.31179416 -0.12718323 0.086988389
0.43985546 -0.11525305 0.32789063 -0.81052262 0.26124126 -0.52421945 0.01530416
-0.44174647 -0.10775165 0.32640111 0.87513083 0.1906013 -0.44476646 0.0061413608
0.34885913 -0.1060522 0.32687744 -0.99062169 0.087173566 -0.10521141 0.12332281
0.44289458 -0.10939769 0.32532808 -0.83619797 0.24233548 -0.49198234 0.014226
-0.44643465 -0.092966557 0.32254693 0.90519857 0.18802272 -0.38113385 2.0545154e-05
-0.35222316 -0.095795125 0.32730311 0.98337483 0.068438947 -0.16819614 0.12286686
0.35451958 -0.092489004 0.32413369 -0.97211593 0.20704794 -0.11009882 0.097073652
-0.44556481 -0.088445038 0.32686454 0.86971384 0.1746303 -0.46162972 0.014953015
-0.35443613 -0.085618295 0.32706955 0.99476433 0.098344892 -0.02779014 0.12620001
0.45138574 -0.086803392 0.32292888 -0.87080652 0.1454429 -0.46961945 0.0057167951
-0.35838974 -0.073100701 0.32384369 0.98824698 0.12242384 -0.091543704 0.11962981
0.35979319 -0.071760565 0.32775611 -0.96858025 0.22648166 -0.10275427 0.12608846
0.36070514 -0.070220239 0.32682174 -0.98269624 0.10168578 -0.15481666 0.12198021
0.44997555 -0.07599093 0.32850203 -0.86415595 0.12653559 -0.48705563 0.0064822217
-0.45104113 -0.065485969 0.32518327 0.87165624 0.18093127 -0.4554989 0.010935139
-0.44953182 -0.064137027 0.32945329 0.80901951 0.1637397 -0.56451452 0.028274089
-0.36149251 -0.064242646 0.32083312 0.93646747 0.27212873 -0.22130202 0.068529397
-0.35881841 -0.065023661 0.32682618 0.9866221 0.15970479 0.032730255 0.13539286
0.36093694 -0.064654022 0.32807806 -0.96363223 0.23356569 -0.12984589 0.12293982
-0.45398769 -0.057539564 0.32209337 0.88859904 0.16314596 -0.42869014 0.0046238755
-0.36321658 -0.05322735 0.32218185 0.98801404 0.13684203 -0.071432687 0.11127067
0.36252907 -0.05948928 0.32491997 -0.99053741 0.030327657 -0.13385041 0.10756747
0.45364138 -0.055940885 0.32236087 -0.90576214 0.07425575 -0.41723007 0.0037546449
-0.45726466 -0.041915826 0.3220222 0.88045996 0.11272145 -0.46052596 0.0050669815
0.36277294 -0.044243507 0.32643875 -0.97973937 0.057659265 -0.19179718 0.068903863
0.45359239 -0.044785053 0.32402569 -0.91916001 0.060007129 -0.38928646 0.0002388298
0.4533681 -0.034200337 0.32603785 -0.90068597 0.047457449 -0.43187094 0.0082966378
-0.45768955 -0.025215225 0.32375544 0.87956387 0.0097144609 -0.47568163 0.0057599451
-0.36647108 -0.02716287 0.32646447 0.98974764 0.14189914 -0.01625724 0.12449677
0.36393774 -0.021072065 0.32681507 -0.98332661 0.038337834 -0.17776097 0.12247454
0.45319006 -0.021731427 0.32819855 -0.83560663 0.031461876 -0.54842669 0.02634521
-0.45567358 -0.014889291 0.32722977 0.83003777 0.00084841636 -0.55770653 0.017005004
-0.36717308 -0.012371601 0.32357699 0.9751429 0.13683729 -0.17427513 0.11235972
0.36287329 -0.017489461 0.32990134 -0.98514295 0.026971277 -0.16960503 0.1148991
0.45389009 -0.016154688 0.32726797 -0.86239433 0.042182952 -0.50447661 0.018712565
-0.45769072 -3.1812117e-05 0.32026356 0.92368519 -0.052611142 -0.37952325 0
-0.36581784 -0.00304427 0.325582 0.99280596 -0.082155392 -0.087103158 0.1016846
0.36471829 -0.0036679963 0.32732731 -0.97214448 0.013631833 -0.2339855 0.095039718
0.45423433 -0.0074960347 0.32763007 -0.85526437 0.02519067 -0.51757914 0.01874648
-0.36626023 0.002936827 0.32367697 0.98593587 -0.12417265 -0.11185522 0.088639557
0.36775503 0.0033614417 0.32091272 -0.95769572 0.066340216 -0.28003189 0.046415266
0.45467818 0.0053954376 0.32833627 -0.83038229 0.062633477 -0.55366266 0.023170125
-0.45596603 0.012750484 0.32268879 0.88306582 -0.047628619 -0.46682569 0.0091335764
-0.36508372 0.018636193 0.3243643 0.99556327 -0.088017464 0.033268757 0.12757373
0.36612952 0.01119376 0.32595274 -0.97235554 0.098973647 -0.21149188 0.08417619
0.45709324 0.014880281 0.32377449 -0.91152602 0.033452231 -0.40987962 0.0015624126
-0.45250419 0.027250346 0.32910269 0.82099706 -0.049869284 -0.56875026 0.026387919
-0.36339551 0.028228847 0.32714283 0.99978513 8.31e-05 -0.02072666 0.15144114
0.36761388 0.027310768 0.32434514 -0.9944191 -0.017682351 -0.10400958 0.13611101
-0.45394987 0.034238122 0.32461709 0.89332169 -0.050883278 -0.44652802 0.0066285692
0.36522999 0.035516158 0.32616058 -0.99091387 -0.097719707 -0.092415154 0.13112007
0.45703739 0.033756107 0.32588035 -0.91333514 -0.041288368 -0.40511018 0.0019313158
-0.45317242 0.045071922 0.32500768 0.89146101 -0.080262601 -0.4459317 0.0086973561
-0.3637315 0.041446608 0.32449406 0.97575015 -0.087086827 -0.20081684 0.070845634
0.36459816 0.041588936 0.32465678 -0.92916465 -0.36049074 -0.081850283 0.13408844
0.45553294 0.045519482 0.32436714 -0.87422925 -0.16895071 -0.45516905 0.015198759
-0.45150173 0.051561195 0.32817349 0.83341128 -0.05594752 -0.54981416 0.024427028
-0.36280805 0.059037738 0.32430375 0.98907381 -0.13867068 -0.050033744 0.14596197
0.35972604 0.056504965 0.32888481 -0.95989972 -0.23538807 -0.15226577 0.12047914
0.35847017 0.067291252 0.32653257 -0.96107066 -0.20567432 -0.18450278 0.1047819
0.45095718 0.068575025 0.32385182 -0.88123113 -0.18862414 -0.43341967 0.0067303353
-0.44980842 0.076530598 0.32883394 0.8780455 -0.11625861 -0.4642415 0.0085805357
-0.45067465 0.084051192 0.32568446 0.87510073 -0.15498024 -0.45845374 0.0078769252
-0.44941497 0.083372384 0.32884318 0.87254769 -0.15637217 -0.46282643 0.0087084947
-0.35533491 0.085325107 0.32771662 0.95521754 -0.29376462 -0.035521302 0.11740619
0.44795445 0.08522024 0.32276216 -0.89257228 -0.18336585 -0.41193649 0.0035563793
-0.44831827 0.09958449 0.32026905 0.877859 -0.24516635 -0.41140857 0.0031366805
-0.35499647 0.090839736 0.3242892 0.90738207 -0.36126906 -0.21480794 0.10849094
0.44468504 0.09783072 0.32430953 -0.85960793 -0.18176337 -0.47753143 0.0078372573
-0.35211655 0.10119559 0.32304701 0.96113503 -0.19820166 -0.19218624 0.078258358
-0.34967446 0.10661387 0.32456154 0.94752443 -0.27718359 -0.15926878 0.09300977
0.35121971 0.10384016 0.32570779 -0.94770122 -0.19806316 -0.25026658 0.074458152
-0.44186082 0.115058 0.32339865 0.8489598 -0.25824213 -0.46106204 0.010244293
-0.34741831 0.11281039 0.32505161 0.95140898 -0.28503281 -0.11652118 0.11358735
0.34934175 0.11312389 0.32558498 -0.95264888 -0.22517425 -0.20434451 0.093755223
0.44109067 0.11558728 0.32408041 -0.88225335 -0.15239878 -0.4454253 0.0047779228
-0.4343833 0.12984222 0.32941514 0.80365384 -0.26891449 -0.5308724 0.030397248
-0.34531334 0.12491147 0.32068351 0.92168385 -0.35144794 -0.16426581 0.075875096
0.43829265 0.12379875 0.32668445 -0.86651689 -0.1559882 -0.4741478 0.0055489168
-0.43192148 0.13865706 0.32838202 0.76572526 -0.24480775 -0.59475535 0.035881169
-0.34091341 0.13093287 0.32626849 0.93557954 -0.34726778 -0.064001054 0.10169151
-0.33939072 0.13528092 0.32647252 0.96035784 -0.24249049 -0.13751763 0.094538145
0.43522471 0.13862933 0.3266502 -0.82622057 -0.20028616 -0.52654064 0.016729457
-0.33789104 0.1446372 0.32279921 0.92604959 -0.36071602 -0.11097789 0.091687284
0.43534034 0.14377621 0.32382196 -0.85153031 -0.25359002 -0.45889887 0.00612179
0.32998931 0.15370566 0.32849437 -0.89325106 -0.44141179 -0.085195482 0.13292703
0.43531519 0.15129402 0.32015401 -0.85793626 -0.29513431 -0.4205249 0.0049682469
-0.32651633 0.16618764 0.32772371 0.90376687 -0.42759827 -0.019109687 0.12909099
0.32567888 0.16808529 0.32210779 -0.85320431 -0.50853235 -0.1159189 0.10427772
-0.42204428 0.17476536 0.32367036 0.84243083 -0.28718218 -0.4558911 0.013420819
-0.41925809 0.17870434 0.32711089 0.83322877 -0.26976365 -0.48265666 0.015334573
-0.32052764 0.17697482 0.32551035 0.83438581 -0.54967147 -0.040761262 0.12110035
0.31757522 0.17834412 0.328495 -0.87508965 -0.48304972 -0.029683078 0.1121335
-0.3158716 0.18409936 0.32547647 0.86091399 -0.50414085 -0.068331055 0.083308071
0.31568238 0.18103427 0.32966465 -0.85741526 -0.51363271 -0.031945813 0.11996836
0.41558459 0.18716025 0.32415459 -0.81202942 -0.40786403 -0.41743872 0.0018477703
-0.41522482 0.19818322 0.32157195 0.83349121 -0.38596833 -0.39537424 0.0023007572
-0.31055921 0.19330576 0.32399768 0.84325582 -0.52390718 -0.12017065 0.073344871
-0.30824405 0.19482602 0.32668364 0.86328876 -0.49978635 -0.070329517 0.080192626
0.31357655 0.19321707 0.32088891 -0.90483338 -0.3776558 -0.19660257 0.083523907
0.40804332 0.19716573 0.3295956 -0.74993336 -0.42210564 -0.50933963 0.021182721
0.41008276 0.19459809 0.32797253 -0.82083774 -0.39052343 -0.41679347 0.0025661483
-0.41263419 0.20004576 0.3256104 0.78336501 -0.39109641 -0.48309717 0.015010995
-0.40803087 0.20757812 0.32492402 0.79390883 -0.44844607 -0.41061544 0.002273181
-0.30278429 0.20425579 0.32520664 0.74768442 -0.64928436 -0.13927628 0.081469633
0.30482548 0.20487687 0.32694498 -0.81972086 -0.57056028 0.050185308 0.13328949
0.28825516 0.22813463 0.32091302 -0.81072569 -0.55715954 -0.17971411 0.076977856
0.29167825 0.22292447 0.32314175 -0.735322 -0.64784068 -0.19900776 0.078453086
0.39903867 0.2230919 0.32076401 -0.81973082 -0.41537261 -0.39434364 0.00049128913
-0.39018956 0.23339507 0.32677656 0.74183512 -0.41142902 -0.52953452 0.018981988
-0.28030771 0.23862356 0.32507676 0.75348628 -0.65531397 -0.053123351 0.11203361
0.27700761 0.23763616 0.32594958 -0.73190469 -0.66421515 -0.15209806 0.1033647
0.28357241 0.23252282 0.32230842 -0.74121618 -0.63758934 -0.20994863 0.07405737
0.38860485 0.23803136 0.32708994 -0.79388684 -0.41948879 -0.44019642 0.0074889767
0.39203531 0.23456949 0.32342029 -0.82318747 -0.40701562 -0.39585432 0.00051290268
-0.38402611 0.24385181 0.32536089 0.76981044 -0.44912955 -0.45351377 0.0066732219
-0.27334914 0.24827918 0.32024643 0.53001583 -0.80887288 -0.25457409 0.06749171
-0.26829448 0.24967174 0.32591513 0.59161156 -0.77926815 -0.20672894 0.1080441
0.27499467 0.24112011 0.32395735 -0.71160448 -0.6719501 -0.20518774 0.078493819
0.38612926 0.24528202 0.32452714 -0.78354216 -0.42876914 -0.4496873 0.0088967504
-0.37450051 0.2558924 0.3286798 0.74015522 -0.44769782 -0.5017339 0.027750524
-0.26455951 0.25459298 0.32302624 0.62985569 -0.75058615 -0.19975533 0.097861908
0.2636154 0.25224555 0.32659876 -0.74199617 -0.66521919 -0.083217926 0.089817181
0.37795809 0.25761753 0.32859302 -0.69143784 -0.50728518 -0.51436895 0.015962636
0.38216746 0.25230503 0.32544851 -0.73311466 -0.48987567 -0.47176769 0.012636468
-0.2562286 0.26223597 0.32264483 0.61350203 -0.74505007 -0.26175493 0.065997742
0.25351015 0.265095 0.32412636 -0.66085064 -0.74987358 -0.031082874 0.12574685
0.37711024 0.26138532 0.32402176 -0.71538377 -0.52161098 -0.46491727 0.0092170993
-0.36360732 0.27388376 0.3268325 0.74519265 -0.51460147 -0.42411467 0.0048867092
-0.2389546 0.27513006 0.32722455 0.73326391 -0.66267842 -0.15225418 0.086889684
0.24141875 0.27753404 0.32582194 -0.5314362 -0.84566408 0.049273193 0.15953191
0.36194831 0.27772877 0.32507551 -0.68105775 -0.55957508 -0.47226694 0.012232154
-0.36052912 0.28313145 0.32074565 0.7502538 -0.50292146 -0.42917284 0.0061132084
-0.35896808 0.28427163 0.32240289 0.74554145 -0.50702757 -0.43254015 0.0069064894
-0.23323539 0.28300989 0.32217512 0.68692374 -0.71695375 -0.11879792 0.090241142
-0.22796139 0.28597993 0.32533118 0.65826917 -0.73765659 -0.1501479 0.085841365
0.23799415 0.28306174 0.32030573 -0.614214 -0.74908447 -0.24822104 0.040926121
0.36196387 0.28005061 0.32128018 -0.68935573 -0.61609268 -0.38107544 0
-0.3510589 0.29683369 0.32173097 0.69426477 -0.57514441 -0.43267232 0.0038315256
-0.22138616 0.29175574 0.32549655 0.64982015 -0.75225484 -0.10884152 0.10116829
0.21262358 0.29650411 0.32682067 -0.58820629 -0.80663091 -0.057964932 0.094704784
-0.34450883 0.30433741 0.32148698 0.66360658 -0.60630029 -0.43820804 0.0041007171
-0.21158873 0.30100209 0.324579 0.47175902 -0.85983658 -0.19525526 0.074008547
0.19460747 0.30794686 0.32758129 -0.47933558 -0.87673682 0.039623648 0.10323176
0.20401371 0.3032608 0.32455897 -0.50614661 -0.85418886 -0.11906686 0.076131001
0.33556592 0.30773568 0.32436413 -0.64523035 -0.58567065 -0.49057898 0.015303921
0.34101528 0.30230072 0.32327303 -0.66642672 -0.58402175 -0.46345869 0.010703121
-0.33452913 0.31272644 0.32242402 0.61015284 -0.66082746 -0.43705887 0.0048938794
-0.3293699 0.31463802 0.32731873 0.56683046 -0.6576606 -0.49617112 0.0180755
-0.19159278 0.31131113 0.32760003 0.49769571 -0.84463727 -0.19719748 0.14007431
-0.18403386 0.31484678 0.32819384 0.57489324 -0.78466821 -0.2319344 0.14379735
0.1856464 0.31701812 0.32107243 -0.53998709 -0.81813788 -0.19764687 0.066947684
0.19174136 0.31232628 0.32248747 -0.4814072 -0.87579662 -0.035032839 0.10671743
0.32789338 0.31710297 0.32311791 -0.67924803 -0.58300954 -0.44578245 0.0060094725
0.33307716 0.31272 0.3208029 -0.68248737 -0.59830898 -0.41980624 0.003719548
-0.16635422 0.32486475 0.32577768 0.64818704 -0.75882035 -0.063601948 0.11319572
0.16979468 0.32440379 0.32720771 -0.44213945 -0.88900304 -0.11910602 0.085975908
0.17105539 0.32560918 0.32306647 -0.51152879 -0.84710735 -0.1440402 0.082539067
-0.3133229 0.33161321 0.32248667 0.58046108 -0.68001884 -0.4479278 0.0066159656
-0.30392224 0.33660734 0.32865748 0.59578818 -0.61358947 -0.51821268 0.018033106
-0.15749511 0.33127481 0.32154155 0.4677504 -0.87279308 -0.13943373 0.092351407
-0.14382064 0.33878776 0.32018527 0.52081978 -0.84557146 -0.11728466 0.079009615
-0.13685124 0.33784804 0.32987261 0.36138111 -0.93062341 0.057826646 0.11339774
0.13390496 0.33858523 0.32938716 -0.37414563 -0.90697533 -0.19341893 0.066156998
0.14536701 0.33837897 0.32111272 -0.33219916 -0.90487063 -0.26618195 0.039973777
0.15078211 0.33361194 0.32801023 -0.37575933 -0.90687305 -0.19075179 0.070539974
0.16190644 0.33234969 0.3215583 -0.40313116 -0.88517457 -0.2322744 0.062576622
0.30868095 0.33687478 0.32597452 -0.63891703 -0.59317201 -0.4898285 0.009176163
0.31275475 0.33392003 0.32336083 -0.64642733 -0.59838116 -0.47336224 0.0084265145
-0.30188996 0.34126651 0.32348263 0.62392038 -0.63558686 -0.4547008 0.0070822504
-0.2994878 0.34018254 0.32935104 0.62511766 -0.58723789 -0.51417863 0.018187404
-0.28911933 0.34927782 0.32963455 0.5354318 -0.63375407 -0.5582729 0.021606043
0.11448094 0.34642231 0.32608092 -0.30275035 -0.93551534 -0.18208016 0.072208986
0.12665467 0.34117883 0.32892069 -0.3739374 -0.90971178 -0.18054177 0.11401986
0.1388744 0.34000862 0.32229868 -0.34372616 -0.9049021 -0.25100702 0.04106291
-0.29039258 0.35209036 0.32245463 0.57972217 -0.68963671 -0.43396261 0.0046732379
-0.2819708 0.35599104 0.32902551 0.55399448 -0.67637151 -0.48539844 0.011795381
-0.1123389 0.3515529 0.3206985 0.24640647 -0.95014226 -0.19108504 0.072941795
-0.096608929 0.35234806 0.32660159 0.056560747 -0.9952482 -0.079258732 0.12573466
-0.086480752 0.35476869 0.32584843 0.12123519 -0.98991251 -0.07331647 0.14927697
-0.071134515 0.35636508 0.32964945 0.19923833 -0.97122055 -0.13051727 0.13606425
-0.061898645 0.35817671 0.32990694 0.24823195 -0.95825016 -0.14190708 0.14693628
0.07765381 0.3582595 0.32680547 -0.26252636 -0.95916921 -0.10523475 0.1025457
0.083426364 0.35694683 0.32543582 -0.26706544 -0.94437593 -0.19191213 0.078563966
0.29082835 0.35228288 0.32726282 -0.5418486 -0.65986103 -0.5205608 0.028979195
-0.27780518 0.36086607 0.32691932 0.57774109 -0.65481877 -0.4872655 0.013155516
-0.071625605 0.36002958 0.32066253 0.15888937 -0.95225543 -0.26069859 0.0652477
-0.062314741 0.36118203 0.32252994 0.23616756 -0.92888898 -0.28528956 0.051166147
-0.05550785 0.36164021 0.32481211 0.27109277 -0.95048213 -0.15196216 0.14685997
-0.047244426 0.36237979 0.32714531 0.25266948 -0.94628918 -0.20172992 0.10480234
-0.034836013 0.36780232 0.32036045 0.087297633 -0.96252382 -0.25676274 0.037611425
-0.027079549 0.36875823 0.32138932 0.12440273 -0.95433092 -0.27161801 0.042043548
-0.015544564 0.36733246 0.32362878 0.064819932 -0.97956103 -0.19041701 0.066456303
-0.0074443296 0.36662018 0.32423949 0.060676698 -0.98882878 -0.13614711 0.09405195
0.0047964994 0.36549804 0.32527375 -0.079175115 -0.99146658 -0.10356352 0.12018305
0.014001005 0.3652285 0.32465425 -0.093114823 -0.97535926 -0.2000104 0.093646698
0.023365634 0.36559418 0.32246709 -0.027898485 -0.95852166 -0.28365096 0.047525764
0.039414078 0.36483762 0.32208434 -0.040681042 -0.97932231 -0.19817397 0.077631429
0.049364015 0.3630828 0.32497528 -0.05496731 -0.99134421 -0.11922737 0.080801748
0.050462253 0.36157766 0.32848516 -0.021506174 -0.99498284 0.097706653 0.14404947
0.06644091 0.36304814 0.32269365 -0.1023035 -0.97708452 -0.18665439 0.085553236
0.27227786 0.36692801 0.32221177 -0.50560278 -0.76458657 -0.39971653 0.00072846591
0.26125023 0.3710832 0.32848281 -0.51138347 -0.68010986 -0.52529752 0.028431462
0.25096759 0.38003954 0.32397437 -0.47371921 -0.75777763 -0.44873512 0.011252182
-0.23074827 0.39413315 0.32304439 0.4208177 -0.79394561 -0.43881986 0.0069189053
-0.22648945 0.39378482 0.3284725 0.41934317 -0.7894631 -0.44821796 0.0089240717
-0.21328987 0.40238208 0.32423565 0.40758744 -0.81907243 -0.40372372 0.0012995182
-0.2065841 0.40373731 0.32863933 0.36512166 -0.78849566 -0.4949351 0.020120349
-0.19937482 0.40686744 0.32973227 0.34951219 -0.77465957 -0.52701408 0.030825017
0.2066301 0.40797165 0.32631171 -0.40920478 -0.77185702 -0.48660889 0.012282047
0.21400969 0.40154576 0.32954341 -0.42764813 -0.75691473 -0.49416307 0.013121125
-0.19059074 0.41232908 0.32747799 0.4036684 -0.78754514 -0.46564397 0.011617845
0.18499234 0.41827017 0.32459599 -0.33474407 -0.82102907 -0.46244743 0.0084661394
0.19558126 0.41560775 0.32267249 -0.37021026 -0.8065753 -0.46084768 0.0081266481
0.20107332 0.41457117 0.32028985 -0.41089725 -0.82249373 -0.39327803 0.0024134407
-0.16503714 0.42731372 0.32288656 0.3670249 -0.82548237 -0.42880234 0.004382194
0.15360022 0.42773527 0.32666034 -0.26835504 -0.81227553 -0.51787466 0.024717601
0.17244227 0.42285654 0.32356438 -0.28008899 -0.85852349 -0.42952025 0.0065956237
-0.15200913 0.43257159 0.32572928 0.32504669 -0.82921565 -0.45469344 0.0085219648
-0.14657894 0.43266538 0.32881433 0.27627891 -0.79441804 -0.54089749 0.022109048
-0.13501638 0.43520522 0.32848805 0.18939933 -0.84495968 -0.50017107 0.014103631
-0.1182514 0.43995833 0.32546073 0.14644767 -0.8315351 -0.53581947 0.0207344
0.11905825 0.43818426 0.32885262 -0.25235054 -0.85975355 -0.44400805 0.0062799747
0.12674353 0.43752706 0.32450575 -0.27956733 -0.87477571 -0.3957392 0.00069017359
0.14567764 0.43100154 0.32515055 -0.28136542 -0.84480542 -0.45512336 0.012988843
0.15031695 0.43146506 0.32053554 -0.28486326 -0.86904234 -0.40449762 0.0028048507
-0.11049163 0.441567 0.32547051 0.15858623 -0.85226977 -0.49848428 0.016320448
-0.10599397 0.44064748 0.32989481 0.20135427 -0.84347206 -0.49800736 0.017165843
-0.092999935 0.44454074 0.32704914 0.20319676 -0.84654403 -0.49201041 0.017587317
-0.089050643 0.44715676 0.3227658 0.20051567 -0.89129394 -0.40667996 0.0010268872
-0.071875446 0.44859129 0.32785997 0.16960418 -0.87271887 -0.45781675 0.011834178
-0.063625582 0.44991311 0.32879713 0.16045827 -0.8699246 -0.46635213 0.011549009
0.08394099 0.44952893 0.32848722 -0.17574891 -0.84283119 -0.50867271 0.014884409
0.096044093 0.44870839 0.32206938 -0.2477832 -0.86887234 -0.42856076 0.0015614558
0.10305934 0.44604376 0.32287961 -0.26536381 -0.85012394 -0.45483118 0.0059696147
0.11356506 0.44330379 0.32119906 -0.25273955 -0.85187036 -0.45873693 0.0073867752
-0.040975146 0.45567924 0.3262713 0.096468836 -0.87408912 -0.47609046 0.0085223913
-0.033987448 0.45561311 0.3298941 0.10164683 -0.81523424 -0.5701412 0.022974124
-0.022275027 0.45513347 0.32956702 0.0064631389 -0.84412426 -0.53610849 0.019388558
-0.014108769 0.45465484 0.32960013 -0.0067136791 -0.81415474 -0.58060914 0.025191
-0.0078004729 0.45595065 0.32557338 -0.04428653 -0.88578677 -0.46197444 0.012587284
0.0048550428 0.45553231 0.32483783 -0.070731543 -0.87918502 -0.47120142 0.013087262
0.034718085 0.45371887 0.32511261 -0.089851618 -0.8683846 -0.48768303 0.018510386
0.046645004 0.45423329 0.32220861 -0.052390307 -0.92216164 -0.38324052 0
0.059055835 0.45217213 0.325504 -0.045178436 -0.89328992 -0.44720468 0.0094641792
0.06634669 0.45294303 0.32261816 -0.056256283 -0.91181779 -0.40672287 0.00085051556
0.079801738 0.45262635 0.32152468 -0.13413325 -0.90688306 -0.39946377 0.0023679759
0.082894653 0.45074907 0.32552519 -0.17688619 -0.84751618 -0.50042748 0.013771625
-0.040592417 -0.45044312 0.33226889 0.091206163 0.70090091 -0.7074033 0.041290045
-0.033192709 -0.45144367 0.33085969 0.063821293 0.76081508 -0.645823 0.039979197
-0.025201768 -0.45137155 0.33214235 0.045616396 0.81102192 -0.58323461 0.029989494
-0.0099610966 -0.45019776 0.3371096 0.036671493 0.79428393 -0.60643911 0.047667056
0.013811279 -0.45181158 0.33647665 0.012769409 0.70580763 -0.70828843 0.058927041
0.023990447 -0.45221797 0.33689821 -0.0036285727 0.78946948 -0.61377913 0.041877136
0.039184559 -0.45382789 0.33157662 -0.083482221 0.79332346 -0.60304946 0.030626925
0.044416472 -0.45257089 0.33198148 -0.10826097 0.76844418 -0.63069266 0.029684482
-0.09577889 -0.44328088 0.33483258 0.20574625 0.70121849 -0.68261343 0.024324834
-0.085060939 -0.44591248 0.33692595 0.10654216 0.72596282 -0.67943114 0.020875251
-0.074608997 -0.44932324 0.33028078 0.10401095 0.73653865 -0.6683507 0.026795829
-0.067432322 -0.44780484 0.33496931 0.11599244 0.67733681 -0.72647136 0.018367182
-0.051975235 -0.44745013 0.33797377 0.056033984 0.67862064 -0.7323485 0.032375284
-0.044164959 -0.44832033 0.33693874 0.064130895 0.70715272 -0.7041465 0.041361406
-0.011584655 -0.44982135 0.33780041 0.020899082 0.79341704 -0.6083194 0.046979152
0.057205137 -0.44787747 0.33683813 -0.23183791 0.74563384 -0.6247251 0.029370137
0.067544602 -0.44773722 0.3320455 -0.18360639 0.74806726 -0.6377179 0.027415143
0.077311471 -0.44310978 0.33824322 -0.14242499 0.63150096 -0.76218218 0.041934963
0.084995426 -0.44322598 0.33415556 -0.16245534 0.71361178 -0.68144441 0.024866669
0.094649389 -0.44203451 0.33221108 -0.1527296 0.75878543 -0.6331811 0.023518315
-0.13232458 -0.43314278 0.33039084 0.23277871 0.79957432 -0.55361998 0.033761602
-0.12696418 -0.43272692 0.33544609 0.21101637 0.67643011 -0.70563054 0.042223725
-0.10712333 -0.43803692 0.33830667 0.11518265 0.64868498 -0.75229037 0.034837987
0.10568558 -0.43730867 0.33801419 -0.05814109 0.65122932 -0.75665045 0.047306776
0.11337519 -0.43715003 0.33457947 -0.10279991 0.73859823 -0.66626185 0.038583018
0.12471791 -0.43305287 0.33873063 -0.10293104 0.64768583 -0.75492269 0.054486271
0.13607617 -0.43337372 0.33233267 -0.21445107 0.78751183 -0.57778531 0.019638987
0.14697309 -0.43088421 0.33286893 -0.27907512 0.75023049 -0.59939241 0.022643095
-0.16523802 -0.42192525 0.33122045 0.29726794 0.77902538 -0.55204278 0.030598002
-0.15102111 -0.42495337 0.33506769 0.1905656 0.66997361 -0.71750963 0.053012788
-0.13396171 -0.42859834 0.33965778 0.20788711 0.69105995 -0.69225657 0.051041692
0.15720236 -0.42697605 0.33221263 -0.28697374 0.75605834 -0.58823615 0.029892083
0.16127309 -0.42296731 0.33647344 -0.30574512 0.63753617 -0.70715451 0.039324366
-0.16784969 -0.41834402 0.33751416 0.2877945 0.69651353 -0.65729982 0.046427723
0.17451745 -0.41686404 0.3352333 -0.25420642 0.68646193 -0.6812849 0.039990563
0.18988326 -0.41079187 0.33159941 -0.39126992 0.76480287 -0.51184416 0.021633439
-0.20246299 -0.40656602 0.33474541 0.33126739 0.6973592 -0.6355722 0.038046032
-0.19619593 -0.40868551 0.33757424 0.26477498 0.64086145 -0.72054899 0.04630816
0.19569941 -0.4057081 0.33628577 -0.2507433 0.57732874 -0.77705818 0.070414774
0.20523512 -0.40077764 0.33655995 -0.29079765 0.681656 -0.67140299 0.053813215
-0.22335309 -0.39132833 0.33787704 0.32224077 0.50115806 -0.80311978 0.054207399
-0.21778385 -0.39672029 0.33433262 0.36902529 0.64012474 -0.67384022 0.049866613
0.2128047 -0.39716852 0.33611441 -0.40570942 0.696141 -0.59227335 0.02946968
0.22541524 -0.39233783 0.33279964 -0.44094899 0.71770257 -0.53894991 0.019239459
-0.23569092 -0.38486767 0.334553 0.42875022 0.66049731 -0.61637366 0.038673252
-0.22612716 -0.38846898 0.33999622 0.32891953 0.47452164 -0.81648093 0.047937978
0.22936532 -0.3899228 0.3337242 -0.41959459 0.67768192 -0.60389376 0.035297114
0.23375119 -0.38781038 0.33351234 -0.38488588 0.67090046 -0.63384181 0.035440918
0.24474861 -0.38265103 0.33268183 -0.32110476 0.68054116 -0.65860122 0.030827703
-0.25201279 -0.37547266 0.33188391 0.41182277 0.6490885 -0.63959837 0.048569165
-0.24573642 -0.37691289 0.33733732 0.37094387 0.57683462 -0.72777909 0.04488324
0.25360608 -0.37571204 0.33807087 -0.29629561 0.56373841 -0.77097851 0.031012362
-0.2639623 -0.36691216 0.33335793 0.45250303 0.63936818 -0.62165052 0.03875922
-0.25935844 -0.36918458 0.33488026 0.48937604 0.59522033 -0.637357 0.032660022
-0.042958207 -0.36126244 0.33029196 -0.087158673 0.98956352 -0.1147489 0.15566081
-0.036682058 -0.360479 0.33306766 0.011541479 0.99347091 0.11350095 0.17964752
-0.010687032 -0.36121109 0.33488792 0.059508372 0.9942506 -0.089019649 0.13304751
0.01535356 -0.36308092 0.33394644 0.039862022 0.97636884 -0.21240261 0.060957678
0.043019466 -0.36156499 0.33118448 0.0075049317 0.98775667 -0.15582193 0.10853808
0.26446766 -0.36735058 0.33676755 -0.34673122 0.58000314 -0.73713893 0.034183383
0.27458572 -0.36018413 0.33338293 -0.37423354 0.53157544 -0.75985307 0.033928771
-0.083011478 -0.35234702 0.33518347 0.016705194 0.95871013 0.28389412 0.1694238
-0.076237865 -0.35367662 0.33715209 -0.19276504 -0.39107263 -0.89994657 0.099071823
-0.039964721 -0.35806975 0.3374708 -0.063804612 0.99007589 -0.12521517 0.098200545
-0.029009793 -0.3579281 0.33847404 0.096556969 0.99202359 -0.081030898 0.13307653
0.018612569 -0.35957587 0.33986858 0.013100568 0.98345703 -0.18066739 0.072911404
0.047886953 -0.35623074 0.33909956 -0.17444542 0.97439873 0.14183034 0.14094208
0.055372626 -0.35775486 0.33390355 -0.3535966 0.93517041 -0.020635562 0.15091138
0.073042177 -0.35270745 0.33633122 -0.23418844 0.96725708 -0.097824134 0.10926297
0.084482215 -0.35065818 0.33648631 0.0063151312 0.97897738 0.20387115 0.15566944
0.27929789 -0.35474235 0.33563292 -0.41289827 0.52454025 -0.74456203 0.048237145
-0.29507062 -0.3445887 0.33727223 0.48743266 0.54263037 -0.6840772 0.051394027
-0.1123935 -0.3424108 0.33609918 0.50475788 0.8587842 0.087801091 0.10890689
-0.10463402 -0.34548047 0.33571631 0.23886681 0.97094554 -0.014402402 0.093718581
-0.096198499 -0.34829882 0.33569777 0.078750528 0.77115321 0.63176036 0.16999967
0.088204637 -0.34955141 0.33691442 -0.17283513 0.9229992 0.34380305 0.18079574
0.11642724 -0.34309784 0.33767015 -0.28408873 0.74559301 0.60281396 0.15635563
0.28509226 -0.34986937 0.33509272 -0.48465282 0.48395672 -0.7286272 0.042851981
0.29539812 -0.34152636 0.33354282 -0.53754061 0.54927218 -0.63980466 0.040610641
-0.15081739 -0.3310428 0.33392909 0.3168509 0.84432089 0.43211997 0.1542439
-0.13452162 -0.33503643 0.33621064 0.33025175 0.9418956 -0.061371759 0.10585684
-0.12872656 -0.33798501 0.33473018 0.25194389 0.96426839 0.081919022 0.11258558
0.13920103 -0.33403978 0.3355841 -0.35287219 0.82262623 0.4458333 0.14337832
0.14335817 -0.33292395 0.33345407 -0.48483992 0.85954773 0.16157964 0.10595267
-0.31461269 -0.32756323 0.33029592 0.63235772 0.53404921 -0.56117302 0.030199936
-0.30955631 -0.3283571 0.33820233 0.49522415 0.47674757 -0.72626776 0.046802673
-0.17071617 -0.32076705 0.33338717 0.47402021 0.87271178 -0.11695696 0.11728602
-0.16072157 -0.32780865 0.33239564 0.46840516 0.88263887 -0.03931142 0.1460745
-0.15142883 -0.32938102 0.33684236 0.4157131 0.85078681 0.32147232 0.16924073
-0.14844076 -0.32884964 0.33873385 0.25383922 0.64225155 0.72324169 0.14297356
0.15619262 -0.32424712 0.33729377 -0.5380789 0.82256323 0.18401261 0.15545101
0.16507117 -0.32111499 0.33534542 -0.45961943 0.88177627 0.10592741 0.17172366
0.31291777 -0.32419026 0.33664185 -0.42541829 0.47904652 -0.767811 0.035121728
-0.32656837 -0.31420335 0.33023164 0.58596534 0.55519623 -0.59025568 0.024672525
-0.18617286 -0.31215847 0.33027187 0.56599838 0.80953819 -0.15586479 0.10238814
-0.17585814 -0.31864697 0.33083525 0.49653751 0.86056358 -0.11349367 0.12758574
-0.16782072 -0.31859338 0.33920094 0.53090614 0.83456022 -0.14713171 0.079974405
0.16803807 -0.31678808 0.33910537 -0.58394694 0.73606467 0.34236631 0.1441929
0.18155181 -0.3143242 0.33205301 -0.46042871 0.86913294 -0.18059166 0.082878716
0.32116395 -0.31846797 0.33366811 -0.47783086 0.57989252 -0.6598503 0.023806183
-0.3356252 -0.30190486 0.33371651 0.51156777 0.50583547 -0.69457096 0.037232637
-0.20185347 -0.30189252 0.33023459 0.55561703 0.81935114 -0.14125662 0.109818
-0.19138408 -0.30367756 0.33860999 0.51445442 0.85675341 0.036197562 0.12321381
0.19253939 -0.3072381 0.33542657 -0.46556267 0.87510455 -0.13207336 0.12189922
0.2027802 -0.30103999 0.33704621 -0.67506856 0.70640695 0.2127713 0.17472781
0.34134954 -0.30227262 0.33036742 -0.54798108 0.58063912 -0.60214186 0.031951752
-0.34192297 -0.29621142 0.33150208 0.61075747 0.57485503 -0.54453385 0.026234332
-0.33878398 -0.29755738 0.33502617 0.4949418 0.49893066 -0.71140766 0.045745004
-0.21407092 -0.29178068 0.33416057 0.46389696 0.88584948 0.0083898176 0.16918468
-0.20524521 -0.29591402 0.33714071 0.59125489 0.80579323 -0.033391956 0.13657102
0.20394288 -0.29894263 0.3386851 -0.59604836 0.74664265 0.29538286 0.14618891
0.21374989 -0.29602647 0.33012035 -0.62589186 0.76778442 -0.13699107 0.14981714
0.34357521 -0.29874051 0.33317915 -0.55247992 0.5530321 -0.62363559 0.030706396
-0.35382769 -0.28332892 0.33075601 0.64695579 0.51716369 -0.56034803 0.033456266
-0.3485795 -0.28818637 0.33241826 0.59488332 0.52369761 -0.60979885 0.038346976
-0.23111846 -0.28199184 0.33167544 0.53237528 0.82541883 0.18777719 0.16493967
-0.21763504 -0.2863223 0.33876193 0.52334708 0.84873396 -0.075885214 0.15997611
0.22380868 -0.28344449 0.33650365 -0.61529768 0.77651089 0.135793 0.14574476
0.3534956 -0.28358927 0.33446679 -0.57156348 0.42293981 -0.70316225 0.042785682
-0.36057276 -0.27568826 0.33088744 0.64541382 0.45413435 -0.61416852 0.036889087
-0.24119693 -0.27179217 0.33565077 0.64806211 0.6998589 0.30035478 0.1883979
-0.23221552 -0.27850133 0.33663118 0.56406975 0.78718388 0.24933271 0.16954778
0.22969887 -0.27733579 0.33733937 -0.55035156 0.79066432 0.26825932 0.14175412
0.24078487 -0.27001616 0.33355409 -0.64373779 0.74893308 0.15716521 0.14432763
-0.36582837 -0.26630604 0.33655289 0.52327079 0.38891581 -0.75824279 0.04660771
0.24498439 -0.26658666 0.3329719 -0.67879909 0.73061168 -0.073744856 0.11619784
0.36704382 -0.26188585 0.33586493 -0.61703706 0.41615009 -0.6678955 0.041762728
0.2620692 -0.25005242 0.33532315 -0.60112697 0.79397863 -0.09079773 0.10244651
0.37058771 -0.25723812 0.3348549 -0.70477623 0.39888981 -0.58666629 0.037656501
-0.26582709 -0.24338627 0.3360711 0.77596235 0.62847883 -0.053822141 0.080502488
0.26559716 -0.24577773 0.33611551 -0.69330984 0.71954501 -0.039705213 0.11130428
0.3766768 -0.24840087 0.33425754 -0.69140106 0.42723042 -0.58261371 0.03777764
0.38278177 -0.24019203 0.33278802 -0.65272552 0.45402485 -0.60647398 0.04354012
-0.38770342 -0.23113412 0.33661479 0.66217482 0.36955389 -0.65188527 0.043656141
0.38712713 -0.23148048 0.33557606 -0.56859738 0.40682331 -0.71497685 0.05307797
-0.39201695 -0.22196974 0.33727601 0.64848608 0.37032974 -0.6650728 0.031882219
-0.38927245 -0.22535871 0.33953285 0.59793919 0.28513417 -0.74911094 0.047350701
-0.288194 -0.22213608 0.33075643 0.77803737 0.61463344 -0.12993649 0.098724253
0.28459272 -0.22325675 0.33599401 -0.76377732 0.6453439 0.013243249 0.15853469
0.38894093 -0.22719632 0.33760571 -0.55568832 0.36410552 -0.74742061 0.057834648
0.3922689 -0.22154596 0.33837575 -0.47312239 0.31218305 -0.82383072 0.054099713
0.39969707 -0.21064694 0.33780518 -0.51953232 0.27317053 -0.80960733 0.041155525
-0.39821583 -0.20980102 0.33712852 0.71548396 0.37941337 -0.58662444 0.02536683
-0.30289391 -0.20096624 0.33564058 0.73849034 0.51369649 0.43674701 0.16245461
-0.2974084 -0.20959313 0.33435148 0.79025763 0.58266574 -0.18971984 0.07842426
-0.40580821 -0.19680074 0.33486015 0.6840663 0.3634851 -0.6324017 0.04126953
-0.30550456 -0.19592816 0.33492988 0.85245919 0.52181804 0.031926963 0.11588275
0.41100216 -0.19375947 0.33472219 -0.56450588 0.34064353 -0.7518611 0.05263992
-0.41199493 -0.18674231 0.33242515 0.72452044 0.36300132 -0.58591831 0.035151672
0.3126379 -0.1817081 0.33526209 -0.873007 0.39398095 0.2874679 0.1634849
0.41440442 -0.18772845 0.33145335 -0.72538346 0.34143859 -0.59769428 0.040268883
-0.41702878 -0.17566493 0.33361635 0.66610509 0.31976882 -0.67383373 0.043437954
-0.3160817 -0.17475559 0.33558768 0.88464266 0.43790832 -0.16013668 0.060169969
0.31586441 -0.17093717 0.33995295 -0.9054718 0.41714609 0.078166865 0.11234043
0.41802597 -0.17680192 0.33141491 -0.76641876 0.26844636 -0.58355707 0.031635076
-0.42120898 -0.16415492 0.33713999 0.59590822 0.28872344 -0.74935454 0.042896524
-0.32112089 -0.16434929 0.33612403 0.85854244 0.49005267 -0.15084191 0.073613293
0.32314882 -0.16520609 0.33561617 -0.86467379 0.50231874 -0.0039002423 0.13497923
0.4189178 -0.16557695 0.33792171 -0.68194497 0.23067214 -0.694076 0.036231637
0.4211283 -0.16532861 0.33299565 -0.73399097 0.25031447 -0.63134772 0.038023539
-0.42537862 -0.15907671 0.33363372 0.74811506 0.27042323 -0.60596621 0.025532801
-0.32787874 -0.15410051 0.33265477 0.84415734 0.51312578 -0.15524252 0.062753163
0.42286849 -0.15566362 0.33634794 -0.71548706 0.20755655 -0.66708213 0.03969821
-0.43107998 -0.1434942 0.33412671 0.70241117 0.21681572 -0.67794508 0.033915654
-0.33143061 -0.14595219 0.33385956 0.83462852 0.54805493 -0.055053394 0.097157441
0.32996684 -0.14358389 0.33933875 -0.84824079 0.50545651 0.1581178 0.12001099
0.33135402 -0.14656717 0.33606946 -0.85854703 0.51239669 -0.018617518 0.11172964
0.42669463 -0.14202267 0.33790863 -0.6267451 0.20967361 -0.75048494 0.035692509
-0.43510845 -0.13010132 0.33115631 0.78822368 0.19415051 -0.5839597 0.030567557
-0.33906865 -0.13265345 0.33181912 0.92368406 0.38104331 -0.040172007 0.13993026
0.43150315 -0.13700439 0.33061212 -0.77669936 0.28300941 -0.56271106 0.026582861
-0.43693092 -0.12300207 0.3303284 0.79060471 0.21508484 -0.57330841 0.02864995
-0.33994883 -0.12674689 0.33634251 0.9001075 0.32328144 0.29205418 0.18444295
0.33675137 -0.12481851 0.33859906 -0.91973108 0.24396618 0.30753085 0.12682354
0.43404585 -0.124337 0.33439964 -0.70489395 0.23551042 -0.66907346 0.041121796
-0.43698379 -0.11627247 0.33353937 0.75215083 0.21127453 -0.62420535 0.025423335
-0.34519207 -0.11377445 0.33516335 0.92583889 0.19504118 0.32369924 0.16207828
0.43352211 -0.11921923 0.33951926 -0.64539838 0.22078729 -0.73124129 0.032752644
-0.43826842 -0.10588003 0.33562765 0.75917768 0.15435547 -0.63231611 0.035702307
-0.34678832 -0.1010734 0.33702818 0.92687333 0.25672436 0.27385828 0.16544241
0.34352627 -0.10464299 0.33845139 -0.99593335 0.043117531 0.079104662 0.15563765
0.43997911 -0.10148403 0.33811757 -0.62994623 0.12234107 -0.76694226 0.039505918
0.44007581 -0.10828881 0.33269811 -0.74665231 0.24304174 -0.61922616 0.038672194
-0.44084743 -0.094192289 0.33526996 0.72624642 0.14357668 -0.6722737 0.047311556
-0.43866828 -0.095390439 0.33987528 0.67279744 0.14324771 -0.7258262 0.048782378
-0.34798068 -0.090683535 0.33827108 0.94928408 0.19781414 0.24439578 0.13371126
0.34910163 -0.097918086 0.33252695 -0.96021116 0.27686989 -0.036571816 0.11393008
0.44429028 -0.095255107 0.33289641 -0.81035084 0.16803537 -0.56133384 0.012356248
-0.44405586 -0.082245633 0.33353904 0.74159622 0.15490155 -0.65271777 0.040529083
0.3493014 -0.089930922 0.33730298 -0.9569757 0.23531747 0.16977409 0.13588357
-0.44424418 -0.072753616 0.33779666 0.77563649 0.09838815 -0.62346435 0.042484224
-0.3544679 -0.076194525 0.33166683 0.97788042 0.19792669 0.067638814 0.1296504
0.35721168 -0.073966205 0.33204636 -0.94963485 0.30380574 0.076783694 0.15706758
0.44841254 -0.07325428 0.33268404 -0.82279468 0.1249318 -0.55443752 0.01914396
-0.4471243 -0.064006865 0.33526215 0.76545089 0.16006066 -0.62326998 0.034131844
-0.35459447 -0.067062646 0.33518437 0.83284986 0.15413992 0.53160334 0.15096697
0.35909387 -0.06512475 0.33249694 -0.97169423 0.23595539 -0.011634259 0.14183849
-0.44881901 -0.054166466 0.33609834 0.75463188 0.11049844 -0.64677733 0.03784024
-0.3574411 -0.052234702 0.33638239 0.95800757 0.21339652 0.19152945 0.14236093
0.35876316 -0.058599908 0.33420572 -0.99253792 0.081863269 -0.0903714 0.14704594
0.44688708 -0.050759222 0.33951217 -0.68372798 0.095271043 -0.72349119 0.044754196
-0.45099798 -0.042360108 0.33675393 0.77053827 0.081237905 -0.63219547 0.020762803
-0.36055136 -0.049463365 0.33040753 0.87952858 0.1344554 0.45645508 0.1432265
-0.35769349 -0.044638388 0.3380872 0.88192195 -0.015774401 0.47113147 0.14717138
0.35704362 -0.042981688 0.33859044 -0.99775201 -0.025483033 0.061980747 0.099000245
0.44796538 -0.044484843 0.3377578 -0.72687238 0.05788618 -0.68432868 0.044440664
0.45084095 -0.04987384 0.33001491 -0.80093431 0.095487013 -0.59108925 0.036989361
-0.45308998 -0.036017552 0.33487478 0.78624153 0.039769154 -0.6166383 0.019514805
-0.36040515 -0.037477173 0.33651486 0.79343259 -0.002040216 0.60865474 0.13860819
-0.35923618 -0.035374932 0.33857891 0.82278383 -0.059527326 0.56522846 0.15240863
0.36067802 -0.032469269 0.33316708 -0.98252565 -0.017708529 -0.18528336 0.11707444
0.44824663 -0.03691202 0.33812279 -0.69987357 0.074449353 -0.71037614 0.046464797
-0.36395857 -0.020343823 0.33250239 0.99721938 0.06699045 0.032644413 0.16079371
0.36025724 -0.025847465 0.33510792 -0.98396355 0.056775436 -0.16909261 0.13268451
0.44888586 -0.022934828 0.33850396 -0.77162641 -0.027832406 -0.63546675 0.034429491
0.45174044 -0.024522197 0.33133879 -0.81919676 -0.015615338 -0.57329983 0.025913713
-0.45298311 -0.015671605 0.33388406 0.7728948 0.034298889 -0.63360643 0.023698337
-0.361269 -0.019005127 0.33767867 -0.63545573 -0.20255055 -0.7450968 0.13250178
0.36199412 -0.014505282 0.33245379 -0.98818511 -0.045849696 -0.14624599 0.12112276
0.45189661 -0.015404258 0.33222216 -0.77901322 0.0085119186 -0.62694973 0.038644083
-0.45233065 -0.002553219 0.33365408 0.82764012 0.0083170878 -0.56119758 0.017292192
-0.362726 -0.0022376962 0.33299273 0.99610394 -0.05939097 -0.065189347 0.12003094
