# .PCD v0.7 - Point Cloud Data file format
VERSION 0.7
FIELDS x y z normal_x normal_y normal_z curvature
SIZE 4 4 4 4 4 4 4
TYPE F F F F F F F
COUNT 1 1 1 1 1 1 1
WIDTH 576
HEIGHT 1
VIEWPOINT 0 0 0 1 0 0 0
POINTS 576
DATA ascii
-0.043006174 0.3633852 -0.0127041 0.031964216 -0.8006351 0.59829909 0.067760058
-0.004479853 0.36390793 -0.015409549 0.00038469146 -0.7973429 0.60352647 0.085661195
0.0016217397 0.36703306 -0.01136989 -0.037163831 -0.77387321 0.63224918 0.081449285
0.014468 0.36095673 -0.018208046 -0.024598118 -0.75706613 0.65287507 0.090806186
0.022773731 0.36447141 -0.013066137 -0.025828084 -0.76699084 0.64113796 0.077369392
0.033695243 0.36368436 -0.013090731 -0.087169401 -0.8158527 0.57165182 0.088857993
0.047776204 0.3630155 -0.012579593 -0.07673201 -0.82571024 0.55885124 0.091963485
0.070455872 0.36039823 -0.010118415 -0.14998561 -0.78669566 0.59884411 0.076936953
-0.03548412 -0.37128747 -0.0020263656 0.12786621 0.85955161 0.49479416 0.083259836
-0.010616785 -0.3738054 -0.00074461335 0.011479408 0.85479629 0.51883656 0.08051721
-0.0065040076 -0.37378085 -0.001169119 0.0099899862 0.83353376 0.55237818 0.082355455
0.008561397 -0.37286615 -0.0022946834 0.016947575 0.84272742 0.53807348 0.081177279
0.027031748 -0.37138423 -0.0026862547 -0.057405841 0.83723402 0.54382324 0.082791604
0.036294226 -0.37134933 -0.0018604276 -0.085450843 0.84841889 0.52238256 0.08284463
-0.098370507 -0.3612991 -0.00067851832 0.21946479 0.816266 0.53436428 0.08109381
-0.08061412 -0.36401552 -0.0021206343 0.24267237 0.77162224 0.58797044 0.070898943
-0.075356178 -0.36297292 -0.0050832676 0.20352416 0.77037102 0.60424048 0.068316057
-0.064334907 -0.36437377 -0.0062059611 0.14857914 0.76962817 0.62096429 0.068275273
-0.053960539 -0.36810306 -0.0038430602 0.096082702 0.84205532 0.53076446 0.072514214
-0.044682823 -0.3679935 -0.0059102792 0.068696849 0.82452732 0.56163645 0.085065156
-0.034834184 -0.36905834 -0.0053050737 0.10899636 0.82419181 0.55572265 0.085993975
-0.024272298 -0.36906675 -0.0062920693 0.05106467 0.83673596 0.54522043 0.081737377
-0.0085581113 -0.36990443 -0.0065695234 0.014051463 0.81075758 0.58521336 0.079096995
0.015063809 -0.36825955 -0.0083281174 -0.052594915 0.78498143 0.61728263 0.076733418
0.025741894 -0.36900705 -0.0062392056 -0.010518464 0.82004166 0.57220727 0.085149303
0.031357471 -0.36915243 -0.0054981541 -0.10040297 0.83066308 0.54764766 0.090358414
0.045801342 -0.36914659 -0.0040442627 -0.060584065 0.82963711 0.55500621 0.082603782
0.053868286 -0.36695543 -0.0054971362 -0.16923954 0.82026505 0.54637289 0.074467465
0.062792234 -0.36240754 -0.0094305398 -0.16524898 0.80800092 0.56553268 0.071117885
0.07194262 -0.3649134 -0.0032938058 -0.1362655 0.74656987 0.6512028 0.077036306
0.08570087 -0.36185515 -0.003749952 -0.16348311 0.75222218 0.63830638 0.075203083
0.09362033 -0.36155161 -0.0019171895 -0.18116392 0.77412778 0.6065523 0.081615366
-0.12364025 -0.35111278 -0.0028813514 0.2467013 0.81723922 0.52082485 0.078546926
-0.11051704 -0.35183334 -0.0079957172 0.1992877 0.81397593 0.5456441 0.080881417
-0.10838931 -0.3521874 -0.0085000368 0.23344593 0.8009845 0.55129552 0.081739418
-0.094738603 -0.35679916 -0.0080248807 0.1700359 0.76221228 0.624596 0.070868514
-0.053583425 -0.35344067 -0.0034499075 0.1051472 0.79536641 0.59693933 0.079627164
-0.04083962 -0.35162067 -0.008240358 0.1102199 0.75646347 0.64468187 0.080071628
-0.032437097 -0.35354343 -0.0065983338 0.049535502 0.79711986 0.60178572 0.081133105
-0.024312431 -0.35464576 -0.0056535043 0.059878733 0.7705133 0.63460529 0.076979965
-0.0016092669 -0.35669035 -0.004986289 -0.052110389 0.74630708 0.66355878 0.078662969
0.00070072367 -0.35905492 -0.0016872087 0.00032582236 0.74703985 0.66477913 0.075544573
0.013935947 -0.35753277 -0.0026241734 -0.085495137 0.79808027 0.59645486 0.079662494
0.026074594 -0.35590187 -0.0036807 -0.015380024 0.82594031 0.56354791 0.081181146
0.036742263 -0.35632527 -0.0022129975 -0.014924355 0.83360428 0.5521605 0.08174853
0.047255591 -0.35400337 -0.0043375697 -0.083810642 0.82317084 0.56157416 0.073093981
0.059797667 -0.35426843 -0.00054662232 -0.21285096 0.80727887 0.55044997 0.073016405
0.088800929 -0.35756651 -0.0089589711 -0.1950569 0.75344193 0.62791562 0.081774816
0.093833528 -0.35758248 -0.0075162067 -0.15522595 0.75477821 0.6373499 0.082745835
0.10756533 -0.35658443 -0.0028608921 -0.33775023 0.75141072 0.5668391 0.075659886
-0.145702 -0.34220654 -0.0041311276 0.36571506 0.73211998 0.57467639 0.074270546
-0.13834368 -0.34656206 -0.0022781321 0.28202367 0.76014566 0.5853557 0.078493275
-0.12674901 -0.34891206 -0.0044501754 0.25336486 0.81433553 0.52217215 0.08582022
-0.11870299 -0.34882647 -0.0083081191 0.22375168 0.81466687 0.53502625 0.083821818
-0.10645808 -0.3413212 -0.0029849838 0.20852323 0.80225074 0.55938524 0.087149091
-0.093822457 -0.34092942 -0.0088855522 0.19566515 0.7831735 0.59021556 0.082695216
-0.085539475 -0.34314311 -0.0086264163 0.19670121 0.78850675 0.58272272 0.089007676
-0.077513143 -0.34716532 -0.005494839 0.20878167 0.81203753 0.54498196 0.07704825
-0.068148419 -0.34829974 -0.006514038 0.1450991 0.80025315 0.58184296 0.078524843
0.069359414 -0.34868443 -0.00572635 -0.19553179 0.75956535 0.62034476 0.081190966
0.073398732 -0.34564701 -0.0084544932 -0.19320995 0.78879523 0.58349985 0.089670487
0.085701607 -0.34380502 -0.0077938288 -0.2224966 0.77716333 0.58865315 0.079883508
0.093439288 -0.34449008 -0.0046833279 -0.23125857 0.72212541 0.65196204 0.078931212
0.1107001 -0.34081155 -0.0017214103 -0.32182294 0.77877623 0.53845847 0.07683903
0.12671624 -0.34670466 -0.0074887006 -0.31879246 0.75774169 0.56938457 0.078990564
0.14410341 -0.34234604 -0.0049133725 -0.23599716 0.75860304 0.60731107 0.074980341
-0.16294509 -0.33613497 -0.00097659416 0.31029171 0.7709105 0.55625176 0.08423312
-0.15478872 -0.33579719 -0.0066324868 0.33558708 0.72209531 0.60494596 0.077833652
-0.1464904 -0.33830795 -0.0086840205 0.32899114 0.71103233 0.62144816 0.077725559
-0.13482243 -0.33104998 -0.0038580887 0.31023294 0.71533352 0.62614173 0.082189307
-0.1253335 -0.33398655 -0.0042444617 0.27573222 0.69182199 0.66734844 0.084884219
-0.11729703 -0.33803746 -0.0024477078 0.24308828 0.74957097 0.61567152 0.084943309
-0.10567439 -0.33709478 -0.0087032057 0.21757738 0.76007265 0.61233127 0.088812955
0.094794922 -0.33978134 -0.0098375939 -0.18722305 0.74884117 0.63575488 0.085537992
0.1011954 -0.33914143 -0.0081100501 -0.19276769 0.77430171 0.6027416 0.080043897
0.11771419 -0.33397934 -0.0076082381 -0.27428609 0.76731128 0.57965553 0.075623274
0.1239504 -0.33415359 -0.0046042432 -0.33323506 0.76882607 0.54576629 0.07255096
0.15524693 -0.3366724 -0.0052040457 -0.31644556 0.72851253 0.60756201 0.078411043
0.16350977 -0.33456725 -0.0026490025 -0.35906219 0.71724451 0.59718889 0.085302331
0.17438506 -0.33065456 -0.00076757558 -0.39519122 0.71223998 0.58011895 0.079850934
-0.17474099 -0.32633156 -0.0061476822 0.35943139 0.72108209 0.59232557 0.086232528
-0.16922328 -0.32756129 -0.0080821877 0.42285842 0.70936871 0.56390315 0.083856441
-0.15114373 -0.32063007 -0.0071612815 0.30088931 0.69481963 0.65321606 0.075302824
-0.14571097 -0.32350504 -0.0067266952 0.2923272 0.68090379 0.67150187 0.07886114
-0.13724941 -0.32749391 -0.007146237 0.30529189 0.69135582 0.65484655 0.079704084
0.13678251 -0.32695279 -0.008037555 -0.28351551 0.72636414 0.62611032 0.074106909
0.14684695 -0.32682243 -0.0020674665 -0.35535496 0.70111662 0.61818951 0.080207273
0.15813692 -0.32085508 -0.0025817049 -0.25516954 0.69899017 0.66805768 0.088011615
0.16591388 -0.32953295 -0.0076415986 -0.33803663 0.69319415 0.6365636 0.084754266
0.17727232 -0.32485557 -0.0064430027 -0.43199059 0.67884278 0.59376466 0.077091083
0.18117933 -0.32756674 -0.00042672572 -0.4065046 0.73082978 0.54830825 0.074353769
-0.20443738 -0.31260657 -0.0010299186 0.4250316 0.69754034 0.57687581 0.092121392
-0.19739217 -0.31326938 -0.0058940686 0.42812687 0.66857481 0.608042 0.077082157
-0.18661681 -0.31899333 -0.0076690288 0.45725209 0.62021703 0.63737863 0.077072509
-0.1676034 -0.31425774 -0.0050631184 0.3736406 0.70801431 0.59925652 0.083917528
-0.15594649 -0.31776163 -0.0076727443 0.31558305 0.73262358 0.60305059 0.084821239
0.1539076 -0.31801051 -0.0085516479 -0.30052909 0.7331934 0.610008 0.083329223
0.16513175 -0.31549048 -0.0049028234 -0.398312 0.66433251 0.63246334 0.082179017
0.17362915 -0.31351662 -0.0021938602 -0.39441568 0.66268688 0.6366179 0.077201389
0.19733128 -0.31162298 -0.0079229586 -0.46183872 0.70518869 0.53797209 0.079575144
0.20309609 -0.31378192 -0.00069423352 -0.43197864 0.67153156 0.60202986 0.07692381
-0.19292894 -0.30119991 -0.0027024406 0.45522916 0.62942976 0.62974954 0.077409327
-0.18401368 -0.3046774 -0.0055022803 0.42280871 0.59367305 0.68467885 0.076518849
-0.17774725 -0.30820021 -0.0064204838 0.38358739 0.60370135 0.69886005 0.077276103
0.18553376 -0.30566415 -0.0032513067 -0.43248984 0.6960367 0.57313657 0.081699438
0.19150916 -0.30434495 -8.310331e-05 -0.43871149 0.72562665 0.5300926 0.082141809
0.21288759 -0.30541486 -0.0028885354 -0.4420929 0.65077949 0.61728436 0.08803644
0.22264576 -0.3004626 -0.0010028761 -0.48483858 0.61363727 0.6232022 0.079648152
-0.22134537 -0.29634404 -0.0070008524 0.48820886 0.63800806 0.59548122 0.076387621
-0.20027828 -0.29580897 -0.0032752634 0.43904698 0.64705968 0.62333894 0.080718391
-0.19541782 -0.2933749 -0.0095035741 0.41197783 0.65782309 0.63051015 0.078522444
0.18927684 -0.29809296 -0.0088951588 -0.47744659 0.65137094 0.58971232 0.089006856
0.19612387 -0.29575878 -0.0063699391 -0.47608387 0.62810594 0.6154893 0.084635548
0.20947275 -0.29057741 -0.0021876495 -0.47451121 0.64634818 0.59755594 0.081304461
0.22530192 -0.29608405 -0.003939887 -0.45413595 0.60050237 0.65814698 0.075606622
-0.23489064 -0.28387254 -0.0085529909 0.48043665 0.64305574 0.59637231 0.080956012
-0.21469945 -0.28516525 -0.0044607869 0.48332858 0.63319421 0.60453165 0.074022599
0.21550485 -0.28300115 -0.0060587688 -0.50505841 0.62238133 0.59796113 0.074012518
0.24383196 -0.28213763 -0.0019126524 -0.49018145 0.58933765 0.64218634 0.071539655
-0.25496554 -0.27233282 -0.0019571341 0.62010908 0.56756341 0.54160547 0.080130212
-0.24558088 -0.27959752 -0.0030069961 0.56756651 0.59630173 0.56770813 0.072242536
-0.23118901 -0.27038267 -0.0054365993 0.53951627 0.62361264 0.56571144 0.072399952
-0.22434935 -0.27514657 -0.0065873107 0.56031561 0.60895383 0.56144595 0.079768948
-0.21972089 -0.2794688 -0.0064838137 0.51320058 0.61252171 0.60120076 0.080667756
0.21795878 -0.27970883 -0.0077113807 -0.49510181 0.62281537 0.60578483 0.073010437
0.22282435 -0.27728558 -0.0057048025 -0.54925412 0.62321842 0.55670339 0.070106193
0.24650976 -0.27623883 -0.0057735257 -0.50581378 0.57791245 0.64044487 0.078888647
-0.26728484 -0.26227167 -0.00047899602 0.59935719 0.53339452 0.59687614 0.080949917
-0.25539112 -0.26736659 -0.0069517856 0.6178906 0.5424183 0.56920439 0.076962173
-0.23443981 -0.26681304 -0.006158052 0.50906098 0.62876958 0.58779734 0.075629681
0.23459265 -0.26770103 -0.0051095178 -0.46963856 0.60860777 0.63955933 0.081562795
0.25910723 -0.26973188 -0.00083574373 -0.53320098 0.64118898 0.55188161 0.086347252
0.2620329 -0.26369977 -0.0046052164 -0.55939704 0.60904396 0.56226355 0.071314164
-0.27268416 -0.25557852 -0.00099054119 0.57538337 0.5434075 0.6112628 0.078572147
-0.25418383 -0.25405484 -0.0012805462 0.61541414 0.56543052 0.5491392 0.073318243
-0.24795723 -0.25635564 -0.0046868678 0.55364233 0.60121679 0.57621044 0.083457634
0.23835318 -0.25998592 -0.0093556475 -0.47453818 0.63376445 0.61086518 0.084173858
0.24441303 -0.25672325 -0.0075196708 -0.52560079 0.59394419 0.60907638 0.086885303
0.2500608 -0.2536172 -0.005668737 -0.56043309 0.5688436 0.60193998 0.084726095
0.26654145 -0.2577818 -0.0055691637 -0.59889483 0.53827852 0.59294277 0.072418414
0.27417189 -0.2521657 -0.0026273953 -0.6628561 0.5316546 0.527224 0.075638279
-0.27694005 -0.24497089 -0.0064786002 0.53586358 0.61946744 0.57368129 0.074296735
-0.26141372 -0.2407959 -0.0060231267 0.57021677 0.5536381 0.60690832 0.076570362
-0.25048453 -0.24971449 -0.0089420276 0.58078098 0.57614344 0.57511067 0.08380454
0.25875604 -0.24942493 -0.00072850497 -0.57277393 0.55674464 0.60163558 0.082440197
0.27708966 -0.24734789 -0.004049018 -0.62580657 0.51901698 0.58222622 0.07670179
-0.29254979 -0.23116404 -0.0026709002 0.63580763 0.55202383 0.5394612 0.079790108
-0.28471094 -0.2371304 -0.0055053183 0.57752925 0.60407549 0.54913825 0.083159953
-0.27144668 -0.23364829 -0.0019633819 0.54488617 0.56917632 0.61574131 0.078729272
-0.26485476 -0.23452722 -0.0080012465 0.55131406 0.57467276 0.60481745 0.077038594
0.26659241 -0.23381056 -0.0068518282 -0.60328293 0.50607866 0.6163879 0.07739789
0.27189499 -0.23177338 -0.0032530322 -0.63730437 0.53961134 0.55014789 0.082854375
0.2836284 -0.2394053 -0.0045130309 -0.65184164 0.5306077 0.54180986 0.07628452
-0.30016467 -0.22229463 -0.0016433182 0.70897162 0.48611629 0.51093054 0.086970814
-0.29142097 -0.22580183 -0.0089157587 0.62812901 0.55420756 0.54617578 0.086714849
-0.28996363 -0.22820446 -0.0083056437 0.6048004 0.57189542 0.55421317 0.085632712
-0.27423745 -0.22643863 -0.0056171366 0.56793076 0.51370215 0.64309001 0.083523676
0.26895392 -0.22933428 -0.0084083136 -0.59008026 0.51340348 0.62307483 0.078790657
0.27422139 -0.22802341 -0.0042907191 -0.62612325 0.49165729 0.60517997 0.077417277
0.29547888 -0.22552621 -0.0046540042 -0.67959708 0.39591879 0.61757267 0.080813564
-0.3043696 -0.21241517 -0.0045251921 0.70786208 0.43935624 0.5530799 0.084594041
-0.29970264 -0.2170734 -0.0063945111 0.68990511 0.44069695 0.57429713 0.083819523
-0.28343925 -0.21706498 -0.0044489414 0.62234038 0.4962509 0.60533249 0.081139341
0.28457028 -0.21441269 -0.0053836503 -0.683671 0.46535203 0.56217569 0.077278607
0.2966634 -0.21886781 -0.0086076893 -0.69154614 0.47580793 0.54348034 0.067776084
0.30456048 -0.21357125 -0.0033666347 -0.68700373 0.47602275 0.54902488 0.081220403
-0.31140622 -0.20734677 -0.00013562199 0.66512793 0.50990593 0.54552788 0.074424356
-0.30769193 -0.20745867 -0.0045125638 0.69593191 0.47047254 0.54252583 0.076798849
-0.29230061 -0.2049244 -0.0037471645 0.67722166 0.42183483 0.60284835 0.079453588
-0.28893957 -0.20614129 -0.0065794177 0.67107707 0.38953051 0.6308102 0.083392844
-0.31837356 -0.19698748 -8.0935191e-05 0.70766723 0.48614657 0.51270717 0.071609542
-0.30088264 -0.19375384 -0.0024235095 0.61642915 0.45752847 0.64084536 0.079435095
-0.29525322 -0.19447029 -0.0082713198 0.63562328 0.40096304 0.6597057 0.079451546
0.29787862 -0.19566995 -0.0044791801 -0.63890016 0.50532901 0.58004242 0.073144518
0.30435523 -0.19403654 -0.0051153656 -0.69239444 0.49452856 0.52538705 0.073343359
0.3109476 -0.19602066 -0.0097883791 -0.7296297 0.44962171 0.51524836 0.072577424
0.32033825 -0.19339642 -0.00060382672 -0.68577206 0.42646962 0.58977997 0.080208853
-0.3228344 -0.18329981 -0.0052090413 0.72993964 0.39410219 0.55845469 0.070926934
-0.31812698 -0.18720756 -0.0082362099 0.69075686 0.4205339 0.58822292 0.067881107
-0.30538145 -0.18462718 -0.0043057255 0.64652324 0.41361493 0.64103854 0.073224343
0.3073872 -0.18582597 -0.00098364661 -0.7113589 0.40630367 0.57348561 0.079224862
0.31071138 -0.18010081 -0.0015814502 -0.71114725 0.4344818 0.55271608 0.082836784
0.32452992 -0.18486816 -0.0018756635 -0.69816983 0.42633882 0.57514703 0.075501315
-0.33167011 -0.17305234 -0.00030268356 0.75490499 0.40371054 0.51685226 0.078811496
-0.32721746 -0.17336117 -0.005881195 0.74163365 0.40976959 0.53110105 0.083508916
-0.31037205 -0.17492944 -0.0054141637 0.67427778 0.43503773 0.59673417 0.083791271
0.31346527 -0.17670539 -0.0003084013 -0.73350012 0.4215906 0.5331406 0.079267755
0.32691735 -0.17322442 -0.0063579483 -0.74123693 0.36939549 0.56045943 0.069196686
-0.33534682 -0.16436954 -0.0010877431 0.77909148 0.33499488 0.52990079 0.077066749
-0.32816797 -0.16737409 -0.0084781609 0.74423927 0.36199719 0.56130731 0.077379577
-0.31365487 -0.16614906 -0.0064104511 0.6925438 0.39318064 0.6048075 0.086054869
0.32462704 -0.1630466 -0.0052017574 -0.70747918 0.31160089 0.63433284 0.073497988
0.33368161 -0.16221005 -0.0046293596 -0.70846206 0.3603901 0.60679525 0.067686208
-0.34081781 -0.15341623 -0.0009976814 0.78546059 0.29595616 0.54356366 0.07385996
-0.33510381 -0.15593949 -0.0067957891 0.75474948 0.30308986 0.58179879 0.074391499
-0.32183611 -0.15185814 -0.0053028506 0.71548015 0.3486453 0.60542101 0.078617454
-0.31889835 -0.15784167 -0.005286139 0.76828176 0.25484788 0.58719313 0.078378804
0.31483245 -0.15825057 -0.0096744727 -0.75424117 0.31629503 0.57539362 0.082502715
0.32146201 -0.15821365 -0.0017522654 -0.71564782 0.3573173 0.60014379 0.0778611
0.33662257 -0.15445341 -0.0057763117 -0.7255441 0.35045001 0.59225887 0.071881063
-0.33977762 -0.14293754 -0.0090503972 0.75372928 0.2666513 0.60065734 0.077082187
-0.32585037 -0.14335221 -0.0055349492 0.76698899 0.31491199 0.55906916 0.08038073
0.32541698 -0.14082074 -0.0074644173 -0.73479044 0.27742046 0.61896753 0.083482422
0.34288168 -0.14519215 -0.0035349347 -0.73997289 0.28232086 0.61052024 0.077796847
-0.34718472 -0.13325544 -0.0037909723 0.71744674 0.27749762 0.63895637 0.087515131
-0.33092958 -0.1351165 -0.0038860627 0.71349889 0.27296981 0.64529592 0.081662677
-0.32740387 -0.13638477 -0.0074868519 0.79612935 0.16558743 0.58202994 0.070274509
0.32810932 -0.1340034 -0.007992072 -0.71142852 0.32632554 0.62239951 0.077530235
0.3327716 -0.13100874 -0.0032781349 -0.73106652 0.35799256 0.58084679 0.08452224
0.34615034 -0.13608989 -0.0038898583 -0.74672252 0.34214371 0.57038862 0.084314249
-0.35288277 -0.12025066 -0.0020330332 0.81334674 0.3069216 0.49423304 0.077800438
-0.34739858 -0.12797415 -0.0059534097 0.70907289 0.29937911 0.63842607 0.084932752
-0.33295107 -0.12786198 -0.0044851243 0.69866478 0.32012689 0.63983297 0.08283291
0.33575523 -0.12337391 -0.0027457266 -0.75284559 0.25736102 0.60579604 0.085281305
0.34932816 -0.12753063 -0.0035169118 -0.74672669 0.30308664 0.59206223 0.07918188
0.35147709 -0.12611762 -0.0012306172 -0.78368807 0.28514823 0.55183661 0.085653566
-0.35170192 -0.11425383 -0.0064384025 0.78043443 0.31825554 0.53817803 0.074270859
-0.34049654 -0.11231526 -0.0014046315 0.7621066 0.36712956 0.5333004 0.077487402
-0.33820632 -0.11493476 -0.0033074964 0.7584163 0.30458391 0.57622331 0.085905604
0.33614576 -0.11617462 -0.0052970266 -0.78662091 0.20159374 0.58359867 0.082447536
0.34922522 -0.11477962 -0.0095860437 -0.7543084 0.26063618 0.60256749 0.08245407
0.35404545 -0.11201133 -0.00427128 -0.80002362 0.22272073 0.55709743 0.078249514
-0.35624626 -0.10585733 -0.0041181468 0.7953558 0.25954095 0.54776603 0.078845285
-0.34284887 -0.10322013 -0.0024029813 0.77036828 0.29622716 0.56460804 0.079450898
0.34484017 -0.10016377 -0.0011075487 -0.70194811 0.22196636 0.67675674 0.084563307
0.35687414 -0.10328849 -0.004452487 -0.73256713 0.24900533 0.63351536 0.08342202
-0.36164537 -0.092081726 -0.0022470271 0.80664378 0.20639592 0.55382895 0.077577919
-0.35670248 -0.098764598 -0.0067908522 0.79126132 0.23589258 0.56414568 0.070589125
-0.34490353 -0.094786599 -0.0032176725 0.74441165 0.20887159 0.63421124 0.082626514
0.34433928 -0.095162235 -0.0040937695 -0.6827305 0.2592988 0.68311298 0.073679127
0.3616209 -0.094542995 -0.0015871949 -0.84046286 0.21591562 0.4969936 0.074620135
-0.36263013 -0.082628369 -0.0035175341 0.79596579 0.090568699 0.59852803 0.080935389
-0.3547464 -0.08448346 -0.0035412307 0.78932673 0.099257052 0.60589707 0.085961394
-0.34540138 -0.083071567 -0.0063732727 0.7615574 0.10832185 0.63898098 0.087119281
0.34607562 -0.084512413 -0.0051041758 -0.72051287 0.23565631 0.65217131 0.074430533
0.36270332 -0.083134748 -0.0032708352 -0.7600069 0.26246041 0.59456211 0.073114865
-0.36431077 -0.07121598 -0.0043536769 0.84735161 0.090069927 0.52333802 0.076524407
-0.34575319 -0.076778598 -0.007573152 0.74457097 0.14243911 0.65216953 0.086810961
0.36393061 -0.073762782 -0.0041743121 -0.74849796 0.16732696 0.64167935 0.082773454
-0.35053694 -0.063922122 -0.0046417741 0.80460709 0.16557361 0.57025689 0.077528693
0.34630144 -0.068528228 -0.0088895671 -0.78309107 0.1487146 0.60386455 0.076086298
0.36642587 -0.067549735 -0.0023877379 -0.81305969 0.095244132 0.57433653 0.081909999
-0.36777633 -0.052213758 -0.0047994219 0.8546322 0.096956052 0.5101012 0.07378906
-0.35213503 -0.055770099 -0.0045961421 0.82172203 0.1000835 0.56103128 0.070012443
0.34891665 -0.052781906 -0.0094929766 -0.76976383 0.037318289 0.63723707 0.075716965
0.35361993 -0.051724248 -0.0037179706 -0.7784602 0.099493302 0.61975873 0.085383862
0.36528945 -0.055582613 -0.0073766452 -0.74514359 -0.022041444 0.66653973 0.073867217
-0.35211191 -0.043580256 -0.0074710874 0.83366227 0.10545386 0.54211313 0.08159855
0.34965071 -0.047111087 -0.0099528534 -0.78737444 0.064889945 0.61305046 0.079575427
0.35093156 -0.044477429 -0.0088031115 -0.78639442 0.054585077 0.61530823 0.07827422
0.36755794 -0.046072293 -0.0064074285 -0.78855205 0.037042938 0.61385131 0.080378167
-0.37051561 -0.036893982 -0.0030070168 0.83055484 0.10204419 0.54750848 0.071595915
-0.35131145 -0.033669543 -0.0091932612 0.80329472 0.06276726 0.59226495 0.075522229
0.35505033 -0.034738693 -0.0041454108 -0.8003704 0.098570243 0.5913468 0.073036827
0.37154058 -0.033861663 -0.0018145156 -0.81270707 0.1623528 0.55959707 0.071252882
-0.36769807 -0.029594501 -0.0077639832 0.80743009 0.083363459 0.58404374 0.074928954
-0.35368642 -0.024833983 -0.0068740533 0.77510744 0.065927304 0.62838048 0.07859192
0.35657233 -0.021802865 -0.0032608297 -0.74643803 0.07720723 0.66096103 0.079351582
0.37091827 -0.020124391 -0.0040121758 -0.80608422 0.039875384 0.59045595 0.081785515
-0.36976287 -0.011814022 -0.0064658518 0.75636679 0.016376114 0.6539427 0.074865818
-0.35704851 -0.012205116 -0.0033706974 0.78844815 -0.024141729 0.6146273 0.079613417
0.36893028 -0.010501134 -0.0077917101 -0.7596128 0.02811427 0.64976764 0.07793273
0.37194875 -0.012957297 -0.0032029031 -0.81512696 0.024908815 0.57874656 0.084358133
-0.37184626 -0.008286301 -0.0037926547 0.75555414 0.025720708 0.65458107 0.078249723
-0.36969417 -0.001079866 -0.0075803883 0.75651187 -0.02738151 0.65340644 0.080179721
-0.35588479 -0.0012330766 -0.0061372793 0.79550034 -0.0084196394 0.60589463 0.08064843
0.35690972 -0.0071327235 -0.0041541606 -0.76121867 0.029294457 0.64783329 0.078069508
0.36864495 -0.0012023834 -0.0090831257 -0.78829616 -0.061174359 0.61224729 0.07949423
-0.37152484 0.00030168972 -0.0050119301 0.72929204 -0.07051523 0.68055916 0.077080578
-0.35607791 0.0082149059 -0.0052431575 0.81666678 -0.063539959 0.57360089 0.0806811
0.35807452 0.0049658166 -0.0026902892 -0.80709809 -0.12307281 0.57744765 0.073622629
0.37382728 0.0037604368 -0.001361661 -0.8064357 -0.095797896 0.58351022 0.083393164
-0.37132812 0.016229047 -0.0037890698 0.72041011 -0.093693241 0.68719059 0.075221784
-0.36842263 0.01901645 -0.0077188429 0.70935649 0.021060811 0.70453513 0.076983973
-0.35795951 0.011905638 -0.0022039118 0.73491877 0.034279689 0.67728817 0.08005736
0.35805669 0.014595291 -0.0018124479 -0.84653366 -0.039459728 0.53087068 0.075389467
-0.3561157 0.022200689 -0.003877053 0.79130882 0.038164727 0.61022443 0.088259064
0.35762429 0.026302656 -0.0013330397 -0.85264868 -0.068155296 0.51802033 0.083565742
-0.3717953 0.032024935 -0.0016205995 0.82196867 -0.049046956 0.56741679 0.077916376
-0.36642119 0.030010458 -0.0095674703 0.84028959 -0.0030463792 0.54212934 0.081540093
-0.35538489 0.033864256 -0.0038288862 0.84799945 -0.07812877 0.52420682 0.079431936
0.35424808 0.03489285 -0.0053594033 -0.83381134 -0.12864545 0.53685093 0.084665641
0.3670744 0.038663927 -0.0078061642 -0.83586526 -0.040333267 0.54745102 0.083188012
-0.3677516 0.046277851 -0.0061084772 0.84092557 -0.1106813 0.52971101 0.081779532
-0.3540529 0.04587834 -0.0045496025 0.79135704 -0.10350271 0.60252905 0.076569423
0.3549346 0.043933123 -0.0033806066 -0.79635292 -0.066198781 0.60119849 0.082102954
0.36733964 0.042550884 -0.0070556588 -0.81024075 -0.097065084 0.5780037 0.081522875
0.37003613 0.040006671 -0.0034045861 -0.80053967 0.0079206377 0.59922743 0.084961019
-0.35425973 0.054490156 -0.0020439383 0.81012213 -0.21104772 0.54695618 0.079185463
0.34853232 0.052975371 -0.0098967515 -0.76531106 -0.15264347 0.6252991 0.075425044
0.36778656 0.055646785 -0.0038162575 -0.76529759 -0.0503411 0.64170504 0.079408355
-0.36543113 0.062687449 -0.0051709157 0.82895881 -0.11515617 0.54732662 0.073214568
-0.35196221 0.061797407 -0.003231338 0.8062399 -0.088882633 0.58487374 0.07648056
0.34817728 0.062936053 -0.0079982355 -0.77091992 -0.13147315 0.62321526 0.077067532
0.35140514 0.06276311 -0.0037447154 -0.73251593 -0.11956812 0.67016703 0.071598768
-0.36307436 0.073385343 -0.00549547 0.83682799 -0.095918059 0.53899765 0.073994651
-0.34852046 0.074132994 -0.004621299 0.79207975 -0.11965273 0.59857571 0.077018477
0.34604639 0.074353673 -0.007834591 -0.73473126 -0.11228032 0.66900152 0.085429423
0.35989261 0.0757256 -0.0093486998 -0.77087355 -0.16986945 0.61392045 0.086730637
0.36330032 0.074738964 -0.0047930158 -0.76142192 -0.16245605 0.62757045 0.086389348
-0.3605271 0.088024229 -0.0049782712 0.81314707 -0.14750756 0.56305718 0.074537016
-0.35959598 0.088163786 -0.0062597562 0.807275 -0.16740723 0.56593448 0.075182997
-0.34699515 0.086389869 -0.0033372319 0.77280086 -0.17396314 0.61034065 0.077540755
0.34283572 0.082113534 -0.0097807376 -0.7674278 -0.16432318 0.61971968 0.084317632
0.35875952 0.086589292 -0.007890624 -0.79648405 -0.16109523 0.5828048 0.082163036
0.36094326 0.085130259 -0.0052045411 -0.76643151 -0.15186942 0.62411422 0.083974823
-0.3592211 0.096260563 -0.0042954804 0.78723907 -0.23334938 0.57079136 0.075708494
-0.3424058 0.096946634 -0.005698239 0.7122919 -0.32965344 0.61965227 0.075383827
0.3448472 0.092305869 -0.0045104045 -0.80645978 -0.17378601 0.56517351 0.07650654
0.35757706 0.092357807 -0.0079403147 -0.80824876 -0.18838286 0.55789411 0.074456967
-0.3552345 0.10472549 -0.0060300799 0.72784221 -0.34249824 0.59408814 0.074830502
-0.33580059 0.1089675 -0.0089018997 0.72352642 -0.30667332 0.61843425 0.077209309
0.34062406 0.104665 -0.004758575 -0.76871765 -0.18404745 0.61253542 0.075416818
0.3568072 0.10234959 -0.0049806852 -0.78009486 -0.25880334 0.56962514 0.077476241
-0.35342818 0.11593796 -0.0032911524 0.73361921 -0.30947649 0.60500187 0.07385987
-0.34541565 0.11540213 -0.0038747238 0.70950449 -0.27615851 0.64833629 0.071094476
-0.33421117 0.11946069 -0.0066470616 0.73152983 -0.26217374 0.62938786 0.078470491
0.33512405 0.11600807 -0.0068550161 -0.70363486 -0.28926185 0.649019 0.080084406
0.35072434 0.11219189 -0.0087359296 -0.79685473 -0.20006557 0.57008451 0.071161136
-0.34802571 0.12668441 -0.0056941649 0.74773604 -0.28361472 0.6003778 0.0782772
-0.33442047 0.12507458 -0.0037744951 0.75543195 -0.30018282 0.58241975 0.075015448
0.33296952 0.12679645 -0.0049513262 -0.70566267 -0.32051462 0.63191026 0.084832273
0.3473233 0.12550929 -0.0072025442 -0.78708214 -0.28464711 0.54724556 0.078391992
0.35052162 0.12808509 -0.0016245104 -0.8157593 -0.27335137 0.50972134 0.074098304
-0.33366275 0.13453063 -0.0004439551 0.71121603 -0.27046642 0.64886034 0.069276251
0.33187664 0.13915005 -0.00044850167 -0.75244898 -0.36581001 0.54772574 0.083271965
0.34620532 0.13339497 -0.005067504 -0.76667374 -0.33274195 0.54908478 0.072662368
-0.32353598 0.14554544 -0.0069830297 0.78363502 -0.31789547 0.53372157 0.076548487
0.32286456 0.14215134 -0.0095753577 -0.69036847 -0.35631776 0.62962615 0.080170117
0.33524907 0.14141104 -0.005261193 -0.72077227 -0.35669228 0.59435505 0.084774807
0.34299654 0.14624341 -0.0027599898 -0.75714368 -0.37930185 0.53184927 0.074697375
-0.33749801 0.15435493 -0.0047037103 0.72298288 -0.37937748 0.57738072 0.069143213
0.32005036 0.15368336 -0.0064421203 -0.69883746 -0.35045311 0.62354535 0.076505266
0.337165 0.15252471 -0.006306489 -0.76476347 -0.41168651 0.49563199 0.071186572
-0.33343977 0.16336577 -0.00420374 0.75698858 -0.31603599 0.57191747 0.081827119
-0.32016879 0.16227655 -0.00083841383 0.75975204 -0.35261846 0.54629391 0.076502562
-0.31669378 0.1697726 -0.00055329222 0.77671766 -0.3062579 0.55037779 0.074967198
0.31386027 0.16581751 -0.0065853037 -0.64260191 -0.40456918 0.65068167 0.085169464
-0.31383443 0.17308073 -0.0021329699 0.78551388 -0.30458534 0.53869808 0.072077006
0.30636585 0.17865156 -0.0076654698 -0.70598298 -0.41005754 0.57744348 0.080466956
0.31237358 0.17208235 -0.0046455394 -0.69183099 -0.35492271 0.62880826 0.078598589
0.3275488 0.1754297 -0.0041281031 -0.64242554 -0.44024944 0.62727171 0.073094308
-0.32196492 0.18512066 -0.0050612413 0.78048646 -0.30369681 0.54645133 0.071338072
-0.3056598 0.18371493 -0.0046693534 0.66232204 -0.36032587 0.65688264 0.080350526
0.30170622 0.18549767 -0.0078183431 -0.66997522 -0.40922061 0.6194123 0.075880207
0.32188705 0.18695354 -0.0038371943 -0.68702513 -0.40917081 0.60047954 0.081400976
-0.3159495 0.19571792 -0.0040162979 0.69982952 -0.43974724 0.56290418 0.078793645
-0.29737666 0.1937366 -0.0064677186 0.69618523 -0.43517512 0.57091922 0.080962263
0.29496264 0.19573727 -0.0077210562 -0.6669662 -0.46585724 0.58149213 0.076491475
0.31511408 0.19477513 -0.0057785856 -0.73777777 -0.39370894 0.54834038 0.076102518
-0.31278485 0.20167126 -0.0030382373 0.71270728 -0.49701676 0.49499774 0.080986768
-0.30919948 0.20341124 -0.0059519066 0.63516903 -0.51197612 0.57830846 0.082838103
-0.29397374 0.20239532 -0.0037769619 0.631787 -0.53679985 0.55918783 0.081982292
-0.28982356 0.20904461 -0.0034278624 0.70575798 -0.47808015 0.52282411 0.077691555
0.28695685 0.2084153 -0.0071380017 -0.69778335 -0.43842381 0.56646538 0.079924226
0.29522753 0.20378989 -0.0011703952 -0.68094206 -0.46680468 0.5642795 0.079898238
0.31081465 0.20168397 -0.0053974343 -0.66453528 -0.40989867 0.62480074 0.072749518
-0.30209425 0.21227202 -0.0073765479 0.69997436 -0.46086952 0.54555959 0.069456086
-0.2847783 0.2136647 -0.0056064744 0.69362843 -0.50390404 0.51474297 0.071227849
0.28399828 0.21447924 -0.0060443771 -0.66375721 -0.47580993 0.57708871 0.085823812
0.29859042 0.21581388 -0.0087441653 -0.67374593 -0.5004524 0.54370368 0.076806583
-0.29476613 0.22935224 -0.0019886028 0.71012425 -0.47800341 0.51694912 0.074323818
-0.27506047 0.22748168 -0.0038981875 0.61550742 -0.58954084 0.52306044 0.074180938
0.27888575 0.22045827 -0.0064152433 -0.71430057 -0.43599674 0.54743171 0.078852952
0.28117007 0.22283083 -0.0017081066 -0.65771973 -0.51320112 0.5513885 0.083336122
0.29520714 0.2260008 -0.0044271192 -0.70987052 -0.48921046 0.50671184 0.078522071
-0.28837273 0.23297034 -0.0054906392 0.64670044 -0.53647047 0.54219741 0.071899474
-0.27170742 0.23196948 -0.0032698947 0.55617309 -0.62040079 0.55296868 0.075950958
-0.26461044 0.23920876 -0.004076832 0.58644831 -0.55920249 0.58597869 0.080542929
0.26852709 0.23337817 -0.005339107 -0.59479684 -0.57856226 0.55810612 0.07709308
0.28657031 0.23553257 -0.0050071799 -0.63564551 -0.54565936 0.54608673 0.075283505
-0.28391239 0.24357116 -0.00023138589 0.55904251 -0.63006252 0.53897369 0.077381372
-0.27705619 0.24212815 -0.0090632588 0.57488108 -0.61984289 0.53414088 0.080641903
-0.26105422 0.2419576 -0.0053121466 0.54813117 -0.56072301 0.62059802 0.085322738
-0.25781462 0.24932635 -0.0018369558 0.5861131 -0.54265332 0.60166341 0.079597361
0.25900379 0.24698187 -0.0027717697 -0.57436448 -0.53794676 0.61702406 0.084278837
0.26114345 0.24725884 -0.00020245626 -0.57365853 -0.57152975 0.5867449 0.090836056
0.27686802 0.24676731 -0.0048437025 -0.59943599 -0.55583918 0.57595068 0.079809122
0.2803643 0.24697578 -0.00084287347 -0.64335382 -0.52315354 0.55893296 0.074887782
-0.27202317 0.2552039 -0.0020665727 0.61281466 -0.56107962 0.55646002 0.07230372
-0.25422874 0.25177008 -0.0033809557 0.57462907 -0.54903197 0.60693103 0.078633323
0.24779885 0.25360876 -0.0075250319 -0.54715639 -0.58924639 0.59448183 0.088657856
0.25083447 0.25761673 -0.00062413258 -0.53292364 -0.59797043 0.59868497 0.089388363
0.26424459 0.25715533 -0.0086642802 -0.64324003 -0.50711823 0.57364923 0.08259435
0.27566293 0.2529543 -0.00025394466 -0.55066413 -0.58093709 0.5994007 0.076621644
-0.26225939 0.26703429 -0.00076313433 0.57019269 -0.56730545 0.5941757 0.085888907
-0.25655311 0.26638702 -0.0069088521 0.56768733 -0.52310139 0.63568544 0.076788917
-0.23865812 0.26233232 -0.0070166499 0.51522201 -0.52101535 0.68050659 0.080064356
-0.22965766 0.269225 -0.0079119597 0.49665514 -0.60682899 0.62055802 0.076346807
0.22908902 0.26814958 -0.0093205869 -0.50364602 -0.57643175 0.64348048 0.075030871
0.24180692 0.26224613 -0.0041693198 -0.53566235 -0.63292819 0.55898815 0.083426066
0.2585201 0.26456758 -0.0070115291 -0.49161917 -0.63449234 0.59643102 0.082707278
0.26276296 0.26354057 -0.0040821112 -0.57507366 -0.6153 0.5391624 0.085089035
-0.25212398 0.27232891 -0.004671243 0.53786033 -0.57852918 0.61319679 0.082708552
-0.24720675 0.27945173 -0.0016149723 0.51924735 -0.63196945 0.57532316 0.073148832
-0.23558673 0.27688634 -0.0048493715 0.51613736 -0.61921304 0.59175789 0.073241085
-0.22467752 0.27626011 -0.0052261208 0.49522367 -0.58722264 0.64025235 0.077476338
0.22393075 0.2759698 -0.0059882039 -0.49458653 -0.62361389 0.60538411 0.078389131
0.23071004 0.27429679 -0.0016686288 -0.53842229 -0.58024538 0.61107838 0.073400512
0.24864508 0.27829137 -0.001505135 -0.54219753 -0.60849118 0.57944846 0.084357537
0.25172722 0.27410686 -0.0031162247 -0.55636817 -0.56559092 0.60873753 0.078371115
-0.24333242 0.28266007 -0.0018209162 0.48905608 -0.69673216 0.52477467 0.069858797
-0.23632537 0.28679562 -0.0040060966 0.55067682 -0.61467135 0.56474245 0.078529619
-0.22237325 0.28101119 -0.0023121461 0.53201801 -0.62467694 0.57160789 0.07723543
-0.21498746 0.28453293 -0.004833648 0.45555866 -0.59344071 0.66354686 0.072623506
-0.20569064 0.28818741 -0.007798186 0.50510359 -0.60620725 0.61431515 0.083396979
0.2069131 0.28865185 -0.006311493 -0.44658422 -0.67542231 0.58682805 0.075671844
0.21786822 0.28301984 -0.0042028036 -0.46590745 -0.63503861 0.6161626 0.087744273
0.22125384 0.28307718 -0.0011429347 -0.49684525 -0.55361718 0.66832095 0.086231969
0.23751523 0.28611204 -0.0036146888 -0.57356089 -0.58399367 0.57443821 0.091686606
0.24223796 0.28199923 -0.0035832776 -0.55073845 -0.577905 0.60225648 0.08534243
-0.22303928 0.29549021 -0.006666522 0.49023888 -0.62417424 0.60833579 0.071891703
-0.21766931 0.29821521 -0.0077044843 0.4482995 -0.63104534 0.63309497 0.085082725
-0.20606497 0.29310685 -0.0018865997 0.45177758 -0.63374472 0.62790501 0.090434097
-0.19190276 0.29934809 -0.0057286676 0.40308434 -0.63922542 0.65491503 0.079934262
0.19357611 0.29699671 -0.0069641718 -0.38257241 -0.69062299 0.61374122 0.073565446
0.20410758 0.29365435 -0.0027933845 -0.47413519 -0.67174131 0.56917435 0.084500946
0.2238553 0.29670995 -0.0045438856 -0.47078484 -0.62761211 0.6200521 0.076850273
0.23210347 0.29285899 -0.0014387986 -0.50889778 -0.62187314 0.59522837 0.075084575
-0.22115925 0.30074626 -0.0018562565 0.47696477 -0.67354518 0.56466049 0.082900912
-0.21396765 0.30704409 -6.1255472e-05 0.43651456 -0.67862457 0.59069771 0.091877714
-0.20553185 0.30695814 -0.0069433418 0.48742834 -0.64722824 0.58609664 0.083391257
-0.19907324 0.30875123 -0.009976767 0.46466404 -0.66660386 0.58286065 0.089555465
-0.1840062 0.3015402 -0.0089688962 0.41990393 -0.62924641 0.65401047 0.079403818
-0.17642385 0.30790958 -0.0072144447 0.3340489 -0.69702542 0.63448167 0.07652875
0.1828613 0.30400181 -0.0072898204 -0.45650187 -0.67133301 0.5838818 0.077080294
0.19226748 0.30278623 -0.0013377303 -0.4456715 -0.66425973 0.60011321 0.085987478
0.216103 0.30387372 -0.0021581361 -0.43381393 -0.68005705 0.59103978 0.069975197
-0.20241903 0.31128073 -0.0042462694 0.44993359 -0.66844672 0.59223205 0.085033864
-0.19756126 0.31039345 -0.0092168152 0.41631517 -0.69595546 0.58508784 0.08437562
-0.18684611 0.31841102 -0.0081850737 0.37137944 -0.71699655 0.58990967 0.075084463
-0.17083061 0.316522 -0.00010307052 0.38921449 -0.67376101 0.62813854 0.078738786
-0.16590661 0.31143197 -0.0092740785 0.27107102 -0.67741084 0.68383849 0.074969955
-0.15703072 0.31689331 -0.0079615749 0.29278666 -0.66237473 0.68959093 0.070194408
0.15595466 0.31876412 -0.0064382916 -0.3055172 -0.76903248 0.56146973 0.084244959
0.16611813 0.31674233 -0.0028092163 -0.35978457 -0.72774315 0.58390492 0.081359439
0.17229456 0.31292722 -0.0037987542 -0.4208633 -0.66199642 0.62018937 0.075864054
0.19467713 0.31940824 -0.00069312518 -0.43415821 -0.67095345 0.60110575 0.081540421
0.20319228 0.31223938 -0.0024720188 -0.44919613 -0.71057385 0.54157889 0.082791977
-0.19082996 0.32163501 -0.0011065961 0.42304924 -0.69474459 0.58168656 0.079181902
-0.18520179 0.32275423 -0.0037829366 0.40655872 -0.70494467 0.58117372 0.084096573
-0.17536783 0.32381377 -0.0090127513 0.33358127 -0.6766876 0.65636694 0.080144271
-0.1664395 0.32898754 -0.0080129206 0.27486655 -0.71430826 0.64359313 0.079578735
-0.14565553 0.32692868 -0.0026866235 0.33336675 -0.72443885 0.60336965 0.087264702
-0.13960257 0.32875124 -0.0041819443 0.25308678 -0.71041679 0.65670013 0.082966752
0.13658909 0.32838145 -0.0064027314 -0.25527802 -0.71812266 0.64740479 0.087476589
0.15047742 0.32543319 -0.0015514777 -0.31029457 -0.71271008 0.62909585 0.091054946
0.16139077 0.32114974 -0.00013843179 -0.35218278 -0.69456655 0.62733132 0.083555616
0.17180392 0.32548919 -0.0091193095 -0.38264611 -0.72579485 0.57166755 0.081485391
0.18403216 0.32566091 -0.0010739923 -0.39499575 -0.69401723 0.60192889 0.07520628
-0.17009053 0.33161971 -0.0022628116 0.35220289 -0.75304699 0.55576372 0.083377644
-0.16445303 0.33362183 -0.003271987 0.29468775 -0.75495964 0.5858286 0.082215518
-0.1565976 0.33567199 -0.0056376942 0.35833609 -0.71873319 0.59583384 0.086798139
-0.14851424 0.33800372 -0.0077840299 0.35014281 -0.74075127 0.57331294 0.086591266
-0.13253438 0.33176804 -0.0039377743 0.30565453 -0.69968933 0.64576316 0.081293337
-0.12275118 0.33755964 -0.00058206666 0.29299727 -0.74283159 0.60195845 0.083971076
-0.11470632 0.33539867 -0.0069980468 0.29525024 -0.70997834 0.63934195 0.077851586
0.10374658 0.33772588 -0.0087294523 -0.29436895 -0.72397631 0.62386316 0.080044635
0.11222756 0.33703965 -0.006140219 -0.25111708 -0.70893312 0.65905547 0.07430172
0.12375604 0.3354854 -0.0029360186 -0.29001629 -0.73973018 0.6071983 0.078672662
0.14035073 0.33067566 -0.0012317481 -0.36114511 -0.71414298 0.5996449 0.090429343
0.15437776 0.33414426 -0.0090395873 -0.35666066 -0.74500442 0.56370354 0.095100351
0.16024135 0.33328369 -0.0064049601 -0.33536252 -0.73820651 0.58530599 0.085845724
-0.15502159 0.34007028 -0.00094045629 0.35822168 -0.77056068 0.52717501 0.089219771
-0.14573546 0.34330449 -0.002685457 0.31297353 -0.7303794 0.60711908 0.085352853
-0.13718475 0.34579721 -0.0038644967 0.31953487 -0.76987326 0.55244243 0.08251933
-0.12775272 0.34836832 -0.0047282539 0.29782009 -0.76895577 0.56569457 0.083594024
-0.10450467 0.3401905 -0.0054213484 0.25143677 -0.76077646 0.59832996 0.081848755
-0.086773396 0.34484163 -0.0059855781 0.17089571 -0.77659976 0.60637242 0.083076447
-0.078850247 0.34867835 -0.003079148 0.21544877 -0.78566837 0.57991993 0.078906521
-0.064446859 0.34815943 -0.0076682917 0.21514137 -0.70954883 0.6710102 0.074002244
0.060842719 0.34704503 -0.0098060677 -0.061393879 -0.82251847 0.56541508 0.077199034
0.086651325 0.34419847 -0.0070989062 -0.20897393 -0.71410567 0.66811895 0.076072782
0.09463083 0.34476683 -0.0036634225 -0.20884837 -0.77747804 0.59322017 0.082923755
0.10071228 0.3439436 -0.0020723038 -0.27936369 -0.76839864 0.57577729 0.081205048
0.12769881 0.34911972 -0.0037241713 -0.23977074 -0.75256222 0.61331892 0.074173443
0.1384508 0.34430888 -0.0053143119 -0.27822688 -0.7954818 0.53832942 0.083437093
0.14547332 0.34264702 -0.0037059849 -0.32225204 -0.77317089 0.54622358 0.081383146
0.15206134 0.34134585 -0.001179449 -0.35947943 -0.76512498 0.53418946 0.078293636
-0.12373912 0.35178173 -0.0019192328 0.29811698 -0.80253929 0.51677543 0.07648126
-0.11093986 0.35187301 -0.0077448506 0.23433493 -0.7949093 0.55964845 0.076960027
-0.10363762 0.35656357 -0.0047155521 0.29694286 -0.78018135 0.55058342 0.076551892
-0.094415717 0.35776132 -0.0069201412 0.18916436 -0.81067479 0.55409682 0.081220232
-0.081161059 0.35897207 -0.009120835 0.16465904 -0.79146665 0.58861524 0.076381959
-0.044706009 0.35178113 -0.0077762818 0.071221426 -0.78417766 0.61643553 0.075536005
-0.034036521 0.35377559 -0.0059303106 -0.023512475 -0.77016151 0.63741547 0.068357274
-0.011322761 0.35586852 -0.0052512838 0.072528712 -0.78349715 0.61714804 0.075784042
-0.0055286582 0.35497925 -0.006861493 0.063238859 -0.80443376 0.59066665 0.078360029
0.0065192701 0.35454392 -0.0073856246 -0.046673145 -0.7737937 0.63171571 0.085606508
0.017263297 0.35630488 -0.0039597494 -0.042317726 -0.78946096 0.61234033 0.080797866
0.027620157 0.35552722 -0.0040658126 -0.022278694 -0.78764915 0.61572117 0.078362018
0.035958637 0.35510764 -0.0040292447 -0.10880558 -0.80024737 0.58971655 0.082204476
0.049992926 0.35576713 -0.0011818553 -0.043761421 -0.79517901 0.60479349 0.090991937
0.062329337 0.35310411 -0.0014760855 -0.14464094 -0.79139793 0.59394306 0.079510227
0.080653653 0.35946375 -0.0085665043 -0.13328312 -0.78291124 0.60768878 0.077268824
0.095803738 0.35937604 -0.0044160043 -0.28928295 -0.77197307 0.56601501 0.077336751
0.10410849 0.35636559 -0.0047677699 -0.26573202 -0.78455055 0.56023824 0.08083874
0.11375287 0.35332212 -0.0044523468 -0.2911036 -0.75019681 0.59368622 0.069733225
0.1302745 0.35078061 -0.00025191857 -0.34940296 -0.78579271 0.51034051 0.075992964
-0.086890325 0.36205426 -0.0031318655 0.20262504 -0.79309624 0.57440519 0.07221505
-0.076195166 0.36577976 -0.0008648521 0.19795471 -0.81275636 0.54794252 0.07686244
-0.068528958 0.36498174 -0.0041601262 0.16099676 -0.8001523 0.57778573 0.07584735
-0.055089727 0.36491895 -0.0080413725 0.089225553 -0.84130925 0.53313929 0.074007034
-0.042239659 0.36821324 -0.0058242101 0.11785468 -0.78379518 0.60973382 0.08208935
-0.0073797968 0.36870617 -0.0084103877 0.0059932228 -0.79187876 0.61064881 0.075079724
0.014593484 0.3699286 -0.005963739 -0.075505592 -0.7886101 0.61024016 0.075813875
0.025698347 0.36871123 -0.006670306 -0.054428682 -0.81815314 0.57241851 0.080634102
0.049612954 0.36714199 -0.0064331954 -0.10802554 -0.75387484 0.64807647 0.08425542
0.055047948 0.36678004 -0.0054130089 -0.061552666 -0.81982756 0.56929255 0.089778453
0.064604059 0.36569005 -0.0042627985 -0.16088034 -0.80827159 0.56640506 0.090969652
0.079163238 0.36007205 -0.0081241401 -0.13329943 -0.78295624 0.60762733 0.077231117
0.085225791 0.36126292 -0.0047241305 -0.12902118 -0.80910611 0.57332432 0.073479287
0.096724883 0.36086407 -0.0020394186 -0.26658672 -0.74799573 0.60781062 0.080956206
-0.051644247 0.37069494 -0.0008199052 0.096644275 -0.7959795 0.59755886 0.076377131
-0.026853058 0.37088853 -0.0034185371 0.045745406 -0.78099811 0.62285572 0.067982301
-0.011932109 0.37150684 -0.0039376323 0.014355922 -0.75401729 0.65669775 0.079594702
-0.0029763507 0.37131855 -0.0050565824 0.04655432 -0.77516663 0.63003916 0.083397038
0.0037593616 0.37438539 -0.00055622309 -0.016563078 -0.85507965 0.51823199 0.088777073
0.017483274 0.3725211 -0.0019487059 -0.12940164 -0.7750048 0.61856508 0.071183845
0.040184192 0.37097085 -0.0020387173 -0.080992483 -0.8054136 0.58715332 0.083252668
-0.0010535698 -0.38117945 0.0089934655 0.049152404 0.86386448 0.50132042 0.083498396
0.012140512 -0.38014185 0.0085447514 -0.040240772 0.86436284 0.50125587 0.076290809
-0.084249184 -0.37147999 0.0094939508 0.21416122 0.79479438 0.56783521 0.080139726
-0.074708939 -0.37251595 0.0082716318 0.16331582 0.85610986 0.49030998 0.085094124
-0.064901687 -0.37339249 0.006747745 0.092664912 0.85442591 0.51124316 0.07972841
-0.054099631 -0.37419572 0.0048391446 0.057708625 0.88340533 0.4650428 0.079857446
-0.043178726 -0.37501225 0.0040773982 0.068128251 0.85519052 0.51381671 0.078278363
-0.037355065 -0.37680024 0.0061071329 0.040862899 0.85569698 0.51586127 0.074952669
-0.023215368 -0.3762036 0.0039083683 0.097338215 0.86764807 0.48755729 0.084187366
-0.01553801 -0.37722936 0.0046626194 0.064605772 0.86593771 0.49596161 0.076310627
-0.0067822807 -0.3776243 0.004404353 0.027729675 0.84911025 0.52748722 0.088873893
0.0073075052 -0.37671342 0.0031393622 -0.0042207981 0.85119861 0.52482665 0.076435506
0.012046108 -0.3767103 0.0035831183 -0.045555152 0.86239278 0.50418586 0.078414932
0.023704277 -0.37632373 0.0041280147 -0.10011416 0.83827043 0.53598481 0.085003763
0.036019322 -0.37822148 0.0080319839 -0.12193064 0.8292613 0.54539776 0.068728901
0.04650782 -0.37503725 0.0044284216 -0.089754961 0.87533629 0.47511092 0.080382586
0.054079451 -0.372334 0.0021923992 -0.1517444 0.87296164 0.46358567 0.0744287
0.06014559 -0.3756544 0.0086143836 -0.046230979 0.84064287 0.53961307 0.072050005
0.077191494 -0.37130237 0.0072505041 -0.10003478 0.8458162 0.52401143 0.071214601
0.087719366 -0.37076655 0.0094611244 -0.11912696 0.81667 0.56467587 0.072083324
-0.11390483 -0.36177304 0.007192831 0.3051419 0.83024943 0.46644858 0.081170298
-0.10115177 -0.36748528 0.0090872403 0.3343212 0.80074221 0.49703249 0.070890494
-0.098379135 -0.3675229 0.0078676883 0.26404333 0.81787658 0.51123285 0.072980769
-0.08693336 -0.36673003 0.0035131993 0.19124471 0.78618073 0.58766085 0.078013882
-0.078228995 -0.36956584 0.0050799409 0.19451749 0.8204537 0.53760463 0.080164209
-0.045673955 -0.36162609 0.0062116496 0.13487753 0.83438253 0.53442848 0.074269757
-0.036316358 -0.36152765 0.0051929336 0.095435619 0.84401989 0.52775222 0.087278664
-0.014616977 -0.36295614 0.0052018352 -0.01082147 0.85543269 0.51780105 0.081603453
-0.006104175 -0.36570439 0.0083366754 0.029794727 0.84798932 0.52917528 0.086550198
0.0048243906 -0.36150691 0.0022090087 -0.005179232 0.81204021 0.58357859 0.084754653
0.013786612 -0.36386788 0.0064289058 -0.039607435 0.8124364 0.58170295 0.083007976
0.022704419 -0.36367556 0.006990246 -0.042333946 0.81108493 0.58339441 0.083290689
0.036423799 -0.36125341 0.0048105712 -0.068066627 0.85680795 0.51112336 0.081945531
0.044086643 -0.36378455 0.0091520585 -0.12902284 0.87234372 0.47156075 0.077253148
0.063480385 -0.36920217 0.00040239349 -0.10338079 0.84554368 0.5238018 0.07571739
0.085540295 -0.36916417 0.0065731253 -0.15811278 0.81643963 0.55536169 0.069970533
0.094862968 -0.36797559 0.0075177001 -0.23905903 0.79662549 0.55519241 0.080757722
0.10734681 -0.36224008 0.0047835228 -0.31742427 0.76560318 0.55954754 0.078668922
0.11016062 -0.36403638 0.0085519496 -0.318609 0.77386844 0.54737186 0.072139375
-0.13494809 -0.35093576 0.002133396 0.29661444 0.81119245 0.5039708 0.076205947
-0.1225744 -0.35542059 0.0025231256 0.29399896 0.8173632 0.49546137 0.076767854
-0.1179461 -0.35855174 0.0046597403 0.31362548 0.82209408 0.47518453 0.084396221
-0.10345162 -0.35058928 0.0082167694 0.27861401 0.78957301 0.54676199 0.078763261
-0.09732338 -0.35140187 0.0064950418 0.25620735 0.78355378 0.56604004 0.081360146
-0.086921498 -0.3541114 0.0068223905 0.21866976 0.78095937 0.58505225 0.079286188
-0.072401389 -0.35810679 0.0083798189 0.15002334 0.79066378 0.59358543 0.078366153
-0.064699948 -0.35802087 0.0061039566 0.1283419 0.76455766 0.63164854 0.081378892
-0.055091273 -0.35828468 0.0037863431 0.1059514 0.8285203 0.54984403 0.082020536
-0.044671476 -0.35774165 0.0005580599 0.13623267 0.81007129 0.57028514 0.083004639
-0.02516412 -0.35949972 0.0012442814 0.078306861 0.82913756 0.5535332 0.081674919
0.022550035 -0.35904822 0.00035288604 -0.0064790957 0.8071034 0.59037459 0.086712785
0.054867994 -0.35798705 0.0033051553 -0.13698088 0.84070736 0.52387732 0.077550046
0.066405691 -0.35694355 0.0050657224 -0.083884589 0.8002907 0.59371561 0.083956808
0.072485313 -0.35565734 0.0049575018 -0.12920319 0.77893358 0.61365217 0.077609323
0.084117457 -0.35341492 0.0050579514 -0.17569453 0.71625119 0.67536342 0.075405352
0.098586001 -0.35337195 0.0097529422 -0.28364709 0.74372113 0.60532916 0.07333789
