# .PCD v0.7 - Point Cloud Data file format
VERSION 0.7
FIELDS x y z normal_x normal_y normal_z curvature
SIZE 4 4 4 4 4 4 4
TYPE F F F F F F F
COUNT 1 1 1 1 1 1 1
WIDTH 590
HEIGHT 1
VIEWPOINT 0 0 0 1 0 0 0
POINTS 590
DATA ascii
-0.344816 -0.16409637 -0.036420349 0.70093429 0.25572914 0.66580307 0.16638069
0.33945769 -0.16951658 -0.039724384 -0.64015949 0.25132889 0.72596794 0.17863278
0.34547138 -0.16134229 -0.036935478 -0.62842214 0.17124198 0.75878978 0.2169399
0.351309 -0.16232195 -0.030309379 -0.59754604 0.52809989 0.60336494 0.24324138
0.37856504 -0.16612995 -0.03801351 -0.35592303 0.20553125 0.91163349 0.19454397
0.38395098 -0.16329497 -0.034789145 -0.41095152 0.18501779 0.89268541 0.18423605
-0.39316353 -0.15281351 -0.031060025 0.51112449 0.27088946 0.8157025 0.18710642
-0.38391912 -0.15196998 -0.038404852 0.045553692 -0.068027519 0.99664295 0.19393888
-0.35041434 -0.15653819 -0.033801429 0.70850599 0.33678171 0.62015915 0.20166901
-0.34588307 -0.15511866 -0.039234512 0.78052217 0.29611176 0.55054778 0.14260317
0.34769976 -0.15724052 -0.03637363 -0.8047753 0.2463147 0.54006088 0.22482908
0.38204989 -0.15729076 -0.038148604 -0.48240304 0.21301895 0.84965301 0.22396564
-0.39450997 -0.14199257 -0.033460699 0.57132053 0.18368389 0.79990822 0.22924851
-0.35677549 -0.14265974 -0.033151392 0.72017813 0.34942305 0.59937221 0.22505108
0.35166386 -0.14786501 -0.036288079 -0.80037701 0.31917709 0.50746685 0.19274995
0.38521045 -0.14558175 -0.039442051 -0.35604355 0.24565606 0.90160197 0.21530236
0.39503077 -0.14746174 -0.031327598 -0.58577955 0.35587046 0.7281611 0.20143233
-0.4021484 -0.1324662 -0.030633789 0.37755993 0.31026098 0.87246013 0.20580466
-0.39263248 -0.13839893 -0.036037616 0.36247581 -0.080314167 0.92852628 0.21179901
-0.36066824 -0.13429347 -0.032697905 0.67752481 0.34437716 0.64989573 0.20205846
-0.35809672 -0.13798714 -0.033803269 0.76486522 0.30571935 0.56702453 0.19770718
0.35652041 -0.13346656 -0.037463501 -0.71014559 0.34103918 0.61594284 0.17343576
0.36256325 -0.1312483 -0.032025386 -0.67722446 0.36271325 0.64016104 0.21171539
0.38808417 -0.13922533 -0.039257672 -0.52567303 0.028997041 0.85019231 0.16224869
0.398931 -0.13839866 -0.031215673 -0.58231133 0.27121258 0.76639235 0.18864033
0.40167624 -0.13525389 -0.030111259 -0.60672694 0.082589708 0.79060817 0.17220673
-0.40141666 -0.12105872 -0.034811445 0.36994624 0.17667873 0.91209894 0.18705735
-0.39385119 -0.12857586 -0.038219649 0.33946598 0.09235204 0.93607366 0.20894286
-0.3641887 -0.12315077 -0.033859961 0.79818183 0.23352219 0.55531341 0.16341388
0.35820451 -0.12749687 -0.038300425 -0.73237246 0.29244962 0.61490154 0.18329868
0.36135048 -0.12455388 -0.036255348 -0.70985729 0.23260395 0.66482925 0.19528654
0.39599547 -0.12360314 -0.038154949 -0.30489093 0.10210209 0.94689852 0.2235871
0.40343186 -0.12118145 -0.033229746 -0.48575711 0.11119264 0.86699265 0.18274078
-0.4101468 -0.11471307 -0.030140124 0.56454837 0.24358273 0.78863978 0.14085829
-0.40347701 -0.11758351 -0.03433612 0.44711179 0.20813511 0.86992574 0.15573974
-0.39780414 -0.11679853 -0.03892811 0.32484487 0.1690242 0.93054104 0.21130307
-0.36882409 -0.11256249 -0.033595115 0.79935902 0.41192558 0.43742704 0.19729759
0.36944655 -0.11094806 -0.033644218 -0.78609914 0.20983109 0.58139408 0.21885785
0.39716506 -0.11759993 -0.039163243 -0.40237176 0.19236057 0.89503872 0.20918854
0.40459019 -0.11408234 -0.03459416 -0.51610512 0.22222717 0.82719439 0.13951087
-0.41214013 -0.10621348 -0.030427808 0.63621491 0.14237171 0.75826174 0.10763896
-0.40844876 -0.10408364 -0.033690885 0.52368575 0.1462073 0.83927149 0.12500466
-0.37336421 -0.10505103 -0.032078795 0.98244309 0.077434726 0.16973345 0.23115093
-0.36636189 -0.107261 -0.038538769 0.77425599 0.3996172 0.49074823 0.17435364
0.36762401 -0.10563041 -0.037916094 -0.78986692 0.33057508 0.51655626 0.16681668
0.40354618 -0.10539532 -0.037499413 -0.48224312 0.036769576 0.87526542 0.17361547
0.41077885 -0.10016632 -0.032200262 -0.55460662 0.1839619 0.81152296 0.15761071
-0.41338155 -0.095000923 -0.030620664 0.66371715 0.12132927 0.73807776 0.10437906
-0.40692052 -0.095563024 -0.035868067 0.57149029 0.12362561 0.81124318 0.17370683
0.37055898 -0.09309794 -0.038516618 -0.78634977 0.20205614 0.58380413 0.17719346
0.40514153 -0.09426596 -0.037469923 -0.48217231 0.10994743 0.8691498 0.20159425
0.41185552 -0.095356442 -0.03183597 -0.61557049 0.0066344091 0.78805387 0.20138998
-0.41135421 -0.08565028 -0.033297647 0.46650928 -0.10483357 0.87828189 0.19729958
-0.40463877 -0.080404058 -0.039382301 0.67464381 0.049155582 0.73650485 0.15793039
-0.37483507 -0.0862692 -0.034670457 0.80924451 0.10448561 0.57810563 0.19206774
0.37329274 -0.084646896 -0.036670282 -0.75971639 -0.0029629108 0.65024787 0.19152966
0.40929398 -0.087124333 -0.034830838 -0.56090081 0.12045024 0.81907398 0.16384363
0.41246599 -0.085240997 -0.03242851 -0.73380542 0.010595362 0.67927712 0.20500869
-0.41238642 -0.072903469 -0.033828344 0.57984769 0.17538619 0.79562336 0.17869288
-0.40917292 -0.073008716 -0.036457073 0.66383648 0.092436902 0.74214333 0.19088161
-0.37249076 -0.071784653 -0.039512224 0.79959708 0.063477002 0.59717262 0.19022173
0.37195277 -0.07612896 -0.039473608 -0.83634573 -0.016905004 0.54794168 0.15553263
0.40747905 -0.075251587 -0.037606139 -0.45434597 0.18318345 0.87178761 0.21870402
0.41044575 -0.073747486 -0.03533145 -0.421121 0.18838909 0.88722414 0.23750608
-0.37490174 -0.063301109 -0.038038403 0.78272325 -0.0062244725 0.62233877 0.19277298
0.37494254 -0.06670025 -0.037482254 -0.65025413 0.17372674 0.73958677 0.20023713
0.38116071 -0.061632209 -0.031160237 -0.82098901 0.12234672 0.55768126 0.20973235
0.40654913 -0.063354626 -0.039656907 -0.35960731 -0.2106217 0.90902215 0.21358874
0.41077781 -0.06604331 -0.035891961 -0.61353725 -0.07765314 0.78583843 0.17692164
-0.4155674 -0.052941233 -0.033374086 0.53624552 0.025118539 0.84368819 0.18972036
-0.40833235 -0.052176319 -0.03940092 0.44858333 0.073732004 0.89069444 0.19367243
-0.38035581 -0.055821575 -0.032948207 0.65036774 0.1894538 0.73561478 0.25342408
-0.37986085 -0.05184862 -0.034107648 0.57144755 -0.033661064 0.81994796 0.24219225
0.37835044 -0.057443082 -0.034988984 -0.75843072 0.17705004 0.62724489 0.20669845
0.38187429 -0.050728954 -0.031982373 -0.77938592 0.027883975 0.62592334 0.20874406
0.4162218 -0.053107131 -0.032818489 -0.55424678 -0.057581209 0.83035827 0.18237236
-0.41787189 -0.043678537 -0.032482628 0.6267665 0.075252071 0.77556491 0.12434386
-0.40835378 -0.047640014 -0.039873991 0.36746159 0.054148242 0.92846113 0.21970566
-0.38113818 -0.040992878 -0.034280568 0.59786296 -0.047129076 0.80021167 0.2309113
-0.37840956 -0.046435311 -0.036572173 0.71015137 0.12530063 0.69280928 0.22332272
0.37734476 -0.045345437 -0.037948262 -0.80212849 0.0028644167 0.59714454 0.19746059
0.38141072 -0.041218325 -0.033936366 -0.84688944 0.14518878 0.51156485 0.1842857
0.41406292 -0.040073588 -0.036001921 -0.56501198 0.21212763 0.79734766 0.19777668
-0.4142426 -0.037031263 -0.036183354 0.53265816 0.026034033 0.84592992 0.22800401
-0.38158941 -0.032925587 -0.034976248 0.85879278 0.021330137 0.51187891 0.19965367
-0.37781432 -0.038990475 -0.038366355 0.69557577 0.24800909 0.67428911 0.19569501
0.38265496 -0.032389969 -0.033842973 -0.7751295 0.26226106 0.57479864 0.20327577
0.41551584 -0.033369102 -0.035533398 -0.60035944 0.19972947 0.77438796 0.18083975
-0.41231424 -0.023527864 -0.039228223 0.46136719 -0.13503298 0.87687308 0.16968399
-0.38177764 -0.023360722 -0.036196027 0.82922691 0.063555747 0.55528694 0.17894243
0.38568637 -0.024250843 -0.03161088 -0.77798188 0.301772 0.55106974 0.21214814
0.41871694 -0.021605024 -0.034175906 -0.48337254 0.034188591 0.87474692 0.23582479
0.42130002 -0.024515733 -0.031738885 -0.57198662 0.14639883 0.80709273 0.15289545
-0.42387307 -0.012288352 -0.030947484 0.56921005 -0.015915273 0.82203805 0.1944025
-0.41276509 -0.017854292 -0.03947147 0.56656158 -0.053883508 0.82225579 0.2205853
-0.38229668 -0.013319526 -0.037110493 0.83104056 0.1200015 0.54311246 0.18352968
0.38449505 -0.018719161 -0.033797126 -0.77663291 0.25043234 0.57803541 0.19818392
0.41815045 -0.010462328 -0.035846543 -0.51279736 0.047457419 0.85719693 0.18489553
0.42218673 -0.013037058 -0.032251924 -0.602283 -0.063531116 0.79575062 0.17087264
-0.42212525 -0.0056104735 -0.033105724 0.54718888 -0.045016371 0.83579767 0.19809365
-0.38422444 -0.0023052082 -0.03656641 0.80348223 0.076152869 0.59043795 0.2004018
0.38216859 -0.0046638986 -0.038554225 -0.78699678 -0.05277925 0.61469537 0.18617985
0.41729257 -0.0080300793 -0.036814421 -0.48479262 -0.10427905 0.86839056 0.19036153
0.4231773 -0.0037049144 -0.03244748 -0.63061959 -0.081971146 0.77175099 0.16041769
-0.4242686 0.0068705361 -0.03120853 0.68880045 0.12169742 0.71466333 0.19871393
-0.41496357 0.0059089474 -0.038957275 0.47528911 -0.052198928 0.87827981 0.20296235
-0.38538083 0.0025163561 -0.035217788 0.88351905 -0.14202411 0.44634438 0.1634945
0.41481948 0.0079575321 -0.038854096 -0.54788834 -0.04003939 0.83559281 0.1880088
0.42325231 0.0038106402 -0.032374438 -0.58969742 -0.1013841 0.8012355 0.16626792
-0.41410828 0.015936581 -0.038575344 0.52686608 -0.1024964 0.84374559 0.19499193
-0.38370812 0.016025778 -0.0350972 0.84881085 -0.0963291 0.51984698 0.15860108
0.37917924 0.019456485 -0.039740779 -0.78278792 -0.085557766 0.61637902 0.18804084
0.38495639 0.015755083 -0.033716131 -0.87531853 -0.12076265 0.4682242 0.20842633
0.41542983 0.017077895 -0.037366156 -0.6009165 -0.077339262 0.79556137 0.20598152
-0.42156982 0.024838323 -0.03148235 0.55571288 -0.12035163 0.82261705 0.17317958
-0.41413054 0.023776427 -0.037709098 0.46139225 0.20116316 0.86408949 0.2142721
-0.38378501 0.024507657 -0.033737872 0.89458084 -0.044494383 0.4446857 0.2107282
-0.37899593 0.027683968 -0.038715929 0.82933921 -0.12250897 0.54514956 0.16614823
0.38230109 0.024101069 -0.035488885 -0.80992305 -0.26294842 0.52429253 0.17916195
0.41459277 0.024443762 -0.037257154 -0.41571039 -0.24254195 0.87656051 0.23783208
0.42091334 0.029229607 -0.031546716 -0.57291311 -0.097136699 0.81383967 0.18525131
-0.42086142 0.038130347 -0.030626643 0.54108751 -0.17828757 0.8218503 0.20645906
-0.41108209 0.032772083 -0.03924064 0.27398258 -0.11144599 0.95525563 0.2541253
-0.38390714 0.034841597 -0.032049291 0.89761335 -0.12242913 0.42343992 0.22264294
-0.3773624 0.039856426 -0.038751222 0.83734542 -0.001208659 0.54667276 0.18153232
0.37900448 0.031506009 -0.038133122 -0.71329057 -0.25827906 0.65154314 0.18702421
0.38215846 0.036508225 -0.033790972 -0.86778581 -0.10579324 0.48554668 0.21518661
0.41499251 0.036799476 -0.035592306 -0.53182852 0.068703197 0.84406066 0.26239431
0.42090467 0.035549887 -0.030870222 -0.67045033 -0.20331277 0.71355462 0.23307112
-0.41109526 0.046908569 -0.037700791 0.54293513 -0.10153205 0.83361417 0.21692225
-0.40920883 0.045259245 -0.039429002 0.46510872 -0.077311158 0.88187122 0.20831552
-0.37883523 0.043822147 -0.036479197 0.9014433 -0.081646882 0.42512804 0.17632109
0.41277972 0.044940818 -0.036529731 -0.60366094 -0.034397691 0.79649878 0.21701783
-0.41626206 0.051411048 -0.032968868 0.59897161 -0.043991689 0.7995609 0.14512055
-0.37742731 0.058613967 -0.035864789 0.84392887 -0.075812936 0.53107113 0.1818158
0.37599176 0.055502106 -0.037966367 -0.68333626 -0.1542501 0.7136234 0.19233204
0.38104165 0.056282602 -0.032097954 -0.6737085 0.0014355771 0.73899579 0.2258718
0.40925789 0.05145289 -0.038718782 -0.49850959 0.051230241 0.86536914 0.2101506
0.41614923 0.054816157 -0.032693252 -0.58905053 0.031917565 0.80746567 0.17506908
-0.41224268 0.066937618 -0.034591686 0.55923557 -0.0005155321 0.8290087 0.18920399
-0.40947407 0.069898091 -0.036546089 0.40774554 -0.11569917 0.90573579 0.22049105
-0.37508258 0.063570917 -0.037791975 0.79975462 -0.02841414 0.5996542 0.19420721
0.3737967 0.069762543 -0.038328096 -0.73902887 -0.23836321 0.63009459 0.19647072
0.40787858 0.066758834 -0.038196452 -0.5659014 0.10174513 0.81817091 0.17372778
0.41601878 0.067739435 -0.031402633 -0.62628347 -0.068788163 0.77655464 0.12296332
-0.41650268 0.073826537 -0.030346688 0.60921204 0.0062485747 0.7929827 0.14393288
-0.38037992 0.070777781 -0.030678228 0.8779667 -0.21357149 0.42844105 0.18502606
-0.37350714 0.072226435 -0.038288437 0.76413602 -0.10616238 0.6362592 0.19228612
0.37358859 0.073937647 -0.037939131 -0.72882009 -0.074940495 0.68059176 0.20254181
0.40827855 0.070920467 -0.037417717 -0.60528088 -0.040091768 0.79500175 0.17963207
0.4139694 0.073651999 -0.032446824 -0.66490597 -0.096351981 0.74068642 0.14727658
-0.41346079 0.082207493 -0.031939361 0.60161191 -0.047580037 0.79737014 0.11472297
-0.4058924 0.086684667 -0.037673026 0.54078138 -0.11645993 0.83306217 0.19920027
-0.3744092 0.085399605 -0.035285875 0.84068125 -0.094910376 0.53314829 0.19740602
0.37414742 0.082042806 -0.036087338 -0.8728624 -0.13673465 0.46841726 0.16734779
0.41362399 0.081792541 -0.031850129 -0.72037137 -0.14384714 0.67850798 0.205879
-0.412815 0.09180633 -0.031431679 0.60674858 -0.23088215 0.76062441 0.1801004
-0.40583453 0.095731929 -0.036742005 0.52772516 -0.19884431 0.825813 0.17512114
-0.37327045 0.095061108 -0.035134178 0.71730083 -0.20508029 0.66589916 0.19454204
0.3686592 0.099297456 -0.039601471 -0.80557454 -0.17233738 0.56687683 0.17667289
0.37512594 0.094597027 -0.033090495 -0.88193339 -0.033030812 0.47021523 0.22154275
0.40683612 0.095137179 -0.035983458 -0.51514167 -0.12051634 0.8485899 0.16735011
0.41255707 0.092914701 -0.03152369 -0.59760654 -0.15435435 0.78679174 0.15700051
-0.41159636 0.10537644 -0.030965062 0.59721595 -0.16187702 0.78557545 0.13129172
-0.40937576 0.10306755 -0.033039197 0.51159716 -0.10840329 0.85235965 0.14437266
-0.37400237 0.10441522 -0.031680975 0.7706787 -0.43935925 0.46153849 0.19306189
-0.36919609 0.10636201 -0.035926059 0.71510184 -0.4704527 0.51701415 0.18682025
0.36532262 0.1093647 -0.038716935 -0.83386755 -0.099489458 0.54292423 0.1837827
0.37273273 0.10014509 -0.034905612 -0.81644917 -0.24290997 0.52383733 0.19940078
0.4054594 0.10461244 -0.03608967 -0.4871476 -0.061473884 0.87115335 0.15844171
0.41073185 0.10244523 -0.03199238 -0.43100569 -0.086107969 0.89823127 0.21224982
-0.40450901 0.11657695 -0.033865213 0.37402445 -0.27412796 0.88597947 0.1637397
-0.36566049 0.11647771 -0.035231479 0.72136587 -0.40129197 0.56444305 0.21096535
0.36630026 0.1134214 -0.035896063 -0.85960627 -0.17379427 0.48049206 0.20607229
0.37081182 0.11144416 -0.031977132 -0.88582301 -0.28307265 0.36767861 0.20291176
0.39745122 0.11729982 -0.039039318 -0.5194568 -0.12135041 0.84583604 0.18287426
0.40520808 0.1117021 -0.034875937 -0.56068957 -0.071695082 0.82491642 0.19097731
-0.40182579 0.12657163 -0.032750025 0.48046094 -0.25028849 0.84054327 0.17407562
-0.3974185 0.12671438 -0.036078867 0.49412808 -0.24843822 0.8331362 0.20234631
-0.36158025 0.12530927 -0.035679419 0.79672396 -0.10812322 0.59459263 0.18591522
-0.35995764 0.12148338 -0.039083421 0.7458536 -0.22989398 0.62518096 0.17429712
0.35942447 0.12574074 -0.037777685 -0.77627474 -0.3373712 0.53252053 0.20141961
0.36283618 0.12514746 -0.034417666 -0.78515184 -0.36142841 0.50289774 0.18867801
0.39510733 0.12892187 -0.037148252 -0.49452281 -0.23089778 0.83793402 0.18417726
0.40547922 0.12223537 -0.031328112 -0.55756193 -0.13712928 0.81873095 0.1405986
-0.3936854 0.13481122 -0.036369242 0.50781834 -0.025110934 0.86109805 0.24742168
-0.38925901 0.13557772 -0.039514944 0.32504317 -0.1790079 0.92860281 0.24802747
-0.36155 0.13331179 -0.032193609 0.77567238 -0.24395446 0.58208114 0.2117012
-0.35401568 0.13634069 -0.038858272 0.70424926 -0.25398409 0.66296691 0.20567422
0.35928452 0.13648304 -0.033203885 -0.80493754 -0.30590796 0.50842494 0.2162881
0.3934916 0.13474302 -0.036539268 -0.43201712 -0.28947616 0.85414565 0.15448692
0.40005028 0.13374954 -0.031833079 -0.52231747 -0.27940044 0.80567968 0.15613276
-0.39088959 0.1460866 -0.034934115 0.40826288 -0.037200879 0.9121061 0.24199399
-0.35579473 0.1421752 -0.034405254 0.77435827 -0.27993956 0.56745327 0.20168641
0.35452282 0.14532839 -0.034368984 -0.77851492 -0.32668945 0.53589988 0.21015453
0.38712761 0.14378642 -0.038543615 -0.45715338 -0.15592264 0.87561339 0.16191363
0.39117429 0.14633584 -0.034637086 -0.53875965 -0.18680885 0.82148683 0.14121759
-0.3926284 0.15161346 -0.031850226 0.53293395 -0.25091711 0.80809772 0.18165193
-0.38434231 0.15595931 -0.036815781 0.57323581 -0.14825614 0.80586654 0.18612216
-0.35061494 0.15905206 -0.032483444 0.76965153 -0.32002762 0.55246621 0.19373055
-0.34779698 0.15544802 -0.037058491 0.7732349 -0.082557917 0.62872249 0.17476808
0.3530193 0.15274644 -0.03270369 -0.72463894 -0.18979433 0.66247767 0.21878588
0.39228955 0.15388386 -0.03138971 -0.55429262 -0.24906138 0.79418391 0.12709461
-0.38350224 0.16266565 -0.035332233 0.44220874 -0.28528953 0.85033011 0.17300324
-0.37892732 0.16534045 -0.037986502 0.43741947 -0.13034058 0.88976151 0.17580907
-0.35054722 0.16078955 -0.031791512 0.79657876 -0.1924592 0.57308096 0.1941219
-0.34503138 0.16581395 -0.035436705 0.6818493 -0.31837219 0.6585747 0.20434029
0.34816414 0.16531542 -0.032331064 -0.53965747 -0.57877904 0.61137938 0.21691848
0.376147 0.168997 -0.038955562 -0.36076522 -0.25660235 0.89666253 0.18211985
0.38613719 0.1670737 -0.031917147 -0.56587505 -0.27603352 0.77691114 0.15899205
0.39053804 0.16128871 -0.030382443 -0.56142437 -0.23102528 0.7946257 0.12122361
-0.38238525 0.17274827 -0.032990061 0.60225827 -0.38989645 0.69661009 0.22736321
-0.37502971 0.17618215 -0.037532397 0.55434686 -0.17094667 0.81454092 0.21729827
0.33730513 0.17974776 -0.037511203 -0.77551562 -0.30176938 0.55453652 0.16196409
0.34377402 0.176557 -0.032048468 -0.57908553 -0.5266369 0.62234521 0.20090879
0.3764044 0.17410481 -0.037138719 -0.29917955 -0.49023429 0.81863427 0.20893027
0.38020223 0.17788394 -0.033032753 -0.4799276 -0.39106777 0.78532511 0.15683144
-0.37440172 0.18395002 -0.035549838 0.55270672 -0.1755612 0.81467384 0.19306317
-0.34229952 0.18442212 -0.030155824 0.8315441 -0.43343416 0.34737474 0.22392514
-0.3391912 0.18721396 -0.032227378 0.72814673 -0.57624191 0.37114346 0.19522604
0.33805597 0.18510297 -0.03436017 -0.82956326 -0.26334956 0.49241427 0.16105287
0.34130946 0.18203416 -0.032256328 -0.62434143 -0.34786558 0.69941938 0.20635487
0.36969218 0.18541425 -0.038691096 -0.14657415 -0.5946191 0.79053408 0.19799729
0.37835771 0.18128969 -0.033364885 -0.36073747 -0.5117929 0.7797029 0.19057417
-0.37467805 0.1944567 -0.032006502 0.44901767 -0.2814168 0.8480494 0.16365397
-0.36808047 0.19779555 -0.035998702 0.28626621 -0.50340414 0.81525201 0.21741492
-0.33294839 0.19287035 -0.03609696 0.67384505 -0.51302618 0.53173018 0.17923322
-0.32824397 0.19871239 -0.036401417 0.60050619 -0.60926408 0.51787025 0.17944224
0.33288643 0.19503614 -0.034608699 -0.7952624 -0.32257301 0.51332676 0.18545945
-0.37175685 0.20449257 -0.031060375 0.5344888 -0.34748355 0.77043939 0.16550002
-0.36609286 0.20819984 -0.034221031 0.47551328 -0.26684543 0.83826047 0.17127123
-0.3316282 0.20183372 -0.031134419 0.7263326 -0.51770443 0.45213178 0.21571064
-0.32521448 0.20351823 -0.035801608 0.71693677 -0.47811133 0.50735706 0.17921157
0.31692725 0.20961258 -0.03909234 -0.5278703 -0.60095763 0.60016906 0.1794007
0.32563561 0.20739341 -0.032707844 -0.67903125 -0.43086448 0.59436715 0.21020983
-0.36328664 0.21727331 -0.032081436 0.57339758 -0.2439234 0.78212315 0.18201126
-0.35643774 0.21601635 -0.037218172 0.46732059 -0.23449489 0.85242224 0.22541478
-0.32247931 0.21164493 -0.032611247 0.68645108 -0.44394958 0.57592851 0.1860218
-0.31642419 0.21519986 -0.035643581 0.6585806 -0.41344848 0.6287542 0.21617325
0.31793815 0.21464744 -0.034650151 -0.58328331 -0.55520338 0.59289944 0.20978627
0.34967989 0.21998024 -0.039661292 -0.57730073 -0.065480523 0.8139019 0.20463015
0.35626963 0.21680303 -0.03693182 -0.64415735 0.39762881 0.65341616 0.21375057
-0.35478312 0.22493801 -0.033805333 0.47549272 -0.18668123 0.85968411 0.13519035
-0.34789452 0.22512233 -0.03824107 0.45685846 -0.27228171 0.84684306 0.22945017
-0.31257868 0.22125763 -0.034911972 0.72930664 -0.38108227 0.56823254 0.20195431
-0.30711678 0.22737309 -0.035613123 0.57305282 -0.53132653 0.62394112 0.1967431
0.3061251 0.22634169 -0.03723814 -0.62654126 -0.55319148 0.54902214 0.1678836
0.3158409 0.22153038 -0.031748217 -0.53795362 -0.61815679 0.57313871 0.2043063
0.34485129 0.22582093 -0.039889347 -0.45911103 0.011083908 0.88830972 0.2336926
0.35578784 0.22739054 -0.031907603 -0.56436139 -0.14442301 0.81279653 0.20058064
0.36166787 0.22199036 -0.030766122 -0.49592531 -0.22483431 0.83875364 0.17392676
-0.35383064 0.23074403 -0.031502612 0.44647515 -0.42664108 0.78653502 0.16370238
-0.34502709 0.23589276 -0.034692943 0.50791603 -0.31227699 0.80281031 0.19933614
-0.33631539 0.23817337 -0.039269753 0.47204703 -0.28332552 0.8348043 0.18279266
-0.30527031 0.2352449 -0.031791128 0.68256462 -0.53527778 0.49757734 0.19990739
-0.29902658 0.23953523 -0.034481119 0.57794464 -0.5385536 0.61313957 0.19925897
0.29470664 0.23964322 -0.038342599 -0.63286811 -0.61725879 0.46740732 0.18029974
0.30550444 0.23423083 -0.032286901 -0.68006361 -0.55083799 0.48382959 0.1954813
0.33990395 0.23678236 -0.037612256 -0.35627946 -0.36868793 0.85856521 0.16162683
0.34478638 0.23189469 -0.036868062 -0.55580711 -0.23985091 0.79595858 0.20474721
-0.34319547 0.2448732 -0.031366855 0.46543226 -0.33799398 0.81800538 0.15772478
-0.33626366 0.24357501 -0.036578871 0.48959404 -0.28227407 0.82499641 0.15509696
-0.32989013 0.24972019 -0.037669003 0.36004874 -0.40952501 0.83824474 0.15578733
-0.29543823 0.24229288 -0.035822935 0.6317504 -0.43491936 0.64166701 0.19452105
0.29408833 0.24817061 -0.032942802 -0.62927473 -0.4839161 0.60814351 0.20935597
0.30149919 0.24029958 -0.031693149 -0.66716361 -0.55289346 0.49920085 0.19820572
0.3294245 0.24990468 -0.037882 -0.4538269 -0.22159727 0.86309659 0.19241636
0.3349199 0.24430199 -0.037095539 -0.34963319 -0.43423042 0.830181 0.13841031
-0.31921768 0.25904006 -0.039983805 0.38735142 -0.23066303 0.89261049 0.19976141
-0.28557426 0.25572506 -0.035419267 0.69610178 -0.41188955 0.58803856 0.18210468
0.2835559 0.2568256 -0.036489122 -0.54282409 -0.54155642 0.641918 0.19562916
0.2908625 0.25167891 -0.033429317 -0.67454052 -0.36101085 0.64394581 0.21583335
0.32354373 0.25787798 -0.037725985 -0.5281828 -0.2986457 0.79487967 0.23431365
0.33297998 0.25758523 -0.031670071 -0.61503208 -0.32413304 0.71879995 0.16702275
0.34007996 0.25065351 -0.03049914 -0.39501145 -0.51730978 0.7591815 0.14607954
-0.32256812 0.26595289 -0.034293905 0.41730699 -0.24164277 0.87604994 0.18995546
-0.31599328 0.2680653 -0.037550714 0.50101811 -0.1840463 0.84564048 0.22823314
-0.27427199 0.26728928 -0.037632711 0.58131182 -0.57606405 0.57465357 0.1757524
0.27519059 0.26809868 -0.036229536 -0.63116592 -0.32866582 0.70257264 0.19922334
0.28116059 0.26219484 -0.034917325 -0.54802859 -0.58036941 0.6023587 0.21139261
0.31610134 0.2681877 -0.037417922 -0.50554109 -0.32005367 0.80124521 0.20511194
0.32578078 0.26850879 -0.030892491 -0.54485214 -0.27938825 0.79061908 0.18845724
-0.32324359 0.27206713 -0.03076545 0.43689266 -0.26475698 0.85966766 0.18151028
-0.31570163 0.27658322 -0.033445541 0.45048234 -0.24745582 0.85780603 0.17328711
-0.30824888 0.2761353 -0.038571112 0.39142007 -0.23325823 0.89015776 0.22633304
-0.27077594 0.27126193 -0.037937716 0.45945793 -0.66556752 0.58814812 0.17642905
-0.26868397 0.27183816 -0.038875487 0.45060587 -0.61654139 0.64562452 0.17647435
0.26507038 0.27665609 -0.037011612 -0.6066035 -0.55569708 0.56853575 0.19740614
0.27381971 0.27330795 -0.033333201 -0.69261432 -0.3880249 0.60804766 0.21300302
0.30766693 0.27454674 -0.039755039 -0.43886188 -0.20256872 0.87542337 0.18709522
0.31550196 0.27522945 -0.034259707 -0.43375498 -0.26286063 0.86183578 0.14561523
-0.30378234 0.28583893 -0.03661241 0.36468366 -0.33376789 0.8692553 0.17222711
-0.26359293 0.28145039 -0.033675577 0.42015466 -0.68173647 0.59892017 0.22543187
-0.25435549 0.28397459 -0.037834954 0.5354234 -0.49967721 0.6809144 0.19752961
-0.24546096 0.288968 -0.039504174 0.40396094 -0.48066473 0.7783168 0.20615235
0.247666 0.28857869 -0.038316935 -0.43604913 -0.52330214 0.73213118 0.19695152
0.25766915 0.28634191 -0.033360209 -0.52509516 -0.44959494 0.72259212 0.22684759
0.26786384 0.28106129 -0.031043461 -0.52122009 -0.4043828 0.75153446 0.22414742
0.29880202 0.28778887 -0.038902923 -0.37168002 -0.38181463 0.84621012 0.23084301
0.30583495 0.28550091 -0.035433505 -0.3350758 -0.32439247 0.88458681 0.16954704
0.31555343 0.28096163 -0.031334225 -0.46584916 -0.35799932 0.80921012 0.13204904
-0.30298132 0.29231492 -0.033872187 0.36938149 -0.43489909 0.82123077 0.218484
-0.29614112 0.29388463 -0.037479963 0.46422416 -0.320467 0.82570988 0.16828682
-0.2890462 0.29752898 -0.039105594 0.49041215 -0.3487224 0.79867929 0.11700071
-0.2522198 0.29182586 -0.032173123 0.35006404 -0.50651872 0.78796822 0.24835858
-0.24339631 0.29218382 -0.038017206 0.48058507 -0.56241715 0.6728484 0.20923486
0.24583966 0.29517668 -0.033581033 -0.21448952 -0.60665041 0.76548648 0.23202445
0.25110894 0.29403126 -0.030940041 -0.1052241 -0.71390253 0.69229406 0.26494882
0.29425612 0.29730609 -0.036623914 -0.42369759 -0.30666286 0.85231346 0.17808124
0.3027707 0.2950491 -0.032631356 -0.28558266 -0.42499018 0.8589679 0.19887999
-0.29252484 0.30227104 -0.03423322 0.51340252 -0.36317974 0.77750772 0.13505433
-0.2852338 0.30558452 -0.035732906 0.46505222 -0.41781744 0.78048384 0.15914549
-0.27536374 0.3093186 -0.038257062 0.26113981 -0.4311257 0.86367625 0.12509452
-0.23713364 0.302506 -0.032989588 0.57504559 -0.52818638 0.62477338 0.20701835
-0.2260379 0.30593035 -0.037628107 0.43870825 -0.6388796 0.63195568 0.17932115
0.22739796 0.30452076 -0.037961658 -0.45101029 -0.65615386 0.60502219 0.18848436
0.2341364 0.303875 -0.033837941 -0.46177575 -0.62669998 0.62770247 0.20254463
0.27256683 0.30915818 -0.039773464 -0.31364754 -0.32177934 0.89335507 0.12089394
0.28498191 0.3045575 -0.036535148 -0.59636551 -0.41514915 0.68702203 0.22849844
0.29365021 0.30367854 -0.032740213 -0.44640285 -0.34779558 0.82447726 0.14778648
-0.2826162 0.31205669 -0.032798413 0.42901349 -0.41560778 0.80200851 0.11772472
-0.27579188 0.31328219 -0.035435311 0.31010255 -0.46561009 0.82888097 0.09812513
-0.26636693 0.31925493 -0.036263198 0.3517555 -0.45116785 0.82019246 0.15288734
-0.22531639 0.31405044 -0.030732401 0.43589142 -0.63350296 0.63927513 0.22397502
-0.21776652 0.31074798 -0.039021753 0.53523093 -0.64200717 0.54895782 0.18666735
-0.20889114 0.31970316 -0.037067052 0.42560059 -0.73294812 0.53070819 0.19441044
0.21413775 0.31424192 -0.038375165 -0.54806888 -0.56155378 0.61990154 0.16986789
0.22272997 0.31217203 -0.034253009 -0.75005078 -0.43308905 0.49985769 0.18855473
0.26789522 0.31863403 -0.035900474 -0.30499479 -0.48516116 0.81951016 0.16536728
0.27670199 0.31560773 -0.033447385 -0.49889949 -0.53115565 0.684816 0.18278933
0.28294408 0.3137309 -0.03153234 -0.4610804 -0.49888828 0.73383605 0.13591143
-0.27419269 0.32107913 -0.031116165 0.33137202 -0.57457638 0.74836797 0.12142282
-0.2640487 0.32591158 -0.033056438 0.26527911 -0.57840681 0.77140939 0.18586355
-0.25502309 0.32561627 -0.037803605 0.25865775 -0.42699337 0.86647141 0.20554993
-0.24830136 0.32840735 -0.039359514 0.22152862 -0.34542954 0.91192305 0.18022782
-0.21208715 0.3218396 -0.032884996 0.50898588 -0.7010147 0.49951151 0.19805382
-0.20692186 0.32312119 -0.035329141 0.55299926 -0.6850934 0.47417176 0.20362687
-0.19893253 0.32535824 -0.038877375 0.41910884 -0.68276149 0.59848517 0.1816299
0.19351345 0.32923037 -0.039138105 -0.24207683 -0.77668321 0.58151704 0.17428905
0.25525695 0.32654244 -0.037076749 -0.26000232 -0.47129342 0.84278184 0.15628465
0.26576337 0.32136229 -0.035182253 -0.26888284 -0.48862663 0.8300277 0.16678001
-0.26275727 0.33060873 -0.030619867 0.31812915 -0.54795706 0.77365166 0.19618396
-0.25243899 0.3360697 -0.03223487 0.37375849 -0.39041024 0.84135872 0.13790503
-0.24645181 0.33667523 -0.034857061 0.30688941 -0.32284912 0.89531404 0.16941263
-0.23826079 0.3380833 -0.038063381 0.25716224 -0.29878557 0.91901839 0.20114557
-0.19619766 0.33524144 -0.031595349 0.66070276 -0.73111409 0.17012966 0.20524204
-0.18514165 0.33491358 -0.037678167 0.46882829 -0.65399539 0.59370875 0.20160787
0.1773881 0.33910394 -0.036639418 -0.34255916 -0.81204218 0.47248372 0.18354529
0.18549435 0.3354733 -0.036929075 -0.17435326 -0.80779839 0.56308323 0.18784718
0.19481066 0.33665204 -0.031467188 -0.092073031 -0.88317251 0.45992258 0.19655451
0.2378401 0.33971328 -0.037204061 -0.28714675 -0.30360952 0.90849769 0.17950916
0.24601869 0.33819097 -0.034079056 -0.32490441 -0.43031859 0.84217751 0.16391082
0.25428474 0.33179742 -0.034112461 -0.28908637 -0.45791864 0.8406781 0.16628033
0.26295173 0.33063594 -0.03050391 -0.40060708 -0.50114512 0.76705122 0.10464718
-0.23441587 0.346926 -0.034189578 0.22551742 -0.3811934 0.89656764 0.16404405
-0.2271859 0.34773508 -0.037304912 0.19666521 -0.28149071 0.93919414 0.18822019
-0.17666642 0.34350917 -0.032281458 0.38026121 -0.89188623 0.24482696 0.1754806
-0.16638465 0.34419161 -0.03607709 0.050478075 -0.92411357 0.37876919 0.18714987
-0.15692979 0.34743202 -0.036794439 0.18795329 -0.85318118 0.48657519 0.18121848
-0.14724955 0.3488903 -0.039502233 0.3643713 -0.71589416 0.59559131 0.1677987
0.14897712 0.34975958 -0.037820231 -0.1948289 -0.87484431 0.44349664 0.17679213
0.15419979 0.34847164 -0.0368912 -0.30881599 -0.81833506 0.48472717 0.15991957
0.16687284 0.34478393 -0.035233796 -0.55581093 -0.68290311 0.47404385 0.18237327
0.17366441 0.34507799 -0.031936128 -0.51212579 -0.7263723 0.45837814 0.20018718
0.18076345 0.34151992 -0.032591548 -0.3647109 -0.7633335 0.53320533 0.2037165
0.22477528 0.3473354 -0.038783748 -0.19527055 -0.4524425 0.87015235 0.2176906
0.23420405 0.34124306 -0.038032535 -0.26340443 -0.36293525 0.89380985 0.1838969
0.24281345 0.34613064 -0.030476272 -0.44910541 -0.47122714 0.75911087 0.15847777
-0.23252526 0.35176733 -0.031960532 0.36945796 -0.49884096 0.78400165 0.16035764
-0.22280702 0.35243216 -0.036425889 0.19123313 -0.36188132 0.91239887 0.2260623
-0.21732722 0.35701835 -0.036175173 0.31337798 -0.41375962 0.85474986 0.19683395
-0.16241366 0.35023144 -0.031412717 0.21186821 -0.89929324 0.38260099 0.1949455
-0.14615533 0.35245922 -0.036195554 0.37762007 -0.75045383 0.54242241 0.16183668
-0.13376363 0.35792342 -0.035843872 0.34818298 -0.68789995 0.63683778 0.18626079
0.13688089 0.35583234 -0.036692746 -0.34465986 -0.71869946 0.60388792 0.1900879
0.1441204 0.35541192 -0.033956401 -0.44940436 -0.73808444 0.5032565 0.18153508
0.15770286 0.3518219 -0.031795628 -0.35538507 -0.85407507 0.37981203 0.16789019
0.21615978 0.35644355 -0.037141964 -0.1568007 -0.42817923 0.88998652 0.16717286
0.22512761 0.35532811 -0.03335141 -0.22532727 -0.45592469 0.86102289 0.19720897
0.2311742 0.35287097 -0.031916529 -0.3182354 -0.47888151 0.81816792 0.17730783
-0.21587819 0.36220026 -0.033499453 0.29041106 -0.3581396 0.8873542 0.16383258
-0.20537387 0.36553326 -0.035545595 0.24714237 -0.48354301 0.83970642 0.16146281
-0.19356552 0.36976749 -0.036048532 0.1104883 -0.46509454 0.87833893 0.20745362
-0.18833771 0.3678056 -0.039208341 -0.024407227 -0.49996927 0.86569911 0.24703422
-0.12329553 0.36346439 -0.034565073 0.33582056 -0.80618387 0.48712647 0.17481294
-0.11141466 0.36818677 -0.034776088 0.18324408 -0.85250413 0.48954913 0.19770765
-0.10713966 0.36692175 -0.037997931 0.10303234 -0.82680106 0.55297768 0.18158957
0.1030969 0.36962843 -0.036902562 -0.28982303 -0.67277211 0.68072045 0.23155664
0.1149834 0.36593357 -0.035598554 -0.34927684 -0.70013863 0.62274516 0.20223394
0.13129875 0.36190641 -0.0327003 -0.23116784 -0.831671 0.50486118 0.18501405
0.18272643 0.36999083 -0.03931481 -0.15481892 -0.28289261 0.94657433 0.21832593
0.196707 0.36611283 -0.037850283 -0.16770475 -0.42839617 0.88789177 0.18593033
0.20443392 0.36552903 -0.035846896 -0.17280771 -0.40034765 0.89992183 0.17087865
0.21302776 0.36519155 -0.032948546 -0.30029792 -0.43431532 0.84922987 0.13232619
0.22003222 0.3621569 -0.031432416 -0.26825172 -0.45214969 0.85064781 0.14787529
-0.20229746 0.37198901 -0.031578757 0.21318874 -0.59560931 0.77446765 0.13038847
-0.19055393 0.37519532 -0.032848112 0.2058447 -0.50128013 0.84044409 0.19994906
-0.18803154 0.37184024 -0.036216579 0.051410548 -0.44311208 0.89499086 0.26103443
-0.17469893 0.37488642 -0.038112432 0.12972237 -0.35188299 0.92701155 0.25295877
-0.10570174 0.37309161 -0.032082006 0.036994793 -0.94147527 0.33504593 0.19599159
-0.094198711 0.37539577 -0.032842956 0.34662461 -0.83849275 0.42045376 0.17083688
-0.080838948 0.37458751 -0.03576665 0.25401968 -0.82433438 0.50591195 0.16678037
-0.077998027 0.37600678 -0.034576204 0.081694081 -0.88117552 0.46567771 0.16411421
-0.063351102 0.3758246 -0.036979813 -0.021379391 -0.82132226 0.57006365 0.16142474
-0.045685649 0.37781954 -0.037356544 0.26862851 -0.77681768 0.56955504 0.19444245
0.028661065 0.37871942 -0.038884334 -0.288508 -0.82644153 0.48348472 0.17930143
0.041018449 0.37805313 -0.037790313 -0.25067165 -0.78330332 0.56885827 0.16775762
0.056178313 0.37717414 -0.036518369 -0.1365862 -0.7482186 0.64924037 0.18253334
0.065640822 0.37301135 -0.03984056 0.015448831 -0.76918375 0.63884085 0.16255146
0.076350845 0.37384567 -0.037284482 -0.020328168 -0.7813229 0.62379581 0.16647027
0.085355997 0.37523121 -0.034356203 0.013335357 -0.90035015 0.43496192 0.17209421
0.094548494 0.37326476 -0.03521752 -0.020791521 -0.87284988 0.48754558 0.21208215
0.10247162 0.37026769 -0.036499001 -0.20244211 -0.68394279 0.70088482 0.24136412
0.17421502 0.37712026 -0.036555734 -0.09704452 -0.32103857 0.94208097 0.23537943
0.18622576 0.37288782 -0.035987228 0.012301023 -0.43511 0.90029329 0.22274137
0.19463842 0.37553015 -0.031296495 -0.30482748 -0.70239264 0.64321452 0.19068243
0.2021614 0.37198642 -0.031623878 -0.24248871 -0.58216816 0.77606666 0.14192951
-0.17393476 0.38451561 -0.030982841 0.24817491 -0.52075291 0.81683886 0.20517918
-0.16258232 0.3823677 -0.036227286 0.2031949 -0.26386648 0.94291371 0.28056544
-0.15607108 0.38291842 -0.037870489 0.16610324 -0.50241125 0.8485238 0.29176506
-0.1452029 0.38777381 -0.037599713 0.20974346 -0.52648157 0.82390827 0.21337874
-0.033916783 0.38355768 -0.032585967 0.15407251 -0.85338277 0.4979955 0.19202317
-0.027528297 0.38549435 -0.031338122 0.0045589334 -0.91796297 0.39663991 0.20588981
-0.01459716 0.38561377 -0.033141028 0.25603932 -0.75369501 0.60529971 0.20343107
-0.0034740008 0.38623261 -0.034104079 -0.0047746953 -0.87603873 0.48221722 0.1925018
0.0040343013 0.3853375 -0.035039492 -0.17486468 -0.86269307 0.47453445 0.20935799
0.016654795 0.38227925 -0.036630258 -0.097654924 -0.90912569 0.40491241 0.20386153
0.020066183 0.38306087 -0.035228547 -0.15116559 -0.90840852 0.38979852 0.15558176
0.048405316 0.3814508 -0.03281308 -0.19725096 -0.7446087 0.63769108 0.19805138
0.053640068 0.38188383 -0.031534988 -0.1250374 -0.72291517 0.67952877 0.21493347
0.060102597 0.38237613 -0.030005338 -0.083331764 -0.8301751 0.55123955 0.19891088
0.1472519 0.38692671 -0.037598494 -0.18019548 -0.53768283 0.82366669 0.21078122
0.15700136 0.38399997 -0.036747437 -0.31060997 -0.44681412 0.83897477 0.20433395
0.16251583 0.38438639 -0.034702912 -0.2198088 -0.4481388 0.86651933 0.19772579
0.17614783 0.38258377 -0.031760037 -0.24198475 -0.66580081 0.70579934 0.21064429
-0.15338948 0.39354104 -0.030588331 0.27848727 -0.51769245 0.80897433 0.14155656
-0.14936139 0.39360994 -0.031812962 0.25638723 -0.49907288 0.82776314 0.13422632
-0.13857707 0.39459845 -0.034476042 -0.023848686 -0.48582757 0.87372929 0.22542453
-0.1245209 0.395237 -0.038444594 -0.2414352 -0.46085325 0.85400432 0.22633538
0.11857494 0.39775842 -0.038399771 -0.12044328 -0.6487962 0.75136995 0.18822682
0.12767497 0.39568275 -0.037103124 -0.31305361 -0.61123556 0.72690332 0.24250492
0.13455923 0.39504763 -0.035406277 -0.15016849 -0.55594569 0.8175413 0.18680857
0.14556393 0.39431563 -0.032476947 -0.20948471 -0.43334824 0.87654173 0.20702024
0.15645902 0.39220184 -0.030640196 -0.29167992 -0.61059248 0.73627418 0.15462679
0.16359796 0.39004475 -0.030027756 -0.21486066 -0.5628826 0.79812157 0.15311883
-0.13204357 0.40207249 -0.030825917 0.18291265 -0.5930503 0.78411376 0.17960972
-0.12667137 0.40091187 -0.033418067 0.07025189 -0.51485163 0.85439593 0.23027816
-0.11645498 0.40470237 -0.033755898 -0.00068239745 -0.40348405 0.91498643 0.21917185
-0.10889963 0.40925685 -0.032506086 0.19146019 -0.59654737 0.77940637 0.18205501
-0.095347211 0.40785596 -0.035122853 0.20340785 -0.25555795 0.94515365 0.19648254
-0.075950064 0.40693772 -0.0379753 0.36993635 -0.46289816 0.80552614 0.24063365
-0.049391076 0.4099859 -0.038343672 0.052462935 -0.49835467 0.86538452 0.24011259
0.048186824 0.40913916 -0.039169617 0.12632167 -0.141303 0.98187387 0.23780017
0.068840727 0.40662426 -0.039001785 0.037788227 -0.35158843 0.93539172 0.23651952
0.07438527 0.40862858 -0.036755379 -0.075232379 -0.55496395 0.82846552 0.19030349
0.084937043 0.4097811 -0.034667216 -0.18921877 -0.53283143 0.82479501 0.18269241
0.093788855 0.4072606 -0.03578056 -0.092325717 -0.54497254 0.83335519 0.2015741
0.10329998 0.40742403 -0.034617532 -0.12224942 -0.60493833 0.78683203 0.14983015
0.1138611 0.40768662 -0.032293774 -0.12241881 -0.61109024 0.78203738 0.14629273
0.12629221 0.40298939 -0.03194781 -0.11630271 -0.50434786 0.85563242 0.16300878
0.13542986 0.40061662 -0.030866671 -0.087490469 -0.45344505 0.88697976 0.19489612
-0.098047078 0.41014478 -0.032950409 0.16511811 -0.43917745 0.8830964 0.18728822
-0.082747117 0.41190779 -0.033156812 0.26219603 -0.52409703 0.81029344 0.22483285
-0.072761916 0.41160288 -0.034487356 0.044324312 -0.42038208 0.90626389 0.1895844
-0.063389435 0.41431022 -0.033276856 0.18691668 -0.50487214 0.84271359 0.13854358
-0.055199627 0.41540217 -0.033265557 0.20286264 -0.41454229 0.88713098 0.16854256
-0.042976428 0.41608077 -0.03403011 0.089979216 -0.28695941 0.95370752 0.2194775
-0.038973957 0.41954303 -0.031618528 0.10036461 -0.47820756 0.87249321 0.20435068
-0.027430065 0.41513783 -0.036486346 0.097315155 -0.45508632 0.8851136 0.19416465
-0.014608136 0.41679618 -0.036510754 0.12779525 -0.45243356 0.88259405 0.13786474
-0.0027479497 0.41777599 -0.036988586 -0.017606134 -0.58034545 0.81418014 0.17793208
0.00032892343 0.41690099 -0.037969083 -0.050406769 -0.58089381 0.81241709 0.16963196
0.014959398 0.41637543 -0.036818404 -0.16027726 -0.45347089 0.87674135 0.19542129
0.025118565 0.41660491 -0.035531022 -0.2000833 -0.27272886 0.94105566 0.21006103
0.034120426 0.41204527 -0.038303461 -0.34349462 -0.60452342 0.71872318 0.22138838
0.04572399 0.41253147 -0.036648955 0.26232606 -0.34422797 0.90149444 0.25209102
0.057362057 0.41447651 -0.033792149 0.014387078 -0.52577132 0.85050434 0.17356165
0.067641519 0.41301167 -0.033883769 -0.15744035 -0.45699075 0.87542677 0.2191927
0.077568039 0.41217929 -0.033493962 0.15825668 -0.54537535 0.82311636 0.23403482
0.083996803 0.41299081 -0.032131903 -0.24156754 -0.57029432 0.78511751 0.19773091
-0.044870857 0.42025319 -0.030397275 0.12407436 -0.59398389 0.79485136 0.12630795
-0.036604606 0.42101294 -0.030667169 0.0093597509 -0.54846036 0.83612412 0.13884859
-0.026362516 0.42032564 -0.032339629 0.074576862 -0.52806485 0.84592307 0.18094105
-0.014107745 0.42080584 -0.033270635 0.017158207 -0.53481007 0.84479809 0.16463506
-0.0033666659 0.42171213 -0.033687819 -0.079440944 -0.52755344 0.84579945 0.18124424
0.0090757785 0.42409152 -0.031115467 -0.0342406 -0.55701262 0.82979792 0.16723387
0.01485331 0.42191863 -0.032275762 -0.039779268 -0.59579003 0.80215448 0.14278515
0.03208489 0.42209229 -0.030269284 -0.30565906 -0.47928703 0.8227129 0.22660039
-0.040188394 -0.43028569 -0.021128032 0.11869332 0.65091968 0.74981022 0.08187896
-0.036008485 -0.43086091 -0.02110311 0.068832226 0.67949843 0.73044097 0.084712848
-0.022393882 -0.43346342 -0.020294318 0.13751511 0.64799434 0.74912822 0.14226648
-0.01314372 -0.43045273 -0.024515904 0.024694595 0.68064362 0.73219836 0.16379972
-0.0013303173 -0.43152514 -0.024997963 0.026147811 0.6675058 0.74414533 0.079561636
0.007084283 -0.43252492 -0.023243561 -0.023144471 0.68826008 0.7250948 0.082157202
0.020655939 -0.43329817 -0.02068771 -0.12839068 0.65264434 0.74670684 0.091594584
0.037077583 -0.43032908 -0.021493562 -0.098347709 0.69083959 0.71628785 0.057397831
-0.10907438 -0.4208861 -0.021458071 0.15585461 0.66811824 0.72754884 0.05596656
-0.097571425 -0.42322236 -0.02063751 0.12623048 0.66986549 0.73167354 0.1054155
-0.086932689 -0.42146215 -0.023793187 0.092567742 0.69546378 0.71257371 0.054010492
-0.07498873 -0.42547455 -0.021357238 0.027045447 0.67680013 0.73566985 0.16920276
-0.066769794 -0.42280865 -0.025099052 0.026500596 0.6763097 0.73614055 0.15562218
-0.054493643 -0.42591482 -0.02361149 0.054219928 0.65564471 0.7531203 0.11436464
-0.043463111 -0.42510819 -0.025866583 0.13497758 0.59584534 0.79167503 0.12678619
-0.033671848 -0.42745078 -0.024814766 0.041012149 0.65569067 0.75391483 0.16975904
-0.025339806 -0.42542046 -0.027936921 0.1481366 0.52293169 0.83940339 0.1868899
-0.014028073 -0.42642498 -0.028420838 0.031511433 0.63643217 0.77068871 0.17270091
-0.0027394269 -0.42770243 -0.028629225 0.030725477 0.63268369 0.77380055 0.13482614
0.0087633412 -0.42850393 -0.027037226 -0.039643377 0.67652786 0.73534912 0.12454245
0.014423977 -0.42667547 -0.028118709 -0.083271667 0.58910936 0.80375123 0.1423164
0.025909266 -0.42372119 -0.029558528 -0.016683608 0.52144635 0.85312098 0.18631271
0.036151282 -0.42497 -0.026965603 -0.087580062 0.61215609 0.78587186 0.21140337
0.044389497 -0.42755681 -0.023300217 -0.07417459 0.60005152 0.79651511 0.17343831
0.052340232 -0.42686141 -0.022949453 -0.068556301 0.66838276 0.74065137 0.11018761
0.064766318 -0.42375487 -0.024417713 -0.07927192 0.67035991 0.73778969 0.093641542
0.074662305 -0.42257237 -0.024297515 -0.045275934 0.6698603 0.74110544 0.097097158
0.086600669 -0.42451987 -0.020784117 -0.1395673 0.69727135 0.70308858 0.060037747
-0.12648271 -0.41293263 -0.023088912 0.24409571 0.63986039 0.72869468 0.15033306
-0.11336306 -0.41486511 -0.026346816 0.17614435 0.66003048 0.73029643 0.1386003
-0.094029829 -0.41725206 -0.027063526 0.11077838 0.69569778 0.70974141 0.10917524
-0.084911615 -0.41755268 -0.027961874 0.076133654 0.5862717 0.8065291 0.13535605
-0.079270251 -0.41771904 -0.028537244 0.029987225 0.57464582 0.81785262 0.18392831
0.065396249 -0.41908383 -0.028998282 -0.012268268 0.64323914 0.765567 0.17395665
0.077834278 -0.41689774 -0.029543443 -0.005216904 0.6232428 0.78201103 0.18317989
0.096191123 -0.41811797 -0.025914958 -0.13635281 0.66233277 0.73669755 0.1399253
0.10376763 -0.41694805 -0.026087146 -0.32447895 0.54159224 0.77549416 0.17841123
0.11570496 -0.41344571 -0.02676481 -0.1507872 0.6391536 0.75415248 0.0913243
0.12472612 -0.41368857 -0.023062577 -0.26544654 0.62676781 0.73259836 0.10858914
0.13465382 -0.41111839 -0.021627992 -0.23362254 0.60622424 0.76020569 0.12147518
-0.16210259 -0.40079892 -0.020650972 0.273038 0.63072622 0.72638458 0.050538115
-0.15252553 -0.40094793 -0.024202913 0.30131045 0.61514723 0.72856438 0.16088107
-0.14375986 -0.40489015 -0.023913236 0.25613016 0.64465892 0.72028619 0.060302101
-0.13648143 -0.40659666 -0.025130393 0.18395846 0.60209066 0.77694666 0.1607638
-0.12478638 -0.40925577 -0.027163273 0.12844947 0.54163897 0.83073938 0.14360942
0.13580598 -0.40754041 -0.024512701 -0.17680359 0.52228785 0.83423972 0.19057234
0.14610785 -0.40021202 -0.027360618 -0.13250969 0.53574145 0.83391976 0.18465775
-0.17602909 -0.3930769 -0.022468377 0.24493943 0.60104072 0.76075929 0.079520807
-0.16560243 -0.39275119 -0.026789332 0.34433466 0.50717771 0.79006606 0.17950219
-0.15595037 -0.39551657 -0.027936067 0.31130213 0.59071642 0.74440914 0.15962453
-0.050069615 -0.39174598 -0.020661548 0.025888251 0.97104627 0.23748483 0.2150088
-0.048283227 -0.39217722 -0.020428635 -0.050126906 0.95683306 0.28628275 0.19506031
-0.037350181 -0.39252275 -0.021728154 0.18805245 0.89036298 0.41459614 0.20900722
-0.025229897 -0.39249945 -0.023649519 0.26119733 0.87211251 0.41375813 0.17648306
-0.013322789 -0.3954879 -0.021963555 -0.0020192729 0.89730233 0.44141206 0.21133654
-0.004499455 -0.39518201 -0.023678537 0.097644784 0.88012832 0.46458545 0.25132638
0.0084631126 -0.39463475 -0.023723403 -0.056006011 0.914253 0.40125409 0.19837075
0.015734574 -0.39389613 -0.023469033 -0.093335137 0.91746718 0.38670722 0.23528393
0.02282905 -0.39463934 -0.021484828 -0.33014837 0.9284147 0.17043498 0.22000377
0.036859594 -0.39098316 -0.023634028 0.09502703 0.90283608 0.41935286 0.21210705
0.042044207 -0.39145309 -0.022264812 0.029955462 0.90865219 0.41647795 0.2340183
0.16754438 -0.39569989 -0.02329772 -0.050229054 0.77736092 0.62704623 0.16773444
0.17451888 -0.39220023 -0.023865893 -0.15807529 0.70157409 0.69484246 0.15214609
-0.20439623 -0.38047537 -0.023260504 0.29513153 0.60444379 0.73996282 0.10110936
-0.18532737 -0.38619101 -0.025291331 0.29120523 0.6121797 0.73514324 0.085724346
-0.16851245 -0.38846779 -0.029652864 0.23521306 0.58619118 0.77527726 0.16142386
-0.093411893 -0.38071522 -0.026902542 -0.0077455244 0.8854968 0.46458095 0.21243013
-0.085778251 -0.384711 -0.023434309 -0.015811125 0.85017562 0.52626187 0.19759655
-0.076722883 -0.38260585 -0.027251635 -0.05827703 0.58789462 0.80683553 0.25152928
-0.06741295 -0.38741127 -0.023098763 0.15885092 0.90180445 0.40188938 0.24098882
-0.057536274 -0.38584083 -0.026444126 0.090653114 0.74911541 0.65620744 0.25903434
-0.046535127 -0.38937813 -0.024027534 -0.23912083 0.92838955 0.28445426 0.19170558
-0.033580616 -0.38882455 -0.026637856 0.06823729 0.80907464 0.58373094 0.20197353
-0.02814579 -0.38724738 -0.029249011 0.10148173 0.83855557 0.53528118 0.18046254
-0.017302465 -0.3890987 -0.028766405 0.13339438 0.80768764 0.5743227 0.21805246
0.034384955 -0.38644615 -0.029226046 0.027128572 0.89191866 0.45138127 0.18092205
0.045761313 -0.38767567 -0.026119974 0.28647208 0.77397031 0.5647155 0.23641655
0.055942196 -0.38575506 -0.026780864 0.14782682 0.87953466 0.45228979 0.21955071
0.067407034 -0.38870969 -0.021557091 -0.048056733 0.99270928 0.11053924 0.20700528
0.077826068 -0.38635194 -0.022728547 -0.0010155367 0.99526864 0.097155876 0.22524887
0.083301239 -0.38246909 -0.026394937 -0.38886034 0.82716519 0.40569124 0.20908208
0.09497305 -0.38526896 -0.021333218 -0.61530185 0.78583121 -0.062233236 0.2251205
0.10229941 -0.38192502 -0.02394408 -0.54314715 0.73233581 0.41070113 0.17658959
0.11348896 -0.38031584 -0.020821618 -0.44402257 0.74986023 0.49046275 0.20088606
0.17426059 -0.38724086 -0.028579228 -0.18028267 0.62630069 0.75844949 0.13457513
0.18228886 -0.3891589 -0.023701131 -0.27576706 0.63122499 0.72491908 0.056058105
0.19385423 -0.3831805 -0.024806241 -0.18039507 0.44349506 0.87793493 0.18951669
0.20975365 -0.38175398 -0.020006487 -0.30083638 0.64011919 0.70692641 0.10451865
-0.21883185 -0.37666982 -0.020928156 0.33844042 0.5886569 0.73412609 0.14839977
-0.20699118 -0.3732698 -0.028964018 0.35478768 0.49566939 0.79274064 0.16465737
-0.19726475 -0.3796643 -0.026763197 0.15903004 0.61465961 0.77259499 0.1380887
-0.13138533 -0.37174845 -0.022099711 0.29040942 0.82630551 0.4825781 0.20362517
-0.12295613 -0.37393323 -0.02354146 0.16829258 0.7441079 0.64651459 0.22335288
-0.1194755 -0.3711504 -0.028087255 0.15505925 0.79183501 0.59072328 0.18468656
-0.1074186 -0.3775354 -0.026611129 0.53638625 0.57750303 0.6154511 0.23251778
-0.099022597 -0.37863457 -0.028430905 0.38826972 0.83536291 0.38912144 0.22428463
0.10375787 -0.37627918 -0.029553581 -0.41680196 0.82603234 0.37940317 0.16726686
0.11617666 -0.3761324 -0.02416366 -0.46303651 0.69358498 0.55184877 0.16724123
0.12440041 -0.37397262 -0.022840459 -0.24199957 0.7351796 0.63320386 0.17760673
0.13326061 -0.37120914 -0.021836832 -0.16874284 0.82193041 0.54401863 0.20213102
0.19618006 -0.37869573 -0.028082246 -0.22267523 0.58791775 0.77766865 0.17250746
0.20296074 -0.3756693 -0.028284863 -0.29333779 0.65447015 0.69686574 0.14722848
