# .PCD v0.7 - Point Cloud Data file format
VERSION 0.7
FIELDS x y z normal_x normal_y normal_z curvature
SIZE 4 4 4 4 4 4 4
TYPE F F F F F F F
COUNT 1 1 1 1 1 1 1
WIDTH 578
HEIGHT 1
VIEWPOINT 0 0 0 1 0 0 0
POINTS 578
DATA ascii
0.055110693 0.26847899 -0.098938428 -0.12057494 -0.60861665 0.7842496 0.00079003145
0.067568988 0.26522586 -0.09847106 -0.17598008 -0.60119647 0.77948302 0.00032277021
0.076617986 0.26632518 -0.095295168 -0.19853133 -0.593297 0.78011787 2.3921035e-05
0.087166198 0.26439148 -0.09403789 -0.2011254 -0.5917502 0.78062814 0
0.097189583 0.26331818 -0.092262104 -0.20086958 -0.59120911 0.78110379 0
-0.089530312 0.27057457 -0.090467572 0.18573645 -0.59319961 0.78333658 0.00080920744
-0.069692969 0.27363011 -0.091160104 0.12644172 -0.61110961 0.78138179 3.8606711e-05
-0.055659663 0.27263281 -0.09413866 0.12185041 -0.61403042 0.77981991 0
-0.04565404 0.27303982 -0.095381476 0.12122846 -0.61414504 0.77982658 0
-0.034874421 0.27606893 -0.09467949 0.10930403 -0.61661786 0.77963781 0.00010356119
-0.021107819 0.27215463 -0.099914439 0.052641038 -0.62064892 0.78231955 0.00083490758
-0.013239521 0.27529258 -0.097698368 0.025242915 -0.62361175 0.78132659 0.00086803263
-0.004947748 0.27456203 -0.097844623 -0.012332214 -0.62639391 0.77940917 0.0003853323
0.0051774736 0.27541164 -0.096627384 -0.038793489 -0.62405241 0.78041893 0
0.019107683 0.2742849 -0.096792474 -0.041366864 -0.62445939 0.77996111 6.7435308e-06
0.025895342 0.27452987 -0.096236587 -0.043759219 -0.62364197 0.78048438 1.1683156e-05
0.035219252 0.27652752 -0.094141722 -0.04394808 -0.62218726 0.78163391 6.1133496e-06
0.045452721 0.27234715 -0.09694992 -0.082331136 -0.61610156 0.78335202 0.00056905363
0.053350035 0.27265248 -0.096125826 -0.11365099 -0.61663264 0.77900428 0.00074845989
0.069313429 0.27334598 -0.091845356 -0.17340274 -0.59733826 0.78301883 0.00043720499
0.083818391 0.27069739 -0.090108514 -0.20062771 -0.59144992 0.78098363 1.2611743e-05
-0.041495621 0.28067127 -0.090018973 0.11505871 -0.61151803 0.78281999 5.2262036e-05
-0.032677773 0.28079826 -0.091296814 0.085695349 -0.61752987 0.78186518 0.00057682471
-0.024918661 0.28111756 -0.092257693 0.073325686 -0.61843652 0.78240627 0.0005967773
-0.014196971 0.28161561 -0.092681617 0.016662851 -0.6230619 0.78199506 0.00084217236
-0.0046427255 0.28004783 -0.093432002 -0.017097849 -0.62441248 0.78090769 0.00040363337
0.0070482381 0.28070968 -0.092282265 -0.041019082 -0.62358093 0.78068191 2.6952233e-05
0.010332562 0.28066906 -0.092140868 -0.040987782 -0.62360811 0.78066188 3.1300508e-05
0.024648216 0.28150412 -0.090713307 -0.041370809 -0.62220395 0.78176129 1.5287957e-05
0.033733364 0.28096172 -0.090666749 -0.043717414 -0.62234223 0.78152347 0
0.04159297 0.28066289 -0.090489894 -0.066296704 -0.62084031 0.7811287 0.00048332423
-0.045875531 -0.29031283 -0.082546562 0.065975152 0.61889976 0.78269434 0.00037370634
-0.037751462 -0.29272339 -0.08109463 0.05376552 0.61786282 0.78444552 0.00018858547
-0.025501154 -0.29142207 -0.082735613 0.040966175 0.61824095 0.78492033 1.5424925e-05
-0.016457045 -0.29162475 -0.083053537 0.041356493 0.61770636 0.78532064 0
-0.0055383197 -0.29342109 -0.08220391 0.038889531 0.61488754 0.78765529 8.3201403e-06
0.0064835344 -0.29309568 -0.083072551 0.0059446185 0.62332767 0.7819382 0.00063001091
0.01490136 -0.29071346 -0.085427612 -0.023634771 0.62610948 0.77937692 0.00089664524
0.020805206 -0.29254574 -0.083897002 -0.054491341 0.62417829 0.77937937 0.00098357827
0.050179701 -0.29026064 -0.081171431 -0.12088002 0.60761648 0.78497791 0
-0.080482975 -0.28466853 -0.080436602 0.19737488 0.58537143 0.78637362 1.8172248e-05
-0.076451361 -0.28179759 -0.083573535 0.19195944 0.58788103 0.78584188 0.00011409233
-0.065679446 -0.28796542 -0.081713974 0.1545606 0.59849501 0.78607553 0.0008348503
-0.054677993 -0.28564787 -0.085772231 0.10895006 0.61118537 0.78395307 0.0010490814
-0.047430292 -0.28207198 -0.089051455 0.081934951 0.61793071 0.78195161 0.00063193077
-0.033150215 -0.28673735 -0.086068891 0.041581836 0.62030739 0.78325582 9.4212828e-07
-0.024715656 -0.28457442 -0.088249125 0.041295733 0.62144721 0.78236687 0
0.013645287 -0.28774324 -0.087741517 -0.024209637 0.62892926 0.77708548 0.00083729625
0.020106064 -0.28699145 -0.08838208 -0.055162579 0.62599957 0.77786988 0.00080016576
0.036001649 -0.28914607 -0.08420077 -0.1018779 0.61147833 0.78467512 0.00027893358
0.045456357 -0.28885224 -0.082958005 -0.12096259 0.60819024 0.78452069 0
0.055874877 -0.28529352 -0.084130548 -0.1207298 0.60902542 0.78390843 1.8824878e-05
0.061662953 -0.28645495 -0.082335494 -0.12078001 0.60805082 0.78465688 0
0.074604452 -0.28485474 -0.081599161 -0.12604341 0.60502893 0.78616351 9.6701559e-05
0.086317554 -0.28187776 -0.082097188 -0.16302669 0.58883166 0.79164362 0.00080743188
0.097540066 -0.28100839 -0.080617867 -0.2157619 0.57658386 0.78803414 0.00084331597
-0.1122983 -0.2703363 -0.083019495 0.2144724 0.58060724 0.78542775 0.00026333897
-0.10728844 -0.27150071 -0.083428919 0.20339389 0.5873425 0.78336436 2.4856254e-05
-0.095504463 -0.27643728 -0.082762726 0.20029458 0.58666414 0.78467011 1.1176937e-05
-0.082964063 -0.27550757 -0.086671732 0.20044164 0.58900684 0.78287554 0
-0.077639483 -0.27617866 -0.087538324 0.19918124 0.59052819 0.78205073 6.664322e-06
0.06559518 -0.27659777 -0.089462422 -0.12252425 0.61177248 0.78148729 3.7390313e-05
0.084551364 -0.276182 -0.086827867 -0.16505516 0.59259468 0.78840876 0.00067030493
0.094163023 -0.27494431 -0.085951194 -0.20511813 0.57931727 0.78887135 0.0009122857
0.10056166 -0.27353406 -0.084854513 -0.22978443 0.57375598 0.7861318 0.00063176139
0.11407937 -0.2712988 -0.081707947 -0.26394111 0.5586018 0.78631997 0.00016218498
-0.13711651 -0.26161098 -0.081788674 0.29889613 0.54092222 0.78617054 0.0007952021
-0.12097231 -0.26832211 -0.08233165 0.23012088 0.57433218 0.78561252 0.00053778768
-0.1150053 -0.26514715 -0.086264379 0.21765161 0.58142769 0.78394485 0.00026823799
-0.10171542 -0.2677803 -0.087698728 0.20059253 0.58928424 0.78262812 2.2677161e-05
-0.099437624 -0.26642051 -0.089321747 0.20078854 0.58957237 0.78236073 0
0.10426526 -0.26824331 -0.087346107 -0.25244513 0.56653178 0.78441912 0.00030538478
0.11731768 -0.26663589 -0.083872795 -0.27339777 0.55533147 0.78540474 5.7996172e-06
0.12006444 -0.2658048 -0.083496958 -0.27317345 0.55506974 0.78566778 6.4873925e-06
0.13172773 -0.26168719 -0.082349226 -0.2730042 0.55580157 0.78520912 0
-0.1524054 -0.25290069 -0.080809124 0.34344208 0.51426631 0.78586119 4.8463598e-06
-0.14447679 -0.25621712 -0.082096279 0.32871729 0.52478611 0.78520352 0.00033121411
-0.13533463 -0.2527867 -0.088432178 0.31012562 0.5388397 0.78324574 0.00067340035
-0.12832643 -0.25867128 -0.087633558 0.27213591 0.55206865 0.78813851 0.0011439506
0.12891985 -0.25654539 -0.087026499 -0.2745505 0.5585416 0.78272176 9.1473464e-07
0.13547948 -0.25759721 -0.083947755 -0.27295053 0.55681473 0.7845096 2.7914029e-06
0.14240411 -0.25369117 -0.08429832 -0.27744839 0.55412728 0.78483462 6.4949934e-05
-0.1707397 -0.24005869 -0.081181481 0.34392002 0.51435697 0.78559268 1.8967225e-05
-0.15093926 -0.24282804 -0.088111468 0.34638387 0.51760089 0.78237301 2.6588195e-05
-0.14683558 -0.24678147 -0.087304913 0.34128428 0.51825935 0.78417617 6.1745195e-05
0.14011511 -0.24722856 -0.089767128 -0.28347903 0.5560652 0.78130084 9.3944524e-05
0.15533483 -0.24214227 -0.088031441 -0.31565019 0.53345561 0.78472292 0.00068637752
0.16588695 -0.24530253 -0.081441276 -0.34379408 0.5162878 0.78438038 0.00077397772
-0.18016036 -0.23328781 -0.081484005 0.3576135 0.50515425 0.78545004 0.00024922073
-0.17234725 -0.23263964 -0.085352391 0.34411997 0.51578468 0.78456849 3.3263055e-05
-0.16422836 -0.23529828 -0.087203383 0.3459008 0.51666594 0.78320426 0
-0.15671398 -0.2380541 -0.088719487 0.34642768 0.51727438 0.78256953 3.1516811e-05
0.1598068 -0.23991427 -0.088049971 -0.33546773 0.51690817 0.78757048 0.00086323684
0.16254792 -0.23591153 -0.089071319 -0.35106876 0.51051116 0.78493893 0.00095915282
0.17725177 -0.23331715 -0.082882375 -0.39912856 0.47455105 0.7845366 0.00019273926
-0.19095175 -0.22747743 -0.080574669 0.38393226 0.48084947 0.78827649 0.00069795764
-0.18318564 -0.22446825 -0.085970514 0.38035282 0.49220785 0.78298348 0.0006452385
-0.17476487 -0.22659925 -0.088305116 0.35029328 0.51504433 0.78231955 9.7823307e-05
0.1773017 -0.22638492 -0.087018527 -0.40563822 0.47074381 0.78349084 7.0735441e-05
0.1855216 -0.22285315 -0.084801957 -0.40887797 0.46614435 0.78455615 8.1566714e-06
0.19693814 -0.22000866 -0.080563411 -0.40810388 0.46464139 0.78584957 0
-0.20680834 -0.21099055 -0.081083506 0.45224339 0.42327899 0.78505474 0.00022140464
-0.1981253 -0.2153967 -0.083953999 0.41598698 0.45404691 0.78790617 0.00064029265
-0.18624458 -0.21714249 -0.089491494 0.3989757 0.47696733 0.78314793 0.00085587654
0.19596729 -0.21410032 -0.084561728 -0.40890828 0.4662506 0.78447711 0
0.20449777 -0.21192247 -0.081418589 -0.41195518 0.46196398 0.78541851 5.2170653e-05
-0.20486541 -0.20598717 -0.084838055 0.45655563 0.42233053 0.78306699 0.00025570803
0.19797447 -0.20614114 -0.088307984 -0.41397938 0.46433741 0.78295076 3.5745361e-05
0.20740302 -0.20144056 -0.086157881 -0.42353529 0.45037657 0.78598911 0.00026797992
0.21467668 -0.20225039 -0.081864715 -0.43003854 0.44543272 0.7852748 0.00045899628
-0.22549498 -0.19051765 -0.080644056 0.46567118 0.40732959 0.78564179 1.1772213e-05
0.20753308 -0.19661836 -0.089002371 -0.436984 0.43734092 0.78598857 0.00065369043
0.21144968 -0.19793552 -0.086133786 -0.43460423 0.43313134 0.78963059 0.00064826966
0.22339967 -0.19322273 -0.082231 -0.46564206 0.4026354 0.78807503 0.00088215841
-0.23113582 -0.18199833 -0.081708483 0.46591738 0.40665245 0.78584659 3.5799054e-05
-0.2234143 -0.18401909 -0.085258111 0.46799022 0.40856621 0.78361899 1.336817e-05
-0.21471992 -0.18748692 -0.088675529 0.46824729 0.40972173 0.78286183 2.4538616e-05
0.21826889 -0.18590786 -0.088889927 -0.47572672 0.39973563 0.78351486 0.00080790342
0.22415325 -0.18540022 -0.085188389 -0.49340931 0.37683898 0.78392577 0.00053520239
-0.24197777 -0.17043675 -0.081291437 0.4913888 0.36709651 0.7897957 0.00080484943
-0.23503275 -0.17144841 -0.084899239 0.47511414 0.3905881 0.78848428 0.00037849488
0.22645001 -0.17504191 -0.088281035 -0.50996548 0.35920221 0.78160667 0.00029805038
0.23416132 -0.17379831 -0.083692133 -0.51522672 0.34510794 0.78450108 3.149208e-05
-0.24369276 -0.16704117 -0.082021207 0.49909505 0.36122748 0.78766674 0.00086852361
-0.23845087 -0.16311136 -0.087238953 0.50782967 0.35743463 0.78380454 0.0010733908
0.23371743 -0.1644464 -0.088161327 -0.51745725 0.34604883 0.78261626 0
0.24410434 -0.16680777 -0.080267899 -0.51435667 0.34349322 0.78577954 1.1797059e-05
-0.24396501 -0.15270166 -0.087652437 0.5435285 0.3063257 0.78149951 0.00048691395
-0.23917747 -0.15826631 -0.089127496 0.51560658 0.34229696 0.78548247 0.0011632186
0.24613738 -0.15748696 -0.083004646 -0.51580834 0.3443321 0.78445983 3.2823151e-05
-0.25487566 -0.14402902 -0.082890362 0.55129564 0.28197348 0.78521597 0.00015546556
-0.2495757 -0.14369464 -0.086805746 0.55103743 0.28816321 0.78314734 0.0001766733
0.24861491 -0.14357035 -0.087539174 -0.52092564 0.33610082 0.78464818 0.0001276369
0.25403368 -0.14660512 -0.082582429 -0.52328146 0.3364237 0.78294033 0.00015637558
-0.26084054 -0.13867658 -0.080554895 0.55443048 0.27246314 0.78636551 2.4022082e-05
-0.25300616 -0.1346563 -0.087541133 0.55831915 0.27504173 0.78270805 4.9279544e-07
0.25445825 -0.13716111 -0.0865006 -0.53838325 0.31309152 0.78237915 0.00064924388
-0.26698166 -0.12548105 -0.080803759 0.55492526 0.27350885 0.78565317 2.2612025e-05
0.25789428 -0.12992676 -0.087437585 -0.55446213 0.27772385 0.7845006 0.00077960972
0.26329109 -0.12568776 -0.084922828 -0.56058222 0.26812935 0.78348851 0.00088182226
-0.27253675 -0.11201455 -0.081553906 0.56021899 0.25999555 0.786484 0.00015815288
-0.26797765 -0.11582971 -0.083433978 0.55816221 0.26860535 0.78505158 8.6267006e-05
0.26644704 -0.11400449 -0.085534744 -0.58381724 0.21830392 0.78198516 0.00029681946
0.27167875 -0.11463714 -0.081447676 -0.57692921 0.21452479 0.7881192 0.00027213991
-0.27297568 -0.10322215 -0.084322795 0.56721824 0.23369063 0.78971654 0.00057950005
-0.26779562 -0.10284729 -0.088171802 0.57319373 0.23377061 0.78536624 0.00059898704
0.26667902 -0.10745289 -0.087052509 -0.58779383 0.20717716 0.78203321 0.0001097627
0.27355316 -0.10431892 -0.082659818 -0.58659643 0.19928211 0.78497857 1.9447012e-05
-0.28326818 -0.090498835 -0.080406256 0.59057069 0.17586334 0.78759015 0.00087336707
-0.27610531 -0.09301804 -0.085442334 0.58714747 0.19410585 0.78586304 0.00075860909
-0.26927647 -0.098221958 -0.088746071 0.572855 0.23083262 0.78648168 0.00056466402
0.26898667 -0.09152545 -0.089416422 -0.59010404 0.20088324 0.78193551 3.7882059e-05
0.27374518 -0.095449015 -0.084792927 -0.58827472 0.20047466 0.78341734 5.8996202e-06
0.28125638 -0.090806484 -0.080364153 -0.5851903 0.19908324 0.78607774 0
-0.28270799 -0.083763145 -0.08185067 0.59775817 0.15137759 0.78725469 0.00058796961
-0.27582443 -0.085600674 -0.086945653 0.59485847 0.17094529 0.78544325 0.00074623857
0.27486265 -0.083911657 -0.086918838 -0.58912092 0.20012577 0.78287053 1.6781303e-05
-0.28464037 -0.072284549 -0.08212623 0.60666245 0.12144782 0.78562784 9.5726064e-06
-0.27748999 -0.078758985 -0.086702533 0.59849757 0.14684071 0.78755218 0.0004290941
0.27818403 -0.076605082 -0.086280897 -0.59197009 0.19726494 0.78144616 0
0.28469676 -0.074273124 -0.081974685 -0.59186804 0.18644156 0.78417587 0.00027838748
-0.28344494 -0.062604956 -0.084535271 0.60963857 0.12083771 0.78341502 2.2656179e-05
0.27929628 -0.064408809 -0.088588975 -0.60199231 0.16929179 0.78034961 0.0006043294
0.283236 -0.062363703 -0.086128056 -0.61137271 0.13589314 0.77958739 0.0011540361
-0.28762043 -0.055154525 -0.082442775 0.60804212 0.12109549 0.78461498 1.6986884e-05
-0.27760416 -0.059615932 -0.089603871 0.61230081 0.12094536 0.78131932 0
0.28550139 -0.057741147 -0.085599698 -0.6070677 0.12079015 0.78541619 0.0010244075
0.29127318 -0.054791652 -0.08134567 -0.60639018 0.10319562 0.78844249 0.0010027871
-0.29135638 -0.040357001 -0.081820898 0.60636812 0.10987491 0.78755647 0.00017957747
-0.28451496 -0.044028655 -0.086602569 0.6097427 0.12084517 0.78333277 5.2485469e-05
0.28891766 -0.045495003 -0.083667636 -0.61145288 0.072989196 0.7879073 0.00062116428
0.29350579 -0.043644439 -0.080186531 -0.61138737 0.059841033 0.78906566 0.00043342568
-0.29123107 -0.037173033 -0.082397386 0.61097354 0.10799363 0.78425044 0.00021377233
-0.28597975 -0.035904761 -0.086710446 0.61190408 0.105971 0.78380072 0.00029872012
0.28834254 -0.032861982 -0.084797725 -0.61744374 0.045530569 0.7852962 8.505088e-05
0.29330295 -0.035105154 -0.08078108 -0.61523861 0.046504308 0.78696817 7.2746108e-05
-0.29085693 -0.022666583 -0.084936656 0.62302935 0.051703412 0.78048778 0.00073626416
-0.28526479 -0.02366985 -0.089185506 0.61722219 0.057177622 0.78470862 0.00071388186
0.28553054 -0.025169676 -0.087458812 -0.62104368 0.041102644 0.7826975 2.9334064e-05
0.29426056 -0.024367213 -0.080588982 -0.61754733 0.041018322 0.78546339 6.2876002e-06
-0.29386276 -0.011361018 -0.082762986 0.61915165 0.015758326 0.78511333 0.0007469448
0.29329357 -0.01493887 -0.08182124 -0.61800385 0.041283622 0.78509039 7.1564546e-06
-0.29360271 -0.0023327339 -0.082466289 0.61947316 -0.024269473 0.7846427 0.00013447031
-0.28630933 -0.0045053232 -0.088406548 0.62118816 -0.027337901 0.78318447 0.00016610722
0.29033267 -0.0041012354 -0.084726244 -0.62057996 0.033546735 0.78342521 0.00011026344
-0.29426691 0.0089016762 -0.081376195 0.61754692 -0.041110158 0.78545898 2.3795224e-05
-0.28849491 0.0048287823 -0.086160511 0.61975437 -0.035231959 0.78400463 6.8422378e-05
0.28772178 0.0058683585 -0.08734677 -0.62022722 0.0051748143 0.78440517 0.00058938615
0.29205596 0.0072580981 -0.083946869 -0.61732858 0.009116143 0.78665257 0.00060007715
-0.28510636 0.016766939 -0.088243827 0.62068117 -0.041051287 0.78298771 0
0.28736699 0.014710855 -0.088099509 -0.62054127 -0.026972339 0.78370982 0.00096839893
0.29588246 0.019358691 -0.081545673 -0.61804849 -0.045567032 0.78481823 0.00091671845
-0.28572324 0.022390539 -0.08745157 0.61987782 -0.041189615 0.78361654 8.2477573e-07
0.28571373 0.024118599 -0.088761702 -0.62146103 -0.059284858 0.7811988 0.00076849741
0.29449701 0.025159726 -0.081725687 -0.61556524 -0.053278577 0.7862829 0.00087203243
-0.29263753 0.033283476 -0.081390031 0.61679715 -0.040357232 0.78608686 1.0720464e-05
-0.28531536 0.033913545 -0.087168097 0.62034422 -0.04125293 0.78324407 2.3722214e-05
0.28650591 0.035309214 -0.086388953 -0.61087143 -0.094330966 0.7860902 0.00038874336
0.29138684 0.033369657 -0.082865298 -0.60979444 -0.091401331 0.78727162 0.00049392675
-0.29309845 0.044378452 -0.080464587 0.61373478 -0.056457892 0.78749096 0.00033101524
-0.28523859 0.044861283 -0.086649716 0.61739576 -0.066490903 0.78383768 0.0004421013
0.28510696 0.041749708 -0.086484715 -0.60974997 -0.11420555 0.78432262 2.0577234e-05
-0.28485647 0.055856232 -0.0862865 0.61359906 -0.12477381 0.77969712 0.00088771177
0.27943617 0.055220671 -0.088847339 -0.61095047 -0.12150985 0.78228813 0
0.28546858 0.054152191 -0.084289841 -0.60826212 -0.12121957 0.7844252 0
-0.28473663 0.06937205 -0.083168611 0.59719938 -0.16893336 0.78410107 0.00054182968
0.28456968 0.065540023 -0.083224125 -0.60895264 -0.12086983 0.78394336 0
-0.27685726 0.076226264 -0.087387756 0.59070837 -0.19366819 0.78329843 3.8974587e-05
0.2769866 0.074120224 -0.087823987 -0.60935348 -0.12759615 0.78256476 7.5759213e-05
0.28398982 0.074549668 -0.082278177 -0.60687703 -0.12467855 0.7849558 6.6958761e-05
-0.27369121 0.086814284 -0.087057285 0.58855408 -0.20005395 0.78331512 1.3115688e-05
0.27700162 0.081048772 -0.086729467 -0.6042282 -0.1458911 0.78334159 0.00037283063
0.28230727 0.083737105 -0.082159907 -0.60391432 -0.13443424 0.78563023 0.00019163247
-0.27441287 0.096350692 -0.084070683 0.58752292 -0.19857803 0.78446382 5.2205945e-05
-0.26846877 0.094168395 -0.08912681 0.58960086 -0.20013337 0.78250712 2.553018e-06
0.27290702 0.097675398 -0.086324051 -0.58751506 -0.21685189 0.77961612 0.00058673508
-0.27497029 0.10506374 -0.081422143 0.58555716 -0.19931459 0.7857458 5.7814746e-06
0.26628375 0.10991333 -0.08675389 -0.56537849 -0.2591607 0.78305995 0.00022928359
-0.25973508 0.1188748 -0.089379154 0.57187468 -0.24015945 0.78439963 0.00070720393
0.25894833 0.11869703 -0.088922545 -0.55867177 -0.27504873 0.78245384 1.2651354e-05
0.26778483 0.11340462 -0.084436469 -0.55938131 -0.27203757 0.7829994 4.6588746e-05
-0.26632622 0.12533505 -0.082717955 0.56389123 -0.25896895 0.78419495 0.00063625211
-0.25852844 0.12800159 -0.087874003 0.55372924 -0.27295768 0.78668809 0.00081275543
0.25384545 0.12784338 -0.089353889 -0.55879641 -0.27560124 0.78217041 3.0308693e-05
0.2630536 0.12619023 -0.083305642 -0.55518067 -0.27417842 0.78523928 0
-0.26367632 0.13445921 -0.081603013 0.54259849 -0.29696843 0.78574592 0.00060198456
-0.25462514 0.13428371 -0.087674215 0.52850956 -0.31017259 0.79023451 0.00052612642
-0.2495296 0.13887319 -0.089026242 0.52690965 -0.32767016 0.78421837 0.00027986811
-0.2561872 0.14439243 -0.082147866 0.522623 -0.32872581 0.7866413 0.00023021283
0.24787524 0.14377035 -0.088004157 -0.55317926 -0.28777093 0.78178048 0.00023387359
0.25209662 0.14811905 -0.083419368 -0.54718995 -0.29416436 0.78361368 0.00029366804
-0.24466908 0.15822686 -0.083627872 0.51477033 -0.34457913 0.78503299 1.402283e-05
-0.23913349 0.15840255 -0.087244816 0.51698446 -0.34600273 0.78294903 7.9088168e-06
0.24493328 0.15348376 -0.086677246 -0.53552014 -0.32012817 0.78149605 0.00064444204
0.25036293 0.1523886 -0.083153546 -0.54046494 -0.30518222 0.78406727 0.00055495987
-0.24312842 0.16580506 -0.081330836 0.51389593 -0.34372306 0.78598052 2.4125411e-05
-0.23752439 0.16274539 -0.086379558 0.51664084 -0.34577471 0.78327656 8.8140287e-06
0.23809263 0.16382697 -0.087076671 -0.50645256 -0.35828072 0.78430909 0.00072265865
-0.2349319 0.17409596 -0.083057106 0.51350576 -0.346064 0.78520793 1.8451312e-05
0.22965871 0.17148277 -0.088120282 -0.4810766 -0.39135849 0.78447682 0.00034312505
0.23505473 0.17414869 -0.083457284 -0.4797748 -0.38724607 0.78730971 0.00039248914
0.24338457 0.17003752 -0.080673933 -0.50387949 -0.35901904 0.78562766 0.00063226052
-0.22681902 0.1838664 -0.084116615 0.49474356 -0.37974077 0.78168142 0.00050275389
-0.21930525 0.18489084 -0.088652253 0.48091942 -0.39481646 0.78283882 0.00066396594
0.2165713 0.1888773 -0.086821169 -0.46871215 -0.41114482 0.78183675 3.6950907e-05
0.2233122 0.18729284 -0.083604828 -0.46666339 -0.40869889 0.7843408 0
-0.22037578 0.19568163 -0.08268483 0.46787822 -0.41108701 0.78236657 0.00073448382
-0.21103099 0.19749199 -0.086623326 0.4321956 -0.43898782 0.78771615 0.00037528999
-0.20345274 0.1993852 -0.089490265 0.42837423 -0.44737229 0.78508192 0.0003633273
0.20746315 0.19567826 -0.088724524 -0.46861896 -0.4106622 0.78214628 1.8458253e-05
0.21374802 0.19536044 -0.085097156 -0.46760023 -0.40962151 0.78330082 1.1990126e-05
0.22145328 0.19541243 -0.080500282 -0.46438724 -0.4078325 0.78614062 4.3874017e-05
-0.21517262 0.20286945 -0.081244372 0.43910015 -0.43387255 0.78673095 0.00051649538
-0.20308429 0.20424505 -0.086749159 0.41636348 -0.45908818 0.78477991 0.00013671772
-0.19545177 0.20778716 -0.088648632 0.41128612 -0.46904749 0.78156143 0
0.19726336 0.20718509 -0.088796869 -0.44766578 -0.43838266 0.77936894 0.00061159022
0.20488152 0.20472595 -0.085502863 -0.46495032 -0.41487673 0.78211147 6.4896034e-05
0.21359912 0.20220119 -0.08161439 -0.46556008 -0.40760559 0.78556442 0
-0.19360606 0.21352689 -0.086157821 0.41030669 -0.46811885 0.78263223 1.6952761e-05
-0.18684958 0.21564564 -0.088453561 0.41046873 -0.46876353 0.78216124 2.711074e-05
0.19663994 0.21784322 -0.083539605 -0.41955957 -0.44787768 0.7895413 0.00090495136
0.20233405 0.21225564 -0.083054885 -0.43599075 -0.4340885 0.78833956 0.00068997237
-0.1848284 0.22732764 -0.082485892 0.40845793 -0.4662554 0.7847088 1.7624441e-05
-0.17793551 0.22789961 -0.085767984 0.40418476 -0.47029901 0.78450841 7.8273806e-05
0.17886299 0.22741646 -0.085929416 -0.36569586 -0.49309057 0.78938466 0.00038565742
0.18009603 0.22984189 -0.083759606 -0.36475053 -0.49573943 0.78816211 0.00036024133
0.19148272 0.22471662 -0.082127482 -0.38397294 -0.47448963 0.79210132 0.00069739175
-0.17499565 0.23352623 -0.083932213 0.39650434 -0.47731072 0.7841931 0.00030430433
-0.16303106 0.23614497 -0.088674583 0.36419564 -0.51056284 0.7789011 0.00076831796
-0.15901096 0.23892739 -0.088998139 0.33942249 -0.51747471 0.7855013 0.00097626873
0.15767509 0.23883778 -0.087767079 -0.34667912 -0.5173834 0.78238612 2.9203336e-05
0.16606291 0.23032506 -0.089704059 -0.34677178 -0.5174666 0.78228992 2.5313768e-06
0.17420924 0.23395705 -0.083680183 -0.34958845 -0.51187247 0.78471303 6.5087312e-05
0.18098351 0.23304962 -0.08128231 -0.3611905 -0.50149536 0.78615761 0.00033513218
-0.16412935 0.2419523 -0.084584832 0.35657796 -0.50941724 0.7831642 0.0008885907
-0.15545323 0.24553448 -0.085554056 0.31809253 -0.5240944 0.79002672 0.00091891841
0.1590689 0.24562983 -0.08263047 -0.34504354 -0.5149709 0.78469735 8.4611438e-06
-0.15351811 0.25309932 -0.080856107 0.29357541 -0.53789216 0.79024392 0.00051651068
-0.14346881 0.25377479 -0.083882891 0.27844208 -0.55342853 0.78497565 5.0338313e-05
-0.13526052 0.25466719 -0.086129874 0.2751199 -0.55833817 0.78266692 3.2394983e-05
-0.12616399 0.25703478 -0.087651759 0.27503839 -0.55914068 0.78212243 0
-0.11809476 0.25937647 -0.088827759 0.27471599 -0.55884051 0.78245026 4.3811164e-05
0.12758136 0.25859919 -0.087865986 -0.26683155 -0.56219637 0.78277463 0.0010922148
0.13636972 0.25472841 -0.086673677 -0.31207263 -0.53458107 0.78538764 0.0008425219
0.14573936 0.25508425 -0.08228533 -0.33563507 -0.52108866 0.78473926 0.00014542656
0.15222463 0.25227463 -0.081291273 -0.34334597 -0.51559186 0.78503412 1.6766469e-05
-0.13395388 0.26213911 -0.081270553 0.27356473 -0.55436176 0.78603137 2.0150153e-05
-0.12446069 0.26327103 -0.08377178 0.27450678 -0.55657274 0.7841382 1.0965498e-05
-0.11443043 0.26415533 -0.086684644 0.27333924 -0.5587706 0.78298211 4.9711503e-05
-0.10410932 0.26578957 -0.089169443 0.24766654 -0.56995511 0.78346187 0.00047622953
0.09915711 0.26752138 -0.088557132 -0.20115654 -0.58948606 0.78233129 0
0.10936411 0.26922053 -0.084625646 -0.20461763 -0.58644909 0.78371495 6.3959014e-05
0.11344586 0.26453084 -0.087136254 -0.21597664 -0.5798912 0.78554457 0.00022742522
0.12820528 0.26162547 -0.08552888 -0.26473176 -0.55571795 0.78809559 0.0011473601
0.13325645 0.26230752 -0.083005905 -0.2838003 -0.54863226 0.78642231 0.00091071933
-0.1169569 0.27152675 -0.080561802 0.27116802 -0.55562222 0.78597194 0
-0.1034072 0.27028343 -0.086180568 0.24957046 -0.56963778 0.78308839 0.00047872611
-0.094825417 0.27348885 -0.086742669 0.20288852 -0.58041203 0.78864318 0.00091883336
-0.087893158 0.278725 -0.084302209 0.16371012 -0.59824497 0.78441185 0.00051105721
-0.077337354 0.27777413 -0.086700819 0.14830691 -0.60137963 0.78507799 0.00032282554
-0.067031428 0.27745619 -0.088561714 0.12501566 -0.6086489 0.78352892 6.7651796e-05
0.06606847 0.27764106 -0.089418411 -0.16713746 -0.6003623 0.78206784 0.00054549717
0.074385919 0.27784908 -0.087109447 -0.18738095 -0.59334755 0.78283268 0.00022848023
0.08566542 0.27595401 -0.085639134 -0.20094787 -0.58800179 0.78350109 2.4804911e-05
0.095356219 0.2741183 -0.08453954 -0.19926199 -0.58773154 0.78413409 0
0.10362959 0.27378112 -0.082668602 -0.19931388 -0.58638394 0.78512913 0
0.11380044 0.27166429 -0.081667483 -0.20945199 -0.57978356 0.78738868 0.00018701541
-0.10001604 0.28041279 -0.080183305 0.21997613 -0.57822603 0.78566229 0.00084966584
-0.084597513 0.28212625 -0.082167752 0.16134028 -0.59641832 0.78629154 0.00049364247
-0.070026942 0.28322765 -0.083546668 0.12325533 -0.60705054 0.78504628 5.3606505e-05
-0.0652752 0.28517327 -0.082796291 0.12062131 -0.60716039 0.78537047 0
-0.054791141 0.28194192 -0.086940348 0.12086552 -0.6096068 0.78343546 1.9139961e-05
-0.044856474 0.28777307 -0.083904877 0.12047114 -0.6082691 0.78453517 2.0879468e-05
-0.036080949 0.28436452 -0.087955408 0.10969599 -0.61248833 0.78283131 0.00013405331
-0.027151788 0.28407001 -0.089582711 0.078550771 -0.61552143 0.78419596 0.000532148
-0.014914031 0.28756252 -0.087917306 0.018434135 -0.62230629 0.78255677 0.0010296146
-0.0058570001 0.28606004 -0.088677935 -0.015885117 -0.62517202 0.78032541 0.00040638866
0.0074987207 0.2859509 -0.08805798 -0.040862419 -0.62134504 0.78247094 8.4460244e-06
0.013099708 0.28654793 -0.087282777 -0.040823724 -0.62074357 0.78295016 1.4196462e-05
0.023514081 0.28615081 -0.08704938 -0.041258868 -0.62050265 0.78311831 0
0.03301125 0.28896534 -0.084290661 -0.040842202 -0.61911005 0.7842415 4.505403e-06
0.045371823 0.28168988 -0.089466654 -0.083625361 -0.61576915 0.78347629 0.00077802897
0.056376424 0.285108 -0.086054631 -0.1195916 -0.60714537 0.78553957 0.00093372492
0.064307265 0.28329918 -0.085571371 -0.15515333 -0.60584456 0.78030753 0.00056250242
0.072570056 0.28364286 -0.08317551 -0.17431508 -0.59584308 0.78395492 0.00035512954
0.083756357 0.28077352 -0.08248198 -0.19890535 -0.58597779 0.78553599 0
-0.043556012 0.29152054 -0.081212506 0.11395565 -0.60839599 0.78540975 8.5025975e-05
-0.031174276 0.29101259 -0.083484605 0.091637202 -0.61391789 0.78403282 0.00037456481
-0.02549248 0.29224434 -0.083427906 0.080492854 -0.61476308 0.78459364 0.00052773661
-0.013746323 0.29178283 -0.084509462 0.013757405 -0.61556798 0.78796369 0.00084393466
-0.007197679 0.29236236 -0.083698139 -0.015169049 -0.61768657 0.78627807 0.00046198847
0.0098564131 0.29360887 -0.081837222 -0.04083338 -0.6177845 0.78528661 4.6424731e-05
0.012304448 0.29185474 -0.083086133 -0.040751576 -0.6184687 0.78475201 3.5411202e-05
0.022337161 0.29095131 -0.08326447 -0.041066892 -0.61846584 0.78473788 0
0.045985378 0.29205713 -0.081189238 -0.072897561 -0.61359173 0.78625125 0.00049861684
0.050259296 0.29085514 -0.081901759 -0.083263233 -0.60977107 0.78819185 0.00065565569
-0.064691916 -0.3023113 -0.071412928 0.14367297 0.59301531 0.79226947 0.00085055159
-0.044652145 -0.30349553 -0.072393648 0.054007784 0.6090458 0.79129416 0.00016958361
-0.034174275 -0.30297497 -0.073333688 0.040224582 0.61320198 0.78890139 0
-0.022977853 -0.3032369 -0.073704176 0.040360387 0.61287248 0.78915042 8.4678948e-07
-0.01628405 -0.30376413 -0.073638469 0.040298671 0.61291504 0.78912055 0
-0.0058600688 -0.30384356 -0.074110821 0.04130682 0.61333895 0.78873885 1.5401007e-05
0.0021258928 -0.3082245 -0.071124949 0.02910896 0.61554092 0.7875672 0.00012435351
0.011113168 -0.30870989 -0.071209133 0.017238332 0.62083554 0.78375125 0.00029618939
0.026808701 -0.30462959 -0.073756717 -0.076458089 0.60562962 0.79206491 0.00064057182
0.041309483 -0.30170032 -0.073797233 -0.11924531 0.60274631 0.78897238 0
0.053725168 -0.30156448 -0.072024792 -0.11945838 0.6019038 0.78958315 0
-0.099975638 -0.29038626 -0.071358711 0.197795 0.5816735 0.78900766 6.7586002e-06
-0.088273481 -0.29473454 -0.071087547 0.19771048 0.58145148 0.7891925 6.6440093e-06
-0.074130476 -0.29467571 -0.074667066 0.18434876 0.58228171 0.79181027 0.00026009898
-0.066319019 -0.29488686 -0.076464988 0.15021604 0.5951435 0.78945506 0.00075833296
-0.058705576 -0.29945895 -0.074801877 0.10256536 0.60025781 0.79320294 0.00073275942
-0.044278711 -0.29659885 -0.077757135 0.056491047 0.61192036 0.78889936 0.00021154294
-0.034937121 -0.29810038 -0.077072069 0.040212438 0.61426741 0.78807265 6.1637447e-06
-0.012675253 -0.29677427 -0.079239935 0.040986288 0.61389041 0.7883265 3.0543742e-05
-0.0043395627 -0.29994792 -0.077207506 0.038468301 0.61345857 0.78878939 3.0490086e-05
0.006042996 -0.29896531 -0.078500755 0.031967837 0.61729598 0.78608131 0.00013665562
0.039687067 -0.29648075 -0.078018501 -0.11392201 0.60447079 0.78843945 6.9821486e-05
0.045786116 -0.29647273 -0.077103078 -0.12024401 0.60436308 0.78758281 1.5467349e-05
0.052445412 -0.29617256 -0.076325595 -0.11951742 0.60342348 0.78841341 2.2200904e-05
0.068393484 -0.29407009 -0.075517587 -0.11921015 0.60359377 0.78832954 9.4735296e-06
0.073972248 -0.2958481 -0.073320195 -0.1216075 0.60166061 0.78944039 0
0.086240649 -0.29584485 -0.071469054 -0.14282197 0.59572273 0.79039001 0.00039256221
0.09123151 -0.29606172 -0.070549779 -0.16101256 0.58866096 0.79218256 0.00077304093
0.10039788 -0.29193681 -0.072023377 -0.20506895 0.5743174 0.79253149 0.00088390132
-0.11497617 -0.2841188 -0.07221622 0.2033042 0.57973295 0.78903556 4.5299483e-05
-0.10386284 -0.28474718 -0.074532934 0.1980471 0.5828793 0.78805387 3.0875076e-06
-0.087202206 -0.28666618 -0.077287734 0.19833976 0.58362424 0.7874288 0
0.065971859 -0.28882843 -0.079876415 -0.11947477 0.60507947 0.78714967 2.2473469e-05
0.085153297 -0.28808764 -0.077542588 -0.15191147 0.59066862 0.79248565 0.00056494842
0.091732129 -0.28861618 -0.076145962 -0.17881049 0.58165401 0.79353982 0.00099958084
0.10586063 -0.28550988 -0.074626803 -0.23900293 0.56018734 0.79313785 0.00044844279
0.11583155 -0.28608015 -0.070808433 -0.25965691 0.55616307 0.78946877 0.00024169564
0.12285803 -0.28220451 -0.071097821 -0.27057847 0.55138385 0.7891534 0
-0.14311856 -0.27075282 -0.073295899 0.31216478 0.5273698 0.7902115 0.00056061934
-0.13453101 -0.27452135 -0.074346915 0.2589778 0.54607415 0.79670167 0.00080614502
-0.12399013 -0.27620462 -0.075781375 0.22561224 0.56679964 0.79236186 0.00041333443
-0.11304725 -0.27761412 -0.077481166 0.20797527 0.57886314 0.78845668 0.00011872608
-0.10646234 -0.27783015 -0.078968801 0.199311 0.58448374 0.78654552 0
0.11104321 -0.27852836 -0.077712722 -0.25286072 0.56068254 0.78847742 0.0003774371
0.12736298 -0.27323765 -0.07579945 -0.27248251 0.55254239 0.78768671 1.5217118e-05
0.13427544 -0.27527326 -0.072009519 -0.27120265 0.55096692 0.78923029 0
0.14313097 -0.27258751 -0.070842348 -0.27130049 0.55070162 0.78938192 0
-0.15459946 -0.26378572 -0.07283546 0.34005401 0.51264149 0.78839201 2.1768212e-05
-0.1437735 -0.26357293 -0.077647664 0.32336527 0.52218372 0.78915083 0.00032299123
-0.1356612 -0.26637474 -0.079342127 0.27896827 0.54586995 0.79006493 0.0010125824
0.13354512 -0.26686031 -0.078121513 -0.27268988 0.55395716 0.78662038 0
0.14522956 -0.26602939 -0.074691422 -0.27281171 0.55158347 0.78824455 0
0.15596737 -0.26599675 -0.071029976 -0.28500015 0.54277736 0.79004282 0.00017293711
0.16484548 -0.26212639 -0.070680387 -0.31957719 0.5317415 0.78429675 0.00074297353
-0.17568202 -0.25281489 -0.070813231 0.34178916 0.51048923 0.789038 0
-0.16377126 -0.25586036 -0.073990688 0.34227744 0.51136875 0.78825641 0
-0.15370154 -0.25933439 -0.076096497 0.34181944 0.51267689 0.78760523 0
0.14930756 -0.25770032 -0.079095185 -0.28394976 0.54788315 0.78689045 0.00015970241
0.15764271 -0.25287402 -0.07959789 -0.29822612 0.5392946 0.7875421 0.0005377112
0.16301535 -0.25479433 -0.076416619 -0.32463941 0.52377599 0.78757095 0.00083366543
0.1750292 -0.25310701 -0.072439954 -0.35804725 0.50549906 0.78503054 0.00081255991
-0.19320932 -0.24183947 -0.070329212 0.36359495 0.49182197 0.79114467 0.00036355178
-0.18224049 -0.24455862 -0.073310554 0.34198669 0.51065749 0.78884339 8.0887157e-06
-0.1761418 -0.2444569 -0.076009735 0.34244245 0.51196069 0.78780031 8.1073622e-06
-0.16639766 -0.24855459 -0.077572383 0.34307653 0.51281941 0.78696555 1.6993803e-05
0.16832939 -0.24867076 -0.078460015 -0.3438127 0.51687497 0.78398526 0.00084310956
0.17608814 -0.24759896 -0.075115696 -0.37267604 0.49423477 0.78539449 0.00082285632
0.18598354 -0.24323396 -0.072601765 -0.39639118 0.46873331 0.78940684 0.00015228604
-0.19631842 -0.23608984 -0.072697997 0.37387308 0.48057437 0.79326367 0.00061049982
-0.18392582 -0.23682132 -0.077577159 0.35702407 0.50386566 0.78654504 0.0002442296
0.18745926 -0.23818427 -0.074796468 -0.40057495 0.46445954 0.78982085 6.7996341e-05
0.19761848 -0.2344293 -0.071791172 -0.40487736 0.46176955 0.78920418 0
0.20070054 -0.2314668 -0.071944572 -0.40491104 0.46172616 0.78921229 0
-0.20583637 -0.22360019 -0.075198486 0.42438892 0.44215417 0.79018581 0.00072454626
-0.19609949 -0.22865197 -0.07759361 0.38991523 0.47204232 0.79065925 0.00079425093
0.19590655 -0.22793347 -0.076461866 -0.40602911 0.46299013 0.78789616 2.363196e-06
0.2043325 -0.22601712 -0.073269509 -0.40477982 0.46213689 0.78903919 0
-0.21255037 -0.21474843 -0.075806141 0.45458716 0.41527891 0.78796822 0.00016259747
-0.20566896 -0.21849048 -0.077911109 0.42881608 0.44037151 0.78879005 0.00063145458
0.20932786 -0.21266383 -0.078513771 -0.41385776 0.45880258 0.78627092 9.6975455e-05
0.21473271 -0.21239187 -0.075906783 -0.41332662 0.4556599 0.78837502 0.00011190847
0.22127074 -0.21248518 -0.07250654 -0.41662428 0.4537563 0.78773689 0.00013598839
-0.23239987 -0.2013019 -0.071091756 0.46192625 0.40465197 0.78922814 3.204789e-05
-0.2278946 -0.20647331 -0.071077183 0.46192223 0.40479746 0.78915572 5.6540975e-06
-0.21753046 -0.20812435 -0.076286718 0.46267471 0.40801713 0.787054 3.4416331e-05
0.21688116 -0.20494129 -0.079159752 -0.4282895 0.44358742 0.78727269 0.00045594189
0.22757722 -0.20787576 -0.071971968 -0.44597536 0.42388397 0.78830725 0.00070165575
-0.23412335 -0.19562624 -0.072989382 0.46275592 0.40502173 0.78855205 3.7606562e-05
-0.22626303 -0.19593716 -0.07742203 0.46338266 0.40677997 0.787278 8.5659394e-06
0.22798634 -0.1955854 -0.078245282 -0.47147527 0.40011054 0.78588963 0.00091767107
0.23280637 -0.19557492 -0.075138517 -0.47327647 0.39480168 0.78749031 0.00075949094
-0.24419056 -0.18442826 -0.072838843 0.46910888 0.3974663 0.7886427 0.00015625256
-0.23488615 -0.18491586 -0.078024648 0.46584353 0.40502998 0.78672773 0
0.23740129 -0.18636458 -0.07614971 -0.49945375 0.35656899 0.7895596 0.0003120137
0.24467276 -0.18317372 -0.072833888 -0.51042801 0.34242925 0.78879994 0
-0.25419155 -0.17200601 -0.073353469 0.50391632 0.34755355 0.79074323 0.00092534715
-0.24552451 -0.177389 -0.075661823 0.47677588 0.38992962 0.78780687 0.00030987794
0.24371928 -0.17492045 -0.077013269 -0.51199627 0.34298772 0.78754002 1.2381734e-06
0.25292689 -0.17338166 -0.071734309 -0.51065564 0.34109434 0.78923094 5.2351047e-06
-0.2625412 -0.16307868 -0.070997544 0.52895403 0.30867666 0.79052281 0.00059381826
-0.25765368 -0.16903287 -0.072359823 0.51662004 0.32838708 0.79073745 0.00088613055
0.24924871 -0.16259661 -0.078765698 -0.51296705 0.34278405 0.78699678 4.2138217e-06
0.25543249 -0.16787523 -0.072494723 -0.51070303 0.34151548 0.78901809 1.0020674e-05
-0.26605034 -0.15434401 -0.071549617 0.54634786 0.27671355 0.79052746 6.712677e-05
0.25642127 -0.15277961 -0.078375004 -0.51700771 0.3404139 0.78537971 4.2324296e-05
0.26606485 -0.1505875 -0.07309676 -0.51878548 0.32951397 0.78884864 0.00020863992
-0.26421016 -0.14498357 -0.0760433 0.55198938 0.27361879 0.78768045 3.5575493e-05
0.25898063 -0.14654475 -0.079415284 -0.52734691 0.33405805 0.78122365 0.00018143047
0.26336938 -0.14066882 -0.07911972 -0.53732169 0.3036212 0.78682888 0.0008068083
0.27231014 -0.14551097 -0.071257584 -0.53517199 0.30978626 0.7858901 0.00054538739
-0.27574837 -0.13307856 -0.072089165 0.55084693 0.27094841 0.78940147 5.0693507e-06
-0.26531771 -0.13490206 -0.078730673 0.55377251 0.27233109 0.78687471 2.7597684e-06
0.26986519 -0.13920221 -0.075560018 -0.54613256 0.27885771 0.7899226 0.00063003972
0.27442282 -0.13475071 -0.074059144 -0.55350554 0.26186025 0.79060793 0.0008540639
0.28137064 -0.13089146 -0.070257425 -0.55740809 0.24079208 0.79455358 0.0006956213
-0.28311083 -0.12210872 -0.070723459 0.55136311 0.2674008 0.79025036 3.1866726e-05
-0.27327225 -0.12833673 -0.075441249 0.55297393 0.27247313 0.78738701 0
0.27359459 -0.12508202 -0.077427395 -0.55997837 0.24480021 0.79151571 0.00067111786
0.2802625 -0.12000427 -0.073794402 -0.57359242 0.21371679 0.79076988 0.00027961313
-0.28314576 -0.11679173 -0.072523408 0.55582052 0.26140606 0.78913265 8.6327469e-05
-0.27872598 -0.11042235 -0.07778807 0.56266922 0.24715966 0.78886974 0.0003397612
-0.29115182 -0.10420503 -0.071264021 0.57301307 0.21510826 0.79081249 0.0006289875
-0.2860958 -0.10659605 -0.07396628 0.5629409 0.23852821 0.79132921 0.00044496288
0.27792263 -0.10640314 -0.078915626 -0.58445978 0.19948691 0.78651875 0
0.28508201 -0.10404702 -0.074240707 -0.58294469 0.19836599 0.78792542 6.3234161e-06
-0.2919831 -0.094268523 -0.073197886 0.58160883 0.18561058 0.79201007 0.00078716385
-0.28888699 -0.091224901 -0.076016277 0.58442169 0.17208882 0.79299223 0.00082081056
0.28510401 -0.096091539 -0.07621368 -0.58303463 0.19814399 0.78791469 0
0.29056585 -0.095778711 -0.072276026 -0.58196151 0.19811226 0.7887156 3.0476779e-06
-0.29392511 -0.081581749 -0.073635399 0.60069513 0.1350733 0.78798515 0.00024389966
-0.28742328 -0.085033342 -0.078066796 0.59064746 0.15221465 0.79244328 0.00044808866
0.28656906 -0.080986366 -0.078913353 -0.58485186 0.19576189 0.78716302 5.8499372e-05
0.29378825 -0.087611705 -0.071948782 -0.58156061 0.19778724 0.78909284 0
-0.293773 -0.075541951 -0.074663818 0.60437435 0.12563314 0.78673249 4.4772532e-05
-0.28872567 -0.073033489 -0.078887723 0.60501212 0.12034194 0.78706944 9.1345928e-06
0.29381695 -0.072446525 -0.075719543 -0.58771491 0.1642403 0.79222238 0.00059832825
-0.29346088 -0.062709957 -0.076840378 0.60441011 0.11990257 0.78759867 1.4586982e-06
-0.28936833 -0.064064592 -0.07975328 0.60576892 0.12052147 0.78645957 1.4300728e-05
0.29393801 -0.060766667 -0.078550912 -0.60349208 0.12022612 0.78825313 0.00099579594
0.29509553 -0.056828041 -0.078249209 -0.60436428 0.10695092 0.7894969 0.00088969822
0.30476239 -0.053789467 -0.070943929 -0.60739511 0.080038078 0.79035771 0.0003877265
-0.30434287 -0.04486556 -0.071246915 0.6023016 0.11964583 0.78925133 0
-0.29394707 -0.043578792 -0.079360574 0.6053409 0.12058529 0.78677922 3.0424813e-05
0.29570428 -0.044958744 -0.078415573 -0.61144149 0.063281231 0.78875524 0.00044551317
0.30071685 -0.046711959 -0.074441418 -0.61153579 0.066956438 0.78837854 0.00048448704
-0.30262667 -0.034634188 -0.074100122 0.60471725 0.10581065 0.78938025 0.00016221309
-0.29618746 -0.032073017 -0.079392336 0.61399966 0.089145929 0.78425598 0.00042901799
0.29669595 -0.034804888 -0.07816717 -0.61517358 0.042811181 0.78722841 1.3129945e-05
0.30283722 -0.034648973 -0.073416121 -0.61295682 0.042446956 0.78897536 1.1467461e-07
-0.30239841 -0.026326241 -0.0755293 0.60830843 0.067738101 0.79080498 0.00061308435
0.29729939 -0.026326418 -0.078133769 -0.61635602 0.041496232 0.78637356 5.325981e-06
0.30335018 -0.02308779 -0.07361079 -0.61259037 0.040549111 0.78935969 1.306053e-05
-0.30541438 -0.012427639 -0.073830232 0.6093905 0.0086617619 0.79282296 0.00059075793
0.29750577 -0.014819746 -0.078563243 -0.61558634 0.040917452 0.7870065 3.5562251e-05
0.30551273 -0.015908711 -0.072302699 -0.61273044 0.040441845 0.78925651 0
-0.30159104 -0.0035543907 -0.07633853 0.61619753 -0.017628722 0.78739429 0.00037543545
0.29824319 -0.0030113319 -0.07859657 -0.61579907 0.032849759 0.78721809 0.00010342819
0.30802202 -0.0041022822 -0.070962906 -0.61250424 0.040592026 0.78942436 1.3292368e-05
-0.30418867 0.0047590868 -0.073899761 0.61386532 -0.040119048 0.78839076 2.2111519e-05
-0.29810765 0.009810782 -0.078353345 0.61482006 -0.040955786 0.78760338 1.5264599e-05
0.29784128 0.0064777317 -0.079394065 -0.61715609 0.012639249 0.78673917 0.00049076258
0.30105126 0.0014569499 -0.07664939 -0.61405694 0.028950227 0.78873062 0.00013741222
-0.30340725 0.019320935 -0.073759474 0.61355746 -0.040561777 0.7886076 6.9591842e-06
0.29778937 0.016134445 -0.079928882 -0.61770517 -0.036800269 0.78554827 0.00091416668
0.3075535 0.018100221 -0.072463132 -0.61176383 -0.036770277 0.79018545 0.00078015879
-0.30538622 0.026116606 -0.071877889 0.61340684 -0.040803395 0.78871226 1.1003178e-05
0.30108306 0.02542631 -0.076667242 -0.61089891 -0.0663727 0.78892154 0.00074782071
-0.30205345 0.036073614 -0.073950522 0.61339861 -0.044695109 0.78850782 3.3798315e-05
-0.29693305 0.036234125 -0.077910215 0.61600864 -0.043441042 0.78654063 8.285381e-05
0.29712147 0.038439643 -0.077718854 -0.60490006 -0.11376614 0.78813279 4.7339759e-05
0.30531049 0.032676168 -0.072351515 -0.60618913 -0.096923351 0.78939259 0.00028869716
-0.30360013 0.041967832 -0.072450064 0.61372954 -0.049774323 0.78794581 7.0667083e-05
-0.29740027 0.044634361 -0.07711792 0.61463636 -0.056588981 0.78677809 0.00029691172
0.29484618 0.047184035 -0.078130908 -0.60592544 -0.12018046 0.78639114 1.7107278e-06
0.30341035 0.041781187 -0.072423302 -0.60527313 -0.11285389 0.78797746 5.8147565e-05
-0.30182999 0.054967389 -0.073155999 0.6084463 -0.10161272 0.78706294 0.00089138263
-0.29404375 0.057855356 -0.079041794 0.60438013 -0.11345693 0.78857607 0.00093344419
0.29568762 0.054743037 -0.07634785 -0.60432708 -0.11937876 0.78774196 2.0002615e-05
0.30276513 0.052764013 -0.071255386 -0.60283417 -0.11942925 0.78887743 0
-0.29679966 0.063292772 -0.075815268 0.60152376 -0.13676246 0.78706115 0.00081717921
0.29648736 0.063642129 -0.074394032 -0.6040557 -0.12001691 0.78785318 9.9746376e-06
-0.28752768 0.077698894 -0.079030499 0.58621705 -0.19333237 0.78674781 5.8845722e-05
0.28995582 0.070099518 -0.078393929 -0.60560781 -0.1202664 0.78662264 1.0863587e-05
0.29678807 0.076243974 -0.072260939 -0.60314411 -0.12344044 0.78802264 4.7208825e-05
-0.29043388 0.080261543 -0.076252937 0.58468223 -0.19381124 0.78777152 8.333016e-05
-0.28733861 0.083982095 -0.077598453 0.58408499 -0.19708687 0.78740174 3.2459633e-05
0.28607658 0.087487161 -0.078721926 -0.59818512 -0.15198651 0.78681296 0.00049364893
0.29475173 0.087075412 -0.072175644 -0.58856952 -0.15467311 0.79351258 0.00053972809
-0.29324853 0.091060303 -0.071483336 0.58153093 -0.19776639 0.7891199 0
-0.28755921 0.095733948 -0.074497879 0.58258563 -0.19828163 0.78821212 0
0.28844172 0.093936592 -0.075945772 -0.57388711 -0.18375115 0.79805332 0.00072445691
-0.28712368 0.10569274 -0.072328039 0.58183545 -0.19798209 0.78884143 0
0.28364888 0.10511956 -0.076177649 -0.56066585 -0.23555151 0.79383194 0.00043814626
-0.28468403 0.11287975 -0.072324805 0.57962102 -0.19983093 0.79000449 6.1987071e-06
-0.27586088 0.1146668 -0.078365318 0.5817911 -0.20429599 0.7872625 8.448369e-05
0.27514482 0.11564537 -0.078491077 -0.55427659 -0.26939055 0.78753173 2.8611485e-05
0.28329319 0.11386625 -0.073424436 -0.55733335 -0.25014597 0.79171121 0.00027276605
-0.28128076 0.12593529 -0.07156273 0.56901199 -0.23583977 0.78778487 0.00061126222
-0.27377838 0.12695053 -0.076825082 0.56284308 -0.25149113 0.78737539 0.00072192354
0.27420652 0.12538269 -0.075803868 -0.55210507 -0.27184218 0.78821433 2.180324e-05
0.28136933 0.12700452 -0.070256993 -0.55065507 -0.27138129 0.78938651 0
-0.27613306 0.13031755 -0.074251875 0.55991268 -0.25553736 0.78816134 0.00085384795
-0.26768303 0.13621593 -0.078258112 0.55078298 -0.28538558 0.78434247 0.00077537209
0.26531208 0.13407008 -0.079020038 -0.552935 -0.27229002 0.78747767 9.0914449e-07
0.27773902 0.13117126 -0.071356654 -0.55098736 -0.27165082 0.7890619 1.2007759e-05
-0.26399958 0.14559703 -0.076584861 0.52360803 -0.32327169 0.7882449 0.00033082627
-0.2599749 0.14825107 -0.078036696 0.51822507 -0.3339217 0.7873621 0.00015317205
0.26607382 0.14388004 -0.075123489 -0.55233467 -0.27215046 0.78794712 2.7481832e-05
0.27174002 0.14294964 -0.071495011 -0.55122417 -0.27139929 0.78898311 0
-0.27080801 0.15065292 -0.070006825 0.52306789 -0.31725684 0.79104239 0.00045223208
-0.26235807 0.15458821 -0.073761858 0.51294637 -0.33858579 0.78882557 4.1766183e-05
-0.25356314 0.15845531 -0.077769056 0.51209009 -0.3427867 0.78756648 1.449554e-05
0.25828606 0.15172108 -0.077859014 -0.54305142 -0.28673279 0.78922719 0.00024390375
0.26206759 0.15548475 -0.07393305 -0.53898138 -0.29259533 0.7898652 0.00029750285
-0.25694588 0.16502698 -0.072747737 0.51054478 -0.34137651 0.78918064 1.1356031e-05
0.2550728 0.16353565 -0.076044083 -0.52437729 -0.31740975 0.79011357 0.00054843939
0.26399684 0.16242097 -0.070209049 -0.52985346 -0.29906905 0.79360765 0.00041263289
-0.25218958 0.17295077 -0.072396293 0.51049143 -0.34153116 0.78914827 0
-0.24928027 0.17789924 -0.072137378 0.51062733 -0.34158489 0.78903699 1.8530507e-06
-0.23943028 0.1771246 -0.078829981 0.51152551 -0.34437811 0.78723913 2.7727363e-05
0.23744737 0.1793226 -0.079390764 -0.46940875 -0.39718363 0.78860676 0.0001553616
0.24507265 0.17610656 -0.076582074 -0.49328861 -0.36533359 0.78942871 0.00067558861
0.25203145 0.17527637 -0.072941765 -0.50029981 -0.35235193 0.79091603 0.0006438503
-0.24550927 0.18378051 -0.072031908 0.50806928 -0.34255496 0.79026687 1.8721214e-05
-0.23702516 0.18343037 -0.077659532 0.50321925 -0.35472944 0.78799582 0.0002419504
0.23687784 0.18750705 -0.075535178 -0.46282396 -0.40615118 0.78793097 1.2474155e-05
0.24804679 0.18309438 -0.071268752 -0.47815648 -0.38443956 0.78966612 0.00040665275
0.25099161 0.18048646 -0.070883036 -0.4912101 -0.36768311 0.78963399 0.00068270724
-0.23378746 0.19527276 -0.074635692 0.47858855 -0.37923858 0.79191619 0.00061846961
0.22629535 0.19647324 -0.077128828 -0.46392688 -0.4063639 0.78717238 2.1165084e-05
0.23498118 0.19205891 -0.074313805 -0.4626677 -0.40528014 0.78847104 1.485064e-05
-0.22336499 0.20651817 -0.074920572 0.44004238 -0.42467663 0.79120952 0.00054469926
-0.21822044 0.20682847 -0.07737194 0.42180553 -0.44410688 0.790474 0.00036399509
0.21794719 0.20580831 -0.077228487 -0.46348962 -0.40610352 0.7875641 3.7155991e-05
0.22201574 0.20372166 -0.075919569 -0.46324348 -0.40574142 0.78789556 1.0850956e-05
-0.22116451 0.21380067 -0.071792409 0.41798431 -0.45366284 0.78706992 0.0001810063
-0.2119004 0.21295638 -0.077026404 0.41294456 -0.45845523 0.78695345 0.00012180478
-0.20960993 0.21454778 -0.077268869 0.40647262 -0.46332765 0.78746909 2.6588625e-05
0.20421341 0.21744123 -0.079298355 -0.42829534 -0.43016875 0.79468107 0.00073329249
0.21573195 0.21647272 -0.073065192 -0.45364526 -0.41135353 0.79056579 0.00011347504
0.22252657 0.21344095 -0.070647441 -0.46082786 -0.40578973 0.78928608 1.2874757e-05
-0.20179886 0.22439113 -0.075515896 0.40577418 -0.46333647 0.78782403 1.9084582e-05
