# .PCD v0.7 - Point Cloud Data file format
VERSION 0.7
FIELDS x y z normal_x normal_y normal_z curvature
SIZE 4 4 4 4 4 4 4
TYPE F F F F F F F
COUNT 1 1 1 1 1 1 1
WIDTH 590
HEIGHT 1
VIEWPOINT 0 0 0 1 0 0 0
POINTS 590
DATA ascii
0.36289632 0.018888285 -0.063058145 -0.74372774 0.021288889 0.66814357 0.12222065
-0.36417139 0.02229294 -0.061193399 0.71617603 -0.13007285 0.68569154 0.12266564
-0.34154063 0.02605398 -0.061991751 0.65623277 -0.070868522 0.75122321 0.13158594
-0.33758742 0.024429742 -0.06649892 0.72930396 -0.098343275 0.67708522 0.1376334
0.33604628 0.026935987 -0.067808874 -0.62807029 -0.061457492 0.77572584 0.13849406
0.34119046 0.028997961 -0.061951242 -0.67297196 -0.034479443 0.738864 0.12349431
0.3573069 0.027580392 -0.067866258 -0.69866109 -0.073425204 0.71167505 0.13965359
0.36472321 0.024619523 -0.060265854 -0.72509181 -0.17541768 0.66593581 0.12918729
-0.36078417 0.038157757 -0.062597468 0.73627532 -0.053970944 0.67452633 0.13178329
-0.35472292 0.036162183 -0.069438025 0.73075235 -0.14664871 0.66670471 0.12629962
-0.33644569 0.03924739 -0.065623403 0.80586767 0.0027400879 0.59208935 0.13506548
0.33713609 0.039385706 -0.064856976 -0.71350443 -0.17716272 0.67788255 0.13650173
0.34159893 0.037614577 -0.060282204 -0.66387999 -0.26824117 0.69807601 0.13052887
0.35735855 0.035051331 -0.066746317 -0.71219039 -0.3200911 0.62476116 0.14360128
0.36283863 0.032092504 -0.061240144 -0.71819574 -0.26375183 0.64391744 0.13358311
-0.34018922 0.046978042 -0.060473371 0.75564945 -0.0018212131 0.65497369 0.13795696
-0.33841786 0.045045491 -0.062664516 0.78885728 -0.13253655 0.60011524 0.13183612
0.33664799 0.043174304 -0.064845324 -0.76364422 -0.20261936 0.61301953 0.13816695
0.35660022 0.04129114 -0.066677779 -0.67106944 -0.2095295 0.71117032 0.14061369
0.36173698 0.043531064 -0.060802609 -0.69910949 -0.21250373 0.68270636 0.12828068
-0.35602924 0.058014482 -0.064912349 0.65757722 -0.13585116 0.74103761 0.1282191
-0.33471712 0.055345807 -0.065200262 0.75230104 -0.1030798 0.65070558 0.1499633
0.33548707 0.057140417 -0.064111844 -0.77412081 -0.018596526 0.6327647 0.11633719
0.35481063 0.05527183 -0.066622078 -0.77502149 -0.15966333 0.61143214 0.12145545
-0.35571101 0.061924472 -0.064699613 0.65753019 -0.062130045 0.75086206 0.11663618
-0.33394065 0.068387061 -0.064182669 0.72441167 -0.12590887 0.67777193 0.12346362
0.33177641 0.062732503 -0.067328848 -0.75678623 0.044857219 0.65212154 0.11736085
0.35752776 0.065026723 -0.062293686 -0.79504079 0.0097907456 0.6064769 0.13746329
-0.35667115 0.075848646 -0.06167819 0.71408182 -0.25285456 0.652803 0.12439319
-0.34870526 0.079155482 -0.069823511 0.77852994 -0.10668135 0.61847413 0.11971794
-0.3347851 0.073793359 -0.062499337 0.72493631 -0.14080709 0.67427051 0.1283996
0.34924647 0.076851465 -0.069566727 -0.66153932 0.10710367 0.74222267 0.10881209
0.35064754 0.072226398 -0.068710051 -0.74134439 -0.048180941 0.66939306 0.13644476
-0.34737331 0.089263275 -0.06982474 0.80634052 -0.15297645 0.57132566 0.12409136
-0.33229426 0.0811757 -0.064142004 0.79663354 -0.084157147 0.59857553 0.11691537
0.33280444 0.085723259 -0.06294249 -0.82740444 -0.16929981 0.5354805 0.14253901
-0.34932205 0.091242626 -0.067435063 0.74552625 -0.075293802 0.66220945 0.12611046
-0.33065334 0.094649397 -0.062333319 0.75279409 -0.15954296 0.63862908 0.13042237
-0.32724333 0.092176765 -0.066802464 0.76093209 -0.14031528 0.63347763 0.12618649
0.32610315 0.096116111 -0.06630718 -0.72443181 -0.44488811 0.52656734 0.12702584
-0.35064262 0.10481742 -0.061084837 0.72835058 -0.25580379 0.63566494 0.13155577
-0.34611204 0.10760418 -0.064487882 0.75942928 -0.21344882 0.6145786 0.13019167
-0.32510218 0.10522348 -0.063514158 0.76082772 -0.35386035 0.54398906 0.11318058
0.32317907 0.10809661 -0.064253114 -0.74012136 -0.33218905 0.58469719 0.13172688
0.34424901 0.10402465 -0.067860179 -0.65034515 -0.24975526 0.71740758 0.11774895
-0.34669769 0.11480255 -0.060892254 0.76284152 -0.14133024 0.63095051 0.13453874
-0.33949724 0.11335617 -0.068753704 0.74243832 -0.19558525 0.64072746 0.11514863
-0.32011765 0.11464544 -0.064604864 0.7066204 -0.32314831 0.62949395 0.12842789
0.31903848 0.11296517 -0.066394009 -0.66028804 -0.32977891 0.6747337 0.13954146
0.32275164 0.11141568 -0.063298367 -0.69076252 -0.28343061 0.66521752 0.13896087
-0.34033638 0.12741502 -0.062038325 0.71032017 -0.36909983 0.59934187 0.12771446
-0.33611536 0.12800737 -0.06604556 0.68476707 -0.35769531 0.63493943 0.1195941
-0.31533533 0.12579976 -0.064768597 0.6852181 -0.29804054 0.66456604 0.12978205
0.31463844 0.12630755 -0.065259017 -0.65953398 -0.26084843 0.70496303 0.12595485
0.33637729 0.12627713 -0.066503912 -0.59754264 -0.5088194 0.61971402 0.11679689
0.34187099 0.12408879 -0.061880272 -0.63030803 -0.37576404 0.67934757 0.12852801
-0.33273622 0.1375661 -0.065460742 0.70350116 -0.37351686 0.60462487 0.12179813
0.30966669 0.13726342 -0.065696508 -0.71283656 -0.24102341 0.65861362 0.11755171
0.31456029 0.13244911 -0.062773965 -0.72705317 -0.32415712 0.60524035 0.11989671
0.33625931 0.13569817 -0.06268958 -0.55704838 -0.343844 0.75595528 0.11990401
-0.3349891 0.14277557 -0.06101501 0.6986869 -0.33264455 0.63339096 0.13076423
-0.32957864 0.14049695 -0.067419723 0.63346952 -0.29522729 0.71523225 0.13284439
-0.31277418 0.14034206 -0.061279263 0.64995837 -0.32772091 0.68567705 0.13384213
-0.30903256 0.14400055 -0.063523218 0.62077326 -0.40354905 0.67215234 0.13809775
0.33391058 0.14645661 -0.060565237 -0.65737873 -0.25523835 0.70901805 0.13358979
-0.32448 0.1515201 -0.067956686 0.71386182 -0.36256903 0.59912026 0.12872984
-0.30805308 0.15376212 -0.060435146 0.64724004 -0.35811436 0.67292976 0.12753788
0.30535021 0.1556893 -0.062354822 -0.69580126 -0.23689406 0.67804259 0.11739589
0.32829359 0.15739545 -0.061659705 -0.76402259 -0.16049196 0.62490958 0.12803447
-0.3255294 0.16438077 -0.061529335 0.82898515 -0.28564462 0.48082301 0.11977155
-0.31930801 0.16470219 -0.067665994 0.68161446 -0.28360111 0.67451626 0.13092837
-0.30138072 0.16775525 -0.061317977 0.73581141 -0.28060171 0.61631507 0.12715322
-0.29596835 0.16530895 -0.067794755 0.64458984 -0.34545004 0.68203235 0.13637291
0.29676586 0.16487966 -0.067170173 -0.71473598 -0.22688486 0.66157073 0.12712401
0.32232296 0.16506258 -0.064476594 -0.69083393 -0.24117886 0.68160206 0.13668033
-0.32064259 0.17513709 -0.061964024 0.65482229 -0.36023226 0.66440982 0.13573976
-0.29456237 0.17390811 -0.064674012 0.58573639 -0.51579475 0.62519485 0.12538257
0.29218671 0.1724876 -0.067673713 -0.74832314 -0.29362038 0.59481049 0.12795179
0.31666866 0.17407872 -0.066411406 -0.65510321 -0.23336436 0.71859646 0.11856201
-0.31134659 0.18678163 -0.064738952 0.65246296 -0.43126631 0.62313837 0.1373557
-0.3096174 0.18281853 -0.068867803 0.62324536 -0.45131648 0.63865387 0.12312464
-0.28475636 0.18749219 -0.064139873 0.61437595 -0.47983485 0.62633914 0.11263935
0.28390548 0.18124896 -0.069022775 -0.53778452 -0.39251763 0.74613518 0.14731844
0.30517703 0.18884915 -0.068705797 -0.64807624 -0.41936186 0.63571435 0.12688971
0.3170262 0.1802285 -0.063483372 -0.68500453 -0.30464667 0.66178489 0.1266401
-0.31222165 0.19080813 -0.061307255 0.63076818 -0.4428162 0.63721687 0.13043644
-0.2817747 0.19360757 -0.062659152 0.69174266 -0.42792934 0.58169448 0.11735327
-0.27979159 0.19709471 -0.062059641 0.69717389 -0.4083795 0.58921528 0.13127503
0.27483746 0.19662726 -0.06665799 -0.52883297 -0.56126314 0.63664687 0.11797876
0.28095379 0.19346568 -0.063463897 -0.51851022 -0.54758602 0.65673184 0.12888367
0.29966155 0.194784 -0.069537938 -0.60045195 -0.59000754 0.53976709 0.11741573
0.30524182 0.19139913 -0.066956125 -0.64856845 -0.46370587 0.60360241 0.13540533
-0.27635548 0.20298214 -0.061123565 0.72062927 -0.3110655 0.61962229 0.12703653
-0.26608634 0.2054297 -0.068386182 0.58352083 -0.48582086 0.65075457 0.15043637
0.26743999 0.2055676 -0.067122988 -0.57416004 -0.44529411 0.68706137 0.12579092
0.29830095 0.20318703 -0.065134592 -0.58447939 -0.51384562 0.62797028 0.13101113
-0.29317451 0.21322154 -0.062907241 0.65655726 -0.33229002 0.67713803 0.12256409
-0.28496534 0.21345063 -0.069860935 0.7137084 -0.22263402 0.6641193 0.13065259
-0.26240879 0.21671116 -0.064076722 0.5167262 -0.55309826 0.65351081 0.14151792
0.25573766 0.21785474 -0.069091231 -0.53588963 -0.40072787 0.74312818 0.12434461
0.26440331 0.21212117 -0.065398812 -0.66441137 -0.35046542 0.66009963 0.13246544
0.28746876 0.21581641 -0.066122688 -0.60922807 -0.46956244 0.63902444 0.13246557
-0.28703031 0.22153419 -0.062704638 0.76240987 -0.36002797 0.53769046 0.12470552
-0.25603062 0.22292857 -0.065467924 0.59768111 -0.52861887 0.60277629 0.12129346
0.25364789 0.22381876 -0.066939026 -0.60198611 -0.48577204 0.63374943 0.1253854
0.26030084 0.22542395 -0.060114697 -0.57206076 -0.46418586 0.67622328 0.13735686
0.27734536 0.22424139 -0.069289908 -0.54127944 -0.33448929 0.77144897 0.15001829
0.28594327 0.22270781 -0.062866092 -0.57631588 -0.29651517 0.76153708 0.13033102
-0.28148139 0.23061745 -0.061474971 0.69550753 -0.38397089 0.60731846 0.13543279
-0.27437869 0.23532146 -0.06449879 0.63811183 -0.5210743 0.56682885 0.11597461
-0.2451676 0.23234494 -0.068616331 0.55899692 -0.51547986 0.64946365 0.12769452
0.28339142 0.23020217 -0.060097504 -0.57805216 -0.42120945 0.69888353 0.14371747
-0.24135223 0.2410979 -0.066105425 0.50336844 -0.49192247 0.71037489 0.12847315
-0.23430264 0.24617118 -0.066447347 0.48289609 -0.60647142 0.63166755 0.13029844
0.23398976 0.24613898 -0.066683002 -0.51715815 -0.48397487 0.70591474 0.13342457
0.24254429 0.24078262 -0.065283053 -0.52954936 -0.49307168 0.69025916 0.12377983
0.26675433 0.24620989 -0.063866735 -0.59339213 -0.51420921 0.61925328 0.13651179
-0.26132911 0.2544148 -0.063113339 0.5114488 -0.33737326 0.79031605 0.11925217
-0.25527197 0.25700319 -0.066288583 0.5587489 -0.44419956 0.7003473 0.12502983
-0.2337008 0.25263622 -0.06125132 0.43263695 -0.53500938 0.72566539 0.13316439
-0.22350977 0.25389063 -0.066933803 0.5041827 -0.57473582 0.64457631 0.14446869
-0.21380082 0.2583769 -0.069498986 0.40392447 -0.62198335 0.67080665 0.13828218
0.21716306 0.25813603 -0.06747444 -0.32548043 -0.5115996 0.79519075 0.13363032
0.22329096 0.25246722 -0.068311147 -0.40692753 -0.55737007 0.72370476 0.1403482
0.25752029 0.25176799 -0.068168201 -0.51701653 -0.5402149 0.6639744 0.12689491
0.26169184 0.25766158 -0.060642999 -0.59152663 -0.51822144 0.61769152 0.1299964
-0.25624409 0.26338431 -0.060119588 0.55509579 -0.41541171 0.72062594 0.14547533
-0.24774697 0.26897594 -0.060923301 0.4554525 -0.45144925 0.76730472 0.13514483
-0.22113827 0.26364091 -0.060069527 0.46337867 -0.6290493 0.62416124 0.13841623
-0.21980456 0.26007462 -0.064042129 0.44303405 -0.61795121 0.64950538 0.13508265
-0.20944737 0.26611215 -0.065695189 0.31294042 -0.65806442 0.68484998 0.11276119
0.21096013 0.26781458 -0.06321694 -0.37558711 -0.50173426 0.77922845 0.14569408
0.2225747 0.26083481 -0.061544325 -0.51871055 -0.47630617 0.70998019 0.13631174
0.2368248 0.26871049 -0.068407454 -0.44610214 -0.46181661 0.76662797 0.11974644
0.24358767 0.26732141 -0.065117985 -0.49714485 -0.53016227 0.68685883 0.12621908
0.25366077 0.26266035 -0.062462043 -0.56695646 -0.4832803 0.66708356 0.13655303
-0.24206728 0.27096254 -0.062976144 0.42822167 -0.55111802 0.71616697 0.12522379
-0.23458399 0.27482119 -0.064606525 0.42154625 -0.57003373 0.70523775 0.12176322
-0.22566444 0.27634293 -0.069213368 0.38269332 -0.63191003 0.67396992 0.13321529
-0.19756663 0.27339846 -0.067279235 0.44249871 -0.57362962 0.68930691 0.10797944
0.19619346 0.27618697 -0.065777689 -0.56795651 -0.57873267 0.58522987 0.11414829
0.20433246 0.27548596 -0.060978834 -0.3901121 -0.59777546 0.70034063 0.13250077
0.22639123 0.27996224 -0.065597951 -0.5138855 -0.51870662 0.68327528 0.12516172
0.23468988 0.27369088 -0.065514565 -0.55311 -0.48053825 0.68055296 0.11770481
-0.2246964 0.28545424 -0.061969846 0.42863441 -0.61946964 0.65767002 0.1281721
-0.19003215 0.28698945 -0.060519703 0.34271428 -0.55971551 0.75449681 0.1136331
-0.18552452 0.2817511 -0.068047546 0.49796852 -0.58292234 0.64205062 0.11054987
-0.1762667 0.28880182 -0.068093523 0.48120111 -0.61179036 0.62782001 0.12151001
0.18057795 0.28539214 -0.068181373 -0.64437854 -0.60745996 0.46450904 0.12090478
0.19163594 0.28139454 -0.064297192 -0.54847932 -0.58993638 0.59257537 0.11742342
0.21327868 0.28688198 -0.068317056 -0.3387531 -0.56519204 0.75219965 0.11466925
0.22487646 0.2860724 -0.061315231 -0.4294087 -0.53886944 0.72472602 0.120208
0.23105073 0.28148267 -0.061187282 -0.46058208 -0.53018647 0.71187532 0.12007126
-0.21555996 0.29055604 -0.063621826 0.44333628 -0.62414765 0.64334494 0.12621391
-0.20339906 0.29824626 -0.065041997 0.31370616 -0.5613994 0.76578015 0.13179769
-0.19942275 0.29662579 -0.069085449 0.3530964 -0.68503845 0.63721681 0.13086809
-0.18139033 0.29413423 -0.060075112 0.41251966 -0.641361 0.64690316 0.13618626
-0.17428166 0.2941063 -0.064820565 0.49397755 -0.61110562 0.61849505 0.12511285
0.15224268 0.29919854 -0.069994241 -0.2262236 -0.72995669 0.64496988 0.12689894
0.1685816 0.29612207 -0.066273369 -0.23959202 -0.80363864 0.54475743 0.12856843
0.17423515 0.29396024 -0.064949766 -0.44844642 -0.69304419 0.56443381 0.13646205
0.20707005 0.29156739 -0.06838493 -0.41965351 -0.52964181 0.73713672 0.12594037
0.21207179 0.29304662 -0.063782685 -0.37938744 -0.54389733 0.74849242 0.11608922
-0.19580042 0.30543929 -0.06386254 0.3632347 -0.60401976 0.70938051 0.15349783
-0.15405001 0.30446395 -0.063931562 0.40004247 -0.66496676 0.63070214 0.11884187
-0.14517888 0.30747354 -0.064601496 0.23913617 -0.67826408 0.69481784 0.13280879
-0.1378347 0.3083697 -0.066764258 0.23390552 -0.64512497 0.72739398 0.12871101
0.13672434 0.30751252 -0.068092734 -0.22814599 -0.65232688 0.72278571 0.1273751
0.14536381 0.30775085 -0.064245947 -0.29758966 -0.64595932 0.70297724 0.12878521
0.15342462 0.30500484 -0.063648477 -0.26978865 -0.73437715 0.62281972 0.13546368
0.16627535 0.30203009 -0.061281368 -0.27300683 -0.74728209 0.60583568 0.12962312
0.188021 0.30878168 -0.066136107 -0.26344487 -0.66498619 0.69884908 0.14608732
0.19317779 0.30525264 -0.065765887 -0.37257919 -0.61174327 0.69782156 0.14055549
-0.1841279 0.31507933 -0.063215598 0.43604296 -0.61159086 0.66016901 0.13442823
-0.1645077 0.31929624 -0.067759052 0.33052307 -0.67753959 0.6570347 0.12967159
-0.13507785 0.31375182 -0.062490154 0.21977825 -0.64227277 0.73429096 0.11258441
-0.12134825 0.31742883 -0.06451568 0.25703463 -0.71454751 0.65065742 0.11917654
0.10813911 0.31991106 -0.067529187 -0.24159741 -0.58648479 0.77308887 0.13322881
0.12596563 0.3150351 -0.06500195 -0.33345881 -0.65456355 0.67849225 0.12141747
0.13926394 0.31030467 -0.064218365 -0.29570803 -0.63400817 0.71455616 0.12443101
0.17497391 0.3171857 -0.065516382 -0.32997018 -0.68241078 0.65225393 0.12613705
0.18375963 0.31246662 -0.065776721 -0.30302444 -0.73940164 0.60121661 0.13393295
-0.17053235 0.32070464 -0.063824028 0.4077889 -0.63255769 0.65846729 0.12588787
-0.16709693 0.32175258 -0.0642021 0.40463173 -0.65314448 0.64005888 0.13995203
-0.15513873 0.32601458 -0.064899057 0.33997777 -0.65029329 0.67936277 0.12846385
-0.14293735 0.32839692 -0.067591965 0.252074 -0.71588784 0.65112466 0.13636108
-0.11225751 0.32176834 -0.0639368 0.287848 -0.58431929 0.75875849 0.12097069
-0.093107253 0.32657263 -0.067089729 0.1904197 -0.68570662 0.70252889 0.12524299
-0.066651329 0.32885513 -0.069930397 0.34586018 -0.65047914 0.6762082 0.13677876
0.084360078 0.3284871 -0.067806065 0.049450137 -0.73867327 0.67224735 0.12572099
0.09476009 0.32657567 -0.066397011 -0.14911616 -0.66266418 0.73392135 0.1383421
0.10214565 0.32508981 -0.06481149 -0.20025374 -0.64467686 0.73776019 0.13183878
0.11395027 0.32262367 -0.06236925 -0.36408877 -0.65140331 0.66566736 0.12341407
0.14967416 0.3252272 -0.067973793 -0.35275963 -0.65637338 0.66688424 0.13044603
0.15872198 0.32469216 -0.064735554 -0.27707529 -0.72223288 0.6337263 0.1292281
0.16175783 0.32339525 -0.064775273 -0.29465935 -0.66710359 0.68421388 0.13093196
-0.14812803 0.33227706 -0.06151389 0.23459759 -0.7227931 0.65002626 0.12927222
-0.1340642 0.33385774 -0.065792322 0.20099576 -0.69749534 0.68782336 0.13233824
-0.12935723 0.33778816 -0.063795887 0.31303883 -0.7224471 0.61650372 0.13701326
-0.084839314 0.33364958 -0.062154315 0.25978386 -0.73676217 0.62425458 0.11605991
-0.072420038 0.33534214 -0.062092423 0.20716476 -0.79380149 0.57180589 0.13326888
-0.068955809 0.33571815 -0.06217913 0.13805205 -0.77771479 0.61327094 0.12970868
-0.053030681 0.33688405 -0.063186198 0.11571376 -0.84817815 0.51691788 0.11099408
-0.019123418 0.33947164 -0.065216601 -0.017642401 -0.67672372 0.73602563 0.12762308
-0.003966209 0.33881924 -0.068080224 0.042756923 -0.71008283 0.70281875 0.12696399
0.0014280858 0.33797315 -0.06935668 0.074492566 -0.74241728 0.66578329 0.1195464
0.013630304 0.33753145 -0.068096414 -0.039551824 -0.68034881 0.7318204 0.12297662
0.026750136 0.33603212 -0.067849487 -0.014495962 -0.70532441 0.70873642 0.13216583
0.034325261 0.33494151 -0.067950249 -0.067007095 -0.73524183 0.67448467 0.1292731
0.041076172 0.33243555 -0.069699332 -0.025155274 -0.78160471 0.62326664 0.13589217
0.056267057 0.33741644 -0.062147796 -0.18164651 -0.74862969 0.63761908 0.11297384
0.063521132 0.33490771 -0.06382823 -0.20386741 -0.77563834 0.59734684 0.10897245
0.074384391 0.3318218 -0.065619268 -0.1158969 -0.80069327 0.58775693 0.11782867
0.083301648 0.33294341 -0.063136682 0.053652458 -0.69080132 0.72105122 0.1230549
0.090353802 0.33327425 -0.061484937 -0.090243958 -0.7288093 0.67874372 0.13061066
0.12632246 0.33706087 -0.065795518 -0.36799586 -0.65809858 0.65687531 0.11426812
0.13476209 0.33540532 -0.063940637 -0.22539547 -0.6581229 0.71838099 0.12209153
0.14042884 0.33166248 -0.065347321 -0.30278936 -0.64946234 0.69750792 0.12921795
0.1526591 0.33049831 -0.061414495 -0.33065459 -0.62976217 0.7028991 0.13913596
-0.12730749 0.34179497 -0.06061304 0.28383416 -0.68050671 0.67553604 0.13350037
-0.11187419 0.34696314 -0.061847284 0.31481969 -0.6701811 0.67212039 0.14529054
-0.10462242 0.34346887 -0.068396933 0.14745755 -0.57987595 0.80124915 0.14337304
-0.095567867 0.34762061 -0.067931995 0.15077284 -0.69554108 0.70248854 0.12359742
-0.034527119 0.34132445 -0.061018806 0.15041009 -0.72534734 0.67174989 0.12671301
-0.014231436 0.34064367 -0.064645268 0.0083576487 -0.73101485 0.68231034 0.11922874
-0.0030866591 0.3438035 -0.062813975 -0.067087516 -0.6951859 0.71569258 0.1190259
0.0023937072 0.34420761 -0.062475372 0.0011546587 -0.74040836 0.67215627 0.12063368
0.037082084 0.34045625 -0.061592262 -0.18739042 -0.7368626 0.64955252 0.11925976
0.091522902 0.3489368 -0.067811929 -0.068228774 -0.72889763 0.68121445 0.14371514
0.10058799 0.34365791 -0.069890648 -0.15549088 -0.71596771 0.68059742 0.14701007
0.11583315 0.34565425 -0.061513379 -0.25617886 -0.66523325 0.70131093 0.11765546
-0.10566406 0.35084659 -0.060525734 0.29302168 -0.63656461 0.71338898 0.14247483
-0.086844981 0.3520959 -0.065061018 0.16196367 -0.72642541 0.66788769 0.13739751
-0.070407227 0.35634658 -0.06280417 0.19061248 -0.7297855 0.65656674 0.14625713
-0.064818092 0.35298717 -0.067233823 0.13180541 -0.74800664 0.65047157 0.1290479
-0.054974444 0.35431391 -0.06720075 0.15211575 -0.76406425 0.62695026 0.12371153
-0.048721705 0.35768649 -0.064443395 0.095900021 -0.80626911 0.58372366 0.12199834
-0.038788319 0.35832596 -0.06516663 0.098235108 -0.77531862 0.62388378 0.12542601
0.0025285492 0.35942823 -0.069139339 -0.042481195 -0.71594757 0.69686037 0.11944836
0.034914725 0.35868579 -0.065330148 -0.092760466 -0.67750782 0.72964287 0.11424583
0.042361483 0.35385445 -0.069495223 -0.16628604 -0.65751815 0.7348597 0.12024737
0.063888922 0.35624394 -0.063844383 -0.20883125 -0.76548553 0.60862261 0.12464923
0.073795058 0.35712737 -0.061477788 -0.014657651 -0.69027048 0.72340286 0.12718408
0.098115131 0.35167634 -0.062841021 -0.093600236 -0.68144286 0.72586125 0.1314742
0.10350734 0.3503328 -0.061943904 -0.11273954 -0.66564316 0.73770517 0.12237557
-0.024616269 0.36047485 -0.064860933 0.14744279 -0.70078444 0.69796973 0.13718119
-0.015611407 0.36350557 -0.062865354 -0.026208214 -0.73244089 0.68032604 0.12572749
0.0067919032 0.36479688 -0.062725052 -0.011492563 -0.63493818 0.77247751 0.11784913
0.019325085 0.36187619 -0.064099386 0.11179704 -0.72775781 0.67666095 0.13181119
0.025186891 0.36276889 -0.062298983 0.043640226 -0.74997532 0.66002464 0.1194555
0.047241975 0.36188012 -0.060119219 -0.211079 -0.66062701 0.72042876 0.13141888
-0.040824838 -0.37114516 -0.051011551 0.20639892 0.69785112 0.68585962 0.11765569
-0.032111742 -0.37202007 -0.05130605 0.14102134 0.64947104 0.74719501 0.11823945
-0.020878337 -0.37378523 -0.050996464 0.0040138881 0.72954035 0.68392605 0.12610528
-0.012911252 -0.37255678 -0.053459853 -0.085175715 0.68520463 0.72335309 0.13781561
-0.0019628308 -0.37104398 -0.056655452 -0.14745395 0.68836153 0.71022236 0.1420514
0.004640386 -0.37447417 -0.052563615 -0.1924445 0.64769638 0.73719376 0.12816435
0.015371023 -0.37310851 -0.05251231 -0.1350093 0.66675323 0.73294789 0.12305494
0.023008851 -0.37367857 -0.050807759 -0.083704405 0.59519249 0.79921174 0.12299265
0.035572622 -0.37097681 -0.051940538 -0.073713414 0.68871701 0.7212733 0.13242967
0.043040242 -0.37175137 -0.050039016 -0.094495699 0.75531572 0.64851272 0.13822412
-0.085445799 -0.36329475 -0.053147469 -0.02580177 0.67149037 0.74056387 0.12528171
-0.073660329 -0.36647159 -0.051389985 0.05933658 0.6833744 0.72765279 0.13385317
-0.06572476 -0.36513001 -0.053971417 0.13729934 0.66412616 0.73490494 0.13157648
-0.054285165 -0.36370429 -0.057142913 0.14368962 0.65938568 0.73794568 0.11859635
-0.042916179 -0.36995625 -0.051999729 0.18681031 0.65294641 0.73400468 0.12411805
-0.033923995 -0.36905628 -0.054253805 0.11782898 0.65663421 0.74494821 0.12660156
-0.024347328 -0.36737701 -0.057434082 0.071255006 0.67852587 0.73111242 0.1293176
-0.018410012 -0.36819902 -0.057390478 -0.037901632 0.67416787 0.73760498 0.12579413
-0.0070488341 -0.36929291 -0.05782517 -0.14470965 0.69324458 0.70602483 0.13044509
0.033472311 -0.36681661 -0.056739762 -0.082822114 0.7244792 0.68430293 0.13817692
0.047714762 -0.36712539 -0.054376975 -0.073396243 0.73896646 0.66973251 0.13120089
0.057611302 -0.36114678 -0.059434317 0.010528396 0.73143977 0.68182486 0.14205207
0.068060465 -0.36332464 -0.055590581 -0.095271148 0.79317832 0.60149115 0.13385086
0.075189397 -0.36585459 -0.051838905 -0.051205453 0.73802841 0.67282391 0.14278302
0.081825159 -0.36362958 -0.053300604 -0.043023415 0.78549069 0.61737615 0.12324803
0.096032307 -0.36304253 -0.05191236 -0.18601288 0.76703107 0.6140542 0.13231775
0.10009958 -0.36342204 -0.050173711 -0.23358394 0.71755308 0.65616775 0.12091678
-0.11576612 -0.35166812 -0.055479765 0.24485126 0.67804414 0.69303977 0.11835674
-0.10100371 -0.35799071 -0.055270541 0.15252605 0.61961603 0.76994264 0.11653107
-0.096479729 -0.35737401 -0.057780989 0.13528104 0.6630336 0.73626453 0.13322982
-0.032148968 -0.35161436 -0.050225236 0.10612678 0.61250889 0.78330714 0.12332627
-0.0038302073 -0.35149455 -0.054388445 -0.059479725 0.68392801 0.72712082 0.13215263
0.008211093 -0.35209462 -0.053115912 -0.0998009 0.76376987 0.63772672 0.12280963
0.014734258 -0.35111398 -0.053248029 -0.18128009 0.73864615 0.64926058 0.12931058
0.020107077 -0.35163957 -0.051914558 -0.16823259 0.71004635 0.68376309 0.12549879
0.033226661 -0.35141414 -0.050290599 0.041250512 0.68048239 0.73160249 0.11108594
0.096965298 -0.35511354 -0.059856672 -0.33200684 0.67721331 0.65662283 0.11967751
0.10846961 -0.35808066 -0.052062951 -0.33085763 0.61961108 0.71176916 0.12713309
0.1134568 -0.35383946 -0.054255657 -0.31813088 0.68689728 0.65342546 0.1273063
-0.1530893 -0.34159571 -0.050049204 0.10619871 0.70262307 0.70359266 0.12640885
-0.13510638 -0.34654537 -0.052568328 0.427147 0.5170871 0.74173206 0.13361003
-0.12592544 -0.34438255 -0.058581479 0.23504384 0.6774264 0.69702792 0.12542807
-0.097502477 -0.34140694 -0.050303724 0.1651215 0.69354981 0.70123005 0.13332406
-0.081993684 -0.3438808 -0.051492866 0.11052785 0.73075587 0.67363149 0.14733496
-0.075671598 -0.34477624 -0.051424328 0.10650704 0.74476421 0.65877348 0.12875664
-0.065077856 -0.34443882 -0.053297363 0.12161797 0.73970145 0.66185409 0.12565738
-0.051307172 -0.34243479 -0.057425931 0.076593637 0.73822534 0.67019165 0.11667915
-0.044634342 -0.34619036 -0.054313969 0.2096996 0.69312692 0.68963856 0.11517394
-0.034700584 -0.34550071 -0.056474939 -0.011866871 0.60658258 0.79493195 0.12358311
-0.026880629 -0.34444776 -0.05872773 0.17755234 0.66741866 0.7232064 0.13169371
-0.016431419 -0.34879765 -0.055510819 0.054253288 0.66545677 0.74446213 0.12648676
0.0057738195 -0.346874 -0.059110064 -0.085751057 0.73269063 0.67513794 0.12417212
0.019247053 -0.34616053 -0.057963654 -0.19539799 0.75062835 0.63117075 0.1084916
0.028673647 -0.34443349 -0.058489751 0.038461253 0.78481591 0.61853433 0.12408377
0.035933279 -0.34667316 -0.055033326 -0.020210547 0.78900099 0.61405951 0.11329857
0.043432921 -0.34491751 -0.05586417 -0.030718833 0.68424559 0.72860432 0.1161993
0.054266848 -0.34578049 -0.053387772 -0.037087016 0.69841725 0.71472925 0.12434438
0.063232228 -0.34245005 -0.05571308 -0.081713371 0.65600872 0.75031692 0.11892565
0.086881459 -0.34242618 -0.052370675 -0.2190229 0.65368348 0.72438037 0.12034271
0.12571907 -0.34861398 -0.054403104 -0.33555329 0.67544478 0.65664166 0.11966971
0.13911369 -0.34470046 -0.05275543 -0.28533909 0.71419245 0.63914847 0.12785737
0.1440908 -0.34319046 -0.052199375 -0.21105051 0.74020392 0.63840097 0.13966489
-0.17584085 -0.33147472 -0.050751742 0.26477933 0.61213744 0.74510378 0.12517208
-0.16379111 -0.33105946 -0.056201175 0.11045066 0.62832355 0.77007151 0.11845493
-0.15780303 -0.337026 -0.05268728 0.16530411 0.59649384 0.78541046 0.13876253
-0.14816914 -0.33827549 -0.055450033 0.22716251 0.70312423 0.6738053 0.13417731
-0.11381602 -0.33369142 -0.05127009 0.33755499 0.64769381 0.68304425 0.12242362
-0.10184577 -0.33290553 -0.057059199 0.25828695 0.71297967 0.6518802 0.14843968
-0.094486557 -0.33748832 -0.05551235 0.085374586 0.64429986 0.75999272 0.13219245
-0.081584379 -0.33819714 -0.057698656 0.020741804 0.72418505 0.68929374 0.14024672
-0.072197363 -0.33788577 -0.059371725 0.10785648 0.68948841 0.71622115 0.12602547
-0.06760817 -0.33832803 -0.059546687 0.14964573 0.7026341 0.69563746 0.12684003
0.071079858 -0.33780944 -0.059614658 -0.16250294 0.66814774 0.72606575 0.11346287
0.086014427 -0.33648419 -0.058921017 -0.10389394 0.6712082 0.73395199 0.14319912
0.096445344 -0.33555296 -0.056644928 -0.22394177 0.64487189 0.73074645 0.12750427
0.10764213 -0.33402061 -0.053514637 -0.23242374 0.71097934 0.66369236 0.13395391
0.11110972 -0.33144087 -0.054667003 -0.31389484 0.62062168 0.71853936 0.13859856
0.1365968 -0.33972546 -0.058820702 -0.24871318 0.66556293 0.70368159 0.12658998
0.14524291 -0.33742005 -0.05753468 -0.31529969 0.70534414 0.63488251 0.12626207
0.15388364 -0.3337751 -0.057600882 -0.33189112 0.65076637 0.6828993 0.13009085
0.16429278 -0.33375031 -0.053279873 -0.39444995 0.69425237 0.60201567 0.1156892
-0.19627377 -0.3205272 -0.050488621 0.41691238 0.58802032 0.69312066 0.13386343
-0.18587983 -0.32581145 -0.052268729 0.39114243 0.53901023 0.74597287 0.11788914
-0.17727828 -0.32514179 -0.056534912 0.26530394 0.66208559 0.70089692 0.11734851
-0.16968206 -0.32930368 -0.055511426 0.31201014 0.57564962 0.75582886 0.1314497
-0.13082013 -0.32185656 -0.05610007 0.45066565 0.66206145 0.59881151 0.11217915
-0.12411449 -0.32589555 -0.054828491 0.34688076 0.70759398 0.61561722 0.12511934
-0.11232724 -0.32782081 -0.057808608 0.29696757 0.66447234 0.68577462 0.13636582
0.10998644 -0.3289063 -0.057690509 -0.29741517 0.67847466 0.67172641 0.14449565
0.11059962 -0.32908964 -0.057249747 -0.29740441 0.67847502 0.67173082 0.14450453
0.12437968 -0.32745078 -0.053148329 -0.27934647 0.70973283 0.6467185 0.12841269
0.13270152 -0.32318667 -0.053972162 -0.17769381 0.6790188 0.71229082 0.12526435
0.17338496 -0.32405597 -0.059255049 -0.28061947 0.6211189 0.73175406 0.13378994
0.18115366 -0.32787263 -0.052164458 -0.36621252 0.67507845 0.6404354 0.1247291
-0.20049486 -0.31003368 -0.056768049 0.43444234 0.59834886 0.67322993 0.1287113
-0.19802891 -0.31795344 -0.05155075 0.44779772 0.62005514 0.64421171 0.13078818
-0.15376803 -0.3146815 -0.053751606 0.16061632 0.75557005 0.63507181 0.11856635
-0.14592274 -0.31450602 -0.057204019 0.23861837 0.70875162 0.66387677 0.11828352
0.13480094 -0.3192147 -0.057099305 -0.11685012 0.79050118 0.60121042 0.11902545
0.14527477 -0.31732416 -0.05463231 -0.24884598 0.68709034 0.68262917 0.13561219
0.15095463 -0.31402606 -0.055585448 -0.30419371 0.69503868 0.65145022 0.13647099
0.19262573 -0.31875691 -0.054443728 -0.37731037 0.66493225 0.64459449 0.15052846
0.20003718 -0.31613648 -0.051789653 -0.44177148 0.56367797 0.69792914 0.15383923
-0.2081224 -0.30486476 -0.056176312 0.37212333 0.66134906 0.65126157 0.13008182
-0.18134555 -0.30169725 -0.0535587 0.45205539 0.64868075 0.61225754 0.12980442
-0.1739244 -0.30671844 -0.053362086 0.38410744 0.68923748 0.61433959 0.12467693
-0.163573 -0.30768687 -0.05670796 0.24856146 0.78272617 0.57057601 0.13452925
-0.15431561 -0.30959451 -0.058650404 0.27179971 0.72971821 0.62740433 0.12310483
0.16409898 -0.307697 -0.056477461 -0.32693312 0.65691304 0.67939681 0.12571417
0.17927226 -0.30346483 -0.053405784 -0.35842276 0.6842984 0.63503456 0.13149248
0.19926466 -0.30784231 -0.059481815 -0.40076414 0.68346733 0.61013156 0.12418558
0.20428474 -0.30652589 -0.05728722 -0.44718337 0.65745461 0.60644913 0.13031748
0.2176806 -0.30398148 -0.05059287 -0.58892649 0.54577643 0.59606516 0.12958284
-0.22444718 -0.29357356 -0.055107586 0.48911265 0.64076579 0.59176689 0.11517829
-0.2193906 -0.29369682 -0.058359224 0.43349868 0.68063283 0.59060806 0.11932293
-0.19169682 -0.29499793 -0.052482393 0.47345927 0.69946378 0.53533787 0.1236169
-0.1853684 -0.29608163 -0.055747475 0.5095126 0.62584585 0.59052002 0.14212047
0.17699432 -0.29884979 -0.058913238 -0.31275499 0.70429742 0.63729864 0.13902628
0.18396619 -0.29987726 -0.053393491 -0.38964459 0.67990476 0.62121379 0.14161283
0.1950267 -0.29272464 -0.052238457 -0.53802162 0.66270518 0.52091718 0.11968055
0.22017998 -0.29416496 -0.057429731 -0.55005032 0.63505405 0.54235691 0.11857296
-0.24339688 -0.28124097 -0.053196266 0.52637905 0.60950416 0.59281504 0.12584616
-0.23841774 -0.28142893 -0.05634065 0.48709235 0.65966445 0.57234943 0.13192882
-0.22598548 -0.28803232 -0.058882259 0.45607141 0.64342248 0.61482215 0.11627606
-0.20386289 -0.28312624 -0.054677665 0.4563131 0.62092131 0.6373657 0.14006668
-0.1947363 -0.28777853 -0.056712423 0.54712307 0.61137974 0.57172644 0.12706427
-0.18830985 -0.28925955 -0.059698712 0.47086596 0.56313652 0.67908955 0.1503167
0.21302111 -0.28120863 -0.050254926 -0.50541383 0.69554955 0.51065421 0.12072276
0.24041775 -0.28234649 -0.054218061 -0.36204147 0.63895357 0.67872262 0.12934516
-0.25549179 -0.27217633 -0.053009123 0.60455471 0.48049438 0.63532573 0.13751221
-0.24583955 -0.27615565 -0.055975635 0.55811977 0.61781496 0.55390155 0.12879951
-0.23901504 -0.27834916 -0.058609724 0.49425894 0.54061657 0.68076563 0.1311917
-0.2158365 -0.27508545 -0.053684976 0.34823155 0.65467417 0.6709221 0.12617856
0.20622288 -0.27633891 -0.058985025 -0.56471658 0.61272061 0.55287308 0.12920569
0.21893828 -0.27523309 -0.051497094 -0.43611598 0.73398453 0.52064335 0.12201902
0.23922077 -0.27806532 -0.058718763 -0.43633917 0.73318678 0.52157962 0.12324398
0.24346839 -0.27544224 -0.058168035 -0.43074897 0.712789 0.55352253 0.12365372
0.25387537 -0.27178416 -0.054422166 -0.47504506 0.54065675 0.69427836 0.13287963
-0.26517719 -0.26277763 -0.054228123 0.64495409 0.39174044 0.65618116 0.12543131
-0.25397924 -0.26877436 -0.056958359 0.58631283 0.49265009 0.64306545 0.11976996
-0.23901717 -0.26032698 -0.051063921 0.519741 0.51279521 0.6833083 0.1296134
-0.2228559 -0.26738995 -0.055683803 0.3903459 0.5939362 0.70346987 0.1279591
0.21682182 -0.26893669 -0.058352578 -0.37352931 0.68146038 0.62935495 0.13943495
0.22452448 -0.26360646 -0.057850387 -0.50654042 0.59767836 0.62144786 0.12590237
0.25510782 -0.26724932 -0.057528812 -0.50922221 0.47310048 0.71893579 0.13422327
0.26392579 -0.2685377 -0.050556779 -0.57670712 0.39578074 0.71467936 0.12513831
-0.26781002 -0.25258169 -0.058720976 0.68747842 0.3404527 0.64145559 0.12216095
-0.2485669 -0.25266036 -0.051357433 0.58171493 0.45491344 0.67428595 0.12843663
-0.2337756 -0.25981852 -0.054985054 0.50383377 0.41950735 0.75509274 0.1284366
0.23617111 -0.25840467 -0.054617912 -0.51612085 0.50767571 0.68984395 0.12458871
0.24693851 -0.25431821 -0.051003955 -0.59830654 0.51377887 0.6148662 0.13231178
0.26694679 -0.25676298 -0.056691103 -0.61239517 0.45976722 0.6431067 0.12572588
0.27447951 -0.25408563 -0.051948987 -0.53180164 0.43573552 0.72616905 0.13839301
-0.28170353 -0.24430004 -0.052195169 0.57206655 0.44662467 0.68794352 0.13870798
-0.25435618 -0.24265584 -0.053815477 0.56536049 0.45515403 0.68789697 0.12554948
-0.24537206 -0.24530619 -0.059831265 0.58003747 0.30722651 0.7544325 0.12151401
0.24938239 -0.24609923 -0.055833519 -0.5795449 0.50243843 0.64162552 0.13711663
0.25580254 -0.24324137 -0.052174777 -0.65681666 0.50218052 0.56250036 0.12730606
0.28086564 -0.24032953 -0.055557534 -0.61002421 0.38202056 0.69421238 0.13548855
-0.294074 -0.23016465 -0.050875586 0.5089274 0.56506336 0.6493814 0.13921675
-0.28404397 -0.236277 -0.055497915 0.63321775 0.44778791 0.63128549 0.12983398
-0.26216847 -0.23735584 -0.050573722 0.65963173 0.50455588 0.55705422 0.12825428
-0.25581098 -0.23428905 -0.058113057 0.54801619 0.60604757 0.57652807 0.12168289
0.25465766 -0.23626494 -0.057799034 -0.54632872 0.51377577 0.66148269 0.12361885
0.28412604 -0.23420964 -0.056799967 -0.58089608 0.44770607 0.67979348 0.11895652
-0.2868883 -0.22747585 -0.058881331 0.54285747 0.6424526 0.54088861 0.12480018
-0.26558793 -0.22681941 -0.054611783 0.59397948 0.53426778 0.60145336 0.11730523
0.2670702 -0.22768717 -0.052752506 -0.67918402 0.43012789 0.59472609 0.12465042
0.29406571 -0.2235204 -0.055295717 -0.48735729 0.56022221 0.66980141 0.12107003
-0.30258578 -0.21227571 -0.055389479 0.43475017 0.56511074 0.70117193 0.12340057
-0.2964581 -0.21952777 -0.055876683 0.63976932 0.46660957 0.61071336 0.12761489
-0.27378726 -0.21576709 -0.054855365 0.58924329 0.45624441 0.66680831 0.13146877
-0.26740727 -0.21772432 -0.059077539 0.64084506 0.53808016 0.54752845 0.11756884
0.26647592 -0.21968025 -0.058584653 -0.5363332 0.4185181 0.73293203 0.11871434
0.27279353 -0.21654482 -0.055198926 -0.47735015 0.47670653 0.73816514 0.12646586
0.28041109 -0.21026003 -0.052779764 -0.54409534 0.58280033 0.60357606 0.12736854
0.30187184 -0.21615902 -0.05342827 -0.51426905 0.55424309 0.65447837 0.11026585
-0.30590832 -0.20454764 -0.05764639 0.54269761 0.37824488 0.74994004 0.1180067
-0.28383034 -0.20246574 -0.054996811 0.67428112 0.43437392 0.59721386 0.12255745
-0.27774215 -0.20454182 -0.058887526 0.6550169 0.53232205 0.53627062 0.11990166
0.27464163 -0.20830849 -0.05906947 -0.41248447 0.51230502 0.75325972 0.14305572
0.28400558 -0.20537454 -0.052913249 -0.53678566 0.55380839 0.63651985 0.13155797
0.30712897 -0.2033923 -0.057357237 -0.6308918 0.50767899 0.58671761 0.10524002
-0.3140066 -0.19440247 -0.05737504 0.57807821 0.2992385 0.75913233 0.13264677
-0.30983019 -0.19773473 -0.058776744 0.59901017 0.38359341 0.70288187 0.13132714
-0.29238614 -0.19399153 -0.053219404 0.63226902 0.37210804 0.67953771 0.13136767
-0.28855655 -0.1962235 -0.055051785 0.71382809 0.45266762 0.53436077 0.13453564
0.32309264 -0.19283473 -0.050551929 -0.69846529 0.38789639 0.60140061 0.13139202
-0.32687953 -0.18400571 -0.051974677 0.61957359 0.27646679 0.73463917 0.12988424
-0.31836519 -0.18584687 -0.059284858 0.57610744 0.32521787 0.74988908 0.13998564
-0.30080825 -0.18635795 -0.050999381 0.53255767 0.42365283 0.73273504 0.13454455
-0.29584488 -0.18290029 -0.057591811 0.66614491 0.51829684 0.53630149 0.12642241
0.29515746 -0.18279855 -0.058254398 -0.59726804 0.4072682 0.6909439 0.13523296
0.32462692 -0.18455265 -0.05401681 -0.75112748 0.23634018 0.61640143 0.13568132
-0.32595313 -0.17450252 -0.056876183 0.60841107 0.28311995 0.7414034 0.13238397
-0.30497324 -0.17531405 -0.054440308 0.66880429 0.35174337 0.65496373 0.12914366
-0.2985031 -0.17836322 -0.05830425 0.64789104 0.38317502 0.658342 0.13658261
0.30743402 -0.17522572 -0.052097436 -0.65907377 0.30756542 0.68631274 0.14352658
0.32725239 -0.17934409 -0.053545166 -0.74872661 0.29470694 0.59376454 0.13090697
-0.33000076 -0.16265941 -0.057741143 0.65518332 0.28955311 0.69777775 0.13830377
-0.32863572 -0.16559395 -0.057891779 0.63576221 0.36276147 0.68132991 0.1355852
-0.3045615 -0.1673716 -0.058272123 0.677396 0.38673401 0.62575668 0.12762427
0.30571336 -0.16323668 -0.058837563 -0.7278474 0.23517917 0.64414978 0.12914687
0.31249917 -0.16345176 -0.051908024 -0.7669642 0.25487784 0.58890003 0.12468549
0.32838655 -0.1654851 -0.05818842 -0.78692949 0.17005004 0.59314823 0.11869583
0.33124918 -0.16732669 -0.054534137 -0.72536623 0.18742627 0.6623559 0.12261405
-0.34090552 -0.15254529 -0.0509726 0.73034453 0.31068936 0.60833293 0.13420992
-0.31657472 -0.15229243 -0.052459426 0.70942956 0.29965284 0.63790101 0.13042709
-0.30929711 -0.15339799 -0.05933328 0.67277193 0.22989532 0.70322537 0.11945951
0.31440893 -0.15665027 -0.052822936 -0.74974477 0.29193377 0.59384966 0.13440795
0.33361399 -0.15515631 -0.057231903 -0.71880746 0.21500778 0.66112596 0.14116025
-0.34339967 -0.14497355 -0.051619969 0.66424441 0.28824756 0.68970472 0.13145489
-0.33669901 -0.14643426 -0.057764031 0.6884895 0.31257957 0.65442818 0.14085723
-0.31810641 -0.14208177 -0.05517868 0.64022374 0.3209531 0.69792742 0.11921722
0.31369257 -0.14700195 -0.057573397 -0.76453447 0.2902551 0.57553369 0.1197942
0.32127514 -0.14631335 -0.05021812 -0.80496681 0.29417828 0.51525486 0.13393839
0.33781698 -0.14380041 -0.057736795 -0.70690376 0.31688985 0.6323511 0.13210812
0.34178892 -0.14255664 -0.054252625 -0.67927456 0.19112527 0.70855987 0.13797286
-0.34441793 -0.13529319 -0.054635238 0.60902333 0.37428904 0.69928414 0.13240655
-0.32393694 -0.13361579 -0.052836213 0.67828107 0.30297396 0.66943377 0.12288503
-0.31752825 -0.13477498 -0.058811627 0.68099093 0.31913948 0.65909129 0.12870009
0.31745958 -0.13436681 -0.059051245 -0.79495853 0.20187971 0.57208866 0.12566251
0.32331282 -0.13297731 -0.053731792 -0.78962117 0.18262768 0.58578622 0.12247726
-0.35095227 -0.1248249 -0.052419573 0.67691934 0.26439169 0.68693316 0.13780318
-0.34615707 -0.12461121 -0.05734206 0.72869235 0.25328958 0.63627976 0.13276541
-0.3274591 -0.12478705 -0.052971818 0.62167066 0.3118268 0.71853304 0.12609176
0.31989485 -0.1270466 -0.059652597 -0.76796633 0.24613164 0.59130955 0.12384005
0.32402802 -0.12524502 -0.056238864 -0.67883122 0.39526397 0.6188333 0.13858494
0.34556904 -0.12543021 -0.057592791 -0.69314665 0.44783306 0.56479496 0.1107725
-0.3482976 -0.1151917 -0.059117172 0.6216346 0.35005343 0.70073748 0.12595895
-0.33051306 -0.11868077 -0.052442782 0.68143642 0.21466218 0.69968897 0.11897619
0.32836848 -0.11685826 -0.055365115 -0.58407891 0.35479528 0.73004943 0.11694828
0.33389091 -0.11087351 -0.052297406 -0.57528985 0.44814911 0.68425435 0.099989027
0.34944281 -0.11672933 -0.057320904 -0.68122023 0.38613135 0.62196589 0.11872386
0.3541846 -0.11396226 -0.053696785 -0.69059575 0.47761458 0.54310393 0.11316767
-0.36062181 -0.10167222 -0.052339554 0.67978221 0.27618432 0.679425 0.11925489
-0.35636455 -0.10449894 -0.055450436 0.64588255 0.34030551 0.68339437 0.12668426
-0.33355865 -0.10881068 -0.053493436 0.67241877 0.29884684 0.67715842 0.12267183
-0.32939491 -0.10847422 -0.057830486 0.67504936 0.30564025 0.6714853 0.12674378
-0.36281174 -0.093659617 -0.052499834 0.6939764 0.12475925 0.70910639 0.12632298
-0.34069479 -0.093054637 -0.052878302 0.61075085 0.22871244 0.75807256 0.13815133
-0.33519799 -0.095682912 -0.057321306 0.63852704 0.26063341 0.72412252 0.1340391
0.34114808 -0.094088703 -0.051989742 -0.7247833 0.1973182 0.66011715 0.12097587
0.35492045 -0.097332887 -0.059897833 -0.80564743 0.10271657 0.58342218 0.1040882
-0.36255801 -0.089396529 -0.053381421 0.73911923 0.060983118 0.67080832 0.13062873
-0.34430087 -0.085412763 -0.050551731 0.7289896 0.12000365 0.67392373 0.12667115
-0.33943355 -0.083092995 -0.056146529 0.68272591 0.061525408 0.72807962 0.16091688
0.33798802 -0.083319359 -0.05767785 -0.75224411 0.027984165 0.65828991 0.13943608
0.35992011 -0.089005463 -0.05629041 -0.77486759 0.034713794 0.63116968 0.11967376
0.36379382 -0.084298775 -0.052770671 -0.76581287 -0.022273924 0.64267766 0.1325818
-0.34342119 -0.073219851 -0.053238988 0.70895553 -0.09767168 0.69845712 0.13240547
-0.33939922 -0.078069448 -0.056898821 0.63740128 -0.052829858 0.76871884 0.14473666
0.33911997 -0.075566135 -0.05755727 -0.7556119 -0.060317602 0.65223658 0.13286473
0.34124294 -0.072435617 -0.055706628 -0.67318976 0.081309326 0.73498595 0.13429093
0.35873225 -0.079967551 -0.058862239 -0.74359244 -0.007185827 0.66859454 0.11801325
0.36474743 -0.075606138 -0.0529771 -0.70503968 0.032266948 0.70843339 0.12162329
-0.34369788 -0.064783089 -0.054140758 0.7505362 0.12449508 0.64899647 0.12083039
-0.33900905 -0.066094011 -0.059025615 0.75520092 0.054200098 0.65324879 0.10716335
0.34179753 -0.068017006 -0.055735838 -0.68910056 0.18463199 0.70075071 0.13731326
0.36664847 -0.064090244 -0.052560795 -0.75427473 0.21568239 0.62012148 0.11080149
-0.36814177 -0.059663851 -0.051575921 0.64112198 0.20204797 0.74036431 0.13836619
-0.34058425 -0.056964632 -0.058621854 0.72525376 0.1946537 0.66039145 0.1075742
0.36385089 -0.051379804 -0.057396855 -0.73998183 0.098996989 0.66530186 0.1129293
-0.37088692 -0.044057686 -0.050829172 0.70548421 0.21840622 0.6742335 0.13934416
-0.36453161 -0.048163086 -0.057118732 0.64699441 0.16872212 0.74359334 0.14213514
0.34474939 -0.043410338 -0.056047004 -0.71748656 0.11548205 0.68693304 0.13516152
0.36486995 -0.042890847 -0.057503771 -0.72273511 0.10256699 0.68347204 0.13598084
0.37148401 -0.04309383 -0.050320592 -0.77103263 0.17610465 0.61196065 0.139587
-0.37204421 -0.035462074 -0.050801709 0.70729917 0.1770547 0.6843825 0.13050103
-0.36707336 -0.032083191 -0.05665987 0.75301313 0.1126835 0.64828515 0.13181378
-0.34724805 -0.034626484 -0.054595385 0.69273698 0.090005934 0.71555179 0.11652747
0.34678185 -0.030604945 -0.055672456 -0.7596662 -0.0013106944 0.65031195 0.13614178
0.36737081 -0.034951903 -0.055929497 -0.78495759 -0.058202282 0.61680955 0.12724131
0.37179393 -0.035195209 -0.051110469 -0.66052121 0.070725635 0.74746883 0.12821966
-0.3712222 -0.02169149 -0.053652398 0.74402487 0.13076903 0.65523005 0.12384225
-0.34852767 -0.027520448 -0.054223344 0.69353116 0.1020778 0.71315825 0.13176577
0.34845042 -0.024407998 -0.054750267 -0.75968254 0.011089371 0.65019959 0.12854663
0.35111514 -0.023077108 -0.052057415 -0.77735287 0.010558751 0.62897617 0.12701109
0.36701837 -0.023453059 -0.057948641 -0.73826981 0.033606134 0.67366779 0.10837648
-0.37080684 -0.015121376 -0.055037528 0.81628758 0.057332471 0.57479352 0.1246971
-0.34655368 -0.017963093 -0.057719901 0.65339339 0.1764062 0.73617786 0.13805653
0.35031164 -0.017537454 -0.053715639 -0.75536752 -0.040441681 0.65405232 0.12147151
0.37376353 -0.018800406 -0.051315278 -0.70592964 0.058832034 0.70583433 0.11824171
-0.37244338 -0.0075392146 -0.054347355 0.78806829 -0.039193887 0.61433882 0.11826628
-0.36953551 -0.0048747244 -0.057872258 0.78730845 0.058600284 0.61376816 0.11696363
-0.35021368 -0.0053640502 -0.055555519 0.70951557 0.16399908 0.68534076 0.13439532
-0.34807622 -0.0071565215 -0.057612251 0.68109637 0.17844857 0.71011537 0.1320598
0.35531688 -0.0031836685 -0.050345976 -0.71936309 0.10484339 0.6866765 0.1306942
0.37516609 -0.0055445279 -0.051686406 -0.67156649 0.036595192 0.74004006 0.1274934
-0.37418976 0.0055663106 -0.052739356 0.77866536 0.06545119 0.62401634 0.11924782
-0.36959726 0.004886617 -0.05780381 0.7734493 -0.070303209 0.6299473 0.12013052
-0.35173273 0.005264217 -0.05392693 0.78289765 -0.14184165 0.60576576 0.12860045
0.34823674 0.00087583461 -0.058333315 -0.75176048 0.092390232 0.65293199 0.12698548
0.35431868 0.0053578941 -0.051116381 -0.7482841 0.091385834 0.65705365 0.12833075
0.36874729 0.0055138767 -0.058633968 -0.68235195 0.12743698 0.71983027 0.1181775
0.37257668 0.0038745329 -0.054725304 -0.76834911 -0.001270714 0.64002961 0.12748966
-0.34716871 0.015576746 -0.057395663 0.73560339 -0.15826865 0.65866423 0.12906437
0.34539732 0.018982628 -0.058826849 -0.68606251 -0.010347022 0.72746903 0.14014459
0.35297364 0.015610285 -0.051111721 -0.72535616 -0.047024913 0.68676567 0.14103524
0.36826593 0.012144457 -0.058210421 -0.70130807 0.018300602 0.71262342 0.13088718
0.37063271 0.018329922 -0.05476946 -0.72173631 0.03111385 0.69146842 0.12843901
-0.36878282 0.025095729 -0.055806093 0.71817505 -0.12410485 0.68470615 0.13015811
-0.35140175 0.025517 -0.051401641 0.72719443 -0.15593091 0.66848624 0.12257902
0.34439969 0.024835698 -0.059072718 -0.64651477 -0.089740321 0.75760496 0.14812534
0.36819151 0.026816869 -0.056201342 -0.72338408 -0.20853485 0.65820116 0.14204417
0.37154034 0.02945802 -0.052202873 -0.71784079 -0.10622137 0.68805647 0.13093805
-0.37101996 0.035077475 -0.05196441 0.72320163 -0.14890064 0.67439455 0.1406308
-0.36643174 0.036623329 -0.056707155 0.69031107 -0.11029019 0.71505719 0.13590986
-0.35163587 0.03045398 -0.050445475 0.71705246 0.0029573715 0.6970129 0.1216992
-0.34281743 0.037512489 -0.058978803 0.65170246 -0.086400487 0.75353754 0.13203345
0.34699798 0.033142723 -0.055079471 -0.75379604 -0.16586898 0.63582933 0.14218937
0.36822999 0.035990536 -0.054853331 -0.64881533 -0.19085637 0.73662233 0.12748285
-0.36745125 0.046232406 -0.054235667 0.67917383 -0.055451922 0.73187971 0.12596495
-0.34570694 0.043416306 -0.055012658 0.69296688 -0.023802532 0.72057635 0.12407006
0.34637699 0.044059519 -0.054196339 -0.71391028 -0.18035267 0.67661297 0.13332531
0.35006633 0.044470485 -0.050147418 -0.71507835 -0.19654576 0.67084491 0.12818228
0.36579633 0.043595403 -0.056402702 -0.69003379 -0.25469092 0.67748511 0.13211371
-0.36445123 0.056057513 -0.056081332 0.70836496 -0.043270979 0.70451874 0.12280411
-0.34329522 0.055678934 -0.055874679 0.75763774 -0.13369837 0.63883483 0.13510305
-0.33972681 0.057050046 -0.059539028 0.7416876 -0.19245964 0.64254087 0.15122136
0.34509224 0.055809289 -0.053912498 -0.77339113 0.0072385822 0.63388783 0.13605542
-0.34436488 0.065157503 -0.053367786 0.75314015 -0.059307653 0.65518129 0.12540239
-0.33923143 0.068055443 -0.05850739 0.62547636 -0.14489926 0.76667047 0.12185943
0.34633285 0.069405958 -0.050634187 -0.69281018 0.13795388 0.7078014 0.1207459
0.36435533 0.066557825 -0.0546907 -0.70511997 0.075752825 0.70503002 0.10871644
-0.36532083 0.074440733 -0.052522846 0.70355803 -0.11581143 0.70113754 0.1326129
0.33951366 0.074784614 -0.057243761 -0.71444458 -0.12709495 0.68805224 0.13182287
0.36334932 0.074969687 -0.054580674 -0.74198437 0.1286214 0.65796334 0.10724856
-0.36322647 0.082332797 -0.053664312 0.73140365 -0.17847653 0.65817535 0.12178139
-0.35870534 0.083768107 -0.058350123 0.70154756 -0.13425958 0.69986099 0.12388966
-0.34305429 0.087379932 -0.051620327 0.711707 -0.11655495 0.69273949 0.13109729
0.36411268 0.081103459 -0.052881286 -0.708561 -0.064609669 0.70268542 0.12306277
-0.34040767 0.09430097 -0.052617021 0.74030775 -0.17751771 0.64840716 0.12942095
-0.33647808 0.096056812 -0.055875018 0.71607924 -0.20772249 0.66639471 0.13302192
0.33407333 0.092037998 -0.059976466 -0.69477564 -0.34415242 0.63154256 0.13335843
0.35838661 0.093846321 -0.057259742 -0.65988708 -0.15790103 0.73458582 0.1009877
0.36342752 0.095062673 -0.051634058 -0.70989728 -0.2524946 0.65748936 0.11169802
-0.35439268 0.10584563 -0.056875736 0.78932095 -0.29123423 0.54051369 0.13107958
-0.33406407 0.1055908 -0.054328185 0.72915494 -0.21363321 0.65014917 0.12948985
