# .PCD v0.7 - Point Cloud Data file format
VERSION 0.7
FIELDS x y z normal_x normal_y normal_z curvature
SIZE 4 4 4 4 4 4 4
TYPE F F F F F F F
COUNT 1 1 1 1 1 1 1
WIDTH 592
HEIGHT 1
VIEWPOINT 0 0 0 1 0 0 0
POINTS 592
DATA ascii
0.2865808 0.37881538 0.16242859 -0.54029369 -0.70951527 0.45240545 0.00091751403
0.29513583 0.37521458 0.16538961 -0.53683788 -0.71654338 0.44538823 0.00076961843
-0.28429335 0.38248098 0.16436093 0.54588252 -0.71348327 0.43926519 0.0010711587
-0.27632669 0.3886323 0.16407445 0.54636353 -0.71710449 0.43272173 0.00086903112
0.27634418 0.38936016 0.16453502 -0.54761112 -0.70620322 0.44877514 0.00083673408
0.28677431 0.3839128 0.16783643 -0.54809803 -0.71227497 0.43846655 0.0012229967
-0.27375507 0.39180684 0.16525024 0.55001706 -0.7145443 0.43232819 0.00091777567
-0.2668981 0.39623845 0.16188344 0.55440009 -0.71330154 0.42876729 0.00097642024
0.26626906 0.3975051 0.16517875 -0.5522247 -0.70446908 0.44583756 0.0010891933
0.27153578 0.39171356 0.16245726 -0.54781979 -0.70650262 0.44804868 0.0011181288
-0.26168081 0.40190148 0.1666052 0.55190676 -0.71676141 0.42620653 0.00089424686
-0.25377285 0.40568262 0.16298446 0.53081155 -0.73207694 0.42696896 0.0012177251
-0.24516924 0.40912801 0.16015282 0.48187029 -0.75730067 0.44079101 0.0019080652
0.25765261 0.40584522 0.16644478 -0.52763647 -0.718701 0.4528451 0.0013608548
-0.23437834 0.41784105 0.16303617 0.41769987 -0.7956205 0.43876511 0.002583791
0.22760502 0.41991842 0.16254801 -0.37025249 -0.81901604 0.43832159 0.0013611817
0.2318676 0.4189032 0.1625226 -0.38999689 -0.80837679 0.44094142 0.0020794361
0.24371649 0.41618782 0.16655841 -0.46191636 -0.77212429 0.4364143 0.003020166
-0.2307332 0.42201522 0.16869782 0.39565015 -0.80939341 0.43398538 0.001640414
-0.22537726 0.4223381 0.16525854 0.37791654 -0.81551343 0.43831155 0.0014345797
-0.21530204 0.42630872 0.16281527 0.3457177 -0.83000982 0.43767905 0.00072484196
0.20777106 0.42895851 0.16404118 -0.35008353 -0.82395208 0.44558331 0.00094091031
0.2168327 0.4255566 0.16260135 -0.34125349 -0.83067888 0.43990764 0.00087454461
0.22456299 0.42512503 0.16695376 -0.36307403 -0.82529634 0.43250805 0.0012977775
0.23380718 0.42060578 0.16637413 -0.40475333 -0.80407494 0.43547475 0.0027299845
-0.21625516 0.43084103 0.16992261 0.34705743 -0.83095098 0.43482378 0.00087516737
-0.20333189 0.43244883 0.16391726 0.35235032 -0.82933664 0.43364742 0.00061551761
-0.19520605 0.43595275 0.16395965 0.33368915 -0.8380326 0.43168601 0.00073627522
0.19334225 0.43608084 0.16405855 -0.34102494 -0.82859361 0.4439984 0.0010345245
0.20456095 0.43275139 0.16617431 -0.34572339 -0.82852083 0.44048676 0.0012881695
-0.18707687 0.44030219 0.16911957 0.34161267 -0.83760208 0.42629039 0.0010032656
-0.17234975 0.44594115 0.16617107 0.34405217 -0.83511096 0.42920598 0.0011842741
-0.16344938 0.44837758 0.16180864 0.3549425 -0.82721293 0.43558538 0.00105978
-0.15398835 0.44975764 0.16136406 0.34609768 -0.83089191 0.43570071 0.0012139131
0.16762021 0.44757473 0.16770622 -0.34230033 -0.83431917 0.43213665 0.001373902
0.1740731 0.44551292 0.16737504 -0.33669186 -0.83493829 0.43533495 0.0015274954
0.18514122 0.44185483 0.16626732 -0.34934807 -0.82696754 0.44054568 0.0009520626
-0.15525556 0.45199823 0.16360337 0.35238075 -0.83031541 0.43174547 0.0012160132
-0.14351802 0.45624852 0.16457215 0.33142716 -0.83939922 0.43077248 0.0011514634
-0.13817585 0.45870438 0.16362815 0.30975014 -0.84434962 0.43718249 0.0012489199
0.14407587 0.45636979 0.16593108 -0.34614202 -0.8265512 0.4438456 0.0014252157
0.15392287 0.4522987 0.16280177 -0.35272276 -0.8247838 0.44194838 0.0012654029
0.1630815 0.45274457 0.16967081 -0.34567675 -0.83306175 0.43187463 0.0016138033
-0.13473403 0.46383271 0.16831884 0.29016194 -0.85416806 0.43151224 0.0017409725
-0.12580286 0.46451744 0.16608721 0.25021368 -0.86190033 0.44104531 0.0019256914
-0.11561625 0.46740478 0.1669649 0.18351756 -0.87998062 0.43812722 0.0015355243
-0.10487595 0.46902156 0.1698373 0.13557908 -0.89386714 0.42734057 0.0011841025
-0.086281374 0.46804684 0.1613768 0.10810436 -0.89184445 0.43923444 0.0010860342
0.081730127 0.46965802 0.16500428 -0.10844778 -0.89456308 0.43358496 0.0010270852
0.094078384 0.4683648 0.16566426 -0.12090471 -0.89154404 0.43649894 0.0013448015
0.10399718 0.46813974 0.16498196 -0.12292518 -0.89198208 0.4350372 0.0011806593
0.11367933 0.46612719 0.16527846 -0.15814252 -0.88513285 0.43764243 0.0014478582
0.12654084 0.46494246 0.16504064 -0.24934462 -0.86173481 0.44186014 0.0020659007
0.13385306 0.46216708 0.16626462 -0.29840645 -0.84635389 0.44117874 0.0023087543
-0.10678637 0.47084421 0.16981509 0.1381034 -0.89399505 0.42626315 0.0010915091
-0.086831369 0.47170672 0.16613761 0.11040736 -0.89382213 0.43461731 0.00097173004
-0.077530809 0.47296336 0.16763866 0.11515318 -0.89193058 0.43726388 0.0011547469
-0.064229578 0.47534597 0.16748518 0.11094376 -0.89685768 0.42817965 0.0013524077
-0.05438602 0.47414714 0.16469395 0.11238461 -0.88986921 0.44215673 0.0011462426
-0.04270215 0.47725433 0.16778705 0.13100155 -0.89593416 0.42442971 0.0012549056
-0.033699173 0.47618786 0.16402128 0.12824033 -0.89519691 0.42682186 0.00089731754
-0.024424147 0.47812232 0.16346958 0.12059289 -0.89516044 0.4291214 0.001065973
-0.015267177 0.47887969 0.16453663 0.083225675 -0.89707345 0.43397313 0.0014470064
-0.0032580786 0.47748047 0.1601297 0.0038063996 -0.90084946 0.4341149 0.0023724921
0.015985068 0.47825423 0.16405854 -0.090249225 -0.89381707 0.43925649 0.00106169
0.025918294 0.4776853 0.1646637 -0.1040193 -0.88972199 0.44449383 0.00082045468
0.034819148 0.47635567 0.16463389 -0.1099465 -0.89331949 0.43576607 0.00090857723
0.044452712 0.47575417 0.16523746 -0.11649531 -0.89234871 0.43605343 0.0011094582
0.054498907 0.47360718 0.16363549 -0.12485608 -0.88916677 0.44021967 0.0010590719
0.061339673 0.47369194 0.16762656 -0.1257131 -0.890921 0.43641266 0.0011458833
0.094381966 0.47057271 0.16727293 -0.1257813 -0.89285141 0.4324297 0.0011172579
0.10478669 0.47089875 0.16935191 -0.12393617 -0.89401084 0.43056288 0.0012246611
-0.023882758 0.48143974 0.16910735 0.11566187 -0.90323031 0.41327628 0.0009581928
-0.0043294318 0.48167461 0.16523165 0.018444762 -0.89736283 0.44090781 0.002259627
0.004293391 0.48201102 0.16712189 -0.029829381 -0.90159595 0.43154934 0.0017498331
0.016355602 0.48091102 0.16881831 -0.085067496 -0.89744771 0.43284076 0.00095885078
-0.054857671 -0.4808709 0.17689495 0.12255469 0.90139699 0.4152877 0.0014297271
-0.044882867 -0.48131114 0.1756184 0.11999715 0.90140635 0.41601348 0.0015553763
-0.035405789 -0.48272768 0.17533223 0.12906456 0.90160799 0.41285032 0.0013150485
-0.023934085 -0.48413149 0.17694619 0.11393119 0.90375894 0.41260087 0.0014749626
-0.012727789 -0.48534846 0.17452267 0.067513578 0.90319377 0.4238902 0.0017654558
-0.0072072721 -0.48581046 0.17486003 0.040163293 0.9071213 0.41894853 0.0020542457
0.0034711654 -0.48666906 0.17706168 -0.026405549 0.90747416 0.41927731 0.0022372999
0.015260044 -0.48377982 0.17486483 -0.08851283 0.90282679 0.42079619 0.0018075261
0.026509246 -0.48344409 0.17779195 -0.12146644 0.90089375 0.41669694 0.001265903
0.035447057 -0.48108223 0.17400533 -0.12626243 0.90323353 0.41015479 0.0011518638
0.041136973 -0.4828335 0.17724162 -0.12595218 0.90565431 0.4048782 0.0012415261
-0.11423173 -0.47154674 0.17509131 0.17260756 0.88999373 0.42204008 0.0013850965
-0.10371345 -0.47234944 0.17688315 0.12404744 0.90240252 0.41265222 0.0013304692
-0.09333951 -0.47336107 0.17332198 0.11762666 0.89892101 0.42202485 0.0015070933
-0.084825665 -0.47512439 0.17521033 0.12012742 0.89796925 0.4233447 0.0018502682
-0.074917942 -0.47546127 0.17421956 0.11802512 0.90179932 0.41572589 0.001402028
-0.069810614 -0.47739241 0.17354405 0.11453633 0.90275168 0.41463348 0.0014293666
-0.055067606 -0.47760358 0.17201792 0.12292083 0.90015179 0.41787237 0.0014634799
-0.048140302 -0.47837102 0.17400973 0.12012461 0.90309477 0.41229829 0.0014060579
-0.035085514 -0.47944653 0.1725823 0.12341861 0.8974092 0.42358524 0.0014025159
0.043871906 -0.47864208 0.1733641 -0.11569136 0.90574604 0.40772483 0.0010635948
0.055004023 -0.47845355 0.17487669 -0.1103659 0.90745068 0.4054043 0.0012984977
0.064409435 -0.47511575 0.17153873 -0.11039679 0.89656383 0.42893571 0.0012338699
0.076466657 -0.47596613 0.17463617 -0.10534725 0.90536559 0.41135758 0.0013706806
0.084241688 -0.4742581 0.17450474 -0.10768541 0.90292084 0.41609839 0.0011867315
0.094933309 -0.47444224 0.17433698 -0.13202916 0.89936215 0.4167926 0.0013592615
0.10417274 -0.47286236 0.17584291 -0.13311772 0.89750367 0.42043632 0.0011423826
0.11417005 -0.47132015 0.17457032 -0.17483787 0.88613021 0.42919102 0.0018402864
-0.14476679 -0.4630661 0.17764026 0.34335104 0.84066808 0.41879258 0.0015673504
-0.13227665 -0.46645796 0.17164288 0.27194849 0.86739928 0.4167285 0.0034564279
-0.12100672 -0.46760595 0.17140868 0.19755411 0.88590139 0.4197036 0.0021372528
-0.11179928 -0.46829641 0.17025088 0.16495697 0.88746357 0.43034577 0.0014735521
-0.100963 -0.46969032 0.17017826 0.11996835 0.89172167 0.43639439 0.0011951484
0.12387271 -0.46866956 0.17434636 -0.21625233 0.87526739 0.43259889 0.0021216183
0.13581873 -0.4644928 0.17369658 -0.29760861 0.85490656 0.42492807 0.0016289209
0.14221263 -0.46515954 0.17862527 -0.32437465 0.84942216 0.4162488 0.0013657645
-0.17470188 -0.45013759 0.17885891 0.34358531 0.84137714 0.41717342 0.0012521456
-0.16432005 -0.45437837 0.17565225 0.34568253 0.83961105 0.41899496 0.0011714862
-0.15615286 -0.45736837 0.17638147 0.34918582 0.83816171 0.41899189 0.0011395456
0.15587321 -0.457609 0.17633101 -0.35242796 0.8363812 0.41983449 0.0010064838
0.16532184 -0.45435932 0.17625086 -0.35330406 0.83701402 0.41783237 0.00096271816
0.17336418 -0.4503648 0.17587024 -0.34687278 0.83711684 0.42298305 0.001511366
-0.2013441 -0.44051629 0.17715839 0.34707603 0.84171855 0.41357964 0.0012812308
-0.19481103 -0.44226578 0.17650162 0.32856116 0.84479094 0.4223457 0.0011267043
-0.18399292 -0.44502106 0.17508018 0.34500635 0.83810121 0.42255998 0.0013313821
-0.17491424 -0.44906464 0.17373846 0.34555623 0.83876181 0.42079633 0.0013214855
-0.16882648 -0.44886869 0.17120197 0.34546494 0.835922 0.42648372 0.0012176993
0.1681768 -0.44949704 0.17194487 -0.3415046 0.8329007 0.43548939 0.0014139877
0.17518839 -0.44706428 0.17291996 -0.34854472 0.83273017 0.43020588 0.0013406336
0.18703651 -0.444215 0.17717674 -0.34548888 0.8430112 0.41227371 0.0011348567
0.19448797 -0.44319353 0.17682201 -0.34743425 0.83882552 0.41911963 0.0012002304
-0.21917579 -0.43435585 0.1796931 0.34976026 0.84191436 0.41091114 0.0011177537
-0.20247547 -0.43707699 0.17332757 0.34105188 0.83813137 0.42569873 0.001296791
0.20623213 -0.43586078 0.17460865 -0.34566209 0.83702356 0.42415717 0.0015229136
0.2142754 -0.43442374 0.1774859 -0.3469089 0.83641392 0.42434183 0.0011106513
0.22676259 -0.43021619 0.1776311 -0.35459137 0.83073944 0.42911184 0.0011050906
-0.24338618 -0.4217189 0.17564704 0.46916857 0.77707392 0.41956756 0.0036414757
-0.23413299 -0.42503276 0.17586818 0.39676049 0.81734747 0.41776091 0.003405449
-0.22439082 -0.4277074 0.1734947 0.35435504 0.83758014 0.41580293 0.0010554374
0.21645084 -0.42904341 0.17099796 -0.35557404 0.83334005 0.42321557 0.0012867654
0.22471555 -0.42939293 0.17533143 -0.35910526 0.83138782 0.42407283 0.001250644
0.23839229 -0.42287827 0.1770435 -0.42611828 0.80287611 0.41690901 0.0026936803
0.24290237 -0.42180872 0.17641199 -0.45227188 0.7862705 0.42098561 0.0027631121
-0.25465396 -0.41362238 0.17831047 0.53715622 0.73945093 0.4058024 0.001655282
-0.2471505 -0.41839629 0.17625526 0.48425964 0.77023554 0.4150058 0.0038128877
0.24751492 -0.41652244 0.17435166 -0.47669578 0.77047229 0.42324179 0.0024291237
0.25459641 -0.41244331 0.17421103 -0.52864331 0.7330054 0.42806458 0.0018317129
-0.26581213 -0.40378261 0.17604129 0.55869275 0.72385687 0.4048377 0.001277141
-0.25703391 -0.40794414 0.17301169 0.54465544 0.72705251 0.41802529 0.001389614
0.25836563 -0.40852416 0.17585638 -0.53934938 0.73137933 0.41735649 0.0017905389
0.26007089 -0.40672088 0.1703524 -0.54008406 0.72395033 0.42919138 0.0015098786
0.27203161 -0.40021917 0.17510468 -0.53880733 0.72742862 0.42489329 0.0014269525
-0.28326368 -0.39164901 0.17519084 0.54170972 0.73047185 0.41588631 0.0013413533
-0.27435064 -0.39660478 0.17415884 0.55126089 0.72898602 0.40582114 0.0012411905
-0.26700646 -0.39902985 0.17077042 0.55176443 0.71412331 0.43079436 0.0011809127
0.27690983 -0.39612794 0.17795551 -0.54804403 0.71951461 0.42655182 0.0012926221
0.28311273 -0.39377192 0.17875512 -0.55386066 0.71699739 0.42326483 0.0013907288
-0.29456061 -0.38301405 0.17525028 0.55335093 0.72104526 0.41700912 0.001368072
-0.28792384 -0.38468611 0.17225957 0.54035413 0.72602236 0.42533407 0.0012122227
0.28594747 -0.38854504 0.17333576 -0.55875552 0.70991874 0.42872801 0.0014901132
0.29280519 -0.38272208 0.17349613 -0.56734371 0.70465648 0.42612252 0.00094268232
-0.31212482 -0.37155831 0.17884064 0.55153745 0.71891093 0.42305258 0.0013320525
-0.30382478 -0.3736842 0.17315587 0.55870634 0.70652437 0.43436229 0.0011274234
-0.29751021 -0.37844029 0.17345992 0.55526304 0.71074355 0.43188727 0.0013096059
0.29663137 -0.37808952 0.17395198 -0.56517273 0.70469254 0.42893833 0.0010412236
0.30340177 -0.37535045 0.17600098 -0.56304365 0.70804882 0.4262026 0.0011854031
-0.31520182 -0.36722779 0.17765579 0.56431216 0.70771873 0.42507184 0.0012638647
0.31488982 -0.36553761 0.175 -0.54946816 0.72094357 0.42228559 0.0012384335
0.32275781 -0.36198395 0.17748344 -0.54636145 0.72546852 0.41855061 0.0011366449
-0.33471504 -0.35186878 0.17730062 0.58444792 0.69253087 0.4228729 0.0027139415
-0.32742763 -0.35506475 0.17194474 0.54754889 0.71560478 0.43370494 0.0015117049
0.32512709 -0.35637397 0.17319059 -0.55414194 0.7174601 0.42211106 0.001435266
0.33248514 -0.35206205 0.17427503 -0.57504809 0.70018786 0.42315081 0.0019796467
-0.3457118 -0.34361067 0.17644143 0.66206777 0.62533528 0.41306427 0.0033293627
-0.33936557 -0.34825233 0.17457242 0.61330092 0.66907197 0.41976741 0.0035754121
0.33700272 -0.34621918 0.17236751 -0.60445803 0.66737717 0.43501508 0.0025506441
0.3417787 -0.34489399 0.17472605 -0.62692195 0.65483683 0.4220874 0.0028259838
-0.35426712 -0.3300797 0.17260042 0.71547568 0.56378943 0.4125967 0.0012411536
-0.34682295 -0.33787507 0.17347209 0.67521191 0.6041792 0.42315048 0.0030365163
0.35361981 -0.33239293 0.1746031 -0.70210415 0.56920069 0.42785561 0.0018821284
-0.3633244 -0.3201395 0.17976503 0.72002208 0.56187481 0.40726519 0.0012461902
-0.35234991 -0.32980183 0.17344242 0.71507406 0.56452715 0.41228411 0.0013009578
0.35597533 -0.32485062 0.17197749 -0.71297109 0.55819821 0.42436659 0.0015076918
0.36223274 -0.32180175 0.17546615 -0.7255649 0.54841846 0.41568339 0.0015126674
-0.36643285 -0.31488305 0.17606673 0.72035635 0.55827397 0.41160282 0.0013537641
-0.35929781 -0.3185851 0.17049626 0.71600103 0.54954761 0.43051121 0.00095215515
0.36626738 -0.31420636 0.17690653 -0.72474271 0.54781181 0.41791165 0.0014891032
0.3700127 -0.31459144 0.17945696 -0.73162305 0.55026418 0.40241408 0.0015537954
-0.37345481 -0.30551067 0.17396657 0.71337849 0.56280333 0.4175446 0.0011049237
-0.36999571 -0.30821002 0.17535651 0.71742451 0.5597918 0.41465089 0.0011619489
0.36887789 -0.30905685 0.17452537 -0.7157312 0.55030984 0.42998603 0.0011631552
0.37347254 -0.30488303 0.17468457 -0.71124983 0.55895555 0.42625386 0.0011452534
-0.38143498 -0.29475653 0.17733836 0.72265768 0.54988557 0.41879794 0.0011637175
-0.37822488 -0.2974081 0.17525095 0.72203612 0.55255014 0.41635579 0.0012081566
0.37783739 -0.29486912 0.17110308 -0.71266222 0.55343354 0.43107283 0.00095250044
0.38265494 -0.29277074 0.17371534 -0.71526039 0.55723011 0.42177865 0.0012076059
-0.38696551 -0.28653571 0.17287408 0.72472274 0.5421046 0.42532289 0.0010974017
0.38701546 -0.28580147 0.1727331 -0.71152157 0.55574864 0.42997739 0.00094493071
0.39136282 -0.28348279 0.17613746 -0.71277583 0.55759364 0.42548794 0.0012497619
-0.39560938 -0.27550492 0.17473489 0.72033691 0.55427927 0.41700044 0.0017640089
0.39387181 -0.27741086 0.17270462 -0.7100786 0.55306077 0.43578932 0.00092717091
0.40086442 -0.27113715 0.17503168 -0.72542393 0.55062652 0.41300184 0.0011561434
-0.40226245 -0.26723754 0.17566955 0.7136957 0.55808926 0.42329052 0.0013684784
0.40497303 -0.26340187 0.17410007 -0.71989584 0.55099875 0.42207855 0.0013137799
-0.41469556 -0.25466555 0.17830491 0.73466134 0.53493685 0.41727132 0.0020205928
-0.40934321 -0.25685239 0.1752488 0.725398 0.53881383 0.42834249 0.0018132527
0.40840715 -0.258526 0.17355439 -0.7253471 0.53680485 0.43094349 0.0013071232
0.41515136 -0.25246567 0.17588535 -0.76264518 0.49058586 0.42154223 0.0021552239
-0.42027295 -0.24755153 0.17735916 0.78179872 0.45379734 0.42761984 0.0022268498
-0.41683587 -0.24658351 0.17363665 0.78087318 0.45851132 0.42426935 0.0023874959
0.41575214 -0.24839815 0.17279723 -0.76926422 0.47858354 0.42330894 0.0020856678
0.4200213 -0.24491093 0.17793939 -0.78338349 0.4616943 0.41611144 0.0016512242
-0.42289898 -0.23599388 0.17426099 0.8081122 0.40780306 0.42503098 0.0022352948
0.42359197 -0.23527537 0.17469314 -0.81558824 0.39831245 0.41971773 0.0017930437
-0.43205333 -0.2225316 0.17780605 0.82969451 0.36237004 0.42461145 0.0011839207
-0.42645329 -0.22711733 0.17477846 0.82341957 0.37531093 0.42558438 0.001054161
0.42728102 -0.22626771 0.17344978 -0.82666707 0.37297255 0.42132297 0.0014673949
0.43063164 -0.22426614 0.17635177 -0.83164519 0.36555773 0.41801184 0.0013307751
-0.43488377 -0.21317884 0.1765729 0.83911979 0.34765729 0.41834494 0.0012825523
-0.42772844 -0.21986809 0.17120585 0.82994401 0.35719001 0.42849535 0.0011312132
0.43443218 -0.21344185 0.17493919 -0.84201282 0.36019763 0.40158689 0.0013868143
-0.43728676 -0.20367315 0.17363104 0.83682853 0.35076568 0.42033505 0.0012048383
0.43700314 -0.20624362 0.17408994 -0.83769631 0.34888405 0.4201723 0.0017612771
-0.44153801 -0.19347771 0.17407469 0.8423959 0.34322742 0.41540834 0.0013258359
-0.4373762 -0.19636604 0.17102574 0.8391726 0.33938888 0.42497587 0.0011486963
0.43977663 -0.19986145 0.17898399 -0.84181881 0.34974784 0.41111743 0.0017943574
0.44399583 -0.19365333 0.17776616 -0.8455202 0.35066158 0.40265623 0.0018765266
-0.44759589 -0.18524753 0.17801076 0.84189016 0.35063708 0.41021279 0.0013931299
0.44503856 -0.1854974 0.17524886 -0.84033459 0.33877176 0.42316842 0.0015871789
-0.45118344 -0.17278145 0.17937675 0.8424781 0.34480909 0.41392913 0.0016348236
-0.44715357 -0.17625484 0.17286181 0.84052503 0.3384186 0.4230727 0.0012399079
0.44829065 -0.17407629 0.17265338 -0.83730948 0.3429442 0.42579603 0.0015449941
0.45205432 -0.17419705 0.17776498 -0.84380192 0.34365135 0.4121919 0.001227632
-0.45354453 -0.16299491 0.17356363 0.83741903 0.34743273 0.42192405 0.0012447854
-0.44849297 -0.16936612 0.17088714 0.83620036 0.34585953 0.42561734 0.0011721564
0.45350891 -0.16334537 0.17517777 -0.8323136 0.35556114 0.42524153 0.0013211095
-0.45762396 -0.15313014 0.17470615 0.82989192 0.34981236 0.43463865 0.0010478923
0.45754591 -0.1547541 0.174317 -0.84220493 0.3438378 0.41529071 0.0014633171
-0.46205211 -0.14414787 0.17578398 0.83219063 0.35336044 0.42731157 0.00092448201
0.45851871 -0.14650112 0.17203438 -0.84405988 0.32950345 0.42307252 0.0013664725
0.4642505 -0.14092283 0.17448418 -0.84455442 0.32455575 0.42590061 0.0017606608
-0.47082484 -0.13003416 0.17875281 0.86352372 0.26012054 0.4320465 0.0028396961
-0.46670312 -0.13385266 0.17627509 0.85577023 0.28923678 0.42895147 0.0028276092
0.46559098 -0.13568385 0.17431031 -0.85764152 0.28651604 0.42703578 0.00249763
-0.46721622 -0.12538151 0.17264955 0.86803615 0.24812324 0.4300561 0.0032216655
0.46809244 -0.12522683 0.1744529 -0.87221366 0.22986001 0.43174964 0.003550837
0.4713923 -0.12334683 0.17741174 -0.87710428 0.21787935 0.4280383 0.0033488397
-0.47139031 -0.11755149 0.17417227 0.88704133 0.17300177 0.42805159 0.0035960784
-0.46868202 -0.11242348 0.17128898 0.88640332 0.14734168 0.43883893 0.0021163563
0.46897417 -0.11853833 0.173724 -0.87817425 0.19102225 0.43854353 0.0029665602
0.47213438 -0.11508853 0.17664574 -0.88880181 0.14667389 0.4341867 0.0016872963
-0.47401753 -0.10752244 0.17707257 0.89700514 0.1214577 0.42500564 0.0016014733
-0.46971714 -0.10963983 0.17277297 0.89362061 0.12953939 0.42972285 0.0017404702
0.46919852 -0.10869899 0.17134707 -0.88945633 0.14651443 0.43289831 0.0013696561
0.47270742 -0.10694712 0.17677216 -0.89759457 0.13407369 0.41993833 0.0012469633
-0.47310358 -0.094861969 0.17597061 0.89862561 0.11899078 0.42227152 0.0015098017
0.47360379 -0.09728156 0.17501241 -0.90460128 0.1123223 0.41119367 0.00089625595
-0.4760612 -0.086127482 0.17535704 0.89721733 0.11746906 0.42567858 0.0013376642
0.47431192 -0.083266906 0.17449355 -0.90369523 0.12242913 0.4102999 0.0012223009
-0.47760868 -0.076540738 0.17753209 0.90279168 0.12101125 0.41270268 0.0014366115
0.47462794 -0.074892774 0.17351913 -0.90359539 0.12351836 0.41019326 0.001444047
-0.47716984 -0.062104177 0.17388207 0.90579695 0.11629803 0.40743929 0.0010951086
0.47832987 -0.064083807 0.17549302 -0.89997011 0.12903655 0.41641721 0.0013382031
0.48040116 -0.068330795 0.17978889 -0.90460038 0.13277522 0.405054 0.0013899415
-0.480719 -0.055506885 0.17674753 0.90635812 0.1251433 0.40355194 0.0011376691
-0.47840801 -0.054505158 0.17440963 0.9049229 0.12049972 0.40815976 0.001262165
0.47758493 -0.054737426 0.17326754 -0.9013496 0.13121878 0.41273546 0.0012418613
0.48037013 -0.0560022 0.17611799 -0.90423554 0.13481431 0.40519521 0.0012029889
-0.48106775 -0.043883163 0.17566706 0.90050715 0.12184662 0.4174208 0.0010241832
-0.47904125 -0.048726678 0.17566848 0.90400553 0.13116978 0.40690106 0.0012372226
0.47925249 -0.047161717 0.1725965 -0.89849263 0.12276568 0.42147318 0.0013234748
0.48315573 -0.047076002 0.17969199 -0.90758288 0.12593514 0.40054181 0.0011114934
-0.48246658 -0.033832222 0.17660579 0.90170801 0.1124023 0.41747874 0.00097646978
-0.47931463 -0.036806874 0.17279252 0.89826047 0.11731075 0.42351663 0.0012143897
0.47937199 -0.035349436 0.17249402 -0.89929461 0.10846118 0.4236809 0.0014478879
0.48315465 -0.034912404 0.17767751 -0.90256727 0.11610305 0.41459909 0.0013217648
-0.48252049 -0.022223057 0.17256255 0.89815038 0.11573794 0.42418244 0.0012562928
0.48357138 -0.024523109 0.17710869 -0.90084833 0.10843156 0.42037463 0.0011907303
-0.48473597 -0.014845625 0.17378208 0.90209591 0.083003707 0.42347774 0.0018267835
0.48803827 -0.010788945 0.17992559 -0.90352064 0.080673046 0.42088279 0.0016408849
-0.48460284 -0.0089729028 0.17639618 0.90548426 0.046647221 0.42180839 0.0029721463
0.48385513 -0.0054481188 0.17139433 -0.8987394 0.041690804 0.43649673 0.0017541432
0.48466724 0.0038866496 0.17274043 -0.89891565 -0.0036175244 0.43810672 0.0023990229
-0.48421508 0.015670385 0.17517978 0.90725094 -0.091876283 0.41043198 0.0016292267
0.48499107 0.013300668 0.17620958 -0.90283865 -0.086316407 0.42122653 0.0014734779
-0.48178974 0.025982624 0.17327276 0.90632927 -0.11925561 0.40539545 0.0011877561
0.48404783 0.026124692 0.17647548 -0.89630747 -0.11667748 0.42780763 0.00095690152
-0.48160034 0.036904112 0.17442457 0.90769279 -0.11474282 0.40364307 0.0014413166
0.47885194 0.037466932 0.17195864 -0.89282888 -0.11079018 0.4365572 0.0012379037
0.48228222 0.035419371 0.17566928 -0.89587957 -0.11690502 0.42864081 0.00096448557
-0.48144522 0.04395549 0.17652595 0.90509099 -0.12357726 0.40686476 0.0012734032
-0.47901025 0.047362052 0.17520098 0.9049179 -0.12740815 0.40606737 0.0013430805
0.48104486 0.045520622 0.17686558 -0.8980298 -0.11874137 0.42360696 0.0013383424
-0.48105651 0.051380478 0.17860353 0.90696901 -0.11841078 0.40421042 0.0014318742
-0.4784084 0.056386061 0.17187655 0.8943665 -0.12531714 0.42942303 0.0011919098
0.47828901 0.055802789 0.17452462 -0.89951283 -0.12009207 0.4200649 0.0014413511
0.48084319 0.053683594 0.17649046 -0.90133846 -0.11945598 0.41631639 0.0014325163
-0.47692659 0.066846944 0.17428744 0.89803493 -0.11992738 0.42326191 0.0010259715
0.47833571 0.065685384 0.17674491 -0.89872885 -0.12208859 0.421166 0.001574145
0.48079494 0.06284488 0.17905998 -0.90227377 -0.12238721 0.4134289 0.0013917118
-0.47712767 0.075542748 0.1757876 0.89990932 -0.1079728 0.42249849 0.00084381597
0.47626522 0.075471789 0.17423831 -0.89428526 -0.12593749 0.4294109 0.0011781567
-0.47559643 0.082720548 0.17564288 0.89689708 -0.11606012 0.42673847 0.00084369612
0.4749217 0.085160449 0.17485838 -0.89721316 -0.12539397 0.42342037 0.001315459
-0.47417629 0.098137967 0.17776661 0.90204114 -0.12321617 0.41369027 0.0011432904
0.47419614 0.093369678 0.17564663 -0.89780414 -0.12294236 0.42288637 0.0014422283
-0.47305116 0.1029851 0.17591494 0.90078914 -0.13645393 0.4122611 0.0012250466
0.46953484 0.10348301 0.17056945 -0.89367074 -0.13342443 0.42842785 0.0010274705
0.47508478 0.10274728 0.17920226 -0.90046149 -0.13251972 0.41425556 0.001268329
-0.47173411 0.11314733 0.17480482 0.89216745 -0.1613055 0.42192155 0.0013309473
-0.46934697 0.11012883 0.17209427 0.89277613 -0.15086389 0.42448896 0.0015735941
0.47358689 0.1167535 0.17881387 -0.88758487 -0.1693182 0.42839745 0.0022681959
-0.47069925 0.12478639 0.17723683 0.88334817 -0.23165938 0.4074676 0.0023627749
-0.46738914 0.12908438 0.17545938 0.87159353 -0.25669268 0.4176524 0.0027013596
-0.46633765 0.13144898 0.17531046 0.86913425 -0.26194718 0.41951081 0.0025367965
0.46609965 0.13432005 0.17342325 -0.84695441 -0.29282355 0.44375968 0.0016936288
0.47053331 0.1305498 0.17859156 -0.86539799 -0.25273278 0.43268052 0.0021574805
-0.46082193 0.14161317 0.17261046 0.84531915 -0.32918921 0.42079687 0.001975195
-0.45940483 0.14892682 0.1713194 0.84117347 -0.33532903 0.42424256 0.0016362841
0.45925966 0.14657937 0.17363369 -0.83732283 -0.33211464 0.43426985 0.0011302221
0.46152091 0.14585321 0.17614625 -0.84070081 -0.33802274 0.42304012 0.0013315778
-0.46165463 0.15085444 0.17762327 0.84608978 -0.34308922 0.4079484 0.0015775855
-0.45896339 0.15285641 0.17377263 0.84270543 -0.34264627 0.41526017 0.0017355725
0.45810682 0.15654916 0.1751644 -0.83668762 -0.33857459 0.43048933 0.0011231919
-0.45393863 0.16594286 0.17551628 0.84530997 -0.34190199 0.41055337 0.0012370438
0.45245573 0.1668568 0.17230743 -0.8411783 -0.33566341 0.42396829 0.0012213734
-0.45123929 0.17409422 0.17599143 0.83416051 -0.3517085 0.42482626 0.0011250791
-0.44732031 0.17793965 0.1727227 0.83707404 -0.34691316 0.4230347 0.0012577305
0.44894862 0.17654707 0.17451167 -0.83511955 -0.35329044 0.42161736 0.0013418342
0.45182958 0.17370892 0.1768821 -0.84144479 -0.34432912 0.41642302 0.0011689817
-0.44516212 0.18370518 0.17350659 0.83980805 -0.34800544 0.41667101 0.0011150886
0.44479123 0.18681131 0.17509192 -0.83352059 -0.3651768 0.41459528 0.0010849896
-0.44368297 0.19285133 0.17643213 0.84105778 -0.34532285 0.41638184 0.0013608312
-0.43891943 0.19653086 0.17435829 0.83783889 -0.34874249 0.42000559 0.0011449903
0.43864483 0.19575849 0.17197239 -0.83190477 -0.36163381 0.42089826 0.00087640394
0.44193423 0.19457638 0.17776245 -0.83658928 -0.36221331 0.41099852 0.00083236455
-0.44183728 0.20146698 0.1799954 0.84154481 -0.3526184 0.40922177 0.0012963833
-0.4382714 0.2008262 0.17438485 0.83757085 -0.35018981 0.41933551 0.0012030036
0.43511489 0.20662725 0.17359726 -0.83845878 -0.34633508 0.42075992 0.00087876228
-0.43361989 0.21578556 0.17526709 0.84457952 -0.34373781 0.41052386 0.0016442001
-0.429407 0.21939152 0.17426887 0.84323221 -0.33987737 0.41646451 0.0014434196
0.42922196 0.21761259 0.17236233 -0.84010494 -0.3414036 0.4215059 0.0010661114
0.43212652 0.21759588 0.17604214 -0.84601623 -0.34094226 0.40989628 0.0012900083
-0.43030894 0.22480558 0.17614648 0.83647907 -0.35293663 0.41921166 0.0015946917
-0.42744303 0.22373223 0.17300054 0.83406931 -0.34935275 0.42694381 0.0013753576
0.42493689 0.22853866 0.1728601 -0.8199141 -0.37187538 0.43525812 0.0022476749
0.43134671 0.22570577 0.17906381 -0.8433094 -0.34247729 0.41417214 0.0014919151
-0.42636967 0.23465286 0.17643528 0.81913739 -0.38936102 0.42120275 0.0020897889
0.42538729 0.23388378 0.17528664 -0.81274867 -0.40041202 0.42321363 0.0031203975
-0.42264137 0.24227084 0.17525066 0.78198391 -0.45281428 0.42832276 0.0037479992
-0.41732877 0.24637285 0.17237474 0.7653715 -0.48062408 0.42802677 0.0037125393
0.41761842 0.2485441 0.17399773 -0.75975496 -0.49320009 0.42370525 0.0033782572
0.42270458 0.24318732 0.17626774 -0.78549773 -0.44629359 0.42873681 0.0036275692
-0.41448468 0.25277549 0.17522641 0.73300737 -0.52900356 0.42761594 0.0020530634
-0.40885952 0.25998902 0.17866403 0.71835709 -0.55439556 0.42024824 0.0012440979
0.40811935 0.25589997 0.17177758 -0.72276324 -0.54314393 0.4273265 0.0017061813
0.4136427 0.25402442 0.17533027 -0.74329084 -0.52139223 0.41912872 0.0027334786
-0.40425077 0.26494995 0.17393586 0.72178817 -0.545946 0.42539948 0.0012674289
0.39979297 0.26678708 0.17182665 -0.72645694 -0.54795802 0.41473159 0.0012775705
0.40473613 0.2664628 0.1766941 -0.71919173 -0.56015885 0.4110783 0.0014048504
-0.40046859 0.27317551 0.17710631 0.72430998 -0.54949814 0.41644561 0.0010663428
-0.39209861 0.27749181 0.17274949 0.72830087 -0.54446614 0.41609442 0.0010903053
0.39576635 0.27671638 0.17543104 -0.72251594 -0.55297774 0.4149535 0.0013178993
-0.39298034 0.28441769 0.17912756 0.72306126 -0.54577726 0.42344972 0.0011110121
-0.38611495 0.28779066 0.17384447 0.71487004 -0.55173892 0.42958704 0.0012033186
0.38515636 0.28728721 0.17376888 -0.71886653 -0.55297613 0.42124626 0.0011556726
-0.38298881 0.29480967 0.17785747 0.7174322 -0.55230874 0.42455387 0.0011864757
0.37749809 0.29777819 0.17446457 -0.71657515 -0.55754608 0.41912109 0.00094238546
0.38611221 0.29184145 0.17704687 -0.72131139 -0.55692095 0.41176322 0.0010515853
-0.37360454 0.30557132 0.17508598 0.71509987 -0.55084586 0.43034989 0.0011587407
0.37296948 0.30624792 0.17565106 -0.71732104 -0.55379796 0.4227981 0.00087505433
-0.36504161 0.31472844 0.17312844 0.72093779 -0.54566342 0.4272002 0.0012888705
0.36451259 0.3160111 0.17393681 -0.71654248 -0.55578703 0.42150649 0.00072117388
0.37038317 0.31281766 0.17769787 -0.71856785 -0.55210483 0.42289525 0.00077360036
-0.36029622 0.32249257 0.17296843 0.72278887 -0.54683608 0.42254767 0.0015081589
-0.3563782 0.32738367 0.1749882 0.71081346 -0.56704789 0.41617435 0.0015272035
0.35548311 0.32491353 0.17234537 -0.71333891 -0.56211889 0.41853306 0.00059291971
-0.35274398 0.3330957 0.17708886 0.7010802 -0.58245581 0.41137785 0.0016037878
-0.34841934 0.33553827 0.1727373 0.67026025 -0.60478938 0.430094 0.0023050664
0.34691843 0.33615109 0.17090704 -0.67698014 -0.60008079 0.42614657 0.0018777678
0.35119984 0.33005679 0.17174736 -0.70180154 -0.57649219 0.41848704 0.00077969971
-0.344845 0.34446096 0.177038 0.63521916 -0.65301865 0.41238713 0.002784529
-0.33675006 0.34736821 0.1725219 0.60486639 -0.6766687 0.41982874 0.0021410326
0.33912155 0.3481794 0.17503555 -0.62784398 -0.66040844 0.41191331 0.0024273982
0.34279585 0.34627512 0.1772899 -0.63893515 -0.64329171 0.42182651 0.0027542459
-0.33363372 0.35115427 0.17422798 0.58510631 -0.69840568 0.41216514 0.00210009
-0.32579285 0.35697654 0.1738831 0.5623138 -0.72102666 0.40487504 0.0017194119
0.32542834 0.35725042 0.17387275 -0.55793065 -0.71020192 0.42933279 0.0014909807
0.33454716 0.35277864 0.17604472 -0.60376555 -0.67657548 0.42155984 0.0018442611
-0.31541497 0.36584803 0.17433965 0.56785452 -0.71326983 0.41083747 0.0013841772
-0.30933598 0.36934566 0.17111109 0.54985136 -0.71596909 0.43017638 0.0012237245
0.31697723 0.36518088 0.17597757 -0.55250168 -0.72424316 0.4125697 0.0013930654
0.32038844 0.36225528 0.17358029 -0.55215412 -0.7214151 0.41795474 0.0014904784
-0.30658057 0.37205029 0.17524301 0.55673563 -0.71549392 0.42203537 0.001329191
0.29777879 0.37718159 0.17274702 -0.53583694 -0.72293222 0.43617398 0.0010158384
0.305812 0.37297088 0.17390326 -0.54383367 -0.72850639 0.41656142 0.0012835976
0.31069395 0.37007916 0.1742641 -0.54541177 -0.73140204 0.40936187 0.0012877998
-0.2948637 0.38260102 0.17608616 0.54077715 -0.72032261 0.43439093 0.00075468002
-0.28748271 0.38338566 0.17089076 0.5482676 -0.71832627 0.42826381 0.00097565656
0.28574309 0.38825658 0.17562853 -0.555049 -0.71616578 0.42311594 0.0012034465
0.29384962 0.38207427 0.17538771 -0.54505217 -0.72220403 0.42583978 0.0011610417
-0.28824037 0.39052677 0.17997944 0.54057157 -0.72301686 0.43015 0.00088585546
-0.27524108 0.39615479 0.17503551 0.55327648 -0.71690232 0.42418882 0.00076736807
0.27607262 0.39454094 0.17361104 -0.5511291 -0.71562362 0.42911488 0.0011818589
-0.27134019 0.40084386 0.17758453 0.55276126 -0.71798599 0.42302608 0.00090306211
-0.26227221 0.40575615 0.17441395 0.54850829 -0.7189967 0.42682835 0.00080037082
-0.25867158 0.40602565 0.17183638 0.54384923 -0.72421283 0.42396185 0.0010175416
0.25795949 0.40846014 0.17518926 -0.53918511 -0.7262007 0.42651126 0.0014141619
0.26564622 0.40419126 0.17577009 -0.56989664 -0.71086031 0.4121837 0.0011485327
0.27011901 0.40326419 0.17790601 -0.55293322 -0.72171366 0.41640636 0.0014265683
-0.25332233 0.41118231 0.17062104 0.53026778 -0.73725605 0.41865221 0.0014295279
-0.24641152 0.41751429 0.17399037 0.47964662 -0.76904833 0.42249694 0.0026775512
0.2390621 0.41960895 0.17085621 -0.42818654 -0.79483509 0.42999247 0.0021508515
0.24816979 0.41611907 0.17082508 -0.48299438 -0.76530921 0.42546257 0.0023728032
0.2509225 0.41400564 0.17390643 -0.49560738 -0.75384372 0.43138486 0.0026124087
-0.24131259 0.42186064 0.17281523 0.45697451 -0.78175634 0.42430091 0.0028559586
-0.23468062 0.42541742 0.17541483 0.39591452 -0.81328958 0.4263939 0.001943209
-0.22740956 0.42659697 0.17532595 0.37020057 -0.82273078 0.4313533 0.0013343615
0.22619249 0.42761493 0.17484677 -0.35811704 -0.8340984 0.41956177 0.00086247938
0.23530869 0.42332339 0.17378075 -0.40017539 -0.81143582 0.42594782 0.0023682397
0.24269541 0.42237988 0.17661528 -0.45615596 -0.78078592 0.42696026 0.0025403642
-0.21448882 0.43315601 0.17512409 0.33953568 -0.8399505 0.42331842 0.0011280308
-0.20335455 0.43711215 0.1747316 0.34090769 -0.83977407 0.42256534 0.001369657
-0.19675572 0.43951586 0.17115898 0.33742577 -0.83922189 0.42643923 0.00089920196
0.19816364 0.43858245 0.17043468 -0.34480572 -0.83522904 0.42837062 0.0009065317
0.20480631 0.43794611 0.17712153 -0.34911719 -0.83981395 0.41572797 0.0010293933
0.21175762 0.43276379 0.1731298 -0.35715702 -0.83356524 0.42143539 0.00076936535
0.22456852 0.43199766 0.1794357 -0.35497692 -0.83549041 0.41946048 0.00058343326
-0.1841199 0.4465014 0.17632318 0.34350863 -0.84378678 0.4123418 0.0013031664
-0.17661192 0.44815159 0.17523162 0.34694245 -0.8388291 0.41951939 0.0014621384
-0.16786402 0.44896001 0.17056628 0.35369688 -0.83126432 0.42883351 0.0012155663
0.17394105 0.44842169 0.17333709 -0.33412716 -0.83816874 0.4310827 0.0012715402
0.18632463 0.44584906 0.17589906 -0.34887332 -0.83681864 0.4219265 0.0011710557
0.19448073 0.44171515 0.17530023 -0.35321367 -0.83404732 0.42379847 0.0013176514
-0.1729117 0.45141298 0.17811282 0.34767583 -0.84293437 0.41058892 0.001419932
-0.16600043 0.45210433 0.17431615 0.3505851 -0.8370893 0.41996619 0.0011747177
-0.15288384 0.45895433 0.17377739 0.35412878 -0.84073383 0.40958449 0.0010949027
-0.14636157 0.45879745 0.17017865 0.34071192 -0.8376615 0.42689413 0.0011195309
0.15419285 0.4571805 0.17482792 -0.34798679 -0.83605093 0.42417443 0.0013654783
0.16393371 0.45490524 0.17564 -0.34822702 -0.83663315 0.42282721 0.0015478119
0.17349273 0.452344 0.17776062 -0.33919832 -0.84574181 0.41190457 0.0011410029
-0.15660982 0.46030539 0.17976314 0.3484816 -0.84122801 0.4133957 0.00099891645
-0.14341815 0.46347302 0.17778897 0.3345218 -0.84568065 0.41583574 0.0015631854
-0.13388008 0.46528193 0.17366783 0.27601096 -0.85624307 0.43665293 0.0020989103
-0.12586308 0.46712935 0.17066379 0.242889 -0.87203389 0.42492563 0.0016241746
-0.11686437 0.46968517 0.17481276 0.18893248 -0.88756871 0.42015046 0.0022349441
-0.10885599 0.46956959 0.17221643 0.15166765 -0.89397746 0.4216648 0.0012578657
0.12659247 0.46830359 0.17462023 -0.25711775 -0.86891645 0.42293561 0.0025636717
0.1348992 0.46577796 0.17525834 -0.30708688 -0.85605162 0.41578034 0.0020328709
0.14326692 0.46324944 0.17508264 -0.35042822 -0.83631271 0.42164099 0.0011147868
0.15141182 0.46135694 0.17748509 -0.35063383 -0.83782911 0.41844764 0.0011657617
-0.12423176 0.47108889 0.17853869 0.22677664 -0.87620276 0.4252542 0.0024500682
-0.11392777 0.47208986 0.17582241 0.16048369 -0.89558101 0.41494548 0.0017919231
-0.10521731 0.47352219 0.17684163 0.1390297 -0.89813799 0.41715568 0.0010677058
-0.094244719 0.47330433 0.17346053 0.11609264 -0.89917296 0.421913 0.0011380023
-0.087385572 0.47419032 0.17619793 0.12572251 -0.90463638 0.40721837 0.0010252325
-0.074076004 0.47566339 0.17384394 0.10821417 -0.90090173 0.42031622 0.0010519378
-0.065397918 0.47624254 0.17278652 0.1095597 -0.90168262 0.41828835 0.001004551
-0.056842845 0.47881424 0.17599423 0.11153249 -0.90349668 0.41382876 0.0013957475
-0.047164019 0.47950333 0.17623731 0.12170649 -0.89978534 0.41901526 0.0014381778
0.023576269 0.47991276 0.17025428 -0.10471056 -0.89564574 0.43226644 0.0011275244
0.035593439 0.47872412 0.17112754 -0.11772371 -0.89825761 0.42340809 0.0011716898
0.055723447 0.47844264 0.17308046 -0.12368501 -0.90206724 0.41349325 0.0011892145
0.064647011 0.47681367 0.17537639 -0.12172986 -0.9039979 0.40984106 0.0012431947
0.076157391 0.47674665 0.17512159 -0.11177002 -0.90190458 0.41722372 0.0012807323
0.08259549 0.47632599 0.17491274 -0.11574028 -0.90234703 0.4151794 0.001377049
0.091548957 0.47412419 0.17418413 -0.10879876 -0.90385908 0.41376516 0.0011320432
0.10571267 0.47286633 0.17553084 -0.12694217 -0.90131497 0.41414595 0.0011823454
0.11272823 0.47265795 0.17557631 -0.14471211 -0.898507 0.41441956 0.001580192
-0.058796093 0.4811914 0.17875683 0.11839117 -0.90233189 0.41446424 0.0013727756
-0.04454761 0.48087192 0.17851007 0.11446186 -0.90700966 0.40525547 0.001297505
-0.034753412 0.48198709 0.17581078 0.12681752 -0.90793031 0.39947438 0.0010170831
-0.02425017 0.48389345 0.17730315 0.11229541 -0.90856814 0.40236026 0.0014746194
-0.014672926 0.48484716 0.17629115 0.079614788 -0.91272163 0.40075031 0.0018301698
-0.0066243946 0.48541164 0.17565486 0.0372614 -0.91155958 0.4094761 0.0023465566
0.0064739832 0.48645538 0.17515208 -0.033988319 -0.90855134 0.41638836 0.0020237847
0.014055658 0.4841961 0.17571716 -0.06699124 -0.90337789 0.42358065 0.0019276788
0.026136691 0.48490226 0.17745018 -0.11811867 -0.90164638 0.416031 0.0013938108
0.03555752 0.48261023 0.17511593 -0.11847994 -0.89795244 0.42384428 0.0011420191
0.040465653 0.48163351 0.17438233 -0.11948078 -0.8979966 0.42346969 0.0011533116
0.057303801 0.48168278 0.17941132 -0.12230211 -0.90421969 0.40918088 0.0010608488
-0.01758627 -0.49016666 0.18663505 0.09669444 0.91327244 0.39570665 0.001441633
-0.0051733246 -0.49066588 0.18646289 0.039572313 0.9169904 0.3969416 0.0012545653
0.0081078727 -0.49169001 0.18846115 -0.074132569 0.91352814 0.39996353 0.0026884645
0.014797531 -0.49118337 0.18807662 -0.08826258 0.90998411 0.40514019 0.0020947675
0.020095743 -0.4911164 0.18947594 -0.10496431 0.90922052 0.40286556 0.0022195978
-0.093991421 -0.48081291 0.18820003 0.12534697 0.90399569 0.4087542 0.0014806095
-0.084456824 -0.48087439 0.18555072 0.11483321 0.90452176 0.41067478 0.0015096611
-0.074996054 -0.48101354 0.18593848 0.11268715 0.90290266 0.41481119 0.001305096
-0.067985579 -0.48328316 0.18608397 0.12239704 0.90176779 0.41452834 0.0016470205
-0.055224221 -0.48238504 0.18506417 0.11343972 0.90717477 0.4051733 0.0014136897
-0.045754381 -0.48471299 0.18507448 0.12331724 0.90770781 0.40107283 0.0013025046
-0.034161199 -0.48613435 0.18437906 0.12053122 0.90724266 0.40296766 0.0012258582
-0.024705231 -0.48589167 0.18154031 0.11112139 0.90809184 0.403759 0.0013633057
-0.01398549 -0.48864746 0.18412298 0.087781951 0.91536289 0.39294395 0.0012925316
-0.0059937816 -0.48954436 0.18649226 0.039572291 0.91695595 0.39702141 0.0013035132
0.0020986954 -0.48817372 0.18231244 -0.017812708 0.91053396 0.41305029 0.0027179611
0.016458631 -0.48807979 0.18283051 -0.099473178 0.90775651 0.40753302 0.0017933974
0.027051166 -0.48690507 0.18691948 -0.12988085 0.90501148 0.40507433 0.0015133739
0.038144268 -0.48652625 0.18694584 -0.13733746 0.90565556 0.40115628 0.0016904739
0.058970403 -0.48214898 0.18555821 -0.11197839 0.90925682 0.40088993 0.0016455714
0.068793207 -0.48232225 0.18418738 -0.10932925 0.9086234 0.40305164 0.0014731351
0.078993209 -0.481242 0.18477014 -0.11104155 0.90792388 0.40415832 0.0015223639
0.084749199 -0.48113102 0.18620563 -0.12373649 0.91119701 0.39294958 0.001681025
-0.14068893 -0.47053751 0.18728548 0.32396826 0.85161895 0.41205558 0.0014762991
-0.13375302 -0.47168815 0.18494236 0.2818149 0.87004423 0.40447909 0.0026518498
-0.12584567 -0.47376665 0.18468317 0.23709348 0.87643266 0.4191092 0.0033302659
-0.11505643 -0.47596669 0.18514122 0.16615801 0.89566439 0.41252503 0.0011621432
-0.10449994 -0.47770119 0.18591112 0.12592334 0.90118033 0.41474971 0.0015012611
-0.095723711 -0.47836182 0.18326642 0.12887241 0.90353572 0.40867487 0.0013277807
-0.084902838 -0.47730398 0.18238269 0.11550128 0.90271395 0.41444784 0.0016619547
-0.073619023 -0.47906047 0.18182768 0.11862186 0.90265256 0.41369945 0.0014026333
0.086103253 -0.47941145 0.1843556 -0.11615387 0.91061592 0.39659411 0.0015163858
0.097459041 -0.4783282 0.18608913 -0.11525416 0.90912122 0.40026888 0.0012971025
0.10617536 -0.47576934 0.18387051 -0.11837599 0.90581357 0.40680331 0.0014175242
0.11451833 -0.47673908 0.18608148 -0.158494 0.90085989 0.40414229 0.0027299956
0.12435131 -0.4740479 0.18445198 -0.20983036 0.89135361 0.40182069 0.002754125
0.13676669 -0.47266889 0.18833342 -0.30151328 0.86264801 0.40611354 0.0018597748
-0.16785216 -0.46044892 0.18969023 0.35680601 0.83992988 0.40890971 0.0012093271
-0.15252689 -0.46237379 0.18429582 0.35070384 0.84078062 0.41242564 0.0012502024
-0.14433882 -0.4669919 0.18462138 0.33033451 0.85372281 0.40253747 0.0012397168
-0.13860723 -0.468725 0.18175395 0.31422994 0.85613066 0.41024351 0.0020661121
0.1456458 -0.46714661 0.18690179 -0.3372035 0.84704405 0.41086516 0.0014533052
0.15701926 -0.46192825 0.18583199 -0.35244024 0.84185988 0.40872714 0.0011973832
0.16255215 -0.46102738 0.18755329 -0.3594158 0.83609009 0.4144558 0.001346441
-0.18360069 -0.4514811 0.18463477 0.34094641 0.83836859 0.4253158 0.0010928225
-0.17324813 -0.45524099 0.18590438 0.34725037 0.84097272 0.41494823 0.001210999
-0.16594687 -0.45779234 0.18628094 0.35275528 0.83925974 0.41377151 0.0012468755
-0.15833007 -0.45922232 0.18208039 0.35076451 0.83926344 0.41545299 0.0013200439
0.16535504 -0.45758367 0.18316744 -0.36245757 0.83643848 0.41109031 0.0010931325
0.17447245 -0.45573631 0.18724334 -0.35868749 0.83889842 0.40938094 0.0014046208
0.18249956 -0.45133856 0.1857994 -0.35488358 0.84305346 0.40412688 0.0010630436
-0.21122473 -0.44208047 0.18885688 0.35484686 0.84175158 0.40686357 0.0014239571
-0.20337813 -0.443221 0.18541913 0.34740299 0.84474689 0.4070797 0.0017533622
-0.19729884 -0.4465009 0.18606941 0.34460217 0.84476203 0.40942219 0.0017258903
-0.18933989 -0.44500807 0.18078992 0.34011066 0.84079349 0.42117828 0.0013625679
-0.17934105 -0.44969666 0.18192102 0.34104356 0.8411355 0.41973838 0.001091743
0.19809809 -0.44397181 0.18383664 -0.34412616 0.84634286 0.40654761 0.0011561078
0.20152399 -0.44238397 0.18348753 -0.33744389 0.84647661 0.41183624 0.001098327
0.21323238 -0.44087872 0.18809143 -0.34003133 0.84345371 0.4158901 0.0015705605
-0.23285043 -0.43161035 0.18665414 0.38415185 0.83032858 0.40371004 0.002885055
-0.22555321 -0.43347281 0.18448618 0.35329553 0.84423548 0.40304932 0.0015182561
-0.216028 -0.43587059 0.18244185 0.34356245 0.84853816 0.40242749 0.0011102059
-0.20882595 -0.43807778 0.18314962 0.35399836 0.84046483 0.41024882 0.0011852015
0.20723832 -0.43956327 0.18486184 -0.3342407 0.84576678 0.41588664 0.0012396126
0.21463677 -0.43569383 0.1831972 -0.35102403 0.83456028 0.42460716 0.0012556538
0.22549032 -0.43276617 0.18571067 -0.35718489 0.83189082 0.42470759 0.0011169518
-0.24396123 -0.4263472 0.1860152 0.44197109 0.80208063 0.40165699 0.0045577963
-0.23580492 -0.42835578 0.18461283 0.39791912 0.82453519 0.40224639 0.0032948893
-0.22712107 -0.4297561 0.18161193 0.35574389 0.83828282 0.41319287 0.0013591244
0.23763289 -0.42733338 0.18564248 -0.41617694 0.80857807 0.41593054 0.0028638204
0.24847008 -0.42231894 0.18224427 -0.48324108 0.77377641 0.40957066 0.0028823724
-0.26242173 -0.41164955 0.18698439 0.56380355 0.72766662 0.39067495 0.0012315384
-0.25716668 -0.41511515 0.18423069 0.53906149 0.73827332 0.40541965 0.0017997249
0.25485715 -0.4174138 0.18408707 -0.53165966 0.74743563 0.39834407 0.0024132526
0.26225588 -0.41314355 0.18627732 -0.54095298 0.73744035 0.40441498 0.0018892583
-0.27371922 -0.40322313 0.18273894 0.55593354 0.73333329 0.39135697 0.0012309238
-0.26801434 -0.40626818 0.18268538 0.56197333 0.7279104 0.39285159 0.0014453619
0.26597688 -0.40886664 0.18529427 -0.55755675 0.72616178 0.40226802 0.0014975951
0.27291903 -0.40411267 0.1863703 -0.5436824 0.73627818 0.40286967 0.0012654893
-0.28430501 -0.3936688 0.18482184 0.54820639 0.73547757 0.39817378 0.0013778319
-0.27941865 -0.39831978 0.18179774 0.54767305 0.73473972 0.40026456 0.0014447502
0.28382376 -0.39483771 0.1831584 -0.55607212 0.72168052 0.41226342 0.0014561004
0.2926994 -0.39145458 0.18770325 -0.56843954 0.71397656 0.40879574 0.0014542292
-0.30118406 -0.38396892 0.18751325 0.54945165 0.73575038 0.39594716 0.0015177932
-0.29612327 -0.38399315 0.18374364 0.54711682 0.73200959 0.4059867 0.0013743053
-0.28845572 -0.38941231 0.18291911 0.54306936 0.73708248 0.40222517 0.0012382099
0.29433164 -0.38597813 0.1825147 -0.56843978 0.71055031 0.41472232 0.0012126436
0.30438343 -0.3818059 0.18648992 -0.56919652 0.7139594 0.40777126 0.0012398263
-0.31413603 -0.37404978 0.18677662 0.56557178 0.71525395 0.41053686 0.00149618
-0.30655789 -0.37710467 0.18341698 0.5541116 0.72131753 0.41552532 0.0015670026
0.30469424 -0.37755999 0.18399854 -0.56489366 0.71122485 0.41839486 0.0012344737
0.31051815 -0.3729794 0.18380016 -0.55619454 0.7209807 0.41332141 0.0016221516
-0.33110148 -0.36135978 0.18658829 0.55650449 0.72387141 0.4078148 0.0016397139
-0.32649231 -0.36373848 0.18691385 0.5556457 0.7208994 0.41420028 0.0015276594
-0.31779402 -0.36783874 0.18348673 0.55794173 0.71872795 0.41488689 0.0015301482
0.31596619 -0.36833346 0.18297347 -0.55403852 0.72600102 0.4073866 0.0014616963
0.32376933 -0.36492038 0.1852477 -0.56036329 0.7219308 0.40596661 0.0013297854
0.33092833 -0.36201882 0.18752265 -0.5612244 0.72211975 0.40443835 0.0014589427
-0.34527224 -0.35025305 0.18617427 0.64812213 0.64884216 0.39867491 0.0033136827
-0.33387586 -0.35776421 0.18513992 0.56623954 0.71947712 0.40215096 0.0022575543
0.33560675 -0.35653919 0.18416676 -0.57059312 0.70926946 0.41395685 0.0018264912
-0.34788465 -0.34596923 0.1830675 0.66211176 0.63292646 0.40126321 0.003570301
0.34650114 -0.34436542 0.18261209 -0.64982098 0.62350762 0.434708 0.0030126311
0.35201514 -0.34361133 0.18704015 -0.66601765 0.614443 0.42294237 0.0030251476
-0.35804459 -0.3334721 0.18630446 0.7272917 0.55678481 0.40129453 0.001405066
0.3549183 -0.33713177 0.18573652 -0.69470155 0.58405393 0.41984609 0.0027927123
-0.3631317 -0.32399192 0.18467231 0.72331011 0.5587799 0.40569386 0.0014656004
-0.35987878 -0.32890049 0.18558419 0.7263214 0.55633318 0.4036715 0.0013681302
0.3648375 -0.32407647 0.18656626 -0.7303012 0.5474996 0.4085393 0.0018991672
-0.3723577 -0.31429899 0.18553549 0.71884722 0.56353658 0.40704456 0.0017499195
-0.36782801 -0.31697881 0.18114313 0.71743721 0.56382507 0.40912741 0.0013265191
0.36788073 -0.31932032 0.18211484 -0.735614 0.54145741 0.40705746 0.001554645
0.37021941 -0.3129831 0.18225776 -0.72933561 0.54934716 0.40778351 0.0017308046
-0.38037175 -0.3063333 0.18660012 0.71430105 0.57117802 0.40438795 0.0016384777
-0.37856147 -0.30678573 0.18633617 0.713732 0.57183385 0.40446609 0.001641975
