# .PCD v0.7 - Point Cloud Data file format
VERSION 0.7
FIELDS x y z normal_x normal_y normal_z curvature
SIZE 4 4 4 4 4 4 4
TYPE F F F F F F F
COUNT 1 1 1 1 1 1 1
WIDTH 624
HEIGHT 1
VIEWPOINT 0 0 0 1 0 0 0
POINTS 624
DATA ascii
-0.015016667 0.046840351 -0.15529144 2.7788938e-06 -2.4358053e-05 1 0
-0.0073794303 0.04484953 -0.15529144 1.9748343e-06 -6.9668158e-06 1 0
0.004495725 0.045425232 -0.15529144 -3.6459491e-07 -1.6134023e-05 1 0
0.014931074 0.044400133 -0.15529144 -4.5215606e-06 -1.0152256e-05 1 0
0.024748929 0.044257734 -0.15529144 -3.8634639e-06 -1.2774048e-05 1 0
0.035570901 0.044175427 -0.15529144 -1.0845793e-05 -9.6184503e-06 1 0
0.046596836 0.04571012 -0.15529144 -5.1434781e-06 -1.4922261e-05 1 0
0.055527348 0.045256078 -0.15529144 -2.1558815e-06 -1.5834225e-05 1 0
0.064919323 0.044956222 -0.15529144 -1.9188114e-05 -1.348037e-05 1 0
0.074044861 0.044255525 -0.15529144 -5.8277078e-06 -1.7527538e-05 1 0
0.085284591 0.043146372 -0.15529144 -2.9120993e-05 -1.5765991e-05 1 0
0.094747163 0.040482797 -0.15529144 -2.1607662e-05 -1.2317283e-05 1 0
0.10504037 0.046052326 -0.15529144 -1.7933422e-05 -1.7383325e-05 1 0
0.11673248 0.047927134 -0.15529144 -2.5078923e-05 -1.2595792e-05 1 0
0.12502535 0.044680107 -0.15529144 -4.9385933e-05 -5.1319826e-06 1 0
0.13566114 0.046313297 -0.15529144 -5.431008e-05 -1.2188613e-05 1 0
0.14513652 0.043979399 -0.15529144 -3.7852289e-05 -1.4285082e-05 1 0
0.15643083 0.042980976 -0.15529144 -0.00030238746 -0.00011347038 1 0
0.16452502 0.043473039 -0.15529144 -0.0063218093 -0.005932536 0.99996239 0.00013635594
0.17275868 0.045647573 -0.15529144 -0.06316524 -0.012733387 0.99792182 0.0022152544
0.18585974 0.046402425 -0.15524082 -0.17661916 -0.028739529 0.9838596 0.0045904857
0.19782853 0.041006658 -0.15168875 -0.29136145 -0.033578727 0.95602351 0.0033576312
0.20155668 0.048188534 -0.15009151 -0.32473972 -0.06059327 0.94386053 0.0025514259
-0.20100547 0.05357632 -0.15032767 0.32026565 -0.085710146 0.94344246 0.0021525582
-0.19307604 0.055539526 -0.15290916 0.25212893 -0.092457294 0.96326661 0.0039519146
-0.17605501 0.055461347 -0.15529144 0.11432176 -0.053388029 0.99200821 0.0033073665
-0.16402261 0.054926638 -0.15529144 0.021376839 -0.0086977193 0.99973369 0.00052029599
-0.15422943 0.054685369 -0.15529144 0.00030652041 -0.00033418974 0.99999994 0
-0.14850375 0.054346964 -0.15529144 4.6532721e-05 -2.7994171e-05 1 0
-0.13616525 0.05722766 -0.15529144 4.0343279e-05 -1.8807135e-05 1 0
-0.12581562 0.054905038 -0.15529144 2.4701903e-05 -2.0372034e-05 1 0
-0.114875 0.053741641 -0.15529144 4.1806172e-05 -2.3684752e-05 1 0
-0.10526022 0.054353565 -0.15529144 2.8390446e-05 -1.8188874e-05 1 0
-0.093260095 0.054097533 -0.15529144 1.3627343e-05 -1.7651433e-05 1 0
-0.086899921 0.055581037 -0.15529144 3.5481986e-05 -2.6869608e-05 1 0
-0.074262537 0.056090247 -0.15529144 2.3777404e-05 -1.5494768e-05 1 0
-0.065162368 0.055229582 -0.15529144 1.244488e-05 -1.7851449e-05 1 0
-0.053710483 0.055151097 -0.15529144 1.9659765e-05 -1.434852e-05 1 0
-0.044326037 0.050271343 -0.15529144 1.7521032e-05 -4.0403306e-06 1 0
-0.035774272 0.05477009 -0.15529144 1.4287881e-05 -1.7620112e-05 1 0
-0.026148217 0.052564487 -0.15529144 4.8167226e-06 -1.6018819e-05 1 0
-0.014919794 0.056471836 -0.15529144 8.1789185e-06 -2.0441745e-05 1 0
-0.0043581971 0.054037441 -0.15529144 1.1648098e-06 -4.0530481e-06 1 0
0.0039586751 0.055780832 -0.15529144 -1.7535729e-06 -1.6322105e-05 1 0
0.015270056 0.05210625 -0.15529144 -4.8906622e-06 -7.3455376e-06 1 0
0.024840485 0.0548607 -0.15529144 -1.0987802e-05 -1.0474977e-05 1 0
0.035602454 0.056294553 -0.15529144 -8.3004752e-06 -7.6582692e-06 1 0
0.046597943 0.0580809 -0.15529144 -9.0615431e-06 -8.3981522e-06 1 0
0.054788295 0.058055699 -0.15529144 -2.1036265e-05 -1.6302372e-05 1 0
0.069956124 0.057538405 -0.15529144 -1.0395299e-05 -1.7469391e-05 1 0
0.073414475 0.057182528 -0.15529144 -2.6163338e-05 -1.7693546e-05 1 0
0.085720673 0.055210084 -0.15529144 -3.0575273e-05 -3.2277163e-05 1 0
0.094439089 0.055709131 -0.15529144 -4.5239063e-05 -1.2878991e-05 1 0
0.10460487 0.053681839 -0.15529144 -3.581023e-05 -2.4390218e-05 1 0
0.11455817 0.053224988 -0.15529144 -4.1003317e-05 -1.4370755e-05 1 0
0.12710451 0.055061396 -0.15529144 -4.6459347e-05 -3.9616057e-06 1 0
0.13453041 0.053959697 -0.15529144 -4.6935875e-05 -1.0876561e-05 1 0
0.14313869 0.055365317 -0.15529144 -4.114207e-05 -1.681723e-05 1 0
0.15895197 0.052545588 -0.15529144 -0.0076019466 -0.0054294569 0.99995643 0.00011885304
0.16482787 0.05522202 -0.15529144 -0.025745692 -0.016794017 0.99952745 0.00080901798
0.17454943 0.053401299 -0.15529144 -0.083005592 -0.013640562 0.99645573 0.0020632371
0.1875249 0.054930277 -0.1550999 -0.21736088 -0.069445617 0.97361779 0.0047174143
0.19513291 0.058041923 -0.15161058 -0.29034013 -0.10655735 0.9509722 0.0026919364
-0.18455289 0.065114476 -0.1539083 0.19976923 -0.088519886 0.97583628 0.0040635248
-0.17533502 0.065662548 -0.15529144 0.12573749 -0.066750042 0.98981535 0.005038945
-0.16559201 0.065506697 -0.15529144 0.069782391 -0.048624221 0.99637645 0.0029280575
-0.15503861 0.066693522 -0.15529144 0.01883463 -0.0074750804 0.99979472 0.00037993328
-0.14489476 0.064416058 -0.15529144 0.00051476056 -0.00022670193 0.99999988 0
-0.13805798 0.063537955 -0.15529144 5.206756e-05 -1.3849572e-05 1 0
-0.12613058 0.06452699 -0.15529144 3.9652314e-05 -1.511431e-05 1 0
-0.11548394 0.065382488 -0.15529144 4.1908581e-05 -2.2919983e-05 1 0
-0.10759379 0.065715283 -0.15529144 3.9119601e-05 -2.797974e-05 1 0
-0.09372776 0.066055238 -0.15529144 3.9440612e-05 -2.1103899e-05 1 0
-0.085324734 0.0656951 -0.15529144 2.4575045e-05 -2.8426484e-05 1 0
-0.070461147 0.06922584 -0.15529144 1.6073942e-05 -3.1504602e-05 1 0
-0.063254662 0.06312488 -0.15529144 1.0035625e-05 -3.3266366e-05 1 0
-0.055480674 0.065194935 -0.15529144 1.3180585e-05 -1.9878447e-05 1 0
-0.044633586 0.06654308 -0.15529144 1.8807848e-05 -2.3229339e-05 1 0
-0.036190771 0.066334113 -0.15529144 1.2354167e-05 -1.6846529e-05 1 0
-0.025392491 0.065558366 -0.15529144 1.4281291e-05 -2.5927364e-05 1 0
-0.014143356 0.063994564 -0.15529144 7.7240229e-06 -1.6843063e-05 1 0
-0.0081352852 0.062084328 -0.15529144 5.6281515e-06 -2.295101e-05 1 0
0.0063499771 0.066135496 -0.15529144 -3.2382825e-06 -2.4127658e-05 1 0
0.015474099 0.06570036 -0.15529144 -2.6252023e-06 -1.0755829e-05 1 0
0.023759088 0.067021087 -0.15529144 -7.2179341e-06 -2.6239426e-05 1 0
0.031158904 0.067755371 -0.15529144 -5.4578645e-06 -2.922045e-05 1 0
0.045126218 0.064028285 -0.15529144 -1.5240409e-05 -2.7549835e-05 1 0
0.05625109 0.066044785 -0.15529144 -2.204766e-05 -3.4319051e-05 1 0
0.065612622 0.064597219 -0.15529144 -1.6120268e-05 -1.8592504e-05 1 0
0.079099789 0.061658707 -0.15529144 -2.7827058e-05 -2.2149414e-05 1 0
0.086192705 0.066562004 -0.15529144 -1.4909189e-05 -8.3215882e-06 1 0
0.097540826 0.063329376 -0.15529144 -2.3696637e-05 -1.9900755e-05 1 0
0.1040932 0.065841936 -0.15529144 -3.312085e-05 -2.6629179e-05 1 0
0.116837 0.064297952 -0.15529144 -2.4318115e-05 -2.2073549e-05 1 0
0.12440536 0.0663222 -0.15529144 -3.0705713e-05 -1.406166e-05 1 0
0.13695124 0.064161465 -0.15529144 -3.1119715e-05 -1.4803401e-05 1 0
0.14457072 0.065838754 -0.15529144 -4.5145025e-05 -2.2413971e-05 1 0
0.15229043 0.064180717 -0.15529144 -0.0020978979 -0.0013716557 0.9999969 0
0.16779086 0.065312229 -0.15529144 -0.059139695 -0.028044291 0.99785572 0.0020524533
0.17514762 0.064412192 -0.15527484 -0.14070837 -0.068494186 0.98767895 0.0058161155
0.18500738 0.065155655 -0.15375614 -0.21679099 -0.089377448 0.97211796 0.0053129578
0.19071843 0.061815213 -0.15244018 -0.262739 -0.11089015 0.95847356 0.0032949366
-0.18170448 0.07368426 -0.1532421 0.22474203 -0.13107157 0.96556264 0.0051186057
-0.17318553 0.074213549 -0.15520781 0.1349103 -0.074564129 0.98804826 0.0048576966
-0.16251428 0.073534727 -0.15529144 0.073615104 -0.041529309 0.99642169 0.0027557719
-0.15443806 0.072525077 -0.15529144 0.031691179 -0.022181716 0.99925148 0.0011330245
-0.14506742 0.076124266 -0.15529144 0.00055710704 -8.1609047e-05 0.99999982 0
-0.13512254 0.073529437 -0.15529144 2.2326587e-05 -2.7458229e-05 1 0
-0.12569247 0.076435499 -0.15529144 3.0134406e-05 -1.7960094e-05 1 0
-0.11552469 0.078670986 -0.15529144 3.1559674e-05 -2.516351e-05 1 0
-0.10361333 0.075196698 -0.15529144 2.6590755e-05 -2.2333596e-05 1 0
-0.094943434 0.071411416 -0.15529144 3.4138262e-05 -2.0046371e-05 1 0
-0.088850521 0.073720515 -0.15529144 2.2618624e-05 -2.7534545e-05 1 0
-0.076333098 0.076293848 -0.15529144 1.9282554e-05 -2.5108026e-05 1 0
-0.063266665 0.074350871 -0.15529144 9.8178398e-06 -2.3521563e-05 1 0
-0.054244347 0.076997027 -0.15529144 1.7348408e-05 -3.8616363e-05 1 0
-0.043884087 0.072565258 -0.15529144 2.1453554e-05 -1.9223389e-05 1 0
-0.035763226 0.075417854 -0.15529144 4.3746072e-06 -2.2386625e-05 1 0
-0.024984309 0.075503983 -0.15529144 4.3531068e-06 -2.1072026e-05 1 0
-0.016160559 0.074695811 -0.15529144 6.6649591e-06 -3.1547472e-05 1 0
-0.0045391591 0.075116895 -0.15529144 1.4809681e-06 -2.7610671e-05 1 0
0.0049435273 0.073676802 -0.15529144 -3.1012221e-06 -1.5645692e-05 1 0
0.017446909 0.075681239 -0.15529144 -6.5380141e-06 -2.2128255e-05 1 0
0.027963609 0.074321136 -0.15529144 -1.0066079e-05 -3.0003705e-05 1 0
0.036524333 0.073915496 -0.15529144 -1.079135e-05 -1.7435459e-05 1 0
0.046031479 0.075217217 -0.15529144 -9.4829147e-06 -3.3214146e-05 1 0
0.053118393 0.075163268 -0.15529144 -1.656986e-05 -3.8925213e-05 1 0
0.064878523 0.072659522 -0.15529144 -2.6709218e-05 -2.6510121e-05 1 0
0.076719433 0.07564716 -0.15529144 -2.264053e-05 -3.3348217e-05 1 0
0.082504459 0.077043571 -0.15529144 -2.0205638e-05 -2.6870917e-05 1 0
0.09506458 0.072689548 -0.15529144 -3.0073426e-05 -2.7565047e-05 1 0
0.10352811 0.075833045 -0.15529144 -2.9816811e-05 -2.3341596e-05 1 0
0.1167212 0.075169049 -0.15529144 -4.5182001e-05 -1.4970567e-05 1 0
0.12334733 0.074619301 -0.15529144 -4.6149755e-05 -1.542578e-05 1 0
0.13501903 0.076221593 -0.15529144 -5.2635598e-05 -1.6767937e-05 1 0
0.14523807 0.0743578 -0.15529144 -0.0035456058 -0.0015432795 0.99999249 4.449354e-06
0.15079421 0.074079171 -0.15529144 -0.010337079 -0.0064014941 0.99992609 0.0002388274
0.16659805 0.078341544 -0.15529144 -0.11929521 -0.07493709 0.99002677 0.0042096311
0.17405547 0.076923177 -0.15476952 -0.16390644 -0.10013796 0.98138016 0.0049596019
0.18313283 0.074452385 -0.1525476 -0.26463094 -0.14259076 0.9537496 0.0035289254
-0.1812906 0.084965311 -0.1509791 0.25509945 -0.14020085 0.95669645 0.004364287
-0.17474309 0.08319664 -0.15378729 0.22615734 -0.11794359 0.96692407 0.004882209
-0.16549122 0.083849706 -0.15525053 0.12676048 -0.080895759 0.98862916 0.0043724305
-0.15529992 0.085504331 -0.15529144 0.06310188 -0.034659911 0.99740505 0.0024398239
-0.14464714 0.085327566 -0.15529144 0.016887354 -0.011274433 0.99979389 0.00053108437
-0.13698265 0.088186972 -0.15529144 0.00019718749 -2.4457857e-05 1 0
-0.12561902 0.085618295 -0.15529144 3.4238372e-05 -2.3828017e-05 1 0
-0.11350181 0.083631188 -0.15529144 2.5072735e-05 -2.3693066e-05 1 0
-0.1074996 0.084627502 -0.15529144 3.5831043e-05 -3.9660797e-05 1 0
-0.09606564 0.083671071 -0.15529144 2.1544462e-05 -1.7435279e-05 1 0
-0.084619321 0.081762381 -0.15529144 1.421324e-05 -2.290275e-05 1 0
-0.074698627 0.084635876 -0.15529144 1.3346294e-05 -2.7321466e-05 1 0
-0.062217325 0.084441841 -0.15529144 1.7399772e-05 -2.5438276e-05 1 0
-0.056542635 0.085193053 -0.15529144 1.1429885e-05 -1.233629e-05 1 0
-0.046754017 0.086287111 -0.15529144 2.0216143e-05 -3.8663638e-05 1 0
-0.037367389 0.083908506 -0.15529144 8.3227624e-06 -2.4959689e-05 1 0
-0.0272293 0.085932828 -0.15529144 6.7701098e-06 -1.7299919e-05 1 0
-0.010167611 0.081791818 -0.15529144 1.1051834e-06 -3.2582473e-05 1 0
-0.007975501 0.086503685 -0.15529144 4.5206652e-06 -3.8749069e-05 1 0
0.0050409436 0.083197691 -0.15529144 -8.5328941e-07 -1.7329034e-05 1 0
0.011254796 0.085379049 -0.15529144 -3.5227456e-06 -3.6465004e-05 1 0
0.0238067 0.08478345 -0.15529144 -9.4980041e-06 -1.9102052e-05 1 0
0.035856929 0.086271308 -0.15529144 -1.0095682e-05 -1.959259e-05 1 0
0.045197383 0.085330822 -0.15529144 -1.6144138e-05 -2.160807e-05 1 0
0.053195726 0.08543124 -0.15529144 -2.1832006e-05 -2.7469065e-05 1 0
0.066697367 0.084912032 -0.15529144 -2.6119493e-05 -2.6991469e-05 1 0
0.075072318 0.083358467 -0.15529144 -1.9646777e-05 -2.1314294e-05 1 0
0.08457645 0.085727751 -0.15529144 -2.9370934e-05 -2.6528302e-05 1 0
0.094736747 0.084748283 -0.15529144 -2.2469663e-05 -2.1361433e-05 1 0
0.10511819 0.08452753 -0.15529144 -4.6964102e-05 -1.3591214e-05 1 0
0.11439473 0.086931072 -0.15529144 -4.666144e-05 -1.8766525e-05 1 0
0.12537134 0.086602792 -0.15529144 -4.5891225e-05 -2.995159e-05 1 0
0.13501975 0.084611937 -0.15529144 -0.0005830286 -0.00069613406 0.99999958 0
0.14092065 0.082060605 -0.15529144 -0.002049956 -0.0012000772 0.9999972 0
0.15327238 0.085656412 -0.15529144 -0.06343542 -0.029428957 0.99755198 0.002865955
0.16352321 0.086776495 -0.15529144 -0.1363267 -0.068249896 0.98831016 0.005506665
0.17427635 0.085689075 -0.15342654 -0.23182717 -0.13898721 0.9627766 0.0040926929
0.18349242 0.08319886 -0.15054056 -0.3016344 -0.1748722 0.93724942 0.0014507513
-0.17249069 0.096485272 -0.15177639 0.2596328 -0.1498505 0.95401025 0.0031150195
-0.16754064 0.098761052 -0.15312549 0.23259637 -0.12859626 0.9640342 0.0044766967
-0.15321638 0.094377726 -0.15529144 0.080597579 -0.051676888 0.99540621 0.0028991725
-0.14472227 0.094768912 -0.15529144 0.047031891 -0.028770462 0.99847901 0.0016006366
-0.13505986 0.094362728 -0.15529144 0.0019943896 -0.0020815625 0.99999583 0
-0.12290525 0.095012747 -0.15529144 3.1258933e-05 -2.9517674e-05 1 0
-0.11424515 0.094271198 -0.15529144 5.8249374e-05 -2.584006e-05 1 0
-0.10585633 0.095700979 -0.15529144 3.6060399e-05 -2.45104e-05 1 0
-0.095824324 0.095913127 -0.15529144 5.1456111e-05 -2.4725894e-05 1 0
-0.086892061 0.097001582 -0.15529144 1.0639541e-05 -4.3571265e-05 1 0
-0.07223919 0.096354403 -0.15529144 2.2076838e-05 -3.0837062e-05 1 0
-0.065472052 0.094905198 -0.15529144 2.5585461e-05 -1.1976611e-05 1 0
-0.057064109 0.095593736 -0.15529144 1.8267663e-05 -3.6599075e-05 1 0
-0.044729441 0.094386116 -0.15529144 1.1592501e-05 -3.2669286e-05 1 0
-0.035222337 0.096068561 -0.15529144 1.0577115e-05 -3.0160698e-05 1 0
-0.026146444 0.094156526 -0.15529144 1.0840443e-05 -3.0669969e-05 1 0
-0.017081993 0.092060722 -0.15529144 1.423989e-06 -2.9707993e-05 1 0
-0.0037055896 0.094072863 -0.15529144 -2.2589195e-06 -4.1692172e-05 1 0
0.0062193568 0.09439832 -0.15529144 1.2453175e-06 -3.3351349e-05 1 0
0.015940905 0.095814988 -0.15529144 -4.7724143e-06 -2.4889699e-05 1 0
0.024437884 0.09779685 -0.15529144 -7.9911952e-06 -1.5549675e-05 1 0
0.034434602 0.095435821 -0.15529144 -1.0377152e-05 -3.5667363e-05 1 0
0.044404857 0.092882439 -0.15529144 -2.1717318e-05 -2.8271355e-05 1 0
0.054873802 0.097065479 -0.15529144 -1.4350738e-05 -2.382903e-05 1 0
0.064928912 0.09523318 -0.15529144 -3.7043835e-06 -2.8496634e-05 1 0
0.074721605 0.094964363 -0.15529144 -1.9976887e-06 -3.9207964e-05 1 0
0.087649375 0.094532825 -0.15529144 -1.6064403e-05 -1.3700159e-05 1 0
0.093927458 0.095362835 -0.15529144 -1.6628079e-05 -2.9803732e-05 1 0
0.10185495 0.095664814 -0.15529144 -2.1039818e-05 -2.7153819e-05 1 0
0.11687984 0.096317448 -0.15529144 -3.0620879e-05 -3.5758712e-05 1 0
0.12670489 0.09564288 -0.15529144 -0.00072662788 -0.00036404506 0.9999997 0
0.13414003 0.093894504 -0.15529144 -0.00338307 -0.0024491653 0.99999124 5.026406e-07
0.14353995 0.09473566 -0.15529144 -0.038883295 -0.021613833 0.99900997 0.001606729
0.15447773 0.097015247 -0.15529144 -0.10640471 -0.075953916 0.99141777 0.0046076621
0.16450371 0.093752787 -0.15487491 -0.17182066 -0.09151645 0.98086822 0.0048801699
0.17295282 0.096859217 -0.15152483 -0.25449029 -0.15110433 0.95519745 0.003521146
-0.16408768 0.1063208 -0.15278724 0.21918394 -0.12401169 0.96777034 0.0043548495
-0.15367746 0.10335797 -0.15529144 0.15106583 -0.075007714 0.98567384 0.0046580103
-0.14700297 0.1038111 -0.15529144 0.087699987 -0.058049854 0.99445409 0.0033349001
-0.13572638 0.10590181 -0.15529144 0.042325865 -0.032325659 0.99858075 0.0015586704
-0.12358788 0.10601997 -0.15529144 2.7161233e-05 -3.8298938e-05 1 0
-0.11471736 0.10578898 -0.15529144 3.1243908e-05 -2.7275497e-05 1 0
-0.10299648 0.1054552 -0.15529144 2.5504747e-05 -3.6011821e-05 1 0
-0.094368085 0.10222814 -0.15529144 3.434579e-05 -3.2635002e-05 1 0
-0.085380085 0.10487045 -0.15529144 2.1827815e-05 -2.6614596e-05 1 0
-0.074997932 0.10602322 -0.15529144 1.4657378e-05 -3.4887951e-05 1 0
-0.0654663 0.10646901 -0.15529144 1.2604602e-05 -1.8780907e-05 1 0
-0.054411922 0.10408488 -0.15529144 1.8216719e-05 -3.0473097e-05 1 0
-0.044100266 0.10746723 -0.15529144 1.8267123e-05 -3.655305e-05 1 0
-0.033783868 0.10550001 -0.15529144 1.3164772e-05 -2.2218042e-05 1 0
-0.024164386 0.10448389 -0.15529144 5.5854002e-06 -3.3147306e-05 1 0
-0.014188199 0.10539491 -0.15529144 1.908078e-06 -1.9673975e-05 1 0
-0.0036069558 0.1044613 -0.15529144 -2.3496389e-06 -2.7217438e-05 1 0
0.003474379 0.10245689 -0.15529144 -1.9371146e-06 -2.4414576e-05 1 0
0.011662718 0.10272376 -0.15529144 -7.6815122e-06 -4.5510827e-05 1 0
0.025886675 0.1026986 -0.15529144 -7.9887841e-06 -2.4410239e-05 1 0
0.03379472 0.10491387 -0.15529144 -6.887391e-06 -1.6535874e-05 1 0
0.046156127 0.10594471 -0.15529144 -1.4820788e-05 -3.2872002e-05 1 0
0.054848317 0.10474891 -0.15529144 -1.4712491e-05 -4.5068886e-05 1 0
0.06543979 0.10497404 -0.15529144 -1.7379398e-05 -1.6711298e-05 1 0
0.074388854 0.10485423 -0.15529144 -3.6091609e-05 -2.3611521e-05 1 0
0.082680307 0.10885961 -0.15529144 -3.627377e-05 -3.7175934e-05 1 0
0.095428012 0.10636806 -0.15529144 -3.6234585e-05 -3.5967172e-05 1 0
0.10696717 0.10772683 -0.15529144 -5.1781622e-05 -4.0338182e-05 1 0
0.11459287 0.10557488 -0.15529144 -1.6038925e-05 -2.6566227e-05 1 0
0.12462776 0.10496889 -0.15529144 -0.00087414472 -0.0002115653 0.99999958 0
0.13556646 0.10363189 -0.15529144 -0.027034502 -0.017162535 0.9994871 0.0010964029
0.14501683 0.10443318 -0.15529144 -0.081826761 -0.040051799 0.9958415 0.0034659368
0.15457629 0.10572916 -0.15512305 -0.12199309 -0.076875426 0.98954928 0.0044913506
0.16586 0.10478685 -0.15245825 -0.25719041 -0.1566239 0.95358378 0.0034589749
0.17254762 0.10264158 -0.15043651 -0.29243866 -0.16934517 0.94117051 0.002093266
-0.16350377 0.11540675 -0.15105757 0.26746184 -0.1483043 0.95208716 0.0039637564
-0.15437596 0.11366695 -0.15464751 0.17674389 -0.098063312 0.97935951 0.0052167438
-0.14777169 0.11306235 -0.15529144 0.1307019 -0.076631002 0.98845577 0.0038581146
-0.13334537 0.11403761 -0.15529144 0.043983579 -0.029423537 0.99859887 0.001534879
-0.12588982 0.11577814 -0.15529144 0.01510339 -0.012136213 0.9998123 0.00027573714
-0.11353356 0.11748868 -0.15529144 5.1862418e-05 -2.3533783e-05 1 0
-0.10687828 0.11689109 -0.15529144 4.9048864e-05 -3.705284e-05 1 0
-0.097252145 0.11533455 -0.15529144 2.9105231e-05 -4.7684407e-05 1 0
-0.085623048 0.11430251 -0.15529144 9.4089155e-06 -4.1448417e-05 1 0
-0.075454623 0.11459173 -0.15529144 3.0876137e-05 -2.5531082e-05 1 0
-0.064400539 0.11405595 -0.15529144 1.5349478e-05 -2.3088549e-05 1 0
-0.056379534 0.11727854 -0.15529144 4.0815853e-06 -2.9075953e-05 1 0
-0.043457747 0.11627526 -0.15529144 1.0517434e-05 -4.3892287e-05 1 0
-0.033380646 0.11412845 -0.15529144 1.1980175e-05 -2.563318e-05 1 0
-0.026495708 0.113347 -0.15529144 6.3940256e-06 -1.6201489e-05 1 0
-0.015992289 0.11477222 -0.15529144 6.7615279e-06 -2.6406144e-05 1 0
-0.0064108805 0.11523948 -0.15529144 -2.7764106e-06 -3.6962254e-05 1 0
0.0040793139 0.11497325 -0.15529144 -8.2223437e-07 -1.7741169e-05 1 0
0.015444905 0.11202332 -0.15529144 -9.3557207e-07 -3.8275655e-05 1 0
0.026047057 0.11488272 -0.15529144 -1.5744395e-06 -2.8838927e-05 1 0
0.034351785 0.11451057 -0.15529144 -3.6975234e-06 -3.3833592e-05 1 0
0.04552193 0.11637422 -0.15529144 -1.2948468e-05 -1.980056e-05 1 0
0.055059087 0.11569023 -0.15529144 -1.8603667e-05 -3.0198551e-05 1 0
0.065112427 0.11600154 -0.15529144 -1.9593452e-05 -3.2431231e-05 1 0
0.074580446 0.11557245 -0.15529144 -2.4564633e-05 -2.7442997e-05 1 0
0.08485204 0.11696462 -0.15529144 -3.8344198e-05 -4.8238224e-05 1 0
0.092318654 0.11241917 -0.15529144 -2.369693e-05 -5.5986831e-05 1 0
0.1044053 0.11429963 -0.15529144 -1.8847026e-05 -3.5328296e-06 1 0
0.1144878 0.11296532 -0.15529144 -5.775904e-05 -3.8305348e-05 1 0
0.12535584 0.11414492 -0.15529144 -0.0076975259 -0.0050325603 0.99995768 9.6698779e-05
0.13683031 0.11515739 -0.15529144 -0.076399356 -0.044908553 0.99606544 0.0036915904
0.14559227 0.1140414 -0.15529144 -0.11038376 -0.062954381 0.99189323 0.004255848
0.15398823 0.11508469 -0.15463254 -0.19313182 -0.1131843 0.97462267 0.005841204
0.16291934 0.11407497 -0.1515597 -0.25329024 -0.14855494 0.95591605 0.0041042622
-0.16146502 0.12116209 -0.15058114 0.28246719 -0.16571209 0.94485533 0.0030137752
-0.15592004 0.12456898 -0.15190868 0.2508834 -0.14394444 0.95725524 0.003984936
-0.14956808 0.12754345 -0.15362826 0.21184918 -0.13931262 0.96732199 0.0050751194
-0.1374997 0.12419159 -0.15529144 0.10622378 -0.072645016 0.99168503 0.0036401795
-0.12449259 0.12549832 -0.15529144 0.036560398 -0.034159638 0.99874747 0.0013202474
-0.11385819 0.12419251 -0.15529144 0.0057658702 -0.0088614803 0.99994409 9.7869146e-05
-0.10665337 0.12302234 -0.15529144 4.7151207e-05 -3.458943e-05 1 0
-0.095711321 0.12560633 -0.15529144 3.6847952e-05 -2.4069821e-05 1 0
-0.085031196 0.12371014 -0.15529144 2.5984629e-05 -9.3479275e-06 1 0
-0.077603936 0.12468639 -0.15529144 1.168435e-05 -2.1913203e-05 1 0
-0.064206786 0.12403315 -0.15529144 2.6593574e-05 -3.5906793e-05 1 0
-0.055446602 0.12225105 -0.15529144 9.8457003e-06 -2.3448047e-05 1 0
-0.042816028 0.12492404 -0.15529144 3.209839e-06 -2.2812299e-05 1 0
-0.032526705 0.12802899 -0.15529144 6.8445293e-06 -4.4142591e-05 1 0
-0.023922604 0.12495637 -0.15529144 8.1087555e-06 -3.4957662e-05 1 0
-0.015669202 0.12472355 -0.15529144 6.2545173e-06 -2.5606676e-05 1 0
-0.0043080924 0.12490894 -0.15529144 1.7851254e-06 -3.1236897e-05 1 0
0.0057274532 0.12403677 -0.15529144 -7.8860063e-07 -3.1824748e-05 1 0
0.014287586 0.12455201 -0.15529144 -6.8900013e-06 -2.1230746e-05 1 0
0.029911255 0.128536 -0.15529144 -1.6399594e-05 -5.9560873e-05 1 0
0.034034725 0.12664263 -0.15529144 -8.3866489e-06 -4.4356751e-05 1 0
0.044280153 0.12349869 -0.15529144 -1.0205612e-05 -3.096402e-05 1 0
0.052415185 0.1252977 -0.15529144 -1.4111994e-05 -4.3230855e-05 1 0
0.06657254 0.12475689 -0.15529144 -2.1073431e-05 -3.5831916e-05 1 0
0.073124446 0.12442611 -0.15529144 -2.5982374e-05 -4.0222109e-05 1 0
0.083610781 0.12472769 -0.15529144 -2.0329338e-05 -4.6062141e-05 1 0
0.095698476 0.12499487 -0.15529144 -1.9634339e-05 -3.2093438e-05 1 0
0.10477943 0.12547471 -0.15529144 -0.002348314 -0.0062867552 0.99997747 4.9403392e-05
0.11299726 0.12309805 -0.15529144 -0.0011620842 -0.005937343 0.9999817 2.6517202e-05
0.12179202 0.12151053 -0.15529144 -0.0069129267 -0.0062117348 0.99995679 0.00012365203
0.13580498 0.12540126 -0.15529144 -0.097462155 -0.06807299 0.99290842 0.0039779716
0.14559418 0.12774251 -0.15506002 -0.17831539 -0.12786327 0.97563034 0.0047911163
0.15441747 0.12436317 -0.15251027 -0.25554702 -0.1376235 0.95695114 0.0038099063
0.16224478 0.12154802 -0.15020914 -0.28491199 -0.17108127 0.94316298 0.0022733985
-0.1514011 0.13293545 -0.15179312 0.23721887 -0.17150672 0.95619696 0.0035240417
-0.14544837 0.13471471 -0.15347201 0.18421167 -0.15798934 0.97010595 0.0040425444
-0.13360807 0.1364488 -0.15529144 0.11801336 -0.13758253 0.98343474 0.0042724791
-0.12350359 0.13348787 -0.15529144 0.056366749 -0.070830002 0.99589455 0.0026269613
-0.11726552 0.13469815 -0.15529144 0.047232036 -0.072535418 0.99624676 0.0028464696
-0.10534195 0.1357213 -0.15529144 0.018565698 -0.035071697 0.99921232 0.0015052268
-0.095527738 0.13779184 -0.15529144 0.010381582 -0.019406879 0.99975777 0.00056326331
-0.087117665 0.13524599 -0.15529144 2.2218777e-05 -3.8953855e-05 1 0
-0.074655786 0.13649493 -0.15529144 2.5143079e-05 -5.9240301e-06 1 0
-0.058595192 0.13418865 -0.15529144 1.1750464e-05 -5.0003538e-05 1 0
-0.046016052 0.13542758 -0.15529144 1.2500055e-05 -2.7734246e-05 1 0
-0.03239736 0.13642189 -0.15529144 1.206318e-05 -5.4592718e-05 1 0
-0.025120534 0.13577452 -0.15529144 1.5971353e-05 -3.9621802e-05 1 0
-0.017861724 0.13790175 -0.15529144 7.2900566e-06 -4.9622264e-05 1 0
0.0046170605 0.13533796 -0.15529144 -4.2767024e-07 -4.9434853e-05 1 0
0.017230425 0.1365896 -0.15529144 -7.476212e-06 -3.2667122e-05 1 0
0.024485577 0.13622032 -0.15529144 -1.3412248e-05 -4.0942083e-05 1 0
0.035500884 0.13198042 -0.15529144 -9.3422113e-06 -4.0795814e-05 1 0
0.048847344 0.13235608 -0.15529144 -1.1240039e-05 -2.2792443e-05 1 0
0.055121131 0.13404328 -0.15529144 -1.7651413e-05 -4.7732126e-05 1 0
0.062911332 0.13470295 -0.15529144 -3.3157874e-05 -5.2896106e-05 1 0
0.075825825 0.13404796 -0.15529144 -2.065041e-05 -4.7703015e-05 1 0
0.086342566 0.13403498 -0.15529144 -0.0012780863 -0.0014315278 0.99999815 0
0.095329173 0.13408422 -0.15529144 -0.0042880531 -0.0054258835 0.9999761 3.3753495e-05
0.10459652 0.13426593 -0.15529144 -0.015108992 -0.021502595 0.99965465 0.00064010255
0.11441973 0.1343081 -0.15529144 -0.035590041 -0.037220739 0.99867314 0.0012991598
0.1258309 0.13694897 -0.15529144 -0.077290654 -0.1039839 0.99157125 0.004965113
0.1366908 0.13637426 -0.15522742 -0.14225653 -0.14860226 0.97861153 0.0047303149
0.14417028 0.13424644 -0.15395451 -0.17655483 -0.13974626 0.97431999 0.0043281685
0.15234259 0.13389182 -0.15123893 -0.2594687 -0.18492424 0.94788134 0.0024305866
-0.14354372 0.14559756 -0.15167396 0.20626287 -0.22125757 0.95315307 0.003505002
-0.1371807 0.14278696 -0.15407981 0.15108925 -0.16565627 0.97454089 0.0048699998
-0.12524921 0.14776435 -0.15459438 0.11146923 -0.19570559 0.97430688 0.0044484553
-0.1146635 0.14348942 -0.15529144 0.060697995 -0.10376581 0.9927479 0.003616215
-0.10581064 0.14470086 -0.15529144 0.055744428 -0.07748355 0.99543399 0.002739164
-0.096983388 0.14459908 -0.15529144 0.034259543 -0.052773464 0.99801862 0.0023555129
-0.084739767 0.14629321 -0.15529144 0.011680943 -0.020893967 0.99971342 0.00067322713
-0.074919641 0.14431696 -0.15529144 0.00074732414 -0.0051387888 0.99998647 3.8760023e-05
-0.065783136 0.14206679 -0.15529144 2.3870263e-05 -2.2861357e-05 1 0
-0.054799024 0.14727053 -0.15529144 1.7982999e-05 -4.4287193e-05 1 0
-0.035602514 0.14670798 -0.15529144 1.4811803e-06 -5.8319521e-05 1 0
-0.023438305 0.14435577 -0.15529144 1.0191448e-05 -4.808934e-05 1 0
-0.015124095 0.14503849 -0.15529144 3.7191367e-06 -5.432167e-05 1 0
-0.0064525511 0.14547646 -0.15529144 6.9088992e-07 -4.6742662e-05 1 0
0.0062128524 0.14450778 -0.15529144 -2.2526722e-06 -7.5828211e-05 1 0
0.016660264 0.14539893 -0.15529144 -6.8025638e-06 -5.9674825e-05 1 0
0.025290528 0.14491662 -0.15529144 -7.5369353e-06 -4.0387426e-05 1 0
0.034319457 0.14775449 -0.15529144 -1.8228389e-05 -4.9706759e-05 1 0
0.046897069 0.14655241 -0.15529144 -1.5859647e-05 -3.9788662e-05 1 0
0.058881883 0.14861204 -0.15529144 -1.4504211e-05 -3.9546441e-05 1 0
0.06693352 0.1409357 -0.15529144 -3.2914355e-05 -6.2457875e-05 1 0
0.077494293 0.1448476 -0.15529144 -0.0039189435 -0.0065671969 0.99997073 7.6956327e-05
0.082006715 0.14741381 -0.15529144 -0.013612414 -0.01377748 0.99981248 0.00037349496
0.092454076 0.14871258 -0.15529144 -0.0375751 -0.057854611 0.99761766 0.0023950033
0.11444176 0.14478041 -0.15529144 -0.075495481 -0.11260303 0.99076784 0.0041219965
0.12411468 0.14507918 -0.15500723 -0.089060038 -0.15821287 0.98338044 0.0060814614
0.13856384 0.14692406 -0.15224856 -0.19292141 -0.24059375 0.95126021 0.0030245152
0.14064506 0.1455588 -0.15230927 -0.20770314 -0.23772271 0.94886637 0.0031680788
-0.13439831 0.15077402 -0.15171242 0.16469766 -0.23859996 0.95704997 0.0034931048
-0.12619977 0.15548976 -0.15171899 0.14418307 -0.24816063 0.95792872 0.0038349351
-0.11812538 0.15345594 -0.15420321 0.10551657 -0.18054688 0.97789013 0.0044589359
-0.10388843 0.15339372 -0.15529144 0.090800926 -0.13936284 0.98606956 0.0044361884
-0.093537673 0.15536198 -0.15529144 0.062982619 -0.11641655 0.99120152 0.0041510062
-0.084813409 0.15588245 -0.15529144 0.064546242 -0.11015522 0.99181628 0.0048316657
-0.077984631 0.15361369 -0.15529144 0.02165111 -0.046630949 0.99867749 0.0019095787
-0.063993052 0.15172711 -0.15529144 0.0033245124 -0.0058296155 0.99997747 5.0787716e-05
-0.052369315 0.15261218 -0.15529144 1.7391827e-05 -2.7544316e-05 1 0
-0.043229334 0.151779 -0.15529144 6.331948e-06 -6.4161126e-05 1 0
-0.035387903 0.15490021 -0.15529144 4.9316368e-06 -6.6297078e-05 1 0
-0.02757325 0.15485296 -0.15529144 2.08131e-06 -6.0578124e-05 1 0
-0.016782776 0.1527766 -0.15529144 8.3427813e-06 -4.8598755e-05 1 0
-0.0059220591 0.15407002 -0.15529144 4.4607049e-07 -4.1737709e-05 1 0
0.0039989138 0.15484747 -0.15529144 -5.421814e-06 -5.7800549e-05 1 0
0.016486375 0.15481365 -0.15529144 -2.2051645e-06 -5.9712256e-05 1 0
0.026008684 0.15207312 -0.15529144 -3.4749337e-06 -3.6200134e-05 1 0
0.034489393 0.15491857 -0.15529144 -1.4885672e-05 -3.0378318e-05 1 0
0.04917445 0.15488684 -0.15529144 -2.8637704e-05 -0.0001383373 1 0
0.056392491 0.15687993 -0.15529144 -0.0020382477 -0.0023230957 0.99999517 6.6145418e-07
0.064937599 0.154964 -0.15529144 -0.0046834694 -0.0066705071 0.99996674 9.7330776e-05
0.074630231 0.15565348 -0.15529144 -0.021305267 -0.038724482 0.99902278 0.0018016979
0.087794781 0.15611097 -0.15529144 -0.057932317 -0.10341491 0.99294972 0.0043899501
0.095451102 0.1547935 -0.15529144 -0.06312456 -0.10712087 0.99224007 0.0044369129
0.10545683 0.15502644 -0.1549193 -0.073039711 -0.14279348 0.98705375 0.0049077375
0.116099 0.15285212 -0.15436591 -0.096974671 -0.17143381 0.98041129 0.0056344112
0.12415189 0.15518604 -0.15227035 -0.13266097 -0.24767031 0.95971894 0.0039484934
0.1339404 0.1518077 -0.15142697 -0.18067808 -0.26557979 0.9470073 0.0025352922
-0.12239738 0.1604294 -0.15070076 0.15640967 -0.26831007 0.95055026 0.0024178778
-0.11617266 0.16302836 -0.15106988 0.14810143 -0.2582514 0.95465821 0.0038251521
-0.10459539 0.16615433 -0.15239006 0.13250886 -0.2281687 0.9645623 0.0048917844
-0.097168244 0.16552985 -0.15419383 0.12964344 -0.19806305 0.97157794 0.0048799678
-0.086488463 0.16493094 -0.15529144 0.097481862 -0.1423206 0.98500866 0.0045867735
-0.077292278 0.16516244 -0.15529144 0.046807859 -0.11418979 0.99235564 0.0036589419
-0.054002222 0.16603296 -0.15529144 0.019100852 -0.03093845 0.99933875 0.00095994939
-0.045407027 0.16581203 -0.15529144 0.0079656588 -0.015242211 0.99985212 0.00045140705
-0.0346485 0.16686547 -0.15529144 -0.0010283595 -0.01240032 0.99992257 0.00034397811
-0.021650255 0.16299707 -0.15529144 8.58766e-05 -0.00017011522 1 0
-0.01625447 0.16403905 -0.15529144 -0.00090139144 -0.0068164147 0.9999764 0.00015458249
-0.0043854755 0.1651229 -0.15529144 -0.0019901742 -0.018384121 0.99982899 0.00037996919
0.0018601514 0.16178915 -0.15529144 -3.6246752e-06 -5.1140083e-05 1 0
0.01376514 0.16290529 -0.15529144 -9.2512628e-06 -4.607789e-05 1 0
0.02554111 0.16559732 -0.15529144 0.000864311 -0.011237523 0.99993652 0.00032058466
0.034963824 0.16458145 -0.15529144 -9.6530952e-05 -0.00015135373 1 0
0.044346273 0.16183172 -0.15529144 -7.0775481e-05 -0.00013251328 1 0
0.052021544 0.16249794 -0.15529144 -0.0074267737 -0.0099420259 0.99992299 0.00025199522
0.066641122 0.16413464 -0.15529144 -0.030682744 -0.060257696 0.99771118 0.0023479112
0.074077472 0.16590236 -0.15529144 -0.063364148 -0.10497929 0.99245375 0.0040185684
0.087382048 0.16497178 -0.15529144 -0.094600983 -0.18083002 0.97895408 0.0054470822
0.095322944 0.16376065 -0.15481868 -0.097581014 -0.17516775 0.97969085 0.005564821
0.10638167 0.16376194 -0.15289506 -0.13923645 -0.23766495 0.96131605 0.0050478899
0.11582597 0.16491324 -0.15044482 -0.1599101 -0.29893482 0.94077986 0.0017952252
-0.10345126 0.17008278 -0.15117759 0.16343276 -0.27368355 0.94783288 0.0028089541
-0.094617076 0.17603812 -0.1508604 0.16639221 -0.26785055 0.94898355 0.0031746055
-0.083507776 0.17293455 -0.15439165 0.10816984 -0.18354847 0.97704107 0.0051735919
-0.076811723 0.1761813 -0.15462141 0.11532025 -0.19342323 0.97431439 0.004500411
-0.064357243 0.1746923 -0.15529144 0.055318426 -0.11753342 0.99152702 0.0036950861
-0.055237282 0.17613792 -0.15529144 0.046102859 -0.098477282 0.99407083 0.0036215005
-0.046522088 0.17540485 -0.15529144 0.027404919 -0.090901285 0.9954828 0.0030448793
-0.035409492 0.17177176 -0.15529144 0.0013814683 -0.038825046 0.99924505 0.0012369668
-0.028823551 0.17858532 -0.15529144 -0.00065917551 -0.10995 0.99393696 0.0033525717
-0.016007617 0.17362547 -0.15529144 0.0071415454 -0.058359034 0.99827015 0.002392272
-0.0048544575 0.17684262 -0.15529144 0.002113329 -0.080082133 0.996786 0.0033634771
0.0034851255 0.17563425 -0.15529144 -0.0031756009 -0.070694603 0.99749291 0.0023577642
0.012927689 0.17760521 -0.15529144 -0.013107318 -0.098981425 0.99500293 0.0034425179
0.028166458 0.17595243 -0.15529144 0.0042624869 -0.078378983 0.99691457 0.0027923903
0.034073625 0.17432976 -0.15529144 -2.2124608e-05 -0.076953419 0.99703467 0.0026206153
0.045154855 0.17285591 -0.15529144 -0.0088020004 -0.06135767 0.99807703 0.0019480498
0.053193349 0.17498761 -0.15529144 -0.031742975 -0.093145132 0.99514639 0.0028391234
0.065665379 0.1736863 -0.15529144 -0.070280999 -0.13844694 0.98787302 0.0052327877
0.07461077 0.17586064 -0.15479587 -0.09598466 -0.17782578 0.97936964 0.0045707347
0.084596083 0.17300436 -0.15413262 -0.10269812 -0.19152413 0.97610021 0.0056988187
0.092726991 0.17688379 -0.1509515 -0.15188567 -0.26597783 0.95193827 0.0034621754
0.10405019 0.1708566 -0.15076219 -0.17039989 -0.28866294 0.94214517 0.0023286657
-0.085302785 0.18083817 -0.15107468 0.1737313 -0.27283677 0.94624394 0.0030980678
-0.072242618 0.18512261 -0.15228269 0.13748369 -0.26825869 0.95348597 0.0031304597
-0.066530228 0.187465 -0.15263727 0.13716075 -0.26722047 0.95382392 0.0036228606
-0.056259681 0.18670513 -0.15485068 0.054352567 -0.18675321 0.98090219 0.0033024468
-0.045464322 0.1845735 -0.15529144 0.04922507 -0.19103366 0.98034835 0.0036555403
-0.035317447 0.18541411 -0.15526111 0.01058867 -0.15564953 0.9877556 0.0039258567
-0.024679089 0.18580888 -0.15529144 0.012039584 -0.1620923 0.98670208 0.0036238697
-0.015352285 0.186645 -0.15529144 0.0086209429 -0.16913517 0.98555517 0.0043835747
-0.0045624175 0.18471909 -0.15529144 -0.001250946 -0.15614177 0.9877339 0.0047110529
0.0036590986 0.18471858 -0.15529144 -1.2337913e-05 -0.14263082 0.98977596 0.0044734501
0.017841002 0.18552399 -0.15529144 -0.0041311802 -0.16712216 0.98592758 0.0048850472
0.026751647 0.18148397 -0.15529144 0.0012137159 -0.11089388 0.99383152 0.0036163775
0.036030509 0.18529628 -0.15529144 -0.013498906 -0.17580956 0.98433161 0.0042090621
0.045038063 0.18589824 -0.15529144 -0.035576075 -0.16541713 0.98558182 0.0039631864
0.052467436 0.18398555 -0.15526652 -0.046617035 -0.15714769 0.98647422 0.0042705699
0.064833 0.1867369 -0.15327097 -0.11569324 -0.24015015 0.96381688 0.0038319381
0.075054161 0.18612713 -0.15130772 -0.15986525 -0.2846458 0.94520891 0.0024758237
0.085266113 0.18091325 -0.1510547 -0.1566928 -0.26863182 0.95041269 0.0031513413
-0.072553143 0.19038199 -0.1502648 0.16677792 -0.31220517 0.93526095 0.0011865543
-0.067038 0.19281033 -0.15054524 0.14959346 -0.30059445 0.9419474 0.00209809
-0.054686859 0.19320136 -0.15304592 0.075730689 -0.25219053 0.9647097 0.0046197921
-0.045345478 0.19645552 -0.15227698 0.047722824 -0.28803706 0.95642942 0.0029386682
-0.032613829 0.19689983 -0.15208663 0.0021470848 -0.29941791 0.95411968 0.0036472778
-0.029797297 0.19452907 -0.15310232 0.0063729896 -0.26370323 0.96458274 0.0042426414
-0.01185375 0.19348666 -0.15354891 -0.0025730645 -0.24492505 0.96953863 0.005590592
-0.0045003304 0.19303186 -0.15374376 0.0022860989 -0.25150308 0.96785384 0.0043525132
0.0027364802 0.19349992 -0.15354322 0.0055592144 -0.2655133 0.96409118 0.0048182248
0.017642546 0.19539672 -0.15273058 0.00060832483 -0.28470013 0.95861644 0.0028164922
0.02406306 0.19525024 -0.15279335 0.0009470337 -0.26020411 0.9655531 0.0043462226
0.036476623 0.19563141 -0.15263006 -0.020442694 -0.27561039 0.96105206 0.0030541604
0.043818358 0.19615626 -0.15240519 -0.03673064 -0.28537908 0.95771068 0.0031588881
0.053865481 0.19405955 -0.15285873 -0.069081277 -0.27703157 0.95837426 0.0031332062
0.062522016 0.19322424 -0.15135904 -0.13012047 -0.27803466 0.95171708 0.0028553365
-0.054338563 0.20081586 -0.15029535 0.089418709 -0.32220462 0.94243759 0.0021770496
-0.046901941 0.20041102 -0.15058234 0.04994107 -0.32238868 0.94528908 0.0022484073
-0.036104195 0.20138174 -0.15016648 0.015899375 -0.34096551 0.93994135 0.0019089646
-0.02002619 0.20153001 -0.15010294 -0.0070080222 -0.32719293 0.94493157 0.002813278
-0.010415277 0.20155293 -0.15009314 -0.0048638103 -0.32572332 0.94545263 0.0029364701
0.011038325 0.20049553 -0.15054613 0.0098603098 -0.32424882 0.94592041 0.0026113279
0.022277413 0.20050481 -0.15054217 -0.0054651978 -0.32306045 0.94636256 0.0028807805
0.031878415 0.20099211 -0.15033337 0.0020335317 -0.32551575 0.94553441 0.0025334926
0.045459937 0.20158961 -0.15007739 -0.040679563 -0.31177527 0.94928461 0.0028629252
-0.066109337 -0.2202594 -0.14055982 0.13001384 0.35852802 0.92442095 0.0010460815
-0.052557677 -0.22334599 -0.14075641 0.058735017 0.37911704 0.92348278 0.0010385744
-0.042732276 -0.22073536 -0.14187488 0.027386347 0.3876946 0.921381 0.00049245282
-0.034129921 -0.22235732 -0.14117999 0.0014010835 0.39315915 0.91946936 1.9715213e-05
-0.023958202 -0.22232907 -0.14119211 -1.0096413e-05 0.39376399 0.91921163 1.2283053e-05
-0.016974747 -0.22298305 -0.14091192 3.8353832e-07 0.39380839 0.91919261 2.85077e-06
-0.0058209645 -0.22289595 -0.14094922 -1.2712288e-06 0.3938024 0.91919512 1.2341321e-05
0.012759281 -0.22215521 -0.14126658 -7.438228e-07 0.39381319 0.91919053 3.0529091e-07
0.029131904 -0.22242102 -0.14115272 2.3942227e-06 0.39379114 0.91919988 2.4149807e-05
0.035572115 -0.22246325 -0.14113462 -0.0065215672 0.39291653 0.91955101 6.1349878e-05
0.043289024 -0.2222279 -0.14123544 -0.024950551 0.38581133 0.92224026 0.00036588131
0.051829696 -0.22150861 -0.1415436 -0.065781549 0.37372595 0.92520362 0.0011163009
-0.070383564 -0.21213172 -0.14265981 0.16479495 0.3501744 0.92207402 0.00063763739
-0.063979954 -0.21442506 -0.14318065 0.12635544 0.36169007 0.9236961 0.0012231354
-0.055101436 -0.21600071 -0.14379863 0.087612763 0.36517856 0.92680568 0.00091629673
-0.046134312 -0.21472219 -0.1444511 0.045850746 0.38078237 0.92352724 0.00081399374
-0.037702899 -0.2145229 -0.14453644 0.016406413 0.3908999 0.92028695 0.00032008221
-0.024552777 -0.21498922 -0.14433669 -1.4452897e-05 0.39375448 0.91921568 2.0946301e-05
-0.01463742 -0.2155185 -0.14410992 -3.007204e-06 0.39379475 0.91919839 1.2085367e-05
-0.0086177336 -0.21303688 -0.14517312 0.00028947077 0.38945061 0.92104733 8.9730238e-05
0.0045652152 -0.21157999 -0.14579727 -0.0011590667 0.38597712 0.92250758 0.00016019665
0.017150905 -0.21514475 -0.14427003 2.2603204e-07 0.39387888 0.91916233 9.5852052e-08
0.02402769 -0.21652222 -0.1436799 -5.5084547e-07 0.39382493 0.91918546 0
0.034060746 -0.21342438 -0.1450071 -0.0048361258 0.3834953 0.92353016 0.00013130807
0.044839356 -0.21466547 -0.14447539 -0.039060615 0.38176334 0.92343438 0.00069876102
0.052878045 -0.21694852 -0.14349726 -0.075035572 0.38048315 0.92173868 0.0012614558
0.0646936 -0.21368498 -0.14330238 -0.1272417 0.36572647 0.9219836 0.0011400038
0.071410239 -0.21175894 -0.14257818 -0.17325078 0.34754729 0.92151773 0.00041801512
0.080790378 -0.21302767 -0.14009811 -0.19044146 0.34232545 0.92007905 7.0718415e-05
-0.1008642 -0.20092049 -0.14029013 0.19690129 0.34106377 0.91918737 0
-0.093595527 -0.20241416 -0.14129299 0.19691467 0.34107134 0.91918164 0
-0.084884278 -0.20323794 -0.14285341 0.19655612 0.34068614 0.91940123 0
-0.072740644 -0.2064158 -0.14427567 0.1762089 0.34635782 0.92140472 0.00037125204
-0.064363107 -0.20553526 -0.14639693 0.13677707 0.35225224 0.92585653 0.0010904493
-0.057310522 -0.20719475 -0.14728333 0.10510749 0.35835579 0.92764944 0.0012070345
-0.040103864 -0.20363238 -0.14920223 0.026952919 0.34669504 0.93759054 0.0015268037
-0.031350158 -0.20306784 -0.1494441 0.005486141 0.33849972 0.94095057 0.0022686995
-0.026945412 -0.20442331 -0.14886338 0.00070094643 0.37485284 0.92708409 0.00039728582
-0.011948765 -0.20623387 -0.14808768 -0.00097161374 0.3750816 0.92699128 0.00038391424
-0.0089911744 -0.20777099 -0.14742915 0.00079136051 0.37585211 0.92667931 0.0003691173
0.0087822843 -0.20573728 -0.14830044 0.0033744038 0.37212202 0.92817777 0.00038105232
0.01596994 -0.20524479 -0.14851145 -0.0013885521 0.37784684 0.92586708 0.00028013103
0.024776658 -0.2041036 -0.14900036 -0.0067385258 0.35465994 0.93497109 0.001812001
0.036668766 -0.20682696 -0.1478336 -0.020770097 0.37306431 0.92757303 0.00042939241
0.048687331 -0.20723403 -0.14765918 -0.058093585 0.36735401 0.92826515 0.00086422818
0.056837317 -0.20431101 -0.14831966 -0.097513579 0.36379921 0.92635918 0.0010729844
0.068191275 -0.2065406 -0.14520389 -0.16044556 0.34875238 0.92337912 0.000705768
0.076593585 -0.20477247 -0.14406003 -0.18282667 0.34636754 0.92011088 0.00022584978
0.087156698 -0.20462085 -0.14185354 -0.19693223 0.34107763 0.91917557 0
0.098045766 -0.20139721 -0.14071701 -0.19691226 0.34106013 0.91918629 0
-0.1132056 -0.19330937 -0.14047039 0.19689943 0.34105188 0.91919214 0
-0.10475465 -0.194583 -0.14180815 0.19690764 0.34105402 0.91918963 0
-0.093849428 -0.19727895 -0.14314392 0.19682123 0.34083745 0.91928846 0
-0.083351992 -0.19725914 -0.14539994 0.19513793 0.33865514 0.92045307 1.479618e-05
-0.075821467 -0.19749533 -0.14692545 0.18261649 0.3313309 0.92567331 0.00035109537
-0.065160774 -0.19738504 -0.14925 0.15431465 0.32138705 0.93428975 0.0011079678
0.065170802 -0.19741622 -0.14923631 -0.14422467 0.31999353 0.93637782 0.0014539777
0.08499644 -0.19352525 -0.14643306 -0.18733916 0.33197528 0.9244979 0.000323393
0.094398014 -0.19653355 -0.14330296 -0.19690809 0.34105179 0.91919035 4.7028625e-06
0.10221021 -0.19427148 -0.14246878 -0.19691665 0.34102029 0.91920024 0
0.11317409 -0.19230917 -0.14084825 -0.19692293 0.34104151 0.919191 1.2012008e-05
-0.13164902 -0.18156628 -0.14087658 0.19687173 0.34105 0.91919887 5.359921e-06
-0.12453362 -0.18471295 -0.1412333 0.19692397 0.34104019 0.91919118 6.9317252e-06
-0.11719961 -0.18472016 -0.14280166 0.19690983 0.34110555 0.91916996 0
-0.10784398 -0.1852683 -0.14460237 0.19656006 0.34053728 0.91945559 0
-0.093013532 -0.18334721 -0.14849201 0.18317606 0.31723332 0.93048894 0.0010622916
-0.087540574 -0.18620341 -0.14860466 0.17980716 0.3139157 0.93226939 0.0012770429
0.086126626 -0.18397385 -0.1497348 -0.16322401 0.28896531 0.94332236 0.0023177157
0.093182318 -0.18456873 -0.14800264 -0.18895261 0.33015919 0.92481995 0.00030961144
0.10590003 -0.18666892 -0.14449912 -0.19694187 0.34107649 0.91917396 0
0.11707089 -0.18388718 -0.14313829 -0.19688268 0.34108394 0.91918379 9.0263966e-06
0.12540811 -0.1832651 -0.14158316 -0.19691318 0.34105033 0.91918975 0
-0.14424223 -0.17151304 -0.14190899 0.20483312 0.33173811 0.92086548 0.00015895457
-0.13336498 -0.17636682 -0.14243814 0.19690911 0.34105533 0.91918886 2.1213739e-07
-0.1283154 -0.1745397 -0.14419775 0.19689213 0.3410466 0.91919565 1.6231093e-05
-0.11673212 -0.1754591 -0.1463379 0.18849176 0.33318725 0.92382741 0.00031095423
-0.10772521 -0.17476636 -0.14852433 0.18656504 0.32840347 0.92592907 0.00041192595
-0.098408379 -0.17879933 -0.14902377 0.17108071 0.30535826 0.93674314 0.0019000716
0.097372413 -0.17860773 -0.14931677 -0.16415828 0.30860817 0.93691677 0.0017902857
0.1047073 -0.17513728 -0.14903316 -0.1729656 0.31119639 0.93447298 0.0015776119
0.11395419 -0.1726065 -0.14799136 -0.1855526 0.31765488 0.92987394 0.00096592586
0.12508214 -0.17478052 -0.14480099 -0.19570279 0.33994341 0.91985804 2.5379145e-06
0.13451496 -0.17507219 -0.14267215 -0.19838177 0.33959281 0.91941363 2.0466343e-05
0.14520921 -0.1735069 -0.14096208 -0.20817323 0.33259866 0.91980547 0.00016415924
-0.16214339 -0.16209604 -0.14143561 0.27039695 0.26817721 0.92464399 0.0015756151
-0.15477805 -0.16475682 -0.14215882 0.22688325 0.30187973 0.925955 0.00096810859
-0.14472455 -0.1655066 -0.14403422 0.21346559 0.32442245 0.92151099 0.00051140692
-0.13477054 -0.16330284 -0.14698416 0.19337766 0.31718308 0.9284395 0.00056731649
-0.1250831 -0.16442771 -0.14864197 0.16707498 0.30736476 0.93680996 0.0014339664
0.11478892 -0.16954996 -0.1489466 -0.17301969 0.30133405 0.93768966 0.0019810554
0.12298743 -0.16541995 -0.14872274 -0.19162086 0.32702628 0.92538381 0.00045172177
0.13267671 -0.16337866 -0.14740455 -0.19324639 0.32096925 0.92716473 0.00057368964
0.14729188 -0.16485336 -0.14372663 -0.22086225 0.31466129 0.9231512 0.00058810448
0.15577395 -0.16461425 -0.14199837 -0.24944064 0.29115906 0.92358315 0.0012772969
-0.17125796 -0.1523208 -0.14027309 0.31698409 0.22260544 0.92193705 0.00059505634
-0.16437268 -0.1544331 -0.14237525 0.30465093 0.2433968 0.92083979 0.0011459442
-0.15406409 -0.1537682 -0.14602487 0.26714703 0.26400965 0.92678553 0.0014628971
-0.14381468 -0.1555624 -0.14791869 0.23120424 0.28836113 0.92918921 0.0013319427
-0.13099906 -0.15857469 -0.14954631 0.18124419 0.29535723 0.93803763 0.0019419272
-0.12998712 -0.15922132 -0.14952317 0.17011793 0.29237795 0.94104993 0.0021677495
0.13909104 -0.15619954 -0.14869416 -0.20663093 0.28512561 0.93595248 0.0012628948
0.1555137 -0.15446395 -0.14543477 -0.27327561 0.26333618 0.9251889 0.0014413596
0.16542834 -0.15650488 -0.14153975 -0.29423425 0.23970751 0.92518461 0.001169377
-0.16473594 -0.14194056 -0.14491652 0.32787606 0.20820315 0.92149264 0.00032480151
-0.1554291 -0.14607385 -0.14748421 0.26797155 0.23515528 0.93428755 0.0015832303
-0.14834252 -0.14962146 -0.14915302 0.23813482 0.25270423 0.93778056 0.0015124739
0.16500871 -0.14607812 -0.14392899 -0.31726429 0.21902198 0.92269862 0.00049595622
0.17505598 -0.14381708 -0.14068554 -0.33649358 0.20236339 0.91968536 8.0448728e-05
-0.17353694 -0.13407165 -0.14333674 0.34018439 0.19781992 0.91931599 0
-0.16538031 -0.13562241 -0.14603086 0.33052295 0.20006453 0.92234963 0.00017498479
-0.15669191 -0.13650908 -0.14906457 0.28329608 0.19013846 0.93999505 0.0017830505
0.15572527 -0.13814583 -0.14907262 -0.29123273 0.20835859 0.93368638 0.0013548912
0.16729344 -0.13318656 -0.14584284 -0.33761999 0.19811074 0.9201982 0
0.17503339 -0.13473591 -0.14263922 -0.3404828 0.19750416 0.91927338 0
0.18059811 -0.13456114 -0.14061201 -0.34105605 0.19689168 0.91919225 0
-0.18368779 -0.1231364 -0.14191295 0.34103376 0.19692516 0.91919333 2.0053635e-06
-0.17372656 -0.12371701 -0.14548446 0.33158475 0.19071478 0.92394775 0.0002049873
-0.16679904 -0.12415689 -0.14796054 0.31807086 0.18205446 0.93042314 0.0010269445
0.15961683 -0.12958293 -0.14946301 -0.28787062 0.17353034 0.94181615 0.0025414075
0.16474152 -0.12673998 -0.14817061 -0.31674862 0.18809779 0.9296717 0.0010005163
0.1742308 -0.12490409 -0.1450431 -0.33740854 0.19375496 0.92120284 6.777524e-05
0.18406448 -0.12983438 -0.14033841 -0.34105465 0.19690321 0.91919035 9.4216175e-06
-0.19314927 -0.11332864 -0.14050345 0.3410278 0.19692203 0.91919625 5.0401304e-06
-0.18557975 -0.1150632 -0.14294037 0.34102601 0.19689922 0.91920185 6.8291092e-07
-0.17549318 -0.11443725 -0.14681685 0.32491893 0.18893282 0.926678 0.00048642352
-0.16807942 -0.11546603 -0.14934717 0.30472913 0.1772753 0.93579572 0.0013970917
0.168698 -0.11912972 -0.14833286 -0.31676582 0.17670469 0.93189853 0.0012685064
0.17345981 -0.11514399 -0.14741988 -0.32239786 0.18405151 0.92853898 0.00069445977
0.18822904 -0.11655375 -0.14163812 -0.34106132 0.19691075 0.91918617 0
0.19017281 -0.11170657 -0.14195526 -0.34107506 0.1969163 0.91917992 0
-0.19686727 -0.10547528 -0.14080624 0.34106866 0.19691114 0.91918337 0
-0.18413506 -0.10493521 -0.14564593 0.33983815 0.19641799 0.91974455 2.7078981e-05
-0.17598684 -0.10615315 -0.14840825 0.31860337 0.18399787 0.92985845 0.00069292157
