# .PCD v0.7 - Point Cloud Data file format
VERSION 0.7
FIELDS x y z normal_x normal_y normal_z curvature
SIZE 4 4 4 4 4 4 4
TYPE F F F F F F F
COUNT 1 1 1 1 1 1 1
WIDTH 587
HEIGHT 1
VIEWPOINT 0 0 0 1 0 0 0
POINTS 587
DATA ascii
-0.19254783 0.29406166 -0.044194799 0.42127645 -0.81478029 0.39832059 0.18126994
-0.18809339 0.29724437 -0.043473057 0.40926412 -0.77421749 0.48279411 0.19473617
-0.17899178 0.29997471 -0.047232423 0.31453109 -0.84564871 0.43121737 0.22088373
-0.14309599 0.29011488 -0.046453271 0.39021164 -0.59810209 0.70000619 0.21130559
-0.13346139 0.29579687 -0.046522759 0.50057077 -0.36553124 0.78473938 0.18127546
-0.12921363 0.29636681 -0.048305947 0.32122365 -0.3233436 0.89009225 0.14333156
0.1369478 0.29276505 -0.046493843 -0.40856376 -0.53364706 0.74047041 0.24644518
0.14936543 0.2907474 -0.041975044 -0.36414552 -0.53031176 0.76561576 0.17373358
0.18429014 0.29684135 -0.047732834 -0.19010726 -0.84736758 0.49580979 0.18871246
0.19331066 0.29237273 -0.04694381 -0.36781976 -0.81362689 0.45024431 0.16607691
0.20143345 0.29040226 -0.043334357 -0.21760026 -0.85943896 0.46261743 0.18335165
-0.18239307 0.30287921 -0.04038259 0.34037721 -0.77955419 0.5257743 0.23665047
-0.17429788 0.30406392 -0.045451712 0.69829506 -0.65853339 0.28056699 0.22670892
-0.169229 0.3056539 -0.047449112 0.4971393 -0.81281614 0.30361569 0.18448181
-0.12332834 0.3030152 -0.045470744 0.20755011 -0.29855329 0.93155187 0.21424095
0.10489509 0.30893838 -0.048052199 -0.61019552 -0.3045359 0.73138177 0.20055708
0.11281669 0.30825192 -0.044615928 -0.21301311 -0.64352161 0.73519075 0.22838692
0.12302921 0.3038587 -0.043419123 -0.27958074 -0.5317713 0.7994085 0.19207004
0.13054259 0.3027705 -0.040562846 -0.32502887 -0.57106447 0.75381804 0.1882399
0.17397004 0.30760819 -0.040652785 -0.12952289 -0.81539553 0.56422865 0.20545056
0.18433416 0.30220318 -0.040128529 -0.062646814 -0.81589746 0.57479274 0.20631991
-0.1487792 0.31862348 -0.046413463 0.43219438 -0.82907748 0.35473725 0.19565597
-0.11701361 0.31028587 -0.0423044 0.15540123 -0.19377024 0.96866071 0.21293318
-0.10438401 0.31274059 -0.046917815 0.079564549 -0.24216832 0.96696633 0.21583278
-0.096797429 0.31785884 -0.046389226 0.25435272 -0.46054798 0.85041177 0.20398508
0.088808492 0.31828359 -0.047702435 -0.34442806 -0.36732554 0.86396831 0.23740229
0.10363989 0.31283474 -0.04510605 0.70549351 -0.44506511 -0.5515396 0.20600538
0.11373292 0.31104389 -0.041572277 -0.089997903 -0.60833859 0.78855842 0.20867217
0.15313163 0.31772831 -0.042761929 -0.61786664 -0.61756659 0.48667467 0.17858841
-0.1420875 0.32322907 -0.045572974 0.66216129 -0.49962085 0.55849928 0.1936187
-0.13420723 0.32516533 -0.049421154 0.69406879 -0.60476077 0.39055479 0.19327232
-0.095390216 0.32071593 -0.044563502 -0.016002689 -0.52389508 0.85163248 0.23088171
-0.08218506 0.32652527 -0.046450421 0.11687914 -0.48899707 0.86441958 0.20243746
0.069428146 0.32908893 -0.047698874 -0.21253566 -0.68037426 0.7013697 0.23125884
0.076499596 0.32608071 -0.046839032 -0.029822044 -0.51412046 0.85719937 0.19527435
0.12977798 0.32836357 -0.046122883 -0.16278921 -0.75820404 0.63136852 0.20184022
0.13523991 0.32570165 -0.045583263 -0.20656806 -0.8317579 0.51527506 0.18974324
0.1409425 0.32576764 -0.04100306 -0.53138345 -0.52704215 0.66321814 0.20518886
-0.1249187 0.33650795 -0.041387614 0.52691871 -0.68304443 0.50577354 0.16282985
-0.11657576 0.3378095 -0.046500064 0.34665757 -0.71656787 0.60527611 0.18466632
-0.068423785 0.33782032 -0.043670367 0.23462072 -0.71090966 0.66299373 0.25086385
0.055238564 0.33906448 -0.045793828 -0.57354081 -0.60120857 0.55641645 0.18557939
0.061098304 0.33941588 -0.042460132 -0.38652787 -0.64669704 0.65755528 0.17655487
0.11551537 0.33817965 -0.043487165 -0.50077933 -0.6398263 0.58295995 0.18174085
0.12466577 0.3336806 -0.042638905 -0.30570787 -0.73339045 0.60719115 0.22017971
0.13020861 0.33154297 -0.041295443 -0.25818026 -0.68066359 0.68559468 0.20046656
-0.10575187 0.34526139 -0.045137275 0.48425317 -0.79952478 0.35532948 0.19555195
-0.099800624 0.349217 -0.04458449 0.39031428 -0.83138758 0.39553708 0.18154864
-0.053888064 0.34395266 -0.045985024 -0.0069749458 -0.63457221 0.7728321 0.22025937
0.044455037 0.34546041 -0.045438211 -0.42946303 -0.61018246 0.66576189 0.20364776
0.054200727 0.34191203 -0.043702617 -0.44486839 -0.59410554 0.67017221 0.14933243
0.096231103 0.34746879 -0.04554661 -0.0966966 -0.889534 0.44651887 0.16685818
0.10523486 0.3441458 -0.043153424 -0.5041849 -0.74957353 0.42887896 0.14200775
-0.085083038 0.35619321 -0.047110293 0.38429147 -0.80478692 0.45236948 0.19765738
-0.053178217 0.35093895 -0.040042326 0.59906995 -0.48769957 0.63503093 0.23507638
-0.041807882 0.35194635 -0.045284785 0.53873295 0.071458116 0.83944058 0.25446796
-0.034012403 0.35499957 -0.046739433 -0.35948211 -0.47449952 -0.80350655 0.24440587
0.02760689 0.35250467 -0.047600195 -0.22859658 -0.55962485 0.79659504 0.19244413
0.035189521 0.35107201 -0.045025773 -0.48415145 -0.58817548 0.6478017 0.1787767
0.085519761 0.35452443 -0.044013754 -0.2406849 -0.77971995 0.57802039 0.19521514
-0.033605631 0.36242554 -0.040234461 0.68203717 -0.39840624 0.61326808 0.23397711
-0.012945862 0.36915413 -0.045324132 -0.16849986 -0.25717238 0.95156193 0.18719913
0.0071677021 0.36539787 -0.04621635 -0.057803985 -0.55457741 0.83012199 0.21849145
0.013628436 0.36692151 -0.041493613 -0.29172963 -0.50466359 0.81253207 0.19204356
0.062150344 0.36784351 -0.043598119 -0.53029716 -0.53543246 0.65734082 0.18653083
-0.064491302 0.37058616 -0.04421775 0.43056983 -0.75095326 0.50067842 0.20756471
-0.054792311 0.37561417 -0.045284908 0.6814099 -0.63306886 0.36729339 0.21912242
-0.014775403 0.37210441 -0.041661933 -0.22606304 -0.69279164 0.68478847 0.18440913
-0.0024750901 0.37177771 -0.045289621 -0.52438831 0.057571519 0.8495307 0.25161681
0.002869159 0.37347925 -0.040976483 -0.39606455 -0.4659161 0.79123646 0.27854079
0.039397299 0.37869734 -0.046177927 -0.46351668 -0.58365613 0.66670668 0.18852611
0.056775324 0.37223798 -0.041623466 -0.4009265 -0.69142485 0.60099059 0.17707437
-0.051872477 0.38095826 -0.040292166 0.6110394 -0.66419834 0.43066382 0.1787127
-0.044318296 0.3821668 -0.044879578 0.60938102 -0.66122216 0.43753859 0.1877477
-0.03610976 0.38624579 -0.046027407 0.46536127 -0.77090454 0.43490806 0.17431374
0.025251471 0.38793573 -0.044265985 -0.43792227 -0.67535007 0.59340227 0.20495848
-0.031686246 0.39159682 -0.04227183 0.46567255 -0.64676708 0.60402107 0.17416617
-0.024573395 0.39176184 -0.047941059 0.27123055 -0.6735419 0.68758655 0.16958682
-0.018173585 0.39784563 -0.044807728 0.28411737 -0.81674647 0.50219762 0.1770256
-0.00099143386 0.39889544 -0.049442254 -0.25581917 -0.78167397 0.56880784 0.16142926
0.01272199 0.39356351 -0.046179499 -0.41595483 -0.66130221 0.6242283 0.20032731
0.023040317 0.39134634 -0.041190803 -0.47241914 -0.54931521 0.68925542 0.2114819
-0.010067876 0.40600532 -0.040209029 -0.0050056754 -0.85660595 0.51594692 0.15077186
-0.0043071741 0.40515658 -0.042551197 -0.14429483 -0.8870368 0.43857107 0.17664644
0.0036801416 0.40150848 -0.042077463 -0.27118909 -0.84039915 0.46923941 0.18338588
-0.0060939156 -0.40609166 -0.033707883 -0.34615764 0.56768513 0.74693274 0.22860149
0.00031290296 -0.4069204 -0.037578996 0.32685906 0.81041324 0.48620319 0.22732851
0.013126209 -0.40856695 -0.034119278 -0.21033573 0.68200761 0.70044601 0.14600424
0.022790704 -0.40140218 -0.036045164 -0.28873444 0.72339362 0.62716353 0.16374373
0.032034963 -0.40019611 -0.03005288 -0.18531264 0.60543841 0.77401781 0.13091449
-0.034193989 -0.39096281 -0.032956157 0.38067457 0.71784496 0.58291131 0.20622051
-0.022625385 -0.39606526 -0.03485528 0.51165396 0.72289354 0.46436533 0.19598839
-0.012980616 -0.39856541 -0.038914494 0.15645489 0.70613223 0.69057888 0.19777486
0.032725148 -0.39539868 -0.036136072 -0.17494512 0.69684404 0.69555908 0.20640507
-0.043055408 -0.38438174 -0.035274655 0.42062241 0.5724889 0.70379919 0.20096375
-0.0030976273 -0.38515675 -0.030097168 -0.098595113 0.97680932 0.1900595 0.25509569
0.010968151 -0.38148159 -0.035230599 -0.11307818 0.31191465 0.94335711 0.24636824
0.045348115 -0.38558912 -0.039277807 -0.30645254 0.67168868 0.67447841 0.16665906
0.051879771 -0.38583869 -0.033515476 -0.37075847 0.73610407 0.56629395 0.2134127
0.0643503 -0.3801637 -0.031047734 -0.45020235 0.74822044 0.48732325 0.1939376
-0.064618342 -0.37432358 -0.032507949 0.36710635 0.769889 0.52201903 0.17540215
-0.014008601 -0.37441 -0.03439701 0.37041077 0.70796144 0.60132062 0.2268659
-0.0087827649 -0.37242115 -0.038914114 0.32991585 0.79412109 0.51041865 0.24802692
0.0089751342 -0.37793666 -0.039519802 -0.026672767 0.88780701 0.45944229 0.25068316
0.019876041 -0.37991387 -0.031828489 -0.19622092 0.63558298 0.74668044 0.24548955
0.023890313 -0.37589592 -0.03329429 -0.028637206 0.76974005 0.63771492 0.20136507
0.033649981 -0.37117007 -0.032291215 -0.36529097 0.87149209 0.32720637 0.23179527
0.066827297 -0.37751031 -0.032674849 -0.5915488 0.60038102 0.53815675 0.20196053
-0.081395432 -0.36527291 -0.032084621 0.32331142 0.84949189 0.41693318 0.18732181
-0.076455571 -0.36546651 -0.035698112 0.28846669 0.79426622 0.53472251 0.22468801
-0.035580724 -0.36082304 -0.035838343 0.43571204 0.66720706 0.60414374 0.17496701
-0.028031414 -0.36782041 -0.033267234 0.43629915 0.59706932 0.6731652 0.24236701
0.034230635 -0.36682642 -0.035910614 -0.18396057 0.94427836 0.27294102 0.21409498
0.073346242 -0.36979026 -0.037979342 -0.57261753 0.40423179 0.71323621 0.21718617
0.082562 -0.36902055 -0.031405363 -0.30349165 0.64791858 0.69863749 0.20821403
-0.10392099 -0.35323223 -0.031359326 0.44890362 0.48242077 0.75216728 0.15028836
-0.08956226 -0.35931191 -0.034074239 0.35784715 0.76929891 0.52926791 0.20440581
0.048298657 -0.35824895 -0.036063485 -0.57537514 0.69360816 0.43341795 0.21050403
0.057323873 -0.35369283 -0.035304256 -0.58498943 0.68326241 0.43696654 0.23161256
0.10303426 -0.35502765 -0.033841997 -0.60277861 0.71536541 0.35342649 0.20339338
-0.11764846 -0.34356809 -0.034201603 0.3210215 0.58897966 0.74165237 0.14344673
-0.10506092 -0.34899583 -0.036443241 0.41866001 0.58776355 0.69228452 0.17174484
-0.055240165 -0.34581485 -0.039571878 0.43772808 0.65494394 0.61598915 0.2220735
0.058829814 -0.34895062 -0.038783729 -0.8269996 0.39996633 0.39509323 0.22252826
0.064612992 -0.34609142 -0.038242634 -0.51784641 0.5619449 0.64502168 0.22323172
0.070532791 -0.34809113 -0.033227261 -0.76224869 0.41878071 0.49355817 0.2420301
0.081546761 -0.34308147 -0.031802215 -0.35339919 0.82094699 0.44850305 0.22141632
0.10476556 -0.34982705 -0.03962113 -0.44230074 0.78629345 0.4314079 0.18509428
0.11148971 -0.3490544 -0.035117306 -0.49814677 0.70184273 0.50918221 0.16756286
0.12416252 -0.34292608 -0.033110756 -0.46460915 0.62099314 0.63127333 0.14404862
-0.13411838 -0.3343749 -0.03422118 0.37000087 0.71377373 0.59466505 0.20412526
-0.083535604 -0.33392119 -0.035999272 0.29474476 0.59985274 0.74384284 0.22971237
-0.078166135 -0.33771947 -0.035256788 0.31804103 0.86730057 0.3829354 0.22261244
-0.068158627 -0.33839461 -0.039774884 0.13773341 0.87812954 0.45816812 0.25008342
0.07727553 -0.33834833 -0.038400725 -0.17955151 0.74655372 0.64063936 0.20928459
0.08705239 -0.33791125 -0.033504292 -0.2982209 0.8284741 0.47401997 0.22525771
0.12728465 -0.33685789 -0.038940281 -0.34689218 0.86411667 0.36464801 0.14380197
0.13379201 -0.33652592 -0.034004826 -0.37923399 0.76059061 0.52695686 0.17881902
0.14039379 -0.33341977 -0.032839756 -0.28244087 0.83391565 0.47414333 0.21597221
-0.16201821 -0.32001823 -0.032536868 0.33925277 0.66718072 0.66315717 0.19120948
-0.1534833 -0.32621405 -0.030505413 0.093401305 0.68307811 0.72434831 0.19754836
-0.14521153 -0.32720768 -0.035611104 0.38308668 0.72700477 0.56983209 0.22363493
-0.10358015 -0.32689229 -0.032181315 0.50221312 0.64484882 0.57615268 0.23927133
-0.097350761 -0.32826555 -0.03411543 0.38065314 0.35761595 0.85276842 0.20781441
0.099333219 -0.32994398 -0.034072001 0.057939041 0.86832398 0.49260181 0.21193342
0.1136533 -0.32237244 -0.033177454 -0.67363185 0.34181255 0.65527421 0.23360886
0.15492626 -0.32293549 -0.035334229 -0.5245679 0.69351369 0.49382928 0.20813476
0.16171187 -0.32147592 -0.031732351 -0.40492827 0.69950449 0.58883506 0.18345271
-0.16687135 -0.31519958 -0.035521079 0.39353895 0.75633609 0.52257323 0.19671935
-0.12449645 -0.31440589 -0.032945249 0.5866071 0.77126944 0.2470538 0.19983996
-0.11507466 -0.31551763 -0.036760107 0.24595821 0.58245534 0.77475822 0.20082127
-0.10447248 -0.31972569 -0.038327735 0.37525979 0.51422703 0.77120078 0.23990598
0.12615867 -0.31418774 -0.033820495 -0.77603614 0.59209621 0.21723263 0.2278686
0.16470338 -0.3165378 -0.036102436 -0.33936173 0.83319062 0.43660843 0.17325388
-0.18379268 -0.30557838 -0.035789732 0.50879496 0.57448393 0.64116764 0.16876954
-0.14748193 -0.3021107 -0.032470122 0.19765836 0.746252 0.63564062 0.21860136
-0.13627608 -0.30434498 -0.036166858 0.4266538 0.71405202 0.55506426 0.23307964
0.0078225238 -0.3001492 -0.030111637 -0.13557458 0.76811194 0.62579834 0.062283866
0.13254194 -0.30661964 -0.0372191 -0.59457266 0.61179978 0.5217129 0.22714521
0.14172897 -0.30472934 -0.033957988 -0.30185649 0.63220739 0.71358001 0.24670658
0.18536451 -0.30240855 -0.038571626 -0.40375891 0.7790795 0.47959763 0.16937289
-0.20711681 -0.29015672 -0.039209217 0.67643082 0.51828837 0.52327675 0.21442215
-0.19153984 -0.2993536 -0.038481936 0.38912454 0.71785343 0.57729411 0.18474112
-0.16191131 -0.29451045 -0.032062955 0.54418671 0.57801729 0.60807627 0.23492388
-0.15563992 -0.29551658 -0.034356941 0.41016719 0.75862229 0.50621647 0.22825125
-0.14205655 -0.298922 -0.038195554 0.11060495 0.700966 0.70456588 0.22650601
-0.0076618851 -0.2947 -0.030638548 0.23920293 0.74555111 0.62204146 0.056646656
0.0059651756 -0.29297024 -0.033982396 -0.13842994 0.7642445 0.62989485 0.053503927
0.014866736 -0.29114249 -0.034451537 -0.30846676 0.75199682 0.58253682 0.041822307
0.1488916 -0.29852054 -0.035703696 -0.28814483 0.75199342 0.59285611 0.24551573
0.1578709 -0.29765826 -0.031624056 0.16682389 0.76821572 0.61807328 0.22071131
0.19437069 -0.29779288 -0.037506916 -0.53079379 0.6355527 0.56065196 0.19844532
0.2056133 -0.29275459 -0.03517409 -0.40931466 0.65746015 0.63261974 0.19627714
-0.22250594 -0.28526297 -0.034009364 0.33185685 0.40921852 0.84994787 0.1915848
-0.21735239 -0.28401065 -0.039832331 0.71739882 0.58195621 0.38296992 0.20608164
-0.190543 -0.2802498 -0.030499052 0.24163252 0.97024459 -0.015468644 0.17516987
-0.17791989 -0.28358305 -0.033910908 0.53771889 0.69095558 0.48315495 0.20422955
-0.16503584 -0.28611475 -0.038195521 0.49308658 0.55573338 0.66934752 0.23511328
-0.023285598 -0.2817598 -0.034535822 0.39998466 0.6553027 0.64077348 0.026038399
-0.017118698 -0.28631306 -0.033508033 0.35498008 0.65270221 0.66930491 0.023787931
-0.0044384981 -0.28591502 -0.038210552 0.17047071 0.63349527 0.75473398 0.029737627
0.013159155 -0.28733772 -0.037279498 -0.27868906 0.77760553 0.5636152 0.036291271
0.025442788 -0.28589627 -0.031673241 -0.43175453 0.71056342 0.55559671 0.032684695
0.036383856 -0.28105816 -0.031939041 -0.40230229 0.72646946 0.55713099 0.033666112
0.1635083 -0.28754616 -0.03773028 -0.30268481 0.33902687 0.89075392 0.19592002
0.17239185 -0.28733769 -0.033110362 -0.62028575 0.36525306 0.69414401 0.20193653
0.18525891 -0.28227475 -0.030730508 -0.50331211 0.77593559 0.38026422 0.23808278
0.2192698 -0.28142533 -0.039567113 -0.38113794 0.60040247 0.70302963 0.17354792
0.22275212 -0.28475302 -0.032063 -0.41375691 0.63322318 0.65408999 0.15349616
-0.23937887 -0.27695441 -0.032462917 0.14102036 0.50668949 0.85051692 0.16592854
-0.20740265 -0.27136958 -0.030023215 0.55668896 0.62548578 0.54668546 0.22147039
-0.19584116 -0.27296042 -0.03449554 0.61590475 0.73578644 0.28156632 0.21423888
-0.034743503 -0.27382544 -0.035214879 0.5244655 0.69777775 0.48789564 0.03704055
0.027309766 -0.27809298 -0.039529648 -0.42723066 0.73408294 0.52782214 0.018363399
0.038405828 -0.27345631 -0.034825761 -0.41234201 0.70028561 0.58272988 0.018790552
0.044137128 -0.27319428 -0.031757265 -0.41097733 0.70984507 0.57202941 0.028230092
0.1795994 -0.27746025 -0.038154181 -0.51187515 0.36395368 0.77815264 0.21899065
0.18732239 -0.27237359 -0.038580272 -0.25156894 0.63237625 0.73267549 0.21429911
0.19550422 -0.27450505 -0.032221135 -0.26249006 0.86209983 0.43345457 0.23851451
0.22925872 -0.27736554 -0.036916375 -0.37057847 0.63980436 0.67329192 0.1793945
0.23359495 -0.27756071 -0.033049963 -0.29933488 0.64646959 0.70176613 0.16558361
0.24130175 -0.27219668 -0.034100957 -0.35992455 0.6699363 0.64933789 0.16375957
-0.26619184 -0.26154441 -0.03312093 0.21337286 0.86169642 0.46038157 0.21799147
-0.25291806 -0.26561835 -0.037813667 0.19734012 0.67284364 0.71297854 0.2250798
-0.22586606 -0.26086581 -0.030219831 0.31694219 0.75599176 0.57273382 0.20327973
-0.21524525 -0.26317811 -0.033544164 0.36210862 0.84834898 0.38624004 0.19999768
-0.20368035 -0.26731077 -0.035675701 0.58597231 0.78112489 0.21559294 0.19119391
-0.05397683 -0.26771227 -0.031720053 0.36122638 0.68939734 0.62789077 0.02860642
-0.045028217 -0.26616681 -0.037058257 0.42918038 0.74223888 0.51467043 0.026287591
0.056631714 -0.26322976 -0.031637151 -0.42763424 0.72168916 0.54432869 0.02828119
0.19430947 -0.26860338 -0.038212553 -0.10400362 0.68874675 0.71750349 0.22684497
0.20423926 -0.26482067 -0.036263235 -0.29811245 0.36655149 0.88134497 0.20095269
0.21037367 -0.26453209 -0.033203982 -0.5582965 0.59528035 0.5778808 0.26616782
0.24703443 -0.2694253 -0.033192124 -0.37598416 0.63445574 0.67535311 0.15267532
0.25412291 -0.2623139 -0.03717998 -0.47837648 0.60689759 0.63468993 0.13784687
-0.27879226 -0.25470975 -0.032855369 0.25259978 0.67805731 0.6902402 0.17155436
-0.23528704 -0.2534897 -0.032178614 0.42962798 0.88912374 0.15773007 0.20827743
-0.2210926 -0.25939468 -0.03402748 0.31987435 0.77048194 0.55139631 0.193886
-0.21745813 -0.25891727 -0.036334272 0.2889902 0.70648503 0.64603686 0.17717479
-0.074933141 -0.25473684 -0.032913104 0.37076098 0.68496823 0.6271801 0.027474411
-0.065940253 -0.25636727 -0.036026943 0.39653736 0.72606945 0.56176615 0.027572822
-0.059400585 -0.25603446 -0.03681507 0.37821132 0.71424162 0.58891016 0.020522539
0.066954598 -0.25452107 -0.039417148 -0.43488902 0.72966117 0.52769881 0.01867632
0.074153334 -0.25305051 -0.036232769 -0.41581389 0.68278801 0.60074896 0.025435196
0.082655534 -0.25430152 -0.031124195 -0.40107456 0.71533036 0.57222509 0.041108321
0.2066628 -0.25981939 -0.039480627 -0.32187521 0.26082417 0.91014677 0.19221254
0.21414369 -0.25886482 -0.036295693 -0.40293771 0.52442384 0.75008059 0.21664271
0.22795844 -0.25303468 -0.034097616 -0.0769668 0.48789743 0.86950111 0.20172372
0.26890793 -0.25549626 -0.034378223 -0.49517024 0.72107112 0.48462656 0.15321562
0.27221856 -0.25508818 -0.032199141 -0.47923908 0.6609326 0.57749289 0.1887186
-0.29501027 -0.24656743 -0.03158956 0.15246177 0.82822722 0.53925431 0.12829624
-0.2818608 -0.24872664 -0.038887657 0.24775735 0.78509611 0.56766218 0.17990184
-0.2534647 -0.24257946 -0.032896627 -0.015904343 0.83268034 0.55352551 0.20238057
-0.24565354 -0.24106421 -0.038305216 0.4602249 0.7255407 0.51164806 0.20500311
-0.093250722 -0.24060652 -0.033950649 0.38543412 0.70579863 0.59438103 0.02117601
-0.086120836 -0.24900523 -0.032449223 0.39462966 0.6819545 0.61579663 0.027530879
0.078857973 -0.24849129 -0.038435381 -0.40630862 0.7092585 0.57607782 0.025223471
0.082705282 -0.2451586 -0.039370183 -0.40423644 0.69013494 0.60025549 0.02031431
0.092507154 -0.24215971 -0.030956699 -0.42498142 0.69291383 0.58246136 0.032770708
0.22625107 -0.24905887 -0.038622428 -0.029083665 0.5087527 0.8604213 0.19852243
0.23404181 -0.24583787 -0.037322301 -0.16439553 0.54895264 0.81952739 0.20244008
0.24190971 -0.24081305 -0.037613973 -0.27862015 0.42184857 0.86279464 0.22005667
0.284933 -0.24429429 -0.036630586 -0.54367805 0.63582665 0.54784912 0.2100545
0.29296863 -0.24097395 -0.034573674 -0.32938328 0.6155737 0.71594387 0.16741596
-0.31800431 -0.23400621 -0.031230554 0.56339842 0.64184779 0.5202055 0.13496655
-0.30754998 -0.23463947 -0.038562395 0.42909166 0.66384715 0.6125254 0.14817539
-0.29939854 -0.23901741 -0.038795549 0.20625968 0.68336362 0.7003364 0.10391212
-0.28108045 -0.23025836 -0.030067082 -0.24560323 0.699534 0.67106724 0.20234138
-0.27413011 -0.23229879 -0.031756595 0.33993167 0.78734279 0.51433223 0.25945929
-0.26556632 -0.23142609 -0.036959618 0.48497203 0.57572615 0.65828687 0.24852169
-0.25928101 -0.23529918 -0.036618594 0.32135418 0.77078336 0.55011296 0.23694323
-0.11659038 -0.23248559 -0.032023579 0.41991004 0.75024194 0.5106982 0.026452908
-0.1037719 -0.23359379 -0.03564807 0.4030478 0.71481007 0.57148844 0.019369386
-0.095485538 -0.23711628 -0.034600534 0.39286512 0.67078137 0.62905419 0.016564006
0.095694244 -0.23753123 -0.035922982 -0.45269334 0.69946653 0.5530057 0.025681306
0.10309672 -0.23226471 -0.037458226 -0.38334161 0.69270921 0.61090362 0.025100268
0.11259318 -0.23141325 -0.035643093 -0.3701807 0.66699231 0.64659691 0.027859077
0.30333471 -0.23507483 -0.034161899 -0.34786552 0.69397223 0.63039041 0.19519699
-0.33382341 -0.22048295 -0.037875228 0.57828641 0.71138716 0.39939103 0.16189352
-0.32372764 -0.2273459 -0.036130045 0.51178437 0.66181332 0.54779553 0.15442359
-0.28631291 -0.22367202 -0.033449411 0.13565919 0.53381515 0.83464837 0.20482209
-0.27921876 -0.22713602 -0.033900846 -0.16300613 0.52711838 0.83401155 0.20898402
-0.1333459 -0.22413717 -0.03111189 0.35063532 0.76845002 0.53529376 0.031722568
-0.12415651 -0.22458351 -0.03353579 0.38940647 0.79100424 0.4718844 0.018885594
-0.11572421 -0.22581723 -0.036910992 0.40161657 0.77361327 0.49012929 0.01422264
-0.10703677 -0.22794279 -0.039676659 0.40853044 0.75067025 0.51922745 0.015753115
0.11497668 -0.22744165 -0.034372788 -0.37163562 0.73187625 0.5711779 0.018141445
0.27611557 -0.22616431 -0.032364454 -0.76298547 0.51891887 0.38545609 0.22873062
0.28106195 -0.22348273 -0.032115493 -0.17233652 0.89474624 0.41198197 0.2300085
0.30651882 -0.22984847 -0.038772147 -0.58497614 0.64572209 0.49076045 0.16732943
0.31125185 -0.22814918 -0.037204899 -0.44479629 0.76661777 0.46309108 0.17741355
-0.35576957 -0.21046618 -0.031721517 0.69192821 0.36787349 0.62121218 0.13523151
-0.34500971 -0.21612321 -0.035228387 0.53842741 0.61844409 0.57238352 0.18494709
-0.33839554 -0.21980664 -0.035232492 0.39719346 0.69003493 0.60505307 0.18358164
-0.29786044 -0.2159455 -0.034638826 0.2063899 0.51182497 0.83392948 0.19810231
-0.15244628 -0.21155368 -0.032896474 0.44953328 0.6576075 0.60454297 0.03153773
-0.14879325 -0.21474668 -0.031831101 0.36943185 0.68828392 0.6243279 0.026118496
-0.1320222 -0.2172827 -0.036231443 0.38615084 0.74251604 0.54731834 0.016251078
-0.126747 -0.2187634 -0.039446618 0.38822851 0.72673541 0.56668711 0.01379067
0.12831815 -0.21602261 -0.039586186 -0.44049323 0.66588384 0.60213321 0.010896779
0.13771154 -0.21413727 -0.03553668 -0.45403481 0.66809082 0.58949727 0.0158442
0.1416197 -0.21552044 -0.032937247 -0.47253823 0.71859843 0.51021957 0.016874384
0.27643019 -0.21800697 -0.039581645 -0.39765933 0.4787837 0.78270888 0.20599633
0.28703421 -0.21585104 -0.035794117 -0.18448479 0.60640848 0.77345592 0.20927595
0.29321027 -0.21246207 -0.035520129 -0.38783449 0.67675179 0.62577271 0.23245127
0.33545655 -0.21502917 -0.035335582 -0.19828227 0.67798066 0.70783204 0.18143129
0.34483999 -0.21138766 -0.032606654 -0.24502929 0.68364233 0.68745458 0.2128351
-0.35328186 -0.20366025 -0.035908304 0.68557096 0.29707691 0.66463351 0.17845304
-0.31672823 -0.20485198 -0.035171259 0.55051792 0.17730179 0.8157782 0.21182121
-0.3040047 -0.2071058 -0.0396295 0.46288195 0.2476778 0.85111463 0.20612876
-0.17249531 -0.20273978 -0.030723166 0.41170961 0.68549961 0.60048777 0.03992046
-0.1633286 -0.20607488 -0.032356542 0.43553996 0.72516763 0.53332621 0.04399864
-0.15523614 -0.20439474 -0.037062734 0.39698425 0.64105749 0.6568476 0.025064299
0.14571393 -0.20836878 -0.038581807 -0.50971103 0.70697278 0.49028984 0.019371016
0.15336081 -0.20407809 -0.03540621 -0.43025586 0.76067466 0.48605958 0.015509423
0.30529699 -0.20580488 -0.03500643 -0.75766671 0.59615064 0.26560402 0.21380514
0.31273806 -0.20547827 -0.031274356 -0.60704821 0.67986828 0.41142613 0.21707
0.35401702 -0.20543203 -0.033259235 -0.61714792 0.33171466 0.71350807 0.18680464
0.36163867 -0.20135799 -0.032311935 -0.73795062 0.28850225 0.61007822 0.12490034
-0.35467163 -0.19309902 -0.03392075 0.80081606 0.11579345 0.58761001 0.17443869
-0.33329329 -0.19206853 -0.031973012 0.83111048 0.3591432 0.42458394 0.27221578
-0.32512915 -0.19530699 -0.037798278 0.43006641 0.2242005 0.87451524 0.26163515
-0.18481418 -0.19600335 -0.030604038 0.39281759 0.71048683 0.58386886 0.043802023
-0.17658095 -0.19493653 -0.034653682 0.42186943 0.71522492 0.55720699 0.035234187
-0.16604067 -0.19688292 -0.036289379 0.40885836 0.72652048 0.55227059 0.034412857
0.1592503 -0.19834876 -0.038100526 -0.41972807 0.75586772 0.50248617 0.012615122
0.1656343 -0.19635186 -0.03742256 -0.3692795 0.74317193 0.55796784 0.020087756
0.17112325 -0.19136378 -0.037896976 -0.40312925 0.72128713 0.56323326 0.020372704
0.18746479 -0.19147088 -0.031291403 -0.40182531 0.70691264 0.5820747 0.036107205
0.31725925 -0.19503012 -0.038289137 -0.55388242 0.70170707 0.44813108 0.20043021
0.32190582 -0.19986857 -0.03139209 -0.58461624 0.43791965 0.68297166 0.20989007
0.3309328 -0.19291338 -0.03280456 -0.4181917 0.78341365 0.45975959 0.24426919
0.35723358 -0.19360286 -0.039240967 -0.73744947 0.1406007 0.66060549 0.16704386
0.36245531 -0.1912321 -0.030744415 -0.74216586 0.033205967 0.66939318 0.16335781
-0.35483903 -0.18677552 -0.033804968 0.84175569 -0.020711618 0.5394612 0.1713393
-0.33265975 -0.18762723 -0.032712273 0.72164851 0.28949368 0.62882173 0.27301946
-0.32759973 -0.18867496 -0.038033605 0.26610345 0.44625932 0.85442472 0.21792823
-0.191991 -0.18538985 -0.030777976 0.43998399 0.71822023 0.53904897 0.032333694
0.17880104 -0.1891097 -0.038113557 -0.40863395 0.70534146 0.57923371 0.023405196
0.18326832 -0.18703935 -0.03619564 -0.41579443 0.68103325 0.6027509 0.021981867
0.19498299 -0.1854126 -0.030711045 -0.40147156 0.67581987 0.61813271 0.034563161
0.33677506 -0.18283169 -0.034287252 -0.87802052 0.36848682 0.30544633 0.28501871
0.35742792 -0.18084149 -0.038614742 -0.63436639 -0.090747759 0.7676875 0.18295708
-0.35238448 -0.17418343 -0.038079645 0.88082045 0.062381681 0.46932277 0.21408011
-0.33219332 -0.17784174 -0.033360615 0.6249727 0.073917344 0.77713919 0.23626539
-0.32933736 -0.17527953 -0.03641443 0.63428205 0.014380966 0.77296788 0.23599513
-0.22700523 -0.17123264 -0.031760506 0.39480388 0.69190961 0.60447574 0.04487399
-0.21238285 -0.17476662 -0.033291794 0.3760092 0.72449821 0.57768458 0.03530062
-0.20565714 -0.17567231 -0.036829919 0.40612358 0.67316276 0.61799324 0.025380395
0.19907147 -0.17527193 -0.039671578 -0.4455131 0.66448009 0.59998697 0.021638282
0.2156965 -0.17229138 -0.033377077 -0.41747758 0.6870774 0.59467393 0.029768553
0.33290806 -0.17245173 -0.038200933 -0.59982413 0.65338475 0.46184346 0.18807963
0.34029672 -0.17986171 -0.030524658 -0.97674763 0.10366697 -0.18766268 0.23923442
0.36084002 -0.17837764 -0.033040352 -0.59869152 0.106754 0.79383379 0.21784501
-0.3520318 -0.16491455 -0.038876332 0.78955472 -0.31245199 0.52818292 0.18865968
-0.24091221 -0.16495889 -0.030400323 0.46109721 0.67335677 0.57791013 0.044468716
-0.23555076 -0.16057965 -0.034748174 0.45924258 0.63491911 0.62126797 0.033124872
-0.22645248 -0.16608949 -0.034255695 0.39783433 0.70711797 0.58456147 0.041550845
0.21666132 -0.16648929 -0.033622347 -0.43101254 0.72556794 0.53645068 0.024675898
0.22408479 -0.16314287 -0.0316335 -0.45045105 0.69233751 0.56370437 0.029744193
0.23339833 -0.16433395 -0.031003503 -0.44782987 0.65120298 0.61268514 0.037127532
0.33916062 -0.16728248 -0.031522274 -0.92037684 0.37827623 0.099064119 0.22359262
0.35801327 -0.16527843 -0.037288032 -0.67902893 0.19317003 0.70824081 0.19951586
0.36001307 -0.16978335 -0.034166526 -0.56585789 0.099940114 0.81842339 0.2051708
-0.35432354 -0.15621087 -0.035385687 0.82986248 -0.056359489 0.55511427 0.18429954
-0.33195099 -0.15606223 -0.033964097 0.46819836 -0.15559667 0.86981606 0.1786461
-0.32776725 -0.15678695 -0.038366154 0.53880113 -0.051931988 0.84083074 0.20243274
-0.2450942 -0.15649912 -0.033781603 0.47082785 0.48182088 0.73903292 0.035885997
-0.23499735 -0.1582263 -0.037774753 0.45448118 0.55411237 0.69742835 0.027457615
0.22452155 -0.15889356 -0.038906064 -0.44641578 0.66941655 0.59379661 0.026159815
0.23197477 -0.15723014 -0.033815831 -0.4715308 0.70660949 0.52760005 0.02680956
0.24271566 -0.15369081 -0.03360986 -0.43814319 0.69287586 0.57267219 0.034294598
0.33164316 -0.15470082 -0.039251901 -0.67957234 -0.056093641 0.73146087 0.19319226
0.3567459 -0.1558264 -0.039104957 -0.90116036 0.018443214 0.43309334 0.19461934
0.36008626 -0.15606624 -0.033712666 -0.82607263 -0.14495429 0.54460275 0.17135541
-0.35288441 -0.14657748 -0.037947055 0.87878639 0.086009152 0.46940053 0.18029745
-0.33133435 -0.14486122 -0.0347935 0.78302884 0.22686714 0.57913476 0.23943517
-0.32952765 -0.1481936 -0.036646243 0.71780008 0.047778994 0.69460791 0.20978718
-0.25377494 -0.14854923 -0.033974592 0.55542886 0.36156619 0.74884498 0.046553884
0.24228574 -0.14860824 -0.038299587 -0.43799636 0.59616411 0.67286527 0.03431816
0.25287163 -0.14378512 -0.037359901 -0.53121901 0.39902547 0.7473855 0.051707551
0.26281729 -0.14663853 -0.031104226 -0.63823497 0.34874532 0.68631846 0.077277534
-0.35591188 -0.13055584 -0.033446565 0.85976481 -0.083456807 0.50382483 0.23705481
-0.33146545 -0.13170004 -0.034865376 0.6615299 0.052307237 0.74809235 0.20137905
-0.25243089 -0.13373011 -0.032856707 0.78054637 0.10474815 0.61625904 0.037178475
0.25357395 -0.13987613 -0.039226931 -0.57416517 0.35192508 0.73924494 0.055451494
0.26096258 -0.13534725 -0.033026192 -0.729424 0.1956895 0.65547413 0.046273712
0.33353058 -0.13267002 -0.036908917 -0.74643874 -0.2672601 0.60942698 0.21652015
0.36096546 -0.13549823 -0.031788621 -0.81773943 0.0052302615 0.57556468 0.18289164
-0.3541638 -0.12569554 -0.03639036 0.92630088 0.037792873 0.37488431 0.21231258
-0.33213732 -0.12344658 -0.03428838 0.65201235 -0.15910754 0.74132639 0.21623957
0.25402528 -0.12094279 -0.03765941 -0.74186558 0.046213802 0.66895431 0.016217967
0.33149767 -0.123418 -0.038905777 -0.66381323 -0.15344463 0.73198819 0.19212495
0.35869053 -0.12545542 -0.035219271 -0.73810166 0.1517224 0.65740871 0.20322807
0.36118841 -0.12509525 -0.031173794 -0.73925978 0.042622451 0.67207015 0.19534506
-0.35388678 -0.11567725 -0.037083134 0.8999784 -0.074568018 0.42950967 0.18506663
-0.25558555 -0.11499327 -0.034699198 0.78301036 0.033873521 0.62108564 0.02757938
0.25498927 -0.11395472 -0.035387062 -0.78259856 0.015371127 0.62233686 0.020302167
0.33663723 -0.11340179 -0.033323854 -0.7436626 -0.024383368 0.66811037 0.23932205
0.35943237 -0.1167248 -0.033806883 -0.77802545 0.22605756 0.58615232 0.18389563
0.36046118 -0.11411652 -0.032080475 -0.83394241 0.07696379 0.54645824 0.16600269
-0.35594088 -0.10571191 -0.034007527 0.80046505 -0.043022901 0.5978334 0.19377966
-0.33567095 -0.10486314 -0.030857392 0.87047291 0.088849477 0.48413092 0.24558723
-0.3282153 -0.10839995 -0.038666222 0.75168538 -0.0014310415 0.65952033 0.22303785
-0.25139552 -0.10018002 -0.036134899 0.81696641 -0.024130275 0.57618016 0.024814365
0.25450119 -0.10719854 -0.039387546 -0.71492273 -0.024821909 0.69876277 0.0086220615
0.2616252 -0.10480697 -0.031840418 -0.79967564 -0.012776546 0.60029626 0.034655754
0.33391505 -0.10385145 -0.036043059 -0.8812266 0.42167231 0.21361688 0.20721592
0.35745695 -0.10280405 -0.036658693 -0.82106417 0.0052215094 0.57081199 0.17763032
0.36033377 -0.10596845 -0.032086991 -0.77613205 -0.033901431 0.6296584 0.15356606
-0.35707998 -0.093096465 -0.032475296 0.74883288 0.013752129 0.66261613 0.19316356
-0.33410263 -0.093982756 -0.032685645 0.7268914 -0.23902145 0.64381498 0.2173166
-0.25687876 -0.097248346 -0.033619229 0.84233606 -0.014885263 0.53874707 0.037586775
0.2545146 -0.094410487 -0.035766777 -0.80806285 -0.051698256 0.58682334 0.019593516
0.26139578 -0.093294613 -0.03189854 -0.81514877 -0.051321715 0.57697362 0.027714722
0.33503687 -0.094489016 -0.03471005 -0.97674143 0.1778172 0.11982114 0.21976712
0.35723358 -0.095658004 -0.036844846 -0.84438556 -0.037612449 0.53441399 0.18627046
-0.35607964 -0.08789701 -0.034219064 0.67629009 -0.014347021 0.73649567 0.18784402
-0.33302119 -0.085256264 -0.033965893 0.8891589 0.11393092 0.44318858 0.22553267
-0.32846609 -0.082464516 -0.038815875 0.7497955 0.032178946 0.6608867 0.20297612
-0.25438729 -0.089661606 -0.036366411 0.87940943 -0.035880569 0.47471219 0.018190855
0.25671244 -0.08588092 -0.034212958 -0.81422198 -0.040904175 0.5791108 0.026977584
0.26160073 -0.088440523 -0.031605061 -0.80889362 -0.068000175 0.58400953 0.032202378
0.33655882 -0.084985346 -0.032952745 -0.98234957 0.17480421 0.066579133 0.21100996
0.35528323 -0.088078484 -0.039811235 -0.82805938 -0.10275347 0.55114371 0.11990204
-0.33241248 -0.075277232 -0.034767427 0.66573006 0.085445501 0.74128437 0.22859365
-0.25404918 -0.073534884 -0.036980115 0.8817516 0.010147003 0.47160488 0.017520519
0.25449258 -0.075511143 -0.035205781 -0.79589355 0.021473095 0.60505569 0.032943536
0.26205802 -0.074330226 -0.030897895 -0.81610113 0.029893296 0.57713544 0.046530064
0.33364353 -0.073361821 -0.035842583 -0.76418382 -0.25019512 0.59449607 0.2289298
0.35571557 -0.071545526 -0.038708091 -0.94020778 0.0061859912 0.34054527 0.16840994
-0.35855573 -0.066907436 -0.030731043 0.68599415 -0.045929436 0.72615594 0.22134031
-0.25190723 -0.064000018 -0.038578082 0.85240656 0.033907119 0.521779 0.019571221
0.25605547 -0.067216195 -0.03461571 -0.80291563 0.0016306302 0.5960905 0.032593299
0.26044932 -0.064960755 -0.032444041 -0.81742185 0.0012127486 0.57603818 0.04174811
0.33730257 -0.062367722 -0.031806882 -0.95409244 -0.0020836724 0.29950514 0.24930669
0.35722148 -0.066909119 -0.036161065 -0.88548976 0.040431559 0.46289644 0.17519791
-0.35471055 -0.055436306 -0.037225686 0.905092 0.032730903 0.42395419 0.20611744
-0.33295205 -0.05334707 -0.034548447 0.95670891 -0.0026845774 0.29103422 0.20095153
-0.32926694 -0.056264289 -0.038389452 0.918001 -0.0024176338 0.39657062 0.20553985
-0.25512674 -0.05714497 -0.036105849 0.84731454 0.02893208 0.53030288 0.02225267
0.25548393 -0.053950388 -0.034683753 -0.78216016 -0.047807813 0.62124074 0.027596049
0.2613773 -0.057336979 -0.031344254 -0.79704124 -0.056140516 0.60130972 0.035169546
0.33522236 -0.05356542 -0.033860836 -0.63460135 0.17039454 0.75382149 0.25174552
0.35714051 -0.055578824 -0.036014728 -0.83379763 0.16502076 0.52682972 0.18533355
-0.35746455 -0.044548701 -0.033041444 0.78321379 0.04941478 0.61978579 0.19130932
-0.33130482 -0.042650007 -0.036457025 0.75197273 -0.10390372 0.65095389 0.2192201
-0.26049256 -0.040718809 -0.030712206 0.81860459 0.060769312 0.57113361 0.028975325
-0.25602162 -0.045072559 -0.033752251 0.85388708 0.013386763 0.52028602 0.02556557
0.25288549 -0.04515462 -0.038262669 -0.80266362 -0.059757281 0.59343076 0.020444416
0.33433455 -0.044546343 -0.034653403 -0.37442377 0.32216376 0.86949259 0.22511348
0.35697311 -0.046407867 -0.036060851 -0.79226369 0.013242277 0.61003512 0.17811655
-0.35830247 -0.036624823 -0.031881209 0.73314708 -0.10643592 0.67168951 0.18970528
-0.33491635 -0.035652924 -0.032758802 0.87795687 0.092440479 0.46973032 0.25580189
-0.25467879 -0.032642312 -0.03477272 0.84661227 0.046706833 0.53015679 0.026908604
0.25482282 -0.036059812 -0.034726772 -0.86854464 -0.066483311 0.49113157 0.023226477
0.33202583 -0.035101116 -0.036938123 -0.94886655 0.088100441 0.30313471 0.24900788
-0.35790381 -0.025384266 -0.032800481 0.81607085 0.10418388 0.56848401 0.18383017
-0.25458527 -0.024656262 -0.035278343 0.82388282 0.040421367 0.56531692 0.028208297
0.25688303 -0.024928113 -0.035564255 -0.85488236 -0.007457477 0.51876831 0.025160119
0.32915077 -0.025765155 -0.039822079 -0.93284851 -0.0083202692 0.36017266 0.22367081
0.3346031 -0.023519026 -0.034034289 -0.96276903 -0.27004758 -0.012259822 0.19754109
-0.35690075 -0.016491493 -0.03463899 0.71360272 0.10822 0.69214123 0.17024392
-0.33051503 -0.017822679 -0.037686706 0.72182947 0.16560203 0.67196584 0.19131985
-0.26049903 -0.016416106 -0.031093162 0.78617334 0.030109728 0.6172722 0.02666101
-0.25166211 -0.01308044 -0.038369458 0.77399558 -0.0035962583 0.6331808 0.013176318
0.25370845 -0.013503634 -0.036092035 -0.84310567 -0.013595895 0.53757602 0.024777999
0.32914436 -0.012607448 -0.039618682 -0.6075626 -0.43890271 0.66199106 0.23186104
-0.35622448 -0.0036555845 -0.036045946 0.79637218 -0.036933541 0.60367823 0.18652399
-0.33496368 -0.0040823668 -0.033213042 0.98174769 -0.076670684 0.17404918 0.18288895
-0.25272572 -0.0048710704 -0.037232272 0.76311839 -0.01645216 0.64604932 0.014709178
0.25307754 -0.0030475967 -0.035881437 -0.82866025 0.023723356 0.55924892 0.021539416
0.33398384 -0.003323555 -0.034365043 -0.94321293 0.014901811 0.33185419 0.22678414
0.35670179 -0.0016285628 -0.035403833 -0.80482036 -0.15933146 0.5717321 0.14475206
-0.35787645 0.0019340105 -0.033513002 0.69038486 -0.075637534 0.71947747 0.18415834
-0.3335577 0.0034517273 -0.034816641 0.91488856 -0.21778539 0.33992419 0.19788302
-0.25597847 0.0059371344 -0.032545634 0.75797552 -0.02851755 0.65165931 0.022401163
0.2561726 0.0068261735 -0.034925163 -0.82623225 -0.0032909298 0.56332004 0.030086122
0.33465999 0.001673134 -0.033571925 -0.79256558 -0.11146226 0.59951299 0.23889183
0.35736963 0.0052243136 -0.034156889 -0.7877323 -0.078478754 0.61099833 0.18048173
-0.35964468 0.016049031 -0.031000802 0.7000609 0.061532974 0.71142703 0.15348016
-0.25522757 0.011485847 -0.037094716 0.78988999 -0.013403837 0.61310208 0.025552545
0.25529709 0.017603382 -0.034982879 -0.86114615 0.01268562 0.50819921 0.019831821
0.26130989 0.018212788 -0.030209802 -0.80854511 -0.011478208 0.58832228 0.034586925
0.33148232 0.014730313 -0.03671566 -0.92228448 0.044515856 0.3839398 0.21966769
0.35509771 0.018049747 -0.037514627 -0.9034254 0.023669539 0.42809126 0.17236795
-0.33576745 0.026863508 -0.03285934 0.87279195 0.03894392 0.48653623 0.21910839
-0.32962149 0.021676119 -0.039260175 0.64902377 -0.10345358 0.75370115 0.19757013
-0.26146924 0.024020858 -0.030715777 0.80785775 0.0027697952 0.58937097 0.043598153
-0.25422543 0.028109852 -0.034249056 0.81421965 0.018489124 0.58026248 0.030216036
0.25586161 0.025724299 -0.035079118 -0.85637194 -0.00077584304 0.51635897 0.020549899
0.33540732 0.024643563 -0.032416679 -0.9814195 -0.016918708 0.19112667 0.19809891
-0.35866523 0.03802488 -0.033121295 0.62460214 0.091561697 0.77555704 0.16465807
-0.3318513 0.034439735 -0.03711167 0.75052959 0.0016540871 0.66083473 0.20585889
-0.26141194 0.038633645 -0.031009365 0.82345825 0.013623445 0.56721336 0.036961358
-0.25600183 0.033894714 -0.036359321 0.77741492 0.027151698 0.62840188 0.022929652
0.25412855 0.035154536 -0.034193031 -0.85354912 -0.098803647 0.51155823 0.015468119
0.26106095 0.038234718 -0.030152712 -0.8644439 -0.067216463 0.49821544 0.033427518
0.35632077 0.033551343 -0.035158899 -0.8947342 -0.10428869 0.43425167 0.2085271
-0.35681555 0.046332408 -0.036313657 0.72077912 0.019452086 0.69289184 0.19279
-0.33502224 0.047861576 -0.033980876 0.93538886 0.14024244 0.32462236 0.21826163
-0.25456658 0.047578659 -0.034150489 0.79503906 0.016248308 0.60634053 0.02886102
0.25315121 0.045093048 -0.036723696 -0.89444852 -0.054833498 0.44379643 0.013908815
0.32890362 0.042679559 -0.038989708 -0.82266456 -0.010177667 0.56843597 0.19917154
0.35693178 0.046093687 -0.033864651 -0.88706523 -0.12296382 0.44496647 0.23368119
-0.35876206 0.056125056 -0.033407576 0.76702857 0.19777411 0.61037081 0.17670415
-0.33515891 0.052355532 -0.033908471 0.67827934 0.027856117 0.73427594 0.19817522
-0.25540337 0.055159748 -0.035593342 0.79771203 -0.035629086 0.60198516 0.033016406
0.25261688 0.054380547 -0.03501321 -0.89239514 -0.023976617 0.45061731 0.016471907
0.33451766 0.052601174 -0.032908738 -0.99595249 0.030714672 0.084470205 0.21559504
0.35638884 0.055301309 -0.03451677 -0.95518351 -0.20558956 0.21297276 0.231674
-0.35864434 0.064339571 -0.033798806 0.667247 0.30691928 0.67866182 0.1937934
-0.33567095 0.063449144 -0.033545438 0.98856848 0.040316742 0.14528249 0.19478151
-0.25582355 0.064062312 -0.034598302 0.79848742 -0.003283428 0.60200244 0.032025866
0.25326183 0.064963512 -0.036235664 -0.85137761 0.012912084 0.52439439 0.018921427
0.32952228 0.066189513 -0.037961565 -0.7932871 0.15572309 0.58859664 0.23355496
0.35538054 0.061975438 -0.035982944 -0.83593851 -0.31123468 0.45203966 0.20754786
-0.35686871 0.077261969 -0.036984425 0.83867192 0.027936423 0.54391998 0.18296883
-0.33367094 0.074589841 -0.035833236 0.95569468 -0.19232434 0.22284327 0.22092499
-0.25594598 0.074133895 -0.035010103 0.80920374 0.015181249 0.58733201 0.026805032
0.2548584 0.076785363 -0.035442892 -0.86615288 -0.0046954756 0.49975705 0.023222726
0.32979161 0.072632454 -0.037574582 -0.82485169 -0.020818394 0.56496584 0.20420089
0.33095163 0.071983628 -0.036361143 -0.84637064 -0.032745168 0.53158677 0.19552171
-0.36113614 0.085456178 -0.030288514 0.80246782 -0.00057194248 0.59669518 0.13384846
-0.3324993 0.081528991 -0.037180118 0.82188064 0.20834695 0.5301922 0.23124087
-0.25535026 0.08593417 -0.036368545 0.81511128 0.05068488 0.57708287 0.029908482
0.2511009 0.081162572 -0.038179357 -0.85904145 -0.020414205 0.51149887 0.021630997
0.33583221 0.0846081 -0.031010788 -0.97913337 0.12749803 0.15824702 0.19435282
0.35568872 0.086470842 -0.034885664 -0.79599738 0.07225015 0.60097247 0.18014522
-0.36060116 0.092006013 -0.031313345 0.70876133 -0.053433448 0.70342177 0.17623934
-0.35788912 0.094310462 -0.035752509 0.82103604 0.10753269 0.56065714 0.19282745
-0.3327094 0.092831731 -0.037138969 0.88509983 0.44105214 0.14856438 0.20842609
-0.26236296 0.092661738 -0.030869052 0.75022256 0.037114359 0.6601429 0.024006024
-0.25814328 0.096268535 -0.03327645 0.78668785 0.055654865 0.61483711 0.023100741
0.25480378 0.093525745 -0.033190221 -0.8396371 -0.044395957 0.5413304 0.023758577
0.3348389 0.095784239 -0.031880163 -0.96398836 0.16297303 0.21015766 0.21516128
0.3548007 0.097648524 -0.03604728 -0.95217496 -0.064479969 0.29867232 0.22568993
-0.36024129 0.10648686 -0.03224919 0.70484805 -0.091613419 0.70341754 0.16626358
-0.35819736 0.10181043 -0.035437897 0.75723612 -0.11054605 0.64371812 0.17772456
-0.33428273 0.10310584 -0.035643283 0.92203224 -0.18931124 0.3376652 0.24162327
-0.25493884 0.10676645 -0.038495488 0.76714152 -0.01585798 0.64128184 0.019670008
0.25492063 0.10458958 -0.033797923 -0.87423611 0.0043776492 0.48548123 0.02690896
0.33435774 0.10466987 -0.032245897 -0.85756868 -0.42113787 0.29532823 0.22102858
0.35521936 0.10492356 -0.035192672 -0.81018144 0.2179714 0.54414564 0.19578689
-0.36117435 0.1168615 -0.030995134 0.74044049 0.070104174 0.6684559 0.17672135
-0.35666066 0.11347789 -0.038206652 0.8414079 -0.043632332 0.53863633 0.19466478
-0.33276391 0.11378258 -0.037416074 0.65594435 -0.12297457 0.74472427 0.19254847
-0.26024556 0.11583093 -0.033470549 0.7930426 -0.033639207 0.60823667 0.028196773
-0.25744525 0.11628723 -0.033825472 0.77643526 -0.062379677 0.62710214 0.02524397
0.25520027 0.11573104 -0.034217607 -0.87665045 0.05680934 0.47776219 0.025647927
0.32853901 0.11566935 -0.03820869 -0.54385656 -0.31083637 0.77948749 0.20556599
0.33558294 0.111113 -0.030850448 -0.91693288 -0.26264158 0.30042225 0.21586275
-0.36155987 0.12206209 -0.030499311 0.79395556 -0.01444503 0.60780418 0.15052752
-0.35942632 0.12359581 -0.033984788 0.77719253 0.050614502 0.62722403 0.16635552
-0.33376387 0.12712114 -0.036574181 0.53403032 0.22649226 0.81456298 0.22124971
-0.26210034 0.12571849 -0.031673349 0.69196141 -0.091614038 0.71609789 0.028944172
-0.25652 0.12637739 -0.033489075 0.71897483 -0.15002833 0.67865068 0.032046933
0.2519719 0.1224765 -0.035332225 -0.89276832 0.001767189 0.45051268 0.021681283
0.32831788 0.12266863 -0.038330171 -0.79841566 -0.17227001 0.5769363 0.19556995
0.33269149 0.12700838 -0.033646937 -0.49668205 0.012851221 0.86783737 0.1708314
0.35366729 0.12910366 -0.037109379 -0.86922282 0.046954971 0.4921858 0.20836152
-0.3611694 0.13581002 -0.031466715 0.7414186 0.048531529 0.66928554 0.15631363
-0.35812056 0.13181563 -0.036296032 0.7375837 -0.007809198 0.67521054 0.15496603
-0.33857313 0.13733864 -0.031663861 0.51365262 0.081029557 0.85416347 0.1857734
-0.25491112 0.13120286 -0.036107764 0.6634115 -0.19810158 0.72155458 0.037536129
0.25676209 0.13421881 -0.033152301 -0.71278191 -0.052501511 0.69941813 0.034734674
0.33482176 0.13325009 -0.031299908 -0.84110433 0.046605404 0.53886133 0.21505262
0.35342509 0.13546625 -0.037345134 -0.72952175 -0.11232083 0.67467183 0.20953774
-0.36164096 0.14926684 -0.031033838 0.87039429 -0.14151315 0.47158018 0.19528146
-0.35713744 0.14364319 -0.038174137 0.62182516 0.12941015 0.77239007 0.17157301
-0.33346754 0.14021997 -0.037096005 0.62409526 -0.031817734 0.78070027 0.22736788
-0.26174599 0.14301395 -0.032322824 0.62849259 -0.27891669 0.72608715 0.046434347
-0.24455576 0.14768137 -0.038484905 0.49723059 -0.49862161 0.71002698 0.040020902
0.25470668 0.14529596 -0.035141986 -0.51509804 -0.22534652 0.82697821 0.046797458
0.32665157 0.14840016 -0.039677113 -0.60559893 -0.079999618 0.79173851 0.17689659
0.33168489 0.14902845 -0.03435716 -0.68070728 -0.18521675 0.70875424 0.20628116
0.35337916 0.14523453 -0.037180383 -0.78059709 0.13699183 0.60983711 0.20313008
-0.36101222 0.15617815 -0.032218993 0.90006304 -0.0096306037 0.43565327 0.19937663
-0.35679626 0.15339094 -0.038963959 0.80578899 0.13256989 0.57717359 0.15263286
-0.33961555 0.15958065 -0.030919343 0.75260764 -0.18881513 0.63081735 0.23796357
-0.24294646 0.15463741 -0.033496492 0.4129042 -0.61142749 0.67503077 0.033130392
-0.23877361 0.15341108 -0.033369634 0.43268239 -0.64104444 0.63391489 0.027353639
-0.2285316 0.15867083 -0.036665335 0.45430347 -0.67919755 0.57645375 0.014565019
0.23788734 0.15775394 -0.035412163 -0.43252572 -0.68694776 0.58397287 0.036865797
0.24766377 0.15366705 -0.037332933 -0.5222199 -0.47814578 0.70616084 0.060243595
0.25370091 0.15160185 -0.032619853 -0.57395393 -0.36457944 0.73325211 0.07006526
0.32732314 0.15207654 -0.03890989 -0.66868448 -0.15737428 0.72670096 0.16886002
0.3568103 0.15502736 -0.031395923 -0.87375522 0.16923359 0.45597345 0.19875298
-0.36115187 0.16681373 -0.032253474 0.83123219 -0.067990206 0.55175209 0.13037159
-0.35728857 0.16249737 -0.03839118 0.86239779 -0.13353844 0.48830071 0.15879244
-0.23636128 0.16311771 -0.030501544 0.44004178 -0.69005758 0.57461613 0.033052567
-0.22665203 0.16127634 -0.037418813 0.42945659 -0.68279558 0.59106445 0.014036633
-0.21677437 0.16688809 -0.032771938 0.42421195 -0.72206467 0.5465042 0.025135972
-0.20880756 0.16781786 -0.039759733 0.37214836 -0.700225 0.609254 0.014706548
0.21534388 0.16851549 -0.037938613 -0.42230177 -0.76333994 0.48884895 0.016033676
0.22507395 0.16585523 -0.035130434 -0.35683781 -0.74942023 0.55770606 0.023566848
0.23217994 0.16226493 -0.032125168 -0.38195026 -0.68882883 0.61614031 0.029396171
0.24744794 0.16146672 -0.030261762 -0.45002264 -0.58681792 0.67314512 0.054996978
-0.36146078 0.17211516 -0.031884011 0.79766369 -0.14049135 0.58651078 0.17697854
-0.33414671 0.1795751 -0.037008014 0.39968112 -0.046445515 0.91547686 0.19366725
-0.21290824 0.17442252 -0.032956745 0.39203405 -0.70191276 0.594666 0.034136068
-0.20106909 0.17609653 -0.033098016 0.38239264 -0.70583487 0.59629947 0.028109977
-0.19937396 0.17435682 -0.038117912 0.40266496 -0.719877 0.56536543 0.028044814
0.20274943 0.17833957 -0.032734111 -0.43973216 -0.7289117 0.52471268 0.020032393
0.21189389 0.1746401 -0.032572068 -0.42257437 -0.69590074 0.5806489 0.028719923
0.32988513 0.17161329 -0.035895132 -0.66455007 0.066475935 0.74428099 0.16910395
0.33157733 0.17479661 -0.034059141 -0.69497722 -0.053025443 0.7170738 0.19170077
