# .PCD v0.7 - Point Cloud Data file format
VERSION 0.7
FIELDS x y z normal_x normal_y normal_z curvature
SIZE 4 4 4 4 4 4 4
TYPE F F F F F F F
COUNT 1 1 1 1 1 1 1
WIDTH 582
HEIGHT 1
VIEWPOINT 0 0 0 1 0 0 0
POINTS 582
DATA ascii
-0.37064904 0.075803667 -0.030983141 0.73803926 -0.11008923 0.66571653 0.00046040167
-0.36434692 0.076158531 -0.03806169 0.7298795 -0.1195913 0.67303336 0.00065199391
0.36484686 0.074356705 -0.036528125 -0.73578334 -0.11013255 0.66820186 0.00019433118
-0.37060559 0.083362073 -0.030082108 0.73759496 -0.13448836 0.66171473 0.00084793329
-0.36624447 0.083614826 -0.034979589 0.72890913 -0.14793068 0.66843694 0.00083030929
0.36426216 0.085949741 -0.035201862 -0.73492366 -0.1149274 0.66834044 0.0001275213
-0.36459661 0.095265456 -0.03382149 0.71826851 -0.20412813 0.6651482 0.00085172767
-0.35833067 0.098219573 -0.039235622 0.70748347 -0.21218207 0.67412591 0.00080144953
0.35856569 0.096593834 -0.039785117 -0.72115582 -0.16822857 0.67203671 0.0010542418
0.36276928 0.094615974 -0.035397444 -0.7288934 -0.14934893 0.66813868 0.00067297666
-0.36233458 0.10329366 -0.032894094 0.70961237 -0.24147387 0.66192192 0.00058943126
-0.35741004 0.10348877 -0.038029552 0.6991623 -0.24531914 0.67155832 0.00056548294
0.35799995 0.10591818 -0.037938274 -0.70151001 -0.23484007 0.67285502 0.00096557545
0.36415842 0.10535028 -0.031758051 -0.71584886 -0.22348686 0.66152394 0.0011138285
-0.35671839 0.11565767 -0.033724632 0.69880652 -0.27273557 0.66127509 0
0.35462752 0.11491346 -0.0376001 -0.69289708 -0.26598501 0.67018324 0.00057322357
-0.35308847 0.12105738 -0.035334215 0.69408214 -0.27271542 0.66624039 4.0475301e-05
-0.34842488 0.12677948 -0.037905287 0.6900875 -0.27225187 0.67056549 0.00017487197
0.34893155 0.12962961 -0.03681913 -0.68036675 -0.29765224 0.66970462 0.00012019047
0.35429478 0.12344076 -0.034055989 -0.68760663 -0.29040968 0.6654768 0.00014709904
-0.3513706 0.13710007 -0.030512681 0.69830537 -0.27282727 0.66176653 1.260644e-05
-0.34549648 0.1335986 -0.038184185 0.68755668 -0.26841518 0.67469943 0.00016570541
0.34731102 0.13707626 -0.035109602 -0.6856364 -0.29917011 0.66362637 4.2998738e-05
0.35052019 0.13138036 -0.034365427 -0.68377048 -0.29812035 0.66601962 0.00010219387
-0.34501073 0.14623904 -0.033466019 0.69711947 -0.27253816 0.66313446 1.8642814e-06
-0.33882242 0.14990984 -0.038501259 0.68784797 -0.26936662 0.67402279 0.00018618691
0.33849198 0.14865184 -0.03901482 -0.67547268 -0.29767746 0.67462939 0.0001985775
0.34173012 0.14577855 -0.03695263 -0.68048388 -0.29828081 0.6693058 9.4846131e-05
-0.34218264 0.15567447 -0.032555692 0.69714439 -0.27240762 0.66316193 6.874684e-06
-0.3364867 0.15695499 -0.038058873 0.68970436 -0.27430478 0.67012286 0.00012253823
0.33753085 0.15510036 -0.037073787 -0.67455184 -0.29806525 0.6753791 0.00017148747
0.34368521 0.15318897 -0.031534899 -0.68781388 -0.30126455 0.66041785 4.9992483e-05
-0.34186184 0.16009921 -0.031063762 0.6965481 -0.27676305 0.66198415 5.8121877e-05
-0.33445147 0.16817981 -0.035567924 0.68254596 -0.30065277 0.66613728 0.0005884961
0.33401036 0.16628395 -0.035638399 -0.68256402 -0.29772544 0.66743231 7.638603e-05
-0.33322486 0.17410089 -0.034416061 0.67134649 -0.3241072 0.66651958 0.00096887286
-0.32842094 0.17598473 -0.038724668 0.66361821 -0.32393306 0.67429829 0.0010483497
0.33395588 0.17501955 -0.031709366 -0.68270677 -0.3063269 0.66338164 0.00011435219
-0.32853118 0.18483742 -0.033934608 0.64728278 -0.37262955 0.66496027 0.0013332623
0.32504812 0.18444768 -0.03668686 -0.6544497 -0.34896481 0.6707601 0.00095740013
0.33195686 0.18327683 -0.030024247 -0.67292684 -0.32909846 0.6624679 0.00055080594
-0.32394373 0.19496319 -0.031311877 0.62304586 -0.41902012 0.66048163 0.00057750772
-0.3155342 0.19494693 -0.039025865 0.60230619 -0.42941779 0.6729247 0.00031004654
0.3170321 0.19721885 -0.037761573 -0.61306185 -0.40979937 0.67544031 0.00099458825
0.32360449 0.19320805 -0.034164079 -0.63770431 -0.38651302 0.66628885 0.0012706872
-0.31220546 0.20533024 -0.03507651 0.59977061 -0.44325835 0.66618103 0.0001038753
-0.30748683 0.20673008 -0.038455226 0.59572995 -0.44025058 0.67177778 0.0002109937
0.30758524 0.2084752 -0.038189411 -0.5863955 -0.45131829 0.67264557 0.00026162784
0.3146812 0.20507769 -0.034300677 -0.60323703 -0.43608508 0.66778368 0.00060238503
0.32133085 0.20072541 -0.031486642 -0.62225181 -0.41419518 0.66426277 0.0011610907
-0.31001046 0.21012835 -0.033853147 0.60281068 -0.44433591 0.66271025 3.2667529e-05
-0.30446619 0.21580233 -0.035107359 0.59985167 -0.44303355 0.66625768 0.0001123543
-0.2980642 0.21885614 -0.038913246 0.59650469 -0.44031686 0.67104632 0.00017165038
0.29760349 0.21931064 -0.039357595 -0.57712245 -0.46210518 0.67334133 9.8254903e-05
0.30665645 0.21392401 -0.035143789 -0.58521718 -0.46191585 0.66644919 7.4649601e-05
-0.29653987 0.22734025 -0.034591161 0.59841502 -0.44154242 0.66853547 0.00010200154
0.29649124 0.2266265 -0.03514868 -0.58173132 -0.46586522 0.66675198 8.726825e-05
0.30408427 0.22261377 -0.031255566 -0.58565128 -0.46792915 0.66185719 1.9630863e-05
-0.29250932 0.23784921 -0.03119996 0.60360479 -0.44402987 0.66219229 5.8923975e-05
-0.28592813 0.23732233 -0.037583411 0.59808022 -0.43991306 0.66990781 0.00013019494
0.28726587 0.23651075 -0.036320798 -0.57990634 -0.46329173 0.67012644 5.9780687e-05
0.29241782 0.23171121 -0.035154533 -0.5817675 -0.46608812 0.66656476 6.9270471e-05
-0.28448313 0.24396858 -0.034427393 0.59426355 -0.45022032 0.66644758 0.00019843555
-0.27583733 0.24935567 -0.038715903 0.5684039 -0.46668166 0.67758781 0.00082560076
0.27819738 0.24843211 -0.035906553 -0.5838086 -0.46610844 0.66476333 2.1902808e-05
0.28491035 0.24346091 -0.033475861 -0.58260667 -0.46570039 0.66610253 3.2051212e-05
-0.27437156 0.25615335 -0.035476886 0.55520833 -0.48921165 0.67261851 0.0012455819
-0.26846927 0.25918233 -0.038561095 0.52992547 -0.50923711 0.67812729 0.0014279771
0.27272576 0.25281733 -0.037650988 -0.57638687 -0.47120893 0.66763788 0.0001844082
0.28242472 0.25015077 -0.030931348 -0.58606619 -0.46918169 0.66060191 0
-0.2715998 0.26165816 -0.034138516 0.52809453 -0.51804537 0.67286342 0.0014640692
-0.26508045 0.26406652 -0.03663056 0.51056868 -0.53987521 0.66921926 0.0011667433
-0.25676239 0.26812756 -0.038932458 0.47409421 -0.56772685 0.67299396 0.00040812718
0.27207685 0.26033583 -0.032886706 -0.56926417 -0.48754957 0.66199219 0.00039027233
-0.25610656 0.27303523 -0.035039745 0.47086379 -0.57670242 0.66760892 0.00012061556
-0.24855635 0.27666271 -0.037181292 0.46494311 -0.58033782 0.66860747 6.0457824e-05
0.24872369 0.27766749 -0.037465479 -0.46479431 -0.5739159 0.67423058 0.00070789969
0.2568197 0.2772859 -0.032358207 -0.4849562 -0.56595266 0.66671962 0.0012183816
0.2624341 0.27436379 -0.030936658 -0.5176698 -0.54353023 0.66075182 0.0013216079
-0.24354421 0.28239456 -0.035651017 0.46500051 -0.58224046 0.66691124 3.0650506e-05
-0.23634884 0.2860029 -0.037557483 0.46433961 -0.58029467 0.6690641 0.00014816322
0.23776726 0.28721249 -0.036107052 -0.44199741 -0.59440172 0.67180717 0.00015848581
0.24678048 0.28408235 -0.032899227 -0.44484171 -0.59895551 0.66585892 3.2186803e-05
-0.23254141 0.29482827 -0.03242407 0.46905649 -0.58574158 0.66097862 1.5207858e-06
-0.22551343 0.29527229 -0.03702192 0.46375921 -0.58091772 0.66892606 0.00020840866
-0.21952538 0.29796016 -0.038888309 0.46452898 -0.5764569 0.67224276 0.00018044251
0.21893293 0.29999068 -0.037096828 -0.44082728 -0.5980345 0.66934741 0.00010128315
0.22517908 0.29567772 -0.036837544 -0.43950909 -0.60084581 0.66769463 0.000114391
0.23229577 0.2957375 -0.031986032 -0.44461432 -0.60439217 0.66108108 1.4114298e-05
0.24112353 0.29072201 -0.03063019 -0.44569406 -0.60335726 0.66129935 7.6372016e-05
-0.22280246 0.30090588 -0.033944339 0.46669573 -0.58365464 0.66448659 8.9876594e-05
-0.21721244 0.30535591 -0.033962958 0.4679687 -0.58550704 0.66195679 0
-0.20832321 0.30760956 -0.038275782 0.45320451 -0.5844546 0.67306644 0.00025706168
0.20408967 0.3098475 -0.038072553 -0.43992046 -0.59820056 0.66979563 0.00013040603
0.2139063 0.30383816 -0.036960579 -0.44070789 -0.59803891 0.66942221 0.00012562753
0.22403669 0.30221072 -0.031623326 -0.44496125 -0.60419381 0.66102898 2.4609784e-05
-0.20428185 0.31593975 -0.033748273 0.43287933 -0.60792494 0.66561455 0.00069176679
-0.19385619 0.31912246 -0.038327351 0.3877469 -0.63224572 0.67075902 0.0010943712
0.1886795 0.31951988 -0.039599307 -0.41414726 -0.61176616 0.67396158 0.00056117465
0.19698042 0.31604916 -0.037183598 -0.43505099 -0.60399956 0.6677689 0.00017151171
0.20547917 0.31385994 -0.033460658 -0.44307539 -0.60294622 0.66343051 0
-0.20371231 0.32051972 -0.030085303 0.42540243 -0.61409962 0.66476643 0.00085799582
-0.19228241 0.32497543 -0.03318787 0.36742085 -0.65163422 0.66360742 0.0010502527
-0.18424039 0.32709599 -0.034648191 0.33452395 -0.66418916 0.66854048 0.000590674
-0.17580831 0.32798263 -0.037571818 0.31093952 -0.67335796 0.67075008 0.00026482384
-0.16742301 0.32978895 -0.039516129 0.29697561 -0.67731559 0.67308921 0.00013613542
0.17572917 0.32929817 -0.037901253 -0.33112481 -0.66415387 0.67026561 0.001164493
0.18947935 0.32491785 -0.034115709 -0.40303007 -0.63000977 0.66381812 0.00075694401
0.19463021 0.32311511 -0.032295294 -0.42757192 -0.61509591 0.66244954 0.00027154142
0.20009831 0.32026798 -0.03121767 -0.43765774 -0.60990405 0.66066086 5.89148e-05
-0.18427896 0.33088189 -0.030686794 0.33038703 -0.67271322 0.66204333 0.00048082913
-0.17447579 0.3312887 -0.034735881 0.3017455 -0.68142748 0.66678804 4.6059926e-05
-0.1663464 0.33553293 -0.034023814 0.30037376 -0.68540496 0.66332161 5.8658602e-06
-0.15546846 0.33538985 -0.03913613 0.2975736 -0.67642945 0.67371589 0.00019826661
-0.14960878 0.33809799 -0.038988627 0.29600337 -0.68262649 0.66813403 7.5365206e-05
0.14889227 0.33995306 -0.037724882 -0.27073306 -0.69302619 0.66814542 0.00013102632
0.15555291 0.33722255 -0.037859879 -0.27145013 -0.69101185 0.66993839 9.065136e-05
0.16462086 0.33678481 -0.034569707 -0.28339624 -0.68861234 0.6674577 0.00014989902
0.17786564 0.33428225 -0.031737611 -0.33727175 -0.6659348 0.66541612 0.0012736154
0.18208025 0.33167532 -0.03275419 -0.35339633 -0.65614372 0.66677314 0.0014121606
-0.16018765 0.3418678 -0.030234834 0.30102152 -0.68701416 0.66136038 0
-0.15579167 0.34128833 -0.032844186 0.29980284 -0.68518603 0.66380596 2.5039017e-05
-0.14378458 0.34531829 -0.034124628 0.29856473 -0.68360704 0.66598839 0.00011923944
-0.13457634 0.34540999 -0.038230546 0.29683754 -0.68053871 0.66989154 0.00016554864
0.12782934 0.34914082 -0.036712311 -0.27150294 -0.69131219 0.6696071 0.00014935613
0.13907897 0.34481484 -0.036637563 -0.26940888 -0.69039023 0.67140156 0.00014951646
0.14483359 0.34315035 -0.036018368 -0.26994386 -0.69257593 0.66893113 0.00011131226
0.15595245 0.3423517 -0.032261506 -0.27342239 -0.69789302 0.66195589 0
0.16311042 0.34095976 -0.030772738 -0.27508843 -0.69675815 0.66246092 0
-0.13704729 0.35123008 -0.031040277 0.30118108 -0.68778485 0.6604861 4.3970617e-06
-0.1241817 0.35490432 -0.033082977 0.29365221 -0.68703085 0.664648 7.8255805e-05
-0.11773466 0.35652933 -0.034331799 0.27941123 -0.69087446 0.66679966 0.00036085033
-0.10671868 0.35816747 -0.037651539 0.22546269 -0.70468664 0.67274308 0.0012378817
-0.098413214 0.35916421 -0.038800903 0.18080062 -0.71740514 0.67278606 0.0010942931
0.094207697 0.35945031 -0.039710455 -0.20007794 -0.70671517 0.67861801 0.00090280181
0.10231035 0.35745001 -0.038475018 -0.25206819 -0.69967592 0.66851729 0.00037966701
0.11440381 0.35672751 -0.034234006 -0.27194065 -0.69583595 0.66472596 7.008078e-05
0.1263271 0.35424984 -0.031922609 -0.27336782 -0.69943589 0.660348 0
0.13379842 0.35281938 -0.030344931 -0.27337167 -0.69937968 0.66040587 5.2542611e-05
-0.11436303 0.36079526 -0.031426303 0.25657862 -0.70161474 0.66475868 0.00079977326
-0.1043877 0.36223572 -0.034133323 0.2056032 -0.71565807 0.66750348 0.0014067709
-0.094219454 0.36289904 -0.035319414 0.15486975 -0.72396636 0.67222613 0.00066627917
-0.084880777 0.36445597 -0.035166848 0.12387777 -0.73451352 0.66719133 0.00025055133
-0.076617129 0.36309114 -0.038115297 0.11232977 -0.73355591 0.67028183 8.068591e-05
-0.062440593 0.36833423 -0.034646213 0.11206304 -0.73709267 0.66643554 8.1949285e-05
-0.056750871 0.36747295 -0.036588132 0.11054458 -0.73259604 0.67162704 0.00016440553
0.029190019 0.36977485 -0.037831128 -0.080992676 -0.7402941 0.66738659 7.7269411e-05
0.034916308 0.36848328 -0.038571097 -0.077920072 -0.73615146 0.67231655 0.00016885952
0.047573689 0.36903223 -0.036359467 -0.081342228 -0.74249178 0.66489804 2.2782735e-05
0.057798028 0.36531341 -0.039277423 -0.083448425 -0.7333926 0.67466414 0.00019287004
0.064956948 0.36806858 -0.035263337 -0.084919378 -0.7389676 0.66836792 4.3583812e-05
0.073375188 0.36580086 -0.036768246 -0.098590776 -0.73477799 0.67110437 0.0002217357
0.084284127 0.36549667 -0.035740651 -0.13817926 -0.72727096 0.67229706 0.00067448249
0.096819535 0.36289391 -0.03498169 -0.21156764 -0.7127102 0.66879243 0.00086311391
0.10458369 0.36231169 -0.032384291 -0.25533217 -0.70451105 0.66217041 0.00024376516
0.11464796 0.36019483 -0.030460246 -0.2727899 -0.69976181 0.66024166 1.2986187e-05
-0.062647037 0.37202016 -0.030466827 0.11307353 -0.7417593 0.66106546 3.8067039e-05
-0.045594137 0.37190104 -0.033518653 0.11154503 -0.73810482 0.6654014 0
-0.031250499 0.37456045 -0.032982945 0.10745795 -0.74005282 0.66390848 4.237851e-05
-0.027310062 0.37443924 -0.033793453 0.10627427 -0.73849994 0.66582561 2.9012685e-05
-0.013006374 0.37428969 -0.036409102 0.049594175 -0.73855907 0.67236215 0.0011073175
-0.0036967839 0.37569314 -0.035276093 -0.0072011841 -0.74432409 0.6677798 0.001291802
0.0037329383 0.37667868 -0.033228185 -0.052593 -0.74545008 0.66448337 0.00063426112
0.014912818 0.37390462 -0.034958165 -0.07330136 -0.74079198 0.66772306 0.00014388039
0.021501031 0.37292072 -0.035242029 -0.082264118 -0.74154532 0.66584027 0.00010120028
0.032195687 0.37209058 -0.034835864 -0.08070983 -0.74085009 0.66680348 5.2680574e-05
0.045349978 0.37399185 -0.031033237 -0.082946166 -0.74534386 0.6615001 0
0.053154677 0.3736538 -0.030434202 -0.08282052 -0.74545401 0.66139179 0
0.06284228 0.37135607 -0.031813435 -0.083539143 -0.74375832 0.66320795 0
0.07194908 0.37061483 -0.031506404 -0.094735898 -0.74067229 0.66515374 0.00018223765
0.083552152 0.37064093 -0.030018222 -0.13221164 -0.73527217 0.66475171 0.00077305856
-0.0083354488 0.38058102 -0.030043516 0.020065777 -0.75218141 0.65865058 0.0017118804
-0.068623036 -0.38048291 -0.020770859 0.089320324 0.74732161 0.65843165 4.9039929e-05
-0.050125472 -0.38050944 -0.023066232 0.083176374 0.74748755 0.65904796 3.6350146e-05
-0.048070587 -0.38181788 -0.021845661 0.082658179 0.75156802 0.65445644 0.00010521861
-0.034445189 -0.38228804 -0.02302709 0.084185526 0.75151014 0.65432811 4.6152945e-05
-0.023320965 -0.38226828 -0.024447924 0.082552731 0.74665558 0.66006851 0
-0.013502586 -0.38343683 -0.024361424 0.075670682 0.74849546 0.65880847 0.00010790161
-0.0048466199 -0.3840028 -0.024809891 0.053854693 0.74949419 0.65981674 0.00039101861
0.0061095976 -0.38332525 -0.026785703 -0.0073722028 0.74861312 0.66296607 0.001285681
0.015462748 -0.38515055 -0.023777939 -0.059929255 0.74802423 0.66096014 0.0009034776
0.02622352 -0.38427913 -0.022916399 -0.1075805 0.74595165 0.6572538 0.00011527079
0.034900542 -0.38220915 -0.023758978 -0.11144321 0.74275845 0.66021985 2.6256894e-06
0.043645147 -0.38150465 -0.023054771 -0.11347539 0.74329281 0.65927172 0
0.050239664 -0.38114578 -0.022329884 -0.11382272 0.74378979 0.65865105 2.1454445e-05
0.065236017 -0.38046929 -0.0205245 -0.11426294 0.74713892 0.65477282 1.1037456e-05
-0.10160513 -0.37286127 -0.022442924 0.23494019 0.71480948 0.65867329 0.00061044301
-0.094589949 -0.3742325 -0.023804275 0.19373536 0.72436422 0.66163677 0.0010532077
-0.085603774 -0.37460354 -0.02528147 0.15370396 0.73489672 0.66053164 0.00097591954
-0.075148053 -0.37520194 -0.025919542 0.097236954 0.74589854 0.65892369 0.00015231753
-0.062701121 -0.37689137 -0.025574747 0.083383344 0.74733257 0.65919745 0
-0.055053521 -0.37584901 -0.027714321 0.083358251 0.74689293 0.65969872 2.8296538e-06
-0.043729272 -0.37753603 -0.027231103 0.083509907 0.74706548 0.65948409 5.0582548e-05
-0.03541594 -0.37716269 -0.028698158 0.0829558 0.74615526 0.66058362 5.2112431e-05
-0.018370291 -0.37911117 -0.02863867 0.082167074 0.74636281 0.66044766 1.3854556e-06
0.036658168 -0.37946391 -0.026544718 -0.11277787 0.74285799 0.65988117 7.505766e-06
0.053965189 -0.37581357 -0.027687438 -0.11305183 0.74283904 0.6598556 0
0.06326741 -0.37623063 -0.025626851 -0.11313289 0.74370098 0.6588701 0
0.076177709 -0.37515259 -0.024629813 -0.11268941 0.74497783 0.65750217 0
0.084918834 -0.37553024 -0.022709547 -0.11386856 0.7456941 0.65648633 2.3923782e-05
0.095057301 -0.37307298 -0.023737431 -0.14889163 0.73785669 0.65833038 0.00055876072
0.1065731 -0.37234706 -0.022583198 -0.20585001 0.72435123 0.65798259 0.0012364853
-0.13173261 -0.36165169 -0.021844659 0.27345046 0.70161116 0.65800202 7.4085823e-05
-0.11412601 -0.36639449 -0.024109473 0.26740798 0.70364058 0.65831828 9.0931797e-05
-0.10856301 -0.36418813 -0.028749438 0.2586571 0.70308262 0.66239816 0.00021212921
-0.094242968 -0.36949489 -0.028947072 0.19862019 0.72486091 0.65964139 0.00099648605
0.081716888 -0.36968765 -0.029826263 -0.11323693 0.74124795 0.66161084 2.1487445e-05
0.096994236 -0.3678309 -0.029299697 -0.168855 0.72856653 0.66383642 0.0010552001
0.1046544 -0.36765525 -0.028186493 -0.19029754 0.72222137 0.66496861 0.0015545527
0.11410146 -0.36545604 -0.026690498 -0.24996398 0.7058332 0.66281033 0.00088640535
0.1251799 -0.36314148 -0.024046846 -0.28893325 0.69412768 0.65932113 0.00015042316
0.13492906 -0.36112845 -0.021695593 -0.30302992 0.69284558 0.65432245 2.3908629e-05
-0.16111875 -0.35117942 -0.020772275 0.27587497 0.70315397 0.65533763 3.3475673e-05
-0.15704393 -0.35311061 -0.020413578 0.27563301 0.70283508 0.65578145 4.8971571e-05
-0.14597312 -0.35232019 -0.025833711 0.27335313 0.69943869 0.66035116 4.7237685e-05
-0.13523291 -0.35578099 -0.026614061 0.2733722 0.69945306 0.66032797 1.544417e-05
-0.12637384 -0.35788956 -0.028047964 0.27341279 0.69947231 0.66029066 0
0.13149013 -0.35852304 -0.025978746 -0.29868627 0.68969297 0.65962881 5.9490711e-05
0.14535101 -0.35300806 -0.025399406 -0.30201858 0.68955755 0.65825158 0
0.15342264 -0.35259247 -0.022149522 -0.30175921 0.69210285 0.65569431 2.9726569e-05
0.1606288 -0.35115635 -0.020357611 -0.30345896 0.69256431 0.65442133 3.5874771e-05
-0.18372722 -0.34263751 -0.020460956 0.33874515 0.67208344 0.65844935 0.0012386282
-0.17607203 -0.34265244 -0.023614172 0.30365363 0.69118333 0.65578961 0.0003691345
-0.16419877 -0.34518358 -0.025848238 0.27372649 0.70010853 0.65948606 2.6461777e-05
-0.15506144 -0.34660664 -0.028123388 0.27331108 0.69934815 0.66046447 8.0282873e-05
-0.14995871 -0.34715709 -0.029652735 0.27340895 0.69934732 0.66042483 3.8188275e-05
0.15695266 -0.34742779 -0.025918974 -0.30202809 0.68843073 0.65942568 3.9379025e-05
0.16580608 -0.34679359 -0.022540059 -0.30251798 0.68904555 0.65855837 5.8446007e-05
0.17855446 -0.34171042 -0.022018628 -0.30535278 0.68980491 0.6564517 8.9786939e-05
-0.19289565 -0.3341004 -0.02340195 0.40203357 0.63849539 0.65627176 0.00090853294
-0.18418334 -0.3374837 -0.025695721 0.35840228 0.66094851 0.65931392 0.0012806944
-0.17338918 -0.33824879 -0.029389177 0.30328718 0.69180489 0.6553036 0.00047661868
0.16996168 -0.33990487 -0.027820025 -0.30130517 0.68808591 0.66011578 2.343676e-05
0.17488433 -0.33789358 -0.027669171 -0.3042534 0.68630427 0.66061813 4.3547308e-05
0.18505904 -0.33714637 -0.023805097 -0.31609559 0.68267345 0.65881753 0.00024644003
0.19197835 -0.33411929 -0.023801414 -0.34223297 0.66863316 0.66015631 0.00077772612
0.20376977 -0.33168405 -0.020129243 -0.40903726 0.63260716 0.65764481 0.0013996945
-0.21331507 -0.3223334 -0.020417586 0.44698611 0.60952139 0.654742 7.7126897e-05
-0.20221677 -0.32340479 -0.026916543 0.43615332 0.61101645 0.66062784 0.00015291235
-0.19617087 -0.32932281 -0.025570659 0.42131218 0.62005574 0.66183597 0.00047602132
0.19311678 -0.32847381 -0.029162921 -0.36593309 0.65120459 0.66484994 0.0012963287
0.20545408 -0.32417971 -0.025597548 -0.4344238 0.61068922 0.66206843 0.00076477171
0.21256612 -0.32098165 -0.023385903 -0.45463213 0.60062438 0.65769285 0.00042037218
-0.22212425 -0.31288034 -0.023139028 0.44587424 0.60679394 0.65802526 0
-0.21597147 -0.31595907 -0.024465993 0.44617701 0.60734874 0.65730786 3.9826216e-05
0.2178444 -0.31205374 -0.027565578 -0.46459806 0.58913636 0.66111052 3.6253397e-05
0.22506738 -0.3119286 -0.022545984 -0.47098252 0.5902586 0.6555686 0
-0.23167844 -0.30287933 -0.025860274 0.44525266 0.60532546 0.65979636 9.9324279e-07
-0.22901967 -0.30519122 -0.025534622 0.44547364 0.60532737 0.65964532 0
0.22489855 -0.30668512 -0.027322782 -0.46901429 0.58645326 0.66037726 2.3245784e-05
0.23402438 -0.30574638 -0.021674097 -0.47182032 0.58875674 0.65631634 2.9227787e-05
-0.25073183 -0.29248554 -0.022538772 0.45161194 0.60090613 0.65951377 6.6579269e-05
-0.24379231 -0.2945773 -0.025300011 0.44586596 0.60540032 0.6593132 0
-0.23649931 -0.29672855 -0.028245043 0.44528121 0.60505724 0.66002309 0
0.23595102 -0.29690468 -0.02815803 -0.46929717 0.58685374 0.65982032 0
0.24293086 -0.29486078 -0.025015205 -0.46995524 0.5875718 0.65871191 0
0.25059432 -0.29432133 -0.02005068 -0.47092715 0.59031582 0.65555698 8.3460734e-05
-0.26557186 -0.28162 -0.022489185 0.50102061 0.55361974 0.66519433 0.0012844894
-0.25574481 -0.28518033 -0.025851451 0.46217149 0.59006369 0.66198361 0.00028806151
0.24841978 -0.28708038 -0.028026175 -0.46901709 0.58641976 0.66040504 4.6700654e-05
0.25079215 -0.2894564 -0.024230801 -0.46939066 0.58778578 0.65892369 0
0.26002514 -0.28012079 -0.025963422 -0.47355846 0.5838961 0.65939951 4.2181189e-05
-0.27413085 -0.2710664 -0.023440212 0.56710076 0.49361593 0.65934819 0.00058637338
-0.26713693 -0.27456418 -0.027167035 0.52923036 0.52784687 0.66429877 0.0012684902
0.26595324 -0.2737841 -0.027380195 -0.49049264 0.57516545 0.65467674 0.00050092419
0.27297497 -0.27341133 -0.022723479 -0.50188285 0.56945354 0.65102708 0.00079114101
-0.28127697 -0.26352972 -0.022447165 0.58610231 0.47320834 0.65769136 6.4792344e-05
-0.26816106 -0.26964653 -0.029750656 0.54412514 0.51606321 0.66151834 0.0012822993
0.26885787 -0.26884341 -0.029704871 -0.49905205 0.5599097 0.66139859 0.00086191669
0.27519491 -0.26457843 -0.028991258 -0.54983914 0.51879627 0.65462011 0.0014710508
0.28155822 -0.26643649 -0.02193414 -0.55978674 0.50734663 0.65516287 0.0012668115
-0.2902129 -0.25026345 -0.02393447 0.58795315 0.4703975 0.65805572 6.7172514e-06
-0.28500551 -0.25537047 -0.02493153 0.58803678 0.47078308 0.65770501 0
-0.2799319 -0.25852755 -0.027194947 0.58508408 0.47106785 0.66013008 4.5699977e-05
0.28870374 -0.25742161 -0.021493908 -0.59160823 0.46541417 0.65832311 0.00042035987
-0.29688489 -0.24272026 -0.023367129 0.5893451 0.47029856 0.65688026 1.9867883e-05
-0.28878695 -0.24672978 -0.027710956 0.58675033 0.46913269 0.66002917 0
0.29540968 -0.24539652 -0.023456305 -0.60661268 0.44761348 0.65701085 0
0.30141857 -0.24156496 -0.020534752 -0.60675633 0.44791454 0.65667289 7.4457239e-06
-0.30359942 -0.23431319 -0.023375688 0.58826387 0.47030687 0.65784276 0
-0.29938775 -0.23920882 -0.023638619 0.58897245 0.47041661 0.65712982 3.9594961e-05
0.30477101 -0.23261434 -0.023496687 -0.60586733 0.44628391 0.65860116 1.7652064e-05
-0.31117895 -0.22194768 -0.025427794 0.58799505 0.46884504 0.65912539 0
-0.30565706 -0.22457297 -0.028467072 0.58643371 0.46904215 0.660375 2.814757e-05
0.30765179 -0.22546721 -0.025675178 -0.60561186 0.44586512 0.65911961 0
0.31350335 -0.22531068 -0.020420674 -0.61023408 0.44800293 0.65338182 5.500668e-05
-0.32165709 -0.21188815 -0.023267582 0.60140771 0.44958943 0.66043782 0.00039042445
-0.31345662 -0.21540399 -0.02805314 0.589082 0.46516833 0.66075772 3.2437714e-05
0.30763778 -0.21934426 -0.029814901 -0.6047861 0.44496989 0.66048133 2.1176993e-05
0.31583446 -0.21460947 -0.025498139 -0.60602474 0.44601786 0.65863651 0
0.32138363 -0.21081364 -0.022973545 -0.60664278 0.44608352 0.65802288 0
-0.32547793 -0.20548087 -0.024425553 0.6151787 0.42828035 0.66191477 0.00068120658
0.32268983 -0.20485681 -0.025792005 -0.60763395 0.44258299 0.6594705 4.4085144e-05
-0.3359926 -0.19351323 -0.021149658 0.67020875 0.34657687 0.65628099 0.00074942876
-0.32659131 -0.19723651 -0.02900118 0.64094704 0.38343242 0.66495603 0.0014192342
0.32863739 -0.19583027 -0.026428057 -0.6245929 0.41696072 0.6603238 0.00049451314
0.33305991 -0.19436277 -0.02336617 -0.62666655 0.41432425 0.66001856 0.00060802978
-0.33559608 -0.18411885 -0.025849031 0.68320251 0.3150228 0.65878296 0.00014013611
0.33667284 -0.18390694 -0.026512787 -0.65931427 0.35587198 0.66231406 0.0012561731
0.34144998 -0.18535364 -0.020927064 -0.66626787 0.35270131 0.65703034 0.0012909917
-0.34276268 -0.17438225 -0.022826098 0.68919057 0.30341256 0.65799493 0
-0.33775151 -0.17135069 -0.029429432 0.6877138 0.30179921 0.6602779 0
0.33893472 -0.17660767 -0.027330318 -0.6789754 0.31371316 0.66375935 0.00060777296
0.34230399 -0.1746233 -0.024582924 -0.68209904 0.31027332 0.66217178 0.00070112804
-0.3460142 -0.16513024 -0.023660369 0.68956333 0.30227003 0.65813005 2.5981117e-05
-0.33840987 -0.16914675 -0.029749218 0.68786967 0.301312 0.66033804 0
0.34537217 -0.16435812 -0.025582494 -0.6990093 0.27545866 0.65993083 6.7765592e-05
-0.35201365 -0.15354389 -0.022697181 0.69192696 0.30237877 0.65559459 4.6178477e-05
-0.34710917 -0.15494572 -0.027166614 0.68804675 0.30128807 0.66016454 1.7606839e-05
0.34674487 -0.1545283 -0.028197709 -0.69950527 0.27340934 0.66025728 0
0.35189524 -0.15954393 -0.02066597 -0.70234269 0.27515849 0.65650779 4.6502468e-05
-0.35339165 -0.14650275 -0.024474343 0.68934774 0.30202648 0.65846771 7.2231072e-05
0.35496762 -0.1450495 -0.023411833 -0.70229256 0.27389348 0.65709019 0.0001169712
-0.36133099 -0.13381186 -0.021994354 0.69053841 0.29965347 0.65830433 3.6844871e-05
-0.35501662 -0.13714002 -0.027053544 0.68807137 0.30123031 0.66016513 3.3186945e-05
0.35623348 -0.13456179 -0.026412582 -0.69938743 0.27329797 0.66042823 1.6690447e-05
0.36044514 -0.13157225 -0.023189086 -0.70312381 0.27418107 0.65608054 0.00013655017
-0.36268011 -0.12737522 -0.023525806 0.69217896 0.29709893 0.65773892 0.00012707886
-0.35907191 -0.12548664 -0.028146204 0.68937379 0.29847565 0.6600576 3.2784115e-05
0.35764322 -0.12515984 -0.028811445 -0.69931781 0.27333632 0.66048616 5.8351601e-05
0.36512077 -0.1235294 -0.021565951 -0.7046454 0.27587751 0.65373272 7.0280243e-05
-0.36574507 -0.11469252 -0.026119713 0.7070238 0.25457069 0.6597811 0.00084103155
0.36409041 -0.11413324 -0.026547037 -0.69979763 0.26943752 0.66157895 7.9632788e-05
-0.37206268 -0.10662917 -0.022807315 0.72119331 0.21544617 0.6583792 0.0012959791
-0.36741233 -0.10609961 -0.027870536 0.71569002 0.21925187 0.66311115 0.001328534
0.367201 -0.10502724 -0.027021792 -0.70805448 0.2475974 0.66132784 0.0005658844
0.37111592 -0.10745212 -0.0218712 -0.7091971 0.25732514 0.65637141 0.00037244026
-0.37248531 -0.093792766 -0.024614565 0.73819005 0.13975735 0.65995705 0.00049924193
-0.36864078 -0.094197832 -0.028867656 0.73050374 0.14571854 0.66718084 0.00060415966
0.36831057 -0.098356009 -0.02860816 -0.71432865 0.22991246 0.66096509 0.0010884114
0.37470058 -0.095829442 -0.022885587 -0.72161794 0.21015693 0.65962231 0.0010529873
-0.37274697 -0.085083723 -0.02581053 0.74173534 0.11621345 0.66054761 3.9499817e-05
-0.36905867 -0.088515952 -0.029370077 0.73403317 0.13425612 0.66571069 0.00048042429
0.37714967 -0.08562199 -0.022401365 -0.73222899 0.13371207 0.66780365 0.00075178297
-0.37643111 -0.075774685 -0.023261325 0.74480057 0.11248609 0.65773779 1.7302358e-05
0.37559381 -0.074237086 -0.025591107 -0.74235153 0.10010634 0.66249001 0.00019533723
-0.37660834 -0.065181352 -0.024874708 0.74441057 0.11286315 0.65811461 2.7528151e-05
0.37693918 -0.064237513 -0.025327597 -0.74791378 0.083833449 0.6584807 3.0165491e-05
0.38073868 -0.062433377 -0.021259855 -0.74980623 0.085010909 0.65617359 8.0492227e-06
-0.38053048 -0.056200124 -0.022001782 0.74659687 0.11384136 0.65546423 0.00011171745
-0.37719542 -0.059213392 -0.02523583 0.74421906 0.11333048 0.65825087 0
0.37594485 -0.056553863 -0.027417334 -0.7463941 0.082999289 0.6603083 4.4326232e-05
0.38130632 -0.055256099 -0.021520548 -0.74801129 0.084292293 0.65831137 3.9382708e-06
-0.38199136 -0.044543721 -0.022353809 0.74409688 0.11505432 0.65808988 3.6398949e-05
-0.37932822 -0.04345379 -0.025534496 0.74313533 0.11370517 0.65940958 5.144042e-05
0.3782993 -0.044381347 -0.026286423 -0.74672496 0.082971022 0.65993756 0
0.3810758 -0.042081144 -0.023437358 -0.74826413 0.08235918 0.65826869 0
-0.38380876 -0.034952026 -0.021951698 0.74538487 0.11149999 0.65724355 0
-0.37834665 -0.036242224 -0.027872028 0.74249792 0.11309026 0.66023278 5.1439834e-05
0.37832272 -0.035381459 -0.027391331 -0.74666584 0.082968444 0.66000485 0
-0.38293216 -0.025668157 -0.024525864 0.74438906 0.10609419 0.65926397 5.0314306e-05
-0.37937492 -0.027385032 -0.028231476 0.74292654 0.10654568 0.6608389 7.8306599e-05
0.37867808 -0.022205055 -0.028646151 -0.74636823 0.083116829 0.66032279 0
0.38011801 -0.02640334 -0.026490819 -0.7464993 0.083072364 0.66018003 0
-0.3859629 -0.013396205 -0.023218166 0.74780917 0.048446089 0.66214383 0.001139782
0.3815816 -0.014195682 -0.026371241 -0.74650729 0.077363566 0.66086447 5.205363e-05
-0.38439536 -0.0060701855 -0.025581591 0.75046867 0.011462291 0.66080672 0.0013372451
0.37959582 -0.0097586084 -0.029173516 -0.74513632 0.067952521 0.66344124 0.00029633474
0.3838971 -0.0059361681 -0.024792362 -0.74987733 0.04814548 0.6598227 0.00056437514
-0.3818869 0.0062555363 -0.027024319 0.74757105 -0.067753106 0.66071713 0.00026030012
0.3814407 0.0015529541 -0.028510261 -0.75181454 0.026621291 0.65883714 0.00093751104
-0.38666195 0.013092149 -0.020767739 0.74993849 -0.074028865 0.65735227 0.00014165945
-0.37831107 0.019333884 -0.029421899 0.74631095 -0.081441447 0.66059613 2.8869172e-05
0.38140455 0.013907122 -0.02825574 -0.74830866 -0.047639556 0.66163778 0.0011974107
-0.38303638 0.025606805 -0.023292387 0.74772239 -0.083306029 0.65876502 2.3015356e-05
-0.37881756 0.025984952 -0.028013317 0.74683744 -0.083204441 0.65978098 7.6584769e-07
0.38323879 0.023458257 -0.02455919 -0.74840069 -0.084359877 0.65786004 0.00053574779
-0.38393486 0.030515689 -0.021659791 0.7495535 -0.08360479 0.65664285 1.9587753e-05
-0.37693039 0.031769704 -0.029419105 0.74629664 -0.083004341 0.66041774 6.1170889e-05
0.37768543 0.039154876 -0.028117033 -0.74283898 -0.11297438 0.6598689 1.3060132e-05
0.38235986 0.038371164 -0.022995671 -0.74725235 -0.11214568 0.65500933 9.4920933e-06
-0.38235751 0.0434133 -0.021821219 0.74770564 -0.083403565 0.65877181 0
-0.37737632 0.044902824 -0.027264066 0.74712241 -0.082788683 0.65951055 0
0.3794845 0.049603518 -0.024306502 -0.74426353 -0.11352386 0.65816718 0
0.38209191 0.043002073 -0.022504518 -0.74599934 -0.1129991 0.65628976 2.6512813e-05
-0.38078368 0.05915761 -0.021620825 0.75255579 -0.083827645 0.6531713 7.4850432e-05
-0.37862217 0.056856871 -0.024353132 0.74742472 -0.082864575 0.65915841 1.8528643e-05
0.37590453 0.052193347 -0.027888339 -0.74240935 -0.11296678 0.66035366 0
0.38166553 0.057410084 -0.020518616 -0.74540037 -0.11422928 0.65675712 0
-0.37554348 0.063565068 -0.026989609 0.74648976 -0.082975611 0.66020316 2.8169259e-05
0.37500301 0.064298138 -0.026830662 -0.74294454 -0.11319441 0.65971237 0
-0.38054758 0.073954113 -0.020027552 0.74951917 -0.09676566 0.654872 0.00034376499
-0.37687862 0.074668169 -0.024084723 0.74638164 -0.095570579 0.65862036 0.00021151126
0.37457168 0.077074423 -0.02512951 -0.74431908 -0.1129073 0.65821052 3.5352772e-05
-0.3777214 0.08730638 -0.021543369 0.7371949 -0.15756789 0.65705109 0.0012927486
0.37399146 0.082973219 -0.024772519 -0.74415994 -0.11339465 0.65830678 7.4382864e-05
-0.37538829 0.095523186 -0.022283971 0.72705239 -0.1985694 0.65724051 0.00089999259
-0.36925864 0.099137753 -0.027280308 0.71740025 -0.2200492 0.6609956 0.0010272296
0.3689692 0.097422361 -0.027946683 -0.73225844 -0.1666992 0.66030967 0.00080316473
0.37206596 0.095297232 -0.02482863 -0.7362898 -0.14345267 0.66128558 0.00051768339
-0.3702268 0.10568066 -0.023546292 0.70817959 -0.25088453 0.65995342 0.0003109228
-0.36723533 0.1066248 -0.026324069 0.70824945 -0.25159377 0.65960842 0.00027116589
0.36763105 0.10379878 -0.028360153 -0.72871917 -0.19711773 0.65582991 0.0011810352
0.37266821 0.10358936 -0.022732668 -0.7266559 -0.19314462 0.65929234 0.0011081094
-0.3702859 0.11228701 -0.020748889 0.70825756 -0.25875589 0.65682316 0.00023375098
-0.36669809 0.11409491 -0.023800757 0.70318091 -0.26809755 0.65852886 0.00010063924
0.36711499 0.11562916 -0.024265338 -0.71056068 -0.24975026 0.65782088 0.00092538394
0.37045673 0.11616678 -0.020538913 -0.71276629 -0.25048736 0.65514904 0.00075695425
-0.36272019 0.12681088 -0.022750294 0.70070034 -0.27473214 0.65843856 2.5455649e-05
-0.35653144 0.12744299 -0.029043928 0.69940764 -0.27337369 0.66037548 0
0.35666949 0.12697953 -0.029967671 -0.68981355 -0.29596972 0.66072631 4.9415532e-05
0.36375564 0.12444928 -0.023740467 -0.69582355 -0.28714034 0.65831608 0.00016208396
-0.35769933 0.13100713 -0.026331425 0.6995731 -0.2734127 0.66018403 0
0.35674748 0.1343175 -0.026538283 -0.6884439 -0.3013328 0.65972984 0
-0.35536689 0.14514567 -0.022949088 0.70222086 -0.27327383 0.65742481 8.6944483e-06
-0.34840313 0.14736183 -0.029407915 0.69943398 -0.27339035 0.66034073 0
0.35662469 0.14534596 -0.021634286 -0.69212556 -0.30487227 0.65422869 4.1699903e-05
-0.3519111 0.15556207 -0.022297543 0.70299619 -0.2750904 0.65583658 4.3786447e-05
-0.34688741 0.15540275 -0.027684726 0.69966191 -0.27343449 0.66008085 0
0.34536546 0.15508804 -0.028918054 -0.68785191 -0.30127105 0.6603753 2.690459e-05
0.35117367 0.15566508 -0.022604361 -0.69101357 -0.30322874 0.65616512 5.8830257e-05
-0.34501344 0.16508314 -0.025662333 0.69815439 -0.27961165 0.65908849 3.4704528e-05
0.33986539 0.16697411 -0.029224284 -0.68795061 -0.30137911 0.66022313 2.6399355e-05
0.34695223 0.16461566 -0.022917995 -0.69032836 -0.30295917 0.65701026 6.3151558e-05
-0.34268311 0.17403905 -0.024423255 0.68559855 -0.3037419 0.66158557 0.00059453427
-0.33898884 0.1738781 -0.028402943 0.68369806 -0.30807924 0.66154683 0.00065821758
0.33810109 0.17901465 -0.025568455 -0.6857987 -0.30749208 0.65964293 9.7798278e-05
0.34295204 0.17250948 -0.02348331 -0.69052923 -0.30152723 0.65745783 4.9653627e-05
-0.34136447 0.1837763 -0.021789098 0.66816145 -0.3513301 0.65584099 0.0012214864
-0.33549324 0.18625517 -0.026383206 0.64768445 -0.37207696 0.66487873 0.0011378205
0.33345604 0.18580058 -0.027311053 -0.67001081 -0.3369073 0.66149765 0.00071336346
-0.33851367 0.19150656 -0.0202957 0.64325368 -0.39039072 0.65864998 0.0010870921
-0.32782304 0.19427881 -0.028219711 0.62450892 -0.41496357 0.66165996 0.00061048358
0.3281287 0.19387867 -0.02917476 -0.6478985 -0.36983341 0.66592103 0.0012173471
0.33381191 0.19366135 -0.023353681 -0.65792727 -0.3580623 0.66251272 0.0011286351
-0.33114442 0.20039052 -0.02105801 0.6223529 -0.42166418 0.65945148 0.0005459591
-0.32379639 0.20480987 -0.024810037 0.60794598 -0.44246852 0.65925968 3.5841371e-05
-0.31909424 0.20681217 -0.027767628 0.6052587 -0.44455951 0.66032481 3.443499e-05
0.31600589 0.20956615 -0.029935934 -0.60409755 -0.44546387 0.66077846 0.00053253252
0.32634139 0.2068111 -0.022713808 -0.61801243 -0.42570505 0.66093564 0.00091312471
0.33115509 0.20329832 -0.020933921 -0.62540376 -0.4095524 0.66418147 0.0011530641
-0.32155144 0.21326485 -0.021167679 0.60692197 -0.44632509 0.65760136 6.6745379e-05
-0.31595397 0.21723336 -0.023620121 0.60643309 -0.44609341 0.65820938 5.745449e-05
0.30921608 0.21808867 -0.029912261 -0.58631301 -0.46719772 0.66178805 3.8169735e-05
0.31659344 0.21512583 -0.025464887 -0.59366244 -0.4624753 0.6585449 0.00013954488
0.32345849 0.21085323 -0.022402897 -0.60926032 -0.43820611 0.66089129 0.00066921301
-0.31216323 0.22222149 -0.023730339 0.605322 -0.4457415 0.65946937 9.4800038e-05
-0.30843186 0.22532013 -0.025059782 0.60561162 -0.44627082 0.65884507 6.7572539e-05
0.3044765 0.22526553 -0.029023588 -0.58638763 -0.46904534 0.66041344 2.5412068e-05
0.31275728 0.22327644 -0.023082204 -0.58719319 -0.47006404 0.65897191 1.8430263e-05
-0.30196393 0.23495328 -0.024491517 0.60604084 -0.44699922 0.65795612 0
-0.29563153 0.23757853 -0.028522484 0.60493684 -0.44535288 0.66008502 1.0638027e-05
0.29699284 0.23461977 -0.029025329 -0.58640873 -0.4690809 0.66036958 1.7037197e-05
-0.29498321 0.24456005 -0.024410728 0.60550553 -0.44711313 0.65837145 3.3249155e-05
-0.28887108 0.24912681 -0.02693137 0.5962863 -0.45557752 0.66097796 0.00012262572
0.28850865 0.24647085 -0.028142065 -0.58643126 -0.46909887 0.66033673 6.1565822e-07
0.29281741 0.24193531 -0.027537087 -0.58702719 -0.46952057 0.65950704 0
-0.28312972 0.25475678 -0.028395763 0.58651936 -0.47188026 0.6582737 0.00062748924
0.28346178 0.25656021 -0.025457479 -0.58574504 -0.47196627 0.65890104 0
0.29082921 0.25401241 -0.020724121 -0.59122217 -0.47236827 0.65370065 9.7478238e-05
-0.28254226 0.26416871 -0.022590134 0.56582439 -0.50185782 0.65420306 0.0011023524
-0.27643836 0.26689246 -0.025813432 0.5416469 -0.5228799 0.65819091 0.0014086872
-0.26994401 0.26777864 -0.029878998 0.51779354 -0.53950167 0.6639486 0.0011008944
0.27352759 0.26660398 -0.027145781 -0.56206399 -0.49573511 0.66206551 0.00044699997
0.28208899 0.26407185 -0.021340922 -0.57829249 -0.48106492 0.65890396 0.00020888982
-0.27569306 0.27292153 -0.021227755 0.52428758 -0.54739523 0.65228909 0.0010729776
-0.2636337 0.27666453 -0.026469696 0.48492476 -0.57610857 0.65798694 0.00029110373
0.25832278 0.27957222 -0.029250911 -0.48756105 -0.56829554 0.66281551 0.0011213613
0.26652503 0.27679002 -0.025824726 -0.51869375 -0.53837276 0.66416228 0.0011135313
-0.26208088 0.28162363 -0.023168454 0.47745702 -0.58372116 0.65673774 0.00010993036
-0.25466689 0.2844027 -0.025966719 0.46981302 -0.58641249 0.65984547 2.8039156e-05
-0.24697642 0.28845352 -0.027831893 0.46908224 -0.58636719 0.66040546 4.4056902e-05
0.24637997 0.2889944 -0.028669786 -0.44645929 -0.60388136 0.66030407 0
0.25723401 0.28516135 -0.024865136 -0.45877832 -0.59277028 0.66192597 0.0003653983
0.26452214 0.28273404 -0.022176281 -0.50306219 -0.56327087 0.65548015 0.001183477
-0.24292505 0.29484233 -0.025035711 0.46959487 -0.58710408 0.65938568 1.2573297e-05
-0.23491041 0.29880765 -0.027207116 0.46908662 -0.58655685 0.66023386 0
0.22963214 0.29994863 -0.029923975 -0.44487625 -0.60414761 0.66112846 5.4291148e-05
0.23704886 0.29444194 -0.029969113 -0.4445557 -0.60435069 0.6611585 6.5078711e-05
0.24423578 0.29694426 -0.022833005 -0.44629481 -0.60700411 0.65754616 4.3474396e-05
0.25370875 0.29160509 -0.021338763 -0.44786385 -0.60618746 0.65723264 8.9552035e-05
-0.23477452 0.30429015 -0.022434549 0.4708856 -0.58825272 0.65743858 5.3025735e-05
-0.22788031 0.30433491 -0.027291993 0.46920544 -0.58698976 0.65976453 0
0.22791922 0.30494469 -0.026502168 -0.44551945 -0.60561872 0.659347 3.5283385e-05
0.23237675 0.30395505 -0.02440425 -0.44561708 -0.60568094 0.65922374 3.9406932e-05
-0.22497267 0.31373024 -0.021013217 0.47215167 -0.5891999 0.65568012 0
-0.2182602 0.31803432 -0.02195877 0.46162933 -0.59518266 0.65776587 0.00017472649
0.21362324 0.3150754 -0.026858097 -0.44540572 -0.6051904 0.65981686 0
0.22546655 0.31196281 -0.021726744 -0.44635779 -0.60690868 0.65759152 2.7104523e-05
-0.21225603 0.32078445 -0.023781303 0.45731577 -0.59707314 0.65906447 0.00019235778
-0.20685431 0.32230908 -0.026264295 0.43011519 -0.61356252 0.66222507 0.00069799839
-0.19572513 0.32863823 -0.02766978 0.37517798 -0.64752048 0.66329378 0.00093467248
0.19821073 0.32549176 -0.027704982 -0.42836457 -0.61687136 0.66028291 0.00025178163
0.2039718 0.32480904 -0.024447322 -0.4381299 -0.61138713 0.65897489 0.00016006794
0.21125311 0.32151288 -0.022558967 -0.44573519 -0.60815889 0.65685838 2.8154382e-05
-0.19308534 0.33359736 -0.023840029 0.35597542 -0.66436827 0.65718818 0.00096960302
-0.18403515 0.33583289 -0.025640564 0.32466128 -0.67723793 0.6602605 0.00042921409
-0.17516202 0.33807629 -0.027352108 0.3022452 -0.68821019 0.65955633 4.875752e-05
0.17411011 0.33770347 -0.029668402 -0.31243095 -0.67927176 0.66406089 0.0008077966
0.18613103 0.33752245 -0.024591874 -0.36467147 -0.65570569 0.66110885 0.0014249444
0.19349919 0.33297062 -0.024030015 -0.41423029 -0.62509054 0.66157007 0.00067397114
-0.18022458 0.34070268 -0.022306325 0.30448285 -0.6902774 0.65635914 5.4702755e-06
-0.16518466 0.34435594 -0.025362954 0.30197197 -0.68919808 0.65864927 2.0806088e-05
-0.1545689 0.34714964 -0.027296361 0.30181518 -0.68831962 0.65963906 3.6282452e-06
-0.14638001 0.34862131 -0.029499626 0.30119491 -0.68776822 0.66049707 7.149225e-05
0.14509067 0.34945798 -0.029230746 -0.27355462 -0.69967723 0.66001493 3.9307328e-05
0.15395375 0.34679195 -0.028385719 -0.27345699 -0.69970262 0.66002852 0
0.16380386 0.34453991 -0.026693471 -0.27400911 -0.69915277 0.66038197 0
0.17302614 0.3444337 -0.02298826 -0.29197428 -0.69335759 0.6587916 0.00042282953
0.1836981 0.34139666 -0.02178736 -0.34674469 -0.66593522 0.66052884 0.0012757179
-0.15331283 0.35221907 -0.022588605 0.30291229 -0.69070965 0.65663093 0
-0.14403158 0.3529112 -0.026102388 0.3013142 -0.68776727 0.66044378 7.7961085e-05
-0.13385519 0.35654235 -0.026962951 0.3009845 -0.68909436 0.65920955 3.7769543e-05
-0.12488516 0.35818785 -0.029341539 0.29071596 -0.69050252 0.66233718 0.00020983047
0.12681298 0.35856032 -0.027155656 -0.27337077 -0.69944078 0.66034162 0
0.13400692 0.35742098 -0.025384437 -0.27422684 -0.70125425 0.65805942 2.77461e-05
0.14333437 0.35784161 -0.021077625 -0.27453396 -0.70237952 0.65672982 4.9323971e-05
0.15383053 0.35306427 -0.021792881 -0.27565119 -0.70351946 0.65503961 0.0001330833
-0.13177122 0.36109021 -0.023176266 0.29962665 -0.69021904 0.65865129 0
-0.1236693 0.36387858 -0.023968244 0.28212395 -0.69726998 0.6589542 0.00036446776
-0.11453554 0.36631265 -0.025600107 0.25469825 -0.70844668 0.65820372 0.00079745922
-0.10708954 0.36806855 -0.026920795 0.21638238 -0.71737123 0.66223645 0.0013372834
-0.097176366 0.367562 -0.029570911 0.17470233 -0.72902399 0.66181803 0.0013046393
0.094757922 0.36984056 -0.028477039 -0.20142959 -0.71913046 0.66503948 0.0010370697
0.10371626 0.36777997 -0.026951214 -0.24622872 -0.71217346 0.6574043 0.0004934849
0.11629238 0.36620021 -0.023418484 -0.2735208 -0.70158702 0.6579985 5.6869198e-06
0.12021109 0.36483678 -0.023240432 -0.27340633 -0.70144266 0.65819991 6.4767169e-06
0.13244563 0.36213574 -0.021036776 -0.27676886 -0.70355731 0.65452737 8.6734464e-05
-0.11273005 0.37152755 -0.020991502 0.23939055 -0.71658313 0.65513414 0.0010910032
-0.10615046 0.37177908 -0.023294086 0.20683439 -0.72399998 0.65806055 0.0011544843
-0.095698364 0.37441123 -0.022123208 0.16171905 -0.7319321 0.66190815 0.00091568497
-0.082529522 0.37438601 -0.024404842 0.11315701 -0.74490833 0.65750074 3.2192813e-05
-0.075375892 0.3757605 -0.024083536 0.11248395 -0.74563897 0.65678757 7.4681593e-05
-0.065531015 0.37683192 -0.024563465 0.11410247 -0.74491107 0.65733403 0
-0.055017624 0.37728283 -0.025855383 0.11368689 -0.74407756 0.65834934 0
-0.045257404 0.37699875 -0.027844928 0.11314265 -0.74282217 0.65985906 0
-0.036692966 0.37715021 -0.029140074 0.11273985 -0.74243397 0.66036481 0
-0.019778715 0.3794902 -0.029403355 0.08521799 -0.74988121 0.65606111 0.00058454531
0.018537575 0.37802947 -0.029840292 -0.081903815 -0.74607313 0.66080761 9.2790069e-06
0.02519308 0.37942624 -0.027424859 -0.082987949 -0.74629563 0.66042089 6.7810746e-05
0.032949746 0.37771615 -0.028382616 -0.082990147 -0.74637121 0.6603353 0
0.04387939 0.37774056 -0.026981013 -0.083140053 -0.74679077 0.65984178 0
0.057588741 0.37404919 -0.029429913 -0.083015382 -0.74631542 0.66039515 2.3683255e-05
0.063286394 0.37732381 -0.025012368 -0.082453005 -0.7480768 0.65846986 0
0.07955163 0.3793917 -0.020630386 -0.11942004 -0.74438399 0.65698653 0.00066690851
0.083922349 0.37370667 -0.026506532 -0.13583024 -0.73641801 0.66275084 0.0007808347
0.094028793 0.37533939 -0.022650039 -0.2046527 -0.72056192 0.66250116 0.00096499204
0.10374977 0.37274772 -0.0216754 -0.23778968 -0.71312517 0.6594761 0.00061608927
-0.047292266 0.38034955 -0.023729367 0.11431713 -0.74407458 0.6582436 5.978909e-05
-0.034762301 0.38365811 -0.022153575 0.1087625 -0.74824756 0.65444362 5.9200331e-05
-0.02159261 0.38318142 -0.02494297 0.087467395 -0.74611849 0.660043 0.00044907068
-0.013843618 0.38303998 -0.026427856 0.049143072 -0.75096631 0.65850925 0.0013626078
-0.0051344093 0.38713458 -0.022524858 -0.0006319356 -0.75417894 0.6566686 0.0014726361
0.0049515283 0.38497376 -0.023699244 -0.05316874 -0.74913007 0.66028571 0.00054856372
0.014734812 0.38168731 -0.026183968 -0.077574529 -0.74670261 0.66061896 8.3393152e-06
0.025282934 0.38245013 -0.023995742 -0.083225019 -0.74761617 0.65889567 8.3410669e-05
0.046216656 0.38174081 -0.022165822 -0.084120505 -0.74789792 0.65846223 6.9937587e-06
0.076530971 0.38023177 -0.020060606 -0.099841282 -0.75100094 0.65270925 0.0003843442
-0.045350164 -0.3915211 -0.011220346 0.082651615 0.77098304 0.63146961 0.00043772842
-0.035354562 -0.39033318 -0.013819577 0.085835353 0.76387227 0.63963383 0.00025555919
-0.023431666 -0.39332479 -0.011937109 0.09008237 0.77003044 0.63161558 0.0003398312
-0.012617967 -0.3931469 -0.013497546 0.076304533 0.76868051 0.63506526 0.00041937295
-0.0060960711 -0.39074263 -0.017034942 0.050758582 0.75868136 0.64948153 0.00064520928
0.006102175 -0.39435032 -0.014384591 -0.0091026137 0.7624445 0.64698958 0.0012781468
0.015837001 -0.3943623 -0.01335713 -0.049383037 0.76142287 0.64637184 0.0011096798
0.023077965 -0.39335147 -0.013254561 -0.088991195 0.75965327 0.64421076 0.0006510333
0.035250638 -0.39331135 -0.011216853 -0.11701604 0.76255816 0.63624853 0.00038188757
0.047365587 -0.39052671 -0.012274682 -0.117043 0.761711 0.63725758 0.00033357504
0.06087644 -0.3901338 -0.010404626 -0.11850198 0.76298159 0.63546544 0.00027061265
-0.10335411 -0.38086426 -0.013241926 0.23467425 0.7331416 0.63830364 0.00089034432
-0.094941281 -0.38369837 -0.01328668 0.18028484 0.73921144 0.64889431 0.0012196781
-0.082713947 -0.38438919 -0.014584297 0.12549601 0.75751483 0.64064187 0.0005998839
-0.074986599 -0.38636518 -0.013322304 0.097632118 0.76167798 0.64055818 0.000457733
-0.065183066 -0.38713473 -0.013684921 0.086889617 0.76459241 0.63863021 0.00028148151
-0.053589627 -0.38725802 -0.015002977 0.082281202 0.76320583 0.64089519 0.00019980459
-0.047857288 -0.38651344 -0.016565194 0.082837932 0.75907141 0.64571548 0.00023581329
-0.035120081 -0.38795429 -0.016537873 0.08800064 0.75902951 0.64508146 0.00028934941
-0.024676643 -0.3885476 -0.017180154 0.084553719 0.75875163 0.64586896 0.00028300611
-0.019707227 -0.3885377 -0.017816009 0.085512683 0.75527531 0.64980525 0.00016861968
0.019344389 -0.38911003 -0.018662121 -0.079722419 0.75354367 0.65254599 0.00060083246
0.025034554 -0.38973063 -0.016990744 -0.10398586 0.75464928 0.64783597 0.00023283414
0.033618301 -0.38894337 -0.016407112 -0.11195921 0.75000256 0.65189064 0.00016191868
0.045985743 -0.38747168 -0.015945526 -0.11461829 0.75172186 0.64944345 0.00018464163
0.055452473 -0.38526988 -0.016801201 -0.11348895 0.75126904 0.65016538 0.0001479706
0.065527067 -0.38496178 -0.015423756 -0.11157469 0.75666249 0.64421499 0.0002576345
0.075356513 -0.38470304 -0.014032787 -0.11517503 0.75798982 0.64201725 0.00028793426
0.084635936 -0.38360032 -0.013684782 -0.11719037 0.75634575 0.64358962 0.00022734275
0.092977151 -0.38195559 -0.014106659 -0.12892583 0.7524823 0.64587033 0.00035658851
0.10344969 -0.38321137 -0.010902904 -0.18762898 0.75243574 0.63137609 0.0013098377
0.11339381 -0.38120818 -0.010604319 -0.22282319 0.7422334 0.63201213 0.0012955597
-0.12151089 -0.37553769 -0.011367659 0.27681556 0.71934706 0.63711298 0.00022534086
-0.11589793 -0.37559155 -0.013634191 0.2760717 0.71797693 0.63897848 0.0002489652
