# .PCD v0.7 - Point Cloud Data file format
VERSION 0.7
FIELDS x y z normal_x normal_y normal_z curvature
SIZE 4 4 4 4 4 4 4
TYPE F F F F F F F
COUNT 1 1 1 1 1 1 1
WIDTH 719
HEIGHT 1
VIEWPOINT 0 0 0 1 0 0 0
POINTS 719
DATA ascii
-0.044454396 -0.17240104 -0.1875 1.7375557e-08 3.0433155e-05 1 0
-0.035017673 -0.1760706 -0.1875 3.1704787e-06 -3.9045841e-07 1 0
-0.0021762922 -0.17990327 -0.1875 -5.1283774e-07 -6.1859474e-08 1 0
0.0074310489 -0.17563364 -0.1875 -1.3484906e-06 -3.1223173e-08 1 0
0.017814074 -0.17454007 -0.1875 4.7140948e-06 3.8968054e-07 1 0
0.020531397 -0.17243581 -0.1875 2.2014365e-06 2.0874147e-07 1 0
0.033650592 -0.17174266 -0.1875 -0 -0 1 0
0.045499783 -0.17162089 -0.1875 -0 -0 1 0
0.055946026 -0.17932357 -0.1875 2.3701607e-06 -1.9967645e-05 1 0
0.068771333 -0.17261872 -0.1875 3.824342e-06 -1.0000113e-06 1 0
0.087196931 -0.17455745 -0.18750001 1.1972055e-05 4.0596886e-05 1 0
0.093982987 -0.17777473 -0.1875 7.316693e-06 7.9583566e-07 1 0
0.1158516 -0.17380312 -0.1875 9.330478e-06 -1.9634813e-06 1 0
0.12144913 -0.17895374 -0.1875 2.1891383e-05 -1.2874612e-05 1 0
0.13576768 -0.17589785 -0.1875 -5.0476451e-06 -1.7891469e-05 1 0
0.14606491 -0.17795324 -0.1875 8.705334e-06 1.2521232e-06 1 0
0.15772246 -0.17657924 -0.1875 1.7171989e-05 -1.0502713e-06 1 0
0.16589379 -0.1738209 -0.1875 -9.6408166e-06 4.1002502e-05 1 0
0.17885506 -0.17296833 -0.1875 -4.8362654e-05 5.958189e-07 1 0
0.1955456 -0.17957716 -0.1875 -1.8588582e-05 -1.7984174e-05 1 0
0.20480733 -0.17671563 -0.1875 2.3403745e-05 -1.1946019e-06 1 0
0.21541156 -0.17221592 -0.1875 -0.023422509 -0.0016140165 0.99972427 0.00063778524
0.24322486 -0.17307897 -0.1846973 -0.33234441 -0.013595689 0.94306016 0.0072733397
0.35784423 -0.17425883 -0.1859255 -0.75175864 -0.018864227 0.65916848 0.00016999731
-0.24794722 -0.16213538 -0.18199494 0.36919817 -0.0069127353 0.92932492 0.004799929
-0.23612967 -0.16072872 -0.1875 0.24640624 -0.011936864 0.96909314 0.0046950025
-0.22708328 -0.16121677 -0.1875 0.1380337 -0.0094157448 0.99038279 0.0055799675
-0.1835137 -0.16214924 -0.1875 1.8060233e-05 1.1134006e-05 1 0
-0.16821508 -0.16415434 -0.1875 -2.6391717e-06 2.7372991e-05 1 0
-0.15152344 -0.16074362 -0.18750001 -7.8171224e-06 2.3687448e-05 1 0
-0.13592622 -0.1691909 -0.1875 -3.9828751e-07 1.9882602e-05 1 0
-0.11154848 -0.16247278 -0.1875 1.1414784e-05 1.6277054e-05 1 0
-0.10784746 -0.16464713 -0.1875 -2.9907756e-07 -9.9461295e-06 1 0
-0.083095908 -0.16283339 -0.1875 -6.2622889e-06 2.0840656e-05 1 0
-0.079966068 -0.16113602 -0.1875 -7.1308091e-06 1.9707846e-05 1 0
-0.06745138 -0.16525146 -0.1875 4.3729337e-06 3.4913464e-05 1 0
-0.053440385 -0.16508703 -0.1875 -0 -0 1 0
-0.045569289 -0.16787755 -0.1875 -1.3274361e-07 -1.6479597e-05 1 0
-0.025887575 -0.16228724 -0.1875 2.3502423e-07 1.6770306e-05 1 0
-0.0060132369 -0.16066229 -0.1875 -2.5837016e-07 -1.1283793e-07 1 0
0.0053682737 -0.16450955 -0.1875 1.8786602e-06 8.7541011e-06 1 0
0.027411748 -0.16549906 -0.1875 -3.5322937e-06 -1.7148664e-05 1 0
0.037850007 -0.16709469 -0.1875 -5.329588e-06 5.5256362e-07 1 0
0.046907943 -0.16575825 -0.1875 -4.1262711e-06 -1.5373498e-05 1 0
0.053497396 -0.16511874 -0.1875 -4.451053e-06 -6.6631192e-06 1 0
0.06250558 -0.16198659 -0.1875 -3.5522234e-07 -1.3465864e-05 1 0
0.071449287 -0.16200948 -0.1875 -7.381685e-06 -6.7310139e-06 1 0
0.081810564 -0.16489846 -0.1875 -1.0794363e-05 2.4191652e-06 1 0
0.096658602 -0.16560701 -0.1875 1.4980728e-05 2.3295747e-06 1 0
0.11757083 -0.16266432 -0.1875 0 0 1 0
0.12106036 -0.16354513 -0.1875 -3.6311224e-06 2.9622688e-05 1 0
0.13148844 -0.16261433 -0.1875 1.129372e-05 2.3434844e-05 1 0
0.15957949 -0.1669749 -0.1875 -9.8098235e-06 7.1154682e-07 1 0
0.16945833 -0.16134953 -0.18749999 -0 -0 1 0
0.18970297 -0.16425715 -0.1875 -3.942894e-07 2.6888561e-05 1 0
0.19456738 -0.16974509 -0.1875 -2.4953187e-07 -1.6700362e-05 1 0
0.20444691 -0.16129033 -0.1875 1.9918123e-05 2.1111191e-06 1 0
0.21087202 -0.16999631 -0.1875 -0.0031248163 -0.0007094781 0.99999487 1.4006278e-05
0.22416294 -0.16567542 -0.1875 -0.039277643 -0.0019404191 0.99922651 0.00097573193
0.23680954 -0.16602793 -0.18705358 -0.23686986 -0.013104232 0.97145301 0.010425854
0.35697451 -0.1660044 -0.18695915 -0.751827 -0.0045035435 0.65934503 0.00015352713
-0.36098281 -0.15864745 -0.18219548 0.75536233 0.0098543866 0.6552332 7.4371477e-05
-0.24436486 -0.15802586 -0.18404494 0.36091745 -0.017541775 0.93243283 0.0054549314
-0.22395736 -0.15531701 -0.1875 0.12320178 -0.003607285 0.99237508 0.0043785158
-0.20326768 -0.15034699 -0.18749999 -0 -0 1 0
-0.170211 -0.15847929 -0.1875 2.1214484e-05 -1.2155368e-05 1 0
-0.16375385 -0.15808244 -0.1875 -1.019661e-05 -1.6251885e-05 1 0
-0.13517083 -0.15828824 -0.1875 -1.233376e-05 8.2861252e-06 1 0
-0.12753725 -0.15538158 -0.1875 -9.2561368e-06 -2.5992765e-07 1 0
-0.10681442 -0.15496176 -0.18749999 8.2112174e-06 9.7441161e-06 1 0
-0.065522015 -0.15507258 -0.1875 -5.7988916e-07 -9.2945465e-06 1 0
-0.055513047 -0.1555912 -0.1875 -2.1630142e-06 1.8472247e-05 1 0
-0.046777841 -0.15468931 -0.1875 4.6439759e-06 3.1378844e-05 1 0
-0.035504032 -0.15539978 -0.1875 2.5349391e-06 -3.3843867e-07 1 0
-0.01792632 -0.1550228 -0.1875 0 0 1 0
-0.0054783844 -0.15381141 -0.1875 6.3089686e-07 6.4711031e-08 1 0
0.0046348399 -0.15210451 -0.1875 -5.6210865e-07 -8.6140147e-08 1 0
0.024024077 -0.1529782 -0.1875 -1.6152211e-06 -8.1751445e-08 1 0
0.031675275 -0.15233353 -0.1875 2.4874337e-06 8.8659835e-06 1 0
0.053107031 -0.15115212 -0.1875 -2.9743815e-06 -6.9937105e-06 1 0
0.084535733 -0.15723094 -0.1875 6.322653e-06 1.0985637e-05 1 0
0.11209545 -0.1539444 -0.1875 7.9083384e-06 -9.4288434e-06 1 0
0.1260874 -0.15643004 -0.1875 -7.8142074e-07 3.0461189e-05 1 0
0.13499974 -0.15663049 -0.1875 -3.3419914e-05 -2.7359136e-05 1 0
0.14231095 -0.15783228 -0.1875 7.8292969e-06 1.6024516e-05 1 0
0.16682144 -0.15596923 -0.1875 2.1797328e-05 1.7840403e-05 1 0
0.17641002 -0.15434456 -0.1875 1.5419739e-05 -8.9622372e-06 1 0
0.18877104 -0.15838094 -0.1875 1.6624401e-06 -1.1784451e-05 1 0
0.19039488 -0.15659994 -0.1875 2.7163844e-06 -1.9103298e-05 1 0
0.20697129 -0.15776496 -0.1875 1.3951347e-06 -2.1724154e-05 1 0
0.22083059 -0.15480953 -0.18749999 -0.062742725 0.0013343465 0.99802887 0.0017323142
0.24226008 -0.15820333 -0.18524939 -0.35750529 0.043835666 0.93288177 0.006984252
-0.25065121 -0.14167063 -0.18044761 0.41590491 -0.0098428139 0.90935481 0.0047864374
-0.22594558 -0.14395195 -0.1875 0.15876213 -0.020526353 0.98710346 0.0055738427
-0.20205246 -0.14927126 -0.1875 -1.5225175e-05 -1.2919159e-06 1 0
-0.18358539 -0.14392173 -0.1875 5.7072534e-06 1.4733349e-05 1 0
-0.17437001 -0.14626239 -0.1875 -1.1897562e-05 1.7006482e-06 1 0
-0.14530554 -0.14620034 -0.1875 -5.7802123e-07 6.2672848e-06 1 0
-0.11463168 -0.14867149 -0.1875 1.8755314e-05 -1.9421657e-05 1 0
-0.10860274 -0.14497353 -0.1875 0 0 1 0
-0.093086094 -0.14658062 -0.1875 -6.2586503e-07 2.8615228e-05 1 0
-0.076993123 -0.14624253 -0.1875 -9.2425626e-06 2.108333e-05 1 0
-0.065571316 -0.14604908 -0.1875 5.4727357e-06 2.25068e-05 1 0
-0.047564868 -0.14447832 -0.1875 7.352823e-07 6.948238e-06 1 0
-0.026803907 -0.14776215 -0.1875 6.6482897e-07 8.7360741e-06 1 0
-0.00017097965 -0.14704981 -0.1875 7.648452e-07 -2.2919014e-05 1 0
0.0045471042 -0.14205703 -0.1875 -3.2550126e-06 -2.4020146e-05 1 0
0.01266066 -0.14487728 -0.1875 -1.3693988e-06 -8.3366764e-08 1 0
0.02424252 -0.14582521 -0.1875 -1.5043461e-06 6.9583866e-06 1 0
0.045457944 -0.14077434 -0.1875 -3.9533043e-06 8.3774639e-06 1 0
0.057328731 -0.1412276 -0.1875 -2.9100959e-06 -8.6922537e-06 1 0
0.070327923 -0.14533031 -0.1875 -1.0193273e-05 -1.0038245e-05 1 0
0.086351275 -0.14290616 -0.1875 3.8259782e-06 4.8765924e-05 1 0
0.092118889 -0.14990601 -0.1875 7.4022882e-06 -1.4764987e-05 1 0
0.10131633 -0.14684698 -0.1875 -1.5445941e-05 -3.6547768e-05 1 0
0.1239885 -0.1486655 -0.1875 -2.6739765e-05 -3.2733981e-06 1 0
0.13283406 -0.14535041 -0.1875 8.5596585e-06 6.915855e-06 1 0
0.15406573 -0.14689295 -0.1875 7.4102286e-06 1.3967348e-05 1 0
0.20657977 -0.14427175 -0.1875 2.4714165e-05 1.485866e-05 1 0
0.21133214 -0.14551267 -0.1875 3.6127199e-06 -1.3503579e-05 1 0
0.22843805 -0.1401763 -0.1875 -0.1176728 0.014044565 0.99295306 0.0066181291
0.24684092 -0.14353514 -0.18262805 -0.39689949 -0.0011673179 0.9178614 0.0057494012
-0.35731307 -0.13462749 -0.18655676 0.74467915 0.00492738 0.66740435 0.00022987007
-0.24774516 -0.13469498 -0.18211059 0.38243937 -0.0052814595 0.92396557 0.0040225359
-0.22509572 -0.13490486 -0.1875 0.099776939 -0.012669594 0.99492919 0.0044559627
-0.21187881 -0.1338532 -0.1875 -2.9142508e-05 1.1381276e-05 1 0
-0.20478261 -0.1348463 -0.1875 -1.5522158e-06 1.8219904e-05 1 0
-0.1973404 -0.13252433 -0.1875 -1.672773e-05 3.5166795e-05 1 0
-0.18264651 -0.13574407 -0.1875 -1.3441169e-05 1.3378586e-05 1 0
-0.17400678 -0.13484181 -0.1875 -3.7954183e-07 6.7736692e-06 1 0
-0.1537655 -0.13876525 -0.1875 9.2644677e-06 -9.3764693e-06 1 0
-0.14756837 -0.1358413 -0.1875 1.8525261e-05 1.7759552e-05 1 0
-0.13299476 -0.13715741 -0.1875 1.5707924e-07 1.8992632e-05 1 0
-0.12522949 -0.13614008 -0.1875 1.1613049e-06 8.9390487e-06 1 0
-0.11628763 -0.13363849 -0.1875 -1.9427328e-06 -1.4908162e-05 1 0
-0.10790341 -0.13864145 -0.1875 -1.3932978e-05 3.885719e-05 1 0
-0.096801013 -0.13287598 -0.1875 -6.6605512e-06 -7.852931e-06 1 0
-0.086733662 -0.1374481 -0.1875 -7.6988435e-06 -7.2552689e-06 1 0
-0.056887388 -0.13189021 -0.1875 -5.5278156e-06 3.3410817e-07 1 0
-0.045608446 -0.13557899 -0.1875 -3.0631443e-06 1.764413e-05 1 0
-0.033384629 -0.13616563 -0.1875 -5.110865e-06 1.5724016e-05 1 0
-0.016492121 -0.1363034 -0.1875 8.1359281e-07 -6.2259319e-06 1 0
-0.0055226367 -0.13039239 -0.1875 0 0 1 0
0.023995101 -0.13580148 -0.1875 4.007562e-06 -1.8162353e-05 1 0
0.044134859 -0.13973877 -0.1875 -4.2594443e-06 7.9010952e-06 1 0
0.055020172 -0.13751252 -0.1875 -9.2375603e-06 1.0453678e-06 1 0
0.064722359 -0.1366125 -0.1875 -1.2785024e-06 -1.0567008e-05 1 0
0.074652262 -0.13717489 -0.1875 4.1814678e-06 -8.1017197e-06 1 0
0.083330013 -0.13529992 -0.1875 -7.7304403e-06 -6.2946906e-06 1 0
0.10503866 -0.13204722 -0.1875 1.5074937e-05 1.3089591e-06 1 0
0.11529794 -0.13836356 -0.1875 7.0722394e-06 -1.4865781e-05 1 0
0.13372606 -0.13502866 -0.1875 -4.5288022e-07 7.3449487e-06 1 0
0.1447662 -0.13727178 -0.1875 -1.6834891e-05 4.056626e-06 1 0
0.15860112 -0.13346338 -0.1875 2.2322432e-05 -1.8866705e-06 1 0
0.16648543 -0.13578704 -0.1875 0 0 1 0
0.19329283 -0.13394463 -0.1875 -0 -0 1 0
0.20322572 -0.13072287 -0.1875 -4.1030191e-05 -8.8674187e-06 1 0
0.23807332 -0.13449112 -0.1875 -0.19951269 0.039760664 0.97908819 0.0099327248
0.35623246 -0.13684252 -0.18784103 -0.74722815 0.0034611244 0.66455865 0.00029617333
-0.35699424 -0.12787834 -0.18693565 0.74231213 0.0073971027 0.67001337 0.00040281299
-0.24818808 -0.12396217 -0.18185714 0.37494531 0.0070527648 0.92702013 0.0056911306
-0.21451572 -0.12509367 -0.1875 2.9718463e-05 7.887108e-06 1 0
-0.20268148 -0.12312892 -0.1875 -2.0477723e-05 5.4855e-06 1 0
-0.16085431 -0.1243125 -0.1875 1.6552509e-05 -1.6412117e-05 1 0
-0.15115739 -0.12045844 -0.1875 -0 -0 1 0
-0.13752547 -0.12574463 -0.1875 3.6252632e-06 -2.2806676e-05 1 0
-0.119102 -0.12061818 -0.1875 -1.0070981e-05 -8.8310971e-06 1 0
-0.091038868 -0.12352297 -0.1875 7.5207477e-06 1.1430505e-09 1 0
-0.081835225 -0.12661554 -0.1875 -3.8766229e-06 8.2625802e-06 1 0
-0.073833495 -0.12942195 -0.1875 -1.8181577e-06 -2.1207217e-05 1 0
-0.063066274 -0.12287332 -0.1875 -3.829784e-06 -9.1506981e-06 1 0
-0.05855092 -0.12208672 -0.1875 5.2342521e-06 9.5729838e-06 1 0
-0.045175008 -0.12519521 -0.1875 3.8506705e-06 -4.7780026e-07 1 0
-0.016004451 -0.12093362 -0.1875 7.7242595e-07 -8.2529377e-06 1 0
-0.0056903921 -0.12333445 -0.1875 -1.3241124e-06 -9.2895179e-06 1 0
0.02824574 -0.12251776 -0.1875 -0 -0 1 0
0.038730398 -0.12340265 -0.1875 -4.1827848e-06 -8.5713327e-06 1 0
0.04455436 -0.12467091 -0.1875 4.2559996e-06 6.8576975e-07 1 0
0.058179826 -0.1295913 -0.1875 -4.6760056e-06 -4.3592902e-08 1 0
0.061348144 -0.12607357 -0.1875 -4.8758066e-06 4.4882065e-05 1 0
0.079783715 -0.12715466 -0.1875 0 0 1 0
0.081407979 -0.12442979 -0.1875 8.5756819e-06 -2.3083961e-05 1 0
0.11439417 -0.12706512 -0.1875 1.8559584e-06 7.5071816e-06 1 0
0.1268103 -0.12521872 -0.1875 -1.7681144e-06 1.7990991e-05 1 0
0.1477305 -0.12260344 -0.1875 2.2088572e-05 3.2225805e-06 1 0
0.16431889 -0.12435611 -0.1875 -7.0425731e-06 -1.0991848e-05 1 0
0.17224269 -0.12449224 -0.1875 -1.285153e-05 -9.9631534e-06 1 0
0.1811365 -0.12021898 -0.1875 8.6090104e-06 -3.615813e-05 1 0
0.19628154 -0.12314502 -0.1875 1.9482841e-05 -3.1385157e-06 1 0
0.21235037 -0.12619253 -0.1875 -2.0350584e-05 -9.1884276e-06 1 0
0.22541723 -0.1291585 -0.1875 -0.054067306 0.020072781 0.99833554 0.0025636677
0.23652475 -0.12167051 -0.1875 -0.27094331 -0.00096858083 0.96259487 0.010203009
0.24455038 -0.12506713 -0.18393877 -0.3870683 0.016985741 0.92189455 0.0049911579
-0.36270022 -0.11555988 -0.18015447 0.7599051 0.0023342925 0.6500299 0.0002042705
-0.25008062 -0.11888429 -0.18077415 0.43191868 -0.00070555735 0.90191227 0.0059607062
-0.23765986 -0.11475317 -0.1875 0.19308627 0.05657259 0.97954947 0.0066651842
-0.22293283 -0.11481099 -0.1875 0.093120538 0.014981261 0.99554217 0.0034152861
-0.21223122 -0.11194856 -0.1875 2.1036029e-05 2.032162e-06 1 0
-0.20912199 -0.11562432 -0.18750001 1.8891549e-05 -1.6201131e-05 1 0
-0.19664805 -0.11491575 -0.1875 0 0 1 0
-0.18542701 -0.11451094 -0.1875 -7.5394276e-08 -8.2502493e-06 1 0
-0.17913052 -0.11624581 -0.1875 0 0 1 0
-0.16471064 -0.11249411 -0.1875 -8.8801125e-06 -2.2688158e-05 1 0
-0.14544307 -0.11861318 -0.1875 9.974201e-06 -3.4061114e-07 1 0
-0.13677248 -0.11748947 -0.1875 7.5984281e-06 -2.5868187e-07 1 0
-0.120638 -0.11473314 -0.1875 -1.2525517e-06 -8.7997751e-06 1 0
-0.11445063 -0.11337963 -0.1875 9.7815622e-08 -8.7289127e-06 1 0
-0.10371403 -0.1110567 -0.18750001 8.6704677e-06 -4.8982071e-07 1 0
-0.086213388 -0.1108648 -0.1875 -0 -0 1 0
-0.073032081 -0.1173043 -0.1875 -1.1960385e-05 9.5743317e-06 1 0
-0.045071159 -0.11532561 -0.1875 -3.7976101e-06 2.995784e-07 1 0
-0.026087997 -0.11247 -0.1875 1.9923068e-06 2.207059e-07 1 0
-0.016067047 -0.11456499 -0.1875 7.4179661e-07 1.9190113e-05 1 0
-0.00058235601 -0.11379428 -0.1875 -0 -0 1 0
0.0053919628 -0.11605698 -0.1875 6.0296429e-07 -1.0679893e-05 1 0
0.021169128 -0.11909565 -0.1875 6.6345083e-06 -1.8066334e-05 1 0
0.03905737 -0.11370504 -0.1875 1.4804659e-06 1.4931691e-05 1 0
0.063467368 -0.11505227 -0.1875 -8.8465004e-06 5.0930935e-06 1 0
0.072697833 -0.11444266 -0.1875 -1.183878e-06 9.4893358e-06 1 0
0.085408486 -0.11389509 -0.1875 -1.9397254e-05 2.3894459e-06 1 0
0.097673744 -0.11229209 -0.1875 -3.3889812e-06 -2.0707714e-05 1 0
0.10193406 -0.11211307 -0.1875 -6.4869232e-07 9.8636929e-06 1 0
0.11622102 -0.1152811 -0.1875 1.0637245e-05 1.1728422e-05 1 0
0.13673997 -0.11853101 -0.1875 1.6065833e-05 7.2113671e-06 1 0
0.15475442 -0.11585013 -0.1875 -6.8612731e-06 -1.0231348e-05 1 0
0.18363358 -0.11717269 -0.1875 4.0222669e-05 -3.558366e-05 1 0
0.1956625 -0.11846225 -0.1875 -0 -0 1 0
0.20719211 -0.11507377 -0.1875 -0.00075332174 -0.00014436523 0.9999997 0
0.21503727 -0.11701277 -0.1875 -0.00056778942 -0.00020341975 0.99999988 0
0.22667654 -0.11900705 -0.1875 -0.05925684 -0.0060138651 0.99822468 0.0036510923
0.23209235 -0.11660281 -0.1875 -0.15373053 -0.023337035 0.98783714 0.0072867479
0.35689375 -0.11969867 -0.1870551 -0.74776524 0.00025403802 0.66396302 0.00037981384
-0.35669711 -0.10575788 -0.18728876 0.74845046 0.0032918598 0.66318262 0.00035778712
-0.24409276 -0.10568973 -0.18420066 0.35062549 0.017964749 0.93634349 0.0081148241
-0.22048029 -0.10424761 -0.1875 0.047037907 0.011461699 0.99882734 0.0018520213
-0.20587097 -0.10796669 -0.1875 2.1497448e-05 5.3476049e-07 1 0
-0.19278847 -0.10469883 -0.1875 2.999374e-05 -2.460983e-05 1 0
-0.18505614 -0.1060375 -0.1875 0 0 1 0
-0.16307551 -0.10662532 -0.1875 -2.2024518e-05 -2.5877991e-05 1 0
-0.15018114 -0.10554087 -0.1875 -9.6609401e-06 3.6418709e-07 1 0
-0.13731012 -0.10112057 -0.1875 -6.603434e-06 8.669309e-06 1 0
-0.12493807 -0.10282867 -0.18749999 2.2991221e-06 -1.2970733e-05 1 0
-0.11222328 -0.10427378 -0.1875 -1.2060511e-06 -2.0654763e-05 1 0
-0.10730723 -0.10213833 -0.1875 -8.3230316e-06 1.3805437e-05 1 0
-0.095834889 -0.10342862 -0.1875 -0 -0 1 0
-0.087359123 -0.10992537 -0.1875 9.1709335e-06 3.8080663e-07 1 0
-0.076102227 -0.10634452 -0.1875 -4.1695066e-06 1.6692913e-05 1 0
-0.052892201 -0.10381625 -0.1875 0 0 1 0
-0.045741204 -0.1078514 -0.1875 1.5600235e-05 -1.8043336e-05 1 0
-0.039789084 -0.10121478 -0.1875 -4.3435975e-06 8.4898047e-06 1 0
-0.028375216 -0.1025724 -0.1875 -2.1379094e-06 -1.3442661e-08 1 0
-0.013391091 -0.10738809 -0.1875 -3.3293693e-06 -5.4322959e-07 1 0
-0.0050399029 -0.10341268 -0.1875 -2.462576e-06 -1.1167775e-05 1 0
0.0084505305 -0.10993074 -0.1875 -4.2157279e-07 1.0980398e-07 1 0
0.017619718 -0.10573861 -0.1875 1.0372627e-06 -1.034166e-05 1 0
0.031738829 -0.10118023 -0.1875 0 0 1 0
0.093180001 -0.1076365 -0.1875 0 0 1 0
0.10354036 -0.10573444 -0.1875 -1.1189613e-05 -8.712932e-06 1 0
0.11928077 -0.10676719 -0.1875 -1.5897082e-05 1.308542e-06 1 0
0.13231906 -0.10703681 -0.1875 1.6303149e-05 -9.6986496e-06 1 0
0.14130342 -0.10498914 -0.1875 -1.502504e-05 1.5474117e-05 1 0
0.15620559 -0.102119 -0.1875 2.5629808e-05 7.4312761e-06 1 0
0.17953892 -0.10721481 -0.1875 -0 -0 1 0
0.18969424 -0.10525978 -0.1875 2.3685005e-05 9.1239679e-07 1 0
0.19296536 -0.10023098 -0.1875 -2.567605e-05 -1.4624768e-06 1 0
0.20172523 -0.10360399 -0.1875 -1.6005175e-05 4.103284e-07 1 0
0.21698356 -0.10142352 -0.1875 -0.00074460433 -0.0002042503 0.99999976 0
0.22526105 -0.10123162 -0.1875 -0.1186744 -0.0032206192 0.99292803 0.0057442137
0.23554006 -0.10643699 -0.18734148 -0.22400151 -0.018587315 0.97441149 0.0094972327
0.24729314 -0.10463336 -0.18236926 -0.40170798 0.012932544 0.91567647 0.0043260651
-0.35717398 -0.098188601 -0.18672207 0.74578583 -0.0029478346 0.6661793 0.00023433381
-0.24540019 -0.094663255 -0.18345249 0.37072098 0.00070475455 0.92874402 0.0078755496
-0.2374897 -0.094829291 -0.18706571 0.261861 0.019008799 0.96491843 0.0097255101
-0.21452871 -0.097685471 -0.1875 0.0024047976 -5.9917882e-05 0.99999714 1.3938632e-05
-0.20686038 -0.097851351 -0.1875 2.0235148e-05 -5.0525259e-06 1 0
-0.18373847 -0.092150144 -0.1875 -0 -0 1 0
-0.17089726 -0.098152727 -0.1875 -0 -0 1 0
-0.15711695 -0.096489869 -0.1875 -2.2922934e-05 8.3134237e-06 1 0
-0.14021394 -0.092582822 -0.18749999 -1.9886325e-05 1.495593e-06 1 0
-0.13453549 -0.094919704 -0.1875 -3.8103244e-06 -1.9289075e-05 1 0
-0.12521023 -0.097441137 -0.1875 -8.0771824e-06 1.0793129e-06 1 0
-0.097639322 -0.091356382 -0.1875 8.6619848e-06 -1.0217958e-05 1 0
-0.081151947 -0.096818835 -0.1875 -1.7675947e-06 2.1803056e-05 1 0
-0.061872154 -0.095604844 -0.18750001 3.438269e-06 -8.7801976e-07 1 0
-0.058975946 -0.090911426 -0.1875 5.0839221e-06 -9.5835703e-06 1 0
-0.042339318 -0.093315661 -0.1875 4.4964404e-06 -1.0515577e-05 1 0
-0.032535098 -0.09650147 -0.1875 -1.5079167e-06 -1.0660551e-05 1 0
-0.020150758 -0.099994063 -0.1875 2.5409834e-06 9.4211821e-08 1 0
-0.017859124 -0.092437617 -0.1875 3.1706429e-06 6.2993797e-07 1 0
0.028797474 -0.099900186 -0.1875 -7.1585796e-06 1.4897074e-05 1 0
0.032028615 -0.093459018 -0.1875 1.8807145e-07 6.2533613e-06 1 0
0.043466676 -0.099237792 -0.1875 3.8860285e-06 -7.6631181e-07 1 0
0.055862516 -0.092585176 -0.1875 -2.5362442e-07 -8.9298392e-06 1 0
0.063645408 -0.097038157 -0.1875 -4.0566474e-06 7.8979037e-06 1 0
0.072604187 -0.094565988 -0.1875 -3.8560056e-06 -8.7969205e-08 1 0
0.098214053 -0.091834038 -0.1875 -6.8883373e-06 1.5167271e-05 1 0
0.10387658 -0.093974493 -0.1875 -2.8795325e-06 1.0365831e-05 1 0
0.11130035 -0.093093172 -0.1875 -9.541408e-08 -1.1094829e-05 1 0
0.13486938 -0.098174453 -0.1875 -6.0963844e-06 -1.4580218e-05 1 0
0.14261335 -0.094981782 -0.1875 -1.1825357e-05 -7.2226089e-06 1 0
0.16007307 -0.090780996 -0.1875 1.5740108e-05 -8.1242661e-07 1 0
0.17835473 -0.092923716 -0.1875 7.7920998e-07 9.1298589e-06 1 0
0.19511303 -0.094934404 -0.1875 -4.4284443e-05 -4.8808038e-06 1 0
0.22766018 -0.092575051 -0.1875 -0.13542441 -0.0074957851 0.99075925 0.0065118372
0.23317453 -0.094104134 -0.1875 -0.22512315 -0.015058449 0.97421396 0.007407771
0.24684753 -0.096600056 -0.18262427 -0.38965827 -0.02283787 0.92067629 0.0047354251
-0.35950875 -0.082142651 -0.18394732 0.75012767 -0.0012029811 0.6612919 0.00026439206
-0.23690498 -0.085113801 -0.1875 0.22395639 -0.027256703 0.97421795 0.011340181
-0.22549845 -0.086278662 -0.1875 0.066914156 0.014963707 0.99764651 0.0018671107
-0.21762933 -0.085652098 -0.1875 0.037187416 0.0033994769 0.99930251 0.0016415247
-0.20981126 -0.081309251 -0.1875 0.0029729323 -0.00074938877 0.99999535 2.7244774e-05
-0.19511224 -0.085209586 -0.1875 1.3979778e-07 7.7108862e-06 1 0
-0.18804613 -0.086655632 -0.1875 -1.4596407e-05 2.6904952e-06 1 0
-0.1735871 -0.081773601 -0.1875 -1.8256014e-05 -2.5123395e-06 1 0
-0.16098046 -0.083003551 -0.1875 -6.946002e-06 -1.1126907e-06 1 0
-0.15925679 -0.085579835 -0.1875 7.4366576e-06 -8.4531621e-06 1 0
-0.13240156 -0.08453086 -0.1875 6.4775368e-06 8.1451135e-06 1 0
-0.11476924 -0.081947654 -0.1875 1.7798047e-05 -7.4749778e-06 1 0
-0.10615318 -0.085605323 -0.1875 -6.632546e-06 -4.6564725e-07 1 0
-0.092276409 -0.088061839 -0.1875 9.1942447e-06 7.4306822e-06 1 0
-0.084298886 -0.086098619 -0.1875 0 0 1 0
-0.076379836 -0.083298683 -0.1875 -2.3024006e-05 9.1495613e-06 1 0
-0.065872908 -0.082433254 -0.1875 -2.5768056e-06 -1.3445748e-05 1 0
-0.053947166 -0.081832081 -0.1875 -0 -0 1 0
-0.045504007 -0.082560308 -0.1875 -4.1682647e-06 -8.2758452e-06 1 0
-0.036137797 -0.084312603 -0.1875 1.7420465e-06 -3.1773803e-07 1 0
-0.010161653 -0.088904262 -0.1875 9.8599185e-07 -9.7745662e-08 1 0
-0.0097708106 -0.088118427 -0.1875 7.9471818e-07 -6.5706708e-06 1 0
0.018725205 -0.083784625 -0.1875 -1.3932785e-06 8.9693167e-06 1 0
0.044939093 -0.082081586 -0.1875 -1.6508183e-07 4.4677845e-06 1 0
0.054761484 -0.087419212 -0.1875 -4.1490989e-06 -9.4418974e-06 1 0
0.064064413 -0.085274033 -0.1875 -2.4495717e-05 6.6821694e-06 1 0
0.072038613 -0.082273707 -0.1875 -3.7476741e-06 5.7527598e-07 1 0
0.085273728 -0.084814191 -0.1875 1.6645033e-06 8.4406056e-06 1 0
0.095274121 -0.081317052 -0.1875 8.3971045e-06 -8.3430114e-06 1 0
0.11431685 -0.082813784 -0.1875 1.0356738e-05 -6.4354817e-06 1 0
0.12796041 -0.08487083 -0.1875 -8.9511504e-06 -6.4037963e-06 1 0
0.16220213 -0.08668451 -0.1875 -1.5489532e-05 7.8700123e-06 1 0
0.17388371 -0.088204227 -0.1875 3.3047859e-06 2.2798085e-05 1 0
0.18846834 -0.085984908 -0.1875 -8.7348951e-07 -9.3225908e-06 1 0
0.19832094 -0.087237328 -0.1875 1.7771948e-05 8.1593753e-06 1 0
0.2075446 -0.089935854 -0.1875 -2.0815942e-05 2.9163497e-05 1 0
0.22117677 -0.089215048 -0.1875 -0.059976425 -0.0097567635 0.99815214 0.0025104862
0.24347919 -0.085851409 -0.18455175 -0.34489265 -0.018600684 0.93845785 0.0062717083
0.25111008 -0.086755261 -0.18018505 -0.42499796 -0.012210707 0.90511197 0.0036972798
0.3565492 -0.082412228 -0.18746459 -0.7493524 0.0016782895 0.66216928 0.00025489993
-0.35585344 -0.077913754 -0.18829146 0.74448943 -0.0033105733 0.66762608 0.00032570335
-0.24415575 -0.075255513 -0.18416461 0.30991665 0.014006021 0.95066059 0.013027168
-0.239338 -0.076281786 -0.18692154 0.28033647 0.0051050964 0.95988828 0.013559594
-0.22877243 -0.077928871 -0.1875 0.12633306 0.0060485099 0.99196947 0.0078616394
-0.21904436 -0.074028246 -0.1875 0.035901263 -0.0076255426 0.99932629 0.0018257394
-0.19539556 -0.073828578 -0.1875 1.9485971e-05 1.5611957e-05 1 0
-0.18845254 -0.071626082 -0.1875 -1.9394887e-05 8.7045173e-08 1 0
-0.17797123 -0.073258631 -0.1875 -1.6566955e-05 2.2316624e-06 1 0
-0.16370848 -0.071672671 -0.1875 2.5849315e-05 -1.2188376e-05 1 0
-0.14611739 -0.071798675 -0.1875 0 0 1 0
-0.13219693 -0.073419318 -0.1875 -0 -0 1 0
-0.11177802 -0.072294943 -0.1875 0 0 1 0
-0.043914646 -0.073284864 -0.1875 -4.1783037e-06 -3.2959101e-06 1 0
-0.035821211 -0.074193284 -0.1875 -3.6846663e-07 -7.3116516e-06 1 0
-0.024866274 -0.077522703 -0.1875 -7.3887577e-06 1.8086277e-05 1 0
-0.018274736 -0.075592071 -0.1875 -7.7324648e-07 -4.7107892e-06 1 0
-0.0089651048 -0.077937998 -0.18750001 2.8872732e-06 -1.6155707e-05 1 0
0.0084849913 -0.070109271 -0.1875 -3.4987605e-07 5.7727129e-06 1 0
0.015943523 -0.076392449 -0.1875 7.4342734e-07 -2.6758755e-08 1 0
0.034727219 -0.0711184 -0.1875 -4.4033777e-06 3.7678387e-07 1 0
0.049499601 -0.074780844 -0.1875 -6.2279887e-06 -5.7598277e-07 1 0
0.11789097 -0.070354037 -0.1875 7.5449698e-06 1.8024137e-06 1 0
0.13574916 -0.07507813 -0.1875 1.8524281e-05 5.4015522e-06 1 0
0.14750044 -0.075180396 -0.1875 -1.8837196e-07 4.5079987e-06 1 0
0.15247709 -0.07884524 -0.1875 -9.2101418e-06 1.2009238e-05 1 0
0.17080227 -0.070511267 -0.1875 5.5823068e-07 -4.4463645e-06 1 0
0.19946614 -0.073450625 -0.1875 -1.6068558e-05 9.1735083e-06 1 0
0.2265832 -0.072539747 -0.1875 -0.10763279 -0.0042956276 0.99418145 0.0043294691
0.23219827 -0.073342554 -0.1875 -0.17776388 -0.0074639246 0.98404485 0.0044541056
0.24648911 -0.076236598 -0.18282935 -0.36703861 -0.0099198455 0.93015283 0.004851358
0.35455006 -0.077353075 -0.18984044 -0.74350756 -0.0016745679 0.66872531 0.00041671001
-0.36270475 -0.063806929 -0.18014908 0.75801563 -0.0006049631 0.6522361 0.00016890262
-0.35758868 -0.06293153 -0.18622923 0.74579328 0.001313035 0.66617614 0.00031556518
-0.24559629 -0.061191615 -0.18334028 0.33450395 0.023465876 0.94210213 0.0095238024
-0.23683883 -0.067491621 -0.1875 0.25683963 -0.019478885 0.96625769 0.010648177
-0.22189814 -0.064823225 -0.1875 0.036340564 -0.0017100205 0.99933803 0.0017082143
-0.21765453 -0.063145958 -0.1875 0.034033846 -0.003188344 0.99941558 0.0014971246
-0.20579104 -0.069681637 -0.1875 7.9129393e-07 -4.0543291e-06 1 0
-0.19379897 -0.065944783 -0.1875 1.5838239e-05 8.0426053e-06 1 0
-0.183807 -0.067745335 -0.1875 -2.6598926e-07 4.4745216e-06 1 0
-0.16448754 -0.06359154 -0.1875 3.329985e-05 -1.5845859e-06 1 0
-0.1442337 -0.062210985 -0.1875 1.4302703e-05 6.225735e-06 1 0
-0.13411881 -0.063427582 -0.1875 6.1356798e-07 4.4510048e-06 1 0
-0.12431334 -0.063758984 -0.1875 1.1523784e-05 1.6325097e-05 1 0
-0.11648581 -0.063629232 -0.1875 -8.9680452e-06 1.6086691e-06 1 0
-0.093966365 -0.062280845 -0.1875 -4.0047601e-07 3.0977042e-06 1 0
-0.080638252 -0.060962558 -0.1875 1.557384e-05 -4.1209805e-06 1 0
-0.059760362 -0.06221953 -0.1875 -1.8737434e-06 -7.6964225e-06 1 0
-0.045334365 -0.068866938 -0.1875 4.0383388e-06 -1.2237904e-05 1 0
-0.024138507 -0.061999567 -0.1875 1.9530812e-06 -7.5255725e-06 1 0
-0.016771011 -0.068345219 -0.1875 -9.4108174e-07 1.3436666e-07 1 0
-0.0016418062 -0.061700888 -0.1875 1.6485805e-06 4.6939158e-06 1 0
0.0065423213 -0.063915402 -0.1875 1.1171493e-07 -5.4261309e-06 1 0
0.0291315 -0.066288494 -0.1875 -1.9646388e-06 1.3215227e-07 1 0
0.03970838 -0.061032623 -0.1875 -2.6046749e-07 5.4590569e-06 1 0
0.042565536 -0.066373199 -0.1875 5.4111906e-06 -4.8951483e-06 1 0
0.054860584 -0.067563951 -0.1875 7.8368311e-07 4.6684427e-06 1 0
0.067892879 -0.065057725 -0.1875 -0 -0 1 0
0.088632926 -0.064293295 -0.1875 6.2481017e-06 1.3432947e-07 1 0
0.1354261 -0.063774072 -0.1875 -1.2947914e-08 -9.270384e-06 1 0
0.1436726 -0.064676538 -0.1875 6.2237664e-06 -7.7897921e-06 1 0
0.15500012 -0.06352061 -0.1875 1.1707598e-05 -5.7142068e-07 1 0
0.16766462 -0.064454705 -0.1875 1.7666262e-05 -2.854393e-06 1 0
0.18498984 -0.065893002 -0.1875 2.9628282e-07 -7.7201576e-06 1 0
0.1918325 -0.062951647 -0.1875 -0 -0 1 0
0.20176411 -0.06785363 -0.1875 3.9933575e-06 1.1719816e-05 1 0
0.21530944 -0.064339854 -0.1875 4.2061025e-08 4.5141128e-06 1 0
0.22236967 -0.069097228 -0.1875 -0.071199827 -0.010900673 0.99740249 0.0027222524
0.24568777 -0.063384674 -0.18328792 -0.35967916 -0.0043934947 0.93306565 0.0047323522
-0.3616038 -0.05422245 -0.1814575 0.75497031 -0.0014710274 0.65575737 0.00016933378
-0.23581241 -0.051634714 -0.1875 0.20551814 -0.038805582 0.9778837 0.0067157545
-0.20220564 -0.056905068 -0.1875 3.6903741e-05 -1.0916166e-06 1 0
-0.19421279 -0.053766381 -0.1875 -0 -0 1 0
-0.1881129 -0.051221982 -0.1875 -2.1814396e-05 1.2186529e-06 1 0
-0.17363931 -0.052004028 -0.1875 -2.5366413e-07 3.6678989e-06 1 0
-0.16352108 -0.055753801 -0.1875 9.7045231e-06 -1.6860302e-07 1 0
-0.15318213 -0.056487169 -0.1875 -3.1037918e-05 1.3513473e-05 1 0
-0.14685692 -0.051655091 -0.1875 -0 -0 1 0
-0.12569925 -0.052890956 -0.1875 2.2143394e-07 6.9161702e-06 1 0
-0.11544836 -0.054214135 -0.1875 -8.1903436e-06 6.1911915e-06 1 0
-0.10766004 -0.053487785 -0.1875 -1.4989037e-05 1.4354565e-06 1 0
-0.095324956 -0.055652428 -0.1875 7.8174817e-06 9.029025e-06 1 0
-0.086411633 -0.05587076 -0.1875 0 0 1 0
-0.07760781 -0.05291342 -0.1875 -4.0173172e-06 -5.0572373e-07 1 0
-0.06443949 -0.052595533 -0.1875 -0 -0 1 0
-0.059341393 -0.051934697 -0.1875 1.4182882e-07 6.4276805e-06 1 0
-0.04934372 -0.050732821 -0.1875 -3.8995331e-06 -6.1137425e-06 1 0
-0.03944917 -0.053549469 -0.1875 2.3138098e-06 4.7417798e-06 1 0
-0.020922808 -0.054227006 -0.1875 1.8636234e-06 -4.4220483e-06 1 0
-0.01479743 -0.057672322 -0.1875 -1.8172008e-06 -5.2038545e-06 1 0
0.0085973702 -0.053934842 -0.1875 5.3020483e-07 -1.1032258e-05 1 0
0.03481422 -0.057169385 -0.1875 -1.1250143e-07 -9.5918858e-06 1 0
0.049578588 -0.05139482 -0.1875 4.97152e-06 -4.7910612e-06 1 0
0.054493558 -0.053654302 -0.1875 9.2626997e-06 -2.9597985e-07 1 0
0.061655011 -0.053112246 -0.1875 -1.0178465e-07 -1.0482867e-05 1 0
0.075756378 -0.055083029 -0.1875 3.0234557e-06 1.1090345e-05 1 0
0.083897352 -0.057880841 -0.1875 9.6908634e-06 -2.8700024e-06 1 0
0.11638736 -0.052999906 -0.1875 -0 -0 1 0
0.12389448 -0.056069903 -0.1875 1.1320818e-05 1.4997042e-06 1 0
0.14272456 -0.053037055 -0.1875 7.571452e-06 -3.0053436e-06 1 0
0.16244788 -0.058239337 -0.1875 8.5049014e-06 -5.387149e-06 1 0
0.17762429 -0.053729001 -0.1875 -0 -0 1 0
0.1964974 -0.055291463 -0.1875 2.6872784e-05 -6.2681909e-07 1 0
0.20781155 -0.051454239 -0.1875 1.9466444e-05 5.962735e-06 1 0
0.2295996 -0.056505211 -0.1875 -0.16585962 -0.01382365 0.98605251 0.0066301408
0.25034067 -0.053952061 -0.18062535 -0.41879562 -0.0013403868 0.9080795 0.0037935236
0.35861242 -0.05944325 -0.18501258 -0.75510621 -0.0025254786 0.65559769 9.9939163e-05
0.36028969 -0.053748541 -0.18301925 -0.75715947 -0.0020630867 0.65322685 6.8428184e-05
-0.3601293 -0.041397929 -0.18320982 0.75534785 0.0014011392 0.65532261 0.00015708526
-0.35835493 -0.049866412 -0.18531859 0.7509377 0.0014676697 0.66037148 0.00024570717
-0.23940466 -0.046881102 -0.18688338 0.21350157 -0.041562025 0.97605819 0.0064205336
-0.22087121 -0.043727454 -0.1875 0.033454403 -0.016267227 0.99930787 0.0015391158
-0.21858457 -0.044673413 -0.1875 0.0039210571 -0.00072045991 0.99999207 2.5592279e-05
-0.20633984 -0.044500038 -0.1875 4.567861e-07 4.1319272e-06 1 0
-0.19281161 -0.047708023 -0.1875 0 0 1 0
-0.18388602 -0.043727972 -0.1875 0 0 1 0
-0.17577104 -0.042021543 -0.1875 -2.0679372e-05 6.0298071e-06 1 0
-0.16235104 -0.046071082 -0.1875 -2.5073678e-06 -9.8994833e-06 1 0
-0.15671314 -0.044438858 -0.1875 -9.7405689e-07 -4.0669047e-06 1 0
-0.14634489 -0.048172977 -0.1875 -8.7681228e-06 4.4378835e-06 1 0
-0.13184257 -0.048578024 -0.1875 9.1485035e-06 2.3537743e-07 1 0
-0.12575233 -0.041686229 -0.1875 0 0 1 0
-0.10630498 -0.044268381 -0.1875 -6.872524e-06 1.7851709e-06 1 0
-0.093370222 -0.045129091 -0.1875 1.629673e-05 -7.1348804e-06 1 0
-0.079219744 -0.040768318 -0.1875 -6.0634425e-06 -5.5537457e-06 1 0
-0.066694975 -0.043007374 -0.1875 -0 -0 1 0
-0.056237213 -0.048864305 -0.1875 8.242765e-06 7.244791e-06 1 0
-0.045028634 -0.042834982 -0.1875 -0 -0 1 0
-0.033850465 -0.045911264 -0.1875 -3.5588926e-06 -4.352602e-06 1 0
-0.022173701 -0.042713773 -0.1875 1.1941307e-06 -6.6164584e-06 1 0
-0.013565045 -0.045848772 -0.1875 -1.0034298e-06 -6.5631657e-06 1 0
-0.0042407271 -0.045948159 -0.1875 7.8390264e-07 -5.7012817e-06 1 0
0.003405177 -0.046274669 -0.1875 3.6879235e-06 -1.3190124e-05 1 0
0.022956684 -0.043084338 -0.1875 2.2934469e-06 -3.8974849e-06 1 0
0.035589386 -0.045967061 -0.1875 -0 -0 1 0
0.05643326 -0.042326942 -0.1875 9.1904845e-08 4.1450494e-06 1 0
0.10218314 -0.045753945 -0.1875 0 0 1 0
0.11411906 -0.047411807 -0.1875 -3.1501622e-05 -7.5075827e-06 1 0
0.1273751 -0.044262525 -0.1875 -1.085089e-05 -4.7381636e-06 1 0
0.14737068 -0.042538956 -0.1875 -1.5543952e-05 -6.6604034e-06 1 0
0.16758345 -0.048706114 -0.1875 -1.6187991e-05 -5.7403399e-06 1 0
0.17256844 -0.046677016 -0.1875 -4.0789066e-05 -1.0553565e-05 1 0
0.18278143 -0.045953624 -0.1875 9.9683189e-07 9.5962887e-06 1 0
0.19298056 -0.043825742 -0.1875 -1.6288763e-05 -9.9344579e-06 1 0
0.20258965 -0.04512072 -0.1875 1.882797e-07 4.1962076e-06 1 0
0.22396712 -0.043381911 -0.1875 -0.091834225 0.01582386 0.99564856 0.0031889477
0.35793632 -0.043237209 -0.18581608 -0.7518146 -0.0015947467 0.65937263 0.0001700875
0.36071557 -0.043561596 -0.18251315 -0.75043744 0.0020091 0.6609385 0.00018623704
-0.3602834 -0.03929922 -0.1830267 0.75534558 0.0024123313 0.65532231 0.00015536111
-0.35623354 -0.032195665 -0.18783973 0.7447781 -0.00099835522 0.66731143 0.00038787656
-0.24581505 -0.031356901 -0.18321508 0.28047007 -0.02639067 0.95949996 0.0075208275
-0.23352113 -0.032937542 -0.1875 0.18122736 -0.045200121 0.98240197 0.0076767248
-0.21715039 -0.036245815 -0.1875 0.031776357 -0.0081447912 0.99946183 0.0013878423
-0.20553325 -0.03656375 -0.1875 3.47846e-05 8.8905444e-06 1 0
-0.19277681 -0.030804098 -0.1875 1.1330781e-07 2.8793993e-06 1 0
-0.1761249 -0.031796724 -0.1875 -9.9975679e-08 1.9430629e-06 1 0
-0.16137877 -0.030466989 -0.1875 -8.6370102e-07 6.6163193e-06 1 0
-0.14322214 -0.032972284 -0.1875 -1.1909247e-05 -5.17033e-06 1 0
-0.13058326 -0.036382079 -0.1875 0 0 1 0
-0.090719461 -0.033014342 -0.1875 2.2800246e-05 -4.7939653e-07 1 0
-0.080018036 -0.032541022 -0.1875 1.1081168e-05 5.3980571e-06 1 0
-0.075580984 -0.032415539 -0.1875 -0 -0 1 0
-0.068380788 -0.036743391 -0.1875 -7.9405263e-06 -5.2014107e-06 1 0
-0.043305449 -0.032036498 -0.18749999 -5.0024614e-06 3.4860136e-06 1 0
-0.036489461 -0.038017396 -0.1875 -2.6374553e-06 -5.5957553e-06 1 0
-0.0279078 -0.036872204 -0.1875 2.7232984e-06 2.0154484e-06 1 0
-0.015684232 -0.032309491 -0.1875 9.2923028e-07 3.7425765e-09 1 0
0.0043086135 -0.032145701 -0.1875 1.4561617e-06 -4.785601e-06 1 0
0.013165184 -0.034409605 -0.1875 2.0764928e-06 -3.6369929e-06 1 0
0.037014741 -0.033844084 -0.1875 2.593617e-06 6.14199e-07 1 0
0.047261238 -0.030054167 -0.1875 1.0819331e-07 -1.7928641e-06 1 0
0.080723904 -0.030536339 -0.1875 -3.6445358e-06 1.8561299e-06 1 0
0.10676754 -0.034942124 -0.1875 -1.030696e-05 -2.481454e-06 1 0
0.11492389 -0.035562377 -0.1875 2.6478639e-05 4.2813522e-06 1 0
0.12025326 -0.032503907 -0.1875 2.0262563e-05 -4.0388509e-06 1 0
0.1367936 -0.036852844 -0.1875 6.8639446e-07 -6.153869e-06 1 0
0.14796826 -0.035028521 -0.1875 6.9887102e-07 4.3538703e-06 1 0
0.16435093 -0.034882456 -0.1875 -2.3494451e-05 -4.7194678e-07 1 0
0.17645127 -0.031917512 -0.1875 0 0 1 0
0.18477386 -0.034047049 -0.1875 -1.8394754e-05 -5.1264201e-06 1 0
0.2023524 -0.035179116 -0.1875 1.6187319e-07 -4.2983916e-06 1 0
0.21545246 -0.033106234 -0.1875 -0.0027876713 0.00050429004 0.99999595 1.2034089e-05
0.23733288 -0.031911924 -0.18709446 -0.1933005 0.037976336 0.98040438 0.008560339
0.24620712 -0.035497688 -0.1829907 -0.40172639 0.021100793 0.91551661 0.0054802652
-0.35465342 -0.025785252 -0.18971759 0.74406981 -6.4130392e-05 0.66810191 0.00030323872
-0.25099298 -0.022049371 -0.18025202 0.47175068 -0.0044066655 0.8817209 0.00086831546
-0.24522296 -0.023366086 -0.1835539 0.29750502 -0.062441505 0.95267612 0.0074833841
-0.21601743 -0.021591991 -0.1875 0.041097008 -0.00086873508 0.99915481 0.0014890663
-0.20667264 -0.024629947 -0.1875 0 0 1 0
-0.19408524 -0.027708534 -0.1875 1.7282662e-05 4.1314092e-06 1 0
-0.18250272 -0.024551854 -0.1875 0 0 1 0
-0.17405581 -0.025555659 -0.1875 0 0 1 0
-0.16919909 -0.022379845 -0.1875 3.9373739e-05 -5.2059568e-06 1 0
-0.15643913 -0.024725057 -0.1875 8.8823781e-06 -2.634235e-06 1 0
-0.13487709 -0.02135431 -0.1875 -6.3856487e-06 -1.7269051e-06 1 0
-0.11107738 -0.024907261 -0.1875 -0 -0 1 0
-0.10594141 -0.022106024 -0.1875 6.3679786e-06 -5.1476223e-07 1 0
-0.096903495 -0.027246196 -0.1875 4.3582808e-08 1.9474285e-06 1 0
-0.086919397 -0.022611022 -0.1875 9.4906536e-06 2.1972673e-06 1 0
-0.07604076 -0.02106449 -0.1875 -5.3075541e-06 -3.4782502e-08 1 0
-0.041841954 -0.028817661 -0.1875 -5.5735759e-06 -4.0231768e-08 1 0
-0.013388725 -0.025518861 -0.1875 -1.2207184e-06 1.9287747e-06 1 0
0.019416317 -0.022722848 -0.1875 4.7063048e-07 2.4851352e-06 1 0
0.021353193 -0.020415494 -0.1875 3.6499964e-07 1.2077775e-06 1 0
0.033806331 -0.023077313 -0.1875 -2.0987693e-06 4.938684e-06 1 0
0.050877821 -0.028994612 -0.1875 -3.3489579e-07 3.3624422e-06 1 0
0.062631249 -0.022777203 -0.1875 0 0 1 0
0.089923978 -0.021317281 -0.1875 6.1431942e-06 1.1833235e-06 1 0
0.10413311 -0.023016339 -0.1875 1.0337578e-06 8.6295213e-06 1 0
0.11826034 -0.022470666 -0.1875 2.6184774e-05 -5.3798672e-06 1 0
0.12403762 -0.024616547 -0.1875 8.2163388e-06 -2.2414517e-06 1 0
0.13450766 -0.0254559 -0.1875 1.9886498e-05 -1.8843815e-06 1 0
0.14531259 -0.023872107 -0.1875 -8.3062423e-06 -3.6414276e-06 1 0
0.15372783 -0.024802461 -0.1875 -4.6598106e-07 -3.0358738e-06 1 0
0.16488473 -0.026541471 -0.1875 1.6592727e-05 -1.5945544e-07 1 0
0.17170939 -0.029369794 -0.1875 -1.6215738e-05 -4.2086449e-06 1 0
0.18724152 -0.023930237 -0.1875 1.6463897e-05 -8.1963226e-06 1 0
0.20446114 -0.02498138 -0.1875 1.4440535e-05 5.8891042e-06 1 0
0.21355647 -0.026903175 -0.1875 -0.0028654733 0.0011618498 0.99999523 1.196582e-05
0.22611105 -0.025932468 -0.1875 -0.083500437 0.038186599 0.99577582 0.0038787946
0.23856689 -0.020467391 -0.18736278 -0.16849825 0.050819173 0.98439109 0.0071703847
0.24543682 -0.029408045 -0.18343154 -0.40807322 0.012087771 0.91286916 0.0061597712
-0.3572095 -0.01144173 -0.18667984 0.74934494 -0.00099469523 0.66217911 0.00025394262
-0.22068587 -0.011015207 -0.1875 0.071939826 -0.015059673 0.99729526 0.0017840727
-0.20839527 -0.017079972 -0.1875 2.3029512e-05 -4.1513795e-07 1 0
-0.19824009 -0.01252193 -0.1875 -4.4861018e-08 -2.4865838e-06 1 0
-0.15394384 -0.015695656 -0.1875 -1.7931045e-05 4.5558008e-06 1 0
-0.14977148 -0.012049876 -0.1875 -3.1387015e-05 2.4546341e-06 1 0
-0.12590674 -0.014424305 -0.1875 6.6225939e-06 1.3971093e-06 1 0
-0.11678059 -0.011868076 -0.1875 3.1919516e-08 -1.0114396e-06 1 0
-0.081213176 -0.011611246 -0.1875 -8.7204029e-08 8.2882582e-07 1 0
-0.054312188 -0.01613643 -0.1875 9.6126078e-06 2.6853334e-06 1 0
-0.034908175 -0.013531486 -0.1875 2.2308413e-06 2.2207166e-06 1 0
-0.020219609 -0.012651596 -0.1875 -2.9495093e-06 -1.1425878e-06 1 0
-0.014581703 -0.011530586 -0.1875 -0 -0 1 0
-0.0026586861 -0.013874377 -0.1875 6.2265514e-08 1.4852764e-06 1 0
0.0066803554 -0.014649795 -0.1875 7.9584117e-07 1.1842421e-06 1 0
0.01709182 -0.019946724 -0.1875 -1.1127978e-06 2.5265194e-06 1 0
0.027399227 -0.019072954 -0.1875 -2.5223787e-06 -2.0255638e-06 1 0
0.037451886 -0.018495619 -0.1875 -3.4758891e-06 3.4237887e-06 1 0
0.069958001 -0.01295305 -0.1875 -4.8067115e-08 -4.7184535e-06 1 0
0.070091575 -0.012399375 -0.1875 -4.8067115e-08 -4.7184535e-06 1 0
0.086025462 -0.016359836 -0.1875 -7.7467721e-06 -1.1980035e-06 1 0
0.10145573 -0.015001476 -0.1875 4.1743061e-07 2.4022665e-06 1 0
0.11526556 -0.018234812 -0.1875 -0 -0 1 0
0.12500273 -0.01839428 -0.1875 -7.4840268e-06 9.9245403e-07 1 0
0.13279916 -0.013265879 -0.1875 3.9447821e-07 -4.8336879e-06 1 0
0.14668886 -0.015702011 -0.1875 7.9804504e-06 -2.2340434e-06 1 0
0.15349233 -0.016085982 -0.1875 1.5042287e-05 -5.9475934e-07 1 0
0.16768567 -0.019166052 -0.1875 1.7619521e-05 3.1717134e-06 1 0
0.17921491 -0.010027528 -0.1875 0 0 1 0
0.18037012 -0.01519306 -0.1875 1.6387099e-05 -1.1713875e-06 1 0
0.19527344 -0.011792064 -0.1875 0 0 1 0
0.21777073 -0.016214281 -0.1875 -0.026664536 0.0012068503 0.99964368 0.0013860737
0.22832951 -0.013995752 -0.1875 -0.069995686 0.022012252 0.99730444 0.0027356534
0.23773515 -0.01360067 -0.1875 -0.10255247 0.041208312 0.99387366 0.0030721989
0.24524499 -0.015845649 -0.1835413 -0.34161812 -0.030970432 0.93932837 0.011605852
-0.24559902 -0.0055124536 -0.1833387 0.36543003 -0.034880783 0.93018502 0.0071099084
-0.20491736 -0.0032026768 -0.1875 -5.2208929e-05 -5.1262732e-06 1 0
-0.18140826 -0.0025373548 -0.1875 -1.5305495e-05 2.3954108e-06 1 0
-0.17362833 -0.0026699651 -0.1875 1.4212298e-08 -4.2191456e-07 1 0
-0.15408295 -0.0078758225 -0.1875 1.7596436e-05 8.1305132e-07 1 0
-0.10969825 -0.0090693384 -0.1875 1.4391226e-05 1.6631865e-06 1 0
-0.080886528 -8.1796199e-05 -0.1875 0 0 1 0
-0.063120678 -0.0049069142 -0.1875 3.7783702e-06 1.0197064e-08 1 0
-0.0582674 -0.0036443323 -0.1875 -4.5781608e-08 3.9814347e-07 1 0
-0.045364924 -0.0042458614 -0.1875 4.9446727e-09 1.4786015e-07 1 0
-0.024067366 -0.0052274098 -0.1875 4.6448486e-06 1.0002439e-06 1 0
-0.012608431 -0.001813598 -0.1875 -1.3333638e-06 7.3673142e-08 1 0
0.0015917121 -0.0027459362 -0.1875 6.7982704e-08 4.9526466e-07 1 0
0.025928959 -0.0011419877 -0.1875 -9.560801e-09 -1.3101091e-07 1 0
0.04050196 -0.0096309707 -0.1875 -1.4263041e-07 1.1737026e-06 1 0
0.053601664 -0.0014265068 -0.1875 4.7974783e-08 -4.7000185e-07 1 0
0.067039974 -0.0074817855 -0.1875 3.8528883e-06 2.7560156e-07 1 0
0.073421657 -0.0060197674 -0.1875 8.1695389e-06 1.6958081e-06 1 0
0.087662935 -0.0068688802 -0.1875 -7.5791104e-06 9.3790919e-07 1 0
0.092048556 -0.0029077977 -0.1875 -9.0267076e-06 1.5049558e-06 1 0
0.10449386 -0.0063892878 -0.1875 -9.608817e-06 -1.0908337e-06 1 0
0.11545251 -0.0083599985 -0.1875 -0 -0 1 0
0.12488788 -0.0064184912 -0.1875 5.8612288e-09 4.8920771e-07 1 0
0.13070783 -0.0031507164 -0.1875 1.6925214e-05 5.7283984e-07 1 0
0.14242016 -0.0054064617 -0.1875 6.300904e-08 -4.8773575e-07 1 0
0.19703305 -0.0092662871 -0.1875 2.1774627e-05 1.3538428e-06 1 0
0.21977009 -0.0053337589 -0.1875 -0.022973223 0.0061862161 0.99971694 0.00122843
0.23512152 -0.0010385802 -0.18710132 -0.18276006 -0.034932569 0.98253673 0.0095578609
0.35509881 -0.0044044927 -0.1891883 -0.74037874 0.0023793331 0.67218566 0.00034831522
-0.36028072 0.0039598234 -0.18302989 0.75649148 0.0014896584 0.65400189 0.0001079733
-0.35560471 0.00051537156 -0.18858701 0.74208999 -0.0012462492 0.67029905 0.00042213037
-0.22732434 0.0049399845 -0.1875 0.084540941 0.020981424 0.99619913 0.0022790728
-0.20265904 0.0059136637 -0.1875 -1.7923157e-05 -6.5959813e-07 1 0
-0.19824307 0.0030738413 -0.1875 3.8642065e-10 -2.5528752e-07 1 0
-0.18783347 0.0062307231 -0.1875 -1.815255e-05 7.9044463e-07 1 0
-0.16154173 0.0032913722 -0.1875 -1.9545265e-05 3.6959435e-07 1 0
-0.15388319 0.0065376908 -0.1875 -1.7602055e-05 -1.0831224e-07 1 0
-0.13589765 0.0041862279 -0.1875 -5.8285337e-09 2.1974861e-07 1 0
-0.11524782 0.0056593511 -0.1875 8.1937706e-06 2.4891742e-06 1 0
-0.10465895 0.0032807142 -0.1875 1.7520972e-05 -1.6862226e-06 1 0
-0.090885401 0.0032293424 -0.1875 6.7685555e-06 -1.2116834e-06 1 0
-0.089505456 0.0013751462 -0.1875 1.5879637e-08 -1.1910588e-07 1 0
-0.072108611 0.0054773707 -0.1875 -8.7853005e-06 -1.592124e-06 1 0
-0.066078871 0.0047734864 -0.1875 -0 -0 1 0
-0.055949494 0.0020739026 -0.1875 -4.2454776e-06 -3.8713571e-07 1 0
-0.044357657 0.0030734167 -0.1875 3.3409015e-06 -1.7705592e-07 1 0
-0.036325254 0.0086471289 -0.1875 -0 -0 1 0
-0.024295539 0.0033826474 -0.1875 -9.8403994e-08 -5.766392e-07 1 0
-0.018060971 0.0076025054 -0.1875 2.3850653e-08 5.6971709e-07 1 0
0.0029513016 0.0012292787 -0.1875 -2.4938112e-09 -5.9929124e-07 1 0
0.023757249 0.0093933865 -0.1875 -1.8498681e-06 5.4671449e-07 1 0
0.045896295 0.0043274811 -0.1875 2.2243313e-08 -9.0343121e-07 1 0
0.054483496 0.00025911443 -0.1875 -2.1339017e-09 -2.9127433e-08 1 0
0.09594015 0.0091774836 -0.1875 -2.0329846e-05 -6.8023985e-07 1 0
0.10592783 0.0086253714 -0.1875 -0 -0 1 0
0.11193739 0.0085844509 -0.1875 9.5749238e-06 1.8027333e-07 1 0
0.14445421 0.0013123304 -0.1875 4.8749884e-05 -5.5913792e-06 1 0
0.15375566 0.005700022 -0.1875 0 0 1 0
0.16801392 0.003571488 -0.1875 1.4003418e-05 -3.0727231e-06 1 0
0.17723942 0.0053651608 -0.1875 -0 -0 1 0
0.19336443 0.0052452199 -0.1875 0 0 1 0
0.20777325 0.0048912503 -0.1875 -0.0017541627 0.00070823589 0.99999821 6.7621841e-06
0.21063772 0.0085053071 -0.1875 -0.0015486091 0.0007887184 0.99999845 6.6624634e-06
0.2244539 0.0059973896 -0.1875 -0.037493635 -0.011179774 0.99923438 0.0020009503
0.2358509 0.0046504419 -0.18747896 -0.17426574 -0.012923175 0.98461384 0.009712901
-0.35752749 0.014357328 -0.1863019 0.75570625 -0.00095981132 0.65491003 0.0001669062
-0.24642542 0.013114866 -0.18286581 0.32132322 0.045008287 0.94589943 0.0054918951
-0.21810018 0.019328624 -0.1875 0.051922433 0.018654143 0.99847686 0.0023065179
-0.20451492 0.017678976 -0.1875 -1.2125122e-07 2.9572245e-06 1 0
-0.17625038 0.014074485 -0.1875 2.9544326e-05 -8.7054068e-06 1 0
-0.16781153 0.017250896 -0.1875 2.5893995e-08 -1.2729752e-06 1 0
-0.15455608 0.010487035 -0.1875 -2.6641101e-07 2.23962e-06 1 0
-0.14174567 0.012218289 -0.1875 -2.0181495e-05 8.5602267e-07 1 0
-0.13692516 0.018365923 -0.1875 7.6825227e-06 -3.4465925e-06 1 0
-0.12601915 0.016151134 -0.1875 -7.4158379e-06 9.7613463e-07 1 0
-0.11077787 0.01941419 -0.1875 -0 -0 1 0
-0.083737917 0.017366119 -0.1875 5.036994e-06 5.8421148e-07 1 0
-0.074587181 0.014439991 -0.1875 -1.5939446e-05 1.1188421e-07 1 0
-0.064890116 0.015608072 -0.1875 1.3798161e-05 -4.3370514e-07 1 0
-0.034986731 0.013487488 -0.1875 1.6806952e-06 8.8209345e-07 1 0
-0.026383616 0.018941537 -0.1875 -6.080907e-06 -1.4261351e-06 1 0
-0.015275846 0.014016349 -0.1875 1.2021635e-06 -1.0705061e-08 1 0
-0.0064345547 0.019270701 -0.1875 -5.1835946e-07 -2.2800771e-06 1 0
0.0038054255 0.017421843 -0.1875 -3.1502739e-07 3.861476e-09 1 0
0.014971402 0.013989354 -0.1875 1.7237905e-06 -2.0661618e-07 1 0
0.04594931 0.013176721 -0.1875 5.1061083e-06 -2.187239e-06 1 0
0.051344886 0.016589507 -0.1875 6.3389997e-08 -8.9184925e-07 1 0
0.062319718 0.01800878 -0.1875 1.0604157e-08 1.752346e-06 1 0
0.073609576 0.013397064 -0.1875 5.9881945e-06 1.2199821e-06 1 0
0.086064607 0.017103575 -0.1875 4.9751895e-07 2.3880732e-06 1 0
0.094754584 0.01983875 -0.1875 3.2873097e-05 -3.5285029e-06 1 0
0.1024867 0.010270707 -0.1875 9.6216918e-06 9.1687883e-07 1 0
0.11823354 0.017585661 -0.1875 1.7154536e-05 8.7022448e-07 1 0
0.12386991 0.015907131 -0.1875 -6.9683128e-06 3.7223192e-06 1 0
0.13509998 0.018690404 -0.1875 8.2403158e-06 7.8022731e-07 1 0
0.14367686 0.016059197 -0.1875 9.1257534e-06 -3.6625649e-06 1 0
0.15563892 0.011184417 -0.1875 2.3597229e-07 -9.2161793e-07 1 0
0.16319367 0.016809359 -0.1875 -1.9569222e-07 3.3752153e-06 1 0
0.18575814 0.014812488 -0.1875 1.6526645e-05 7.2227914e-07 1 0
0.19066058 0.015763916 -0.1875 1.7748765e-05 4.7778443e-09 1 0
0.20560195 0.015918266 -0.1875 -1.5081469e-05 -1.7656754e-06 1 0
0.21486171 0.016648686 -0.1875 -0.0023173492 0.00097901688 0.99999684 2.2353521e-05
0.22344883 0.016196176 -0.1875 -0.041077111 -0.0012609898 0.99915522 0.0026291949
0.23547484 0.014095414 -0.1875 -0.21116456 -0.014390955 0.97734457 0.012404121
0.24656057 0.018067531 -0.18278846 -0.3871924 0.022009458 0.92173618 0.0056929346
0.35516274 0.015415318 -0.18911232 -0.74236763 -0.0019770314 0.66998982 0.00038281281
0.36280704 0.015706036 -0.18002754 -0.75544643 -0.00025547959 0.65521038 0.0001711745
-0.36275139 0.027492056 -0.18009363 0.76446253 0.00021458986 0.64466822 5.0947938e-06
-0.35576701 0.024985768 -0.18839414 0.74939311 0.0004384382 0.66212517 0.00025102863
-0.24522614 0.025679082 -0.18355209 0.31427589 0.07652133 0.94624269 0.0066205407
-0.23658799 0.028348163 -0.1875 0.1969125 0.012736175 0.98033834 0.0094768703
-0.22642802 0.02108112 -0.1875 0.084315874 0.017618636 0.99628335 0.0037797485
-0.21270896 0.024495367 -0.1875 0.00025729983 -5.029442e-05 0.99999994 0
-0.20616151 0.028300382 -0.1875 0.00033249074 -5.1565781e-05 0.99999994 0
-0.19403273 0.024810858 -0.1875 -0 -0 1 0
-0.17390242 0.022530943 -0.1875 -2.9126213e-07 -2.3152147e-06 1 0
