# .PCD v0.7 - Point Cloud Data file format
VERSION 0.7
FIELDS x y z normal_x normal_y normal_z curvature
SIZE 4 4 4 4 4 4 4
TYPE F F F F F F F
COUNT 1 1 1 1 1 1 1
WIDTH 596
HEIGHT 1
VIEWPOINT 0 0 0 1 0 0 0
POINTS 596
DATA ascii
0.4190557 -0.24436308 0.060972169 -0.81457877 0.52256429 0.25176978 0.0018362647
-0.42571068 -0.2344415 0.065315329 0.86238939 0.44033125 0.24978586 0.0018666144
0.11852405 -0.23488274 0.062941104 -0.38669342 0.8430019 0.37391987 0.00074336672
0.12270653 -0.2332356 0.063136898 -0.39253196 0.84064144 0.37314939 0.00075844862
0.13210393 -0.23054782 0.065902948 -0.43763509 0.81095403 0.38836706 0.0017012118
0.4243055 -0.23860216 0.066454679 -0.8421225 0.4737452 0.25767258 0.0020062423
-0.43048924 -0.22495098 0.068349093 0.88736379 0.38812107 0.24889269 0.00038462089
-0.14274907 -0.22478461 0.069100916 0.52066398 0.76504201 0.37897208 0.0012797313
-0.13471013 -0.2285219 0.064307541 0.4613004 0.79892832 0.38589561 0.0018462609
0.13016181 -0.22918348 0.06092345 -0.43347278 0.8154369 0.38361952 0.0015720675
0.14464268 -0.22311978 0.068683267 -0.52504277 0.75789332 0.38720486 0.0013923753
-0.43311128 -0.21595009 0.064388864 0.89407259 0.37155721 0.25015888 0.00012286287
-0.15287974 -0.2139816 0.063128069 0.56390935 0.73682863 0.37294748 0
0.15902713 -0.21153291 0.06760031 -0.56476337 0.73599935 0.37329268 0
0.43328854 -0.21739537 0.067166626 -0.89286554 0.37463298 0.24988267 0
-0.43799263 -0.20587499 0.066923708 0.89454019 0.37059936 0.24990776 7.9878137e-06
-0.16505817 -0.20607539 0.065964386 0.56477511 0.7359851 0.37330288 0
0.16593534 -0.20564061 0.066434219 -0.56474072 0.73601085 0.37330401 0
0.43814608 -0.20505203 0.06625291 -0.89458656 0.37050986 0.24987462 0
-0.4419322 -0.19404557 0.063485965 0.89455676 0.3705762 0.24988294 0
-0.18358728 -0.19121623 0.064700097 0.63317358 0.68193358 0.36613896 0.0021791901
-0.4462015 -0.18483767 0.065115616 0.89453202 0.37064114 0.24987517 0
-0.19378729 -0.1832927 0.067937016 0.68352753 0.62764394 0.37263027 0.0021095055
-0.18855892 -0.18749706 0.06488882 0.64652163 0.66869426 0.36722994 0.0028774517
0.19194973 -0.18668315 0.069443315 -0.67914075 0.63487446 0.36837783 0.0023587928
-0.44983333 -0.17444593 0.062707916 0.89454174 0.37060606 0.24989218 1.6363509e-05
-0.20205781 -0.1734859 0.069406807 0.72899449 0.57220483 0.37569782 0.00021254816
-0.19495372 -0.17667709 0.060228303 0.71837604 0.58547544 0.37570515 0.00079791975
-0.45288482 -0.16860759 0.06497471 0.89455467 0.37059435 0.24986352 0
-0.20823979 -0.16547376 0.069473937 0.73505896 0.56565458 0.37379572 0
0.20658749 -0.16424547 0.064358093 -0.73532403 0.56547028 0.37355307 8.2758703e-07
-0.46094802 -0.15013641 0.066450275 0.89514023 0.36905217 0.25004885 0
-0.45805773 -0.1567494 0.065909266 0.89456338 0.37053064 0.24992684 4.2399326e-05
-0.21474762 -0.15615268 0.068203293 0.73600119 0.5647701 0.37327856 0
0.21301746 -0.15454522 0.062360339 -0.73603714 0.56471044 0.37329796 2.8031417e-07
-0.46230865 -0.14495689 0.063640907 0.89539331 0.36829761 0.25025535 5.5890028e-05
-0.22372329 -0.14360303 0.066913813 0.75716192 0.53379464 0.37652242 0.00089822442
-0.21780916 -0.14980833 0.064641319 0.74052536 0.55852818 0.3737224 0.00011466009
0.2198403 -0.14840241 0.066518947 -0.74375838 0.55483395 0.37280396 0.00018343744
0.22055562 -0.14902583 0.068872385 -0.73918897 0.56106788 0.37256229 1.1624848e-05
0.46361947 -0.14441954 0.067536518 -0.90001893 0.3576923 0.24904245 0.00013959713
-0.22661294 -0.13770163 0.063683137 0.77136171 0.50972193 0.38103098 0.0014565688
0.2282702 -0.13656336 0.065228522 -0.7786786 0.51236284 0.36213809 0.0020145429
0.46537375 -0.13760756 0.063715726 -0.9122442 0.32039887 0.25525483 0.00072102901
-0.4719547 -0.12340453 0.06761691 0.93321437 0.26415658 0.24358237 0.0021795265
-0.46835101 -0.12889509 0.061454698 0.92387766 0.29288647 0.24630785 0.0017701595
-0.23540081 -0.12668028 0.067822196 0.80796152 0.44682652 0.38411495 0.0020510254
0.23495142 -0.12963703 0.069602326 -0.80448985 0.46147963 0.37394208 0.0022771636
0.47192198 -0.12056825 0.064686045 -0.93849081 0.23854801 0.24965954 0.0025356705
-0.47246864 -0.11550827 0.064226747 0.9531737 0.17753805 0.24482675 0.00095920515
-0.2407665 -0.11317873 0.067301415 0.85060006 0.36658698 0.37695283 0.00029679557
-0.23822847 -0.11934656 0.067339882 0.83067852 0.40575856 0.38122588 0.0013349939
0.23869734 -0.11699534 0.066180356 -0.84685653 0.37469953 0.37740487 0.00043561831
0.47295535 -0.11333302 0.064996526 -0.94621074 0.19002746 0.26186773 0.0020006998
-0.47364038 -0.10502431 0.063425764 0.95774716 0.14797322 0.24662574 0.00017469967
-0.24467626 -0.10353972 0.067111216 0.85708708 0.35502908 0.37330434 0
0.47326308 -0.10447634 0.061699226 -0.95712006 0.13670406 0.25540802 0.00026423539
-0.47427747 -0.097040385 0.061835289 0.95980197 0.12858681 0.24949074 0
-0.24848369 -0.09440586 0.06716641 0.85708988 0.35503292 0.37329403 0
0.24733375 -0.095075935 0.065163478 -0.85707235 0.35502601 0.37334102 1.6797478e-05
0.47629666 -0.092727631 0.067411132 -0.96015894 0.12639382 0.2492377 0
-0.47614965 -0.08831083 0.064612389 0.95999014 0.12636925 0.24989946 0
-0.25274009 -0.082847297 0.065946527 0.86287105 0.33406541 0.37928072 0.0004904822
-0.24981885 -0.086542942 0.062754169 0.86019665 0.34676889 0.37391576 0.0001560572
0.25192827 -0.083726123 0.064918436 -0.85904229 0.35222468 0.37146226 1.5602223e-05
0.47504643 -0.088229775 0.060333371 -0.95999539 0.12638578 0.24987121 0
-0.25395074 -0.077614181 0.063749403 0.86949432 0.31824574 0.37775573 0.00097030908
0.25528491 -0.073975191 0.063351803 -0.87868065 0.30744791 0.3652342 0.001114375
0.47766337 -0.077437468 0.064928479 -0.959957 0.1264327 0.24999483 0.0001446876
-0.48011446 -0.063507937 0.067299411 0.95998389 0.12639277 0.24991165 0
-0.47932523 -0.066576496 0.065819547 0.95999783 0.1263693 0.24987011 0
-0.26017067 -0.062073048 0.066143446 0.89904112 0.22384387 0.3763231 0.0021908663
-0.25798225 -0.066069596 0.062047869 0.89135939 0.25288838 0.37619936 0.0017797244
0.26127744 -0.065259404 0.069903895 -0.90117806 0.22224621 0.37213537 0.0017744692
0.47900373 -0.065515272 0.064047746 -0.95999289 0.12639025 0.24987853 0
-0.48113313 -0.054219544 0.066515297 0.95999128 0.12636885 0.24989551 0
-0.4791539 -0.058162153 0.060905658 0.95997971 0.12639691 0.24992549 5.6161425e-05
0.26136595 -0.054734714 0.066708043 -0.9142468 0.14651535 0.37773809 0.0004041917
0.48123032 -0.05408828 0.066822127 -0.95999604 0.12638186 0.24987032 2.2819977e-05
-0.48179039 -0.048076965 0.065933451 0.95997846 0.12639356 0.2499319 8.6390224e-05
-0.26239526 -0.045461897 0.06623625 0.91976744 0.12109593 0.3733145 0
0.48262337 -0.042529672 0.066327922 -0.95999682 0.12637718 0.24986979 0
-0.4825955 -0.037088472 0.063468859 0.95998603 0.1263691 0.24991518 0
-0.26252735 -0.03509422 0.063198738 0.91976082 0.12110132 0.37332901 3.176021e-05
0.48313063 -0.031215107 0.062554114 -0.95998937 0.1263795 0.24989702 0
-0.48500195 -0.025817327 0.067013055 0.96002901 0.1259415 0.24996617 2.6133168e-05
0.48511991 -0.026026582 0.067571938 -0.95999157 0.12638675 0.24988508 0
-0.48616886 -0.014312146 0.065676972 0.96329594 0.10206033 0.24828334 0.00069255638
-0.26457745 -0.017297642 0.062477164 0.9241848 0.09949775 0.36875817 0.00030635422
0.26795194 -0.010842517 0.068697564 -0.92059332 0.10180882 0.37701848 0.00025340394
0.48558253 -0.017425647 0.064999081 -0.96055019 0.11897773 0.25137138 1.9178255e-05
-0.48714587 -0.0044515855 0.064443141 0.96684182 0.062584966 0.24758822 0.0014476781
0.26927811 -0.00071260403 0.068679176 -0.92830074 0.016243862 0.37147507 0.0020803967
0.48774016 -0.00073455297 0.064846307 -0.96746051 0.018432369 0.25234988 0.0021621853
-0.48799402 0.0031935198 0.0642763 0.96826154 0.027497426 0.24842167 0.0022620019
-0.26686519 0.0040331325 0.062028605 0.92344236 -0.0085460525 0.38364199 0.0019863779
0.26847863 0.0038611509 0.066418104 -0.93051445 -0.0020115846 0.36624959 0.0022975458
0.48887923 0.0028795833 0.067394383 -0.96860367 0.0055589932 0.24854781 0.0022864011
-0.48686332 0.015449421 0.06586282 0.96223038 -0.080943689 0.25992468 0.001543783
-0.2659151 0.015335002 0.063175499 0.91849178 -0.081440702 0.38696298 0.00081811805
0.4868232 0.014339107 0.065147109 -0.9637289 -0.091826558 0.25058845 0.00050397444
-0.26505303 0.024702495 0.064090036 0.91976249 -0.1208233 0.37341481 4.8415564e-05
0.26414281 0.022720382 0.061204471 -0.92119741 -0.10523137 0.37459534 0.000328831
0.48634684 0.025489539 0.068956546 -0.9630813 -0.10858592 0.2463403 0.0002057462
-0.48497036 0.03766593 0.06982699 0.95998102 -0.12639333 0.24992232 0
-0.26491588 0.037727039 0.067976967 0.91976815 -0.12110399 0.37330994 4.8602187e-06
0.2634806 0.038795412 0.064787216 -0.91976988 -0.1210928 0.37330934 0
0.48427343 0.03650384 0.066561744 -0.95996881 -0.12642598 0.2499526 0.00010347273
-0.48384866 0.045467909 0.069463722 0.95997512 -0.12641118 0.24993598 0
-0.26280457 0.047952466 0.066091828 0.91974115 -0.12272919 0.37284547 2.9041843e-05
0.26188514 0.04721171 0.06358622 -0.91903257 -0.12567087 0.37361196 3.8007282e-05
-0.48226413 0.055487633 0.068444192 0.95998514 -0.12640199 0.24990207 0
-0.26097652 0.0520951 0.062931553 0.91846985 -0.13754646 0.37080204 0.0002542492
0.25986674 0.058534801 0.062286124 -0.91503346 -0.15236588 0.3734948 0.0006143981
-0.48104462 0.064280629 0.068206295 0.96013635 -0.12686494 0.2490852 9.7046992e-05
-0.26080385 0.065236673 0.066768885 0.90883642 -0.18802013 0.37237734 0.0014830951
0.25931606 0.064395495 0.062830344 -0.90506017 -0.18965721 0.38065234 0.0013070347
0.26062369 0.064054728 0.065941632 -0.9117077 -0.17120321 0.3734684 0.00090602477
-0.47902668 0.071401626 0.064055577 0.95999199 -0.12638706 0.24988331 0
-0.2565867 0.078482248 0.064878173 0.88105142 -0.28316909 0.37889817 0.0019318407
0.25628757 0.07531371 0.06117807 -0.89213681 -0.2543304 0.37337375 0.0020824631
-0.4765653 0.08250279 0.060214646 0.95997471 -0.12638962 0.24994849 0.00013574473
-0.25219491 0.088303201 0.064134762 0.86069405 -0.34178796 0.3773416 0.00025163373
0.25471279 0.084514551 0.066312656 -0.86921155 -0.31633994 0.38000053 0.00088497164
0.47712326 0.085711122 0.063980751 -0.95998782 -0.1263772 0.24990404 1.0614441e-05
-0.47692546 0.094741769 0.067788184 0.95996839 -0.12640788 0.24996367 8.9440051e-05
-0.25148812 0.095003806 0.068884321 0.85797679 -0.35035506 0.37566894 3.3763532e-05
-0.24753481 0.099715456 0.064288586 0.85709137 -0.35502842 0.37329504 0
0.24750589 0.099490933 0.064008623 -0.85708886 -0.35501885 0.37330997 8.7190011e-07
0.4773843 0.095070519 0.069717124 -0.95998061 -0.12640318 0.24991895 1.9845775e-05
-0.47544175 0.10331057 0.066421896 0.9599787 -0.12639664 0.24992977 0
-0.2460458 0.10446328 0.06538514 0.85708767 -0.35502547 0.3733063 1.7048034e-05
0.24541688 0.10400096 0.063501492 -0.85709614 -0.35502034 0.37329176 0
0.47425544 0.10411926 0.062273666 -0.95998251 -0.12638015 0.24992333 2.0458241e-05
-0.47367549 0.11968912 0.06792026 0.95195282 -0.19194834 0.23862433 0.0011653901
-0.24145027 0.11415777 0.064053595 0.85495132 -0.35950214 0.37392035 4.2129064e-05
0.23821421 0.11808755 0.06036105 -0.85662729 -0.35591674 0.37351426 0
0.24430943 0.11269163 0.069223762 -0.857072 -0.35507336 0.37329671 0
0.47311446 0.11524667 0.063518345 -0.95598412 -0.16325498 0.24380739 0.0009558085
-0.47115219 0.12366468 0.060237367 0.94722849 -0.21604411 0.23681913 0.0015372793
0.23551108 0.12527111 0.060986463 -0.8353253 -0.41518447 0.36035198 0.0013389931
0.47194511 0.12524474 0.064082772 -0.93589085 -0.25270721 0.24545339 0.0019486921
-0.46799833 0.1381478 0.064948767 0.91508847 -0.32052851 0.24469246 0.001279742
-0.23256402 0.13870648 0.067791298 0.80274868 -0.46580204 0.37232122 0.0021714023
-0.22842826 0.13956727 0.060939584 0.79233271 -0.4812527 0.37497297 0.0022844784
0.23077935 0.13630873 0.060645245 -0.81065565 -0.45910001 0.36340716 0.0016847404
0.46733943 0.13774161 0.061987761 -0.92072046 -0.31002617 0.2369756 0.0012743154
-0.46673897 0.14065775 0.064162202 0.91183066 -0.33077514 0.24321328 0.00058148842
-0.22701117 0.14505067 0.066441216 0.76442903 -0.52614367 0.37258711 0.0012147983
0.22391622 0.14767957 0.06431637 -0.75719035 -0.53487188 0.37493303 0.00071325188
0.46599168 0.14296019 0.064901307 -0.91185671 -0.32801494 0.2468269 0.00085888943
-0.46119606 0.15584627 0.066841431 0.89452422 -0.37061813 0.24993709 3.9825252e-05
0.21967997 0.15209684 0.062646918 -0.74325132 -0.55391407 0.37517542 0.00022325281
0.22053997 0.15039855 0.061773255 -0.75218582 -0.54039502 0.37708065 0.00066973438
0.45981213 0.15551046 0.061389178 -0.89455944 -0.3705464 0.24991746 6.1592538e-05
0.46284777 0.15331729 0.069004126 -0.89687741 -0.36436892 0.2506915 8.7220295e-05
-0.45765576 0.1629329 0.06467583 0.8945958 -0.37049183 0.24986815 0
-0.20846684 0.16763784 0.064050533 0.73601156 -0.56473184 0.3733162 1.5836626e-05
0.21469888 0.16144773 0.066972807 -0.73597276 -0.56479907 0.37329099 0
0.4589484 0.16060817 0.065856256 -0.89455843 -0.37054202 0.24992773 6.6187691e-05
-0.2012136 0.17677045 0.063566409 0.72108012 -0.5829829 0.37439871 0.00036309406
0.20540041 0.17355676 0.066959202 -0.73501229 -0.56607509 0.37325048 1.56271e-05
0.45381856 0.17300355 0.065872334 -0.89452946 -0.37056965 0.2499904 0.00013129819
-0.44773781 0.18662772 0.064306296 0.89458251 -0.37050518 0.24989618 0
-0.19370775 0.18763256 0.065200754 0.67839229 -0.62511665 0.38602197 0.0011863514
0.19286281 0.18822433 0.06443011 -0.67844355 -0.63474178 0.36988816 0.0015288311
0.4486748 0.18367362 0.063280217 -0.89457649 -0.37051624 0.24990104 0
-0.44496313 0.19431084 0.065765977 0.89455646 -0.37052524 0.24995953 0.00014661245
-0.18564053 0.1960689 0.065455765 0.63289338 -0.67762899 0.37451959 0.0017071224
0.18904468 0.19329301 0.065132864 -0.64686 -0.6670841 0.36955506 0.0022387374
0.44435406 0.19619803 0.066384137 -0.89461625 -0.37071422 0.24946502 0
-0.44034773 0.204776 0.064761758 0.89457709 -0.37048265 0.24994878 5.8223341e-05
-0.1694866 0.20671824 0.062013403 0.56474793 -0.73600024 0.37331423 7.2653088e-06
0.1775687 0.2023055 0.065540314 -0.58795846 -0.71601146 0.37634075 0.00053666154
-0.43573374 0.21747255 0.067070931 0.89457136 -0.37053975 0.24988484 0
-0.16534451 0.21076486 0.063725255 0.5647946 -0.73597342 0.37329638 0
-0.15412055 0.2181724 0.061349727 0.56383896 -0.73645145 0.37379798 0
0.15704317 0.21558546 0.060670845 -0.56477368 -0.73597836 0.37331817 0
0.16613083 0.21138683 0.066141121 -0.56476825 -0.73598206 0.37331918 6.8224585e-06
0.43771061 0.21273457 0.067122325 -0.89477932 -0.37033209 0.24944758 2.0756368e-06
-0.43292403 0.22578102 0.06933257 0.89454764 -0.37058076 0.24990872 1.3680236e-05
-0.14732918 0.22551551 0.065552942 0.54712677 -0.74601358 0.37962604 0.00042093714
0.14831491 0.22541249 0.066841073 -0.54961926 -0.74718249 0.37368038 0.00041413645
0.15203032 0.22180323 0.06534604 -0.55971038 -0.73862684 0.37570551 0.00013053039
0.43228549 0.22506869 0.065990523 -0.89452827 -0.37070715 0.24979065 0
-0.4284445 0.23192687 0.062409882 0.88788432 -0.38771775 0.24766165 0.00029524937
-0.13683318 0.23397741 0.066357434 0.47292095 -0.79759574 0.37441522 0.0022866223
-0.12756124 0.23879065 0.066629119 0.41580769 -0.8318634 0.36756945 0.0013746005
0.13457577 0.2344023 0.063780017 -0.47868395 -0.78928298 0.38457 0.0018545905
0.42546272 0.23995383 0.063638046 -0.85043281 -0.46020809 0.25489739 0.0021622351
-0.42423245 0.24366987 0.064744093 0.85423934 -0.45138577 0.25792649 0.0021778981
-0.12248702 0.24225283 0.06975241 0.37385863 -0.84987718 0.37140089 0.00028860211
-0.1144039 0.24328867 0.064443551 0.36149803 -0.85542643 0.37089741 5.2446132e-05
-0.10573933 0.24764363 0.066202208 0.3550075 -0.85708153 0.37333748 1.8174163e-05
0.096571654 0.24943283 0.061591547 -0.35501656 -0.85708642 0.37331784 3.7210266e-06
0.10390645 0.24857934 0.06660746 -0.35501963 -0.85708827 0.37331071 4.5430977e-07
0.11365837 0.24338046 0.063945308 -0.36286739 -0.8533529 0.37432075 0.00012760505
0.42298564 0.24703297 0.065267675 -0.84117615 -0.47976601 0.24949405 0.0022409449
-0.41868061 0.25414369 0.068631001 0.80341053 -0.53910059 0.25278848 0.0010634187
-0.091080889 0.2546652 0.068382956 0.34657055 -0.86033809 0.37377447 0.00010348589
-0.081925526 0.25568014 0.062006354 0.3154217 -0.86896354 0.38132861 0.0010235846
0.079173222 0.25797194 0.064650789 -0.30338514 -0.87454617 0.37832054 0.0017010907
0.087217867 0.25570697 0.067101061 -0.35418594 -0.85729891 0.37361875 1.4283692e-06
0.095892347 0.25114691 0.064880945 -0.35502708 -0.85706234 0.37336293 4.6309873e-05
0.41696775 0.25496063 0.065292485 -0.79979807 -0.54671693 0.24783792 0.0013830495
-0.41157514 0.2615515 0.064261869 0.78149897 -0.56972677 0.2543045 0.00026349942
-0.066531897 0.26330641 0.066888474 0.22035226 -0.8941046 0.38989985 0.0019862021
-0.056985434 0.26323238 0.063609555 0.16365336 -0.91249752 0.37492114 0.0010256744
-0.043957837 0.26717526 0.069098406 0.12109309 -0.91976684 0.37331679 7.4870813e-06
-0.030570418 0.26530266 0.060142066 0.12109298 -0.91977382 0.37329963 8.4840885e-06
-0.014556465 0.26780078 0.061102483 0.089875892 -0.92240471 0.37562186 0.00078905257
0.0022510749 0.26932782 0.060873397 -0.049614046 -0.92805272 0.36912933 0.0013216214
0.014012209 0.26839492 0.062389906 -0.086649366 -0.92452252 0.37114665 0.00085086707
0.033666886 0.26497626 0.060342211 -0.12108442 -0.91977614 0.37329671 0
0.045438539 0.26531482 0.064994805 -0.121234 -0.91974694 0.3733201 6.6583189e-06
0.052876521 0.26290232 0.061463401 -0.15293294 -0.91668189 0.36919618 0.00059893809
0.069086276 0.26047724 0.060810059 -0.25000495 -0.89673984 0.3651785 0.0020392791
0.40759063 0.26693535 0.064712919 -0.77180398 -0.58566737 0.24761333 0.00010307745
0.41135567 0.26168102 0.063892819 -0.78314543 -0.57202154 0.2438743 0.00051835459
-0.40074199 0.2761066 0.065292895 0.76824391 -0.58936262 0.24990591 0
-0.0032057343 0.2709617 0.065208696 0.030363629 -0.92253196 0.38472438 0.0023473969
0.0065757167 0.27112564 0.066705793 -0.07269299 -0.92439145 0.37445471 0.0010709391
0.40227902 0.27487746 0.067118578 -0.76813358 -0.58951658 0.24988186 0
-0.39357242 0.28492898 0.064063556 0.76815468 -0.58946532 0.24993812 6.4904809e-05
-0.39016455 0.29009435 0.065771669 0.76820749 -0.58940953 0.24990728 0
-0.38498241 0.29566461 0.062980577 0.7681514 -0.58950073 0.24986465 0
0.38478631 0.29623711 0.063728228 -0.76813853 -0.58947396 0.24996743 0.00011079578
-0.37702861 0.30695975 0.065173261 0.76817042 -0.5894652 0.24989006 0
0.37715781 0.30702442 0.065722942 -0.76814777 -0.58947492 0.24993683 6.163853e-05
0.38070816 0.30159724 0.063835382 -0.76813519 -0.58951581 0.24987896 2.214758e-05
-0.37016308 0.31668711 0.067013107 0.76811993 -0.58953208 0.24988751 0
-0.36384311 0.32416925 0.065234132 0.76800394 -0.58965999 0.24994217 0
0.35893992 0.32951301 0.062766463 -0.76527101 -0.59320682 0.2499318 0.00010132971
0.36511409 0.32297885 0.066333272 -0.76803339 -0.58961201 0.24996485 0
-0.35343915 0.33657098 0.062505081 0.73301125 -0.62907875 0.25875562 0.00090564718
0.35467768 0.33517784 0.063026331 -0.75236183 -0.60842162 0.25253662 0.00070059893
-0.34798002 0.34402657 0.063309632 0.70704162 -0.65487009 0.26690346 0.0011693562
0.34715903 0.34491915 0.06289129 -0.71040326 -0.65156752 0.26605839 0.001815739
-0.34089735 0.35077918 0.062371451 0.67213696 -0.69769424 0.24790043 0.0017301176
-0.33571935 0.35488811 0.062788606 0.63197374 -0.73262864 0.25271416 0.0014729419
0.34104985 0.35102057 0.06347321 -0.65529329 -0.70759314 0.26439103 0.0019852926
-0.32545808 0.36393651 0.066399537 0.59509474 -0.76333719 0.25135341 0.00017660056
0.31788903 0.36794242 0.060859956 -0.58951545 -0.76813078 0.24989307 0
0.32878393 0.36116463 0.065723643 -0.59690374 -0.76160657 0.25231209 0.00021817315
0.30707094 0.37806845 0.066470191 -0.58948874 -0.76814854 0.24990176 0
0.31354809 0.37155527 0.061726704 -0.58946383 -0.76815867 0.24992932 9.0171096e-05
-0.29321116 0.38705298 0.061396651 0.58949834 -0.76814497 0.24989007 0
0.29088277 0.38860923 0.060688406 -0.58948016 -0.76815605 0.24989855 2.9201401e-05
-0.29021412 0.39087337 0.066071399 0.58961326 -0.76806033 0.249879 8.8870205e-05
-0.28680673 0.39292163 0.064330399 0.5895229 -0.76812458 0.24989446 0
-0.27990276 0.3994514 0.068118155 0.58970511 -0.76801008 0.24981688 0
0.27757761 0.39944264 0.062606618 -0.58955216 -0.76810986 0.24987096 0
0.28237501 0.3961567 0.063821539 -0.58954024 -0.76812023 0.24986711 0
-0.27528518 0.40270156 0.06721741 0.58956569 -0.76809829 0.24987468 0
0.26846036 0.407309 0.065282382 -0.58878869 -0.76865727 0.24998775 8.1136379e-05
0.2753824 0.40119478 0.062814623 -0.58953798 -0.7681219 0.24986731 0
-0.25564083 0.41718891 0.065414995 0.55638862 -0.79302293 0.2480855 0.00092448411
0.25514457 0.41896811 0.069713749 -0.56713855 -0.78749174 0.24126878 0.00085183897
0.26158285 0.41232467 0.064478233 -0.5888226 -0.76867163 0.24986362 0
-0.2456371 0.42549551 0.067353092 0.47381103 -0.84273505 0.25554025 0.0017634452
-0.2353382 0.42978275 0.065920636 0.42568493 -0.86986476 0.2492542 0.001358467
0.24464944 0.42476654 0.063705102 -0.48543233 -0.83711505 0.25217828 0.0028880776
0.25224808 0.42020679 0.066689245 -0.55992311 -0.793809 0.23738879 0.001041964
-0.22006588 0.43722901 0.069930978 0.37232274 -0.89381653 0.24993569 6.0553513e-05
-0.21702516 0.43614125 0.061528057 0.37056905 -0.89454895 0.2499214 4.6438035e-05
0.21541169 0.43826792 0.066748992 -0.3706618 -0.89452469 0.24987106 0
0.22480139 0.43316364 0.062399685 -0.38365743 -0.88780642 0.25417849 0.00018643014
-0.20861916 0.44140491 0.067906514 0.37058786 -0.89454174 0.24991955 0
-0.19273213 0.44791806 0.067664988 0.37063456 -0.89458317 0.24970177 0.00012061532
0.19514108 0.44590291 0.064023323 -0.37057477 -0.89455158 0.24990384 0
0.20366411 0.44205213 0.062876239 -0.37054899 -0.89455831 0.24991786 4.4244902e-05
-0.18257481 0.45117667 0.064268924 0.37057129 -0.89456242 0.24986982 0
-0.17771353 0.45295644 0.063431934 0.37049603 -0.8945986 0.2498523 0
-0.16882034 0.45765197 0.06705416 0.37051108 -0.8945806 0.24989413 0
0.16729598 0.45649207 0.060641695 -0.370543 -0.89455909 0.24992406 6.5637505e-05
0.18850641 0.45011592 0.069267184 -0.37049159 -0.89456999 0.24996082 7.7003111e-05
-0.15179242 0.46533731 0.069317177 0.36789271 -0.8955816 0.2501772 3.3040356e-05
-0.14017335 0.46829039 0.062659763 0.34625578 -0.90177166 0.25867882 0.00057444692
0.13679783 0.46953091 0.06209543 -0.31843397 -0.91376853 0.25224382 0.0009056619
0.14721751 0.46603405 0.065027848 -0.35980904 -0.89885384 0.25019822 0.00030494315
0.15419367 0.46355829 0.066509277 -0.37054721 -0.89456248 0.24990545 0
-0.12412439 0.47452006 0.063544303 0.23579103 -0.93716842 0.25713417 0.0022222821
-0.10122651 0.47807479 0.065400697 0.12672269 -0.95991963 0.24999128 0
-0.096339799 0.47952047 0.06848304 0.1264547 -0.96019495 0.24906817 7.3726005e-06
0.0895354 0.47919679 0.063798085 -0.12644756 -0.95996469 0.24995761 0.00012092087
0.094387077 0.47871009 0.064382166 -0.12640259 -0.95995593 0.25001413 0.0001315332
0.11206441 0.47579262 0.062114883 -0.16275759 -0.95202613 0.25914508 0.0010235967
0.12589936 0.4739438 0.063368171 -0.25849584 -0.9297806 0.26208362 0.0020013929
0.13575399 0.47068757 0.064688198 -0.31757811 -0.91378796 0.25325021 0.0010273837
-0.078228928 0.4800854 0.061493497 0.1263504 -0.95998865 0.2499148 6.4623251e-05
-0.067780957 0.48201007 0.063603178 0.12641096 -0.95999116 0.24987458 0
-0.052852087 0.48326579 0.060876761 0.12641375 -0.95997483 0.2499356 8.8349538e-05
-0.032569256 0.48778766 0.067989834 0.12624212 -0.96017319 0.24925959 0
-0.023329291 0.48851314 0.066103734 0.12651055 -0.96010172 0.24939896 0.00013813617
-0.013944323 0.48940191 0.06477154 0.090326957 -0.96495825 0.24636666 0.00074729935
-0.006821732 0.48925322 0.06059802 0.040236287 -0.96690303 0.25195161 0.0013275757
0.018275104 0.48909092 0.065767057 -0.10395966 -0.96249962 0.25057319 0.00061249017
0.026932135 0.48849523 0.067857005 -0.1263822 -0.95999104 0.2498894 3.5809317e-05
0.036406092 0.48647347 0.064881727 -0.12639971 -0.95998871 0.24988954 0
0.044021338 0.48566374 0.065622561 -0.12641922 -0.95996314 0.24997783 0.00012085585
0.06305775 0.48297581 0.0649243 -0.12635915 -0.95999056 0.24990311 5.9536978e-06
0.079146177 0.48188245 0.068860963 -0.12640016 -0.96000338 0.24983285 0
0.083257377 0.48063675 0.066154733 -0.12640102 -0.9599787 0.249927 0.00019443077
-0.0065075397 0.49099833 0.067143187 0.041790199 -0.9646768 0.2601006 0.0013238202
0.0088396557 0.49052113 0.066489525 -0.061530959 -0.9631387 0.26187345 0.0014274288
-0.054170556 -0.4814128 0.077647232 0.12639916 0.9627738 0.23893479 5.7229314e-05
-0.042905614 -0.4828307 0.077396937 0.12732351 0.9623639 0.24009271 0.00019023102
-0.031998318 -0.4841322 0.076880462 0.12611473 0.9602083 0.24918897 2.3000968e-05
-0.026241368 -0.48530495 0.078473926 0.1261348 0.96020645 0.24918593 0
-0.014893151 -0.48471534 0.070469558 0.10180517 0.96379089 0.24646051 0.00034491898
0.0055485829 -0.4868139 0.07380528 -0.041693989 0.96910083 0.24311569 0.0011144112
0.016605742 -0.48595184 0.07608588 -0.096641563 0.96818531 0.23081927 0.00059150218
0.024696358 -0.4850454 0.076695502 -0.1270037 0.96320176 0.23688045 4.9032562e-05
0.030965576 -0.48450142 0.077776462 -0.12441125 0.96335268 0.23764142 7.1719449e-05
0.046333641 -0.48204002 0.076093294 -0.12461704 0.96181083 0.24370164 0
0.055241976 -0.48099971 0.076602288 -0.12838298 0.96254992 0.23877899 0.00022661289
-0.12305666 -0.47078195 0.071647242 0.22202674 0.94479966 0.24095172 0.0020158058
-0.11347005 -0.47277465 0.074454099 0.18057708 0.95181781 0.24786045 0.00092235196
-0.1038513 -0.47413927 0.074831501 0.12913448 0.96091551 0.24487905 6.8688423e-05
-0.094806932 -0.4747045 0.07242883 0.12663163 0.96008742 0.24939232 4.0401905e-05
-0.082047746 -0.4760173 0.071018852 0.12641507 0.95998228 0.24990672 0
-0.077181913 -0.47798204 0.076105736 0.12541035 0.9624424 0.24078384 4.1136238e-05
-0.069824353 -0.4797048 0.079002842 0.12535167 0.96565771 0.22757921 0.00042484843
0.058800429 -0.47971836 0.073479518 -0.12638807 0.95998955 0.24989225 0
0.06718839 -0.47905111 0.075158417 -0.12638059 0.95999479 0.24987581 0
0.072544411 -0.47864705 0.07631509 -0.12738155 0.96202087 0.24143276 0.00016734281
0.086321957 -0.47756863 0.079140365 -0.12724116 0.96467221 0.23068865 0.00033596126
0.11402228 -0.47366649 0.078159422 -0.17724659 0.95661569 0.23123592 0.0017209331
0.12435922 -0.47264284 0.079454891 -0.23356928 0.94473362 0.23005164 0.0022526653
-0.14483057 -0.46281022 0.071587116 0.35513577 0.89912379 0.25584194 0.0003219299
-0.13591173 -0.46745309 0.074982814 0.3159568 0.91419816 0.2537972 0.0013801117
0.1345688 -0.46803603 0.075078383 -0.3136408 0.91776788 0.24358054 0.0010416204
0.14200395 -0.46568659 0.077692673 -0.33896065 0.9116025 0.23256502 0.0010617989
-0.17810389 -0.45092124 0.078364901 0.37036139 0.89810324 0.23715611 0.00016243893
-0.16498595 -0.45507079 0.07376793 0.3706879 0.89520431 0.24738592 9.123901e-05
0.15688539 -0.45857981 0.074318036 -0.37083372 0.89452225 0.24962424 0
0.16677184 -0.45463184 0.074844845 -0.37083891 0.89454281 0.24954304 0
0.17528395 -0.45128635 0.07549043 -0.3708995 0.89467329 0.24898443 4.6494981e-05
-0.2017577 -0.44064516 0.076652318 0.37244385 0.89711875 0.23762053 0.00027010049
-0.19408329 -0.44333208 0.074891374 0.37032393 0.89572537 0.24604088 0
0.18626216 -0.44571719 0.071832471 -0.37056455 0.8947711 0.24913147 0.00017066876
0.19894755 -0.44166565 0.07613869 -0.36898687 0.89819545 0.23894283 0.00014702561
-0.22436443 -0.43166247 0.078017414 0.37928623 0.89260042 0.24373426 0.00013028987
-0.21722239 -0.43409663 0.076141 0.37235984 0.89552897 0.24367215 6.1565173e-05
-0.20704189 -0.43879664 0.077870496 0.37041759 0.89801824 0.23739007 0.0001133875
0.2029525 -0.4387365 0.071591139 -0.37059832 0.89453995 0.24991006 0
0.22523379 -0.43044621 0.074952528 -0.37577805 0.89318204 0.2470158 0.00013971204
-0.23222905 -0.42833292 0.077760033 0.41212168 0.87877834 0.24063356 0.00083688041
0.22357193 -0.42992651 0.070627794 -0.37608385 0.89322168 0.24640621 0.00017937091
0.23273015 -0.42704627 0.073896974 -0.41559252 0.87893987 0.23398204 0.0012889658
0.24895112 -0.42058283 0.078650773 -0.48561633 0.84599119 0.22017193 0.0023419543
-0.25638315 -0.41308311 0.073126808 0.56370759 0.78578067 0.25452399 0.00092403841
0.25622436 -0.41382402 0.075030118 -0.5571968 0.79006219 0.25560412 0.0012275591
-0.27275822 -0.40170285 0.076768853 0.58956552 0.76817024 0.24965358 0
-0.26320967 -0.40752101 0.07213106 0.584786 0.77170128 0.25000501 7.8631056e-06
0.26480591 -0.40821654 0.078034431 -0.58486503 0.77409738 0.24229367 0.0002334336
0.27283621 -0.40109974 0.075098947 -0.59085304 0.76816553 0.24660589 3.7625239e-05
-0.28473946 -0.39306369 0.078473136 0.58946389 0.77223861 0.23702279 0.00031423409
-0.27752787 -0.39814663 0.077087685 0.59319818 0.76857907 0.23958753 0.00025675516
-0.2940557 -0.38466841 0.074640796 0.58905333 0.76971537 0.24607815 2.1999527e-05
0.29601464 -0.3837685 0.076495297 -0.58989006 0.76937526 0.24513559 0.00011996929
-0.30468687 -0.37690374 0.075848639 0.59036374 0.76806557 0.24808441 8.8015069e-05
-0.32192761 -0.36346659 0.075209625 0.58965081 0.76999295 0.2437679 6.9779613e-05
0.31825602 -0.36665165 0.076340079 -0.59109014 0.77161521 0.23499461 0.00028506794
0.32675993 -0.36091411 0.078761749 -0.58513153 0.77590859 0.2357688 0.00025810447
-0.32928821 -0.35782161 0.075218946 0.59850132 0.76352602 0.24253699 0.00035073297
0.33648419 -0.35262871 0.076229498 -0.62603676 0.73976189 0.24663804 0.0010723447
-0.34646526 -0.34305298 0.0718785 0.68976521 0.68166375 0.24404605 0.0019001395
-0.33993074 -0.34960973 0.075078703 0.63164151 0.73358917 0.25075075 0.0010225298
0.34398735 -0.34695089 0.076474056 -0.6582728 0.71203202 0.24430978 0.0014009757
0.35038453 -0.34105048 0.077939987 -0.71608889 0.65685749 0.23612495 0.0017641688
-0.35218847 -0.33751953 0.075156547 0.7231456 0.64682859 0.24222559 0.0016400622
0.34957194 -0.33958632 0.071988337 -0.72167659 0.64322639 0.25581768 0.0015433546
0.35683149 -0.33199155 0.076390095 -0.74794304 0.61969769 0.23781525 0.00097304571
-0.36437172 -0.32124484 0.074219696 0.76753479 0.59029347 0.24988802 0
-0.35935873 -0.32645413 0.071097292 0.76698655 0.59094274 0.25003663 1.2119272e-05
0.36336479 -0.32140428 0.071500495 -0.76806742 0.58968997 0.24967606 0
-0.37166071 -0.31153381 0.073720142 0.76813293 0.58952761 0.24985802 0.00013023344
-0.36609516 -0.31781763 0.071433611 0.76818532 0.58949804 0.24976639 0
0.37148675 -0.3125912 0.075679563 -0.77008605 0.59062588 0.24109867 0.00010555715
-0.38180166 -0.30090773 0.079829074 0.77319783 0.59329069 0.22398926 0.00043584729
-0.37631989 -0.30745083 0.078411564 0.77333552 0.58982044 0.23251675 0.00038753264
0.37546718 -0.30611739 0.072645061 -0.76824874 0.58959538 0.24934162 0
-0.38357437 -0.29650638 0.074896559 0.7702834 0.59009463 0.24176808 0
-0.37994379 -0.29994708 0.071851775 0.76809794 0.58957398 0.24985604 0
0.38571656 -0.29334974 0.074035883 -0.76806498 0.58984041 0.2493284 0
-0.39295214 -0.28519979 0.077054396 0.77159387 0.59357327 0.22872174 0.00025204971
0.3942273 -0.28365144 0.077321917 -0.77009636 0.59394354 0.23277169 0.0004472782
-0.40091264 -0.27278775 0.072247609 0.76821077 0.5894174 0.2498787 0
-0.39814687 -0.27708876 0.073890701 0.76965082 0.590119 0.24371536 2.3610322e-05
-0.0058849296 -0.27002007 0.078651503 0.053098738 0.92445785 0.3775689 0.0015505765
0.39829814 -0.2765159 0.073004648 -0.76810229 0.5895586 0.24987893 0
0.40352798 -0.27082929 0.075667955 -0.770742 0.58948427 0.2417955 0.00016946632
-0.41073191 -0.26260185 0.078406319 0.76764423 0.59206116 0.24532805 7.1729839e-05
-0.40593806 -0.26656401 0.073015586 0.7681284 0.58953875 0.24984574 0
-0.071373947 -0.26039171 0.076667979 0.22148691 0.90191072 0.37081078 0.0016169294
-0.066576689 -0.26158607 0.07755813 0.22150372 0.90190512 0.37081444 0.0016554141
-0.054702513 -0.26226789 0.075386323 0.15415668 0.91413224 0.37496412 0.00062005071
-0.045022964 -0.26419827 0.077002697 0.12176161 0.91963321 0.37342846 4.2933287e-05
-0.035034489 -0.26508549 0.075948767 0.12108964 0.91975319 0.37335151 2.2778237e-05
-0.024927825 -0.26627573 0.075603023 0.11699917 0.92062509 0.37250596 4.3305474e-05
-0.00056712201 -0.26987919 0.076579496 -0.0023080057 0.92794001 0.37272248 0.0023008736
0.0018586116 -0.26846433 0.073512405 -0.011367992 0.92694825 0.37501708 0.0024378586
0.019218201 -0.26802045 0.078049697 -0.11262833 0.92080486 0.37340763 0.00018829248
0.026573151 -0.2657291 0.074789837 -0.12043807 0.91987836 0.37325382 0
0.034343332 -0.26501268 0.075545192 -0.12108995 0.91976821 0.37331435 4.8011248e-06
0.045122683 -0.26312056 0.074379839 -0.1210878 0.91977102 0.37330821 0
0.053216375 -0.26191089 0.07402467 -0.13948931 0.91438198 0.38006353 0.00038536332
0.062203865 -0.26129878 0.075431772 -0.18707053 0.90703028 0.37722781 0.0018065786
0.070617616 -0.26085648 0.077071287 -0.25197965 0.89355969 0.37156069 0.0020191264
0.40473807 -0.26784736 0.072354034 -0.76827043 0.58935118 0.24985144 5.0644558e-05
-0.41263765 -0.25717077 0.071453631 0.7812013 0.57345146 0.24673474 0.00037312749
-0.093421079 -0.25204402 0.078469165 0.34744209 0.86078131 0.37194008 0.00010344843
-0.086717866 -0.25479755 0.078416318 0.34040117 0.86086118 0.37821302 0.00031296385
-0.077082247 -0.25621682 0.072511286 0.27243 0.87912422 0.39105308 0.0013797882
0.062102146 -0.25962994 0.071287066 -0.19801991 0.90516466 0.3761183 0.0015045344
0.075116932 -0.25636736 0.070987865 -0.28247881 0.88433206 0.37170228 0.0012409956
0.088497631 -0.2510224 0.071441375 -0.33130804 0.8676486 0.37070316 0.00045049595
0.096353322 -0.25116941 0.079249747 -0.35493785 0.85710216 0.37335631 3.1548094e-05
0.41312325 -0.25836116 0.075754344 -0.78677565 0.57048321 0.23565431 0.00042959509
-0.42378467 -0.24368531 0.073910676 0.82863706 0.50487721 0.24178414 0.0022290258
-0.11260397 -0.2420779 0.073830687 0.3623201 0.85463589 0.37191603 0.00012337865
-0.10632646 -0.24412732 0.072566032 0.35500181 0.85709286 0.37331688 8.911773e-06
0.095374674 -0.24871856 0.072692022 -0.35493833 0.85711163 0.37333411 1.2627745e-05
0.1041834 -0.24509645 0.07275299 -0.35500473 0.8570953 0.37330881 5.3916688e-07
0.1104675 -0.24134184 0.070108905 -0.35501987 0.85707933 0.3733308 1.161873e-05
0.4232384 -0.24442995 0.074038632 -0.82971579 0.49875733 0.25062475 0.0028004462
-0.42784762 -0.23634928 0.075794078 0.86772001 0.43311304 0.24387509 0.0015765767
-0.14080536 -0.23021823 0.076873139 0.51251227 0.77298129 0.37393996 0.0014729387
-0.13549651 -0.23232971 0.073750667 0.45629814 0.80291897 0.38355324 0.0021250569
-0.12445128 -0.23742349 0.074411377 0.39446205 0.84040821 0.37163651 0.00072991732
0.12197912 -0.23739211 0.07198824 -0.38453019 0.84473145 0.37224355 0.00080563582
0.14185645 -0.23031813 0.078660235 -0.51079959 0.76885748 0.38463235 0.0018753806
0.42940775 -0.23325126 0.076785468 -0.86131424 0.44821933 0.23924294 0.0019785629
-0.43343183 -0.22374178 0.077089965 0.89284807 0.38239637 0.23789772 0.00032358037
-0.14453533 -0.22745973 0.077077396 0.52733588 0.76416856 0.37143391 0.0012699168
-0.13974421 -0.22949561 0.073843107 0.49758232 0.77761638 0.38434941 0.002198318
0.13799524 -0.22913425 0.070484743 -0.49258184 0.78016376 0.38562641 0.0017895551
0.14312461 -0.22799674 0.076001965 -0.51611239 0.76726305 0.38070381 0.0016460413
0.43406719 -0.22038352 0.074384853 -0.89157659 0.37794587 0.24949573 0
-0.4357301 -0.21684346 0.07508868 0.89513487 0.37261751 0.24472368 0.00020083658
-0.16231488 -0.21164681 0.072798751 0.56475413 0.73599398 0.37331688 5.039637e-06
-0.15675578 -0.21821848 0.077345222 0.56380886 0.73664266 0.37346637 3.5358618e-05
0.15287249 -0.21931279 0.073627941 -0.5600431 0.73879832 0.37487161 5.974172e-05
0.16268572 -0.21178666 0.073635459 -0.56474334 0.73600566 0.37331048 1.1761948e-05
-0.44171965 -0.20054457 0.072361887 0.89458948 0.37063178 0.24968348 7.073037e-05
-0.17404711 -0.20317014 0.07383538 0.57380962 0.7274639 0.37621641 0.00019198892
0.1663397 -0.2092815 0.074224278 -0.56474501 0.73600745 0.37330437 6.8292438e-06
0.17563522 -0.20200042 0.073931731 -0.5759939 0.72672766 0.37429649 0.00020430693
0.44330114 -0.20184989 0.079958916 -0.9003635 0.37521851 0.2203559 0.00055116566
0.18689248 -0.19320692 0.073625162 -0.60732812 0.69834745 0.37876573 0.0012694647
0.19184196 -0.19040787 0.07561031 -0.64385366 0.66905618 0.37123621 0.0023702693
0.44594562 -0.19081619 0.073064744 -0.89453918 0.37062716 0.24987036 0
-0.45035139 -0.1812866 0.074705996 0.89492953 0.37045476 0.24872561 6.4713728e-05
-0.44900629 -0.18546425 0.076085471 0.89781421 0.37211305 0.23550256 0.00017754667
-0.20064002 -0.18000336 0.076471403 0.71281546 0.59361988 0.37350979 0.0010565926
-0.19459669 -0.18579747 0.073322073 0.67816198 0.63564074 0.3688595 0.0021563398
0.19672652 -0.18500166 0.076317273 -0.68957782 0.62203747 0.3708798 0.0024632805
0.44907576 -0.18686326 0.078408793 -0.89582378 0.37523985 0.23810685 0.00030005098
0.45147684 -0.18063363 0.077766798 -0.89695585 0.36948669 0.24279587 3.6584304e-05
-0.45526627 -0.17076276 0.076695576 0.89616597 0.37235141 0.24133167 0.00015844659
-0.2036159 -0.17531884 0.075251646 0.72492898 0.57854992 0.37384239 0.00041984278
0.20574541 -0.17414641 0.077676423 -0.73003834 0.57148868 0.37475976 0.00016521585
0.45294338 -0.17503476 0.074714705 -0.89690721 0.36939174 0.24311963 0
-0.45475078 -0.16971567 0.073297575 0.89475054 0.3709026 0.24870208 9.3592877e-05
-0.21527353 -0.1614299 0.077223726 0.73599845 0.56475699 0.37330401 0
-0.20885089 -0.16606873 0.071578883 0.73600662 0.56474274 0.37330917 8.5641859e-06
0.20854473 -0.16891651 0.07528346 -0.73527378 0.56575251 0.37322465 0
0.21151081 -0.16632271 0.077207334 -0.73600161 0.56473666 0.37332827 1.3619785e-07
0.45658123 -0.16745207 0.076493822 -0.89753783 0.37105989 0.23820271 0.00016866431
-0.4625212 -0.15221205 0.075159773 0.89542705 0.3705433 0.24679548 0.00016389161
-0.45876092 -0.15978733 0.07293123 0.89506996 0.37110242 0.24725072 4.0826282e-05
-0.22349611 -0.15113604 0.077862218 0.73996669 0.55728406 0.37667462 0.00015903944
-0.21783766 -0.15445113 0.07172136 0.73598558 0.56477296 0.37330502 0
0.21490189 -0.15900965 0.072829574 -0.73599213 0.5647558 0.37331817 2.0957272e-05
0.4592506 -0.15675616 0.070189595 -0.89456195 0.37051561 0.24995451 4.9296799e-05
0.4619368 -0.15504995 0.077275753 -0.89589286 0.37393594 0.23989157 0.0002368026
-0.46304575 -0.14988755 0.073590748 0.89590913 0.36918575 0.2470804 0.00021058746
-0.23092891 -0.14110707 0.077344276 0.76819289 0.51742256 0.37703267 0.0011923062
-0.22785883 -0.14611042 0.078860641 0.7513476 0.54219413 0.37616813 0.00053368579
0.22405213 -0.14807433 0.07432656 -0.7394675 0.56010371 0.37345895 4.7433612e-05
0.46470776 -0.14680468 0.07496918 -0.89631063 0.36489773 0.25194648 2.8915542e-06
-0.47102058 -0.13172258 0.075204007 0.91857094 0.30733043 0.2485467 0.0014708799
-0.46898016 -0.13563864 0.0737065 0.90813416 0.33584955 0.24999464 0.00057364535
-0.23480356 -0.13444459 0.074904129 0.78793454 0.48608321 0.37799791 0.0016256562
0.236416 -0.13267556 0.076314904 -0.79439217 0.48542556 0.36510709 0.0016329101
0.46808857 -0.1376698 0.073526464 -0.9059059 0.34060591 0.25163859 0.00049397891
0.47159421 -0.13212056 0.077847764 -0.91842121 0.31621683 0.23771706 0.0011909249
-0.24015707 -0.12571038 0.077819958 0.82553953 0.4213551 0.3754257 0.0016520763
0.47455677 -0.12400574 0.077537715 -0.93556327 0.25259075 0.24681835 0.0019266328
-0.47521162 -0.11532532 0.074671775 0.95023429 0.17742205 0.25607854 0.00099443016
-0.24426268 -0.11410156 0.076206058 0.85636914 0.35667679 0.37338126 2.4068346e-05
0.2441227 -0.11411596 0.075898387 -0.85082597 0.36648816 0.3765389 0.00019497164
0.47409016 -0.11652204 0.070968822 -0.9445793 0.21450992 0.24850632 0.0020382972
-0.47737783 -0.10580342 0.078177586 0.95756322 0.15093617 0.2455423 0.00048179872
-0.24695122 -0.10468957 0.073427886 0.85708505 0.35500133 0.37333533 2.1310698e-05
0.24942505 -0.10159884 0.076168373 -0.85708827 0.35501587 0.37331405 8.6378286e-06
0.47792885 -0.10185902 0.078299634 -0.96448588 0.12437892 0.23301701 0.00041122065
-0.47807026 -0.093440548 0.074585088 0.96094066 0.1270503 0.2458685 1.740335e-05
-0.25291643 -0.094368219 0.077308021 0.85709375 0.35501456 0.37330264 0
0.25129956 -0.093961805 0.073209196 -0.85757226 0.35369882 0.37345275 9.6936865e-06
0.47822395 -0.094468236 0.075695351 -0.96255845 0.12638141 0.23981005 5.3632662e-06
-0.47932404 -0.083622038 0.07443592 0.96105766 0.12785454 0.24499246 0.00021709439
-0.25404799 -0.086724244 0.07263647 0.85944951 0.34842494 0.37409443 9.5924886e-05
0.47958151 -0.081585102 0.074394934 -0.96120715 0.12669359 0.24500939 0
0.48017424 -0.084586725 0.078190148 -0.96333545 0.12872478 0.23540339 0.00036920208
-0.48054239 -0.075083613 0.074797958 0.96143126 0.12579308 0.24459355 0
-0.25861335 -0.075668499 0.072604179 0.88747931 0.28855774 0.35932562 0.0011982063
-0.48112085 -0.066031508 0.072442085 0.96161896 0.12523501 0.24414164 6.3863794e-05
0.26154092 -0.066157296 0.070844337 -0.89644521 0.2392747 0.37300628 0.0021832732
-0.48394981 -0.052180003 0.076304227 0.96136034 0.12729949 0.24409267 0.00018502396
-0.26512179 -0.055749401 0.076290973 0.91070342 0.16236463 0.37981191 0.0010056082
0.26567274 -0.057330597 0.078161411 -0.91237527 0.170151 0.37231714 0.0014601974
0.48432606 -0.053646237 0.078491241 -0.96291125 0.12677453 0.23818073 0.00027816874
-0.48482025 -0.04404844 0.075535588 0.96079779 0.126489 0.24671482 0
-0.26617196 -0.047320779 0.076144509 0.9177658 0.1415789 0.3710275 0.00048788983
0.26683021 -0.042734955 0.076278836 -0.91975009 0.12109286 0.3733581 4.933072e-05
0.48471898 -0.043381128 0.074809097 -0.96019 0.12673514 0.24894443 0
-0.48703718 -0.031947423 0.077931814 0.96332914 0.12534891 0.23724367 0.00018981502
-0.26804483 -0.032905463 0.076083027 0.9197619 0.12109906 0.37332705 2.5672933e-05
0.2664277 -0.035044007 0.072792314 -0.91975766 0.12108932 0.37334052 2.4561459e-05
-0.48770505 -0.023315459 0.076132044 0.96096683 0.12653026 0.24603423 0
-0.26853117 -0.024720233 0.074626267 0.91976941 0.12108619 0.37331274 9.3914314e-06
-0.48822945 -0.014487112 0.073681518 0.96216804 0.11587781 0.24658653 0.00015529658
-0.26879045 -0.015380358 0.07223545 0.9240343 0.088140458 0.37201065 0.0004169583
0.26842228 -0.017379966 0.071977019 -0.92061114 0.11426172 0.37338898 3.7616392e-05
0.27112338 -0.015229052 0.077934369 -0.92020756 0.11555848 0.37398434 4.1165647e-05
0.49017772 -0.011719238 0.079766229 -0.96853554 0.085180685 0.23384427 0.0016667391
-0.49085197 -0.0011208626 0.076996043 0.97077537 0.029793013 0.2381334 0.0024296904
-0.27093345 -0.0062351748 0.074549071 0.92553347 0.056274068 0.37446102 0.00087641575
0.26994324 -0.0010771276 0.070436232 -0.92645925 0.015566381 0.376073 0.0022071602
0.27290818 -0.0059802174 0.079331852 -0.92759657 0.074442193 0.36609152 0.00089462678
0.48925197 -0.0034976855 0.072051577 -0.96670312 0.034428664 0.25357383 0.0020119292
0.49065197 -0.0027200878 0.077036545 -0.96958822 0.023837546 0.24357872 0.0027907484
-0.49153537 0.0066640466 0.079367697 0.97225177 -0.0367589 0.23103087 0.0020434037
-0.273036 0.0079793399 0.078334458 0.92837816 -0.045488246 0.36884248 0.0012188015
-0.26955247 0.0096026221 0.070277989 0.92415047 -0.046087652 0.37923843 0.0018931085
0.2716291 0.005586084 0.074091665 -0.92873102 -0.023538677 0.37000632 0.0020289957
-0.49093908 0.010016365 0.078772597 0.97001445 -0.047257643 0.23840863 0.0019063705
-0.48963344 0.019302525 0.078453332 0.96817255 -0.094295666 0.23184097 0.00093301217
-0.271128 0.013331976 0.075369634 0.92645389 -0.06209797 0.3712506 0.0014987661
0.48970741 0.017106038 0.077626564 -0.96735734 -0.090259276 0.23679757 0.0011339667
0.49019969 0.017191604 0.079560965 -0.96896821 -0.08990851 0.2302545 0.0013491673
-0.27075714 0.02659997 0.078759655 0.91995966 -0.12006739 0.37317306 0
-0.26895642 0.024709741 0.073709771 0.9200449 -0.12005176 0.37296784 2.1847185e-05
0.26904237 0.028448384 0.075134352 -0.92010558 -0.11311153 0.374982 0.00014133623
0.48798704 0.023053419 0.074025415 -0.96532011 -0.10444575 0.23926589 0.00034606294
-0.48702341 0.032825738 0.075266056 0.96016949 -0.12639166 0.24919827 9.4807438e-06
0.26858649 0.033959564 0.075798728 -0.91978097 -0.1210969 0.37328079 0
0.48789477 0.034089956 0.079253078 -0.9657771 -0.12033721 0.22976853 0.0005286705
-0.26690781 0.046043813 0.075582497 0.91945785 -0.12275338 0.37353563 3.0076724e-05
0.48552784 0.04610236 0.076235451 -0.96029085 -0.12730639 0.24826309 9.2978247e-05
-0.48309356 0.055765707 0.07177119 0.95997906 -0.12641135 0.24992064 3.7516653e-05
-0.26391408 0.053778104 0.070715182 0.91558135 -0.13775806 0.37780082 0.00025261953
0.26537946 0.054474544 0.074551605 -0.91682053 -0.13386756 0.37619084 0.00022228899
-0.4820621 0.066941701 0.073460989 0.96015495 -0.12667981 0.24910802 0
0.48215979 0.067423992 0.074080363 -0.96065301 -0.12736307 0.24682899 0.0001812432
-0.48257655 0.070555732 0.077265069 0.96412724 -0.12734714 0.23289748 0.00038700324
-0.26171109 0.073918968 0.07259275 0.89691126 -0.21942225 0.38393235 0.0021836574
-0.25944775 0.078695133 0.071649492 0.87637979 -0.2828851 0.38978773 0.0020352267
0.25945133 0.078293636 0.071275838 -0.88625497 -0.27167532 0.37515944 0.0015448628
0.2622965 0.076669492 0.076263666 -0.89190245 -0.24661161 0.37906817 0.0018931275
0.48160321 0.078205973 0.077395208 -0.96396232 -0.13109252 0.23149799 0.00038795648
-0.47934532 0.084187724 0.071746439 0.96018761 -0.12612902 0.24926122 3.0452164e-05
-0.25811332 0.086573415 0.076078132 0.86763406 -0.32868055 0.37306872 0.00056112139
0.25957015 0.084848903 0.077782862 -0.87104285 -0.31546855 0.37651554 0.00077314046
0.47948164 0.080858022 0.070586316 -0.95998549 -0.1263541 0.24992505 0
0.48193806 0.08040674 0.07979463 -0.96399671 -0.13105218 0.23137772 0.0001112465
-0.47802448 0.098443456 0.073882185 0.96009475 -0.12643489 0.24946392 0.0001035007
-0.25431129 0.094693959 0.075071491 0.85735965 -0.35447446 0.37320545 0
0.25329792 0.095845141 0.073839672 -0.85799384 -0.35340485 0.37276235 3.3602515e-05
-0.47851241 0.10449134 0.078815408 0.9604494 -0.12767805 0.24745737 0
-0.25250426 0.10217462 0.078036897 0.85716593 -0.35488617 0.37325901 0
-0.2476061 0.10956281 0.073817216 0.85707694 -0.355032 0.37332484 1.3849092e-05
0.24871731 0.10432052 0.071383022 -0.85710335 -0.35498884 0.37330511 0
0.47774458 0.10597024 0.076613747 -0.96069974 -0.1281237 0.24625227 0
-0.47621465 0.11293681 0.074259698 0.95600885 -0.15346785 0.24998936 0.00046315257
-0.24571452 0.11399639 0.07369063 0.85625672 -0.3564221 0.37388188 2.7511494e-06
0.24460807 0.11679379 0.073810637 -0.85707182 -0.35504499 0.37332395 2.0777006e-05
0.47669283 0.11398143 0.07662525 -0.95603269 -0.16348487 0.24346288 0.00055411982
-0.47587007 0.12306347 0.078057759 0.94934058 -0.21383746 0.23027349 0.001776138
-0.2413044 0.12612444 0.07509914 0.84016168 -0.38943693 0.37744826 0.00060772058
0.24253672 0.12232898 0.07431896 -0.84791303 -0.383892 0.36560979 0.00057974941
-0.47185558 0.13427332 0.073011972 0.92380863 -0.29574144 0.24313484 0.0013499307
-0.24002743 0.13423945 0.07988476 0.82451415 -0.42176485 0.37721446 0.001283459
-0.23816416 0.1363479 0.077611938 0.81947327 -0.432311 0.37625888 0.0018985057
-0.46829835 0.14625177 0.078039452 0.91196293 -0.33711556 0.23383038 0.00084769877
-0.23376262 0.14346275 0.077349916 0.7811355 -0.50253868 0.370516 0.0019905735
-0.22957702 0.1487205 0.077051848 0.76756626 -0.52843964 0.3627584 0.0010577717
0.22802249 0.14797649 0.072861426 -0.76856238 -0.52057672 0.37190297 0.0012074115
0.23145299 0.14666057 0.077634096 -0.7847715 -0.49960431 0.36678234 0.0014648411
0.46742597 0.14932007 0.079466157 -0.9066779 -0.35241058 0.23182343 0.0005548335
-0.46596682 0.15117705 0.076996163 0.90225232 -0.36027795 0.23693982 0.00039052512
-0.22441635 0.15366121 0.074351728 0.75149965 -0.54849464 0.3666088 0.00055625074
-0.21975164 0.15854461 0.072542727 0.73803651 -0.56245458 0.37275594 7.8405741e-05
0.46475136 0.1510379 0.072438657 -0.89726973 -0.36348504 0.25057065 5.3333297e-05
