# .PCD v0.7 - Point Cloud Data file format
VERSION 0.7
FIELDS x y z normal_x normal_y normal_z curvature
SIZE 4 4 4 4 4 4 4
TYPE F F F F F F F
COUNT 1 1 1 1 1 1 1
WIDTH 608
HEIGHT 1
VIEWPOINT 0 0 0 1 0 0 0
POINTS 608
DATA ascii
0.40173277 -0.28583503 0.13520494 -0.80960178 0.55998909 0.17594683 0.0019456574
-0.4058772 -0.27463797 0.13486867 0.84035861 0.51250917 0.17644183 0.0001306052
0.40810907 -0.27469644 0.1366836 -0.85921568 0.48090446 0.17458305 3.9947263e-05
-0.41290131 -0.26266614 0.133532 0.84089547 0.51160973 0.17649411 0
0.41290975 -0.2655243 0.13565113 -0.86448044 0.47189099 0.17318343 0.00010552619
-0.41699898 -0.25612688 0.13407117 0.84058189 0.51232129 0.17592311 0
0.41715708 -0.25762376 0.1353229 -0.86445254 0.47197232 0.17310067 0
-0.42674166 -0.24166609 0.13857764 0.84098142 0.51270276 0.1728764 4.1185234e-05
0.42197421 -0.24814443 0.13353382 -0.86398035 0.47169709 0.17618087 7.9653815e-05
-0.43138856 -0.23332021 0.13643044 0.84098619 0.51269364 0.17287993 3.4352804e-06
-0.42880183 -0.23575097 0.13105606 0.83944488 0.51210147 0.18189153 0.00016738301
0.42842203 -0.23708117 0.13557564 -0.86407006 0.47180074 0.1754622 3.8415634e-05
0.43035594 -0.23386636 0.13647066 -0.86451352 0.47187933 0.17304972 3.5235145e-05
0.43381152 -0.22666876 0.13410167 -0.86455619 0.47066346 0.17612046 0.00013095829
-0.44240293 -0.21489164 0.13535514 0.84966612 0.49648419 0.17768203 0.00038823826
0.44150087 -0.21399343 0.13795152 -0.86446166 0.47195816 0.17309399 3.6245132e-05
-0.45113072 -0.20148149 0.13804038 0.90168047 0.40284303 0.15712984 0.00225785
-0.44856516 -0.20451969 0.13457045 0.88011193 0.44230244 0.17254461 0.0013647934
0.44588017 -0.20481794 0.13480233 -0.86451161 0.47184291 0.17315835 1.2964745e-05
-0.45384321 -0.19172853 0.13468473 0.92320067 0.34315521 0.17304645 0.0018778343
0.44864753 -0.19898668 0.1327222 -0.86852098 0.4626441 0.17785308 0.00020650028
0.45129377 -0.19518214 0.13556933 -0.87127125 0.45772338 0.17713182 0.00027010075
-0.45533285 -0.18756732 0.13614605 0.93625456 0.30348414 0.17698795 0.00064312638
0.45426092 -0.1892173 0.13412331 -0.88403279 0.4318271 0.17891754 0.0011245254
-0.4588002 -0.17456496 0.13422206 0.94448817 0.27922389 0.17313655 2.5612764e-05
0.45969063 -0.17923993 0.1340384 -0.91358572 0.36310554 0.18307227 0.0025678254
0.46209103 -0.17312577 0.13692939 -0.92599469 0.33248293 0.17885448 0.002250012
-0.46172303 -0.16644362 0.13715932 0.94484758 0.2776604 0.17368878 0
0.46377662 -0.16238654 0.1318433 -0.94811368 0.26362288 0.17771733 0.00094669103
-0.46514374 -0.15445878 0.13661432 0.94438666 0.27779084 0.17597181 3.9024406e-05
0.46637076 -0.15303616 0.13365279 -0.95658255 0.23336186 0.17461975 0
-0.46777916 -0.14376903 0.13385577 0.94388527 0.27833015 0.17780027 0
-0.47032696 -0.13672282 0.13646941 0.94489884 0.27722418 0.17410579 2.94036e-05
-0.46870425 -0.13998412 0.13283543 0.94363046 0.27911034 0.17792967 0
0.47172379 -0.13271993 0.13601498 -0.95708877 0.23239194 0.17313299 0
-0.47329053 -0.12536325 0.13442935 0.94441026 0.27740735 0.17644949 0
0.47357884 -0.12613872 0.13744988 -0.95718729 0.23217326 0.17288154 1.383107e-05
-0.47572488 -0.11593069 0.13259053 0.94460475 0.27766109 0.17500317 0
0.47610548 -0.11503953 0.13653766 -0.95718879 0.23213907 0.17291936 8.6551026e-06
-0.48119432 -0.10085039 0.13827492 0.94562501 0.27524018 0.17330973 0
-0.47896013 -0.10463936 0.13214535 0.94449848 0.27735904 0.17605278 0
0.47829026 -0.10411183 0.13396227 -0.95625818 0.23227398 0.17781793 0.00010988682
-0.4814437 -0.099083439 0.1368008 0.94562685 0.27509195 0.17353469 5.1625131e-05
0.47931954 -0.099167533 0.13302286 -0.95620239 0.2320971 0.17834809 0.00012007581
0.48128155 -0.09219075 0.13451922 -0.95647854 0.23202738 0.17695203 0.00010435236
-0.48481423 -0.086526431 0.13506261 0.95910019 0.22322294 0.17406416 0.0010958684
-0.48793998 -0.074218698 0.13570631 0.97463477 0.13902166 0.17538577 0.0024015775
0.48508522 -0.078739546 0.13751996 -0.95728129 0.23112758 0.17375967 0.00013345991
-0.48807079 -0.064989083 0.13470355 0.98076195 0.082414627 0.17695723 0.001176173
0.489429 -0.061018083 0.13777748 -0.96980083 0.16151917 0.18275084 0.0016224774
-0.48861495 -0.054776095 0.13641231 0.98395258 0.030167112 0.17586142 0.00015924331
0.48949245 -0.058345921 0.13454083 -0.97039378 0.15456724 0.18559346 0.0017074312
0.4914498 -0.053589698 0.13899313 -0.97850168 0.10192188 0.17929432 0.0025587738
-0.48842353 -0.045340408 0.13403732 0.98394275 0.023691716 0.17690493 7.0122682e-05
0.49097514 -0.047328204 0.13595243 -0.98125225 0.065784901 0.18115275 0.0018125712
0.48976004 -0.035864331 0.13059208 -0.98438162 0.001422141 0.17604181 0.00050195184
0.49038067 -0.03794558 0.13384393 -0.98400027 0.01293632 0.17769703 0.00091858808
0.49106422 -0.027219897 0.13919802 -0.98468757 -0.022162583 0.17291404 4.6512061e-05
-0.48929167 -0.013608867 0.13466126 0.98435825 0.023551503 0.17459702 0.00011620439
0.48923305 -0.012295352 0.13079983 -0.98349065 -0.024091404 0.1793481 0
0.49005246 -0.015994595 0.13496345 -0.98463941 -0.023585323 0.17299986 5.2377425e-05
-0.48938975 -0.0067828782 0.13429031 0.9843803 0.023683846 0.17445491 9.3921357e-05
0.48956135 -0.002465718 0.13400836 -0.98396802 -0.023793463 0.17675072 0
0.4900589 -0.00033905404 0.13713206 -0.98461813 -0.023617651 0.17311652 7.6679142e-05
-0.49005252 0.004440235 0.13653705 0.98463988 0.02355602 0.1730009 0
-0.48928815 0.0073160138 0.13179153 0.98344809 0.02389928 0.17960696 7.4666059e-05
0.48946515 0.0041026217 0.13435499 -0.98398906 -0.02230761 0.17682739 1.567324e-05
0.49014115 0.001033444 0.13778743 -0.98461938 -0.023597259 0.17311218 0
-0.49056816 0.015330826 0.13799126 0.98450875 0.02341189 0.17376517 8.6082073e-05
-0.48998374 0.019064296 0.13415405 0.98404557 0.023679098 0.17633399 0.00012009308
0.48924482 0.016589709 0.1348002 -0.98459107 -0.023511752 0.17328466 0.00021648548
-0.49015957 0.023783561 0.13451277 0.98446745 0.023658643 0.17396569 0.00013876973
-0.48975584 0.024292685 0.13214375 0.98352021 0.023846274 0.1792188 0.00014959919
0.48897797 0.024369791 0.13433979 -0.98461068 -0.023517946 0.17317288 0.00010704847
-0.48991561 0.030204888 0.13224864 0.98397839 0.0086487932 0.17807795 0.00035619727
0.48896569 0.037363429 0.13603939 -0.98466343 -0.023705332 0.17284672 5.5400484e-05
-0.49110198 0.043865811 0.13714615 0.9840976 -0.049389899 0.17062415 0.0019814118
0.48851618 0.043804627 0.13435629 -0.98428136 -0.0240753 0.17495862 1.8703056e-05
-0.49037078 0.054393932 0.13409798 0.97599959 -0.12763678 0.176447 0.0022278884
-0.48842043 0.059898287 0.13068908 0.971793 -0.14945009 0.18243681 0.0018451437
0.48829547 0.054905102 0.13461044 -0.98389435 -0.026441492 0.17678456 0
0.48864475 0.064646982 0.13792641 -0.98135024 -0.094156325 0.16758923 0.0017710896
-0.48630723 0.073445067 0.13717733 0.95989192 -0.21783538 0.17650874 0.00044689141
0.48736998 0.072644904 0.13175468 -0.97652173 -0.12421179 0.17600198 0.0016010208
-0.48377699 0.081161126 0.13352713 0.95627165 -0.23205087 0.17803653 0.00010069313
0.48467177 0.087113172 0.13522622 -0.95526314 -0.23867944 0.17465505 0.00088369794
-0.48099688 0.093679398 0.1349415 0.95721012 -0.23209313 0.17286271 0
-0.4798373 0.099857531 0.13681613 0.9572053 -0.23215388 0.1728081 8.0085474e-06
0.48289904 0.094012447 0.13661388 -0.95137262 -0.25536889 0.17226979 0.00047507457
-0.47946778 0.10115109 0.13650694 0.95719367 -0.23212844 0.17290629 4.5363751e-05
0.47909752 0.1051918 0.13378377 -0.94432104 -0.27819103 0.17569152 0
-0.47463688 0.11701293 0.13105515 0.95606101 -0.23283784 0.17814016 0.00013707648
0.47603643 0.11516515 0.13306461 -0.94424438 -0.27668503 0.17846014 0
-0.4739832 0.12375465 0.13648777 0.95717579 -0.23211478 0.17302388 0
0.47319427 0.12685141 0.13629296 -0.94484645 -0.2775569 0.17386 0
-0.47103781 0.13662848 0.13746433 0.95718414 -0.23205061 0.17306383 3.9284896e-05
0.47075057 0.13380398 0.13409829 -0.94452178 -0.27708149 0.17636473 0.00010083718
0.46744055 0.1436463 0.13180788 -0.94430095 -0.27736455 0.17710052 7.455083e-05
-0.46708202 0.1507699 0.13454804 0.95598817 -0.23340151 0.1777927 5.9627124e-05
0.46557298 0.15370896 0.13775697 -0.94494563 -0.27755404 0.17332488 0
-0.46374148 0.16555578 0.13590384 0.94826943 -0.26637527 0.1727113 0.00077085424
0.46107391 0.16633865 0.1334424 -0.94459629 -0.27692208 0.17621593 0
0.45714477 0.17847005 0.13144308 -0.94166064 -0.28465378 0.17957579 0.0003247163
-0.45583874 0.18591538 0.13299938 0.89428419 -0.41368794 0.17064014 0.0013367643
0.45575103 0.18391061 0.13256037 -0.9337191 -0.31274134 0.17424555 0.00073494489
-0.45240048 0.19392642 0.13767554 0.86727172 -0.46730796 0.17164814 0.00014471349
0.45246378 0.19674818 0.13520414 -0.91076618 -0.3733823 0.17632569 0.0018656038
-0.44738132 0.20113359 0.13225089 0.86448753 -0.47195083 0.17298488 0
0.44612521 0.20845591 0.13437523 -0.86614853 -0.46573171 0.18133022 0.0016157584
0.45158666 0.20054553 0.13748229 -0.89841306 -0.39929146 0.18281238 0.0022856682
-0.44080576 0.21296123 0.13165705 0.8628642 -0.47255307 0.1793289 6.1003077e-05
-0.43856046 0.21833085 0.13508774 0.86364043 -0.4721224 0.17670771 1.1675614e-05
0.44447348 0.21204954 0.13699824 -0.85557473 -0.48754287 0.17405087 0.00072518119
-0.43458894 0.22614872 0.13656972 0.86442721 -0.47210664 0.17286074 0
0.43620387 0.22419311 0.13278536 -0.84009141 -0.51202494 0.17910001 0.00012419622
0.42722338 0.23957723 0.13472515 -0.84088188 -0.51188087 0.17577204 0.00013467997
0.43195429 0.2330495 0.1383795 -0.84088624 -0.51282269 0.17298314 0.00011559852
-0.42393833 0.2447454 0.13407657 0.86395544 -0.47143447 0.17700447 0
0.42359057 0.24545205 0.13447665 -0.84097433 -0.51270705 0.17289788 7.0363327e-05
-0.41869992 0.25464761 0.13491301 0.8644442 -0.47205931 0.1729054 0
0.4181377 0.25462711 0.13516222 -0.84099764 -0.51267874 0.1728688 1.5640771e-05
0.42038196 0.25255585 0.13993685 -0.84098506 -0.5126794 0.17292736 3.2302407e-05
-0.41340113 0.26502857 0.13675474 0.86451399 -0.47194019 0.17288122 0
-0.40971443 0.26932088 0.13003592 0.85941005 -0.47860014 0.17987898 0.0003008213
0.40853459 0.26908374 0.13132216 -0.84013742 -0.5122202 0.17832442 3.2616525e-05
0.41343346 0.26237202 0.13524796 -0.84094352 -0.51275557 0.17290369 0
-0.40852612 0.27343786 0.13533312 0.85923296 -0.48086321 0.17461182 0.00028118124
0.40482429 0.27603164 0.13387969 -0.84066653 -0.51289088 0.17384689 3.9364084e-05
-0.40145785 0.28621107 0.13485654 0.81740171 -0.54901648 0.1744574 0.0020663459
0.3982057 0.28711373 0.13455018 -0.83958304 -0.51448405 0.1743743 9.4585019e-05
0.40218788 0.28133529 0.13678432 -0.84088874 -0.51257068 0.17371656 0
-0.39545092 0.29428461 0.13423254 0.78192282 -0.59967166 0.17026648 0.0020271789
0.39316407 0.29625142 0.13712567 -0.82288325 -0.53970599 0.17770901 0.00073977007
-0.38467696 0.30571252 0.13407432 0.72448784 -0.66605031 0.17746587 0.00049196626
0.38656458 0.30679357 0.13628769 -0.79107541 -0.5854122 0.17746054 0.002159446
-0.37764624 0.31214947 0.13038576 0.71288079 -0.67825007 0.17826298 0
0.37685686 0.31701446 0.1347318 -0.70959347 -0.68400729 0.169148 0.0009887846
0.38253525 0.31141418 0.13396047 -0.76102167 -0.62649626 0.16836978 0.0022476381
-0.37089032 0.32078418 0.13647103 0.71260935 -0.67944735 0.17475499 0
-0.36782369 0.32330248 0.13372456 0.71282178 -0.67922157 0.17476575 0
0.36422768 0.32951632 0.136639 -0.67991674 -0.71266407 0.17269376 0
0.37277406 0.32179523 0.1383968 -0.69705409 -0.69811231 0.16356944 0.00039155508
-0.36056489 0.33061391 0.13253359 0.71287656 -0.6796419 0.17289858 8.7809683e-05
-0.35635045 0.33539826 0.13396242 0.71285874 -0.67966735 0.17287225 0
0.35484648 0.33786926 0.13420486 -0.67937559 -0.71192062 0.17781393 2.0037711e-05
0.36125886 0.33262199 0.13777499 -0.6795609 -0.71290344 0.17310613 2.6759926e-05
-0.35105976 0.34217566 0.13878867 0.71292865 -0.67970973 0.17241628 0
-0.34669518 0.3452518 0.13288274 0.71176636 -0.67955142 0.17775993 8.0197315e-05
0.34837729 0.34393954 0.13380572 -0.67917824 -0.71168077 0.17951983 0.00011917463
-0.34073806 0.35205024 0.135043 0.71294141 -0.67897689 0.17522806 0
-0.3364341 0.35612002 0.13329323 0.71185142 -0.6791988 0.17876384 0
0.33385277 0.35804281 0.13486564 -0.67923534 -0.71273136 0.17508096 0
0.34154773 0.35031524 0.13324916 -0.67974132 -0.71170342 0.17728475 0.00010702486
-0.32643306 0.36609292 0.13125663 0.70786828 -0.68345863 0.17834492 0.00011883159
0.32599404 0.36591464 0.13643318 -0.67961866 -0.71288747 0.17294484 5.4511271e-05
0.33058447 0.36069676 0.13296145 -0.67915118 -0.71237159 0.17686297 0
-0.32321388 0.37112471 0.13776284 0.69982028 -0.69222313 0.17629142 0.00032404732
-0.31752717 0.37713766 0.13794997 0.66449416 -0.72474557 0.18218496 0.0014585189
0.31662789 0.37369323 0.13168971 -0.67999399 -0.71136475 0.17767496 0.00013984162
0.3207584 0.3706677 0.13545117 -0.67965686 -0.71283019 0.1730309 7.4865267e-05
-0.30525699 0.38684115 0.13317052 0.59847695 -0.78026342 0.18169841 0.0023606217
0.29987344 0.38992536 0.13276219 -0.64763749 -0.74067098 0.17880775 0.0010699204
0.30274329 0.38770342 0.13488171 -0.65948564 -0.73102188 0.17517346 0.00079624937
-0.29549631 0.39311147 0.13463005 0.54222643 -0.82157743 0.17607121 0.00095387897
0.29932773 0.3912276 0.13598737 -0.63954657 -0.74820811 0.17653568 0.0016306859
-0.2822381 0.40111327 0.13423403 0.51174641 -0.84033412 0.17875716 0
-0.27612117 0.40526041 0.13626678 0.51272339 -0.84083438 0.17352866 2.351406e-06
-0.2694416 0.40983617 0.13871564 0.51261282 -0.84092957 0.17339405 0
0.27200481 0.40896294 0.13360482 -0.48174059 -0.85883588 0.17414615 0.00025036436
0.28217968 0.40346333 0.13387953 -0.53364867 -0.82716858 0.17609996 0.0015489493
-0.26293856 0.41331878 0.1363703 0.51272923 -0.84084594 0.17345574 0.00010969496
-0.2576879 0.41522491 0.13007 0.51200557 -0.83886772 0.18480027 2.8266564e-05
0.25670102 0.41767624 0.13539948 -0.47192821 -0.86452514 0.17285849 0
0.26702654 0.41169512 0.13367736 -0.47159782 -0.86408305 0.17594314 0
-0.25238526 0.42020041 0.13854769 0.51279068 -0.84093142 0.17285834 1.4628571e-05
-0.24377066 0.42412734 0.13210084 0.51261789 -0.83988541 0.1783686 0.0001690326
-0.2368854 0.42895645 0.13517255 0.51256138 -0.84100437 0.17318316 0
0.23565879 0.42837784 0.13147107 -0.4709841 -0.86348158 0.18048139 6.7237117e-05
0.2437305 0.42498627 0.1365463 -0.47199363 -0.86452043 0.17270315 9.3352173e-05
0.25129786 0.42145801 0.139561 -0.47188652 -0.86456615 0.17276706 3.2585118e-05
-0.23198198 0.43163413 0.13365559 0.51288569 -0.8396399 0.17875454 0.00013417915
-0.22483568 0.43647861 0.13602762 0.5126819 -0.84057939 0.17488132 3.6821402e-05
0.21638295 0.43904006 0.13216829 -0.47263584 -0.86287403 0.17906374 0.00017472307
0.23068383 0.43158543 0.13393016 -0.47168922 -0.86448717 0.17369863 4.7108599e-05
-0.21349157 0.44342867 0.13619255 0.4808481 -0.8592701 0.17447069 0.00084159215
-0.20724066 0.44755641 0.1377333 0.4526453 -0.87510854 0.17116445 0.0016824442
0.19914207 0.44947901 0.13730437 -0.47175729 -0.86457896 0.17305574 1.5836131e-05
0.2022265 0.44731086 0.13488221 -0.47201344 -0.86439747 0.17326401 0
0.21652508 0.44037986 0.1392566 -0.47202769 -0.86443627 0.17303115 0
-0.19232279 0.45354378 0.13400224 0.34248102 -0.92191881 0.18103161 0.0016207265
-0.18782285 0.45576733 0.13893175 0.32783222 -0.9289341 0.17206824 0.001181078
-0.17670259 0.45844674 0.13572255 0.27889079 -0.94471979 0.17240782 3.8668306e-05
0.18561307 0.45585403 0.13225034 -0.41493726 -0.89233255 0.17767869 0.0012266639
-0.17037722 0.46058404 0.13724943 0.27743331 -0.94506484 0.17286773 0
-0.16680658 0.46142116 0.13609229 0.2775422 -0.945041 0.17282298 0
-0.15367021 0.46503472 0.13475221 0.2777333 -0.94465029 0.17464291 4.1631869e-05
-0.14574182 0.46743512 0.13514334 0.27817619 -0.94450569 0.17471929 4.3200416e-06
-0.13919315 0.46843785 0.13010927 0.27851793 -0.94371134 0.17842801 7.2141942e-05
0.14852579 0.46770459 0.13498214 -0.23232788 -0.95669603 0.17537521 0
0.15526386 0.46629739 0.13623726 -0.23513025 -0.95626551 0.17398275 0
0.16520891 0.46367541 0.13507229 -0.26435712 -0.94785738 0.1779937 0.00045741984
-0.13162407 0.47206005 0.13775645 0.27760547 -0.94501555 0.17286101 0
-0.12857935 0.47203183 0.13271305 0.27675822 -0.94448853 0.17704916 6.7466441e-05
-0.11505436 0.47648415 0.13533433 0.27739236 -0.94468737 0.17498344 0
-0.10756703 0.47846717 0.13415192 0.27776134 -0.94456506 0.17505838 0
0.10225698 0.47926068 0.13684508 -0.23212923 -0.95716041 0.17308889 0.0001331953
0.11723153 0.47521031 0.13452381 -0.23174267 -0.95678473 0.17566545 4.5179371e-05
0.12682337 0.47276139 0.13384248 -0.23172294 -0.95668739 0.17622049 0.0002762751
0.13462788 0.47129369 0.1361949 -0.23220991 -0.95718211 0.17286116 0
-0.10237729 0.48005965 0.13452415 0.27629277 -0.94462544 0.17704515 3.2732598e-06
-0.09348695 0.48261136 0.13419755 0.25884813 -0.94968808 0.1763242 0.00041990765
-0.086297557 0.48557359 0.13884646 0.20638061 -0.96206242 0.1784461 0.0015555569
-0.076176696 0.48783624 0.13633619 0.14882709 -0.97175664 0.18313789 0.0019963582
-0.066216655 0.4883531 0.13647901 0.10003469 -0.97931308 0.17589478 0.0015912339
-0.056784887 0.48889136 0.13826063 0.046767931 -0.98423082 0.17059422 0.00048900914
-0.047512148 0.48815745 0.13281754 0.024789425 -0.98364079 0.17842722 8.3051673e-05
-0.035154745 0.48877105 0.13462985 0.023358868 -0.98436743 0.1745712 0
-0.026959214 0.48843858 0.13162005 0.023778612 -0.9834609 0.17955306 0.00017029599
-0.014518369 0.48950285 0.13598797 0.02369744 -0.98461169 0.17314257 3.5300087e-05
-0.0039681219 0.48914397 0.13250698 0.022930389 -0.98358852 0.17896286 0.0002191735
0.031177413 0.48990685 0.1320667 0.016455207 -0.98388892 0.1780217 0.00016791793
0.062186342 0.48827434 0.13295251 -0.17062415 -0.96988767 0.17379713 0.0013396905
0.074653916 0.48589057 0.1364934 -0.23057586 -0.95714206 0.175254 0.00013620486
0.083649188 0.48297232 0.13241237 -0.2316853 -0.95629048 0.17841092 0.00017999274
0.090934902 0.4822067 0.13795546 -0.23204896 -0.95714033 0.17330785 9.3018643e-05
-0.010176918 0.49018273 0.13926943 0.023542209 -0.98466527 0.17285857 0
-0.0041122371 0.49019063 0.13848847 0.023539694 -0.98465139 0.17293842 8.0323516e-05
0.0029063541 0.4902173 0.13768461 0.023546491 -0.98465586 0.17291157 2.8082477e-05
0.013355221 0.4904258 0.13744946 0.023537263 -0.98467314 0.17281401 2.623659e-05
0.027246198 0.49031782 0.13494289 0.02064264 -0.98423964 0.17563097 6.9605194e-05
0.036327135 0.490688 0.13581455 0.0021144226 -0.9841938 0.17708223 0.00047676641
0.044770788 0.49063858 0.13438344 -0.055267952 -0.98318756 0.17403385 0.0011730085
0.051554073 0.49061525 0.13332662 -0.089704201 -0.9812445 0.17062356 0.0021576507
-0.055330325 -0.49188176 0.14390068 0.12303574 0.9752984 0.18345369 0.0024276054
-0.045275155 -0.49265426 0.14579633 0.054584585 0.9831534 0.17444177 0.0017817874
-0.031105623 -0.49274951 0.14826843 -0.02013552 0.98597133 0.16569617 0.00014524187
-0.027167741 -0.49194667 0.14423138 -0.020332715 0.98483044 0.172324 0
-0.012987342 -0.49164274 0.14443131 -0.023525367 0.98468596 0.17274292 0
-0.0049932105 -0.49176395 0.1462104 -0.023719069 0.98518157 0.16986695 0
0.0060261399 -0.49125162 0.14479259 -0.0232722 0.98512012 0.17028475 0
0.015125789 -0.49087968 0.14391328 -0.02354289 0.98466575 0.17285615 0
0.021708807 -0.49137396 0.14762513 -0.024892693 0.98557818 0.16737986 0
0.032127395 -0.49075687 0.14552909 -0.023654658 0.98494899 0.17121916 0
0.042122614 -0.49047574 0.14528891 -0.023291234 0.98494035 0.17131859 0
0.05421792 -0.49049884 0.14706743 -0.029831832 0.98530579 0.16817404 4.608692e-05
0.063623354 -0.49044186 0.14802381 -0.070539437 0.98312497 0.16878809 0.0010270869
-0.10460141 -0.48068464 0.14787807 0.23190491 0.95750535 0.17147471 8.7662025e-05
-0.096579373 -0.48157874 0.14205772 0.23206013 0.95740443 0.17182785 0
-0.082897827 -0.4850648 0.14299026 0.2321496 0.95739669 0.17174992 0
-0.073112473 -0.48766479 0.14424801 0.2132038 0.96197993 0.1707011 0.00041598038
-0.064239599 -0.48960009 0.1430507 0.20538691 0.96309417 0.17397057 0.00047352468
0.06173563 -0.48925978 0.14103353 -0.055491067 0.9838233 0.17033052 0.00089526229
0.075968564 -0.48879772 0.14033993 -0.15167245 0.97447151 0.16553171 0.002065754
0.085102506 -0.48713171 0.14544539 -0.21083701 0.96304154 0.16762681 0.0014900033
0.095398493 -0.48389015 0.1442578 -0.27494219 0.94638842 0.16957507 5.2954048e-05
0.10372896 -0.48149693 0.14455187 -0.27736902 0.94513839 0.17256838 0
-0.14240521 -0.47136346 0.1470245 0.23230848 0.95781499 0.16918391 0
-0.13690501 -0.47225863 0.14459574 0.23194772 0.9573046 0.17253445 0
-0.12507083 -0.47528547 0.1454661 0.2320784 0.95731282 0.17231295 2.8150936e-05
-0.11198743 -0.47809112 0.14343435 0.23209448 0.95726401 0.1725622 4.5931301e-06
-0.1062969 -0.47975612 0.14501335 0.23229498 0.9572435 0.1724062 0
0.1354972 -0.47283673 0.14822207 -0.27797526 0.94557673 0.16915825 0
0.14322606 -0.47068241 0.14885582 -0.27788416 0.94592023 0.16737807 3.1764503e-05
-0.17383829 -0.46340239 0.14514765 0.30609989 0.93710309 0.167752 0.0013820449
-0.16191316 -0.46627665 0.14505111 0.26117709 0.94942671 0.17428561 0.00082517776
-0.15511908 -0.4683921 0.14764228 0.23282377 0.95823103 0.16609162 8.9805217e-06
-0.14744216 -0.46964177 0.14425412 0.23214088 0.95721424 0.17277613 0
0.14711428 -0.46934804 0.14780493 -0.27704528 0.94619906 0.16719207 1.7621134e-05
0.15290987 -0.46754223 0.14723969 -0.27788416 0.94581968 0.16794483 0
0.16752702 -0.4628371 0.14498976 -0.27761725 0.94535035 0.17100136 7.6660443e-05
0.1731745 -0.46149254 0.14670818 -0.27803665 0.94568712 0.16843843 7.7151075e-05
-0.19365008 -0.45418513 0.14584649 0.45569149 0.87375844 0.16997454 0.00027363221
-0.18929541 -0.4562315 0.14419177 0.41953546 0.89167082 0.17003866 0.0015342056
0.17937534 -0.45966247 0.14666082 -0.28549561 0.94335371 0.16904466 1.7781302e-05
0.18602134 -0.45693725 0.14243492 -0.31357813 0.93458182 0.16800465 0.00091685751
0.19552061 -0.45458543 0.14483193 -0.36858973 0.91477442 0.16531593 0.0024587265
0.20212618 -0.45139858 0.14125603 -0.42129171 0.89108407 0.1687676 0.0021089874
-0.21543618 -0.44230118 0.14589295 0.47208098 0.86523074 0.16886482 0.00012250405
-0.20623451 -0.4469088 0.14381406 0.4721669 0.86443657 0.17264934 0
0.20865324 -0.44756222 0.14195177 -0.46315688 0.86983764 0.16990624 0.0015690578
0.21786852 -0.44234043 0.14388089 -0.49917078 0.84943187 0.17115478 0.00033923311
0.22144279 -0.4411279 0.14858304 -0.50995499 0.84377998 0.16727568 0.00032990426
-0.23446667 -0.43260127 0.14933838 0.47242317 0.86502701 0.16895171 0
-0.22674812 -0.43603536 0.14543971 0.47240585 0.86477309 0.1702943 2.2301914e-05
0.22660547 -0.43810463 0.14918765 -0.51396149 0.84157646 0.16611084 0.00022534444
0.23329929 -0.43362492 0.14724812 -0.51363868 0.84142947 0.16784436 1.3611151e-05
-0.25288147 -0.42198181 0.14650437 0.47351316 0.86477083 0.16720288 0
-0.24551646 -0.42599526 0.14646865 0.47252411 0.86503911 0.16860677 0
0.24716926 -0.42505845 0.14671125 -0.51209611 0.84248871 0.16724345 0
0.25380874 -0.42041641 0.14382099 -0.51267052 0.84107351 0.17252348 0
-0.27165028 -0.41184905 0.14707097 0.47954217 0.86082894 0.1703314 0.0001856788
-0.26601425 -0.41436002 0.14424132 0.47211006 0.86446512 0.17266193 0
0.25801611 -0.41796383 0.1443685 -0.51273382 0.84097224 0.17282884 7.9898171e-05
0.26175383 -0.41564834 0.14419009 -0.51282442 0.84089589 0.17293158 6.1083534e-05
0.27015191 -0.41075414 0.14528871 -0.51316047 0.84091771 0.17182483 0
-0.28546694 -0.40320837 0.14157942 0.53820574 0.82568556 0.16905023 0.0016840356
-0.27862579 -0.40756375 0.14468387 0.49634737 0.85209316 0.16606207 0.00072988647
0.27496734 -0.40808919 0.14660667 -0.51320177 0.84113073 0.17065488 0
0.28344318 -0.40311083 0.14752679 -0.51274312 0.84145617 0.17042875 0
-0.30174416 -0.39185673 0.14808249 0.638982 0.74975491 0.17195815 0.001276789
-0.29692692 -0.39663064 0.14883146 0.6144644 0.77142924 0.1653192 0.0019346696
0.29157218 -0.39765337 0.1450873 -0.52173787 0.83555424 0.1721586 0.00014482513
-0.31183255 -0.38159055 0.14540648 0.67951638 0.71297836 0.17297208 0
-0.30464041 -0.38839191 0.14517997 0.66340971 0.72809523 0.17252545 0.00049458799
0.31545806 -0.38196367 0.14839044 -0.64552909 0.74534279 0.16660184 0.0019326634
-0.32243127 -0.37067172 0.14204514 0.67969358 0.71286476 0.17274389 0
0.31820798 -0.37863678 0.14665195 -0.67175919 0.72204632 0.16549492 0.0014651527
0.32369354 -0.3720285 0.14329444 -0.70422 0.68829513 0.17413773 0.00018350731
-0.33393675 -0.36116627 0.14807771 0.68101323 0.71285117 0.16752362 0
-0.32382286 -0.36995748 0.1445705 0.6795758 0.71296024 0.17281312 0
0.32584095 -0.36916375 0.14088775 -0.70566714 0.68707514 0.17309424 6.5105167e-05
0.33439761 -0.36215585 0.14862466 -0.71334004 0.68133104 0.16411567 3.2320193e-05
-0.343703 -0.35129997 0.1457842 0.68038088 0.71312714 0.1689131 8.9012618e-05
-0.33892104 -0.35682619 0.14977454 0.68061399 0.71311718 0.16801336 0.00011948252
0.33630031 -0.35948098 0.14595523 -0.71315944 0.67992729 0.17059472 6.0448619e-05
0.34401023 -0.35157272 0.1466604 -0.71292043 0.6804297 0.16958737 2.7245034e-05
-0.35261494 -0.34197959 0.14238366 0.67973816 0.71283305 0.17269929 1.2275043e-05
0.34640622 -0.34795669 0.14232534 -0.7127673 0.67978239 0.17279659 0
0.35344779 -0.34180394 0.14717561 -0.71328539 0.68004841 0.16958202 0
-0.3642807 -0.33208019 0.14742136 0.67973256 0.71351802 0.16986915 5.2724296e-05
-0.35559791 -0.33901685 0.14189263 0.67979789 0.7127741 0.17270784 0
0.35722208 -0.33668888 0.14263141 -0.71305394 0.67959523 0.17234936 1.2685896e-05
0.36288276 -0.33259377 0.14987673 -0.71278703 0.68170929 0.16494544 8.7825465e-05
-0.37435564 -0.32179299 0.14460585 0.7053988 0.68690401 0.17485818 0.00080749532
-0.36531287 -0.32986236 0.14233294 0.67995954 0.71284831 0.17176239 1.0391655e-05
0.3718861 -0.32230428 0.14655419 -0.71272331 0.67994845 0.17232348 0
-0.38207382 -0.31349188 0.14071549 0.74492919 0.64225268 0.18053281 0.0016249486
-0.37903959 -0.31827667 0.14851922 0.73147392 0.66120309 0.16660213 0.0011783363
0.37994432 -0.31339067 0.14474316 -0.71341419 0.67937422 0.17172883 2.9547831e-05
-0.39094269 -0.30278283 0.14569135 0.80364019 0.57021517 0.17034407 0.0019652119
-0.38832724 -0.30730501 0.14638022 0.78803021 0.58984816 0.17631641 0.0018352353
0.38631791 -0.30751246 0.14791831 -0.72571486 0.66678792 0.16950466 0.0003161307
0.39202178 -0.30116701 0.14649434 -0.74578214 0.64554644 0.16455624 0.001045861
-0.39480966 -0.2956388 0.14331454 0.8282786 0.53434938 0.16859834 0.00069694681
0.39781749 -0.29451403 0.14424011 -0.78419209 0.59689307 0.16959211 0.002043851
-0.40430939 -0.28197563 0.14900488 0.84132385 0.5145548 0.16555212 0
0.40463939 -0.28459457 0.14635439 -0.82661903 0.53706896 0.16810071 0.0019671062
-0.4104951 -0.27093154 0.14634092 0.84149367 0.51295513 0.16960423 6.8629483e-06
-0.40743724 -0.27543354 0.14481768 0.84145784 0.51281172 0.17021419 0
0.40878439 -0.27601427 0.14365843 -0.85751939 0.48466995 0.17249793 0.00021425853
0.41017357 -0.27224824 0.14032423 -0.86018997 0.47918078 0.17452534 8.3553932e-05
-0.41450232 -0.26391143 0.14501409 0.84127718 0.51397461 0.16757923 0
0.41486293 -0.26619917 0.14726122 -0.86502928 0.47226956 0.16936892 0.00016599095
-0.41869506 -0.25679043 0.14429031 0.84128129 0.51269382 0.17143773 0
0.4172473 -0.25976029 0.14160658 -0.8645277 0.47192064 0.17286599 3.1973534e-05
0.4212645 -0.25541109 0.14982328 -0.86702454 0.47001469 0.16539207 0.00017068026
-0.42817473 -0.24253424 0.14812429 0.84197563 0.5130862 0.16679224 7.3413212e-05
0.42745155 -0.24053448 0.14015028 -0.86450851 0.47195807 0.17286001 0
-0.43172306 -0.23682758 0.14846052 0.84161502 0.51354641 0.16719519 5.8295986e-06
0.42968884 -0.23768473 0.14355884 -0.86449695 0.47197303 0.17287703 0
0.43221784 -0.23278259 0.14282326 -0.86454219 0.47188643 0.17288746 0
-0.44014215 -0.22307596 0.14863133 0.84153217 0.51319695 0.16867872 4.2674532e-05
-0.43996364 -0.22273976 0.14676566 0.84154522 0.51309514 0.1689232 0.00013561417
0.4367927 -0.22477059 0.1438286 -0.86458266 0.47190785 0.17262591 0
-0.44413701 -0.21577914 0.14642338 0.85105455 0.49630892 0.17141658 0.00048389903
0.44214058 -0.21456681 0.14271626 -0.86449742 0.47195187 0.17293252 0.00015250981
-0.45144868 -0.20331478 0.14526784 0.89250576 0.42131594 0.16101672 0.001979226
0.44865328 -0.20471171 0.14838089 -0.86495721 0.47245809 0.16921085 5.6512408e-06
0.4533706 -0.1943129 0.14358249 -0.87005031 0.46207681 0.17174841 0.00027122302
-0.45723528 -0.18440664 0.1414707 0.93883771 0.29823768 0.17215703 0.00044519495
0.45844173 -0.18468001 0.14264469 -0.89421952 0.4135454 0.17132343 0.0012021267
0.46090776 -0.18159562 0.14655644 -0.9100908 0.37890163 0.16783394 0.0020367203
-0.46066874 -0.17423224 0.14390278 0.94436854 0.27948791 0.17336258 0.00010043721
-0.45980141 -0.17675789 0.14321661 0.94328594 0.28316137 0.17329572 0.00011309912
0.46330503 -0.17546672 0.14679502 -0.93346536 0.31881985 0.16430557 0.0019165793
-0.46383783 -0.16350827 0.1440067 0.94508749 0.27749324 0.17264768 0
0.46552038 -0.16589032 0.14620334 -0.94561118 0.28262049 0.16107465 0.00097919791
-0.4676995 -0.15207185 0.14675315 0.94598532 0.27772591 0.16727223 0
0.46777669 -0.15470867 0.14368351 -0.95635676 0.23584819 0.17250355 0.00012091433
-0.46935946 -0.14441493 0.14353229 0.94507146 0.27760449 0.17255625 0.00016136054
0.46931589 -0.14703096 0.14189734 -0.95717919 0.23213403 0.17297915 0
0.47056952 -0.14341889 0.1439891 -0.95763904 0.2321185 0.17043594 4.8503094e-05
-0.47170424 -0.13675448 0.14404947 0.94503361 0.27772325 0.17257254 2.9693882e-05
0.47339633 -0.13469629 0.14792989 -0.95825094 0.23234634 0.16664422 4.3955035e-05
-0.47572199 -0.12541775 0.14780894 0.94582355 0.27870315 0.16656074 9.1248745e-05
0.47584739 -0.12243625 0.1450402 -0.95811886 0.23182437 0.16812432 8.4486695e-05
-0.47896448 -0.11242133 0.14466527 0.94505906 0.27755919 0.17269708 0
0.47794938 -0.11375475 0.14502256 -0.95753181 0.23253545 0.17047042 0.00015319548
-0.48163962 -0.10326628 0.14458865 0.94532245 0.27671912 0.17260347 4.062321e-05
-0.47993696 -0.10900665 0.14449839 0.94502598 0.27760226 0.17280903 6.9906389e-05
0.48137528 -0.10110614 0.1470091 -0.95767951 0.23185661 0.17056505 0.00011644515
-0.48358971 -0.097201884 0.14551094 0.94572532 0.27494457 0.1732311 2.7211741e-05
0.48275521 -0.09493205 0.14636013 -0.95754302 0.23212583 0.17096482 0.00011195022
-0.48603082 -0.08706665 0.14258105 0.95768523 0.23108819 0.17157316 0.001251351
0.48463351 -0.085632443 0.14427398 -0.95738733 0.23258413 0.17121397 0.00018431521
-0.48933539 -0.076349385 0.14439312 0.97157252 0.15273389 0.18088438 0.0025343364
0.4873383 -0.072034188 0.14099251 -0.95989329 0.21928568 0.17469569 0.00027042045
-0.49044144 -0.063415065 0.14799267 0.98275381 0.071887828 0.17037337 0.0010106849
-0.48948303 -0.064770006 0.14271796 0.98273736 0.075281844 0.1689968 0.00098164519
0.48918572 -0.066557221 0.14386813 -0.96590668 0.19279218 0.17278701 0.0012931625
0.49068016 -0.061435957 0.14526652 -0.97234052 0.15194012 0.17739238 0.0018704177
-0.49032068 -0.054381557 0.14607477 0.98502189 0.030632209 0.16968626 2.1584281e-05
0.49274084 -0.053037647 0.14639911 -0.97974616 0.10052802 0.17318088 0.0022479575
-0.49010587 -0.042135362 0.14318347 0.98486155 0.023210051 0.17178184 0
-0.48971355 -0.047289222 0.14165059 0.98460913 0.024665646 0.17302166 6.8329478e-05
0.4925262 -0.044318773 0.14519718 -0.98438221 0.045012552 0.17019267 0.0017713236
-0.49098018 -0.032087877 0.14679551 0.98536474 0.023620212 0.16881467 0.00011973617
0.49231708 -0.036973916 0.14500605 -0.98501611 0.011998709 0.17204428 0.00096060283
-0.4908967 -0.025711391 0.14545175 0.98538536 0.023338415 0.16873351 8.4277941e-05
0.49210081 -0.025010901 0.14540322 -0.98503149 -0.022620751 0.170884 0
-0.49162251 -0.01436056 0.14804004 0.98553336 0.023909923 0.16778684 5.7220666e-05
0.4920083 -0.016494142 0.14603586 -0.98500901 -0.02360921 0.17087935 3.2467582e-05
-0.49161765 -0.0029204134 0.1464546 0.9850291 0.023691034 0.17075241 0
0.49149069 -0.0053028394 0.14461169 -0.98465449 -0.023542641 0.1729199 0
-0.49150673 0.0015140163 0.14521915 0.98502558 0.023784054 0.17076004 2.468711e-05
0.49080667 0.0045367423 0.1420556 -0.98466349 -0.023519272 0.17287175 0
-0.49134377 0.014353959 0.1425423 0.9846434 0.023543218 0.17298263 7.8106445e-05
0.49060291 0.012210939 0.14193988 -0.9846369 -0.023615336 0.17301011 0
-0.49235976 0.025203146 0.14685211 0.98505372 0.022452058 0.17077765 0.00016690034
0.49076712 0.023050362 0.14435123 -0.98470062 -0.023655448 0.17264147 0
-0.49199119 0.037794776 0.1430378 0.98513246 -0.01226854 0.17135765 0.00095277082
0.49104106 0.035920154 0.14766419 -0.98568618 -0.023761006 0.1669075 6.7452343e-06
-0.4919259 0.042002872 0.14209288 0.98583251 -0.020165024 0.1665158 0.0010735693
0.49038839 0.042688254 0.14486837 -0.98520803 -0.022893783 0.16982645 0
-0.49199241 0.055915933 0.14514825 0.97344595 -0.14182751 0.17968841 0.0024824967
0.48962522 0.058066107 0.14261532 -0.98482341 -0.025544299 0.17166896 0.0001213128
-0.49089247 0.061760493 0.14687774 0.97139728 -0.161479 0.1741031 0.002031002
-0.48929024 0.067321956 0.1454733 0.96583009 -0.19173758 0.17438163 0.0011710977
-0.48745906 0.073905922 0.14417396 0.9574002 -0.23173779 0.17228577 1.5270009e-05
0.48919114 0.07719627 0.14400813 -0.97321856 -0.16047551 0.1646003 0.0018129182
-0.48523706 0.083751403 0.14509007 0.95722419 -0.23206736 0.17281951 0
0.48640999 0.08777938 0.14579843 -0.95536953 -0.2393588 0.17313688 0.000860948
-0.48288867 0.092484742 0.14381281 0.95717913 -0.23213392 0.17297977 9.4846968e-05
0.48479328 0.092911422 0.14520136 -0.95093507 -0.2547245 0.17560719 0.00056397228
-0.47975534 0.10370237 0.14152497 0.95721364 -0.232114 0.17281546 0
0.48143944 0.10479494 0.14594924 -0.94572276 -0.27761444 0.16893385 0
-0.47738829 0.11584666 0.14472447 0.95731634 -0.23221748 0.17210582 2.5055588e-05
0.47857499 0.11454634 0.14594853 -0.94547749 -0.27839428 0.16902375 0.00011095804
-0.47584057 0.12165698 0.14395584 0.95735776 -0.2320237 0.17213704 0
0.47516704 0.12623331 0.14608499 -0.94569868 -0.27822012 0.16807 6.1116021e-05
-0.47132805 0.13988079 0.14343829 0.9572112 -0.23217924 0.17274125 5.8237629e-06
0.4733479 0.1335099 0.14782482 -0.9459095 -0.27826732 0.16680105 7.9416481e-05
-0.47082016 0.14585103 0.14864232 0.95837027 -0.23207732 0.16633232 0.00017973025
-0.46699867 0.15590635 0.14098337 0.95688373 -0.2332349 0.17313281 0
0.4667581 0.15401919 0.1447337 -0.94503832 -0.27760249 0.17274082 0
-0.46550822 0.16500324 0.1449448 0.94948119 -0.26120025 0.17395395 0.00065567967
0.46350512 0.16375227 0.14257988 -0.94498944 -0.27774236 0.1727834 1.4256309e-05
-0.46299118 0.17504609 0.14449209 0.92237097 -0.34477842 0.1742399 0.0018569155
0.45992044 0.17771238 0.14540029 -0.94386649 -0.28329155 0.16988769 5.5705088e-05
-0.45795617 0.18614586 0.14421785 0.89387119 -0.41587746 0.16745201 0.0011883257
0.45676422 0.18902101 0.14630526 -0.93181121 -0.3156139 0.17920898 0.0010831016
-0.45373455 0.1947564 0.14661291 0.87422377 -0.45681533 0.16447635 0.00013326496
0.45415646 0.19463822 0.1410695 -0.91376251 -0.36936688 0.16913338 0.0019817872
-0.45049018 0.20069604 0.14660396 0.86757982 -0.46804708 0.16803919 0.00019044713
-0.44581723 0.20717438 0.14092083 0.86448103 -0.47200522 0.17286882 0
0.44739622 0.20928654 0.14302196 -0.86807358 -0.46441093 0.17541611 0.0016139639
0.45101252 0.20439009 0.14609204 -0.88811249 -0.42828667 0.16681348 0.0019788973
-0.44506299 0.2114539 0.14883226 0.86610323 -0.47076416 0.16806602 0
0.44247124 0.21836811 0.14599818 -0.84926349 -0.49936891 0.17141236 0.00021443251
-0.43838578 0.22155577 0.1430186 0.8645699 -0.4719243 0.17264487 0
0.43639183 0.22884749 0.14750436 -0.84158379 -0.51275474 0.1697627 0.0001022708
-0.43258256 0.23418754 0.14848265 0.86525494 -0.47260281 0.16727363 0
0.43136451 0.23564774 0.1432164 -0.84099025 -0.51270843 0.17281625 0
-0.42597389 0.24631736 0.14854813 0.86502296 -0.47296897 0.16743834 4.740943e-05
0.42591271 0.24571204 0.14654468 -0.84095854 -0.51273739 0.17288426 4.81278e-05
-0.42123446 0.25424057 0.14647721 0.86526942 -0.47304058 0.16595602 4.5529276e-05
-0.41928631 0.25698429 0.14422509 0.86449039 -0.47203821 0.17273152 3.5988491e-05
0.4184629 0.25799567 0.14673521 -0.84151393 -0.5131979 0.16876687 5.633575e-05
0.42206883 0.25119641 0.14411108 -0.84101719 -0.51266253 0.17282121 0
-0.4151985 0.26457411 0.14450297 0.86442292 -0.47227082 0.17243357 0
0.41387588 0.26488176 0.14484397 -0.84146363 -0.5129962 0.16962819 1.1622776e-05
-0.41089681 0.27429044 0.14951673 0.8627519 -0.47738293 0.16662772 0.00021128605
-0.40756693 0.27771372 0.14220968 0.8591755 -0.48060638 0.17559884 2.2745608e-05
0.40434158 0.27956608 0.14201427 -0.84096372 -0.51272255 0.17290318 0.00011135739
-0.40496039 0.28467703 0.14818464 0.83322471 -0.52472496 0.17435674 0.0013928888
0.39838916 0.28939694 0.14221472 -0.83683378 -0.51920831 0.17358565 0
0.40226173 0.28417408 0.14556323 -0.84135401 -0.51324743 0.16941214 3.5602032e-05
-0.39985028 0.29219878 0.14352101 0.78953218 -0.58685786 0.1795461 0.0019104029
0.39657369 0.29318216 0.14460953 -0.83609962 -0.52082002 0.17229006 0.00018909696
-0.38754758 0.30520186 0.14390503 0.73103589 -0.66105485 0.16909455 0.00056153507
0.38701776 0.30797535 0.1419974 -0.77737236 -0.60279256 0.17981435 0.0029459321
0.39116445 0.30325979 0.14818439 -0.80605036 -0.5656749 0.17405398 0.0019294006
-0.38103688 0.31352472 0.14977574 0.7150954 -0.67923802 0.16514955 9.9155142e-05
-0.37478629 0.31913787 0.14606574 0.71279889 -0.67972577 0.17288877 0
0.37810361 0.31716141 0.14023933 -0.71039099 -0.68274218 0.17090255 0.0012517781
0.38342166 0.31345764 0.14654642 -0.7482757 -0.64139277 0.16940723 0.0027452009
-0.37370652 0.32016519 0.1456517 0.71286082 -0.67966509 0.17287248 8.7004304e-07
0.36742124 0.32944798 0.14891247 -0.68622386 -0.70884418 0.16320756 0.00018070622
0.37437636 0.32185203 0.1449302 -0.69582474 -0.69858694 0.16674618 0.0003545967
-0.36103582 0.33329535 0.14501788 0.71278614 -0.67987883 0.17233872 0
-0.35682613 0.33787045 0.14564353 0.71295357 -0.67968524 0.17240986 0
0.35734677 0.33742341 0.14219601 -0.67953712 -0.71295482 0.17298785 0
0.36188707 0.33455491 0.1482162 -0.67991328 -0.71370542 0.16835199 8.262237e-05
-0.34852827 0.34719014 0.14806268 0.71482867 -0.67927194 0.16616115 5.6442132e-05
0.34889567 0.34670299 0.14724025 -0.67993522 -0.71397674 0.16710873 0.00010444908
0.35360968 0.3407416 0.1411881 -0.67959511 -0.71292156 0.17289706 2.3184684e-05
-0.33547977 0.35944998 0.1424492 0.71296179 -0.67955214 0.17289981 0
0.33652657 0.35778627 0.14431968 -0.6800065 -0.71316129 0.17027053 9.2442506e-06
0.34221333 0.35289335 0.14649843 -0.68038702 -0.71363771 0.16671754 3.0334064e-05
-0.32809389 0.36799815 0.14559621 0.70924193 -0.68432033 0.16935615 3.8880014e-05
0.32527629 0.36885276 0.14572832 -0.68015927 -0.71304947 0.17012872 0.00017410946
-0.3212465 0.37421387 0.14179423 0.68841064 -0.70423967 0.17360088 0.00067617092
-0.31905624 0.37641895 0.14143074 0.66772056 -0.72205174 0.18108162 0.001666743
0.31768262 0.37609553 0.14574362 -0.6802538 -0.71288216 0.17045143 0.00014787496
0.32112649 0.37267897 0.14519307 -0.67999119 -0.71324271 0.16999049 0
-0.31341621 0.38327456 0.14512318 0.6278078 -0.75533432 0.18795577 0.0017043899
-0.3072817 0.38886634 0.14893298 0.60449916 -0.77712369 0.17509863 0.0018225173
0.30688432 0.38611349 0.14460495 -0.67437816 -0.7171846 0.17567131 0.0001013875
-0.30007273 0.39305258 0.14791699 0.54994708 -0.81723559 0.17229098 0.0012342406
-0.29746658 0.39366186 0.14315128 0.53814965 -0.82430905 0.17581107 0.00084005937
0.29646385 0.39623773 0.14539015 -0.6046263 -0.77950281 0.16371487 0.0022146553
0.30058518 0.39165133 0.14267844 -0.64474207 -0.74520898 0.17020939 0.0014453086
-0.28322405 0.40275812 0.14516029 0.51297736 -0.84090793 0.17241819 3.6279642e-05
-0.27566257 0.40714422 0.14407086 0.51293719 -0.84089762 0.17258796 2.0801173e-05
0.27638882 0.40827829 0.14214972 -0.50002116 -0.84951711 0.16822484 0.0006864171
0.28266129 0.40549698 0.14536476 -0.52370799 -0.83381915 0.17457274 0.0012544612
0.29156762 0.40000623 0.1422205 -0.56147999 -0.80944145 0.17188588 0.0019440355
-0.26255921 0.41517267 0.14426404 0.5126701 -0.84126759 0.17157578 0
-0.25678819 0.41824776 0.14210722 0.51277441 -0.8411445 0.17186686 0
0.2580986 0.41902885 0.1459794 -0.4717398 -0.86514956 0.17022842 0
0.26582012 0.41477513 0.145787 -0.47214925 -0.86459076 0.17192404 3.9478397e-05
0.27387965 0.41049182 0.14636947 -0.48508477 -0.85884738 0.1645416 0.00016890671
-0.24052975 0.42834955 0.14302902 0.51316285 -0.84103894 0.17122322 6.4990068e-05
0.2383415 0.4290362 0.14208761 -0.47207183 -0.86449999 0.17259189 0
0.24627973 0.42545664 0.14585839 -0.47268015 -0.86504424 0.16814263 1.2856433e-05
0.25598997 0.42006221 0.14539057 -0.47235087 -0.86484349 0.17008941 0
-0.2346866 0.43161041 0.14156204 0.51273048 -0.84101796 0.17261608 0
-0.22772422 0.43580672 0.14132641 0.51273531 -0.8409878 0.17274877 0
0.21865863 0.43974528 0.14190775 -0.4719319 -0.86453503 0.17279883 1.4559222e-05
0.2256795 0.43668509 0.14577146 -0.47192717 -0.86529595 0.16896072 2.2326229e-05
0.2331751 0.43219435 0.14377688 -0.47202808 -0.86452788 0.17257182 0.00012511422
-0.21432716 0.44460815 0.14440867 0.48491687 -0.85681355 0.17528875 0.00085978414
-0.20816027 0.44933754 0.14912575 0.43924114 -0.88212979 0.17004213 0.0014883255
0.20677745 0.4464725 0.14311409 -0.47209787 -0.86446482 0.17269695 0
0.21430197 0.44183403 0.14045964 -0.4720571 -0.86443144 0.17297551 0
-0.20147024 0.45268676 0.14557691 0.39682332 -0.899095 0.18482293 0.0019206465
-0.19381569 0.4548502 0.14354128 0.34244409 -0.9231714 0.17460407 0.0014521099
-0.18375291 0.4585622 0.14767504 0.30288523 -0.93726176 0.17262942 0.00048929121
0.19797188 0.45088208 0.14112632 -0.46530193 -0.86808521 0.1729802 0
0.20062898 0.45059264 0.14693305 -0.47258884 -0.86493754 0.16894664 0
-0.17349261 0.46154815 0.14752242 0.27955127 -0.94529039 0.16815817 4.4487046e-05
-0.16311994 0.46407771 0.14469472 0.2777794 -0.94502825 0.17251122 0
-0.15256625 0.46684551 0.14287853 0.27767801 -0.9450106 0.17277086 8.8870431e-05
-0.14703122 0.46864137 0.1438078 0.27771497 -0.94500542 0.17274038 2.9084451e-06
0.14841199 0.46959907 0.14531937 -0.23136505 -0.95797402 0.1695763 2.6700922e-05
0.15510061 0.46814901 0.14627072 -0.23132613 -0.95849705 0.16664863 0
0.16039547 0.46598929 0.14142174 -0.25032666 -0.95246732 0.17361589 0.0002017993
0.17270367 0.46352765 0.14431725 -0.30451456 -0.93737048 0.16913721 0.0017975803
-0.13058944 0.47341821 0.14351976 0.2776553 -0.94499356 0.17290072 0
-0.10871032 0.47976208 0.14306669 0.27750364 -0.94524336 0.17177537 7.1492708e-05
0.10869233 0.47916806 0.14497289 -0.23220585 -0.95797879 0.16839571 6.9839276e-05
0.12352122 0.47540867 0.14406744 -0.23208594 -0.95755464 0.17095399 1.7383732e-05
0.13497037 0.47239566 0.14275625 -0.23204227 -0.95731306 0.17236006 0
0.14384536 0.47012392 0.14209387 -0.23196296 -0.95735198 0.17225069 0
-0.10539122 0.48104316 0.14474043 0.27815241 -0.94525546 0.17065555 0
-0.083812058 0.48766676 0.14629821 0.18775724 -0.96631014 0.17604519 0.0020750517
-0.079929523 0.48845053 0.14434832 0.17543323 -0.96942574 0.17157169 0.0018766484
-0.064451464 0.48976588 0.14428607 0.064677417 -0.98425645 0.16448715 0.00087901135
-0.057746258 0.48944795 0.14156199 0.049931087 -0.98401493 0.17094281 0.0006046521
-0.044192139 0.48992056 0.14240818 0.023636442 -0.98483038 0.17190251 0
0.067830399 0.48977149 0.14882092 -0.20273237 -0.96473366 0.16789475 0.00078343012
0.07510478 0.48724866 0.14461869 -0.22335076 -0.95949978 0.17168176 0.0003223588
0.082492292 0.48494819 0.14179981 -0.2322789 -0.95728463 0.17219931 0.00025233647
0.093660645 0.48314786 0.14682662 -0.23264101 -0.95798999 0.16773009 0.00017121958
0.10478508 0.4803375 0.14620197 -0.23306687 -0.95797044 0.16724972 0.00014202874
-0.063620865 0.49027628 0.14708015 0.06373582 -0.98451418 0.16330832 0.00066884223
-0.054499906 0.4907515 0.14854513 0.036416609 -0.98505712 0.16833378 0.00017742717
-0.03551767 0.49079537 0.14620981 0.023054015 -0.98569185 0.16697297 0
-0.025535394 0.49127284 0.14757025 0.023748478 -0.9851312 0.17015396 6.5750777e-05
-0.012718214 0.49038595 0.14077312 0.023544967 -0.98465741 0.17290305 0
-0.0031561982 0.49203703 0.14887558 0.023107592 -0.98535126 0.168964 0.00011435249
0.0064484947 0.49181494 0.14630249 0.023583006 -0.98525488 0.16946012 0.00028285087
0.016003907 0.49208194 0.1465221 0.023136767 -0.98506975 0.17059416 0
0.025071096 0.49232793 0.14668879 0.022662239 -0.98537898 0.16886337 0
0.037880439 0.49196014 0.14284922 -0.023071354 -0.98502314 0.17087156 0.0011030686
0.045832932 0.49241161 0.14433801 -0.060898829 -0.98353833 0.17012875 0.0017791134
0.055198889 0.49171659 0.1426308 -0.11857385 -0.97555828 0.18500324 0.0020900148
0.066061758 0.49025285 0.14911148 -0.19033806 -0.96694911 0.1696493 0.00092971436
-0.06745255 -0.49174958 0.15926698 0.20109603 0.96871698 0.14542289 0.00066969782
-0.055358879 -0.4938795 0.15482229 0.11931928 0.97905064 0.16499348 0.0024232329
-0.046610206 -0.49390519 0.15273984 0.072355449 0.98286813 0.16951372 0.0017849777
-0.03409978 -0.49375227 0.15357247 -0.019826695 0.98608053 0.16508229 0
-0.026878901 -0.49411047 0.15659603 -0.02113927 0.98619217 0.1642502 0.00013829353
-0.013554627 -0.49283659 0.15115449 -0.022983836 0.98581988 0.16622564 2.2225868e-05
-0.0052957488 -0.49321455 0.15443182 -0.022901567 0.98635709 0.16301866 0
0.0021501668 -0.49392742 0.15950666 -0.025089074 0.98782694 0.15352048 0.00032705776
0.01540007 -0.49279341 0.15485138 -0.024206769 0.98662609 0.16119213 1.3208875e-05
0.025444377 -0.49245444 0.15428849 -0.022066634 0.98620182 0.16407068 5.9423292e-05
0.03414626 -0.4923082 0.15464036 -0.021872178 0.98713523 0.15838473 2.2555381e-05
0.043515287 -0.49177235 0.15286425 -0.023624722 0.98594654 0.16538203 0
0.055297781 -0.4920539 0.1560722 -0.028311552 0.9884969 0.14856783 0.00012614178
0.064017549 -0.49206972 0.15734985 -0.074210197 0.98665911 0.14490204 0.0013429713
0.076276936 -0.49134651 0.15574218 -0.14878434 0.97601044 0.15895508 0.0022405712
0.080855429 -0.49086446 0.15903147 -0.17064662 0.97332144 0.15337949 0.0020670258
-0.11105627 -0.48087445 0.15759584 0.23402177 0.9606927 0.149343 0.00029531398
-0.10715385 -0.48126417 0.1545141 0.23150392 0.95919466 0.16233119 8.3638864e-05
-0.096276924 -0.48399168 0.1550124 0.23157458 0.9604122 0.15486008 0.00013420312
-0.080675609 -0.48711562 0.15136248 0.23099576 0.95875746 0.16560501 8.5618565e-05
-0.074589998 -0.48898321 0.15353219 0.2237395 0.96052277 0.16533789 0.00016813232
0.088373952 -0.48709419 0.15049373 -0.21065263 0.96247399 0.17108276 0.0014818618
0.097931772 -0.48545972 0.15690631 -0.27532539 0.94898647 0.15368988 0.00022167462
0.10763615 -0.48251307 0.15638107 -0.27924436 0.94753385 0.15557079 0.00016643238
0.11664507 -0.48038834 0.15923214 -0.27803272 0.94952118 0.14528354 0.00028820976
-0.15465908 -0.4701553 0.15678787 0.23388118 0.95871127 0.16177882 0
-0.14551511 -0.47157967 0.15239722 0.23343085 0.95850229 0.16365635 2.5419316e-05
-0.13574378 -0.47450173 0.15545723 0.23296867 0.9594214 0.15885915 6.8320485e-05
-0.12513834 -0.4770796 0.15549129 0.23389576 0.95948648 0.15709342 0.00014552983
-0.11863451 -0.47818467 0.15287748 0.23177253 0.95919389 0.16195233 0.00010842706
0.12729052 -0.4767139 0.15623921 -0.28028658 0.9468655 0.15775037 0.00029431246
0.13620666 -0.47446305 0.15825173 -0.27705505 0.94852602 0.1534237 0.00034605057
0.14012501 -0.47264248 0.15459129 -0.27909887 0.94669622 0.16084218 0.00016741209
-0.17512357 -0.46516284 0.1566214 0.33039308 0.9313187 0.15325117 0.0015208867
-0.16593654 -0.46726084 0.15590289 0.28095475 0.94580555 0.16283831 0.00139901
-0.15660839 -0.46968293 0.15678956 0.23897906 0.95838124 0.15618671 0.00018319514
0.14898297 -0.46925086 0.15027431 -0.27784148 0.94623673 0.16565076 2.874727e-05
0.15557569 -0.46828002 0.15555334 -0.27802238 0.94734967 0.15884653 0.00014111969
0.16275825 -0.46622062 0.15582885 -0.2819753 0.94642282 0.15739672 0.00017086649
0.17511389 -0.46187362 0.1519057 -0.27944314 0.9460091 0.16425088 0.000133569
