# .PCD v0.7 - Point Cloud Data file format
VERSION 0.7
FIELDS x y z normal_x normal_y normal_z curvature
SIZE 4 4 4 4 4 4 4
TYPE F F F F F F F
COUNT 1 1 1 1 1 1 1
WIDTH 576
HEIGHT 1
VIEWPOINT 0 0 0 1 0 0 0
POINTS 576
DATA ascii
0.31486014 -0.144163 -0.053246439 -0.57611161 0.23852606 0.7817933 0.00030271354
-0.3214744 -0.13408647 -0.051501427 0.5800736 0.2385958 0.77883667 0.00040240618
-0.31664583 -0.13372479 -0.05506118 0.56956339 0.23616613 0.78728843 0.00010670286
0.31515557 -0.13428697 -0.055960238 -0.56637943 0.23420925 0.79016483 2.9862115e-06
0.32040697 -0.1322175 -0.052818239 -0.56965804 0.23615402 0.78722358 0.0001013506
-0.3264311 -0.12023344 -0.052060187 0.58070064 0.24001871 0.77793175 0.0003911322
-0.3173486 -0.12444473 -0.057307225 0.565525 0.23423345 0.79076934 0
0.31353471 -0.12611555 -0.059539411 -0.56556267 0.23425955 0.79073471 0
0.32335553 -0.1255677 -0.052679446 -0.57560015 0.23783618 0.78237998 0.00029023507
-0.32681188 -0.11633199 -0.05294342 0.5749191 0.23719896 0.78307384 0.00026248841
-0.31879479 -0.11511055 -0.059037689 0.56552732 0.23427641 0.79075503 0
0.31928372 -0.11505948 -0.058703221 -0.56546414 0.23423119 0.79081362 3.3238939e-06
0.32427469 -0.11396011 -0.05546011 -0.56732547 0.23490275 0.7892797 0
-0.33392793 -0.10303591 -0.05179324 0.59136212 0.21521565 0.77715701 0.00076223788
-0.32620609 -0.10536869 -0.056623679 0.56896222 0.22237314 0.79172736 0.0001168883
0.32472751 -0.10504913 -0.057775576 -0.56938171 0.22654578 0.79024142 0.0001262968
0.33332366 -0.10018237 -0.053070433 -0.58706576 0.20145506 0.78407252 0.00068206264
-0.33417284 -0.092370749 -0.054776851 0.58761472 0.17355628 0.79030824 0.00085144927
-0.32839829 -0.093784459 -0.058487177 0.58506185 0.17798232 0.79121739 0.00084586162
0.32752928 -0.093976989 -0.059051502 -0.58452904 0.17556351 0.79215097 0.00086992502
0.33616504 -0.093861505 -0.052910831 -0.59867078 0.16924462 0.78291094 0.00098901673
-0.3414886 -0.082576632 -0.050704863 0.61826813 0.11965087 0.77680647 0.00095380662
-0.33506116 -0.08469554 -0.055422768 0.59227592 0.13641271 0.7941038 0.00076069974
0.32910088 -0.089532912 -0.059244007 -0.58659351 0.15674022 0.79456949 0.0010409601
0.33553565 -0.084585555 -0.05505513 -0.59798557 0.12531954 0.7916491 0.00065158604
0.34053355 -0.083717488 -0.051322445 -0.6149658 0.12593435 0.77843279 0.00084237213
-0.3409417 -0.072168559 -0.052175954 0.62202829 0.09254498 0.77750641 0.00056149921
-0.33617437 -0.073889814 -0.055660158 0.60185272 0.10044497 0.79226524 0.00027685909
0.33470929 -0.076785244 -0.056491852 -0.60202599 0.10016239 0.79216927 0.00023087132
0.34189072 -0.072455674 -0.051418751 -0.62122601 0.096048258 0.7777229 0.00060630747
-0.34234446 -0.063927501 -0.051932078 0.62215453 0.086901151 0.77805644 0.00048763287
-0.33583117 -0.065429844 -0.056778152 0.60576534 0.085531883 0.79103261 2.4578947e-05
0.3352589 -0.063117549 -0.05745085 -0.60725147 0.081175081 0.79035199 4.509464e-07
0.34110603 -0.064425617 -0.052832056 -0.61421776 0.083233543 0.78473485 0.00022834366
-0.34368417 -0.053350098 -0.051972616 0.62517524 0.081423014 0.77622563 0.00053277815
-0.3376272 -0.056100823 -0.056342427 0.60777473 0.079883397 0.79008132 7.3805381e-06
0.33680701 -0.054511711 -0.057132293 -0.60700512 0.079895087 0.79067159 0
0.34352416 -0.056963146 -0.051730432 -0.62045199 0.081152491 0.78003442 0.00032568217
-0.34521031 -0.043359589 -0.051810823 0.6186071 0.084323674 0.78116244 0.00037448495
0.33942074 -0.046117175 -0.055974752 -0.60691607 0.079928018 0.79073662 1.6381526e-05
0.3439965 -0.043407127 -0.052737396 -0.61997539 0.081812747 0.78034431 0.00044070923
-0.34440601 -0.0352211 -0.053250153 0.61083752 0.081537068 0.78754628 0.00013939949
-0.33790815 -0.033148866 -0.058445457 0.60676289 0.079892501 0.79085779 2.7542193e-05
0.3376959 -0.034580007 -0.058463763 -0.60672915 0.079883732 0.79088461 4.7283891e-05
0.34592968 -0.034204543 -0.052183699 -0.62257671 0.082850695 0.77816063 0.00055286899
-0.34605348 -0.023787832 -0.053140998 0.6135993 0.075734377 0.78597724 0.00022031374
-0.33861366 -0.027417261 -0.058483116 0.60684383 0.079883508 0.79079652 0
0.33847523 -0.027362783 -0.058594845 -0.60681534 0.079892442 0.7908175 6.0811103e-06
0.34675464 -0.028720319 -0.052104674 -0.6208719 0.08203093 0.77960819 0.00033807888
-0.34313488 -0.013579606 -0.056411736 0.60755187 0.047347523 0.79286748 0.0004667913
0.34599131 -0.014053411 -0.054172058 -0.61645305 0.060074568 0.78509665 0.00033874507
-0.35119486 -0.0041790288 -0.051176745 0.62319106 0.015496586 0.78191608 0.00093788852
-0.34418175 -0.0039101741 -0.056585267 0.61087239 0.022460649 0.79141039 0.00065714039
0.34472972 -0.0062260982 -0.055930831 -0.61114943 0.033336516 0.79081285 0.00068486034
0.35112977 -0.0059209913 -0.051050715 -0.63423949 0.042090669 0.77199006 0.00089762901
-0.34551716 0.0048969272 -0.055460893 0.61171973 -0.019439194 0.79083574 0.00070887193
-0.33981812 0.0054507954 -0.059777953 0.60187566 -0.035803631 0.79778683 0.00054694572
0.33962572 0.0061277947 -0.059857219 -0.60990119 -0.032064624 0.79182845 0.00055358867
0.34488642 0.0053928969 -0.055894781 -0.61076993 -0.040866978 0.79075289 0.00052493182
0.3514877 0.005388143 -0.050829925 -0.63103819 -0.033012297 0.77504903 0.00106224
-0.35104567 0.013512965 -0.050348297 0.6322816 -0.059851952 0.77242339 0.0008697561
-0.34407744 0.01596697 -0.055447303 0.60738617 -0.063699342 0.79184872 0.00027136179
-0.3391906 0.013386356 -0.059457816 0.60772496 -0.059041727 0.79194981 0.00027616383
0.3462455 0.016468516 -0.053733055 -0.61524838 -0.071563601 0.78507829 0.00031925878
0.35143527 0.013507632 -0.050049905 -0.63327682 -0.057006385 0.77182311 0.0010356826
-0.34823883 0.024374088 -0.051404897 0.62056655 -0.07659293 0.78040415 0.00042188293
-0.33891353 0.027725268 -0.058221906 0.60688698 -0.079881005 0.79076374 0
0.33866501 0.020426018 -0.059149958 -0.60674852 -0.073733337 0.79146677 6.6299908e-05
0.3437027 0.025547912 -0.054766972 -0.60678887 -0.079889596 0.79083806 8.7509234e-06
-0.34493679 0.035265353 -0.052838385 0.61820042 -0.083294883 0.78159463 0.00036805568
-0.33841953 0.038106903 -0.057552211 0.60679257 -0.079878785 0.79083639 8.7690269e-06
0.33750027 0.036260247 -0.05844412 -0.60682327 -0.079883613 0.79081231 5.0863555e-06
0.34271526 0.032478485 -0.054824542 -0.61119467 -0.080810674 0.78734404 0.00013295375
-0.34419045 0.04624524 -0.052301891 0.62180865 -0.081021808 0.7789669 0.00051402824
-0.33763647 0.04445444 -0.057511836 0.60671955 -0.079901934 0.7908901 3.6044541e-05
0.33570322 0.04606713 -0.058832359 -0.60690302 -0.079899244 0.79074955 0
0.34365618 0.0454523 -0.052791953 -0.61632675 -0.077017166 0.78371537 0.00019231241
-0.34349084 0.054756541 -0.051978894 0.62638199 -0.081008635 0.77529562 0.00050936529
-0.33538961 0.05496731 -0.058173876 0.60677195 -0.079886906 0.79085135 1.788505e-05
0.33572841 0.055713337 -0.057838563 -0.60774833 -0.080035269 0.79008621 0
0.34377357 0.054924995 -0.051744934 -0.62478787 -0.080117919 0.77667314 0.00058753567
-0.34196326 0.067950495 -0.051818199 0.61913711 -0.085658774 0.78059703 0.00045151121
-0.33570525 0.064871877 -0.056931123 0.60794997 -0.081402674 0.78979141 3.5072e-05
0.33625427 0.06585139 -0.056410879 -0.60659933 -0.082818113 0.79068232 2.0576068e-05
-0.34253731 0.072746508 -0.050893191 0.63048232 -0.090987429 0.77085233 0.00082473399
-0.33433393 0.075984165 -0.056860831 0.60275561 -0.10085219 0.79152673 0.00024841318
0.33599406 0.074702509 -0.055716436 -0.60805351 -0.089524619 0.78883219 0.00017305709
0.34207034 0.075276479 -0.050995953 -0.62536609 -0.09880764 0.77405059 0.00069951412
-0.34172249 0.081345379 -0.050649792 0.6192857 -0.12394495 0.77532113 0.00089338684
-0.33324021 0.085309044 -0.056758057 0.59698713 -0.14808002 0.78846604 0.00069897628
0.32943574 0.088737734 -0.059240077 -0.58331752 -0.16637754 0.79502141 0.00067538378
0.33435896 0.0842923 -0.056002293 -0.59403265 -0.13685583 0.79271406 0.0006621097
0.34153211 0.088286161 -0.050094709 -0.62095428 -0.15578836 0.7682094 0.0015753557
-0.33444548 0.095597625 -0.053626183 0.59622788 -0.17934993 0.78252536 0.00078406424
-0.32720444 0.097970128 -0.058101114 0.57748276 -0.20208462 0.79099649 0.00044489172
0.33660689 0.09466213 -0.052357771 -0.59932584 -0.17598943 0.78092015 0.0010406337
-0.3248826 0.10495454 -0.057692666 0.57134396 -0.22419249 0.78949589 0.00015640429
0.32550606 0.10474807 -0.057308022 -0.56829977 -0.22521627 0.79139936 7.3682764e-05
0.33308113 0.10637484 -0.051409785 -0.58674383 -0.23109423 0.77609742 0.00074251462
-0.33185655 0.11380775 -0.050083943 0.59314895 -0.23867767 0.7689001 0.00085857965
-0.32572234 0.11485991 -0.054158501 0.57476145 -0.23716591 0.78319961 0.00023745747
0.32724476 0.11379829 -0.053384334 -0.56875414 -0.23315127 0.78877079 5.9798862e-05
0.33088875 0.1147657 -0.050492242 -0.57947546 -0.23980765 0.77890974 0.00047186905
-0.32479435 0.12702316 -0.051219553 0.577959 -0.23655385 0.78102857 0.00026765518
-0.31765988 0.12503371 -0.056910191 0.56546074 -0.23420814 0.7908228 1.15751e-05
0.31809142 0.12401074 -0.056904603 -0.56548429 -0.23419037 0.79081124 0
0.32253647 0.12505239 -0.05341772 -0.57169199 -0.2365341 0.78563344 0.00016055311
-0.32165569 0.13147973 -0.052143883 0.57695925 -0.23612446 0.78189719 0.0002676486
-0.31428382 0.13561673 -0.056189757 0.56628555 -0.23470935 0.79008365 0
-0.30914599 0.13580683 -0.059807155 0.56550103 -0.23422246 0.79078972 0
0.30821967 0.13885981 -0.059565291 -0.56545264 -0.23422815 0.79082268 1.3034861e-06
0.31450287 0.13689795 -0.055653632 -0.56901556 -0.23708116 0.78740954 7.6408658e-05
0.3207196 0.13866211 -0.050685957 -0.58422709 -0.24062409 0.77509922 0.00052874553
-0.31460384 0.1445737 -0.053308077 0.57536501 -0.23929726 0.78210741 0.00028380635
-0.30944103 0.14452931 -0.057012793 0.56643701 -0.23421986 0.79012036 0
0.30826893 0.1475917 -0.056943905 -0.56567079 -0.23584299 0.79018652 3.3451219e-05
0.31394121 0.14583115 -0.053409446 -0.5764119 -0.24166909 0.78060573 0.00030705894
-0.31308067 0.15477499 -0.051375799 0.57877219 -0.24395166 0.77814549 0.00057481346
-0.30081308 0.15637353 -0.059674107 0.55650574 -0.25187972 0.79174364 0.00036294427
0.30562297 0.1565441 -0.056184351 -0.55963141 -0.25053632 0.78996468 0.00020867564
0.31208625 0.15399666 -0.052317362 -0.57589459 -0.24053338 0.78133804 0.00039455926
-0.31034869 0.16193435 -0.051208828 0.57743025 -0.26126775 0.7735073 0.00085737545
-0.30392092 0.16537575 -0.054785646 0.54972738 -0.27999935 0.78701979 0.00072454102
-0.2987116 0.16893771 -0.057455521 0.53439659 -0.28630927 0.7952655 0.00079473737
0.29920912 0.16603635 -0.057959072 -0.53973562 -0.28537917 0.79198742 0.00084808661
0.30549219 0.16558407 -0.053600442 -0.55581766 -0.27871883 0.78318745 0.00077351509
-0.30395907 0.17235911 -0.05269004 0.54822719 -0.29527333 0.78247082 0.00094423338
-0.29446161 0.176366 -0.057181731 0.51419413 -0.33261305 0.79055226 0.00070297229
0.28949916 0.17844445 -0.059249498 -0.50273383 -0.34546831 0.79240793 0.00050587679
0.2953926 0.1723492 -0.058502614 -0.52218699 -0.31699413 0.79172939 0.000964323
0.3039166 0.17418323 -0.052062947 -0.53680342 -0.31192699 0.78392833 0.0010387604
-0.29359061 0.18395407 -0.054141432 0.50753123 -0.34987065 0.78740245 0.0005315938
-0.28611374 0.1857267 -0.057897184 0.49167785 -0.36195308 0.7919867 0.00014069864
0.28540206 0.18514419 -0.058608603 -0.49400541 -0.36278582 0.79015511 0.00016690342
0.2954182 0.18518257 -0.052440453 -0.51242292 -0.36228597 0.77857029 0.00066991348
-0.29399461 0.19123712 -0.050461985 0.50630599 -0.37471402 0.77668768 0.00058260589
-0.28425688 0.197198 -0.05363258 0.49314979 -0.37499064 0.78497475 0.00015617613
-0.27830634 0.19356735 -0.058996912 0.48571116 -0.37221184 0.79091281 1.7232544e-05
0.27726573 0.19582123 -0.058573909 -0.48559195 -0.37258658 0.79080945 6.0312635e-07
0.28592849 0.19361575 -0.054293994 -0.48899817 -0.37505546 0.78753674 6.4277541e-05
0.29083538 0.19021048 -0.052885495 -0.50506532 -0.37097079 0.77928799 0.0005907318
-0.28253824 0.20319507 -0.05186237 0.49559373 -0.38136423 0.78035122 0.00035075261
-0.27601933 0.2057099 -0.054680198 0.48743382 -0.37313884 0.78941476 3.5286659e-05
-0.26857877 0.20569885 -0.059253998 0.48562518 -0.37260652 0.79077971 0
0.26573157 0.20972843 -0.05910372 -0.48566195 -0.37265781 0.79073298 0
0.27630079 0.20464773 -0.055007823 -0.48710361 -0.37465715 0.7888993 5.0912822e-05
0.28220025 0.20134649 -0.052940845 -0.49394289 -0.37802783 0.78301686 0.00023911666
-0.27461421 0.2153966 -0.050979074 0.50217402 -0.38254634 0.77555114 0.00060409104
-0.26459131 0.21707684 -0.056341622 0.48571736 -0.37266302 0.79069656 0
0.25914532 0.21710692 -0.059671387 -0.48557928 -0.37264803 0.79078835 0
0.26666796 0.21611683 -0.055518854 -0.48833904 -0.37532479 0.78781742 5.2770218e-05
0.27418989 0.21590506 -0.051000051 -0.50143701 -0.38267946 0.77596211 0.00054277992
-0.2639612 0.22403145 -0.053451877 0.49606648 -0.37904337 0.78118134 0.00030034033
-0.25668648 0.22729145 -0.056382701 0.47988158 -0.37824404 0.79160917 9.2802824e-05
0.25671929 0.22914568 -0.055488944 -0.47600576 -0.38496029 0.79071116 0.00020694597
0.2645615 0.225078 -0.052590173 -0.4898501 -0.3756991 0.78670007 6.7013483e-05
0.27066433 0.22073801 -0.050887745 -0.50363296 -0.38087562 0.77542734 0.0005289269
-0.25382414 0.23655756 -0.053774465 0.47774133 -0.39067352 0.78685284 0.00041387734
-0.24734196 0.23814169 -0.057008293 0.44722211 -0.41157901 0.79410022 0.00076658791
0.24831589 0.2366102 -0.057131823 -0.45302981 -0.40390253 0.7947495 0.00058438774
0.25558165 0.23390077 -0.053947087 -0.47565335 -0.38806555 0.78940421 0.00027789871
0.26161921 0.23269978 -0.0508058 -0.4914301 -0.39391044 0.77674389 0.00073961285
-0.25117683 0.24562499 -0.051127851 0.45833591 -0.42997399 0.77785003 0.001429574
-0.24478796 0.24589726 -0.054682963 0.42932025 -0.44338858 0.78682321 0.00083359238
-0.23693292 0.24612957 -0.05832221 0.40267235 -0.45453095 0.79451662 0.0007215701
0.233867 0.24696854 -0.059251599 -0.40419894 -0.45594674 0.79292864 0.00053511944
0.24082637 0.24751341 -0.05563812 -0.41825733 -0.44599247 0.79129738 0.00067128235
0.25253817 0.2432411 -0.051415138 -0.46789336 -0.41744187 0.77898526 0.0010479636
-0.24464048 0.25236809 -0.050860249 0.42363179 -0.45756304 0.781775 0.0010364196
-0.23858355 0.25344896 -0.053050306 0.39855173 -0.46933407 0.78796071 0.00039821674
-0.22477992 0.25531143 -0.058410328 0.37923861 -0.47994071 0.79109734 0.00010341337
0.22655673 0.25547957 -0.057469912 -0.38306519 -0.47773558 0.79058826 0.00014062355
0.23115337 0.25674459 -0.054527476 -0.38576165 -0.48089877 0.78735274 0.0002412319
0.24083614 0.25266647 -0.052469462 -0.41528696 -0.46238482 0.78341371 0.00080246344
-0.23145707 0.26041821 -0.052128755 0.38387364 -0.48473218 0.78592354 0.00027000465
-0.22446492 0.26590553 -0.052053783 0.3805232 -0.49628493 0.78032267 0.00040850486
-0.21644904 0.26379693 -0.057125185 0.37261719 -0.48561648 0.79078007 0
-0.20908615 0.26979846 -0.0569092 0.37265733 -0.48572463 0.79069471 0
0.20723689 0.26807508 -0.058838639 -0.37267679 -0.4855628 0.7907849 0
0.21515743 0.26590565 -0.056438942 -0.37265804 -0.48563376 0.79075021 0
0.22294907 0.26161674 -0.055401355 -0.37477213 -0.48773882 0.78845209 8.3749292e-05
-0.21498413 0.27351564 -0.051847953 0.3832792 -0.49624887 0.77899557 0.000515847
-0.20659013 0.27648506 -0.053979531 0.37528744 -0.49093449 0.78622043 0.00018386463
-0.19686475 0.27831423 -0.057438463 0.37315309 -0.48663366 0.78990155 2.6783071e-06
0.19519883 0.27599084 -0.059649974 -0.3726413 -0.48566514 0.79073882 0
0.20394762 0.27554983 -0.055798765 -0.37386623 -0.49065247 0.78707325 2.2801007e-05
0.21169461 0.27435404 -0.05288301 -0.38047284 -0.49325877 0.78226352 0.00017084907
-0.20356639 0.2827383 -0.051564563 0.37858117 -0.50142449 0.77797794 0.0006313161
-0.19461809 0.28570619 -0.05395823 0.37167436 -0.48883545 0.78923893 0
-0.18521178 0.28702942 -0.057577532 0.36272904 -0.49377221 0.79032689 0.00018001893
0.18569785 0.28728437 -0.057191961 -0.361132 -0.49653566 0.78932631 0.00024213317
0.19337283 0.28421223 -0.055462245 -0.37074202 -0.48905686 0.78954017 1.5123654e-05
0.20562224 0.28114298 -0.051575501 -0.37885234 -0.49584013 0.78141761 0.00021550254
-0.18426752 0.29500645 -0.05312442 0.35617191 -0.51243329 0.7813794 0.00049199222
-0.17619084 0.29650459 -0.05600987 0.32108727 -0.5215981 0.7904672 0.00078868488
-0.16477697 0.2972272 -0.059749223 0.27463421 -0.54473341 0.7923646 0.00062742044
0.16688581 0.29783368 -0.058690973 -0.28823233 -0.53442907 0.79454875 0.00084824988
0.17475617 0.2962532 -0.056840152 -0.31033272 -0.5234369 0.79354101 0.00081510009
-0.17336233 0.30221891 -0.053512648 0.30811495 -0.53937989 0.78366733 0.00093896157
-0.16396484 0.30523074 -0.054266952 0.25991806 -0.55216205 0.79218662 0.00051155023
-0.15567695 0.30404851 -0.057566985 0.24352126 -0.5589878 0.79260969 0.00013947996
-0.14274079 0.30836552 -0.058311552 0.23423809 -0.56545562 0.79081756 0
-0.13684961 0.3085531 -0.059922256 0.23421934 -0.56545812 0.79082137 2.6730277e-06
0.13788611 0.30871525 -0.059499323 -0.23425509 -0.56550568 0.79077673 0
0.14372589 0.30706009 -0.058953214 -0.23421873 -0.56551349 0.79078203 0
0.15432844 0.30539536 -0.057003308 -0.2432718 -0.56060582 0.79154271 0.00014325432
0.16334546 0.30515301 -0.054505967 -0.26464087 -0.5550977 0.78856301 0.00052561861
0.17525654 0.30385971 -0.051652033 -0.30408975 -0.5502829 0.77763623 0.0011450303
0.18034726 0.30049154 -0.051603496 -0.33050144 -0.52891898 0.78167349 0.0011622509
-0.16017662 0.31136262 -0.051004425 0.25616601 -0.58223677 0.77160829 0.00084942294
-0.15401031 0.31325981 -0.051474188 0.24230479 -0.58295989 0.77552956 0.0005297329
-0.14371862 0.31438464 -0.053718064 0.23451513 -0.57112932 0.78664738 0.00017051182
-0.13424471 0.3116053 -0.058511324 0.23423305 -0.56543744 0.7908321 4.6718287e-06
-0.12458149 0.31728485 -0.05731228 0.23461464 -0.56596202 0.7903434 0
0.11934397 0.3187274 -0.057832062 -0.23422611 -0.5654282 0.79084074 1.7278893e-05
0.12759249 0.31681415 -0.056757051 -0.23428622 -0.56556815 0.79072285 0
0.13491555 0.31607449 -0.055117004 -0.23386692 -0.56794667 0.78914064 2.518902e-05
0.14636429 0.31413454 -0.053113297 -0.23681238 -0.57630575 0.78217095 0.00030494397
0.15223908 0.31055096 -0.053935718 -0.23952499 -0.56373459 0.79046255 5.8331891e-05
-0.13775493 0.32116416 -0.050636776 0.23747681 -0.58310431 0.77691323 0.00050815771
-0.12456512 0.32383084 -0.052636515 0.23903611 -0.57968611 0.77899027 0.0003890353
-0.11264721 0.32480004 -0.055473324 0.2346241 -0.57072759 0.7869063 0.00012186757
-0.10720941 0.32702655 -0.055491865 0.22891107 -0.57250863 0.7872951 0.00017294576
-0.095537744 0.32822868 -0.058089171 0.19720644 -0.57788026 0.79193681 0.00040132416
0.093844071 0.32770032 -0.058968574 -0.17720416 -0.58304155 0.79288161 0.00082215603
0.10481014 0.32661849 -0.056494225 -0.22320573 -0.57243341 0.78898615 0.00015901952
0.11560287 0.32397282 -0.055189401 -0.23477165 -0.57031649 0.78716034 7.1373252e-05
0.12656097 0.32415691 -0.051812261 -0.23850559 -0.57436311 0.78308499 0.00024211741
0.13493145 0.32266504 -0.05039984 -0.24093533 -0.57869714 0.77914035 0.00030013497
-0.10427882 0.33355179 -0.051694036 0.21029057 -0.58742082 0.7814824 0.00061942864
-0.095655404 0.33424446 -0.053752828 0.1774632 -0.58944315 0.78807586 0.00071806583
-0.083544344 0.33217469 -0.057753935 0.13243672 -0.59513819 0.7926355 0.00065266894
-0.077188686 0.33433509 -0.056738254 0.11217327 -0.60332602 0.78956628 0.00039677546
-0.06621173 0.33514136 -0.057228483 0.084767923 -0.60606813 0.790883 7.2721647e-05
-0.056524765 0.33697501 -0.056800049 0.080020145 -0.60882956 0.78925484 2.9105307e-05
-0.046143953 0.33563614 -0.058876056 0.079887196 -0.60679573 0.79083306 1.1742834e-05
-0.023879141 0.3374556 -0.05972914 0.076337934 -0.60647297 0.79143101 7.1051843e-05
-0.015721433 0.33872411 -0.05957986 0.066118583 -0.60582423 0.79284626 0.00013579419
0.0068996819 0.33964875 -0.059761554 -0.028722923 -0.60402471 0.79644781 0.00065573235
0.034055635 0.33775026 -0.058475018 -0.07989008 -0.60687339 0.79077327 0
0.044477746 0.33698753 -0.058007419 -0.079884328 -0.60684848 0.79079282 0
0.054499291 0.33607811 -0.057692867 -0.080066025 -0.60741353 0.79034054 0
0.066208951 0.33686554 -0.055905741 -0.084349543 -0.60698098 0.79022729 2.1383461e-05
0.075064361 0.33697504 -0.054927155 -0.094893098 -0.60226232 0.79263818 0.00019034457
0.083924636 0.33483905 -0.055671081 -0.12482825 -0.59748793 0.79210234 0.00064300257
0.096956171 0.33593729 -0.052157104 -0.19607802 -0.59294647 0.78100437 0.00088168023
0.10825225 0.33071908 -0.05254269 -0.22755454 -0.5738976 0.78667688 0.00017403858
-0.084868342 0.3402499 -0.051423866 0.12584916 -0.61570579 0.77786136 0.00094444153
-0.078320302 0.34054172 -0.051861405 0.11061494 -0.61458379 0.78105778 0.00059348944
-0.060337216 0.34317434 -0.051658005 0.079171598 -0.62193388 0.7790572 0.00039462541
-0.056984495 0.34468305 -0.050839026 0.079183385 -0.62605536 0.77574784 0.00053177058
-0.043216497 0.3443833 -0.052459866 0.081136689 -0.62249351 0.77840775 0.00047594134
-0.035068344 0.34308171 -0.05428173 0.079887964 -0.61263621 0.78631717 0.00011818838
-0.028864942 0.34442985 -0.053873949 0.081170842 -0.61192262 0.78674138 0.00017933342
-0.01594455 0.34281009 -0.056422047 0.063351311 -0.60551268 0.79331017 0.00012996583
-0.0041233967 0.34440336 -0.056393683 0.022212565 -0.60672837 0.79459882 0.00064791116
0.0050091199 0.34469023 -0.05608407 -0.028745882 -0.60660112 0.79448652 0.00065074686
0.015305534 0.34434697 -0.055307318 -0.066490903 -0.610955 0.78886819 0.00017321692
0.022008205 0.34675336 -0.052783728 -0.074806169 -0.61891633 0.78188652 0.00032589131
0.033957567 0.34424135 -0.053504143 -0.081448928 -0.61342806 0.78553939 0.00012255172
0.047204077 0.34364206 -0.052625801 -0.081958652 -0.6154725 0.78388542 0.0002137398
0.056821316 0.34216285 -0.052789316 -0.077426597 -0.6210174 0.7799632 0.00037222655
0.065622926 0.34254673 -0.051605601 -0.079173841 -0.62294734 0.77824688 0.00039973622
0.076470569 0.34210673 -0.050847389 -0.098434232 -0.62307155 0.7759462 0.0007719124
0.087966055 0.34026203 -0.051101603 -0.14309159 -0.61518949 0.77528495 0.0011987651
-0.0066545913 0.35136122 -0.050799012 0.028983876 -0.62646592 0.77890974 0.0013806712
0.00035841513 0.35081586 -0.051853538 0.0093873022 -0.62485075 0.78068781 0.0011665733
-0.039507043 -0.36082342 -0.040219657 0.098491147 0.70410848 0.70322877 0.0025273524
-0.021930922 -0.36312491 -0.040229198 0.086972497 0.70559305 0.70325971 0.0021294472
-0.015999081 -0.36139658 -0.04215461 0.08223068 0.68649882 0.72246623 0.0020735017
-0.0040785912 -0.36328757 -0.041907843 0.017346313 0.70281816 0.71115804 0.0026271951
0.0099907108 -0.36307281 -0.041475356 -0.042426575 0.69460899 0.7181353 0.0019958455
0.01041443 -0.36080974 -0.043169096 -0.044338185 0.68491232 0.72727525 0.0019941945
0.031624354 -0.3613131 -0.040640213 -0.091429241 0.70004916 0.70821738 0.0022659518
-0.090922952 -0.35229933 -0.041566368 0.17030717 0.67320979 0.71957207 0.002464032
-0.085682079 -0.35440955 -0.040476561 0.13969043 0.68527555 0.7147615 0.0026306636
-0.078336343 -0.35300696 -0.042294856 0.10718236 0.68753505 0.71819741 0.0025980361
-0.066245161 -0.35605827 -0.04116087 0.086264633 0.69278032 0.71597052 0.0022551238
-0.054203283 -0.35457304 -0.043531109 0.080925114 0.68325061 0.72568566 0.0023428104
-0.045213532 -0.3550252 -0.044085097 0.10045636 0.66350406 0.74139786 0.0021583417
-0.02341627 -0.35474038 -0.04651282 0.090523876 0.65815103 0.74742395 0.0015282043
-0.012920732 -0.35759535 -0.045382392 0.05689111 0.66303593 0.74642271 0.0017390391
-0.0064103953 -0.35440889 -0.048485111 0.030566135 0.64373279 0.76463968 0.0016703906
0.0047213295 -0.35773116 -0.046106491 -0.016539045 0.66125298 0.74998063 0.0017489399
0.014173605 -0.35322773 -0.048607208 -0.063678108 0.63290584 0.77160573 0.00087496004
0.024543189 -0.35490683 -0.046271253 -0.10025682 0.66273683 0.74211085 0.0020223327
0.03544993 -0.35570949 -0.044553585 -0.086619265 0.67206705 0.73540664 0.0017924638
0.043413617 -0.35733479 -0.042501934 -0.079524674 0.68577027 0.72346044 0.0022854311
0.056206733 -0.35315004 -0.04442063 -0.081467286 0.66065621 0.74625492 0.0018304023
0.065229528 -0.35301161 -0.043615375 -0.091143779 0.67286307 0.73413092 0.0021001969
0.076064244 -0.3522698 -0.043090064 -0.09887629 0.67938405 0.7270906 0.0022320657
0.084003404 -0.35084274 -0.043383051 -0.13228256 0.66741657 0.73284143 0.0020142009
0.095258281 -0.35197809 -0.041038278 -0.19484428 0.67628628 0.71040308 0.0024995329
-0.11681695 -0.34125635 -0.042471513 0.26864269 0.63332731 0.72575998 0.0016530711
-0.10219864 -0.34312868 -0.045462344 0.21715851 0.61816466 0.75545657 0.0012928303
-0.097148024 -0.34498543 -0.045630563 0.19939753 0.6313532 0.74942225 0.0022764646
-0.085596621 -0.34639439 -0.046635434 0.14133686 0.63620341 0.75846499 0.0019332147
-0.075990357 -0.34626251 -0.047707044 0.097028635 0.64144415 0.76100904 0.0014187343
-0.044383239 -0.34884307 -0.048919898 0.084739551 0.64087391 0.76295465 0.0010675429
0.031920053 -0.34934813 -0.04979137 -0.08787474 0.63203603 0.76994061 0.00075020682
0.053898487 -0.3482703 -0.048398182 -0.083101556 0.63625157 0.76699287 0.0009174358
0.063385732 -0.3480894 -0.047578566 -0.085137412 0.64225221 0.76175052 0.0010819124
0.073995017 -0.34704483 -0.047308337 -0.096082889 0.64673626 0.75663751 0.0014078264
0.085285485 -0.34539226 -0.047435801 -0.1333217 0.6313436 0.76395714 0.0014467448
0.092709504 -0.34323177 -0.048155919 -0.16231807 0.62637573 0.76243442 0.0015345375
0.10587193 -0.34649533 -0.041967098 -0.23210749 0.65823519 0.71613723 0.0026119773
0.11503046 -0.34134245 -0.042939067 -0.25875643 0.63560069 0.72736293 0.0022083949
0.12480909 -0.34106997 -0.040237673 -0.27945662 0.65481693 0.70222414 0.0024517924
-0.14455108 -0.33223626 -0.040706962 0.2669751 0.65537941 0.70654237 0.0020377063
-0.13291475 -0.33100984 -0.045030333 0.259873 0.62737006 0.73407954 0.0017399264
-0.12809405 -0.33152735 -0.04608807 0.25568533 0.62135041 0.7406407 0.0019345193
-0.1161076 -0.33496866 -0.047177535 0.24441643 0.60957354 0.7541092 0.0014618615
-0.10796513 -0.33633903 -0.048609275 0.23400939 0.5984056 0.76625741 0.00084029435
-0.098806404 -0.33834451 -0.049887873 0.19324438 0.60287762 0.774077 0.0010663104
0.10818944 -0.33613485 -0.048688799 -0.23484677 0.59863865 0.76581901 0.0011836436
0.11366148 -0.33519971 -0.047736794 -0.2443776 0.59676683 0.76429641 0.001269856
0.1260839 -0.3333002 -0.04541577 -0.25646418 0.60779762 0.7515372 0.0013908581
0.13496608 -0.33310276 -0.042926099 -0.26697016 0.64147592 0.71919096 0.0023672604
0.14037448 -0.33080846 -0.042964906 -0.26360229 0.63839972 0.72315955 0.0022856423
-0.17276271 -0.32075739 -0.040559113 0.30393282 0.63287479 0.71210557 0.0022329341
-0.1654056 -0.32293764 -0.041179169 0.28687859 0.64290363 0.71019405 0.002171783
-0.15358011 -0.32424876 -0.043744128 0.25988984 0.62829095 0.73328561 0.0018686493
-0.14384967 -0.32502079 -0.046074033 0.24759096 0.61423713 0.74927396 0.0013684692
-0.13766173 -0.32828325 -0.04557398 0.25155029 0.61935765 0.7437194 0.0018374943
-0.12742391 -0.32801771 -0.048796058 0.24725713 0.59064978 0.76811248 0.00081539073
0.13446496 -0.32818201 -0.046593186 -0.25381312 0.60592055 0.75394911 0.0013212517
0.14599828 -0.32558528 -0.045034029 -0.25798059 0.6255399 0.73630565 0.0019721608
0.15464154 -0.32387656 -0.043695875 -0.26748616 0.62789077 0.7308929 0.0020531407
0.16595735 -0.32388675 -0.040337134 -0.27879238 0.65167832 0.70540071 0.0022345011
-0.19119516 -0.31074056 -0.040185794 0.39186287 0.58699965 0.70843136 0.0022945818
-0.17232768 -0.31424385 -0.045345388 0.29616743 0.59481061 0.74731869 0.0016204619
-0.16390903 -0.31457847 -0.047599547 0.26907903 0.58075416 0.76832348 0.0007492947
-0.15450436 -0.31675109 -0.048831467 0.24858871 0.59086239 0.76751894 0.00095292769
0.15619367 -0.31644008 -0.048553512 -0.25806487 0.59495884 0.76120067 0.001054265
0.16638714 -0.313788 -0.047430776 -0.26957241 0.58321428 0.76628441 0.0011205991
0.1748728 -0.31337103 -0.045215644 -0.31939119 0.58353257 0.74664521 0.0018361233
0.18311925 -0.31118906 -0.043729056 -0.35548419 0.59269542 0.72273308 0.0021833668
-0.20189679 -0.30038816 -0.041513938 0.41566291 0.55908889 0.71738696 0.0024356144
-0.19359992 -0.30406022 -0.043168288 0.40153331 0.56067675 0.72416335 0.00220078
-0.18863265 -0.30640182 -0.044070851 0.37606567 0.56695604 0.73289526 0.0020225777
-0.17644294 -0.30823386 -0.048369478 0.3095246 0.56032479 0.76826471 0.0011087176
0.17525187 -0.30894151 -0.048270661 -0.30540347 0.5632683 0.76776135 0.0016632507
0.18310502 -0.30402482 -0.048134729 -0.34960416 0.54647052 0.76101702 0.0013611793
0.19371414 -0.30319753 -0.043644201 -0.38877681 0.55652058 0.73425978 0.0016384092
-0.21532552 -0.29055369 -0.0412255 0.42582896 0.55001032 0.71844167 0.0022820972
-0.20878056 -0.29468128 -0.041774739 0.42063731 0.54870862 0.72248393 0.0026790213
-0.19741535 -0.2950058 -0.046930209 0.39749816 0.51994967 0.75607377 0.0015129108
0.19561461 -0.29734135 -0.046344589 -0.39136583 0.52088374 0.75862569 0.00099368452
0.20531026 -0.29436678 -0.043602917 -0.41545117 0.54892129 0.7253176 0.0021287424
-0.22319694 -0.28309506 -0.042096581 0.42959175 0.55273926 0.71409392 0.002333788
-0.21563379 -0.28451946 -0.044785354 0.41760451 0.53077763 0.73748332 0.0021225959
0.20405009 -0.28719544 -0.048599891 -0.38677144 0.50784737 0.76973951 0.00055576902
0.21496816 -0.28532517 -0.044604242 -0.42119783 0.53283805 0.73394561 0.0017604164
0.22507626 -0.28148389 -0.042200431 -0.42115 0.54467219 0.72523433 0.0017431409
-0.23462644 -0.27165458 -0.043736197 0.41367719 0.53666013 0.73543668 0.0019759312
-0.2263523 -0.27662903 -0.044580165 0.41410914 0.53025424 0.7398271 0.0020626169
0.21668468 -0.27868882 -0.047870323 -0.39267647 0.51636988 0.76103044 0.00089070655
0.22498882 -0.27301815 -0.047439702 -0.4022924 0.52028483 0.75330245 0.0010203479
0.23091191 -0.2725713 -0.044923421 -0.41193399 0.53980035 0.7341159 0.0018353906
-0.25317511 -0.26079854 -0.041662771 0.48773172 0.51500547 0.70490217 0.0023579863
-0.24319553 -0.26409915 -0.044338029 0.4299854 0.53084469 0.73028517 0.0017867595
-0.23853569 -0.26465538 -0.046191972 0.4083578 0.52638423 0.74576372 0.0020032767
-0.2283549 -0.26737088 -0.049321279 0.38486472 0.50696921 0.77127248 0.00066033192
0.22783117 -0.26765686 -0.049392432 -0.39320946 0.50790858 0.7664302 0.00077855011
0.23531197 -0.26442298 -0.047853515 -0.40555835 0.51327246 0.75635564 0.0013110677
0.24547504 -0.26364586 -0.043542344 -0.44099435 0.53052676 0.72392356 0.0019019394
-0.26176667 -0.25170118 -0.041762739 0.51257759 0.46262458 0.72335511 0.0024257135
-0.25392681 -0.25528938 -0.044582758 0.47865522 0.4821527 0.73376966 0.0021765635
-0.24864359 -0.25748411 -0.045832913 0.44979 0.48368615 0.75082403 0.0016909966
0.23948359 -0.25928229 -0.049044497 -0.40822217 0.49864823 0.76465982 0.0011295716
0.24696282 -0.25308836 -0.049323827 -0.43391588 0.46964896 0.76886082 0.0014335699
0.25658622 -0.25709644 -0.042328738 -0.49199131 0.49444392 0.71656793 0.0027272522
0.26076299 -0.25398487 -0.041303061 -0.50994778 0.47923622 0.71434301 0.0026718904
-0.27026159 -0.24072513 -0.041718096 0.54205644 0.43161938 0.72102672 0.0015036085
-0.26616144 -0.24578446 -0.041851956 0.53252113 0.43961036 0.72330076 0.0019488593
-0.2572675 -0.24577342 -0.047318164 0.49127543 0.43721414 0.75332081 0.0015109814
0.25470945 -0.24490921 -0.049296025 -0.46857095 0.43379754 0.76958483 0.0013867617
0.26114923 -0.24543734 -0.045093089 -0.51898724 0.43567264 0.73541939 0.0022048436
-0.27225241 -0.23527144 -0.043065235 0.52793664 0.42336327 0.736238 0.0018524021
-0.26522574 -0.23719898 -0.046471566 0.52491957 0.41553044 0.74282831 0.0016955384
0.26585615 -0.23358706 -0.047786221 -0.51609725 0.39831269 0.75828141 0.0015187507
0.27339897 -0.23299238 -0.043435 -0.5529961 0.42062807 0.71921301 0.0018696177
-0.28316659 -0.22037387 -0.043382749 0.54649848 0.4126032 0.72876471 0.0020475481
-0.27478263 -0.22481728 -0.046437114 0.51267934 0.40041149 0.75949371 0.0012437426
-0.26776591 -0.22749591 -0.049483433 0.4996736 0.38404638 0.77642435 0.00050417962
0.27778536 -0.22277428 -0.045555953 -0.53437006 0.40600556 0.7413556 0.0020746423
0.28243279 -0.22450797 -0.041885521 -0.55801338 0.42997181 0.70975012 0.0022806772
-0.29198295 -0.21552539 -0.040253747 0.55560023 0.42409128 0.71516085 0.0021935925
-0.2836884 -0.21528351 -0.045460641 0.53429264 0.40284351 0.7431342 0.0017904191
-0.2771793 -0.21699059 -0.048653055 0.51019531 0.38987735 0.7666136 0.00089543371
0.27724385 -0.21882164 -0.04775073 -0.52047706 0.40196815 0.75334275 0.0014438203
0.2828835 -0.21498111 -0.046097387 -0.52789062 0.39968073 0.7493909 0.0015078828
0.29025567 -0.21323061 -0.042395487 -0.55180073 0.42087087 0.71998864 0.0021747837
-0.30236563 -0.20227246 -0.040055469 0.57267499 0.42162579 0.70304704 0.0021441504
-0.29442024 -0.20438568 -0.044005677 0.54339093 0.41270414 0.73102778 0.0021248248
-0.28552032 -0.2068578 -0.048305623 0.50586665 0.38790536 0.77047288 0.00059708738
0.29649708 -0.20511763 -0.042385623 -0.54867429 0.42007712 0.72283596 0.0019942105
-0.30379632 -0.19402826 -0.043126583 0.55776793 0.40473315 0.72462809 0.0018908205
-0.29561707 -0.1941431 -0.048096597 0.52260339 0.38579765 0.76029325 0.0010033289
0.29505196 -0.1974427 -0.046888977 -0.51764929 0.40436828 0.75400627 0.0012992093
0.30312005 -0.19554292 -0.042830128 -0.55733383 0.4052102 0.72469562 0.0018100152
-0.31236145 -0.1849571 -0.042143296 0.59111547 0.36697075 0.71827221 0.0020929477
-0.30410466 -0.18417202 -0.047582977 0.54322851 0.3551513 0.76076955 0.0013404517
-0.29668248 -0.18924157 -0.049751777 0.51681739 0.37537953 0.76940888 0.00088965142
0.30540583 -0.18618657 -0.045834877 -0.55300313 0.37215507 0.74544495 0.0020729541
0.31475952 -0.18278693 -0.041693307 -0.611265 0.3661215 0.70164812 0.0023109997
-0.32135969 -0.17180687 -0.04036957 0.63535827 0.30820948 0.70804429 0.0020103336
-0.31652293 -0.17534637 -0.042821702 0.60948068 0.32512307 0.72306865 0.0022440513
-0.30642918 -0.17632782 -0.0496502 0.54860801 0.3112109 0.77600074 0.0010646257
0.30721509 -0.17845768 -0.048333079 -0.55875349 0.33309433 0.75950158 0.0017894267
0.31513867 -0.17184259 -0.044849224 -0.59721017 0.30043381 0.74369311 0.0021769989
0.32104081 -0.17239146 -0.040466428 -0.63683552 0.31138572 0.70532233 0.0024729401
-0.32051682 -0.16159575 -0.044038527 0.62080926 0.26601171 0.73745078 0.0020069713
-0.31561685 -0.16414312 -0.046787716 0.59929109 0.26666433 0.75481141 0.0015992416
0.30997366 -0.16764319 -0.04978615 -0.56949478 0.27862075 0.77333438 0.0012453994
0.31500354 -0.16498362 -0.0469773 -0.58762711 0.2647455 0.76459414 0.0015981304
0.32215822 -0.16631499 -0.041467156 -0.62977129 0.28714889 0.72175735 0.0021551789
-0.32418615 -0.15538232 -0.043255113 0.64112645 0.26461253 0.72037286 0.0023419519
-0.31717554 -0.15565169 -0.048188169 0.59419829 0.24954952 0.76462626 0.0010455982
0.31746298 -0.15098244 -0.049365565 -0.58184415 0.24428231 0.77574706 0.0005143733
0.3241933 -0.15533438 -0.043264184 -0.61816442 0.25129616 0.74479723 0.0019802894
-0.33028331 -0.14828077 -0.040998735 0.64442301 0.27493659 0.71353263 0.0024490494
-0.32301241 -0.14606497 -0.046853952 0.59802371 0.25083479 0.76121587 0.001136396
-0.31733716 -0.14924307 -0.049970686 0.58374971 0.24506809 0.77406579 0.00062288973
0.31891567 -0.14665051 -0.049609847 -0.5822199 0.24220659 0.77611595 0.00060970726
0.32693368 -0.14690088 -0.043802548 -0.62984979 0.24683875 0.73645091 0.0020758554
0.33182704 -0.14463648 -0.040974297 -0.66323113 0.26043656 0.70163906 0.0025960549
-0.33457473 -0.13278811 -0.042518809 0.63344759 0.25749293 0.72968584 0.0019915693
-0.32716614 -0.13732263 -0.046473175 0.6113655 0.25251353 0.74997944 0.0013914785
0.32675132 -0.13487273 -0.04749541 -0.60074198 0.24125965 0.76216984 0.0011224437
0.33337849 -0.13458826 -0.04284098 -0.62230772 0.26107022 0.73795348 0.0020359056
-0.34104493 -0.12303352 -0.04076317 0.65378356 0.27363077 0.70547372 0.0025444615
-0.33324596 -0.12467859 -0.045870773 0.61132026 0.24331461 0.7530508 0.0014931355
-0.32626775 -0.12790069 -0.049906127 0.58149481 0.23857382 0.77778292 0.00037031717
0.32786751 -0.12596439 -0.049335748 -0.59217644 0.24448355 0.76782477 0.0010675278
-0.34095344 -0.11501144 -0.043222833 0.63079917 0.25793773 0.73182005 0.0020191495
-0.338285 -0.11402603 -0.045422722 0.6196776 0.25361222 0.74275196 0.0017840035
0.33634272 -0.11705532 -0.045914326 -0.59857774 0.25231528 0.76029044 0.0011852378
0.34358287 -0.11574838 -0.041105531 -0.65173841 0.26874515 0.70923424 0.0025810366
-0.34316501 -0.10609892 -0.044281173 0.63131684 0.23559317 0.73887414 0.0018597395
-0.33702791 -0.10719106 -0.048345953 0.59793544 0.22824852 0.76835912 0.00099729095
0.3377648 -0.10552378 -0.04831288 -0.59661448 0.2281784 0.76940614 0.0010140337
0.34259683 -0.10541971 -0.044888642 -0.61879992 0.23241238 0.75038058 0.0018246613
-0.35153997 -0.095345914 -0.041477598 0.67308259 0.18552688 0.71591872 0.0024352414
-0.34611237 -0.096490361 -0.045019571 0.65085804 0.18664899 0.73589802 0.002188216
0.34603509 -0.093741074 -0.045814037 -0.62980735 0.17552708 0.75665903 0.0017422454
0.3504281 -0.097528718 -0.041626126 -0.66547287 0.18765695 0.72244763 0.0027028057
-0.35333163 -0.085296124 -0.041342683 0.68869132 0.14365642 0.71068066 0.0025318824
-0.34940121 -0.088831067 -0.044001497 0.66506636 0.15677597 0.73014247 0.0023560468
0.34693637 -0.085109636 -0.046268769 -0.64535761 0.12288941 0.75393093 0.0017607908
0.35122621 -0.084735498 -0.043014847 -0.67248219 0.12797309 0.72896546 0.0022503252
-0.35211214 -0.075338893 -0.043284271 0.67962235 0.096314617 0.72721177 0.0021459956
-0.34643245 -0.07687562 -0.047487244 0.64147198 0.11165632 0.75897729 0.001379779
0.34749439 -0.077241085 -0.046635468 -0.63816655 0.11580686 0.76113874 0.0014504601
0.35392547 -0.076340258 -0.041791715 -0.68845344 0.10184781 0.71809393 0.0022713516
-0.35235095 -0.067304932 -0.043912649 0.68620449 0.090093873 0.72180784 0.0021254215
0.34616911 -0.066281974 -0.048759487 -0.62952584 0.084615074 0.77235842 0.00053889258
0.35425496 -0.063544668 -0.042831492 -0.68673199 0.084350497 0.72200012 0.0025899962
-0.35550946 -0.052735504 -0.042960837 0.68989527 0.092498057 0.71797538 0.0020274785
-0.34836996 -0.058221877 -0.047884949 0.64472628 0.087918706 0.7593407 0.0011658794
0.34751344 -0.058029179 -0.048561648 -0.6426993 0.079168141 0.76201707 0.00089294085
0.35896754 -0.054325078 -0.040096298 -0.70526558 0.090934135 0.70308709 0.0023140933
-0.36028987 -0.043595552 -0.040213928 0.71388847 0.094828993 0.69380885 0.0021357092
-0.35726467 -0.045879144 -0.042306662 0.68762451 0.092847891 0.72010535 0.002180282
-0.34826803 -0.040418357 -0.049761672 0.6262008 0.080526032 0.77549219 0.0005857498
0.35542697 -0.043783687 -0.043928459 -0.67407942 0.087844916 0.7334168 0.0018479909
-0.3534793 -0.03617423 -0.04619167 0.65281039 0.085235499 0.75271076 0.0017395711
0.34980053 -0.03373668 -0.049260743 -0.64085841 0.088942647 0.76248914 0.0010571497
0.3559792 -0.034442913 -0.044448327 -0.68057233 0.093145847 0.72673595 0.0018563909
0.36060274 -0.031530403 -0.041194782 -0.68946624 0.099717058 0.71742094 0.0022459924
-0.36101311 -0.022865212 -0.041755255 0.68959177 0.088204548 0.7188068 0.0020438384
-0.35714212 -0.025027419 -0.044507146 0.67070997 0.08674553 0.73662972 0.0021155588
0.35342455 -0.02526536 -0.047335707 -0.65386766 0.10461026 0.74934226 0.0015385721
-0.36247772 -0.016400868 -0.041284449 0.69775295 0.069988877 0.71291119 0.0018086596
-0.35567728 -0.018184099 -0.04632248 0.64213401 0.072169319 0.76318771 0.0008698483
0.35519716 -0.015350318 -0.046977136 -0.64289677 0.058461092 0.76371861 0.0010043535
0.36205918 -0.015407178 -0.041706018 -0.70360649 0.079606652 0.70611656 0.0020296066
-0.36191013 -0.0041161464 -0.042960972 0.68420762 0.0091163358 0.72923034 0.0023904324
-0.353596 -0.0012114058 -0.049634099 0.64015853 -0.0041485396 0.76823169 0.0013109555
0.35670179 -0.0044867154 -0.046920035 -0.65543896 0.021307001 0.75494754 0.0017433289
0.36273855 -0.0068110935 -0.042053107 -0.69824201 0.042475544 0.71460062 0.0023353898
-0.36344188 0.0054948702 -0.041646346 0.69019055 -0.031397969 0.72294617 0.002197487
-0.35557222 0.0031826345 -0.047918543 0.65261304 -0.0091324244 0.75763631 0.0015245795
0.35621646 0.0055511822 -0.047184929 -0.6427235 -0.037977055 0.76515627 0.0012475365
0.36378574 0.0054525421 -0.041375376 -0.69598353 -0.024421593 0.71764237 0.0029352501
-0.36240441 0.013342567 -0.041649684 0.6877352 -0.057765424 0.72365969 0.0019286646
-0.35591847 0.012860803 -0.046675146 0.66487986 -0.05672615 0.74479324 0.0015869186
0.35681587 0.014764366 -0.045794271 -0.65934372 -0.076224402 0.74796772 0.0021647913
0.36053061 0.013783076 -0.043043006 -0.67610484 -0.06176744 0.7342118 0.0023607728
-0.36191362 0.02282276 -0.041068546 0.69705904 -0.092158802 0.71106637 0.0020427152
-0.35625064 0.024168393 -0.045277975 0.66336757 -0.085099131 0.74343902 0.0015696225
0.35362205 0.02434889 -0.047276728 -0.63486058 -0.080420054 0.76842993 0.00072928332
0.36198735 0.020561891 -0.041240375 -0.69801635 -0.090829074 0.710298 0.0025108368
-0.36108172 0.033964638 -0.040581349 0.69281912 -0.10528436 0.71338409 0.0019296916
-0.35454378 0.036608379 -0.045331027 0.66194636 -0.094834991 0.74352765 0.0017450062
-0.34959728 0.035297111 -0.049259052 0.62363172 -0.08403863 0.77718788 0.000512289
0.34933692 0.033846527 -0.049605377 -0.62217617 -0.081245303 0.77865005 0.00031598259
0.3553381 0.035018314 -0.044882108 -0.66565442 -0.082388707 0.74169815 0.0020518368
-0.3561193 0.042547807 -0.04352206 0.67493188 -0.094885461 0.73175383 0.0020379315
-0.34887511 0.043888457 -0.048945308 0.64056003 -0.084666088 0.76322633 0.0011679619
0.34954089 0.048450183 -0.047973592 -0.63943219 -0.081238367 0.76454353 0.0012486391
0.35809043 0.049123276 -0.041345321 -0.68432879 -0.082882695 0.72444779 0.0024536236
-0.3540287 0.055751242 -0.043792401 0.67076737 -0.079171732 0.73742998 0.0017846568
-0.34750339 0.055703823 -0.048804265 0.63638604 -0.079308294 0.76728284 0.00094035064
0.34826979 0.052799437 -0.048509602 -0.63880569 -0.079070203 0.76529413 0.0011016702
0.35715932 0.054682758 -0.041498147 -0.68534476 -0.081445046 0.72364986 0.0024586683
-0.35504779 0.064275064 -0.042149395 0.69123942 -0.087229334 0.71734172 0.0021303243
-0.34688106 0.066898994 -0.048150863 0.64704841 -0.083446987 0.75786871 0.0013617123
0.34763259 0.064499862 -0.047816556 -0.64415419 -0.080578588 0.76063949 0.0013163126
0.35423175 0.063600495 -0.042843692 -0.69260538 -0.097700857 0.71466941 0.0026585541
-0.3536053 0.072904713 -0.042384457 0.68721896 -0.098019421 0.71980715 0.0021587361
-0.34607697 0.071455851 -0.048307516 0.64731902 -0.089818463 0.75690866 0.0013179829
0.34774879 0.077402182 -0.046423979 -0.65743929 -0.10273276 0.74647135 0.0016459805
0.35294965 0.075257458 -0.042649891 -0.69068712 -0.10729492 0.7151497 0.0021227142
-0.35138744 0.082489252 -0.043118063 0.67928678 -0.12425719 0.72327697 0.002126208
-0.34535846 0.084141463 -0.04757737 0.63989776 -0.12494004 0.75823539 0.0015460311
0.34726217 0.085132197 -0.046016503 -0.65573156 -0.1359265 0.74265748 0.002228312
0.35302186 0.080454968 -0.042069416 -0.69944191 -0.11540544 0.70531034 0.002328817
-0.34578764 0.094285928 -0.045785744 0.63578421 -0.17643498 0.75143141 0.0015557192
0.34598866 0.094287269 -0.045689445 -0.64680099 -0.1831477 0.74034142 0.0022802865
0.3512485 0.096512958 -0.041330263 -0.67983568 -0.19604583 0.70667487 0.0023988918
-0.34427175 0.10246971 -0.044564705 0.6260252 -0.22045927 0.74799073 0.0015442785
-0.33655876 0.10732017 -0.048643168 0.6089384 -0.2293126 0.75934821 0.0011653451
0.33801615 0.10621374 -0.047928762 -0.60807705 -0.23924214 0.75697124 0.0014472099
0.34484157 0.10358063 -0.043828215 -0.63926792 -0.22506163 0.7353121 0.0020439371
0.3505336 0.10202043 -0.040220331 -0.67588258 -0.21822259 0.70396137 0.002331292
-0.34354752 0.11531246 -0.04127882 0.6499939 -0.2509405 0.71731228 0.0022870228
-0.33600998 0.11577926 -0.046530213 0.61178398 -0.2369249 0.75470984 0.0015266312
0.33653536 0.11596166 -0.046100467 -0.61764854 -0.2570627 0.74325573 0.0016971503
-0.34030578 0.12660654 -0.040251762 0.65957093 -0.27209496 0.7006644 0.002923137
-0.33390045 0.1261553 -0.044965412 0.62313026 -0.25560558 0.7391715 0.0023593211
0.32927036 0.1283582 -0.04762366 -0.60409248 -0.24922548 0.75694048 0.0014114653
0.33280751 0.12567669 -0.045888659 -0.62204874 -0.24966314 0.74210757 0.0017026918
-0.33441684 0.13541196 -0.041849364 0.64825594 -0.26663426 0.7132113 0.0023369216
-0.32509947 0.13599886 -0.048342995 0.58109862 -0.24280319 0.77676964 0.00042157926
0.32357746 0.13618855 -0.049375102 -0.58580703 -0.2401074 0.77406627 0.00064682285
0.33537164 0.13367441 -0.041686486 -0.64818853 -0.2628918 0.71466041 0.0018606513
-0.33129334 0.14417639 -0.041492168 0.64061105 -0.25764832 0.72334969 0.0023020681
-0.32669121 0.14287657 -0.045167834 0.62210125 -0.25219759 0.74120605 0.0019897269
0.32383171 0.14709283 -0.045963705 -0.6134001 -0.25281605 0.74821413 0.0018264765
0.33174238 0.14415866 -0.041176353 -0.65340471 -0.26388913 0.70952433 0.0022759305
-0.32561764 0.15330999 -0.04284535 0.6274789 -0.25325659 0.73629564 0.0022296559
-0.31680366 0.15783352 -0.047807872 0.5951308 -0.25256637 0.76290858 0.0012535063
0.32635263 0.15311359 -0.042377967 -0.6356706 -0.2631315 0.72573054 0.0023766237
-0.32080933 0.16591413 -0.04255037 0.62385571 -0.27713776 0.73075217 0.0021967057
-0.31457445 0.1673259 -0.046590421 0.5881297 -0.27386221 0.76098812 0.0014714785
0.31611603 0.16540617 -0.046056684 -0.60764962 -0.2824862 0.7422691 0.001934411
0.32091597 0.16416468 -0.042992283 -0.62705642 -0.27543133 0.72865486 0.0019020243
-0.32109195 0.1713637 -0.040734291 0.63135636 -0.31081057 0.71048295 0.0022008531
-0.3160221 0.17476365 -0.043352377 0.6058625 -0.32001436 0.728369 0.0023942236
-0.30761331 0.1787363 -0.047954127 0.55442339 -0.31930652 0.76854277 0.0013707668
0.31565997 0.1764518 -0.043111313 -0.61027938 -0.3282834 0.72096407 0.0022412061
-0.31263393 0.18255651 -0.043030106 0.59169704 -0.34692609 0.72769284 0.002002036
-0.30528337 0.18585654 -0.046065584 0.55857158 -0.37157094 0.74157447 0.0018740103
-0.29833475 0.18823221 -0.049212821 0.51821238 -0.36428636 0.7737903 0.00084908726
0.29649913 0.18896067 -0.049996689 -0.51196015 -0.37392786 0.77335292 0.00074149086
0.30434716 0.18444152 -0.0473071 -0.54437071 -0.3582674 0.75848866 0.0011769715
0.31191286 0.18423593 -0.042758483 -0.58432239 -0.36730531 0.72363943 0.0019797753
-0.30295527 0.19565861 -0.042876814 0.55342537 -0.40101334 0.73000586 0.00211197
-0.29587471 0.19733587 -0.046434131 0.52448279 -0.39085683 0.75640523 0.0015496734
0.29608715 0.19607033 -0.046899956 -0.52317816 -0.3951174 0.75509387 0.0013694423
0.30340344 0.1957688 -0.0425497 -0.56003773 -0.40634161 0.72197247 0.002190969
-0.30328304 0.2011043 -0.040033504 0.56760669 -0.43392503 0.69966549 0.0022614698
-0.29552686 0.20428604 -0.043373138 0.54882008 -0.41889364 0.7234118 0.0022579974
-0.28858432 0.20313738 -0.048177138 0.50790232 -0.39137176 0.76737434 0.00081530702
0.28630939 0.20619366 -0.048134029 -0.51413572 -0.38691968 0.76547879 0.00086720707
0.29157126 0.20288257 -0.04646318 -0.51847559 -0.39015377 0.76089627 0.0009355754
0.30055994 0.20141983 -0.041633174 -0.55462098 -0.4290646 0.712951 0.0025380924
-0.2907441 0.2132633 -0.042080205 0.53856409 -0.42447516 0.7278527 0.0025101595
-0.2842133 0.21390136 -0.045789577 0.51805139 -0.40097502 0.75554079 0.0012538584
-0.27933475 0.21392711 -0.048772946 0.50366116 -0.38917592 0.77127659 0.00067964924
0.27489084 0.21960789 -0.048825085 -0.51121342 -0.39182803 0.76493901 0.0010907438
0.28647628 0.21551418 -0.043640196 -0.54427683 -0.41635415 0.7282939 0.0019488226
0.29221526 0.21013029 -0.042652987 -0.55382472 -0.4214389 0.71809983 0.0020587097
-0.28277165 0.22380984 -0.041988526 0.5464735 -0.42381153 0.72232306 0.0019505549
-0.27645367 0.22658177 -0.044579726 0.54301059 -0.41035146 0.73263299 0.0017891037
