ply
format ascii 1.0
comment PCL generated
element vertex 1354
property float x
property float y
property float z
element camera 0
property float view_px
property float view_py
property float view_pz
property float x_axisx
property float x_axisy
property float x_axisz
property float y_axisx
property float y_axisy
property float y_axisz
property float z_axisx
property float z_axisy
property float z_axisz
property float focal
property float scalex
property float scaley
property float centerx
property float centery
property int viewportx
property int viewporty
property float k1
property float k2
end_header
-0.12529758 -0.20121647 -0.02627176
0.12878661 -0.2039436 -0.02493751
0.14869432 -0.20286374 -0.02496478
-0.16884924 -0.18955065 -0.023433492
0.15048657 -0.1837237 -0.023534775
0.16763173 -0.18966921 -0.023432493
-0.18755999 -0.17398547 -0.023459658
0.1863592 -0.17413469 -0.023458406
-0.20339666 -0.15332791 -0.023530811
-0.19194935 -0.15722662 -0.026613638
-0.1796369 -0.1564718 -0.023219347
0.19203335 -0.15571798 -0.032120332
0.20221266 -0.15350901 -0.023529395
-0.21933605 -0.13256304 -0.023602307
0.19739874 -0.13165766 -0.023763046
0.21815118 -0.13274583 -0.023600802
-0.20803575 -0.11373409 -0.025146097
0.20630413 -0.11107923 -0.027615428
-0.23012221 -0.10763098 -0.029713556
0.2283317 -0.10639063 -0.024242967
-0.24036132 -0.079964668 -0.025064915
-0.2236294 -0.081761576 -0.022816196
0.22219767 -0.082480527 -0.034992605
0.23940288 -0.079719305 -0.027683526
-0.24559273 -0.057498496 -0.019877374
-0.23290557 -0.057259921 -0.02895157
0.23172818 -0.057732806 -0.028476417
-0.24436526 -0.037173949 -0.027564615
0.24323827 -0.037460443 -0.025166377
-0.25724164 0.0026859296 -0.024334565
-0.2393015 -0.0087700412 -0.033181891
-0.23586583 -0.0074517857 -0.02433753
0.23658118 -0.0077253911 -0.024200767
0.25625691 0.0021090992 -0.024329662
-0.2393015 0.015415895 -0.033181891
0.23817152 0.015651319 -0.024070725
-0.23610008 0.039660897 -0.031064376
-0.23156396 0.036607154 -0.024066299
0.23048499 0.036990572 -0.024063095
0.23495376 0.040132631 -0.026270807
-0.2455782 0.06432306 -0.019887298
-0.22825316 0.06847886 -0.026401058
0.22708987 0.068958648 -0.026172295
-0.23621252 0.089036398 -0.026290953
-0.22361456 0.088552564 -0.022806376
0.2221677 0.08951173 -0.03501305
0.23545563 0.088068083 -0.031490386
-0.21178369 0.1016817 -0.023720264
0.2106261 0.1019126 -0.023718357
0.22979456 0.10748297 -0.025126755
-0.22704828 0.11496456 -0.027936965
-0.20223747 0.1238393 -0.022252396
0.22568956 0.11846394 -0.023802042
-0.19869773 0.12763414 -0.023603365
0.19732216 0.13356362 -0.022929683
0.21971677 0.12708947 -0.025300279
-0.20365219 0.15553626 -0.02316764
-0.18280992 0.1483475 -0.023531958
0.17927878 0.15224458 -0.022953168
-0.19188872 0.16443324 -0.026654735
-0.17752905 0.16146393 -0.028540656
-0.16702446 0.16895413 -0.02346091
0.1658337 0.16911748 -0.023459449
0.19558698 0.16109172 -0.033127934
-0.17749181 0.18410724 -0.023715004
-0.14917965 0.18516615 -0.026786163
0.1487291 0.18791384 -0.023535758
0.15091676 0.18434535 -0.023278877
0.17361841 0.18595202 -0.030364692
-0.12917927 0.19920422 -0.023415968
0.12797251 0.19933622 -0.023414955
-0.12620948 0.21482773 -0.024342179
-0.10942103 0.21287367 -0.023406386
-0.08691109 0.22220477 -0.023436457
0.085678548 0.22229205 -0.023435757
0.10818769 0.21296115 -0.023405686
0.1282205 0.21526247 -0.023446038
-0.079532146 0.23637372 -0.02463232
-0.064344719 0.23155922 -0.023466468
-0.046054587 0.23912399 -0.02464886
-0.01293035 0.24125066 -0.023611128
0.011661683 0.24127984 -0.023610875
0.044999819 0.23915538 -0.02417931
0.063113086 0.2316463 -0.023465768
0.077676319 0.23645179 -0.025310263
-0.050628867 0.2435573 -0.018983215
-0.025291642 0.24350858 -0.032550544
-0.012948539 0.24703333 -0.023954064
0.014738443 0.2436114 -0.023707584
0.024347596 0.24360088 -0.018900439
0.042439163 0.24513227 -0.027384028
-0.07577914 -0.23660292 -0.011878476
-0.050625108 -0.23995261 -0.0056295544
0.024346143 -0.2399703 -0.0055965781
0.049444504 -0.23664726 -0.011795804
0.12450279 -0.21627022 -0.0018939823
-0.12478223 -0.2092507 -0.010096803
0.11494751 -0.21036218 -0.016842812
-0.17748249 -0.18024005 -0.01028277
-0.15936969 -0.18281123 -0.010007814
0.15847436 -0.18118979 -0.012515128
-0.20364863 -0.1515187 -0.0097764879
0.17743459 -0.15463513 -0.0070975572
0.19144149 -0.15646344 -0.0023789257
-0.21163282 -0.13157153 -0.01337631
-0.19876589 -0.13156946 -0.0063711256
0.21104859 -0.13094349 -0.015347376
-0.22614656 -0.10647306 -0.0036154091
-0.21334988 -0.10647141 -0.016017005
0.21208149 -0.10694683 -0.012208223
0.22241072 -0.082115367 -0.0052616149
0.23535301 -0.081755444 -0.0022678822
0.24456786 -0.057256132 -0.0084650964
-0.24878764 -0.033104509 -0.017692715
0.24774644 -0.03298362 -0.010602862
-0.24562976 -0.0087700412 -0.0097697526
0.25093186 -0.0087700412 -0.012745023
-0.24562976 0.015534329 -0.0097697526
0.25093186 0.01541401 -0.012745023
-0.24878764 0.039898895 -0.017692715
0.24774644 0.03965712 -0.010602862
0.24455333 0.063959509 -0.0084552765
0.22238106 0.089024834 -0.0052815527
0.23532365 0.088544928 -0.0022480339
-0.22614656 0.11335874 -0.0036154091
-0.21334988 0.11335667 -0.016017005
0.21205153 0.11395233 -0.01222837
-0.21161789 0.13859257 -0.013386443
-0.19873592 0.1385909 -0.0063511878
0.21103357 0.1378389 -0.015337348
0.17788248 0.1644145 -0.0054146498
0.19141133 0.16354086 -0.0023590773
-0.15923801 0.19014384 -0.0099930763
0.16594964 0.18907624 -0.015155166
-0.12530608 0.20477661 -0.012968794
0.14893563 0.20492817 -0.013246387
-0.12849618 0.21832365 -0.0087528378
-0.11809177 0.21677913 -0.013077229
0.099475779 0.21998584 -0.010156408
0.11482023 0.21803164 -0.016925693
-0.075223051 0.23046097 -0.0082101524
0.098791517 0.23050466 -0.0082917213
-0.025582762 0.24681213 -0.012798041
-0.00064409088 0.2468642 -0.012699023
-0.033601925 -0.24620034 0.00058731437
-0.0060170097 -0.24851085 0.00058737397
0.0047088591 -0.2484813 0.00058726966
0.032323238 -0.24621487 0.00058726966
-0.084890276 -0.23658463 0.00058726966
-0.061219659 -0.23993553 0.00058737397
-0.050734442 -0.23659395 0.013069719
-0.026286485 -0.24245244 0.0026558191
-0.0011960221 -0.24281341 0.00027354062
0.0014039122 -0.24190553 0.0018533021
0.025313698 -0.24373478 0.00059302151
0.049336825 -0.23995261 0.0068040639
0.059888858 -0.24002482 0.00058731437
0.074490353 -0.23661169 0.013036653
0.083648466 -0.23665749 0.00058726966
-0.12785529 -0.21706025 0.0017537177
-0.10617884 -0.22330722 0.00058731437
-0.10076582 -0.21620724 -0.0017786473
0.099469967 -0.21632424 0.0031673014
0.10485982 -0.22341976 0.00058737397
0.12866986 -0.21800442 0.00058716536
-0.14967838 -0.2042575 0.00058741868
0.11713597 -0.20923391 0.014464438
0.13030964 -0.20923391 0.0080256611
0.14846151 -0.20437525 0.00058721006
-0.16884929 -0.18955074 0.00058737397
-0.15221035 -0.18034217 0.011273593
0.15182452 -0.1827933 0.0071423352
0.17190112 -0.1850614 0.0058302879
-0.18756004 -0.17398547 0.00058731437
0.1863592 -0.17413469 0.00058731437
-0.20339666 -0.15332791 0.00058731437
-0.1925333 -0.15647431 0.0034236014
-0.17861678 -0.15449479 0.0086128712
0.2022578 -0.15270083 0.0054253489
-0.21933594 -0.13256294 0.00058741868
0.19768095 -0.13134536 0.0041561127
0.21056917 -0.13156112 0.014399752
0.21815129 -0.13274594 0.00058731437
-0.20803575 -0.11373399 0.00058741868
0.20785609 -0.11162709 0.00058726966
-0.23252997 -0.10656621 0.00058737397
-0.21310045 -0.10695682 0.013563976
0.22824037 -0.10663091 0.0026039034
-0.24042857 -0.079783939 0.0019259304
-0.22343187 -0.082122803 0.0066159517
0.24332085 -0.078040786 0.00058726966
-0.24559332 -0.057261005 0.0094628781
-0.23282811 -0.057497676 0.00029668212
0.23179032 -0.057493031 0.0010465384
-0.24582355 -0.035817385 0.0034420043
0.24326138 -0.037400592 0.0018962026
-0.2572417 0.0026858291 0.00058726966
-0.25197321 -0.0087700412 0.013753727
-0.23586594 -0.007451585 0.00058737397
0.23660374 -0.0077254414 0.0029777735
0.25625691 0.0021090992 0.00058721006
-0.25195879 0.015416433 0.013743803
0.23821671 0.01553188 0.0053683519
-0.24241285 0.03977989 0.0048644543
-0.23156396 0.036607154 0.00058741868
0.23048499 0.036990572 0.00058726966
0.23500006 0.039893437 0.0032050312
-0.24559332 0.063966408 0.0094628781
-0.22821426 0.068657078 0.00044707954
0.22712089 0.068778716 0.00081188977
-0.23636185 0.088554196 0.0032546371
-0.22341694 0.0890342 0.0066259801
-0.21178369 0.1016817 0.00058737397
0.21062614 0.1019127 0.00058726966
0.22980358 0.10746544 0.00058721006
-0.22759956 0.11546379 0.00058731437
-0.21310045 0.11396343 0.013563976
0.22508051 0.11334843 0.0046406537
-0.19869769 0.12763393 0.00058737397
0.19760443 0.13318881 0.004141137
0.21053931 0.1385809 0.014419898
0.21971677 0.12708947 0.00058741868
-0.18280992 0.1483475 0.00058737397
0.18161839 0.14851254 0.00058726966
-0.192488 0.16355453 0.0033935308
-0.17891105 0.16443126 0.0067612678
-0.16702446 0.16895413 0.00058737397
0.1658337 0.16911748 0.00058731437
-0.14833511 0.18450639 0.00058731437
0.14712751 0.18463928 0.00058726966
0.15166959 0.19012505 0.0070417225
-0.1502393 0.20476764 0.014126867
-0.12917927 0.19920422 0.00058737397
0.12598664 0.20216341 0.007561326
-0.12620948 0.21482773 0.00058716536
-0.10942098 0.21287358 0.00058741868
-0.093841054 0.22104207 0.0060586184
0.0856786 0.22229205 0.00058731437
0.11262219 0.21485974 0.0075004995
0.12649983 0.21722592 0.0067008436
-0.10008597 0.23040836 0.0092868507
-0.083280943 0.23246776 0.00058731437
-0.064344771 0.23155931 0.00058726966
-0.044060074 0.2385391 0.00058731437
-0.01293045 0.24125078 0.00058741868
0.011661683 0.24127984 0.00058731437
0.042775974 0.23857567 0.00058734417
0.063112982 0.2316462 0.00058726966
0.077914923 0.23156174 0.0050432831
-0.0064099263 0.24688905 0.0046477318
0.008557966 0.24698445 0.0015211999
0.024293629 0.24685547 0.013890371
-0.033601925 -0.24620034 0.024784707
-0.0060170097 -0.24851076 0.024881117
0.0047088591 -0.2484813 0.024881318
0.032323238 -0.24621497 0.024784409
-0.084890179 -0.23658453 0.024640054
-0.06121961 -0.23993562 0.02496314
-0.037632819 -0.23872615 0.023447603
-0.027643621 -0.24416119 0.025040507
0.011316748 -0.24187356 0.023642763
0.026335169 -0.24419054 0.025040351
0.059888858 -0.24002482 0.024962313
0.083648518 -0.23665759 0.024639346
-0.12991293 -0.21793117 0.024580024
-0.10617886 -0.22330712 0.025062829
-0.10008075 -0.22688085 0.022503033
0.073927052 -0.22701387 0.022746757
0.10485982 -0.22341976 0.025061727
0.12866986 -0.21800442 0.024579167
-0.14995584 -0.20270988 0.025969125
-0.12995026 -0.20384766 0.026220381
-0.11610854 -0.21037155 0.018100351
0.1239928 -0.20142442 0.027820267
0.14846151 -0.20437525 0.024588287
0.151132 -0.19964738 0.028552733
-0.16884924 -0.18955065 0.024608232
-0.16713053 -0.18189245 0.016259775
-0.1515411 -0.18373881 0.024864063
0.16478635 -0.18280028 0.01525107
0.16763167 -0.1896691 0.024607077
-0.18755999 -0.17398547 0.024634436
0.1863592 -0.17413469 0.024632983
-0.20339666 -0.15332791 0.024705693
0.17860682 -0.15645757 0.024561875
0.19084372 -0.15721649 0.027665637
0.20220403 -0.15349387 0.024704084
-0.21933594 -0.13256294 0.024777092
-0.21211325 -0.13095379 0.016374007
-0.1982152 -0.13219345 0.02357471
0.19761345 -0.13113379 0.026473857
0.21815118 -0.13274583 0.024775341
-0.20803575 -0.11373399 0.026320785
0.20785609 -0.11162709 0.026302397
-0.22943763 -0.10627904 0.025340579
0.21234456 -0.10646097 0.017378956
0.23137052 -0.1067981 0.024891786
-0.24448055 -0.077805288 0.025033891
0.22260703 -0.081754215 0.024166733
0.23926285 -0.080078907 0.026152536
-0.23276468 -0.057737499 0.029823139
0.23186658 -0.05725532 0.030290984
0.24456847 -0.057493575 0.020871252
-0.24431054 -0.037293002 0.026428401
0.24964274 -0.037400778 0.021961808
-0.2572417 0.0026858291 0.025509357
-0.23922394 -0.0087700412 0.025406726
-0.23586573 -0.0074518858 0.025512159
0.24297728 -0.0077253911 0.021002114
0.25625691 0.0021091998 0.02550409
-0.23922394 0.015653517 0.025406726
0.25096372 0.015532152 0.016498834
-0.23599075 0.04013731 0.027617335
-0.23156387 0.036606953 0.025241084
0.23049365 0.037006505 0.025237471
0.24776268 0.039893981 0.018687189
-0.2281826 0.06883695 0.02743417
0.22715911 0.068600528 0.027656995
0.24455383 0.064315677 0.02088128
0.22257757 0.088543288 0.024147183
0.23517543 0.08902704 0.027293749
-0.21178374 0.10168181 0.024894997
0.21062614 0.1019127 0.024892889
0.22980358 0.10746544 0.02630119
-0.22726104 0.11675491 0.025289498
0.20086274 0.12454104 0.0246448
0.2123147 0.113345 0.017359108
-0.21211325 0.13785045 0.016374007
-0.19843365 0.13348725 0.024191603
0.19750556 0.12780099 0.024776392
0.21971677 0.12708947 0.026475012
-0.18053478 0.15201685 0.024389729
0.18161854 0.14851275 0.024705142
0.20232706 0.15582658 0.023820147
-0.1670244 0.16895403 0.024635643
0.1658337 0.16911748 0.024634086
0.17853086 0.16353694 0.024512567
0.19081324 0.16441943 0.027685985
-0.17492479 0.18578972 0.031247474
-0.15962298 0.18662706 0.020489618
-0.14985234 0.18785669 0.024793416
0.14792225 0.18533164 0.028138645
0.16469406 0.19012846 0.015312195
0.17618503 0.1842721 0.02458778
-0.12917927 0.19920422 0.024590693
0.12797251 0.19933622 0.024589345
-0.12942463 0.2152053 0.024536043
-0.11262135 0.21546444 0.021434009
-0.08691109 0.22220477 0.024611086
0.085678548 0.22229205 0.024610236
0.10818779 0.21296126 0.02458027
0.12482326 0.21496403 0.025515467
-0.079013094 0.23635902 0.026437171
-0.064344771 0.23155931 0.024641253
-0.046285212 0.23913397 0.025348634
-0.01293035 0.24125066 0.024785861
0.011661683 0.24127984 0.024785459
0.044769175 0.23914541 0.025817826
0.063113086 0.2316464 0.024640352
0.078195073 0.23647113 0.025748201
-0.035737779 0.24690819 0.022276402
-0.025635976 0.24359217 0.020091891
-0.016046695 0.24358225 0.024882518
0.012577386 0.2469635 0.024545662
0.049339078 0.24360088 0.020075157
-0.074741527 -0.23685782 0.040777192
-0.049936488 -0.24016081 0.046826892
0.023857191 -0.23941974 0.046263792
0.048752829 -0.23690155 0.040857166
-0.076284617 -0.22624058 0.032384098
0.10020689 -0.22628558 0.032300018
0.12345684 -0.20926133 0.042214386
-0.17491682 -0.18222408 0.044465758
-0.16837369 -0.18098138 0.046407998
0.14870769 -0.1824891 0.04493396
0.15833309 -0.18280175 0.041769035
-0.19680758 -0.15564612 0.040604003
-0.17831598 -0.15798494 0.03695745
-0.21260369 -0.13034156 0.045836031
0.19830723 -0.13093868 0.037375391
0.2100701 -0.13218574 0.044459343
-0.22749457 -0.11952057 0.035953708
-0.20613037 -0.10980225 0.03254284
0.20085111 -0.1207507 0.038050778
0.23047438 -0.11018658 0.031875715
-0.21283337 -0.10744762 0.043450892
0.21259008 -0.10598045 0.046664946
0.22491045 -0.1069496 0.034312211
-0.23652449 -0.081404701 0.03251984
-0.22321722 -0.082488038 0.036351159
-0.24560855 -0.057025548 0.038528048
-0.24878684 -0.032868475 0.040630333
0.24141254 -0.033102501 0.040339589
-0.25194296 -0.0087700412 0.042717785
0.24461401 -0.0087700412 0.04027535
-0.25194296 0.015299276 0.042717785
0.24461401 0.015532668 0.04027535
-0.2487722 0.039427094 0.040620714
0.24141254 0.039894883 0.040339589
-0.24559402 0.063613623 0.038518429
-0.23650996 0.088076718 0.032510221
-0.22320248 0.089521185 0.03636118
-0.20948799 0.1142957 0.044834748
0.21256042 0.11274433 0.046645761
0.22768787 0.1141505 0.039983399
-0.21258876 0.13711658 0.045826361
0.1982474 0.13783561 0.037336208
0.21003984 0.13933046 0.044479787
-0.2004921 0.15924548 0.034858577
-0.19308107 0.16268468 0.033138357
-0.17823921 0.16531897 0.03700906
0.17417468 0.15968712 0.035638742
-0.16826695 0.1880507 0.046339855
0.15820949 0.19013239 0.041750997
-0.12714356 0.20338975 0.042291224
0.15113997 0.20354378 0.042003907
-0.12405482 0.22037667 0.042716727
0.098077245 0.22049022 0.042924672
0.12325913 0.21679899 0.042284384
-0.076287374 0.23009498 0.045740977
0.1002105 0.23013948 0.045656398
-0.049939796 0.24348274 0.033677153
-0.025239682 0.24669293 0.039665826
-0.00064404076 0.24674428 0.03976173
0.023165241 0.24515757 0.039292432
-0.033601925 -0.24620043 0.048981801
-0.0060169096 -0.24851066 0.049174912
0.0047089593 -0.24848139 0.049175411
0.032323338 -0.24621506 0.04898145
-0.084890179 -0.23658453 0.048692681
-0.06121961 -0.23993562 0.049338989
-0.026290193 -0.24243502 0.054370359
-0.00064416602 -0.2432763 0.053634711
0.025489949 -0.24365149 0.05191455
0.05660772 -0.23992643 0.053146243
0.083648466 -0.23665749 0.04869128
-0.12698138 -0.21745695 0.052188404
-0.10688175 -0.2183921 0.050528347
0.098071679 -0.21712464 0.056059279
0.10485972 -0.22341971 0.049536183
0.12748553 -0.21672519 0.050546452
-0.14967838 -0.2042575 0.048591621
-0.13420022 -0.20712803 0.05398155
0.14846155 -0.20437536 0.048589364
-0.16884924 -0.18955065 0.048629098
-0.15018721 -0.18467936 0.055874482
0.16763173 -0.18966921 0.048626892
-0.18755999 -0.17398547 0.048681512
0.1863592 -0.17413469 0.048678756
-0.20339666 -0.15332791 0.048823811
-0.1937132 -0.15499069 0.062613055
0.17671354 -0.15589885 0.051571086
0.19025485 -0.15797639 0.058007635
0.20220393 -0.15349387 0.048820704
-0.21933599 -0.13256304 0.048966721
-0.19764379 -0.13282454 0.053836837
0.19761345 -0.13113379 0.052360356
0.21815124 -0.13274594 0.048963465
-0.20802648 -0.11375163 0.052054554
0.20785609 -0.11162709 0.052017622
-0.22953609 -0.1060407 0.052051112
0.22804734 -0.10711893 0.056743316
-0.24057567 -0.079427592 0.055485032
0.22281608 -0.0813962 0.053316176
0.2391956 -0.080261283 0.053287424
-0.2326857 -0.057979967 0.059651941
0.23192751 -0.057020187 0.059242263
0.24455453 -0.057733633 0.050506637
-0.24428658 -0.037353404 0.053639852
0.24331434 -0.03728272 0.055597551
-0.2572417 0.0026858291 0.050431192
-0.23919198 -0.0087700412 0.055129699
-0.23586579 -0.0074517857 0.050437056
0.23664545 -0.0077171735 0.056902185
0.25625691 0.0021091998 0.050421268
-0.23919198 0.015774015 0.055129699
0.23829128 0.015296609 0.06338124
-0.23594286 0.040378906 0.057388008
-0.23156387 0.036606953 0.049894795
0.23049365 0.037006505 0.049887583
0.23510589 0.039421745 0.061309472
-0.2281431 0.069018856 0.054572411
0.22718954 0.068424076 0.054355375
0.2445399 0.064675763 0.050516859
-0.23664173 0.087604448 0.061470568
0.22278683 0.088065922 0.053297035
0.23502572 0.089513958 0.057129763
-0.21178374 0.10168181 0.049202621
0.21062614 0.1019127 0.049198516
0.22980358 0.10746544 0.052015014
-0.22723919 0.11436914 0.05313883
0.22469409 0.11456853 0.064310871
-0.19815548 0.13386558 0.051413178
0.19750556 0.12780099 0.048965514
0.21971698 0.12708926 0.052362509
-0.18280992 0.1483475 0.04882592
0.18162721 0.14852758 0.048822708
-0.19366832 0.16182357 0.062584341
-0.1670244 0.16895403 0.048683912
0.16583359 0.16911727 0.048680857
0.17918797 0.16266727 0.054147705
0.19020917 0.165307 0.058039099
-0.14917494 0.18839417 0.05231107
0.14712751 0.18463928 0.048629001
-0.12917927 0.19920422 0.048593976
0.12797251 0.19933622 0.048591569
-0.1301349 0.21461087 0.052169688
-0.11104827 0.21614514 0.049572557
-0.086911038 0.22220467 0.048634909
0.0856786 0.22229205 0.048633158
0.10818764 0.21296106 0.048573181
0.12482335 0.21496393 0.050443567
-0.098706223 0.23076487 0.061743997
-0.083280943 0.23246765 0.049867541
-0.064344823 0.23155931 0.048694991
-0.044060074 0.2385391 0.049155347
-0.01293035 0.24125066 0.048984356
0.011661683 0.24127984 0.048983656
0.042775922 0.23857562 0.049154744
0.063113086 0.2316463 0.048693389
0.077397369 0.2317435 0.055915102
-0.016046695 0.24358225 0.049177818
0.014738443 0.2436114 0.049177319
-0.033601925 -0.24620034 0.073179089
-0.0060169096 -0.24851066 0.07346876
0.0047088591 -0.2484813 0.073469259
0.032332957 -0.2462295 0.073178187
-0.091796048 -0.2320527 0.07375171
-0.059184909 -0.23794891 0.070828341
-0.027643621 -0.24416119 0.073946983
0.026335169 -0.24419054 0.073946327
0.059888959 -0.24002482 0.073712304
0.074225366 -0.23199633 0.071099095
0.083648518 -0.23665759 0.072743364
-0.12991297 -0.21793126 0.072565086
-0.10617882 -0.22330718 0.074013799
0.10485977 -0.22341967 0.074010715
0.12693276 -0.21478583 0.072189301
-0.14888509 -0.20353477 0.076714501
0.12118352 -0.20508899 0.07826928
0.1484616 -0.20437546 0.072590485
-0.16922663 -0.18481526 0.074445307
-0.15447503 -0.17830051 0.067651995
0.15835449 -0.18281604 0.072341591
0.1732225 -0.18403667 0.07005427
-0.18755999 -0.17398547 0.07272853
0.1863592 -0.17413469 0.072724424
-0.20339675 -0.15332802 0.072942033
-0.17936714 -0.15318424 0.0688271
0.20388705 -0.150622 0.071416251
-0.21933605 -0.13256304 0.073156491
-0.21308932 -0.12973544 0.075004421
0.19823693 -0.1307302 0.07248769
0.20958087 -0.13281603 0.074815668
0.21815118 -0.13274583 0.073151536
-0.20802648 -0.11375172 0.077788167
0.20785609 -0.11162709 0.077732548
-0.23252992 -0.10656611 0.073506989
-0.21257903 -0.1079428 0.073627539
0.21284804 -0.10550409 0.075673848
0.23137052 -0.1067981 0.073500827
-0.24448055 -0.077805288 0.073926933
-0.22301568 -0.082856506 0.066373266
0.24332081 -0.078040786 0.073920622
-0.24560885 -0.056792635 0.067303002
0.24455534 -0.057975788 0.080425031
-0.2507011 -0.037057292 0.071952045
0.24965186 -0.037521038 0.076340429
-0.2572417 0.0026858291 0.075353228
-0.25192732 -0.0087700412 0.071412511
-0.23586583 -0.0074517857 0.075361848
0.24300666 -0.0077171735 0.075601548
0.25625679 0.0021093003 0.075338148
-0.25192732 0.015183249 0.071412511
0.25101373 0.015772074 0.075862102
-0.24877191 0.039194476 0.069360189
-0.23156391 0.036607053 0.074548513
0.23049365 0.037006505 0.074537791
0.24778092 0.040375013 0.078145966
-0.24560885 0.063263856 0.067303002
-0.22361536 0.072992332 0.073930241
0.22246625 0.073242672 0.073923476
0.24454041 0.065039001 0.080435447
-0.22300066 0.090012483 0.06638369
0.22297934 0.087593757 0.082152963
-0.21178369 0.1016817 0.073510297
0.21062614 0.1019127 0.073503934
0.22980358 0.10746544 0.077728994
-0.227595 0.11547256 0.078099556
-0.21257903 0.11519592 0.073627539
0.21281847 0.11214886 0.075654857
-0.22385801 0.12854402 0.08124017
-0.21307468 0.13638923 0.074994951
-0.19869769 0.12763393 0.073159352
0.19800299 0.13132867 0.074001983
0.2095506 0.14008683 0.074836716
0.21971677 0.12708947 0.078250103
-0.18280986 0.14834739 0.072945341
0.18162721 0.14852758 0.072940432
-0.17756037 0.16621582 0.067568518
-0.16702446 0.16895413 0.072732039
0.16583359 0.16911727 0.072727628
-0.16949777 0.1870203 0.076173916
-0.15448767 0.18243943 0.08137425
-0.14833505 0.18450639 0.072653525
0.14712745 0.18463917 0.072649866
0.15822332 0.19014929 0.072330795
0.17882825 0.1825418 0.081183143
-0.14809668 0.20612368 0.067820959
-0.12917927 0.19920422 0.072597452
0.12509377 0.20284416 0.070412785
-0.12620948 0.21482784 0.075375423
-0.10581514 0.21612082 0.069347389
-0.086911038 0.22220467 0.072658785
0.0856786 0.22229205 0.072656125
0.10818769 0.21296115 0.072566189
0.12401494 0.21704742 0.072139904
-0.078508191 0.23634477 0.076786526
-0.057895839 0.23596117 0.076696582
-0.044060074 0.2385391 0.073439375
-0.01293045 0.24125078 0.073182702
0.011661683 0.24127984 0.073181897
0.044544797 0.23913571 0.075334854
0.063113086 0.2316464 0.072746418
0.078728639 0.23649113 0.077556968
-0.060806729 0.24343964 0.067419097
-0.025990231 0.24366927 0.074243151
-0.0083454428 0.24527165 0.070671462
0.014738443 0.2436114 0.073472314
0.024646483 0.24697858 0.067835689
0.05004739 0.24368703 0.074208878
-0.033601925 -0.24620034 0.097376481
-0.0060170097 -0.24851076 0.097762361
0.0047088591 -0.2484813 0.097763464
0.032332957 -0.2462295 0.097375132
-0.084890179 -0.23658453 0.096798047
-0.073732324 -0.23710585 0.091998406
-0.060191166 -0.242713 0.097037315
-0.049266361 -0.24036339 0.097857594
-0.027643722 -0.24416098 0.098400369
0.02500093 -0.2422899 0.098151654
0.048483625 -0.23634787 0.091259055
0.058921847 -0.24274217 0.097036108
0.083648466 -0.23665749 0.096795246
-0.12991297 -0.21793126 0.096557736
-0.108606 -0.22002597 0.089862734
-0.0773798 -0.22555447 0.087701946
0.10392708 -0.22645974 0.092144996
0.1286699 -0.21800442 0.096555084
-0.14264937 -0.20516951 0.090301573
-0.12902834 -0.19775158 0.085530311
0.1484616 -0.20437546 0.096591562
0.15340395 -0.19788226 0.085286595
-0.17063679 -0.18685099 0.097159639
-0.14881909 -0.1856301 0.087220117
0.14657198 -0.18441224 0.098101214
0.1557543 -0.18006055 0.097246796
0.16762291 -0.18965457 0.096666977
-0.18755999 -0.17398547 0.096775651
0.18635911 -0.17413448 0.09677019
-0.20339666 -0.15332791 0.097060412
-0.19429424 -0.15426001 0.091764107
-0.17695227 -0.15953027 0.098390535
0.17989849 -0.1549751 0.083522983
0.18964475 -0.15874499 0.088672616
0.20220393 -0.15349387 0.097054243
-0.21933605 -0.13256304 0.097346172
-0.1970816 -0.13346139 0.084399201
0.19940798 -0.1297206 0.09578909
0.21815118 -0.13274583 0.097339705
-0.22385034 -0.12504321 0.094373673
0.19769344 -0.12560901 0.095321387
-0.22962625 -0.10580511 0.090768315
0.22794557 -0.10736678 0.096192509
-0.24064086 -0.079252206 0.094271034
-0.22281195 -0.083228678 0.096697323
0.22302313 -0.081041679 0.082181022
0.23912014 -0.080445699 0.092798918
-0.24562389 -0.056561694 0.095810682
-0.23262097 -0.058224574 0.089766949
0.23200227 -0.056787059 0.087923318
-0.24877161 -0.032637108 0.097823776
-0.23587941 -0.033466656 0.087464944
0.23516521 -0.032749653 0.089946076
-0.23914468 -0.0087700412 0.085158117
0.23832074 -0.0087700412 0.091963977
-0.23914468 0.015895851 0.085158117
0.23832074 0.01518074 0.091963977
-0.24875747 0.038964354 0.09781456
-0.23587941 0.040623184 0.087464944
0.23515089 0.039189443 0.089936912
-0.24560946 0.062917836 0.095801517
-0.22811067 0.069202311 0.094077691
0.22722702 0.068249226 0.093141474
-0.23678684 0.087136224 0.090159386
-0.22278188 0.090509281 0.096718468
0.23488963 0.090005174 0.087253883
-0.21178369 0.1016817 0.097817928
0.2106261 0.1019126 0.097809657
-0.22672258 0.11157254 0.083723061
0.22449045 0.11518813 0.094600856
-0.19786663 0.13424803 0.090890571
0.19841975 0.13208783 0.0965432
-0.18196023 0.15011346 0.090491623
0.18162721 0.14852758 0.097058102
0.20558596 0.15201311 0.083673857
-0.19583932 0.16190605 0.091421098
-0.17687461 0.16712196 0.098444447
-0.16702446 0.16895413 0.09678036
0.16584256 0.16913231 0.096773848
0.17566726 0.16254063 0.087672181
0.18959866 0.16620374 0.088704683
-0.17243017 0.18743308 0.084653042
-0.14833505 0.18450639 0.09667559
0.14685345 0.18615159 0.090865821
0.15560198 0.18700154 0.097152695
-0.14866136 0.19336747 0.087327942
-0.12917927 0.19920422 0.096600726
0.12797251 0.19933622 0.096595868
0.15341121 0.20210887 0.098924473
-0.13548104 0.21321671 0.083921082
-0.1223546 0.22086866 0.094341904
-0.1094562 0.21683407 0.089902967
-0.08691109 0.22220477 0.096682459
0.091197617 0.22164069 0.095619053
0.10818769 0.21296115 0.096559241
-0.064344771 0.23155931 0.096802711
-0.044060022 0.23853904 0.097723454
-0.01293045 0.24125078 0.097381249
0.011661683 0.24127984 0.09737999
0.042775922 0.23857567 0.097722068
0.063113086 0.2316463 0.096799508
-0.049269468 0.24341038 0.084905684
-0.02490592 0.24657702 0.090705849
-0.0083453422 0.245105 0.094283484
0.014738443 0.2436114 0.097767316
0.023667846 0.24345276 0.084983349
0.046945311 0.24337813 0.08928287
-0.073240943 -0.23368585 0.1042112
-0.062248103 -0.23715806 0.099143803
-0.024904065 -0.24359868 0.1036766
-0.00064411591 -0.24326886 0.10671128
0.025007553 -0.24293177 0.1096317
0.060855974 -0.23730737 0.099138439
-0.12234978 -0.21776335 0.10724732
-0.10430156 -0.21695332 0.10448258
0.096712336 -0.21789433 0.10747881
0.10353226 -0.21952015 0.10029521
0.12512362 -0.21369442 0.10656741
-0.13701011 -0.20504709 0.11370835
0.12162975 -0.20606247 0.10514809
-0.1708214 -0.1791877 0.1057626
0.16095489 -0.18562083 0.10861413
-0.19742586 -0.15948419 0.10408498
0.17601468 -0.15711163 0.10874729
-0.21355551 -0.12913598 0.10387407
-0.19649835 -0.13410553 0.11528796
0.19761345 -0.13113379 0.10413344
0.20908661 -0.13345279 0.10548376
-0.20802648 -0.11375172 0.10352159
0.20785609 -0.11162709 0.10344773
-0.22691551 -0.10457686 0.11227393
-0.21125486 -0.10380661 0.1037676
0.21310337 -0.10503237 0.1043997
0.23503722 -0.09956488 0.10272959
0.22321354 -0.080690995 0.11075625
0.24454111 -0.058220632 0.11065148
-0.25263041 -0.04136239 0.099196114
0.24966018 -0.037582029 0.10374852
-0.25724176 0.0026857294 0.10027511
-0.24550474 -0.0087700412 0.107649
-0.23586579 -0.0074517857 0.10028664
0.24301545 -0.0077172238 0.10312501
0.25625691 0.0021090992 0.10025512
-0.24550474 0.015543615 0.107649
0.25103137 0.015893891 0.10599094
-0.23156391 0.036607053 0.099202275
0.23049365 0.037006505 0.099188194
0.24778281 0.04061925 0.10832351
0.24452597 0.06540627 0.1106621
0.22318447 0.087125629 0.11073786
0.22980368 0.10746533 0.10344282
-0.22736855 0.11397783 0.10671595
-0.21230656 0.11582184 0.10411945
0.21305948 0.11155988 0.10437214
-0.21355551 0.13566907 0.10387407
-0.19646749 0.14163426 0.1153098
0.20904091 0.14085181 0.10551612
0.21971698 0.12708926 0.1041377
0.18048233 0.16095401 0.11252953
-0.17070074 0.18600173 0.10568804
-0.12903665 0.20195234 0.099221908
0.16084495 0.19335337 0.10869049
-0.13688704 0.2120516 0.11363359
-0.12620948 0.21482784 0.10030488
0.12270771 0.21631713 0.10340042
-0.097363614 0.23111998 0.11278032
-0.077866472 0.23445003 0.10147704
0.076894246 0.23191603 0.10606104
0.10166986 0.2297726 0.10114951
-0.033601925 -0.24620043 0.12157363
-0.0060170097 -0.24851085 0.1220562
0.0047088591 -0.2484813 0.12205741
0.032332957 -0.2462295 0.12157217
-0.091125317 -0.23236394 0.1232173
-0.058207698 -0.23858337 0.12274001
-0.026998615 -0.24182588 0.1195738
0.026335169 -0.24419054 0.1228523
0.057414047 -0.23830535 0.12170574
0.074274868 -0.23209834 0.12452195
0.083648466 -0.23665749 0.12084728
-0.12991297 -0.21793126 0.12055029
-0.1063028 -0.22022484 0.12068072
0.10485982 -0.22341976 0.12295953
0.1286699 -0.21800442 0.12054704
-0.14967838 -0.2042575 0.12059809
0.1484616 -0.20437546 0.12059268
-0.16884924 -0.18955065 0.12069175
-0.14743584 -0.18659116 0.11890638
0.15703703 -0.1791686 0.1266562
0.1676228 -0.18965437 0.12068689
-0.18755995 -0.17398536 0.12082268
-0.17627522 -0.16031413 0.12957573
-0.15680836 -0.17619677 0.12574105
0.18153648 -0.17629273 0.12556207
0.18635926 -0.17413478 0.12081586
-0.20339666 -0.15332791 0.12117854
-0.19485494 -0.15353738 0.12061622
0.18902825 -0.15952155 0.11965527
0.20556824 -0.14848509 0.12630396
-0.21933599 -0.13256304 0.1215359
-0.21403153 -0.12854178 0.13246809
-0.18404032 -0.14332855 0.13170727
0.19877447 -0.13012755 0.12728611
0.21815129 -0.13274594 0.12152773
-0.20802648 -0.11375163 0.1292551
0.20785609 -0.1116272 0.12916286
-0.23252997 -0.10656621 0.12212004
0.22785042 -0.10761682 0.12363689
-0.24071276 -0.079078428 0.12069981
-0.22259098 -0.083605036 0.12733805
0.2347821 -0.083222717 0.11765891
0.24332081 -0.078040786 0.12280946
-0.24563842 -0.056332964 0.12404548
-0.23254059 -0.058471907 0.12019372
0.23206189 -0.056556433 0.11631931
-0.25069365 -0.036942717 0.12492715
-0.23583031 -0.03358987 0.11783159
0.24336626 -0.037167061 0.12106594
-0.2572417 0.0026858291 0.1251971
-0.25188223 -0.0087700412 0.12797105
-0.23586583 -0.0074517857 0.12521148
0.23668203 -0.0077171735 0.12272944
0.25625691 0.0021091998 0.125172
-0.25188223 0.014954648 0.12797105
0.23836443 0.015065848 0.1202819
-0.24875697 0.038736172 0.12600607
-0.23369709 0.038738284 0.12084379
0.23049365 0.037006505 0.1238384
0.2352097 0.038959108 0.11829843
-0.24562429 0.062574737 0.12403646
-0.22807051 0.069387861 0.12151497
0.22725688 0.06807626 0.11956236
-0.23691612 0.086673051 0.11856149
-0.22257595 0.091010533 0.12734897
0.2347371 0.090501904 0.11769129
-0.21099345 0.10273658 0.1197691
0.2106261 0.1019126 0.12211518
0.22980358 0.10746544 0.12915684
0.23506127 0.10413092 0.11680209
-0.227595 0.11547256 0.12977439
0.22429995 0.11581326 0.12518567
-0.21403153 0.13495603 0.13246809
-0.19869773 0.12763414 0.12154055
0.19869104 0.13172777 0.12302443
0.21971677 0.12708947 0.1300253
-0.18280992 0.1483475 0.12118389
0.18162721 0.14852758 0.12117583
-0.19481026 0.16012798 0.12058871
-0.17619736 0.16803651 0.12963083
-0.1670244 0.16895403 0.12082858
0.16584256 0.16913231 0.12082067
0.18898204 0.16710974 0.11968794
-0.14833511 0.18450639 0.12069771
0.14712751 0.18463928 0.1206916
0.1568855 0.18598208 0.12656406
-0.14664549 0.20095797 0.11951532
-0.12917927 0.19920422 0.12060406
0.12422618 0.20350562 0.12050457
-0.12620948 0.21482784 0.12523423
-0.10645995 0.21796502 0.11973384
-0.086911038 0.22220467 0.12070633
0.0856786 0.22229205 0.12070207
0.10818764 0.21296106 0.1205523
0.12648444 0.2169469 0.1236998
-0.078016944 0.23633081 0.12644461
-0.064344771 0.23155931 0.1208566
-0.044060074 0.2385391 0.12200745
-0.01293045 0.24125078 0.12157964
0.011661683 0.24127984 0.12157823
0.044326384 0.23912627 0.12439097
0.06097177 0.23639059 0.12316571
0.081898138 0.23260133 0.12378173
-0.026354657 0.24375752 0.12993428
-0.0083455173 0.24533924 0.12270521
0.014738443 0.2436114 0.12206232
0.025009306 0.24711427 0.12331137
0.050775941 0.24377555 0.12989882
-0.033601925 -0.24620034 0.14577092
-0.0060170097 -0.24851076 0.14634995
0.0047089593 -0.24848139 0.14635146
0.032332957 -0.24622959 0.14576912
-0.084890276 -0.23658463 0.14490327
-0.074662186 -0.23485519 0.13848715
-0.061219659 -0.23993558 0.1468423
-0.048614472 -0.24056061 0.14751968
-0.027643621 -0.24416119 0.14730689
0.024837883 -0.24239257 0.14744245
0.0474253 -0.2373898 0.14191824
0.059888858 -0.24002482 0.14683719
0.083648466 -0.23665749 0.14489916
-0.12991293 -0.21793117 0.14454295
-0.10742974 -0.22724622 0.14472288
-0.078506954 -0.22484815 0.14464496
0.10467826 -0.22611158 0.144628
0.12382172 -0.21601683 0.14116642
-0.1446963 -0.20423464 0.14017883
-0.13097854 -0.19594032 0.14397894
0.12178797 -0.2048528 0.13400672
0.1484616 -0.20437546 0.14459376
0.15574384 -0.19607316 0.14372639
-0.17029254 -0.18462664 0.14300758
0.15966062 -0.18658075 0.14040381
0.16762291 -0.18965457 0.14470685
-0.18756004 -0.17398547 0.14486974
0.1863592 -0.17413469 0.14486168
-0.20339675 -0.15332802 0.14529675
-0.19542456 -0.15282109 0.14919195
0.18117931 -0.15352128 0.14132117
0.20220393 -0.15349378 0.14528793
-0.21989724 -0.13096331 0.14749025
-0.19590889 -0.13475637 0.14649761
0.20857191 -0.13409685 0.13647935
0.21815124 -0.13274594 0.14571574
-0.22981852 -0.10534012 0.14348787
-0.2120467 -0.1089488 0.1349096
0.21334179 -0.10456576 0.13283773
0.23137057 -0.1067981 0.14641429
-0.24078391 -0.078906223 0.14699176
0.22902237 -0.081971169 0.14373393
0.24332081 -0.078040786 0.14725393
-0.24724141 -0.071500041 0.14899212
0.23213536 -0.056327756 0.14445294
0.2445416 -0.058467641 0.14116934
-0.25263032 -0.041362289 0.14850044
-0.23576577 -0.033714466 0.1485136
0.24486347 -0.035935946 0.14455451
-0.2390639 -0.0087700412 0.14610676
0.24472885 -0.0087700412 0.14236502
-0.2390639 0.016143046 0.14610676
0.24472885 0.015484483 0.14236502
-0.23366481 0.03886288 0.14851168
0.23049356 0.037006304 0.14848857
0.24152663 0.039798442 0.14258599
-0.24726798 0.074754991 0.13573365
-0.22361536 0.072992332 0.14727306
0.22729366 0.067904852 0.14585194
0.24452658 0.065776788 0.14118026
-0.23705862 0.086213812 0.14669949
0.22638257 0.084497109 0.14164303
-0.21178369 0.1016817 0.14643323
0.21062614 0.1019127 0.1464209
-0.22709258 0.11041071 0.1405402
-0.2120467 0.1164534 0.1349096
0.21331263 0.11097594 0.13281985
-0.22046362 0.13256304 0.13635318
-0.19728775 0.13502461 0.14612554
0.19609533 0.13045634 0.14149733
0.20852602 0.1416247 0.13651241
-0.18343292 0.14814323 0.14551909
0.18162721 0.14852758 0.1452935
0.20895024 0.14808469 0.14546309
-0.19492003 0.16280575 0.14740276
-0.1670244 0.16895403 0.14487696
0.16584256 0.16913231 0.14486724
0.17500156 0.16343276 0.14382929
-0.17095651 0.18700691 0.13572095
-0.15682153 0.18066441 0.13967626
-0.14833505 0.18450639 0.14471972
0.14581525 0.18694392 0.14082158
0.18155061 0.18076862 0.13947834
-0.12917921 0.19920413 0.14460738
0.12797251 0.19933622 0.14460006
0.15953416 0.19445169 0.14049309
-0.13827832 0.21089867 0.14303572
-0.12070062 0.22134744 0.14456418
-0.10942108 0.21287377 0.14455007
-0.08691109 0.22220477 0.14472994
0.09053611 0.22187927 0.14474981
0.10818769 0.21296115 0.14454515
0.12080609 0.21710211 0.13634039
-0.079776123 0.23608075 0.14169087
-0.058264852 0.2358916 0.14090846
-0.045579009 0.24013941 0.14244744
-0.01293035 0.24125066 0.14577818
0.011661683 0.24127984 0.14577648
0.042775922 0.23857562 0.14628947
0.063113086 0.2316464 0.14490557
0.079281442 0.23643523 0.14261904
-0.024581077 0.24647272 0.14039429
-0.0083454428 0.24504834 0.14341408
0.014738544 0.24361131 0.14635731
0.0233417 0.24338162 0.13483463
-0.079868473 -0.23105599 0.16568968
-0.024579274 -0.24376063 0.15317254
-0.00064404076 -0.24379435 0.15323216
0.062512703 -0.23234019 0.15643044
-0.12069651 -0.218514 0.15727739
-0.10410935 -0.21734133 0.14986977
0.095389917 -0.21864328 0.15750167
0.10353226 -0.21952015 0.1501492
0.13005738 -0.21372399 0.16618328
0.12455779 -0.2040026 0.16403249
-0.17323335 -0.17743006 0.16390252
-0.14603756 -0.18756272 0.15093908
0.14449731 -0.18627241 0.14975424
0.15829121 -0.17828685 0.15575159
-0.19445539 -0.16328666 0.15843756
-0.17557554 -0.16110705 0.16109803
0.16889158 -0.16375455 0.15922134
0.18840532 -0.1603062 0.15096042
-0.21450303 -0.12795343 0.16078116
0.1975881 -0.12986629 0.15304902
-0.20802648 -0.11375172 0.15498883
0.20785609 -0.11162709 0.15487808
-0.21178424 -0.10945919 0.16601381
0.21359222 -0.10410313 0.1610104
0.22412267 -0.10894129 0.15606952
-0.22238314 -0.083984785 0.15827933
0.22112346 -0.072806127 0.15106945
-0.24563903 -0.056106672 0.15200244
-0.23247446 -0.058721438 0.15091532
-0.24875668 -0.032410141 0.15392944
-0.2572417 0.0026858291 0.15011919
-0.25185296 -0.0087700412 0.15584303
-0.23586579 -0.0074517857 0.15013632
0.23499957 -0.0066644065 0.15009499
0.25625691 0.0021091998 0.15008888
-0.25185296 0.014842038 0.15584303
-0.24874254 0.038510416 0.15392058
-0.2456248 0.062235292 0.15199368
-0.23245932 0.06615749 0.15092644
-0.22235267 0.091517448 0.15830147
0.22980368 0.10746524 0.15487082
-0.227595 0.11547256 0.15561183
-0.21176891 0.11709213 0.16602483
0.21354863 0.11039829 0.16098393
0.2240922 0.11644546 0.15609176
-0.21448861 0.13425079 0.16077229
0.20041361 0.13494176 0.15300497
0.21971677 0.12708947 0.15591279
-0.17549707 0.16896164 0.16115455
0.18835862 0.1680252 0.15099388
-0.17309906 0.18399389 0.16382229
0.15815581 0.18497315 0.15567057
-0.14589375 0.19557525 0.15104058
-0.13098645 0.20048055 0.15786433
0.15575241 0.2006208 0.15759265
-0.12620948 0.21482784 0.15016364
-0.10298987 0.22360174 0.14979935
0.12461602 0.21292841 0.15705322
-0.096057825 0.23145725 0.16242357
-0.07903862 0.23379073 0.16194829
0.062256761 0.23966394 0.15628281
0.07091067 0.2315747 0.16263111
0.10317216 0.22939526 0.15827191
-0.033601925 -0.24620043 0.16996805
-0.0060169096 -0.24851066 0.17064381
0.0047088591 -0.2484813 0.17064555
0.032332957 -0.2462295 0.16996621
-0.090472423 -0.23267096 0.17200422
-0.058461923 -0.23839717 0.17454171
-0.027186114 -0.24170786 0.17259321
-0.00064424117 -0.24272773 0.16657351
0.025858033 -0.24347289 0.16913871
0.057100635 -0.23977421 0.17193815
0.074357495 -0.23212573 0.17818561
0.083648466 -0.23665749 0.16895118
-0.12991282 -0.21793106 0.16853556
-0.10585248 -0.22009274 0.17005318
0.10850017 -0.22070806 0.17174062
0.12866995 -0.21800451 0.16853079
-0.14472757 -0.20363282 0.17040315
0.1484616 -0.20437546 0.16859478
-0.1688492 -0.18955055 0.16873348
0.15835203 -0.18755116 0.17254034
0.1676228 -0.18965437 0.16872667
-0.18755999 -0.17398547 0.16891676
0.18707526 -0.16761641 0.17574452
-0.20339666 -0.15332791 0.16941503
-0.19598866 -0.15211189 0.17748633
0.18181026 -0.15280518 0.16979142
0.20220393 -0.15349387 0.16940476
-0.21933599 -0.13256304 0.16991539
-0.19532886 -0.13541326 0.17802171
0.19930871 -0.12953641 0.18152101
0.20806743 -0.13474686 0.16778569
0.21815124 -0.13274594 0.16990396
-0.20802657 -0.11375153 0.18072234
0.20785619 -0.111627 0.18059312
-0.22991325 -0.10511102 0.16964278
0.23137052 -0.1067981 0.1707188
-0.2408472 -0.078735843 0.17314482
-0.21441036 -0.088099636 0.17718484
0.22904566 -0.081989028 0.17327021
0.24155454 -0.083262421 0.17409611
-0.24565335 -0.055882264 0.17970325
-0.23239258 -0.058973778 0.18195821
0.23219398 -0.056101512 0.17230994
0.24452718 -0.058717415 0.17200479
-0.25068638 -0.036830314 0.17736615
-0.23571557 -0.033840176 0.17949405
0.24488361 -0.035939842 0.17230035
-0.2572417 0.0026858291 0.17504098
-0.23903044 -0.0087700412 0.17703612
-0.23586583 -0.0074517857 0.17506112
0.24151112 -0.0080681294 0.172749
0.25625691 0.0021090992 0.17500585
-0.23903044 0.01626844 0.17703612
0.24475977 0.015490252 0.17161278
-0.24874245 0.038286544 0.18157971
-0.23363972 0.03898859 0.17632872
0.23049365 0.037006505 0.17313877
0.2415565 0.039810032 0.1718902
-0.24563932 0.061898675 0.17969464
-0.22799635 0.069764271 0.17684512
0.22732286 0.067735061 0.17200319
0.24451204 0.066151455 0.17201591
-0.23719983 0.085758977 0.1745681
0.22900854 0.088856675 0.17327836
-0.21178369 0.1016817 0.17074081
0.21062614 0.1019127 0.17072642
0.22980368 0.10746524 0.18058464
-0.22749071 0.11359429 0.17714733
-0.19869769 0.12763393 0.16992196
0.1992183 0.13101882 0.17555857
0.2080058 0.14240564 0.16783059
0.21971677 0.12708947 0.1818004
-0.19562107 0.1508342 0.17775227
-0.18280996 0.1483476 0.16942255
0.18168175 0.15390159 0.16957927
-0.1670244 0.16895403 0.16892524
0.1658425 0.1691322 0.16891396
0.18772908 0.16895021 0.18262714
-0.14833511 0.18450639 0.16874179
0.1471274 0.18463907 0.16873322
-0.14398913 0.20873941 0.17075272
-0.12917927 0.19920422 0.16861066
0.12338276 0.20414869 0.1698699
0.15822497 0.19556083 0.17263173
-0.13963991 0.20975894 0.17212349
-0.12620948 0.21482784 0.17509304
-0.10731762 0.21558195 0.17436312
-0.08691109 0.22220477 0.16875382
0.0856786 0.22229205 0.16874805
0.11182134 0.21827383 0.17008688
0.12743688 0.21667643 0.17755038
-0.077538669 0.23631726 0.1754389
-0.064344771 0.23155931 0.16896437
-0.044060022 0.23853919 0.1705755
-0.01293035 0.24125066 0.16997673
0.011661683 0.24127984 0.16997457
0.044113848 0.2391171 0.17300478
0.063113086 0.2316463 0.16895866
0.081898138 0.23260133 0.17305949
-0.0083454177 0.24540433 0.17555529
0.014738544 0.24361131 0.17065236
0.025382502 0.24725378 0.1804017
-0.033601925 -0.24620043 0.19416545
-0.0060169096 -0.24851066 0.19493754
0.0047089593 -0.24848139 0.19493955
0.032332957 -0.24622959 0.1941631
-0.084890231 -0.23658463 0.19300859
-0.077459253 -0.23367302 0.19312933
-0.061219659 -0.23993558 0.19559389
-0.047979668 -0.24075247 0.19586736
-0.027643621 -0.24416119 0.19621332
0.024679095 -0.24249248 0.19607569
0.046787988 -0.23762409 0.19043879
0.061886471 -0.23702765 0.1926786
0.083648518 -0.23665759 0.19300318
-0.12991297 -0.21793126 0.19252805
-0.10742979 -0.22724631 0.19276802
-0.1000013 -0.21656927 0.18346402
0.10618737 -0.22731937 0.19276261
0.12866995 -0.21800451 0.19252264
-0.14683218 -0.20512445 0.18798813
0.12239406 -0.20461096 0.18840002
0.1484616 -0.20437546 0.19259585
-0.16884924 -0.18955065 0.19275434
-0.16764653 -0.18785398 0.19959171
-0.14463998 -0.1885439 0.18331179
0.15954758 -0.17741323 0.1845562
0.16762291 -0.18965457 0.19274667
-0.18755995 -0.17398536 0.19296384
-0.17464104 -0.16923678 0.19273645
-0.15921354 -0.1740284 0.18561912
0.18434341 -0.17411605 0.18545257
0.1863592 -0.17413469 0.19295311
-0.20339666 -0.15332791 0.19353326
0.18243499 -0.15209612 0.19798122
0.20220393 -0.15349378 0.19352147
-0.21933605 -0.13256304 0.19410503
-0.21496972 -0.1273708 0.18881734
-0.18708271 -0.13889018 0.19533664
0.20998257 -0.13722727 0.19722767
0.21815118 -0.13274583 0.19409204
-0.21150374 -0.10997541 0.19744763
-0.22999552 -0.10487656 0.19565995
0.21382602 -0.10364547 0.18890347
0.22764936 -0.10812485 0.19115122
-0.24448055 -0.077805288 0.19615945
-0.22215785 -0.08436884 0.18954749
0.22380279 -0.079658315 0.19485916
0.2433209 -0.07804089 0.19614297
-0.25263041 -0.04136239 0.19780472
0.25152272 -0.041699406 0.19778116
-0.25183812 -0.0087700412 0.18346016
0.25111625 -0.0087700412 0.19817638
-0.25183812 0.014730367 0.18346016
0.25111625 0.016266417 0.19817638
-0.23156396 0.036607154 0.19781698
0.23049365 0.037006505 0.19778898
-0.22361536 0.072992332 0.19616832
0.22246625 0.073242672 0.19615069
-0.24277054 0.084874518 0.19816256
0.2237597 0.085749201 0.19483352
-0.22214252 0.092028953 0.18955892
-0.21310686 0.097408846 0.19328144
0.21062614 0.1019127 0.19503215
0.23981164 0.093504816 0.19083865
-0.22746968 0.10927046 0.1962792
-0.21150374 0.11773667 0.19744763
0.21379715 0.10982554 0.18888633
0.22388256 0.11708411 0.18731302
-0.21606237 0.13501121 0.1893194
-0.19869773 0.12763414 0.19411254
0.19463177 0.13240996 0.19241649
-0.18280996 0.1483476 0.19354177
0.1819943 0.15348798 0.19573353
0.20748019 0.14319471 0.19947566
-0.19157955 0.16968529 0.19853887
-0.17480549 0.16989547 0.19299825
-0.16702451 0.16895413 0.19297341
0.16611008 0.16963145 0.19612268
-0.17427987 0.18300541 0.19244221
-0.16343968 0.18469566 0.19336763
-0.14833511 0.18450639 0.19276381
0.14480586 0.18771413 0.19005591
0.1594127 0.18397462 0.18447733
0.1843579 0.17893106 0.1995879
-0.14447923 0.19669792 0.18342724
-0.12917927 0.19920422 0.19261409
0.12797251 0.19933622 0.19260436
-0.11909028 0.2218217 0.19345422
-0.10942103 0.21287367 0.19253764
-0.093299285 0.22361766 0.18823162
0.08989206 0.22211558 0.19321457
0.10818764 0.21296106 0.19253121
0.12586166 0.20973693 0.19293672
-0.083053462 0.2346364 0.1967162
-0.058646142 0.2357787 0.19400555
-0.045367356 0.24011654 0.19100411
-0.01293035 0.24125057 0.19417512
0.011661683 0.24127984 0.19417292
0.023024224 0.24331242 0.18336631
0.042775873 0.23857577 0.19485678
0.064370014 0.23492885 0.1898644
0.079853483 0.23631814 0.19630867
-0.025497105 0.24510556 0.1880022
-0.0083453925 0.24499297 0.19188833
0.014738443 0.2436114 0.19494736
0.051526241 0.24385774 0.18723126
-0.02426325 -0.24390981 0.20134614
-0.00064409088 -0.24395154 0.20141861
-0.12441432 -0.21844867 0.21125476
-0.10491718 -0.21938336 0.20001322
-0.079668328 -0.22411129 0.20330453
0.094103023 -0.21937197 0.20618346
0.10693988 -0.22007415 0.20286976
0.12866986 -0.21800442 0.21651475
-0.14532353 -0.20299108 0.2088138
-0.13298912 -0.1940731 0.2042308
0.1484616 -0.20437546 0.21659693
0.15815714 -0.19419846 0.20398808
-0.14266115 -0.18957354 0.21645507
0.14247961 -0.18808958 0.19998635
0.15701309 -0.18853326 0.20504163
-0.19157319 -0.16697587 0.21117359
0.16358161 -0.1719878 0.21249095
0.18717119 -0.16189843 0.21453518
-0.1964303 -0.15141585 0.20543501
-0.21611081 -0.13020082 0.20945668
-0.19449267 -0.13608897 0.21006164
0.19175267 -0.13414606 0.20344983
0.20153061 -0.12735656 0.2091822
-0.20720308 -0.11531636 0.20656449
0.20470171 -0.11864115 0.20720099
0.21407184 -0.10319166 0.21653855
-0.2400461 -0.080634907 0.20662743
0.21707898 -0.0833003 0.21320954
0.23433094 -0.084362701 0.21082266
-0.24554071 -0.055662256 0.20706689
-0.23208061 -0.059233077 0.21348904
0.23225181 -0.05587741 0.19990292
0.24452768 -0.058969427 0.20314027
-0.24860124 -0.032188714 0.2088939
-0.23546693 -0.03396906 0.21093759
0.24159367 -0.033066969 0.20121226
-0.25720698 0.0027518701 0.19996752
-0.24524273 -0.0087700412 0.20955054
-0.23583953 -0.0075008902 0.19998926
0.23673205 -0.0077171735 0.20177117
0.25625691 0.0021090992 0.19992273
-0.2452281 0.015509107 0.20955196
0.23846444 0.014727951 0.20361148
-0.24858721 0.038067553 0.20888552
0.24158655 0.039823938 0.20120794
-0.2354518 0.041628286 0.21094902
-0.24554071 0.061568279 0.20706689
-0.23206519 0.066924959 0.21350056
0.23225181 0.061891008 0.19990292
0.24451254 0.066529475 0.20315149
-0.23731096 0.085309491 0.20215403
0.21712267 0.086003177 0.19995768
0.23428504 0.092021942 0.21085712
0.22980368 0.10746524 0.20629857
-0.22719367 0.11624957 0.20734027
0.21402875 0.10925891 0.21651328
0.22369505 0.12163775 0.20810236
-0.21502955 0.13288009 0.21634458
0.20145795 0.13353765 0.20913956
-0.19264895 0.14851163 0.20836568
0.21242586 0.14402613 0.2093015
0.18709262 0.16988498 0.21459329
0.16065705 0.18298636 0.21298842
-0.14176716 0.20325103 0.20873463
-0.1290071 0.19892563 0.21664003
0.12797251 0.19933622 0.21660665
0.15688531 0.19668335 0.20513493
-0.12620948 0.21482784 0.20002238
-0.10924686 0.21259658 0.21655408
0.1102125 0.21898821 0.211089
0.1248452 0.21493366 0.20001447
