ply
format ascii 1.0
comment PCL generated
element vertex 1332
property float x
property float y
property float z
element camera 0
property float view_px
property float view_py
property float view_pz
property float x_axisx
property float x_axisy
property float x_axisz
property float y_axisx
property float y_axisy
property float y_axisz
property float z_axisx
property float z_axisy
property float z_axisz
property float focal
property float scalex
property float scaley
property float centerx
property float centery
property int viewportx
property int viewporty
property float k1
property float k2
end_header
-0.00013936101 0.12050203 0.5461998
-0.058288325 -0.1032257 0.5696286
0.017668793 -0.1137747 0.56286204
0.041804347 -0.10369208 0.57243013
-0.064277679 -0.096218497 0.56682086
0.059642669 -0.094868712 0.5665952
-0.1059616 -0.071387127 0.56298137
0.083639883 -0.072491795 0.5692299
-0.10808662 -0.05157724 0.5634793
-0.1195423 -0.028503621 0.56508464
-0.10200928 -0.025044203 0.56861341
0.10863359 -0.029796315 0.56387419
0.11916346 -0.03318546 0.56741238
0.12574628 -0.03268861 0.5619517
-0.12841991 -0.018818308 0.5625394
0.10772441 -0.015802938 0.56447113
-0.12885028 0.0049385708 0.56626809
-0.1204541 -0.0080293929 0.5693959
-0.10716309 -0.0080293929 0.57741737
0.10714868 0.0053874534 0.56566274
0.1128078 -0.0080293929 0.56587106
-0.12143762 0.01752343 0.56899333
-0.10716309 0.017247576 0.57741737
0.1128078 0.013702111 0.56587106
0.12901199 0.0092716832 0.56665963
-0.1161534 0.03538157 0.56733853
-0.10273901 0.023425406 0.56284726
0.10712333 0.032176211 0.56291866
0.11911596 0.042283677 0.56745088
-0.10667391 0.061156996 0.57007623
0.084010541 0.064864628 0.57647932
0.082658157 0.079529278 0.57557362
-0.083946995 0.089111701 0.57455724
-0.073969275 0.098862097 0.56680781
-0.053297881 0.10087527 0.56887716
0.062720977 0.088999368 0.57439548
0.079719394 0.095156208 0.56890845
-0.06407924 0.10221536 0.56672782
-0.038071476 0.11367699 0.56608301
-0.020982435 0.1149235 0.57522649
-0.00013931417 0.1149235 0.57522649
0.02075023 0.11150759 0.57023048
0.0378258 0.10996462 0.5628866
0.059612315 0.10239226 0.56476295
-0.059553545 -0.1041635 0.5817005
-0.039399549 -0.11093192 0.58193636
-0.019439884 -0.11361042 0.5863927
-0.011058027 -0.11493134 0.58408988
0.0041064848 -0.11379743 0.58409345
0.022350423 -0.11024064 0.5835743
0.038231488 -0.11452612 0.58202928
0.060829759 -0.10667952 0.58126777
-0.081851579 -0.089973159 0.58366013
-0.059939135 -0.094777055 0.59062004
0.052251704 -0.096223764 0.58550334
0.062716708 -0.087339707 0.5855608
0.081035957 -0.095049419 0.58116108
-0.096734136 -0.075422525 0.58241737
-0.090209261 -0.073514111 0.57898504
-0.064531021 -0.084722564 0.57945687
0.097958639 -0.077940807 0.58198839
-0.10530481 -0.063359089 0.58800048
0.084001824 -0.063193537 0.58776987
0.10429261 -0.058634363 0.57952905
0.1122114 -0.056108378 0.58360887
-0.11095963 -0.053499028 0.58405125
-0.10512687 -0.051433861 0.58598262
0.096194915 -0.051580042 0.58192354
-0.11750329 -0.02690601 0.58850992
-0.10057751 -0.033371203 0.58278346
0.1028366 -0.027722823 0.58918178
0.1224474 -0.026964158 0.58644772
-0.11844682 -0.0080293929 0.59223098
0.10863284 -0.0080293929 0.587758
-0.11844682 0.013560329 0.59223098
-0.10091832 0.020321453 0.58695328
0.1054655 0.01839499 0.58711594
0.12171894 0.022155399 0.59261513
-0.11387216 0.035227336 0.59008497
0.10431257 0.035384126 0.58573145
-0.10051333 0.042655483 0.58283585
-0.09091749 0.049619988 0.584077
0.092189312 0.052217528 0.5836345
-0.10507178 0.057078697 0.58595687
0.10017495 0.062589265 0.58075571
-0.090125971 0.079286374 0.57894593
-0.07677374 0.071515091 0.5824405
0.077999465 0.073991865 0.58201647
-0.080073282 0.089785874 0.59220618
-0.064317405 0.094236545 0.57962835
-0.060804509 0.097168826 0.58745795
-0.039604958 0.10020836 0.58172864
0.041443676 0.10102097 0.5916912
0.061112992 0.091079116 0.58118904
-0.038114395 0.10994981 0.58647114
-0.016889663 0.10799126 0.58250695
-0.0074576885 0.11384397 0.58362943
0.0090012578 0.11104208 0.58411825
0.018276203 0.11059545 0.58205485
0.040424585 0.10476283 0.58415848
0.051995359 0.10222435 0.5853855
-0.058591645 -0.10260716 0.60531336
-0.035850774 -0.11029607 0.60614705
-0.0098619433 -0.11306105 0.60788852
0.010779175 -0.11493125 0.60754681
0.036558602 -0.11186543 0.60586149
0.059210699 -0.10405978 0.60505033
-0.078776099 -0.090870149 0.60521674
-0.062506542 -0.099577315 0.60288221
-0.026975036 -0.10204659 0.59881574
0.041440256 -0.099521384 0.60280293
0.050932519 -0.098970659 0.60333854
0.079401627 -0.092358932 0.6049484
-0.095757194 -0.073786087 0.6060797
-0.08795239 -0.073281541 0.60179275
0.073516138 -0.081161685 0.59750766
0.096374758 -0.075287513 0.60581034
-0.086395495 -0.058992282 0.59433919
-0.10652683 -0.051467523 0.60831302
0.093273103 -0.051436648 0.60436743
0.11056502 -0.053301528 0.60754114
-0.098147213 -0.03174606 0.5936445
0.10208596 -0.02965891 0.60842025
0.11336602 -0.033373736 0.60455191
0.11993465 -0.0080293929 0.59911668
0.11993465 0.017249936 0.59911668
-0.11861907 0.028123641 0.59361768
0.10207228 0.035229869 0.60841382
-0.089824885 0.047789603 0.60786134
0.090530425 0.049438596 0.60756564
0.11331796 0.042660236 0.60459155
-0.10374133 0.059209339 0.60832572
-0.086330466 0.068416856 0.594392
-0.075784251 0.069886148 0.60610396
0.088241123 0.059241153 0.6059922
-0.085512914 0.082552135 0.60416508
0.062128644 0.086000584 0.6063953
0.077299438 0.075321428 0.60163885
0.085367292 0.081499383 0.59366602
-0.058820818 0.086919151 0.60524631
-0.038630832 0.098659061 0.60534286
0.039279915 0.10013482 0.60507452
0.059467044 0.088415802 0.60497522
0.077201672 0.094247483 0.60160273
-0.041524053 0.10838471 0.60228539
-0.020779122 0.11228965 0.60790348
-0.012566578 0.10869137 0.60687929
0.003311032 0.11273777 0.60416454
0.021231214 0.11101388 0.60161066
0.048032708 0.10190494 0.60758203
-0.041520867 -0.10696042 0.61333221
-0.020377679 -0.11078142 0.61475909
-0.00013936101 -0.11090953 0.61892188
0.020918658 -0.10757919 0.61217719
-0.057338502 -0.09567453 0.61165071
-0.084430858 -0.078851826 0.62104702
-0.064696208 -0.085819356 0.6174683
-0.058403604 -0.085300542 0.61714673
0.062123679 -0.084532201 0.61748695
0.073235363 -0.0750411 0.61967957
-0.10435416 -0.060069814 0.61906904
0.083241977 -0.059889078 0.61882144
0.099254362 -0.0589974 0.61622876
-0.11206951 -0.029577296 0.61288309
-0.097624876 -0.033532284 0.61780787
-0.094265841 -0.038481459 0.61880058
0.097519644 -0.032351222 0.61771142
0.12066789 -0.023876226 0.61057729
-0.11978775 -0.021865293 0.6109345
-0.11664398 -0.0080293929 0.61498678
-0.1044208 -0.0080293929 0.61218446
0.10666773 -0.0080293929 0.61052716
-0.11664398 0.013480039 0.61498678
-0.10200122 0.017724399 0.61157602
0.10357691 0.016810726 0.61056727
-0.11341572 0.034978323 0.61582148
0.11790563 0.02889164 0.61771142
-0.097576246 0.042977348 0.61784816
0.099173605 0.068425015 0.61629546
-0.085481703 0.080305293 0.62097001
0.075974196 0.078982316 0.62017554
0.091110297 0.07295993 0.61921012
-0.059005573 0.098313101 0.61764741
0.041044496 0.098324999 0.62383932
-0.040218551 0.10676856 0.61064023
-0.026976347 0.10874431 0.61306971
0.041486852 0.10442951 0.61107212
0.053536624 0.10866303 0.61323631
-0.034816217 -0.10865064 0.62984824
-0.021515846 -0.10828842 0.63466173
-0.0086736353 -0.11120302 0.63171893
0.0095925545 -0.11307585 0.63135958
0.022826683 -0.10584444 0.63513303
0.035534631 -0.11023676 0.62954521
0.058248706 -0.10250326 0.6286782
-0.077789091 -0.089245424 0.62886441
-0.057971451 -0.097826831 0.63265389
0.043212779 -0.096340932 0.63253689
0.078415833 -0.090735987 0.62858236
-0.094779089 -0.072147489 0.62977165
-0.054456394 -0.083289646 0.63653558
0.071385399 -0.085308872 0.6392892
0.08135809 -0.082856968 0.63740581
0.095397681 -0.073650889 0.62948853
-0.082910113 -0.05932644 0.62998378
-0.1050213 -0.050475508 0.63154107
0.091361113 -0.0512776 0.62711078
0.10949524 -0.051477797 0.63133961
-0.11025299 -0.029497659 0.63550013
0.10031226 -0.029578555 0.63114506
0.11051204 -0.033534687 0.63970494
-0.11846635 -0.019572254 0.63498843
0.11934841 -0.021586558 0.63461262
-0.11486793 -0.0080293929 0.63757998
0.10490752 -0.0080293929 0.6332162
0.11725793 -0.0080293929 0.6340366
-0.11486793 0.013400234 0.63757998
-0.098242633 0.015759826 0.63502306
0.10203288 0.015638674 0.63392884
0.11725793 0.017408788 0.6340366
-0.11023941 0.034907363 0.63549399
0.10028499 0.035069384 0.63113278
-0.088730693 0.045956783 0.63167906
0.089437686 0.047608122 0.6313681
0.11046379 0.042982161 0.6397453
-0.10230431 0.057400994 0.63496071
-0.082828321 0.068918608 0.63005143
-0.07479354 0.068255231 0.62979716
0.075414665 0.069736704 0.62951678
0.086905181 0.0574205 0.63266027
-0.082377687 0.083263345 0.63808393
-0.0578213 0.085301824 0.6288954
0.06154475 0.083128989 0.63789696
-0.054133736 0.1011805 0.63396174
-0.037646398 0.097093262 0.62898862
0.041698646 0.10005809 0.62940085
0.058468699 0.086800441 0.62861055
0.070972584 0.095026255 0.63963079
-0.041449856 0.10510453 0.63455975
-0.020579696 0.10970677 0.63994938
-0.012652962 0.1069492 0.63063794
0.005637737 0.10851898 0.63584983
0.017944984 0.10603733 0.6319719
0.043046463 0.10207155 0.635162
-0.037450735 -0.10577112 0.64946443
-0.020578196 -0.1084953 0.65085876
-0.0074741784 -0.10932738 0.65558702
0.002705385 -0.10801302 0.65369546
0.023703385 -0.10442305 0.65017807
0.034500167 -0.10859133 0.65326166
-0.076800913 -0.087618634 0.65254176
-0.056645878 -0.099458799 0.65263057
0.042471189 -0.095394015 0.65258443
0.057276361 -0.10092996 0.65233755
0.07742878 -0.089111157 0.65224588
-0.082929172 -0.077383228 0.64798576
-0.070368096 -0.077243827 0.64308262
0.061539501 -0.081833184 0.64889282
0.073871635 -0.073054768 0.64280206
0.094419532 -0.07201229 0.65319645
-0.1034205 -0.056839511 0.64958102
-0.093799859 -0.070507109 0.65349346
0.076024696 -0.068270102 0.64482135
0.082496084 -0.056635588 0.649306
0.095838696 -0.059331954 0.65203428
-0.1035176 -0.049475253 0.65470469
-0.082260713 -0.047496967 0.64729637
0.089449584 -0.051119938 0.64968193
0.10891473 -0.048131175 0.65209401
-0.094650589 -0.033695266 0.65326691
0.093673453 -0.039025441 0.64292133
0.098538175 -0.029498907 0.65369588
-0.10162743 -0.0080293929 0.64740449
0.10317373 -0.0080293929 0.6557433
-0.10162743 0.017567065 0.64740449
0.10317373 0.013401479 0.6557433
0.098510817 0.03491009 0.6536839
0.11408259 0.035645306 0.64293027
-0.09460187 0.043303326 0.65330791
-0.087634958 0.044121146 0.6555301
0.088343352 0.045774922 0.65520382
-0.099252507 0.056368247 0.6538884
-0.073801614 0.06662216 0.65352017
0.074423812 0.068105511 0.65322608
0.089408547 0.056607455 0.64966381
0.095757179 0.068926878 0.65210265
-0.087188132 0.07596083 0.64500803
-0.056820426 0.083682433 0.65257436
0.05746904 0.085183017 0.6522755
0.073774569 0.078674346 0.64275903
-0.057893474 0.092959836 0.6532982
-0.036660656 0.095525503 0.65266305
0.040050875 0.097960308 0.65340537
0.081365682 0.089761041 0.65198654
-0.012730071 0.10520454 0.65442902
0.013563776 0.10507633 0.65445554
-0.023056721 -0.1059193 0.65877128
0.02437065 -0.10347073 0.65926588
-0.056387693 -0.094845422 0.66135979
0.040649161 -0.094530739 0.6662932
-0.081276953 -0.072593607 0.66925383
-0.050908636 -0.085925139 0.65646368
0.071687371 -0.072825439 0.66522521
-0.07936243 -0.059665345 0.66611296
-0.07603652 -0.06867373 0.668854
-0.10846346 -0.029418495 0.65795642
-0.11714257 -0.017275091 0.65908384
0.11802673 -0.019292954 0.65868944
-0.11309142 -0.0080293929 0.66000032
0.1145473 -0.0080293929 0.66939837
-0.11309142 0.01332113 0.66000032
-0.096901424 0.013473343 0.65912032
0.097809948 0.015497485 0.6587227
0.1145473 0.017569648 0.66939837
-0.10843638 0.034749255 0.65794438
-0.082272232 0.054498486 0.66214025
0.081771001 0.054654151 0.66829062
0.10942926 0.053650752 0.66384488
-0.099581659 0.060007535 0.6687395
-0.079296283 0.069426499 0.66616839
-0.081397243 0.079251796 0.66910404
0.060971349 0.08031857 0.66882378
0.071590401 0.078368545 0.66518325
-0.050856777 0.09833651 0.65649921
0.04460898 0.099708982 0.65929633
-0.042028785 0.10265867 0.66236448
-0.020384159 0.10717326 0.67138177
-0.00013938444 0.10921704 0.67050958
0.023607537 0.10723274 0.66776401
-0.032752443 -0.10536829 0.6773383
-0.022491556 -0.10483654 0.6825549
-0.0062824977 -0.10746402 0.67948663
0.0035280529 -0.1077273 0.68063974
0.033473574 -0.10695855 0.67700565
-0.052106805 -0.096352436 0.67740828
-0.040729299 -0.10215621 0.67674279
-0.027485475 -0.095650651 0.6728341
0.02303661 -0.10161275 0.68007702
0.039562773 -0.095110618 0.674797
0.055429708 -0.097444683 0.67454857
0.076440558 -0.087484181 0.6759392
-0.081607953 -0.079287551 0.67985404
-0.075820506 -0.086004674 0.67624575
0.060966149 -0.079184391 0.67971492
0.066750593 -0.079265833 0.68313706
-0.092819221 -0.068864487 0.67724502
0.093449011 -0.070386432 0.67693102
-0.10218128 -0.050204992 0.67838621
0.084664606 -0.052201457 0.67567253
0.10733337 -0.04779201 0.67904162
-0.10667374 -0.029340025 0.68024182
0.10219941 -0.031558774 0.67569381
-0.11560136 -0.014600625 0.6832971
0.11670266 -0.016995415 0.68280792
-0.11134171 -0.0080293929 0.68226147
-0.098815054 -0.0080293929 0.6830588
0.10143966 -0.0080293929 0.67809778
-0.11134171 0.013242494 0.68226147
-0.097077399 0.014270324 0.68319702
0.098953985 0.013266355 0.68047023
-0.10664675 0.034592316 0.68023026
0.096749954 0.034751959 0.67606878
-0.086537808 0.042283267 0.67941451
0.087247476 0.043939106 0.67907292
0.10757317 0.043308191 0.67534882
-0.097327307 0.0561352 0.67619807
-0.072808377 0.06498722 0.67727292
0.0734317 0.066472255 0.6769653
0.087510705 0.05637268 0.6720714
-0.05582761 0.082075968 0.6762799
0.056468118 0.083563536 0.67597002
0.069407731 0.078065351 0.68744391
-0.054498024 0.096814901 0.68238676
-0.040280811 0.09683238 0.67966974
-0.012716111 0.10146535 0.67737246
0.040512275 0.096676551 0.68013471
0.063612632 0.095858172 0.67911208
-0.027487256 0.10274984 0.68742782
-0.012917457 0.10544955 0.6791324
0.013642525 0.103329 0.67828041
0.054559659 0.10265638 0.68762326
-0.031714045 -0.10371658 0.70113045
0.0060037393 -0.10746402 0.70301157
0.032436393 -0.10530879 0.70078278
-0.057719376 -0.09423174 0.69863898
-0.045101736 -0.094560832 0.70024753
0.038482901 -0.093471028 0.69701457
0.055328064 -0.097777665 0.69974291
-0.07908304 -0.072367519 0.6914258
-0.074829847 -0.084373765 0.69998252
-0.043291494 -0.086559907 0.69642138
0.075451016 -0.085855238 0.69966209
-0.091837414 -0.067219801 0.7010265
-0.075184941 -0.060020395 0.70321947
0.092422999 -0.064207368 0.69450563
-0.10052889 -0.04747247 0.70083886
0.085681446 -0.050807819 0.69433999
0.10625004 -0.045945227 0.70294291
-0.10489704 -0.029262127 0.7023645
-0.091638364 -0.033860341 0.68918198
0.09502881 -0.029341366 0.69830096
0.099731259 -0.0080293929 0.7002936
0.099731259 0.013243722 0.7002936
-0.10488336 0.034436293 0.70235866
0.095015325 0.034594774 0.69829518
-0.10161111 0.051617242 0.69814557
-0.088513985 0.042037942 0.69627821
0.083600208 0.046739541 0.70040208
-0.095429458 0.055903502 0.69835258
-0.073449515 0.066655017 0.70218009
0.072438411 0.064837031 0.70073408
0.088976346 0.062787063 0.69134575
-0.07991872 0.077713713 0.69535369
-0.054824345 0.080452651 0.70001805
0.057937425 0.079747207 0.69943255
-0.040618476 0.09749528 0.69839829
-0.011664783 0.099821322 0.70116621
0.012399501 0.10140614 0.70081854
0.019965317 0.10071483 0.69677407
0.035872113 0.097174123 0.69826496
-0.02019237 0.10468033 0.70220828
-0.014123848 0.1035948 0.70305079
-0.00013931417 0.10468024 0.70220816
-0.020190824 -0.10380404 0.71291655
-0.0050793868 -0.10558276 0.70342422
-0.00013926733 -0.10380399 0.71291649
-0.040344596 -0.099826261 0.70755219
-0.026147088 -0.10116795 0.70712376
0.023715228 -0.099256627 0.7075932
0.033295464 -0.094565898 0.7185865
-0.080858126 -0.076678857 0.71009475
-0.076904491 -0.072142996 0.71344304
0.058445472 -0.081580378 0.7144565
0.067350604 -0.07237193 0.70959461
-0.10160254 -0.050549485 0.70899367
0.082434148 -0.050476685 0.71254885
0.10469437 -0.033862807 0.71136755
-0.11370637 -0.011312284 0.70768875
0.11508927 -0.014195777 0.70707393
-0.10960454 -0.0080293929 0.70435929
-0.093428649 0.0075528845 0.70772541
0.11180229 -0.0080293929 0.70521003
-0.10960454 0.013164438 0.70435929
0.094833605 0.01042345 0.70711064
0.11180229 0.017732557 0.70521003
0.10464527 0.043638423 0.71140969
0.083770201 0.055907868 0.71640742
-0.076795153 0.077459008 0.71339774
0.06725429 0.077763826 0.70955455
-0.060182769 0.09061566 0.71678776
-0.046443325 0.097357199 0.70717025
0.015053166 0.10173734 0.70346022
0.036276665 0.095356926 0.71751201
0.047742821 0.094971023 0.70769864
-0.0038842391 -0.10371377 0.72739333
0.0048006284 -0.10558276 0.72696638
0.031397808 -0.10365699 0.72459048
-0.056948002 -0.092251375 0.72565395
-0.039638687 -0.094367169 0.72104985
-0.029185364 -0.10042416 0.72816002
-0.00013950156 -0.098104931 0.7307052
0.028347408 -0.097095907 0.73142534
0.03988767 -0.089726582 0.72741264
0.054352112 -0.096198469 0.72348905
-0.07383801 -0.082740977 0.72374904
-0.055649951 -0.072230175 0.72084719
0.069833636 -0.078193381 0.72747797
0.083149597 -0.071784802 0.72176033
-0.090854339 -0.065572962 0.72483802
0.089880571 -0.063562661 0.72504318
-0.10447457 -0.042443074 0.7272464
-0.093612753 -0.050496861 0.72037578
0.10516527 -0.044095822 0.72687763
-0.10314638 -0.029184688 0.72433144
-0.088586785 -0.034027558 0.72556204
0.093307018 -0.029263349 0.72036439
0.11319368 -0.010906406 0.73149866
-0.11180666 -0.0080156969 0.73214066
-0.10190865 -0.0080293929 0.72273672
-0.091513 0.0042869365 0.73217523
0.092922084 0.0071645277 0.73153341
0.098022491 -0.0080293929 0.72232085
-0.10190865 0.015490901 0.72273672
0.098022491 0.013165766 0.72232085
-0.10311959 0.034281634 0.72432035
-0.084338695 0.038599446 0.72728395
0.093280129 0.03443896 0.72035319
-0.10072576 0.048404932 0.7271716
-0.088537127 0.04396794 0.72560495
0.082696676 0.04420983 0.72688144
-0.093545198 0.055673473 0.72034764
-0.070818193 0.061710782 0.72486848
0.071443863 0.063199751 0.72453296
0.088158876 0.069969594 0.72569096
-0.080127746 0.074952215 0.72911751
-0.053819817 0.078827359 0.72378612
0.057163987 0.077588715 0.72620952
0.065115653 0.077464402 0.73151094
-0.048011649 0.094986208 0.73141557
-0.037561383 0.096347928 0.7239337
-0.012976765 0.099948838 0.72599882
0.011348079 0.099762015 0.72462773
0.018019868 0.099069461 0.727265
0.034360286 0.092310145 0.7235195
0.052773479 0.09457425 0.72561872
-0.020004047 0.10224155 0.7324661
-0.00013931417 0.10224146 0.73246604
-0.052749373 -0.093154103 0.74760878
-0.036561754 -0.092970937 0.73885918
-0.024817787 -0.10096557 0.74593902
-0.00013931417 -0.10152444 0.74307156
0.025981221 -0.097967058 0.74183154
0.053384263 -0.094632395 0.74726075
-0.080121934 -0.074117757 0.73978376
-0.073792927 -0.076513082 0.74142629
0.059850499 -0.074039571 0.73968154
0.073477328 -0.082606152 0.74719405
-0.089870051 -0.063924149 0.74867946
-0.070496544 -0.060389481 0.74123245
0.09050335 -0.065452002 0.7483232
-0.10071789 -0.047478795 0.73791236
-0.09174189 -0.050344609 0.74221241
0.081151731 -0.048865631 0.73797464
-0.10139535 -0.029107919 0.74613333
0.091584474 -0.029186008 0.74226159
0.1017287 -0.034030057 0.74789447
-0.10615524 -0.0080293929 0.74806666
0.10267401 -0.0080293929 0.74283397
-0.10615524 0.013010139 0.74806666
0.10267401 0.015492966 0.74283397
-0.10136866 0.0341281 0.7461226
0.091557398 0.034284279 0.74225062
0.10167951 0.043972932 0.74793798
-0.091661125 0.055445418 0.74217963
-0.06983044 0.060084738 0.74870765
0.070448004 0.06156031 0.74836177
0.081926793 0.055677794 0.73833901
-0.072498627 0.073838219 0.73829585
-0.05423997 0.078401759 0.74171132
0.053467229 0.078707993 0.74722916
0.083155781 0.079224847 0.73660237
-0.059627354 0.088123381 0.74659926
-0.03385783 0.09549205 0.74214393
-0.0095579093 0.096526891 0.74884522
0.010304808 0.098130725 0.74846405
0.027210295 0.099925548 0.73909187
0.036445994 0.089395642 0.74690211
-0.00013940787 0.10546426 0.74561203
0.027580025 0.10536972 0.74581367
0.0036054815 -0.10371377 0.7509526
-0.059622485 -0.087445021 0.75719476
-0.028680822 -0.092748031 0.75671238
-0.002677755 -0.10182735 0.75140083
0.022359999 -0.094182141 0.75998622
0.035484657 -0.089987211 0.75684524
0.052224264 -0.087436244 0.75617069
-0.072592646 -0.071698628 0.75701988
0.063074082 -0.071924731 0.75334722
0.083680816 -0.060395561 0.76376665
-0.10338694 -0.040588893 0.75123
-0.089884333 -0.050193451 0.76389319
0.079888679 -0.047281504 0.76307446
0.10408799 -0.042259157 0.75084239
-0.085161746 -0.034200326 0.76270962
0.089874111 -0.029109232 0.76399976
-0.10990235 -0.0047113341 0.75665289
-0.091328777 -0.0035082316 0.75622237
0.091005869 0.0038977358 0.75601614
0.094654977 -0.0080293929 0.76590014
0.11130253 -0.0076245288 0.75598007
-0.093064927 0.018061657 0.75575924
0.094654977 0.013011448 0.76590014
-0.083236918 0.036753699 0.7512691
0.086910248 0.036281124 0.75743616
-0.099856287 0.045240261 0.75568539
-0.085078262 0.044314153 0.76278305
0.079646327 0.044996664 0.75537205
-0.089803949 0.055218659 0.76386106
0.080083102 0.055449717 0.76010805
-0.079404809 0.072284497 0.75836843
-0.072456509 0.076867349 0.75696582
0.059313778 0.072177172 0.75822818
0.062978327 0.077167518 0.75330907
0.083530441 0.070524409 0.76389891
-0.049592812 0.092595443 0.75570929
-0.039600067 0.095891841 0.75691009
-0.021507284 0.099711224 0.75842869
-0.00013940787 0.099848211 0.76216125
0.019621095 0.097851008 0.75602132
0.050153684 0.093217842 0.75831008
-0.051769953 -0.091569379 0.77142686
-0.03959721 -0.095281124 0.76743209
-0.026666813 -0.096953727 0.77521241
-0.0014790476 -0.099952936 0.77543992
0.0011298415 -0.1005573 0.77382147
0.021962168 -0.096536815 0.77342027
0.033792693 -0.088984303 0.78123331
0.052405827 -0.093049355 0.77106494
-0.079398997 -0.071602948 0.76893604
-0.071154602 -0.075473845 0.77497721
0.060129814 -0.071614496 0.77191502
0.072484039 -0.080970928 0.77100652
-0.088893577 -0.062288277 0.77254725
-0.065724298 -0.060764186 0.77980369
0.089519009 -0.063803099 0.77218038
-0.099848464 -0.044461221 0.7663309
0.078306593 -0.050196953 0.78174269
0.10298227 -0.040374152 0.77485162
-0.1008647 -0.033689827 0.77155876
-0.10621333 -0.0047060489 0.7754547
-0.087667562 -0.0022688527 0.78125596
0.089084931 0.0006227931 0.78055918
0.10780183 -0.0061741709 0.77937198
-0.10444244 0.012933884 0.76967984
0.10620619 0.018064674 0.77821857
-0.099643581 0.033975452 0.76777238
-0.081914395 0.034538232 0.77537686
0.082839645 0.036555253 0.77488869
-0.068832278 0.05844146 0.77258027
0.073858589 0.057571009 0.77697384
-0.067964308 0.073825262 0.77921891
-0.055449266 0.080627218 0.77363145
0.039157569 0.085608758 0.77577543
0.055825338 0.079747848 0.77575856
-0.051945161 0.089038953 0.78033727
-0.031723317 0.087672628 0.77146691
-0.022905726 0.096689776 0.77104968
-0.0085024582 0.094876394 0.77273059
0.0092505747 0.096482202 0.77233434
0.017545773 0.097789429 0.77791286
0.032380272 0.089160845 0.77110142
0.055665515 0.095214158 0.76746327
-0.050789319 -0.089982696 0.79527384
-0.039233681 -0.093078963 0.79655439
-0.024061888 -0.092983328 0.78779113
0.02384579 -0.09587612 0.79635459
0.051426455 -0.091464631 0.79489839
-0.070863917 -0.077844955 0.79522455
-0.05907733 -0.085151881 0.78636026
0.03915396 -0.085098527 0.78629148
0.058856774 -0.071483701 0.7964958
0.071489587 -0.079333737 0.7948488
-0.087798074 -0.060453296 0.79649442
-0.078689091 -0.0691332 0.79756641
0.058776028 -0.069048546 0.79745924
0.088515282 -0.062121689 0.79607552
-0.098993935 -0.041495375 0.79426241
-0.088040084 -0.050043367 0.78541952
0.078956202 -0.041250832 0.79395771
-0.097931057 -0.028956044 0.78926587
0.088176303 -0.029033011 0.78558075
0.098392762 -0.034202855 0.78519404
-0.10275569 -0.0080293929 0.79114211
-0.090025157 -0.0080293929 0.79291356
0.092982933 -0.0080293929 0.78744996
-0.10275569 0.01285807 0.79114211
-0.089992084 0.018232267 0.79294318
0.092982933 0.012935182 0.78744996
-0.097917758 0.033824123 0.78926075
0.088162996 0.03397806 0.78557563
-0.099001572 0.0421298 0.78371024
0.078962408 0.041887887 0.78340399
0.09832634 0.044318885 0.78525341
-0.087959886 0.054993518 0.78538829
-0.073213488 0.063143484 0.79180521
0.058781464 0.06955035 0.78694838
0.068434305 0.058245361 0.79611725
-0.050807822 0.073953733 0.79526627
-0.030730361 0.08609315 0.79531574
0.055114608 0.076014832 0.79567575
-0.039236631 0.093528345 0.78612179
-0.020985726 0.098465577 0.78614354
-0.0074551585 0.093238831 0.79664296
0.0040278579 0.096165285 0.79377216
0.019409766 0.093491055 0.78607303
0.031388346 0.087583147 0.79493606
-0.033923227 -0.089212254 0.8049829
-0.019636394 -0.097098857 0.80172414
-0.00026909681 -0.098060802 0.79951757
0.0031352453 -0.095553383 0.80293036
0.028122695 -0.091297582 0.81004667
0.034452386 -0.088071361 0.80705988
-0.068339832 -0.071260378 0.79999679
0.036140077 -0.085375339 0.80596936
-0.056899719 -0.060606487 0.80908853
0.082012296 -0.060503848 0.80618209
-0.086209044 -0.049894348 0.80679327
0.076502532 -0.050046846 0.80320728
-0.098484412 -0.032476716 0.80505168
-0.081556343 -0.03437677 0.80047452
0.086503975 -0.028957231 0.80701125
0.10164953 -0.038102098 0.79899114
-0.10356444 -0.003037612 0.809156
-0.085746758 -0.005543421 0.80588317
0.089247771 -0.0053448007 0.807006
0.10748786 -0.001005216 0.80513149
-0.10106771 0.012782913 0.81244463
0.091336377 0.012859361 0.80884939
-0.096204393 0.033673882 0.81059492
-0.080562212 0.032273211 0.79953688
0.07829012 0.038831897 0.81095928
0.083983332 0.034060158 0.80301529
-0.098161057 0.039080001 0.81126857
-0.081489168 0.044666737 0.80053431
-0.086128935 0.054769978 0.80676275
0.076448567 0.054998085 0.80318677
-0.068191141 0.076283395 0.79994023
-0.056425638 0.084369667 0.80481082
0.03880069 0.08320713 0.80451107
0.056511171 0.081714034 0.80600458
0.078835487 0.071087182 0.80265439
-0.018996069 0.096103869 0.79908323
0.011028773 0.099205911 0.80083704
0.019912831 0.094265521 0.79955602
0.03386268 0.098717079 0.8075785
-0.049807414 -0.088394038 0.81915027
-0.038876943 -0.090909407 0.82513565
-0.026510805 -0.095440775 0.82054633
0.000461755 -0.097120926 0.82337755
0.023234678 -0.093961313 0.82261056
0.050455 -0.089892842 0.8187567
-0.068051234 -0.07362362 0.82018757
-0.058542393 -0.082892947 0.81498653
0.038797271 -0.082840107 0.81491959
0.056763019 -0.07126563 0.81784493
0.07049372 -0.077694297 0.81872141
-0.086710162 -0.058630966 0.82047117
-0.077991776 -0.066707298 0.82568812
-0.060883094 -0.061144292 0.81893116
0.058253642 -0.066607893 0.82556421
0.087419584 -0.060286239 0.82004076
-0.084390745 -0.049746379 0.82801574
0.074711122 -0.049897797 0.82451969
-0.098777451 -0.036186591 0.82270885
0.078284122 -0.038337074 0.82142127
0.084830433 -0.028882101 0.82828283
0.097596422 -0.035102814 0.82314318
0.10325356 -0.0080293929 0.81552374
0.10322011 0.018235324 0.81555402
-0.079207741 0.030004246 0.8237384
0.082470469 0.032852329 0.82574254
-0.084297612 0.054548331 0.82798123
0.094811164 0.044671863 0.82317489
-0.072304577 0.060934648 0.81790662
-0.056906089 0.068512887 0.82438475
0.058258351 0.066977918 0.81516856
0.070990995 0.055596516 0.82229197
0.085028797 0.068171374 0.82511294
-0.066087075 0.075994201 0.82120901
-0.055255167 0.071984179 0.81911892
-0.029745648 0.084526889 0.81918955
0.030395387 0.086003862 0.81880003
0.053563591 0.075053647 0.81828767
-0.038879897 0.091208033 0.81480032
-0.019835524 0.094710417 0.82154566
-0.0063968967 0.091583841 0.82058972
0.0022896384 0.095857702 0.82172334
0.022832254 0.094223037 0.82122642
-0.034443036 -0.10805719 0.84062672
-0.0088638319 -0.1115004 0.8430559
-0.077163786 -0.088215925 0.83933765
-0.05492989 -0.096088469 0.83886886
-0.041925356 -0.088279657 0.83585626
-0.019458331 -0.094942987 0.83024216
-0.00013931417 -0.094943076 0.83024234
0.026194382 -0.095380813 0.84408456
0.049473051 -0.088303998 0.84264845
-0.094401926 -0.071515717 0.84052551
-0.05720038 -0.076397918 0.84180969
-0.036270048 -0.085604049 0.82974964
-0.028611664 -0.07964199 0.83489382
0.038493924 -0.081756361 0.83077425
0.055747584 -0.075251363 0.83717167
0.06950587 -0.076068074 0.84261984
0.085456878 -0.076308861 0.84199953
-0.08214853 -0.059508219 0.84039181
-0.078648299 -0.06106659 0.83807564
0.074259989 -0.061150551 0.84179956
0.086322539 -0.058448359 0.84403938
-0.10896172 -0.050092921 0.84296626
-0.089582831 -0.031646527 0.83221769
-0.085099094 -0.012100944 0.83400458
0.11486017 -0.015301823 0.8375538
-0.10690417 -0.0013651461 0.8339926
-0.086912118 -0.0080293929 0.83058637
0.087458566 -0.0069903769 0.82995814
0.1055644 0.0023325011 0.82980257
-0.10967472 0.012625478 0.83741856
-0.086825855 0.01733611 0.83367246
0.089688316 0.01278419 0.83008951
0.11535636 0.01636274 0.83693522
-0.094503209 0.033524714 0.8317765
-0.086764805 0.045557447 0.83782804
0.066213265 0.054588988 0.84408456
-0.10283214 0.056011997 0.84034991
-0.074420594 0.067641258 0.84055787
-0.07859724 0.071527958 0.83812195
-0.056928243 0.08310163 0.8345862
0.029401211 0.084422514 0.84269315
0.054310624 0.07543236 0.83749801
0.074089848 0.071657553 0.84195375
-0.052004654 0.097121961 0.83797294
-0.039445117 0.097560674 0.8377142
0.0060895621 0.091539428 0.84412533
-0.014437251 0.10415649 0.84066719
0.011212599 0.10764215 0.84309661
-0.00013950156 -0.10534538 0.84663635
0.02536118 -0.10590995 0.84723884
-0.050773341 -0.091836639 0.85935193
-0.0012118352 -0.096181139 0.84725457
0.024684709 -0.089873001 0.85931283
0.041242406 -0.092132181 0.85606569
0.055692576 -0.088280186 0.8586266
-0.038613498 -0.082000993 0.85458153
-0.088000543 -0.070254207 0.85105735
-0.10026927 -0.049315825 0.85551691
-0.086301878 -0.04139784 0.84924066
0.072932266 -0.049749807 0.84568143
0.11481369 -0.040412001 0.85130131
-0.10691359 -0.028619327 0.85793209
0.083168782 -0.028807512 0.84940231
0.098638758 -0.034016561 0.85125953
-0.1188148 -0.020176854 0.84764689
0.083293535 -0.009250476 0.85455197
-0.10571118 -0.0080293929 0.85589528
-0.0867576 -0.0077892412 0.85197061
0.099921972 -0.0014852607 0.85587263
0.11535796 -0.0078834966 0.85216343
-0.10334539 0.015775766 0.85315961
0.099523358 0.015515592 0.85424173
-0.11635137 0.025430156 0.85569322
-0.10688754 0.033150889 0.85792267
-0.086388543 0.023710703 0.85264444
0.080962457 0.031643108 0.84841448
0.096722521 0.025121061 0.8553198
0.11486326 0.023653267 0.85276437
-0.10021707 0.053901516 0.85549796
0.072878771 0.054552518 0.84566194
0.09830001 0.044884771 0.85512418
-0.087842017 0.074942112 0.85099971
-0.058116704 0.081444949 0.85576606
0.085459784 0.084465988 0.85711902
-0.053989999 0.09781675 0.85743964
-0.025026044 0.090010785 0.84872776
0.024684709 0.10109542 0.85931283
0.03925658 0.097966015 0.85563248
0.056219891 0.093230419 0.85462016
0.042641431 0.10268392 0.84788656
-0.038181882 -0.10289695 0.87079704
-0.024400523 -0.1047829 0.86990941
-0.0049648001 -0.10540352 0.86827105
0.0042228797 -0.10803353 0.86971104
0.01888204 -0.10288243 0.87077886
0.034155004 -0.10804248 0.86403793
-0.055087201 -0.096062005 0.86524111
0.027466826 -0.098710284 0.87369853
0.038003765 -0.098777086 0.86566174
0.056716219 -0.10002367 0.86283529
0.076839685 -0.088141344 0.86272264
-0.074701861 -0.080857933 0.86894959
0.057150174 -0.080490284 0.87315571
0.094069213 -0.071425401 0.86395425
-0.0960752 -0.056663327 0.87403172
-0.084766902 -0.064699352 0.86658281
0.076627858 -0.063445672 0.87131745
0.086644374 -0.061003394 0.86283743
-0.10035311 -0.046443045 0.87173557
0.088993303 -0.049318135 0.87302577
0.10860263 -0.049955942 0.86648923
-0.1163469 -0.025075309 0.86595011
-0.087758161 -0.03459762 0.86507851
0.096176736 -0.026738845 0.87053835
-0.11373336 -0.01135913 0.8737157
0.11840206 -0.019944403 0.87135214
-0.11666185 0.0002187416 0.86578029
0.096969895 -0.0040002982 0.87074131
0.11427765 -0.0080293929 0.8756988
-0.093583614 0.0078169126 0.87370282
0.098190293 0.01614584 0.87139899
0.11427765 0.01840633 0.8756988
0.095614024 0.033153601 0.87537724
-0.096153989 0.05373884 0.8754701
-0.086481929 0.045007199 0.86598629
0.088719413 0.049991816 0.86976665
0.11482175 0.048686527 0.86665076
-0.099544443 0.05627659 0.86414802
-0.071731701 0.063214645 0.86519867
0.075345948 0.062186174 0.86391294
0.10142504 0.058005221 0.86508304
-0.080660358 0.074823171 0.8699671
-0.076526046 0.080661118 0.86309773
-0.052869394 0.077289574 0.86470801
0.05701258 0.082409896 0.86289442
0.07651218 0.074946769 0.8685928
0.092159376 0.07153108 0.86077315
-0.035735577 0.094698966 0.86958504
-0.012129125 0.10054725 0.86509794
0.041673161 0.096384943 0.86806655
-0.040522367 0.10285627 0.86610317
-0.019141275 0.1045843 0.86277926
-0.0114818 0.10765696 0.86658186
0.0070351437 0.10625608 0.86414927
0.023595182 0.10815571 0.8612417
0.0046382584 -0.10532885 0.89183664
0.031247992 -0.10341863 0.88879085
-0.052498423 -0.091579318 0.88550252
-0.035596117 -0.088904664 0.87709236
-0.028606333 -0.094137929 0.88522577
-0.010566701 -0.089871347 0.88247108
0.038532067 -0.092214435 0.88255739
0.055069413 -0.092050545 0.8836332
-0.072188079 -0.080024816 0.88842708
0.072693728 -0.081316091 0.88805479
-0.090023607 -0.064181432 0.8894372
-0.070754066 -0.065820202 0.88816673
0.069452323 -0.070169769 0.88757294
0.091513544 -0.067144193 0.88858718
0.10550612 -0.044676907 0.89148289
-0.10474122 -0.02855023 0.87852019
0.10154787 -0.034596577 0.88758433
-0.10887758 -0.0080293929 0.87998921
0.098918192 -0.0080293929 0.87655067
-0.10904576 0.012457067 0.88004893
0.098918192 0.012535719 0.87655067
-0.10504001 0.03300751 0.87862617
0.085732549 0.041401431 0.89136511
0.10154787 0.045104973 0.88758433
-0.069866933 0.060144886 0.88952827
0.071936779 0.064011224 0.88841391
-0.075471267 0.074587516 0.88560373
-0.052352209 0.07645271 0.88837934
0.054772571 0.077600844 0.88857883
0.070620865 0.074787259 0.88797826
-0.054330219 0.094788112 0.88009685
-0.034942459 0.093841814 0.8876034
-0.018977242 0.10185802 0.8895188
-0.010034291 0.098779939 0.88609368
0.0059123039 0.10106242 0.88871753
0.018724518 0.099736251 0.88687402
0.036572795 0.093483709 0.88155526
0.0572538 0.099933423 0.89165407
-0.014577884 0.10289679 0.89146978
-0.041387841 -0.095152304 0.89815718
-0.023490744 -0.099569872 0.89780915
-0.0020546969 -0.10085304 0.89314538
-0.0001393376 -0.10084297 0.89813441
0.023334753 -0.098580517 0.89685917
0.038935125 -0.091504961 0.89854425
0.050604861 -0.088870302 0.89899892
-0.075940579 -0.076466456 0.89796412
0.056696773 -0.076880485 0.8984645
-0.095155738 -0.05587443 0.90260476
0.075860165 -0.056159817 0.90294445
0.087194026 -0.061460219 0.90098614
-0.092543527 -0.049093477 0.89548725
0.085510455 -0.049200907 0.89314389
-0.10283031 -0.03304033 0.89648479
-0.086042553 -0.034759581 0.90232199
0.094782405 -0.028541418 0.89636046
-0.11254548 -0.0092977909 0.89802104
0.11428136 -0.012793943 0.89702737
-0.10479688 -0.0080293929 0.89973825
-0.092267744 -0.00080547156 0.89739674
0.09890639 -0.0080293929 0.89779121
-0.10614119 0.012394516 0.9002046
-0.090991601 0.018649684 0.89770108
0.096615992 0.010870069 0.89742309
-0.10343833 0.032861412 0.8992669
-0.082087867 0.034828961 0.89325052
0.09508194 0.032989889 0.89646453
-0.088986196 0.049505554 0.89904904
0.086166397 0.053712226 0.89337158
-0.095082775 0.057199277 0.89408684
0.075801916 0.05748143 0.89442784
0.088299878 0.072082587 0.89995384
-0.056454912 0.091296762 0.90612733
-0.046295334 0.096180342 0.89886302
-0.028843367 0.099551156 0.89250195
0.017523194 0.097939685 0.89292616
0.039249051 0.093623251 0.90252829
0.050456125 0.097472765 0.89690167
-0.053999484 -0.090673231 0.91340077
-0.038122077 -0.092280462 0.92017269
-0.028346062 -0.098359779 0.91375822
-0.0020546969 -0.10085304 0.91673088
0.002101897 -0.10136273 0.91657698
0.028181329 -0.098456658 0.91747183
0.03610659 -0.090601578 0.91638118
0.05183313 -0.092122637 0.91193187
-0.072188079 -0.080024816 0.91186512
0.072721131 -0.081361257 0.91146779
-0.090023659 -0.064181432 0.91290671
-0.070737854 -0.065837055 0.91678894
0.066822648 -0.069973528 0.90799075
0.090882294 -0.066086866 0.91234297
-0.092481501 -0.048923492 0.91658843
0.082584515 -0.049075834 0.91333008
0.10375547 -0.041692317 0.91589522
-0.10278869 -0.032998063 0.91878313
0.094086915 -0.028461525 0.91722643
-0.11254548 -0.0092977909 0.92175889
0.11262683 -0.0099227233 0.92157567
-0.1048263 -0.0080293929 0.92077005
-0.092763335 0.0064184507 0.9215529
0.092849091 0.007040197 0.92136967
0.10069827 -0.0080293929 0.9180854
-0.10619085 0.012309091 0.92123228
0.098940134 0.012887925 0.92004728
-0.10335738 0.032692447 0.92027253
-0.082087815 0.034828775 0.9168393
0.088113762 0.034592733 0.91671234
-0.09226048 0.05331701 0.91651344
0.082335666 0.053546183 0.91324586
-0.069867022 0.060144983 0.9130007
0.070795365 0.06213221 0.91240996
-0.075110249 0.074478529 0.91438186
-0.052352209 0.07645271 0.911816
0.0545168 0.077219047 0.91449815
0.066888794 0.074560687 0.90801346
-0.047574665 0.095646739 0.92097634
-0.036870364 0.095463812 0.91598397
-0.01812386 0.10009059 0.91763276
-0.0095198704 0.096467301 0.91321123
0.0043417057 0.098355167 0.91565901
0.018028991 0.098662198 0.9162792
0.03374622 0.092398852 0.91527796
0.047524329 0.09530139 0.92108166
-0.051501758 -0.091135398 0.93567592
-0.032845948 -0.090868562 0.92351216
-0.023572797 -0.099543825 0.9322691
-0.00013940787 -0.098136485 0.93072623
0.02529153 -0.098251097 0.93138498
0.04670658 -0.089429989 0.93878865
0.051833175 -0.092122734 0.93537199
-0.073704123 -0.077791557 0.9306671
0.056172278 -0.075529009 0.92599612
0.072721086 -0.08136116 0.93489379
-0.092107199 -0.060176551 0.93413359
-0.076826535 -0.069486611 0.93235981
0.070970833 -0.063081346 0.93068361
0.090882294 -0.066086866 0.93579537
-0.092420042 -0.048754916 0.93751544
0.082549475 -0.048906207 0.93434405
-0.086088739 -0.03490502 0.93833274
0.094043538 -0.028377153 0.93814445
0.10081604 -0.034749202 0.92411256
-0.091781147 -0.0080293929 0.93293846
0.094931491 -0.0071504982 0.9348762
-0.091030478 0.018794917 0.93364996
0.096265562 0.012300843 0.93887907
0.093474448 0.032675102 0.93795627
-0.08894071 0.049397223 0.93807244
0.082327798 0.053291067 0.9342708
0.10039264 0.045419015 0.92451394
-0.09411931 0.057319909 0.92343706
-0.069866978 0.060144886 0.93647325
0.072913274 0.059869342 0.92982125
-0.07690496 0.073911078 0.93238574
-0.052352164 0.076452613 0.93525243
0.052904461 0.077797391 0.93483877
0.066931985 0.074216887 0.92918044
0.088035107 0.072528154 0.93622404
-0.055889219 0.091095276 0.93505073
-0.03201358 0.088134065 0.93545032
-0.0095198704 0.096467398 0.93669015
0.0088228667 0.095813416 0.93689328
0.034585427 0.089795969 0.93498397
0.047338162 0.10047863 0.93819857
-0.055930723 -0.090174526 0.94342607
-0.03840727 -0.092825018 0.94729555
-0.031460322 -0.089910962 0.95328403
-0.0020546969 -0.10085314 0.94031626
0.0021019906 -0.10136273 0.94015789
0.023146641 -0.098418996 0.94941783
0.036020473 -0.090402506 0.94145417
-0.074468337 -0.075625375 0.95469224
0.055608083 -0.075603731 0.95466697
-0.076829538 -0.069232777 0.95326126
-0.058599308 -0.062424034 0.93997198
0.066896006 -0.069460265 0.95014656
0.083550833 -0.062230602 0.94197655
0.10375556 -0.041692503 0.93945539
-0.10274095 -0.032956328 0.94099283
-0.11254548 -0.009297885 0.94549674
0.11262683 -0.0099227233 0.94530785
-0.11304612 0.007458536 0.95092738
-0.10485553 -0.0080293929 0.94162709
-0.092763335 0.0064184507 0.94528449
0.092849091 0.007040197 0.94509578
0.10663494 -0.0080293929 0.95475519
-0.10620152 0.01222468 0.94207203
-0.10327718 0.032524876 0.94110531
-0.082087815 0.034828775 0.94042814
0.082711942 0.036341354 0.93996698
-0.093175285 0.057438098 0.95219755
0.074276149 0.057721801 0.95253009
-0.073661029 0.074406013 0.95115858
-0.058553308 0.072463401 0.95260167
0.055565875 0.076543406 0.94631541
0.066975087 0.073875949 0.95017207
0.08747559 0.072565064 0.95237607
-0.047574572 0.095646836 0.94469059
-0.038317677 0.098093435 0.94644219
-0.018029852 0.10001918 0.94381899
-0.00013936101 0.10076242 0.94673371
0.017931927 0.098834552 0.94278437
0.035571642 0.095585473 0.94004172
0.047524329 0.095301293 0.94479907
-0.00013950156 0.10625044 0.94770944
0.028877109 0.10739396 0.94512028
-0.0047927797 -0.10513462 0.96253264
-0.051528249 -0.090612203 0.96258152
-0.023478659 -0.099554829 0.95838058
0.00098129141 -0.10064795 0.95938939
0.02938622 -0.096604206 0.96528316
0.035182629 -0.0905926 0.96097505
0.05183313 -0.092122637 0.958812
-0.072188079 -0.080024816 0.95874113
-0.029413583 -0.084905937 0.96062487
0.058418214 -0.084644586 0.96120483
0.072721042 -0.08136107 0.95831972
-0.091639191 -0.060326017 0.96021038
-0.064598955 -0.062226914 0.95869666
0.074332811 -0.056735091 0.96090215
0.090882294 -0.066086866 0.95924801
-0.10501331 -0.043361552 0.96249437
-0.092359044 -0.048587717 0.95827085
0.082527742 -0.048737764 0.95518923
0.10375547 -0.041692317 0.96301544
-0.10376007 -0.028219013 0.96194869
0.09398751 -0.028293576 0.95888603
0.10092716 -0.034894705 0.96024448
0.11262683 -0.0099227233 0.96904027
-0.11219449 -0.0066529331 0.96466655
-0.10008436 -0.0080293929 0.96412545
-0.090855137 0.0031654323 0.97003198
0.092849091 0.007040197 0.96882176
0.09497878 -0.0080293929 0.95920581
-0.10083371 0.01551846 0.96425718
0.09306962 0.022771243 0.96833926
0.10109215 0.015500434 0.95757329
-0.1031848 0.032358877 0.96176302
0.088066466 0.034424663 0.96112269
-0.088667408 0.046445563 0.96028095
0.082306907 0.053038366 0.95511806
0.10051829 0.045709759 0.96063745
-0.069866978 0.060144886 0.95994568
0.070795275 0.062132023 0.95931911
-0.052352164 0.076452613 0.95868903
0.052895233 0.0777824 0.95826769
-0.052304339 0.093667008 0.96620685
-0.03201358 0.088134065 0.95889264
-0.017472152 0.098446757 0.96349907
-0.0095198704 0.096467398 0.96016884
0.0088228667 0.095813513 0.96037799
0.034857973 0.091511533 0.96096826
0.048975635 0.093107097 0.96922481
0.014424768 0.1027035 0.96213144
0.0044470313 -0.10502978 0.98611337
-0.055376157 -0.090124451 0.97168654
-0.035927933 -0.09389589 0.97799677
-0.019212354 -0.094283417 0.98111606
-0.00013934931 -0.096082598 0.98313367
0.021823665 -0.096631207 0.98246008
0.041590445 -0.089922778 0.97692311
0.05183313 -0.092122637 0.98225218
-0.073615521 -0.078186847 0.98566651
0.051974874 -0.075057268 0.98179895
0.072721042 -0.08136107 0.98174578
-0.07594347 -0.067135639 0.97746855
-0.056877702 -0.065161459 0.9812991
-0.037965126 -0.065169424 0.98129052
-0.020205647 -0.067590624 0.97942191
-0.00013931417 -0.065153494 0.98130745
0.018773613 -0.065169424 0.9812904
0.037686236 -0.06516137 0.9812991
0.056599353 -0.065169424 0.9812904
0.066938922 -0.069206648 0.97096574
0.085235253 -0.064146228 0.98173308
-0.090354167 -0.044307657 0.97907078
-0.075380906 -0.039899878 0.98132813
-0.056570787 -0.039907746 0.98131961
-0.037760314 -0.039907746 0.98131961
-0.02015442 -0.044626869 0.9794364
-0.00013931417 -0.039884321 0.98134506
0.018671161 -0.039907746 0.98131949
0.037481379 -0.039899878 0.98132825
0.052645974 -0.045096233 0.97932804
0.07510177 -0.0398921 0.98133653
0.082519308 -0.048570506 0.97586745
0.10535368 -0.044417091 0.98570055
-0.088606924 -0.028254515 0.97769499
-0.021359192 -0.028695514 0.97753626
0.048999902 -0.029157057 0.97733659
0.093957715 -0.028210483 0.97946596
-0.093684554 -0.014910561 0.9813568
-0.074975848 -0.01491815 0.98134845
-0.056266848 -0.01491815 0.98134845
-0.037557606 -0.014918244 0.98134834
-0.018848345 -0.014902972 0.98136532
-0.00013940787 -0.014902972 0.98136532
0.018569784 -0.01491815 0.98134857
0.037278745 -0.014910561 0.98135692
0.055988055 -0.01491815 0.98134845
0.074696898 -0.014910561 0.9813568
0.093265556 -0.019528687 0.97428256
-0.11228414 -0.00011770986 0.97823083
-0.088606924 -0.0080293929 0.97769499
-0.021359192 -0.0080293929 0.97753626
0.048999902 -0.0080293929 0.97733659
0.093194373 -0.00011274405 0.98059219
0.09506011 -0.0080293929 0.97981298
-0.090895154 0.011003353 0.97954011
-0.074574962 0.0098035764 0.98137683
-0.055966068 0.0098035764 0.98137689
-0.037357103 0.0098034833 0.98137677
-0.02005362 0.011227602 0.97946495
-0.00013940787 0.0098185688 0.98139381
0.018469486 0.0098035764 0.98137689
0.03707831 0.0098110717 0.98138529
0.052343652 0.011450924 0.97935671
0.074296266 0.0098035764 0.98137689
0.099179596 0.012110854 0.98110884
-0.090647474 0.033341341 0.97955
-0.074178338 0.034261838 0.98140508
-0.055668548 0.03426189 0.98140514
-0.037158944 0.034254439 0.98139668
-0.020004019 0.03379333 0.97948319
-0.0001393376 0.034276456 0.98142171
0.018370336 0.03426189 0.98140514
0.036879893 0.034269191 0.98141342
0.052194867 0.034243912 0.97937089
0.073899522 0.03426189 0.98140514
0.093380474 0.032341816 0.97928447
-0.086763799 0.052689217 0.97711515
-0.021359192 0.053968966 0.97753626
0.083941258 0.046980426 0.98067605
-0.09235587 0.055729799 0.97828031
-0.073785812 0.058460757 0.98143286
-0.055374235 0.058460802 0.98143297
-0.036962729 0.058453634 0.98142469
-0.018550681 0.058482401 0.98145789
-0.00013936101 0.058482304 0.98145777
0.018272357 0.058453634 0.98142469
0.036683675 0.058467969 0.98144132
0.052047696 0.056907199 0.97938472
0.072204262 0.059154697 0.98078525
-0.07521522 0.075822353 0.97538406
-0.055088215 0.082256563 0.98128712
-0.036768548 0.082397431 0.98145223
-0.019906428 0.078530386 0.97951084
-0.00013929076 0.082418606 0.98147702
0.018175244 0.082397528 0.98145235
0.036490574 0.082369275 0.98141927
0.052273884 0.077731051 0.97880542
0.067017525 0.073537819 0.97099048
0.084701605 0.073074728 0.97584814
-0.036730766 0.099572942 0.97372335
-0.022914179 0.097294129 0.97563797
0.0043417173 0.098743148 0.98004258
0.018153835 0.099788718 0.97398013
0.038094558 0.091590255 0.98335344
0.052737605 0.097890005 0.97443807
-0.014732477 0.102659 0.98568088
-0.031533495 -0.092886426 0.99421811
0.0088185566 -0.090737246 0.99469829
-0.057889052 -0.077002212 0.99298286
-0.036767565 -0.08291965 0.99113011
-0.018453358 -0.082926773 0.99113834
-0.00013936101 -0.082926773 0.99113834
0.018174706 -0.082926773 0.99113834
0.036494322 -0.082684807 0.99085897
-0.092375986 -0.05574996 0.98757869
-0.073784173 -0.058894061 0.99115378
-0.055372901 -0.058894061 0.99115378
-0.036961511 -0.058901273 0.99116194
-0.018550446 -0.058901317 0.99116212
0.0049094381 -0.064467557 0.99310046
0.018271841 -0.058901273 0.99116194
0.036682904 -0.058901317 0.99116212
0.055093989 -0.058901317 0.99116212
0.069698267 -0.062599964 0.98967522
-0.060684744 -0.05028934 0.99522185
0.0099582374 -0.049365632 0.99503887
0.075831689 -0.048508666 0.99432784
-0.092685923 -0.03461241 0.9911778
-0.074176274 -0.034619808 0.99118602
-0.05817588 -0.031889588 0.99320388
-0.037157796 -0.034619808 0.99118596
-0.018648613 -0.034612313 0.99117768
0.0049094264 -0.03166236 0.99311656
0.018369868 -0.034619905 0.99118614
0.036878932 -0.03462721 0.99119425
0.05538835 -0.034619808 0.99118596
0.07569313 -0.031434268 0.99300694
-0.093181774 -0.010070571 0.99120194
-0.074572921 -0.010078066 0.99121028
-0.055964265 -0.010085655 0.99121857
-0.037356075 -0.010078066 0.99121028
-0.018747764 -0.010070477 0.99120188
-0.00013926733 -0.010070571 0.99120194
0.018469041 -0.010078066 0.99121028
0.037077211 -0.010085655 0.99121857
0.055685613 -0.010085655 0.99121857
0.074294582 -0.010070571 0.99120194
0.11208665 -0.0089853257 0.99307227
-0.060684744 -0.0080293929 0.99522185
0.0099582374 -0.0080293929 0.99503887
0.07748837 -0.0080293929 0.99483609
0.092001036 0.005594328 0.99301231
0.11030086 -0.0080293929 0.98773307
-0.093683288 0.014743444 0.99121791
-0.074973509 0.014720209 0.99124306
-0.05847482 0.013910394 0.99323249
-0.037556529 0.014727985 0.99123466
-0.018848086 0.014735574 0.99122643
0.0049094735 0.013687197 0.99313259
0.018569293 0.01472789 0.99123478
0.037277572 0.014712526 0.99125159
0.055986252 0.014720209 0.99124318
0.076091938 0.013466503 0.9930312
0.11048796 0.018883817 0.98755056
-0.060684744 0.034230553 0.99522185
0.0099582374 0.033306845 0.99503887
0.07748837 0.03242407 0.99483609
-0.094193794 0.03988941 0.99116665
-0.075378448 0.039787009 0.99127644
-0.056568634 0.039787009 0.99127644
-0.037759025 0.039794877 0.99126792
-0.018949462 0.03981062 0.99125105
0.0049094497 0.046892792 0.99314499
0.018670669 0.039802745 0.9912594
