ply
format ascii 1.0
comment PCL generated
element vertex 1322
property float x
property float y
property float z
element camera 0
property float view_px
property float view_py
property float view_pz
property float x_axisx
property float x_axisy
property float x_axisz
property float y_axisx
property float y_axisy
property float y_axisz
property float z_axisx
property float z_axisy
property float z_axisz
property float focal
property float scalex
property float scaley
property float centerx
property float centery
property int viewportx
property int viewporty
property float k1
property float k2
end_header
0.46295846 -0.084313825 -0.10457665
0.47622901 -0.086786881 -0.10227183
-0.47889835 -0.078884169 -0.10147324
-0.47612241 -0.06858626 -0.09986791
0.46840325 -0.068871468 -0.10757339
0.48142979 -0.080005661 -0.10144532
-0.46567324 -0.067375094 -0.096054703
0.47892052 -0.067055523 -0.10423571
-0.48141894 -0.044054959 -0.10002008
-0.46839738 -0.047587741 -0.098042548
0.4709782 -0.048586901 -0.10553956
0.48416561 -0.044126838 -0.1041761
-0.48119649 -0.028258203 -0.095859975
-0.47110388 -0.027852325 -0.10001764
0.47353604 -0.028352696 -0.10351911
0.48429269 -0.027746355 -0.10815611
-0.47211048 -0.0083071319 -0.10248306
0.47608757 -0.0081683397 -0.10150376
-0.48851568 0.0028603319 -0.10296232
0.47338721 -0.0062643462 -0.10291675
0.49151564 0.00058597978 -0.10290596
-0.473856 0.011489496 -0.1020259
0.47613069 0.01199073 -0.10146981
-0.48123926 0.032010548 -0.095826119
-0.46878675 0.0327546 -0.10111386
0.47126877 0.033815026 -0.10281819
0.48434502 0.0309867 -0.10819423
-0.46843979 0.050959554 -0.098073542
0.48166776 0.050640531 -0.10624054
-0.47869498 0.052174374 -0.097835958
0.47101074 0.052458551 -0.10551381
-0.47854185 0.081277609 -0.10462388
-0.47093526 0.071580008 -0.097963929
-0.46135053 0.073358908 -0.10147387
0.46386626 0.074422836 -0.10144722
0.47370982 0.071556687 -0.10590655
0.4815456 0.078945771 -0.10456645
-0.4736084 0.092650697 -0.10185352
0.47627106 0.090102836 -0.10230246
-0.45638114 0.11152391 -0.10078448
0.47357276 0.10991089 -0.10033348
-0.47105575 0.11296375 -0.10386986
0.45889366 0.11255975 -0.10075837
-0.46666059 0.13345225 -0.10734162
-0.44744465 0.14015687 -0.10033056
0.4498516 0.14094718 -0.10031053
0.46988291 0.1298362 -0.097640693
-0.44924265 0.15017432 -0.10849485
0.44932303 0.15436147 -0.096925825
-0.43873018 0.16794319 -0.10103852
0.4395147 0.16594009 -0.099945098
-0.44899371 0.17452875 -0.09559834
0.44098964 0.17540485 -0.10340586
-0.44067425 0.19563505 -0.10206765
-0.42913228 0.190653 -0.097635448
0.42930159 0.19063374 -0.099583954
0.44528553 0.19032659 -0.10419148
-0.41678804 0.2142576 -0.099247038
0.41921014 0.21503374 -0.099227071
0.43633488 0.21110694 -0.097764313
-0.43227696 0.21691093 -0.10859734
-0.42397955 0.2456416 -0.096973628
-0.41102728 0.23507738 -0.10382
0.40382722 0.24505349 -0.09813416
0.41183069 0.2386319 -0.098475128
-0.40837979 0.25948215 -0.10124946
-0.39767021 0.25454804 -0.098972946
0.39584029 0.25611261 -0.098703921
0.41688168 0.25207254 -0.10838157
-0.38028967 0.27261493 -0.098543674
0.38267079 0.27327043 -0.098526657
0.39896351 0.27445105 -0.095722377
-0.36719629 0.28967711 -0.098367542
0.36958018 0.29032573 -0.098350644
0.3824513 0.28237376 -0.096650094
-0.37435603 0.30399904 -0.10121503
-0.36863211 0.29712108 -0.10060403
-0.35418704 0.30664867 -0.098192066
0.35656756 0.30727938 -0.098175585
0.36560398 0.31823224 -0.097083956
-0.34029049 0.32594979 -0.098332405
0.34363228 0.3241322 -0.09800154
0.34785974 0.32749796 -0.096556515
0.36307383 0.32687441 -0.095619082
-0.35147685 0.34048754 -0.10407233
-0.3350015 0.34584516 -0.10318309
-0.32786334 0.33934078 -0.097869396
0.33407781 0.34335807 -0.099519879
-0.31690019 0.35087785 -0.096490592
-0.30849561 0.35827163 -0.10220978
-0.29682744 0.36314937 -0.097778648
0.29924712 0.36380327 -0.097761035
0.31474543 0.35190684 -0.097806573
-0.30308986 0.37487856 -0.10184601
-0.28134885 0.37503117 -0.097732961
0.28376651 0.37567016 -0.097715884
0.297961 0.37790549 -0.1047101
-0.2911498 0.38341784 -0.10454395
-0.26588812 0.38688365 -0.09768787
0.26831663 0.38752949 -0.097670496
-0.27022725 0.40005243 -0.099307686
-0.25013295 0.40095118 -0.10323152
-0.23504514 0.41054404 -0.09759751
0.25289074 0.39937022 -0.097625166
0.26010042 0.40223739 -0.1080417
0.27289772 0.40252632 -0.10744029
-0.2601133 0.41101396 -0.10643047
-0.22877711 0.42357424 -0.10299778
-0.21757896 0.41909325 -0.097641736
0.22008249 0.41982406 -0.097621739
0.23508494 0.41627955 -0.10032195
0.24721014 0.41259769 -0.10186166
-0.22567564 0.42779496 -0.10452721
-0.19941254 0.42661974 -0.097714365
-0.18120047 0.43416494 -0.097787321
0.18735631 0.43669257 -0.099994093
0.20192987 0.42735934 -0.097694069
-0.18715434 0.44062126 -0.10215753
-0.1653197 0.44465312 -0.099974036
-0.16294979 0.44173974 -0.097860008
-0.14464615 0.44932306 -0.097933352
0.14717743 0.45004717 -0.097913086
0.15038995 0.45512784 -0.10140142
0.16547412 0.4424656 -0.097839862
0.19047081 0.44375119 -0.10350037
-0.14972787 0.45961586 -0.10198423
-0.14727929 0.45878801 -0.10311794
-0.1263037 0.456936 -0.098006457
-0.11009157 0.46402478 -0.099456072
-0.10244733 0.46759319 -0.10093734
-0.084692918 0.46734419 -0.099348009
-0.062660754 0.46846291 -0.098552734
0.065371707 0.46938753 -0.098526388
0.087590575 0.46714455 -0.099354386
0.11298818 0.46381855 -0.099462777
0.12809204 0.4615396 -0.10036209
-0.081519015 0.47070938 -0.10799327
-0.056162007 0.47284442 -0.099934131
-0.040472943 0.47139853 -0.098764449
-0.022199476 0.47733134 -0.10135907
-0.0016116061 0.47829592 -0.099164665
0.0026932035 0.47922963 -0.10242903
0.020876851 0.47530514 -0.098950356
0.037139535 0.47375128 -0.099148393
0.059241831 0.47152305 -0.099972546
0.10419817 0.47061598 -0.10778171
-0.06872379 -0.47327736 -0.080142528
-0.036659215 -0.47738925 -0.079553336
-0.011402592 -0.48073167 -0.079486907
0.0076752775 -0.48061144 -0.083729774
0.019150194 -0.47799969 -0.083724916
0.044563264 -0.47415763 -0.079918832
-0.14976321 -0.45737055 -0.091270566
-0.13097455 -0.46047202 -0.080814034
-0.097574554 -0.46944368 -0.080426186
0.073036678 -0.47039506 -0.080198586
0.10191703 -0.46656892 -0.080482364
0.13027871 -0.45720148 -0.091661334
-0.17136382 -0.44365644 -0.081361204
-0.15508312 -0.44446662 -0.084815204
-0.14395003 -0.45290968 -0.080740184
0.1363764 -0.45542938 -0.084107429
-0.19046038 -0.43520755 -0.08287257
0.17517692 -0.43902218 -0.081099838
0.21116918 -0.43111488 -0.084401518
-0.22746713 -0.41398489 -0.08040601
-0.21720131 -0.42370257 -0.081404209
0.21638422 -0.42239994 -0.08467266
-0.27955985 -0.38697848 -0.082488358
0.26096961 -0.39290327 -0.082253903
0.28508353 -0.38522559 -0.092064291
0.29021642 -0.37173283 -0.083871543
-0.29684824 -0.36254323 -0.086914182
0.31836656 -0.36121318 -0.086240262
-0.35158545 -0.33770069 -0.093290389
-0.33239263 -0.34419972 -0.080462843
0.32519555 -0.34560344 -0.08720082
0.34660858 -0.33741409 -0.083880991
-0.35253859 -0.31880057 -0.087923914
0.36466411 -0.29962978 -0.084095776
0.38043296 -0.29322833 -0.082630366
-0.39045367 -0.27670497 -0.089086741
-0.38245147 -0.27237102 -0.085494876
0.39882556 -0.25531861 -0.084313422
0.41357568 -0.24995981 -0.081421763
-0.42331475 -0.23784079 -0.088217676
0.40396032 -0.24191196 -0.08722502
-0.4117842 -0.22978507 -0.081597388
0.42716458 -0.22839729 -0.091179341
0.435442 -0.21955854 -0.079384536
-0.42810547 -0.21257463 -0.084262252
0.42294875 -0.2128444 -0.091656387
-0.44241419 -0.19259374 -0.079664648
0.43138248 -0.19164461 -0.085200697
0.44564262 -0.1950859 -0.079622418
-0.45275301 -0.16780972 -0.07990551
0.45403668 -0.16877861 -0.08226642
-0.46321708 -0.14272581 -0.080149412
-0.45688748 -0.14973034 -0.089460254
-0.44594741 -0.1476294 -0.081660092
0.46095821 -0.14676645 -0.09112817
0.46641448 -0.14525077 -0.080107033
-0.46439657 -0.12907037 -0.083621264
0.45745918 -0.1295924 -0.090599179
-0.47181854 -0.11292084 -0.080470085
-0.4557659 -0.12714666 -0.088824898
0.47541603 -0.11638495 -0.080412179
-0.46855226 -0.10871859 -0.080389678
-0.46020329 -0.10710613 -0.092063069
0.46198836 -0.10913549 -0.08707732
-0.46294186 -0.087214485 -0.094061524
-0.45651129 -0.094723001 -0.083099574
0.46121943 -0.08841747 -0.082995296
0.4645552 -0.088842526 -0.08508119
-0.47701201 -0.074613169 -0.080929816
0.46712652 -0.068599179 -0.083081782
0.48057878 -0.078078613 -0.080872178
0.46968079 -0.048406038 -0.081095636
0.48304585 -0.043255344 -0.081098437
-0.48231781 -0.035419539 -0.081400186
0.48292103 -0.027857743 -0.082852602
-0.48372421 -0.0081683397 -0.093863428
-0.466912 -0.016524151 -0.081991225
0.47170258 -0.010157837 -0.081885576
0.48561898 -0.0081683397 -0.084853232
0.48989463 0.0044113826 -0.081877023
-0.48442271 0.011434047 -0.087907463
0.48566088 0.011494899 -0.084884286
-0.46453956 0.030035894 -0.081400633
0.46806976 0.033418637 -0.081344217
0.48297355 0.031209461 -0.082891554
0.46206099 0.048463359 -0.0795407
0.48026875 0.050975852 -0.080885977
0.46972418 0.052186951 -0.081061959
-0.45943391 0.069106445 -0.080930263
0.46298376 0.072464854 -0.080874115
0.46715912 0.072404861 -0.083056539
-0.46907559 0.090024695 -0.088592678
0.46459863 0.092672288 -0.085047603
0.47983605 0.083065897 -0.08298856
-0.4573411 0.10892442 -0.086282432
0.45801708 0.11065347 -0.080414146
-0.46859539 0.11248945 -0.08035624
0.46203193 0.11298971 -0.087043345
-0.46453756 0.13287449 -0.083511651
-0.4559159 0.13062972 -0.088934362
-0.44601238 0.13710342 -0.080148429
0.44921586 0.13959193 -0.080106407
0.45759037 0.13348415 -0.090497226
-0.45702943 0.1536058 -0.089350015
-0.44610962 0.15120342 -0.081778467
0.46109715 0.15021895 -0.091229469
-0.43564618 0.16210988 -0.079904735
0.43887705 0.16460721 -0.079862416
0.4522475 0.17077415 -0.084771633
-0.42540988 0.18682982 -0.079663843
0.43008363 0.19250253 -0.082364082
-0.42621684 0.21417558 -0.086688042
-0.41528928 0.21124372 -0.07942608
0.41856864 0.21374373 -0.079383343
0.42307252 0.21696222 -0.091561586
-0.42266524 0.23724005 -0.090314567
-0.41197312 0.23357394 -0.081733078
0.42731822 0.23206401 -0.091289699
0.39907733 0.25954637 -0.084123671
0.41386479 0.25373688 -0.081629246
-0.39418149 0.27924731 -0.085897893
-0.38282648 0.27630821 -0.085759878
0.37764511 0.27708623 -0.083762795
0.3649345 0.30407304 -0.083895355
0.38072965 0.2972112 -0.082839847
-0.34930563 0.32036847 -0.08717069
-0.35636985 0.32588661 -0.088736236
-0.33281329 0.34879702 -0.080155909
0.32570451 0.35027424 -0.086829364
0.34690136 0.34160864 -0.084084332
0.31686839 0.36540586 -0.088448018
-0.303354 0.37509054 -0.081160724
-0.294949 0.37903178 -0.082993865
0.28371146 0.37482953 -0.081728339
0.29336789 0.37497565 -0.084153622
0.30538133 0.36933923 -0.083188683
-0.28161955 0.39355806 -0.092649072
0.26198933 0.39322197 -0.093394727
0.28572068 0.38972428 -0.092492849
0.26040906 0.40015239 -0.081426263
-0.23163824 0.41983721 -0.084013432
0.21659786 0.42176786 -0.082080901
0.23606154 0.41742289 -0.081997901
0.25277457 0.41671339 -0.088609695
-0.22249217 0.42624539 -0.080231756
-0.18871367 0.43876544 -0.081351697
0.1943353 0.43449825 -0.081436485
0.21550263 0.4279353 -0.086505324
-0.19282834 0.44112149 -0.091067791
-0.15823478 0.44934011 -0.086830676
-0.14808771 0.45544937 -0.080804378
0.15369116 0.45113838 -0.080889702
0.17335023 0.440965 -0.091429621
-0.1449578 0.45861381 -0.080062509
-0.1256723 0.46345049 -0.086658269
-0.1102499 0.46603662 -0.081423432
-0.085685447 0.46792632 -0.080135882
0.061452463 0.4687244 -0.079912752
0.088272773 0.46645486 -0.081359923
0.11355214 0.46356797 -0.083903909
0.14211752 0.46061182 -0.085962653
-0.057120673 0.4716306 -0.079856128
-0.022664422 0.47366226 -0.079409808
-0.0023564743 0.47732291 -0.079338342
0.0061440049 0.47503483 -0.079382509
0.03325763 0.47236016 -0.079636991
-0.077492304 -0.47186071 -0.078961015
-0.05535306 -0.47478539 -0.07910189
-0.019866563 -0.47378591 -0.077968985
0.039784856 -0.47682062 -0.078415394
0.059060562 -0.47707552 -0.079058379
0.081184603 -0.47416705 -0.078917503
-0.14122833 -0.46066105 -0.078591734
-0.12439571 -0.46493745 -0.077556968
-0.10586973 -0.46584865 -0.071675211
-0.099481508 -0.46896753 -0.078820914
-0.084334418 -0.46790519 -0.066921979
-0.040921342 -0.46927398 -0.067752928
0.064485461 -0.46848971 -0.067195624
0.086531118 -0.46581176 -0.071760684
0.10315116 -0.47127938 -0.078777462
0.10810681 -0.4637537 -0.076517552
0.12496155 -0.4684121 -0.078638464
0.14464089 -0.46267393 -0.078554302
-0.17407495 -0.4456526 -0.071533948
-0.159573 -0.45305535 -0.078542978
0.15694655 -0.45039403 -0.071689159
0.16655968 -0.44483906 -0.064939141
0.18125255 -0.44750172 -0.07845667
-0.21433169 -0.43035218 -0.078397006
-0.19612448 -0.43790096 -0.078445494
0.19949301 -0.4399493 -0.078408003
0.21768773 -0.43241596 -0.078359365
-0.25000817 -0.41433734 -0.078318
-0.23432179 -0.42124131 -0.07467714
0.21664371 -0.41952005 -0.071293414
0.23583028 -0.42489082 -0.078310996
0.25326076 -0.41630539 -0.078282446
-0.26544979 -0.40249878 -0.07834807
0.2686891 -0.4044793 -0.078312486
-0.28091544 -0.39064166 -0.078378111
-0.26461646 -0.39111885 -0.077075303
0.28413504 -0.39262405 -0.078342646
-0.30158457 -0.37067428 -0.074195087
-0.29640508 -0.37876612 -0.078408241
0.28377038 -0.37241665 -0.070832491
0.29960504 -0.38075003 -0.078372896
0.31509918 -0.36885735 -0.078403324
-0.32745075 -0.35494852 -0.078468889
-0.31191894 -0.3668721 -0.07843852
-0.2932671 -0.36440358 -0.073702961
0.33062395 -0.3569572 -0.078433514
-0.34301302 -0.34301743 -0.078499258
-0.32313126 -0.34062555 -0.068977803
0.34616688 -0.34502763 -0.078463882
-0.35639125 -0.32702255 -0.078600496
0.35957247 -0.32911983 -0.07856369
-0.36939561 -0.31011653 -0.078716636
-0.35211989 -0.3203862 -0.066067398
0.34669289 -0.32144988 -0.071513593
0.36682108 -0.31427267 -0.073818743
-0.38247752 -0.29310924 -0.078833431
-0.36643186 -0.29695782 -0.074158102
0.3856228 -0.29521683 -0.078796893
0.39876834 -0.27811828 -0.078914493
-0.39667794 -0.27536359 -0.075385511
-0.38639852 -0.27586022 -0.06646952
0.37945199 -0.27553052 -0.072256118
0.39448202 -0.27245584 -0.067711323
-0.40709084 -0.25656304 -0.078483641
-0.39486539 -0.25185156 -0.069448531
0.411993 -0.26091707 -0.079032689
-0.4204416 -0.23684819 -0.073470265
0.41337436 -0.2331868 -0.07335189
0.42529163 -0.24360017 -0.079151809
0.42747054 -0.21036562 -0.069409162
-0.43790117 -0.19090191 -0.078652263
-0.42604193 -0.18917765 -0.067134351
0.44318095 -0.18788612 -0.078155518
-0.4407835 -0.16915762 -0.073628008
0.43974945 -0.17061269 -0.078796327
-0.4530724 -0.14927004 -0.06703943
0.44787455 -0.1497585 -0.07257688
0.4554249 -0.12909435 -0.066797435
0.46757656 -0.12718393 -0.071474344
0.47206885 -0.10713349 -0.074805647
-0.47090396 -0.088517338 -0.078561008
-0.45851821 -0.087780297 -0.066267312
0.47479531 -0.08723633 -0.076827347
-0.47325051 -0.068361834 -0.07673654
-0.461532 -0.06779097 -0.068501979
0.47751456 -0.06739144 -0.078843474
-0.4700644 -0.048055653 -0.072823167
0.46213523 -0.044943299 -0.067835897
-0.47792745 -0.028187495 -0.073099524
-0.46753353 -0.027985241 -0.07295239
0.4722397 -0.028262382 -0.079105854
-0.48026866 -0.0081683397 -0.071278989
-0.4705213 -0.0081683397 -0.075167835
0.47478133 -0.0081683397 -0.077129424
-0.48030072 0.011827804 -0.071254194
-0.47057423 0.011619521 -0.075207144
0.47482437 0.011900643 -0.077096015
-0.47797033 0.03186914 -0.073066384
-0.46757612 0.031464648 -0.07298395
0.47227198 0.03201912 -0.079080701
-0.46457973 0.051366974 -0.070762008
-0.48177722 0.052531883 -0.072604477
-0.47563449 0.051955812 -0.074882746
-0.47329345 0.072087988 -0.076702923
-0.46157485 0.071326867 -0.068533808
0.47755671 0.070794165 -0.078874886
-0.47094703 0.092265815 -0.07852751
-0.45856115 0.091344565 -0.066299021
0.47483775 0.090664625 -0.07685864
0.47211137 0.11058743 -0.07483694
0.45554486 0.13290392 -0.066705555
0.46772602 0.13067321 -0.071585208
-0.45320323 0.15308066 -0.066939354
0.44798434 0.15364054 -0.072492748
0.45796263 0.15125358 -0.064345419
-0.44839376 0.1822689 -0.073428303
-0.44092584 0.17293234 -0.073633403
0.42821041 0.18145649 -0.07494387
0.43987119 0.17457101 -0.078703105
-0.43804511 0.19485511 -0.078542113
-0.42620724 0.19293742 -0.06725502
0.44332227 0.19150467 -0.078258544
0.42760888 0.21423417 -0.069418699
-0.41890892 0.23643444 -0.067647964
-0.40529421 0.23538099 -0.079190791
0.41102016 0.23754345 -0.076208144
-0.40558764 0.25848001 -0.077684432
-0.3936919 0.25435057 -0.074387759
0.39529976 0.25506607 -0.079030514
-0.37896824 0.27010369 -0.078949153
0.38212594 0.27223501 -0.078912258
-0.38666275 0.28007987 -0.066273451
-0.36586425 0.28719217 -0.078831375
0.36903095 0.28930122 -0.078794718
0.38142177 0.28105277 -0.071669549
0.3947989 0.27640703 -0.067938745
-0.36674544 0.30120444 -0.074194014
-0.35283241 0.30416748 -0.078714639
-0.3721773 0.3074857 -0.071724415
0.3541984 0.30665776 -0.075647831
0.36140561 0.32047853 -0.069187135
-0.35236764 0.32482633 -0.065886497
-0.33988419 0.32105312 -0.078598291
0.34307462 0.32312918 -0.078561783
0.34694242 0.32596067 -0.071331441
-0.32519317 0.34101173 -0.073973596
-0.31103268 0.3489975 -0.078465849
0.32974324 0.33906478 -0.078461051
-0.32521236 0.3561615 -0.070658535
-0.29608083 0.36299601 -0.077903479
0.29870999 0.36288762 -0.078400224
0.3098914 0.35343745 -0.074834496
0.32020277 0.3641465 -0.075397044
-0.30018106 0.37346965 -0.077799022
-0.29387721 0.36891955 -0.074120134
-0.2800087 0.37278613 -0.07840538
0.28322336 0.37476024 -0.078370005
-0.26398033 0.38897237 -0.07862246
0.26776722 0.38662511 -0.078339785
-0.26689559 0.39862901 -0.075404823
-0.24908109 0.39650071 -0.07834506
-0.2336601 0.40834108 -0.078314841
0.23692085 0.41028887 -0.078279495
0.2523354 0.39847171 -0.078309447
-0.2161611 0.41687614 -0.078344822
-0.19797382 0.4244076 -0.078393251
0.2195134 0.4189342 -0.078307122
-0.21327813 0.42856818 -0.066683412
-0.1838413 0.43285906 -0.07711187
-0.16147618 0.43954861 -0.078490436
0.18851858 0.43122754 -0.072679371
0.20134546 0.42646092 -0.0783557
0.21104905 0.43330073 -0.074786484
-0.17024699 0.44791818 -0.075358927
-0.14315873 0.44714755 -0.078539163
-0.1247953 0.45476574 -0.078588068
0.14657457 0.4491654 -0.078501642
0.15788524 0.44469121 -0.077041686
0.1697149 0.44972754 -0.066991389
-0.10487503 0.46026483 -0.078677207
-0.083651669 0.46655604 -0.07822147
-0.060940374 0.46610543 -0.078956336
-0.038736701 0.46905708 -0.07909745
0.064840488 0.46914968 -0.078326672
0.086673699 0.46547472 -0.078772813
0.1085401 0.46257046 -0.078633964
0.1282234 0.45676827 -0.078550607
-0.062865324 0.47195813 -0.072857916
-0.041492335 0.47397146 -0.06810683
-0.019856181 0.47575021 -0.068226963
0.0010179918 0.48000944 -0.078071296
0.021408059 0.47605246 -0.075085849
0.042952836 0.47296041 -0.073313236
-0.053157803 -0.47177702 -0.059394181
-0.038268533 -0.47363716 -0.058911741
-0.017298546 -0.47597224 -0.056222349
-0.008318983 -0.47767654 -0.059536994
0.0067967731 -0.47730219 -0.056194127
0.020800479 -0.47305104 -0.058626443
0.035043512 -0.47766718 -0.059437215
0.057342857 -0.47472167 -0.059366286
0.079490468 -0.47180778 -0.059295654
-0.13937236 -0.45794654 -0.059135854
-0.11923727 -0.46310607 -0.059183538
-0.098596521 -0.46630371 -0.059654266
-0.075344458 -0.46886966 -0.05932343
-0.065328389 -0.46837029 -0.05984652
0.043617349 -0.4699114 -0.062285393
0.04748445 -0.47040093 -0.059810519
0.080641933 -0.46557412 -0.058495432
0.10322411 -0.46583056 -0.059659481
0.12330686 -0.46603134 -0.059156239
0.1431492 -0.46049225 -0.059112102
-0.17607471 -0.44275185 -0.05908671
-0.15774305 -0.45033431 -0.059111267
-0.14133926 -0.4514707 -0.058304071
0.13122177 -0.45265952 -0.056087404
0.14110833 -0.45053396 -0.060319513
0.16149546 -0.45288619 -0.059087694
0.17480254 -0.44488943 -0.061203271
-0.21258625 -0.4276228 -0.059038132
-0.19435339 -0.43517789 -0.059062392
-0.17470671 -0.43961653 -0.060535282
0.18169563 -0.43363103 -0.06059444
0.19805014 -0.43773109 -0.059039026
0.21626586 -0.4301925 -0.059014618
-0.23077354 -0.42008668 -0.059013784
-0.21455139 -0.4230426 -0.058812261
0.19394587 -0.42631084 -0.05622682
0.21748151 -0.41870195 -0.061836332
0.23677096 -0.41846612 -0.060069293
0.25189218 -0.41409111 -0.058975935
-0.26038691 -0.40218356 -0.055766881
-0.24833186 -0.41162506 -0.058998168
0.23756836 -0.404349 -0.053061545
0.26733553 -0.40225095 -0.058990896
-0.27926937 -0.38788429 -0.059028506
-0.26173437 -0.3925283 -0.052955836
0.25674969 -0.39371139 -0.057835758
0.27892691 -0.3895674 -0.059433162
-0.29149398 -0.37265673 -0.058673978
-0.27810302 -0.36966416 -0.052781969
0.29420891 -0.37362948 -0.059724659
0.30189937 -0.36849874 -0.050345689
-0.32557213 -0.35293376 -0.059430748
-0.31030995 -0.36408007 -0.059058696
0.2989611 -0.36003542 -0.061550975
0.30827871 -0.36153966 -0.058200896
0.32933688 -0.35468337 -0.059051454
-0.3414413 -0.34019035 -0.059089124
-0.32756722 -0.34325945 -0.058134258
0.3228803 -0.34427649 -0.062961876
0.33523551 -0.34075442 -0.050697893
0.34489477 -0.34273946 -0.059066832
-0.35098156 -0.32921344 -0.054516017
0.32762748 -0.33405152 -0.050754219
0.35821912 -0.32664093 -0.059118211
-0.34015796 -0.31898579 -0.055614114
0.37122497 -0.30973071 -0.059176326
-0.36911488 -0.30313981 -0.058306724
0.35245672 -0.30443776 -0.061612368
0.3678543 -0.29703173 -0.056533337
0.3843087 -0.29271951 -0.059234798
-0.38082832 -0.28997514 -0.05925858
-0.39400223 -0.27283284 -0.059317499
-0.37405509 -0.2747162 -0.054505557
-0.37065414 -0.27315736 -0.05253011
0.39747083 -0.27560624 -0.059293568
-0.40725535 -0.25558704 -0.059376806
-0.4012416 -0.25356764 -0.055462956
0.39613304 -0.25438637 -0.060760856
0.40879905 -0.25515398 -0.055513501
-0.42019323 -0.23744196 -0.059443206
0.40967667 -0.23244554 -0.050718158
0.42386258 -0.24072622 -0.059415221
-0.4057436 -0.23152345 -0.05232209
0.42375946 -0.22985332 -0.063982964
-0.42838478 -0.21222201 -0.060752004
-0.41594112 -0.21024951 -0.059763551
0.43396446 -0.21652959 -0.059532821
-0.43732136 -0.18945906 -0.057929248
0.42885163 -0.19093746 -0.061690927
0.44109026 -0.19063877 -0.054594845
-0.44846967 -0.17925461 -0.062047809
0.42829749 -0.17838171 -0.063646525
-0.45085466 -0.16376276 -0.059801668
-0.44174039 -0.16948383 -0.050446033
0.44223335 -0.16919822 -0.056422055
0.45453265 -0.1672627 -0.059772134
-0.44023952 -0.1487111 -0.052713245
0.44410574 -0.14929728 -0.050198138
0.45781183 -0.14767258 -0.06423375
-0.45735389 -0.13178062 -0.0604285
0.46500331 -0.14218217 -0.059894055
-0.46704015 -0.10775799 -0.059052974
-0.45333746 -0.1075668 -0.06274718
0.45960343 -0.1087385 -0.06359899
0.47348845 -0.11210816 -0.060056657
-0.46722001 -0.088252023 -0.05621025
0.45987397 -0.092546418 -0.061580181
-0.47197387 -0.068414018 -0.057372987
0.47151187 -0.071082488 -0.060130596
0.47339854 -0.067808777 -0.051130295
-0.48198712 -0.048646342 -0.061632782
-0.47190025 -0.048119877 -0.052627772
0.47154126 -0.04806542 -0.055778623
-0.47967359 -0.02930811 -0.060565501
-0.4742327 -0.028121613 -0.050842255
-0.46178946 -0.028363792 -0.060908556
0.46904099 -0.028191334 -0.056374997
0.48168415 -0.031290129 -0.058076769
0.46978748 -0.013221719 -0.057703048
0.4823373 -0.0081683397 -0.057865113
0.47141659 0.011831738 -0.054556668
0.48441046 0.012093121 -0.059358776
-0.48004684 0.022845576 -0.060905397
-0.47427547 0.03173738 -0.050809562
-0.46185213 0.023950934 -0.060565621
0.46038032 0.034450252 -0.058046937
0.467621 0.030495577 -0.058436513
0.47940516 0.03147665 -0.055656016
-0.48008186 0.03835145 -0.051511735
-0.47194329 0.051757727 -0.0525949
0.47642204 0.05138503 -0.053408384
-0.45676461 0.063184127 -0.060329378
0.46672466 0.051967673 -0.058148026
-0.46959487 0.071823686 -0.054392278
0.46105391 0.068182975 -0.060287565
0.46890593 0.071727216 -0.055556208
-0.46725217 0.091934711 -0.056185454
0.46201155 0.092285678 -0.061755717
0.47643161 0.091271043 -0.061376482
-0.46996206 0.10195577 -0.061464399
-0.45366466 0.10648084 -0.062078118
0.4560588 0.10639513 -0.060057551
-0.46491489 0.11209057 -0.057974726
0.45964673 0.11251333 -0.063565761
-0.4555119 0.13205934 -0.060687214
-0.4440909 0.13300736 -0.05992341
0.44777107 0.13651192 -0.059893847
-0.4404034 0.15243945 -0.052834809
0.44422632 0.15311265 -0.050107241
-0.4337188 0.1580811 -0.05980128
0.43741584 0.16155279 -0.059771866
-0.44186106 0.17330119 -0.050355136
-0.4234767 0.18286672 -0.059680343
0.42717874 0.18628182 -0.059651375
0.4423646 0.17297897 -0.056436867
-0.4342657 0.19419344 -0.056077808
0.42897409 0.19489673 -0.061598688
0.43814707 0.1930013 -0.049651772
-0.42661497 0.21523729 -0.061841935
-0.41472936 0.21072428 -0.059723228
0.41706333 0.21071666 -0.059532225
-0.41908187 0.24202599 -0.055373579
-0.40463385 0.23350263 -0.055948138
0.3991307 0.24161719 -0.056165069
0.4084371 0.23567884 -0.055020392
0.4239254 0.23365091 -0.06410408
-0.3960039 0.25368714 -0.057322681
0.39518097 0.25554508 -0.059971601
0.40721792 0.2558662 -0.051912069
-0.37730306 0.26693931 -0.059316695
0.38080403 0.26972288 -0.059292585
-0.37441182 0.27883595 -0.054761678
-0.36678264 0.28194973 -0.054506987
0.36769238 0.28680405 -0.059233755
-0.36760536 0.30184242 -0.054767191
-0.35114104 0.30106947 -0.059199095
0.35465887 0.30378345 -0.059175342
0.36813298 0.30128852 -0.056563765
-0.33817372 0.3179765 -0.059140891
0.34170282 0.32066178 -0.059117377
-0.34050065 0.32331869 -0.055856168
-0.32498199 0.33425075 -0.059087694
-0.34716299 0.33694929 -0.060712159
-0.32798761 0.34779841 -0.05783233
-0.30941495 0.34619039 -0.059072495
0.31291035 0.34872249 -0.059050083
0.3264389 0.34071973 -0.061129928
0.33592492 0.34509405 -0.051185012
-0.29387227 0.3581115 -0.059057266
0.29738441 0.36062771 -0.059034884
0.31681582 0.35613918 -0.061541766
-0.3024039 0.37042588 -0.061398178
-0.29538843 0.37239376 -0.055274576
-0.27836034 0.37002483 -0.059042096
0.28188273 0.37251452 -0.059019774
0.29057568 0.37355345 -0.060113311
0.30607718 0.36906278 -0.055708766
-0.27852261 0.38809079 -0.052890688
-0.26286602 0.3819086 -0.059027046
-0.24739587 0.393774 -0.059011936
0.26276311 0.38610789 -0.056239665
0.27575317 0.39343712 -0.060335815
-0.25955161 0.40213063 -0.057964921
-0.23195648 0.40563154 -0.058996648
0.2365275 0.40731439 -0.061406314
0.25095823 0.39624333 -0.058989584
0.25719377 0.39871469 -0.057527125
-0.23380734 0.41767821 -0.060811102
-0.21473303 0.41982371 -0.059023023
-0.1962074 0.42169175 -0.059036195
0.19990653 0.42424852 -0.05901289
0.21808851 0.416706 -0.05898872
0.24153277 0.41518655 -0.061995506
-0.19139424 0.43497294 -0.056140006
-0.17795573 0.42925921 -0.059060514
-0.1596583 0.43684551 -0.059084922
0.16340594 0.43939042 -0.059061348
0.17147616 0.43505138 -0.05200386
0.18167904 0.43180993 -0.059037149
0.1991068 0.4288196 -0.060589403
0.21250588 0.42635784 -0.062167525
-0.15140638 0.45143878 -0.0602566
-0.14527056 0.44868225 -0.058069557
-0.12291811 0.45206505 -0.059133947
0.12772411 0.4544442 -0.059870332
0.14507976 0.44697919 -0.059085816
0.158301 0.44556728 -0.060314626
0.16971621 0.4467074 -0.053646773
-0.13748033 0.45779854 -0.058370978
-0.11692606 0.46137714 -0.060051918
-0.10278185 0.45730218 -0.059181213
-0.084393337 0.46266523 -0.059580475
-0.059348147 0.4688105 -0.059770226
-0.058769044 0.46312979 -0.059321105
-0.036533333 0.46608564 -0.059391767
-0.014129542 0.46905211 -0.059463084
0.038427457 0.46884078 -0.0595164
0.063654222 0.46553135 -0.059550315
0.084976807 0.46311161 -0.059223473
0.093036361 0.46130174 -0.059947401
0.10685938 0.46019149 -0.059154004
0.12838066 0.45813012 -0.060837805
-0.036028106 0.4718715 -0.058783829
-0.020198181 0.47596535 -0.063401461
-0.0041403077 0.47499251 -0.059506297
0.0047232318 0.4739871 -0.061517358
0.018377291 0.47198746 -0.059434921
0.063904576 0.47116682 -0.057633668
-0.022914805 -0.47295624 -0.039629281
-0.0056640878 -0.47415289 -0.039629281
0.010298797 -0.47760177 -0.03962934
0.032807928 -0.47465223 -0.03962934
0.055155262 -0.47172391 -0.03962937
-0.12611988 -0.45761907 -0.037895381
-0.1171613 -0.46011937 -0.039629281
-0.099063754 -0.46290666 -0.03962931
-0.083554037 -0.46008983 -0.046957761
-0.073566012 -0.46627057 -0.03962934
-0.048180696 -0.46961853 -0.03962934
0.022183176 -0.47041768 -0.039629251
0.05040751 -0.46664184 -0.039629281
0.078188352 -0.46580935 -0.03962934
0.099364087 -0.46591923 -0.03962937
0.10725698 -0.4588148 -0.041410834
0.12123672 -0.46305323 -0.03962934
0.14130013 -0.45778781 -0.03962937
-0.15591556 -0.44761693 -0.03962934
-0.13817619 -0.45303097 -0.03962931
-0.12901826 -0.45135823 -0.037412524
-0.10513645 -0.45543435 -0.036416531
0.12737772 -0.45376134 -0.038294792
0.14570713 -0.44488996 -0.03962934
0.15967233 -0.45017532 -0.03962934
0.17799851 -0.44258201 -0.03962937
-0.18758622 -0.43316826 -0.040104419
-0.17426614 -0.44001746 -0.039629281
0.17151202 -0.4330225 -0.041335613
0.18645643 -0.4278774 -0.039629191
0.19627179 -0.43499678 -0.03962937
0.21451321 -0.42745194 -0.03962934
-0.22904916 -0.41734391 -0.039629281
-0.21467265 -0.41880152 -0.042837322
-0.20669568 -0.41962117 -0.03854239
0.2042437 -0.42041168 -0.041560858
0.23411408 -0.41720831 -0.04395166
-0.26212314 -0.39702225 -0.03962934
-0.24664472 -0.40889522 -0.03962934
0.22908048 -0.40948385 -0.039629281
0.25020224 -0.41135672 -0.03962934
0.26566404 -0.39949936 -0.03962943
-0.27810195 -0.3854948 -0.040891111
-0.24673808 -0.39316052 -0.041889131
0.25208816 -0.39260486 -0.035103559
0.2591663 -0.38562375 -0.042677581
0.2811498 -0.38762334 -0.03962934
-0.29314587 -0.37320963 -0.039629281
-0.27758959 -0.36865175 -0.037323147
0.29104552 -0.37172836 -0.038764745
-0.30869678 -0.3612808 -0.039629281
-0.29605487 -0.36105505 -0.039629459
0.31218764 -0.36380494 -0.03962934
-0.33986562 -0.33735633 -0.03962934
-0.3235141 -0.34582978 -0.03778398
0.31047419 -0.34654108 -0.03962934
0.32293403 -0.34760174 -0.040140539
0.34332263 -0.33991185 -0.03962934
0.35653695 -0.32355988 -0.03962937
-0.35058647 -0.32013181 -0.04149425
0.34276232 -0.32045013 -0.048685312
0.35242912 -0.31907922 -0.037514836
-0.36605996 -0.30389395 -0.03962934
-0.35284933 -0.29802668 -0.039278448
0.35809755 -0.29760155 -0.037673682
0.36955592 -0.30661711 -0.03962934
-0.37916842 -0.2868208 -0.03962934
0.38265279 -0.28957275 -0.03962934
-0.39235568 -0.26964483 -0.039629191
-0.38237989 -0.27501938 -0.043985516
0.38169363 -0.27535567 -0.042922109
0.39648926 -0.26847902 -0.037729651
-0.40562257 -0.25236553 -0.039629281
-0.38660875 -0.25401023 -0.038358897
0.39212763 -0.25361311 -0.03835842
0.40908331 -0.25517613 -0.03962937
-0.41871437 -0.23642898 -0.041937292
0.39922184 -0.23883259 -0.045121074
0.42194587 -0.23687176 -0.03962937
-0.41504261 -0.23166798 -0.045229286
0.41779509 -0.23159276 -0.034560502
-0.4255603 -0.20992568 -0.039571911
0.41743693 -0.21131563 -0.044963747
0.43000066 -0.21146177 -0.040859222
-0.42012346 -0.19059502 -0.037796825
0.42512995 -0.19033974 -0.039259136
0.44228172 -0.18806045 -0.03962943
-0.43859872 -0.18461826 -0.039629251
-0.44894382 -0.15968934 -0.039629281
-0.43023497 -0.16955294 -0.045294791
0.45262164 -0.16318892 -0.039629281
-0.44929299 -0.148812 -0.044755697
0.45220017 -0.14875349 -0.035159111
-0.4581061 -0.13137916 -0.039367735
0.45893854 -0.13161026 -0.042243898
-0.44578946 -0.12002507 -0.039629281
-0.4665859 -0.10131131 -0.039629281
-0.45588559 -0.10831174 -0.035621732
0.45422161 -0.10873069 -0.040444583
0.4691323 -0.10707219 -0.043120027
-0.45362949 -0.088369668 -0.037770003
0.45833042 -0.088267386 -0.039480954
0.47040856 -0.087803692 -0.048877686
-0.45667261 -0.068231717 -0.040062696
0.46068606 -0.068174794 -0.037706137
-0.47173926 -0.062674329 -0.039629281
0.4760389 -0.067799374 -0.03962943
-0.45816302 -0.044233143 -0.040989161
0.46303633 -0.048127525 -0.035935402
-0.48022452 -0.034741871 -0.04022187
-0.46987692 -0.025642108 -0.042132884
0.46177277 -0.030517297 -0.043073535
0.48134282 -0.028459864 -0.03962943
-0.47115988 -0.0081683397 -0.047985286
-0.47120801 0.011763563 -0.04798916
-0.45914569 0.01782275 -0.039629281
0.45871979 0.020511601 -0.036754191
-0.46888041 0.033286128 -0.042149156
0.46347329 0.023011161 -0.039629281
0.48139146 0.024477724 -0.03962934
-0.45691866 0.054512937 -0.041009426
0.46072561 0.057012763 -0.037770212
-0.456716 0.071914509 -0.040095329
0.46071839 0.07183902 -0.037681907
-0.45139971 0.093914807 -0.038715929
0.45836276 0.091953903 -0.039456546
0.47044072 0.091374323 -0.048901916
0.45341134 0.10063794 -0.03962937
0.46932787 0.10765156 -0.04313612
-0.46470764 0.11461933 -0.03962934
-0.45593435 0.11200094 -0.035626024
0.45600197 0.11211431 -0.041235298
-0.45691055 0.13196357 -0.039016515
-0.44216302 0.1288974 -0.03962934
0.4458487 0.13241382 -0.03962937
0.45700744 0.13209386 -0.043570936
-0.44941285 0.15255809 -0.044665515
-0.43178481 0.15403852 -0.039629281
0.45236337 0.15248787 -0.035282105
0.43548745 0.15752196 -0.03962943
-0.44404608 0.17670611 -0.036793143
-0.4259603 0.17612711 -0.042519271
0.42467341 0.17906356 -0.039031625
-0.4202795 0.19451308 -0.037912577
0.42525214 0.19423267 -0.039168596
-0.42287147 0.21450897 -0.039423972
-0.41140559 0.20343366 -0.039629281
0.41634199 0.21104859 -0.042250872
0.42810294 0.21417332 -0.042203993
-0.40139413 0.22768599 -0.039629281
0.40512294 0.23102559 -0.03962934
-0.41517675 0.23563407 -0.045129627
0.41796282 0.23554818 -0.034684896
-0.38884923 0.24651916 -0.039629281
-0.38694036 0.2581194 -0.038600773
0.39235201 0.25352684 -0.038910687
-0.39347744 0.27227423 -0.044426292
-0.37563947 0.26377785 -0.039629281
0.37371996 0.27184895 -0.045265466
0.37914449 0.2665692 -0.03962937
-0.38262123 0.27917761 -0.043809593
-0.36250284 0.28092149 -0.039629281
0.36601347 0.283672 -0.03962943
0.38197547 0.27953437 -0.04295066
-0.35131726 0.3001543 -0.039576113
0.35334969 0.3013818 -0.037230104
-0.33646455 0.31490245 -0.03962934
0.33999792 0.31759524 -0.03962934
-0.348391 0.32377276 -0.043181479
-0.32338524 0.33143011 -0.03962934
0.32686111 0.33397341 -0.039629281
0.34299967 0.32489634 -0.048515022
0.35275862 0.32342008 -0.037751287
-0.32318848 0.34680533 -0.035633504
-0.30779952 0.34338713 -0.039629281
0.31129864 0.34592572 -0.03962943
0.323441 0.34536201 -0.039986849
-0.3138589 0.35720193 -0.03962934
-0.29223821 0.35532567 -0.03962934
0.29575419 0.35784841 -0.03962937
-0.30013469 0.36936685 -0.04250744
-0.27762276 0.37106234 -0.040316552
-0.26119497 0.37915763 -0.03962934
0.28048059 0.3694354 -0.041345
0.28586414 0.37246874 -0.037599355
0.30165848 0.37139943 -0.0410842
-0.24570638 0.39104024 -0.039629251
0.24927253 0.3935158 -0.03962934
0.26474443 0.38164881 -0.03962937
-0.24742448 0.39809072 -0.042358607
-0.23024189 0.40290436 -0.039629281
0.23383148 0.40537506 -0.03962937
0.24944697 0.40145466 -0.037210405
-0.23873614 0.41190127 -0.03962937
-0.23357405 0.41588759 -0.043106526
-0.21231681 0.41441071 -0.039576381
-0.20104401 0.42186579 -0.038764447
0.20102683 0.4223156 -0.03962934
0.21532685 0.41487539 -0.041501671
0.23539677 0.41693276 -0.038470924
-0.19680171 0.42913961 -0.03962937
-0.17615902 0.42654267 -0.039629251
-0.15782866 0.43412492 -0.039629281
0.16225803 0.43832147 -0.03962934
0.1798867 0.42910007 -0.03962943
0.20515059 0.42560381 -0.040950924
-0.16843513 0.44170719 -0.036933333
-0.1560147 0.44586948 -0.03962934
-0.13945907 0.4417367 -0.03962934
-0.12104333 0.44936782 -0.03962934
-0.10068267 0.45433092 -0.039629251
0.12502487 0.45281097 -0.03962934
0.14627081 0.44293314 -0.038420737
-0.12537934 0.45803455 -0.041633964
-0.10471393 0.46156332 -0.043821186
-0.090956382 0.46135628 -0.03962937
-0.081880704 0.46102425 -0.038632035
-0.062203038 0.46581697 -0.040583849
-0.05659914 0.46015629 -0.03962934
-0.034171287 0.4659237 -0.03962934
-0.011879431 0.46606559 -0.039629251
0.011045804 0.46863109 -0.03962934
0.016125664 0.46899879 -0.03962943
0.040225465 0.46551004 -0.037973076
0.064144894 0.46262318 -0.039517909
0.084554411 0.46277779 -0.043614835
0.10041408 0.45737928 -0.03962931
0.10682116 0.46082184 -0.042709589
0.12721215 0.45792171 -0.039911598
-0.006441039 0.47198674 -0.03962937
0.0077407747 -0.47420645 -0.019688368
0.030573502 -0.47163889 -0.019763947
-0.10473648 -0.45967266 -0.033245623
-0.092029348 -0.45841968 -0.019934297
-0.083431453 -0.46171254 -0.028626859
-0.066052891 -0.46251747 -0.021944046
-0.04974075 -0.46266592 -0.026681066
-0.041053552 -0.46577024 -0.01943928
-0.022631535 -0.46878743 -0.019635886
-0.0046179038 -0.46773008 -0.026895642
0.024303311 -0.46522489 -0.019501686
0.043167602 -0.46370843 -0.024107397
0.052961297 -0.46871737 -0.019835442
0.069769114 -0.46374083 -0.024308056
0.085625038 -0.45962963 -0.033342928
0.097249307 -0.46292585 -0.019976735
0.11916066 -0.46006626 -0.020046741
-0.15313669 -0.44348487 -0.020083815
-0.13470018 -0.45111322 -0.020059109
-0.11400665 -0.45558065 -0.02000463
-0.094811551 -0.45547998 -0.032987982
0.13943893 -0.45506582 -0.020096004
0.1578373 -0.44744673 -0.020120621
-0.18987758 -0.42829636 -0.020132989
-0.17011634 -0.43428317 -0.023803502
0.14933772 -0.43965662 -0.026616484
0.17618959 -0.4398469 -0.020145118
0.19449575 -0.43226615 -0.020169556
-0.23002854 -0.41351122 -0.026304394
-0.20142044 -0.42022985 -0.020352721
0.19396502 -0.42619553 -0.022776037
0.19692576 -0.41969499 -0.020399749
0.2135541 -0.4192068 -0.026450545
0.23097068 -0.41716149 -0.020218253
-0.24408598 -0.40475503 -0.020198286
0.24850801 -0.40861538 -0.020233303
-0.25803334 -0.39219189 -0.025447637
0.2614845 -0.39503801 -0.021595836
0.27949262 -0.38484716 -0.020202994
-0.3002052 -0.36712152 -0.031791717
-0.29067093 -0.36899042 -0.020152569
-0.27511615 -0.38092694 -0.020167798
0.28077847 -0.36689162 -0.032272249
0.29502127 -0.3729355 -0.020187825
-0.3062503 -0.35703546 -0.020137399
-0.2901676 -0.36665007 -0.033192754
0.31057405 -0.36100495 -0.020172656
-0.32184365 -0.34670815 -0.020765364
-0.30767262 -0.34459671 -0.032662958
0.30240601 -0.34814623 -0.021859229
0.3261511 -0.3490558 -0.020157516
0.34175265 -0.33708799 -0.020142257
-0.33322966 -0.32758647 -0.021124035
-0.35046679 -0.31617126 -0.020048738
-0.34261325 -0.31863931 -0.021909684
0.33885664 -0.31945679 -0.026002496
0.35485628 -0.32048157 -0.020086467
-0.36506611 -0.29844391 -0.02511999
0.34882489 -0.29913101 -0.023669809
0.3664991 -0.30080423 -0.020608574
-0.37664551 -0.28202641 -0.019931048
-0.36318508 -0.27739036 -0.021265864
0.38099229 -0.28641719 -0.019969255
-0.39170608 -0.26723281 -0.026668757
-0.37692958 -0.27436289 -0.022688955
0.37351167 -0.27215752 -0.03055796
0.39418131 -0.2692371 -0.019910127
-0.40313473 -0.24745695 -0.019811958
-0.39720455 -0.25280207 -0.03316772
0.3987211 -0.25408977 -0.020416737
0.4074499 -0.25195333 -0.019850582
-0.39666206 -0.23359872 -0.020399898
0.42001686 -0.23299262 -0.019777328
-0.41279036 -0.22934568 -0.021685362
0.40601444 -0.23170798 -0.028224707
-0.42542771 -0.20320298 -0.019612372
-0.40941983 -0.21188678 -0.02986002
0.41375142 -0.21065105 -0.022578835
0.43012384 -0.20865598 -0.019658804
-0.43040037 -0.18971178 -0.033841223
0.43216193 -0.19065152 -0.020061672
-0.43988505 -0.17617251 -0.022496939
0.42419723 -0.1728885 -0.027296484
0.44035217 -0.18402722 -0.019538939
-0.43749258 -0.16899849 -0.028582126
0.43277854 -0.16951416 -0.033587694
0.44222876 -0.16960268 -0.027646363
0.45070416 -0.15910114 -0.019417644
-0.44443914 -0.14843038 -0.023431152
-0.4327732 -0.14992185 -0.022056282
0.44037223 -0.14883834 -0.027956724
-0.44409621 -0.12901931 -0.030587435
0.44791153 -0.12831067 -0.022366196
-0.4635601 -0.087988436 -0.034006804
0.46561298 -0.088392586 -0.020259619
-0.46583498 -0.067967914 -0.032292575
0.46863192 -0.068249166 -0.022570699
-0.46799812 -0.047993198 -0.030662805
0.47165275 -0.048163939 -0.024882734
-0.4701567 -0.028060054 -0.029036641
0.47001776 -0.028131308 -0.030674338
-0.47231063 -0.0081683397 -0.027413756
0.45878217 -0.017168045 -0.025067568
0.47268394 -0.0081683397 -0.030938238
-0.47931817 0.0018588863 -0.023405045
-0.47235316 0.011702292 -0.027381688
0.47272664 0.011768555 -0.030946553
-0.47844654 0.024115629 -0.030821085
-0.47018868 0.031614475 -0.029012591
0.47005522 0.031756878 -0.03067854
-0.46803018 0.051568028 -0.030638665
0.47169554 0.051823821 -0.024915814
-0.46586725 0.071563184 -0.032268316
0.46868569 0.071937338 -0.022611767
-0.46359226 0.091605231 -0.033982277
0.46566707 0.092109352 -0.020301074
-0.44427133 0.13281271 -0.030719221
0.44802025 0.13199045 -0.02228564
-0.43874919 0.15297246 -0.022770047
0.43355259 0.1534775 -0.019418478
0.44049254 0.15258819 -0.027867526
-0.43759114 0.17275712 -0.028509051
-0.41855806 0.17278321 -0.019492269
0.42810199 0.17583691 -0.026518732
0.44240451 0.17343013 -0.027778894
-0.43052176 0.19353501 -0.03375119
-0.40842432 0.19743836 -0.01961273
0.43233928 0.19457373 -0.020195454
-0.40959984 0.21590304 -0.029993355
0.41352609 0.20872635 -0.021074265
-0.39841712 0.22181214 -0.019731909
0.40317172 0.22717577 -0.019778043
-0.4128046 0.23522837 -0.021989971
-0.3970378 0.23771267 -0.020678401
-0.38633183 0.2416449 -0.019812852
0.39548907 0.23507081 -0.02122426
0.40612692 0.23568027 -0.02814272
-0.39741969 0.25682497 -0.033010691
-0.3731015 0.25895491 -0.019872606
0.39487138 0.25217468 -0.020256728
0.3774741 0.2633948 -0.019911259
0.39593038 0.27090952 -0.03213954
-0.37714764 0.27847385 -0.022532284
-0.36175767 0.27893057 -0.020739585
0.36889377 0.27988765 -0.02330941
-0.36589962 0.30144122 -0.033008009
-0.34687302 0.29325217 -0.019990951
0.35127011 0.29757649 -0.020029098
0.3654432 0.30244079 -0.0214279
-0.3338733 0.31024155 -0.020049661
0.33828831 0.31452021 -0.020087361
-0.34383261 0.33035174 -0.024847716
-0.33610839 0.32480779 -0.022088557
-0.32095715 0.32714084 -0.020108044
0.32483402 0.33058316 -0.022841513
0.33909369 0.32383695 -0.025835037
-0.32176059 0.35063615 -0.032102466
-0.3069672 0.34413832 -0.026715547
0.30601007 0.34674156 -0.026406288
-0.2897599 0.35110056 -0.020138711
-0.27420124 0.36305767 -0.020154089
0.29411972 0.35506198 -0.020174176
-0.29054859 0.37133628 -0.032927811
-0.25866044 0.3749851 -0.020169199
0.26307294 0.37889722 -0.020204514
0.27858746 0.36699438 -0.020189375
-0.24315053 0.38690487 -0.020184547
0.24758926 0.39079219 -0.020219862
-0.2555975 0.39838409 -0.02834034
-0.2276583 0.39879504 -0.020199656
-0.2100212 0.40727529 -0.020183802
0.23362499 0.40140375 -0.023451418
0.25971499 0.39826623 -0.023484081
-0.21103679 0.4224056 -0.028645128
-0.19542916 0.42491794 -0.020042956
-0.19174369 0.41482887 -0.020159334
-0.17342708 0.42241219 -0.020134836
0.19188535 0.42229897 -0.02888158
0.19709778 0.42182422 -0.019997567
0.21460184 0.41125396 -0.020220309
-0.1550644 0.43001461 -0.020110369
-0.13664813 0.43762559 -0.020085633
0.15975779 0.43396577 -0.020147085
0.17808273 0.42637262 -0.020171493
-0.14647916 0.44756669 -0.023666054
-0.11819272 0.44526657 -0.020061046
-0.09749274 0.44981581 -0.020007044
-0.075466461 0.45270279 -0.0199368
0.10267401 0.45426756 -0.020048976
0.12521279 0.44833627 -0.02199924
0.1413867 0.44157797 -0.020122588
-0.10508338 0.45771113 -0.026533782
-0.097431339 0.46100622 -0.031312585
-0.065252289 0.46133578 -0.019415677
-0.053800449 0.4613032 -0.025947332
-0.036299907 0.46370983 -0.023107737
-0.019981485 0.46921179 -0.026143432
-0.0086961407 0.46509221 -0.019707292
0.010077099 0.46606064 -0.021867096
0.022050088 0.46752474 -0.030042797
0.039861228 0.46116254 -0.019668341
0.058581006 0.46008188 -0.019908607
0.08070638 0.45716441 -0.01997906
0.12835366 0.4575896 -0.026252776
-0.010091498 0.47314 -0.032763213
-0.10594634 -0.45900857 -0.01912871
-0.076928392 -0.46289012 -0.019271642
-0.048311926 -0.4667182 -0.019412458
-0.019985095 -0.46749765 -0.015527964
-0.0041574189 -0.46732026 -0.015839577
0.0010180809 -0.46747351 -0.015582591
0.041379616 -0.46126297 -0.014684647
0.054893382 -0.46087298 -0.019355744
0.083639689 -0.45697138 -0.019213855
-0.14495382 -0.44550279 -0.015950471
0.084761716 -0.45553961 -0.014168739
0.1159256 -0.45219409 -0.018940598
0.12747765 -0.4456822 -0.013247535
-0.18414278 -0.42821276 -0.018610656
0.15283756 -0.43613878 -0.018797398
-0.21107391 -0.42049992 -0.017939985
-0.18895513 -0.42602745 -0.0059202462
0.16989885 -0.42592019 -0.0061533749
0.19290559 -0.41964149 -0.018346816
-0.25437322 -0.39838228 -0.015479028
-0.22608113 -0.41063029 -0.018325686
0.23516564 -0.39818686 -0.015895665
-0.24787204 -0.39109501 -0.010850385
0.24645615 -0.39048234 -0.015482515
-0.27597797 -0.37888131 -0.0072100759
0.25674766 -0.37868902 -0.0076119304
0.28985754 -0.36879826 -0.018638074
-0.28161204 -0.36624926 -0.013524532
0.28074667 -0.36670879 -0.015508473
-0.31469235 -0.34188956 -0.016146451
-0.30757868 -0.34754822 -0.017582864
0.31340259 -0.34238771 -0.018458098
0.3197093 -0.34475613 -0.014019862
-0.34389997 -0.32810974 -0.014008358
0.32445288 -0.32782304 -0.014584705
0.3333768 -0.31869423 -0.0045747459
-0.35646236 -0.29611722 -0.012125164
0.35410041 -0.29669651 -0.015232474
0.36781988 -0.27440947 -0.0055396557
-0.39041775 -0.25235611 -0.013003528
0.388136 -0.252846 -0.016104072
-0.41529238 -0.23301005 -0.0092465729
0.39556071 -0.23252073 -0.010159522
0.40128571 -0.23108865 -0.0066618621
-0.41736463 -0.21011427 -0.01845628
0.42140454 -0.21195988 -0.0119569
-0.42442012 -0.18931632 -0.013307422
-0.40976775 -0.19240998 -0.004723534
0.42144376 -0.18974496 -0.016965419
-0.4263728 -0.16985399 -0.010816783
0.42858508 -0.16902696 -0.0117542
-0.44600642 -0.15342738 -0.019369602
0.43556899 -0.14845511 -0.0066577643
-0.45391896 -0.12804388 -0.018776
0.45859769 -0.13146608 -0.016103268
0.4471218 -0.1216861 -0.017671496
-0.45570013 -0.10781783 -0.01508075
0.45746151 -0.10833514 -0.018505126
0.46822879 -0.10043855 -0.019104451
-0.4601979 -0.090050042 -0.016252756
-0.44501433 -0.08910881 -0.0060510635
0.4547058 -0.088003695 -0.017328143
-0.44844884 -0.068774305 -0.0086798519
0.45700395 -0.067979023 -0.015624076
-0.46763667 -0.053385049 -0.018802047
-0.454254 -0.063495912 -0.014977857
0.47339728 -0.061817974 -0.01887244
-0.45704472 -0.048204973 -0.010782421
0.45853737 -0.045034792 -0.016123891
-0.46437681 -0.028015384 -0.008646965
-0.45529509 -0.028304288 -0.013920397
0.46134892 -0.028063742 -0.012402102
-0.47848624 -0.020901475 -0.019026816
-0.46969742 -0.010867381 -0.012805685
-0.45870677 -0.0081683397 -0.016531885
0.46351463 -0.0081683397 -0.010796234
0.47868392 -0.02231439 -0.018635213
-0.47932392 0.0012801383 -0.011409611
-0.466564 0.011657817 -0.0070251524
-0.45684248 0.01009907 -0.017567843
0.46215871 0.014298981 -0.014703363
-0.46440887 0.031525135 -0.0086233467
-0.45534945 0.032102507 -0.013961926
0.46138111 0.031621851 -0.012378305
0.47630048 0.036491774 -0.018240482
-0.45606411 0.049682479 -0.014517009
0.45921093 0.051579114 -0.013987467
-0.46695068 0.053750824 -0.018097728
-0.45193747 0.052336659 -0.011350259
0.45570439 0.056314107 -0.018871784
-0.45428905 0.07201083 -0.010279566
0.45704699 0.071577594 -0.015592068
-0.45790577 0.091375858 -0.013445392
-0.44502497 0.08986859 -0.012564391
0.45274466 0.093238905 -0.018204182
-0.45573255 0.1114092 -0.015056863
-0.43917802 0.12253393 -0.019246697
0.45751038 0.11202902 -0.018517882
0.46594518 0.11654432 -0.017674387
-0.45145905 0.13162446 -0.018225819
0.44392571 0.12831436 -0.019295573
0.45623145 0.13285756 -0.013078481
-0.4288086 0.14781711 -0.019370347
0.43567851 0.15215111 -0.006577909
-0.44157249 0.16559182 -0.011036649
0.42167673 0.16493455 -0.012218907
-0.42651707 0.17371562 -0.010844186
0.42869523 0.1727882 -0.011673808
-0.42453071 0.1930967 -0.013226867
-0.40994868 0.19652726 -0.0048598051
0.42156577 0.1935719 -0.0168764
-0.41747585 0.21396057 -0.018375158
0.42159492 0.21598226 -0.012100384
0.40139818 0.23500471 -0.0065811127
-0.39063326 0.25634193 -0.012848809
0.3883751 0.25686973 -0.015932411
-0.39030635 0.26416388 -0.012510777
0.37069398 0.26384184 -0.013134271
0.36805069 0.27852249 -0.0053766519
-0.36575007 0.29242024 -0.0046774596
-0.35668346 0.30031708 -0.011968836
0.35030663 0.29651278 -0.010210067
-0.32025516 0.34509483 -0.016735941
0.31383699 0.3468706 -0.018156171
0.32063019 0.34930819 -0.014680952
-0.29758176 0.36135027 -0.009706527
0.2783339 0.36115769 -0.010109171
-0.28200674 0.37090999 -0.013254851
0.25670531 0.38067627 -0.018398076
0.28112999 0.37139845 -0.01524654
0.29057559 0.37355345 -0.01914534
-0.27593046 0.38087213 -0.017980635
0.26337078 0.38541389 -0.018124819
-0.24597922 0.40103248 -0.014455169
