ply
format ascii 1.0
comment PCL generated
element vertex 1345
property float x
property float y
property float z
element camera 0
property float view_px
property float view_py
property float view_pz
property float x_axisx
property float x_axisy
property float x_axisz
property float y_axisx
property float y_axisy
property float y_axisz
property float z_axisx
property float z_axisy
property float z_axisz
property float focal
property float scalex
property float scaley
property float centerx
property float centery
property int viewportx
property int viewporty
property float k1
property float k2
end_header
-0.1161102 0.042143423 -0.24606645
-0.095126748 0.042088609 -0.24784529
-0.074170753 0.042034004 -0.24962217
-0.053242173 0.041979294 -0.2513963
-0.032340944 0.041924719 -0.2531684
-0.011467011 0.041870218 -0.25493807
0.0093796747 0.041863624 -0.25515121
0.030238342 0.041918125 -0.25338173
0.051124282 0.04197273 -0.25161016
0.072037563 0.042027283 -0.24983603
0.092978217 0.042081986 -0.24805969
0.1139468 0.042137165 -0.24626839
-0.1786795 0.062960848 -0.24860179
-0.15767469 0.062892437 -0.25037742
-0.13669732 0.062824175 -0.25215065
-0.11574738 0.062755987 -0.25392157
-0.094824791 0.062687993 -0.25569034
-0.073929504 0.062620059 -0.25745684
-0.053061478 0.06255208 -0.25922078
-0.032220636 0.06248429 -0.26098257
0.030178193 0.06247611 -0.261195
0.051003832 0.062543958 -0.25943351
0.071856655 0.062611729 -0.25766951
0.092736691 0.062679783 -0.25590348
0.11364401 0.062747806 -0.25413501
0.13457866 0.062816024 -0.25236452
0.15554138 0.062884748 -0.2505787
0.17653096 0.062953115 -0.24880344
-0.1998654 0.06310603 -0.24482864
0.19765735 0.063082263 -0.24544775
-0.22051845 0.083882436 -0.24803454
-0.19919054 0.083625615 -0.25359523
-0.17813629 0.083494112 -0.25644219
-0.15719245 0.083412692 -0.25820774
-0.13627593 0.083331212 -0.25997084
-0.11538665 0.083249867 -0.26173174
0.11334345 0.083240002 -0.2619437
0.13421752 0.083321318 -0.26018339
0.15511882 0.083402783 -0.25842053
0.17604817 0.083484873 -0.25664288
0.19705027 0.083597198 -0.25421029
0.21832266 0.083849251 -0.24875295
-0.22027318 0.10462628 -0.25093102
-0.19886823 0.10425702 -0.25778222
-0.17785721 0.10411222 -0.26047063
0.17579705 0.10409869 -0.26072031
0.19675079 0.10421655 -0.258533
0.21809496 0.10458419 -0.25171059
0.23954926 0.10495502 -0.24482864
-0.24151732 0.12574823 -0.24696261
-0.22002737 0.12532492 -0.25383383
-0.19866705 0.12492087 -0.26039565
0.19660442 0.12490547 -0.26064545
0.21787164 0.12527706 -0.25461185
0.23930234 0.12569998 -0.24774456
-0.24124952 0.14645542 -0.24986124
-0.21978314 0.14598033 -0.25671786
0.21764879 0.14592578 -0.25750685
0.23905595 0.14640044 -0.25065422
-0.24098118 0.16711748 -0.25276631
-0.21953839 0.16659082 -0.25960839
0.21742639 0.16653031 -0.26039565
0.23881011 0.16705661 -0.25355756
-0.26253399 0.16764788 -0.24587715
0.26030228 0.16758576 -0.24668497
-0.26237363 0.18842855 -0.24747968
-0.24071454 0.18773663 -0.25565284
0.23856476 0.18766855 -0.25645489
0.2601392 0.18834645 -0.24845052
-0.24097188 0.20883505 -0.25286686
-0.21940406 0.2080657 -0.26119488
0.23878671 0.20874576 -0.25383395
0.26041541 0.20951928 -0.24546033
-0.24124722 0.22999601 -0.24988657
-0.21965487 0.22916071 -0.25823283
0.21751876 0.22906439 -0.25919586
0.23903891 0.22989894 -0.25085539
-0.24152313 0.25120342 -0.24689943
-0.21990627 0.25030202 -0.2552641
-0.19879311 0.24992533 -0.25875807
-0.17779404 0.2496426 -0.26138216
0.17573708 0.24960898 -0.26169413
0.19671439 0.24989308 -0.25905836
0.21774712 0.25019792 -0.25622928
0.23929165 0.25109878 -0.24787062
-0.22015712 0.27148825 -0.25230157
-0.19906016 0.27114323 -0.25528902
-0.17803392 0.27083948 -0.25791991
-0.15704772 0.2705349 -0.26055789
0.15498747 0.27050027 -0.26085776
0.17595026 0.2708033 -0.25823265
0.19695467 0.27110854 -0.25559014
0.21800016 0.27141425 -0.2529422
0.23954497 0.2723453 -0.24487913
-0.22042347 0.29274258 -0.24915612
-0.19932789 0.29241562 -0.25181133
-0.17827439 0.29209074 -0.25444889
-0.15726106 0.29176494 -0.25709361
-0.1362894 0.29144135 -0.25972086
0.13422503 0.29140443 -0.26002085
0.15517411 0.29172796 -0.25739408
0.17616475 0.29205364 -0.25474995
0.19719556 0.29237843 -0.25211293
0.21826835 0.29270542 -0.24945849
-0.17873539 0.3138119 -0.24779493
-0.15763672 0.31339329 -0.25099397
-0.13658769 0.31297565 -0.25418526
-0.11558757 0.31255743 -0.25738174
-0.094637439 0.31214166 -0.26055789
0.092582211 0.31209433 -0.26092029
0.11350508 0.31250989 -0.25774473
0.13447775 0.31292796 -0.25454909
0.15549935 0.31334564 -0.25135869
0.17657053 0.31376407 -0.24816054
0.19769236 0.31418517 -0.24494237
-0.11605132 0.33477661 -0.24734092
-0.095022991 0.33433315 -0.25054091
-0.074043773 0.3338891 -0.25374585
-0.053114362 0.33344772 -0.25693083
-0.032234099 0.33300743 -0.26010817
0.03018377 0.33295721 -0.26047057
0.051036775 0.33339745 -0.25729406
0.071939148 0.33384037 -0.25409734
0.092890576 0.33428246 -0.25090587
0.11389145 0.33472583 -0.24770683
-0.053346317 0.35574806 -0.24688685
-0.03238837 0.35528004 -0.25008786
-0.011479764 0.35481274 -0.25328141
0.0093796747 0.35475969 -0.25364554
0.030260887 0.35522652 -0.25045282
0.051191367 0.35569456 -0.24725276
-0.13797696 0.00058544055 -0.22840375
-0.11684277 0.00055768341 -0.23020595
-0.095736422 0.00052997842 -0.23200566
-0.074657463 0.00050206855 -0.23381573
-0.05360673 0.00047441572 -0.23561078
-0.032583661 0.00044681132 -0.23740339
-0.011591141 0.00042513013 -0.2388131
0.0093796747 0.00042282045 -0.23896539
0.030359779 0.0004436709 -0.23760676
0.051367473 0.00047129765 -0.23581445
0.072402827 0.00049900264 -0.23401952
0.09346588 0.00052657723 -0.23222238
0.11455669 0.00055428222 -0.23042279
0.13567531 0.00058211759 -0.22862113
-0.17978425 0.021538202 -0.232656
-0.15864834 0.02149396 -0.23456705
-0.13754748 0.021452341 -0.23637396
-0.11647513 0.021410923 -0.23816556
-0.095430456 0.02136961 -0.23995489
-0.074413404 0.021328304 -0.24174178
-0.053423923 0.021287043 -0.24352646
0.051245429 0.021282058 -0.24374151
0.072219811 0.021323625 -0.24194431
0.09322153 0.021364961 -0.24015778
0.11425086 0.021406222 -0.23836869
0.13530783 0.02144764 -0.23657739
0.15639251 0.021489028 -0.23478353
0.17750496 0.02153049 -0.23298752
0.1988834 0.021651465 -0.22775126
-0.22200653 0.042623911 -0.2304613
-0.20054562 0.042453628 -0.23599237
-0.17922586 0.042308118 -0.24071556
-0.1581597 0.042253155 -0.24250156
-0.13712117 0.042198237 -0.24428517
0.13494249 0.042192031 -0.24448746
0.15596572 0.042246971 -0.24270415
0.17701656 0.042301994 -0.2409184
0.19826838 0.042434003 -0.23662806
0.21968161 0.042604279 -0.23109955
-0.26429799 0.063744172 -0.22825021
-0.24273293 0.0635304 -0.23380286
-0.22125633 0.063318029 -0.23932058
0.21899994 0.063293621 -0.23995495
0.24043003 0.063506365 -0.23442703
0.26194617 0.063719556 -0.22888958
-0.26370406 0.084522113 -0.23418516
-0.24205576 0.084201187 -0.24113369
0.23979563 0.084164977 -0.24191916
0.26138404 0.08448565 -0.23497438
0.28308168 0.0848075 -0.22800696
-0.28514349 0.10574509 -0.23016751
-0.26340997 0.10537024 -0.23712391
-0.24178682 0.10499732 -0.24404502
0.26111275 0.10532776 -0.23791158
0.28278625 0.10570243 -0.23095912
-0.2848272 0.12660171 -0.2331022
-0.26311779 0.1261742 -0.24004364
0.26084203 0.12612507 -0.24084222
0.28249148 0.1265523 -0.23390484
-0.30630627 0.14789511 -0.22908133
-0.28451025 0.14741278 -0.23604321
-0.26282495 0.14693287 -0.24296987
0.26057187 0.14687769 -0.2437669
0.2821973 0.14735721 -0.2368443
0.30393314 0.14783928 -0.22988647
-0.30596715 0.16871466 -0.23201829
-0.28419533 0.16817994 -0.23896539
0.2819038 0.16811742 -0.23977739
0.30361545 0.16865197 -0.23283458
-0.30613074 0.18985787 -0.23060167
-0.28418437 0.18914099 -0.23906696
0.28187716 0.18905821 -0.24004358
0.30375013 0.18977454 -0.23158461
-0.30648056 0.2111717 -0.22757202
-0.28450885 0.21038799 -0.23605591
-0.26267308 0.20960914 -0.24448746
0.28217825 0.21029754 -0.2370348
0.3040764 0.21108069 -0.22855723
-0.28483409 0.23168202 -0.23303843
-0.26297319 0.23083641 -0.24148858
0.26069227 0.2307388 -0.24246365
0.28248 0.23158376 -0.23401952
-0.28516001 0.25302312 -0.2300142
-0.26327395 0.25211051 -0.23848295
0.2609697 0.25200516 -0.23946017
0.28278244 0.25291723 -0.23099756
-0.26357412 0.27343026 -0.23548353
-0.24179851 0.27245623 -0.24391854
0.26124892 0.27331999 -0.23643738
0.28308681 0.27429944 -0.22795588
-0.2640039 0.29495564 -0.23118889
-0.24207564 0.29375735 -0.2409184
0.2397999 0.2936402 -0.24186838
0.26162416 0.29480946 -0.23237538
-0.2429532 0.31595504 -0.23141861
-0.22108348 0.31465372 -0.24136174
-0.19988389 0.31423163 -0.24458861
0.21886334 0.31460571 -0.2417292
0.2405854 0.3158015 -0.23259217
-0.22194272 0.33701113 -0.2312144
-0.20066416 0.33656245 -0.23445249
-0.17943509 0.33611301 -0.23769575
-0.15825722 0.33566645 -0.2409184
-0.13712935 0.33522108 -0.24413353
0.13494249 0.33517194 -0.24448746
0.15604281 0.33561724 -0.24127305
0.17719312 0.33606383 -0.23805118
0.19839352 0.33651134 -0.23482174
0.21964428 0.33695981 -0.23158461
-0.18014091 0.35858253 -0.22750801
-0.15888311 0.35810763 -0.23075485
-0.13767503 0.35763201 -0.23400664
-0.11651795 0.35715941 -0.23723817
-0.095410936 0.35668775 -0.24046201
-0.074353777 0.35621738 -0.24367815
0.072171591 0.35616565 -0.24403232
0.093201235 0.35663599 -0.24081701
0.11428068 0.35710734 -0.23759401
0.13541009 0.35757992 -0.2343635
0.15658964 0.35805345 -0.23112512
0.17781955 0.35852829 -0.22787905
-0.095802255 0.37921119 -0.23029536
-0.074666098 0.37871239 -0.23353541
-0.053580005 0.37821463 -0.23676801
-0.03254379 0.37771815 -0.23999286
-0.011557291 0.3772229 -0.2432102
0.0093796747 0.37716633 -0.243577
0.030338578 0.37766153 -0.24036074
0.051347118 0.37815794 -0.2371366
0.07240577 0.37865746 -0.2338922
0.093514211 0.37915611 -0.23065275
0.11467282 0.37965599 -0.22740561
-0.032700375 0.40032396 -0.2298227
-0.011635399 0.39980006 -0.233064
0.0093796747 0.39974031 -0.23343354
0.030416846 0.40026429 -0.23019308
-0.18123692 -0.020336917 -0.21168828
-0.1598821 -0.020358726 -0.21453357
-0.1386527 -0.02036901 -0.2158637
-0.11744442 -0.020379135 -0.21717966
-0.096256472 -0.02038921 -0.2184943
-0.075088806 -0.020399285 -0.21980762
-0.05394138 -0.020409409 -0.22111982
-0.032814182 -0.02041959 -0.22243059
-0.011707171 -0.020429665 -0.22374028
0.0093796747 -0.020430755 -0.22388142
0.030475516 -0.02042068 -0.22257191
0.051591534 -0.020410607 -0.2212612
0.072727472 -0.020400636 -0.219962
0.093883842 -0.020390509 -0.21864891
0.11506097 -0.020380227 -0.2173214
0.13625801 -0.020370152 -0.21600568
0.15747535 -0.020360025 -0.21468854
0.17878795 -0.020340551 -0.21215427
-0.22352274 0.00082946196 -0.21255541
-0.20191842 0.00074310228 -0.21815932
-0.18040107 0.0006569773 -0.22375304
-0.15913904 0.00061319768 -0.22659904
0.1568225 0.00061000511 -0.22680384
0.17803414 0.00064705685 -0.22439462
0.19950244 0.00073308125 -0.21881628
0.22105937 0.00081944093 -0.21320224
-0.26609281 0.02205408 -0.21031523
-0.24438293 0.021924231 -0.21594107
-0.2227627 0.021795053 -0.22153115
-0.2012293 0.021666188 -0.22711116
0.22036774 0.021779943 -0.22218663
0.24194077 0.021909278 -0.21658623
0.26360214 0.022039074 -0.21096301
-0.28691754 0.043139812 -0.21370649
-0.26519182 0.04296707 -0.21931851
-0.24355583 0.042795356 -0.22489476
0.24118294 0.042775627 -0.22553569
0.26277086 0.042947229 -0.219962
0.28444815 0.043119896 -0.21435273
-0.32968095 0.064439923 -0.21017265
-0.30769101 0.064173713 -0.2170893
-0.28594962 0.063958287 -0.22268754
0.2835511 0.063934028 -0.22331661
0.30524284 0.064148977 -0.21773386
0.32715628 0.064409122 -0.210976
-0.32931259 0.085493132 -0.2131635
-0.30733106 0.085167795 -0.22020662
-0.28546181 0.084844157 -0.22721368
0.30489042 0.085130945 -0.22100395
0.32681113 0.085455999 -0.21396482
-0.32894662 0.10650128 -0.21613467
-0.30698824 0.10612179 -0.22317547
0.30457062 0.10607903 -0.22397125
0.32646674 0.1064574 -0.21694744
0.34847543 0.10683787 -0.20988762
-0.35062477 0.12789732 -0.21206355
-0.32857984 0.12746324 -0.21911228
-0.30664763 0.12703136 -0.22612512
0.30425155 0.12698177 -0.22693205
0.32612312 0.12741327 -0.2199235
0.34810701 0.12784714 -0.21287894
-0.35023561 0.14886798 -0.21503735
-0.32821548 0.14838071 -0.22207093
0.32578021 0.14832388 -0.22289294
0.34773937 0.14881077 -0.21586359
-0.35003629 0.16990463 -0.21656048
-0.32785031 0.16925216 -0.22503573
0.32543808 0.16918914 -0.22585613
0.34752965 0.16982719 -0.21756625
-0.35043517 0.19130491 -0.21351254
-0.3282139 0.19057906 -0.22208369
0.32575947 0.19049531 -0.22307277
0.34790638 0.1912206 -0.2145077
-0.3508366 0.21275388 -0.21044481
-0.32858938 0.21196021 -0.21903515
0.32611123 0.21186878 -0.22002649
0.34828395 0.21266173 -0.21144235
-0.32896569 0.23338912 -0.21597981
-0.30683118 0.23253299 -0.22453576
0.30440342 0.23243405 -0.22552282
0.32646379 0.2332897 -0.2169733
-0.30718255 0.25394163 -0.22149271
0.30473253 0.2538363 -0.22246909
-0.32934287 0.25486568 -0.21291757
0.32681859 0.25475985 -0.21390033
-0.30753323 0.27539641 -0.21845555
-0.2854853 0.27441025 -0.22699612
0.30506098 0.27528492 -0.21942139
0.3271727 0.27627656 -0.21083367
-0.30848667 0.29754093 -0.21019852
-0.28616014 0.29624337 -0.220734
0.28368989 0.29609606 -0.22192955
0.3059251 0.29739255 -0.21140349
-0.28727043 0.31870162 -0.21043193
-0.26502702 0.31732303 -0.22096539
0.26256892 0.31716824 -0.222148
0.28472126 0.31854558 -0.21162367
-0.2660591 0.33986023 -0.21065223
-0.24389862 0.33840102 -0.22118396
0.24145024 0.33823523 -0.22237915
0.26351961 0.33969334 -0.21185672
-0.20144929 0.35905865 -0.22425342
0.19910084 0.35900596 -0.22461283
-0.24484996 0.36101371 -0.21088541
-0.22280844 0.35953563 -0.22099119
0.22043204 0.35948312 -0.22135115
0.24232264 0.36083952 -0.21207654
-0.22368173 0.38223144 -0.21067822
-0.2022403 0.38172337 -0.21397781
-0.1808511 0.3812187 -0.2172569
-0.15951292 0.38071495 -0.22052813
-0.13822548 0.38021255 -0.22379166
-0.11698865 0.37971136 -0.22704709
0.13588178 0.38015717 -0.22415084
0.15714128 0.38065955 -0.22088814
0.17845148 0.38116306 -0.21761775
0.19981259 0.38166767 -0.21433985
0.22122474 0.38217369 -0.21105373
-0.13878007 0.4029628 -0.21349967
-0.11746288 0.40243238 -0.21677971
-0.09619651 0.40190351 -0.220052
-0.074980751 0.40137565 -0.22331661
-0.053815436 0.40084934 -0.22657347
0.051504031 0.40078929 -0.22694492
0.072641402 0.40131566 -0.22368896
0.09382914 0.40184328 -0.22042525
0.11506742 0.40237203 -0.21715367
0.13635643 0.40290225 -0.21387458
0.1577152 0.40349004 -0.21023762
-0.054189105 0.42465451 -0.21039295
-0.032935966 0.42395553 -0.21452057
-0.011746467 0.42325851 -0.21863592
0.0093796747 0.42317793 -0.21911228
0.030533914 0.4238767 -0.21498561
0.051751878 0.42457774 -0.21084642
-0.011943127 -0.062839285 -0.19308877
0.0093796747 -0.062838137 -0.19323313
-0.18236749 -0.041516539 -0.1953702
-0.1608278 -0.041516487 -0.19917703
-0.13947938 -0.041516539 -0.20052207
-0.11815234 -0.041516487 -0.20185268
-0.096845336 -0.041516487 -0.2031951
-0.075559437 -0.041516539 -0.20452321
-0.054294024 -0.041516539 -0.20585001
0.0093796747 -0.041516487 -0.20864248
0.051826604 -0.041516539 -0.20599294
0.073080711 -0.041516487 -0.20466626
0.094355278 -0.041516487 -0.20333827
0.13696651 -0.041516487 -0.20066571
0.15830275 -0.041516487 -0.19933379
0.17979255 -0.041516539 -0.19584155
-0.033049051 -0.041516434 -0.20717561
-0.011824493 -0.041516434 -0.20849979
0.030592937 -0.041516382 -0.20731843
0.11565033 -0.041516434 -0.2020092
-0.2460535 -0.020230459 -0.19785678
-0.22428778 -0.02027408 -0.20352066
-0.20272496 -0.020306069 -0.20768201
0.20024148 -0.020309653 -0.20814931
0.22175753 -0.020278754 -0.20413268
0.24347249 -0.020235391 -0.19849753
0.26527998 -0.020191511 -0.19280005
-0.28886968 0.001090467 -0.19559276
-0.26699844 0.0010032244 -0.20126581
-0.24521546 0.00091608241 -0.20692873
0.24270356 0.00090606138 -0.20757818
0.26443771 0.00099319965 -0.20191789
0.28626132 0.0010806508 -0.19623446
-0.33175606 0.022446442 -0.1933248
-0.30977744 0.022314955 -0.19902039
-0.2878904 0.022184249 -0.20467937
0.2853511 0.022169288 -0.2053299
0.30719069 0.02230021 -0.19966042
0.32911873 0.022431333 -0.19398081
-0.35262775 0.043661688 -0.19675803
-0.33063504 0.043487232 -0.20242643
-0.30873078 0.043312926 -0.20808434
0.30621424 0.043293398 -0.20872045
0.32806829 0.043467108 -0.20307791
0.35001361 0.043642011 -0.19739926
-0.37403476 0.064987496 -0.19594634
-0.35180071 0.064713016 -0.20307779
0.3492147 0.064681917 -0.20388532
0.37138712 0.064956233 -0.19675803
-0.3736161 0.086148739 -0.19896805
-0.35140729 0.085820109 -0.20608401
0.34884468 0.085782856 -0.20688963
0.37099192 0.086111322 -0.19977796
-0.3955617 0.10767247 -0.19440043
-0.37320012 0.10726447 -0.20196998
-0.35101646 0.1068819 -0.20907056
0.3705976 0.10722026 -0.20279121
0.39283407 0.1076047 -0.19565845
-0.39505807 0.12877311 -0.19784391
-0.37278503 0.12833448 -0.20496559
0.37020412 0.12828319 -0.20579791
0.39241529 0.12872162 -0.19868052
-0.39461669 0.14985025 -0.20086145
-0.37236908 0.14935789 -0.20796764
0.36981151 0.14930035 -0.20879805
0.39199743 0.14979228 -0.20169628
0.41460124 0.15043058 -0.19248497
-0.39484584 0.17123374 -0.19929469
-0.37237087 0.17056714 -0.20795476
0.36978942 0.17048931 -0.20896697
0.39218906 0.17115538 -0.20031321
-0.39529729 0.19277021 -0.19620824
-0.37279588 0.19203526 -0.20488763
0.3701922 0.19195035 -0.20588899
0.39261824 0.19268486 -0.19721603
-0.39575166 0.2143559 -0.19310188
-0.3732236 0.21355237 -0.20180058
0.37059587 0.21345963 -0.20280421
0.39305016 0.21426384 -0.19409859
-0.37365231 0.23511766 -0.19870663
-0.35123897 0.2342508 -0.2073704
0.34866396 0.23415197 -0.20835686
0.3710022 0.23501836 -0.19969964
-0.37408194 0.25673148 -0.19560587
-0.35164222 0.25579569 -0.20428896
0.34904322 0.25568917 -0.2052778
0.37140769 0.25662431 -0.19660103
-0.35228726 0.27760142 -0.19936001
-0.32972085 0.27639025 -0.20984864
0.34962252 0.2774612 -0.2005744
-0.33098376 0.29884702 -0.19959509
0.32833174 0.29869899 -0.20079625
-0.30968544 0.32009068 -0.19981694
0.30704296 0.31993181 -0.20103097
-0.28838909 0.3413291 -0.20005214
0.28575909 0.34116271 -0.20125282
-0.26709765 0.36256582 -0.20027399
0.26447865 0.36239013 -0.20147467
-0.24580972 0.38379905 -0.20049596
0.24320053 0.38361239 -0.20170915
-0.22481613 0.40558445 -0.1972816
-0.2032038 0.40490884 -0.20146132
-0.18165764 0.40423727 -0.205616
-0.16017619 0.4035677 -0.20975792
0.17916179 0.40416151 -0.20608401
0.20067228 0.40483302 -0.201931
0.2222487 0.40550843 -0.19775224
-0.13984531 0.42747638 -0.19373155
-0.11833388 0.42676651 -0.19792247
-0.096887968 0.42606109 -0.2020874
-0.075506575 0.42535776 -0.20623994
0.073033564 0.42527872 -0.20670784
0.094379753 0.42598394 -0.20254374
0.11579053 0.42669123 -0.19836676
0.13726559 0.42739862 -0.19419038
-0.033246342 0.44868279 -0.19436097
-0.011901087 0.44794115 -0.19854987
0.0093796747 0.44785771 -0.19902015
0.03068905 0.44859916 -0.19483292
-0.03352692 -0.08442308 -0.17613673
-0.012063199 -0.084402278 -0.17749095
0.0093796747 -0.084400043 -0.17763698
0.030831847 -0.084420845 -0.17628288
-0.18351156 -0.062948853 -0.17885709
-0.16182727 -0.062917337 -0.18294764
-0.14031537 -0.062901542 -0.18500805
-0.11886821 -0.062891155 -0.18635392
-0.097441308 -0.062880725 -0.18771136
-0.07603576 -0.062870279 -0.18905437
-0.054650914 -0.062860057 -0.19039595
-0.033286549 -0.062849566 -0.19174969
0.030711673 -0.062848575 -0.19189405
0.052064303 -0.062858753 -0.1905539
0.073437609 -0.062869087 -0.18921232
0.094832003 -0.062879577 -0.1878562
0.11624683 -0.062889963 -0.18651211
0.137683 -0.062900349 -0.18515348
0.15916082 -0.062913805 -0.18341017
0.18080994 -0.062945276 -0.17932105
0.20252287 -0.062976845 -0.17521977
-0.26921707 -0.041516487 -0.17909563
-0.22566555 -0.041516487 -0.18725026
-0.20398481 -0.041516487 -0.19131601
0.20137493 -0.041516487 -0.19178903
0.22302063 -0.041516487 -0.18772447
0.24472991 -0.041516487 -0.18364787
0.2665031 -0.041516487 -0.17955959
-0.24740876 -0.041516382 -0.18318558
0.28834039 -0.041516434 -0.17545915
-0.3118915 -0.020098452 -0.18071187
-0.28985542 -0.020142592 -0.18644607
-0.26791 -0.020186577 -0.19215667
0.28717622 -0.020147474 -0.18709219
0.30916432 -0.020103334 -0.18134737
0.3312436 -0.020058932 -0.17557871
-0.35506582 0.0013594143 -0.17812765
-0.33288446 0.0012665093 -0.18416321
-0.31083095 0.0011782795 -0.18989635
0.30817351 0.0011683106 -0.19054079
0.33017763 0.0012565404 -0.18481016
0.3522729 0.001345031 -0.17905593
-0.37633663 0.022769559 -0.17933428
-0.35382372 0.022578243 -0.18761909
0.35113871 0.022563342 -0.18826437
0.37351823 0.022743281 -0.18047369
-0.3977246 0.044189613 -0.17961264
-0.37476742 0.043849524 -0.19065893
0.37204772 0.043817226 -0.19171023
0.39485374 0.04414444 -0.18108273
-0.39700106 0.065425768 -0.18455935
0.39416537 0.065368384 -0.18605042
-0.4196454 0.087191105 -0.17640245
-0.39628011 0.08658658 -0.18948841
0.39348125 0.086517364 -0.19098759
0.4167341 0.087121785 -0.17790246
-0.41888204 0.10837504 -0.18136048
0.41600779 0.10829385 -0.18286836
-0.4181214 0.12948395 -0.18630111
0.41528404 0.12939058 -0.18781662
-0.41746259 0.15056252 -0.19058001
0.43845996 0.15156963 -0.17604375
-0.41774204 0.17204432 -0.18876469
0.4148683 0.1718985 -0.19065893
-0.41802397 0.19355547 -0.18693388
0.41518578 0.19342381 -0.18848825
-0.41842207 0.21516456 -0.18434811
0.41564462 0.2150719 -0.18535137
-0.41890445 0.23686816 -0.18121505
-0.39620703 0.23599015 -0.18998837
0.39348125 0.23589028 -0.19098771
0.41610253 0.2367676 -0.18222058
-0.41945326 0.25866655 -0.17765033
-0.39666343 0.25767314 -0.18686795
0.39391333 0.25756523 -0.18786931
0.41659057 0.25853357 -0.17888355
-0.3979767 0.28008065 -0.17788899
-0.37504449 0.278837 -0.18865955
0.37228683 0.27869567 -0.18988323
0.39512721 0.27993977 -0.1791091
-0.37650564 0.30149263 -0.17811453
-0.35365656 0.3001647 -0.1888963
0.3509118 0.30001566 -0.19010687
0.37366557 0.30134085 -0.1793474
-0.35503632 0.32289949 -0.17835331
-0.33227396 0.32149056 -0.18912017
0.3295387 0.32133043 -0.19034338
0.35220924 0.32274005 -0.17957294
-0.33357233 0.34430459 -0.17857862
-0.31089327 0.3428112 -0.18935704
0.30817068 0.34264341 -0.1905669
0.33075485 0.34413359 -0.17981124
-0.31211025 0.36570409 -0.17881727
-0.28951761 0.36412984 -0.18958068
0.2868048 0.36395091 -0.19080353
0.30930558 0.36552584 -0.18003666
-0.29081911 0.38733897 -0.17750418
-0.26814413 0.38544324 -0.18981731
0.26544374 0.38525701 -0.19102693
0.28797778 0.38709587 -0.17908263
-0.24736725 0.40779069 -0.183635
0.24459797 0.40753654 -0.18520606
-0.18306345 0.42889994 -0.18532491
-0.16142122 0.42818594 -0.18954122
0.15880634 0.42811018 -0.18998837
0.18041177 0.42882168 -0.18578672
-0.22663361 0.43051019 -0.17581797
-0.20477155 0.42961621 -0.18109584
0.20208369 0.42953765 -0.18155909
0.22382168 0.43025595 -0.17731833
-0.11927634 0.45166489 -0.17751753
-0.09767098 0.45091662 -0.1817441
-0.076130688 0.4501681 -0.1859715
-0.054656077 0.44942424 -0.19017243
0.052063093 0.44934276 -0.19063258
0.073502094 0.45008874 -0.18641973
0.095006354 0.45083687 -0.18219399
0.11657616 0.45158735 -0.17795539
-0.012058093 0.47298992 -0.17815423
0.0093796747 0.47290164 -0.17863178
-0.2065489 -0.084702149 -0.1580075
-0.18466932 -0.084638491 -0.16214609
-0.16285339 -0.084574714 -0.16628575
-0.1411608 -0.084528029 -0.16931903
-0.11959215 -0.084507048 -0.17067993
-0.098044515 -0.084486276 -0.17203939
-0.076517448 -0.084465086 -0.17341089
-0.055011835 -0.08444421 -0.17476797
0.05230489 -0.084441669 -0.17492747
0.073799141 -0.084462807 -0.17355752
0.095314115 -0.084483787 -0.17219925
0.11685055 -0.084504873 -0.17082655
0.13840757 -0.084525794 -0.1694659
0.16005836 -0.084567606 -0.16675389
0.18183875 -0.08463122 -0.16261566
0.2036837 -0.08469519 -0.15846491
-0.29289421 -0.063107505 -0.15824962
-0.27088913 -0.063075617 -0.16238749
-0.24894767 -0.063043833 -0.16652644
-0.22707094 -0.063012108 -0.17065322
-0.20525971 -0.062980376 -0.17475474
0.22429988 -0.063008524 -0.1711067
0.24614123 -0.063040257 -0.1669811
0.26804724 -0.063072138 -0.16284347
0.29001683 -0.063104019 -0.15870702
-0.33518532 -0.041516591 -0.16548276
-0.31302679 -0.041516539 -0.17087984
0.31024212 -0.041516487 -0.17134655
0.33231512 -0.041516487 -0.16629899
-0.29108965 -0.041516434 -0.17499399
-0.35656127 -0.019990539 -0.16670036
-0.33402041 -0.020053947 -0.17494071
0.35365477 -0.019999368 -0.16783655
-0.4009358 0.0016746335 -0.15765762
-0.37791681 0.0015164539 -0.16793013
0.37501115 0.0014990047 -0.16906548
0.39794302 0.0016571842 -0.15878785
-0.42234284 0.023241866 -0.15888202
-0.39925554 0.023004908 -0.16914558
0.39635062 0.022978682 -0.17027998
0.41934896 0.023215432 -0.16002452
-0.42118031 0.044595506 -0.16643286
0.41819462 0.044549804 -0.16791689
-0.4440442 0.06644161 -0.15816903
-0.42041147 0.065931335 -0.17142653
0.41746306 0.065873802 -0.17291844
0.44098216 0.066384122 -0.15966153
-0.44323218 0.087801114 -0.16319215
0.44020757 0.087731838 -0.16469288
-0.44242305 0.10908444 -0.16819739
0.43943572 0.10900307 -0.16970611
-0.46543312 0.13114272 -0.15936601
-0.44161677 0.13029175 -0.17318475
0.43866459 0.13019748 -0.1747148
0.46230167 0.13102522 -0.16127372
-0.44146192 0.15170133 -0.17414296
0.46260354 0.15272228 -0.15940607
-0.44175884 0.17331138 -0.17230594
0.43874443 0.17316584 -0.17419612
-0.44205838 0.19495101 -0.17045319
0.43902725 0.19478966 -0.17235911
-0.44235611 0.2166182 -0.16861141
0.43931249 0.2164432 -0.1705066
-0.44265425 0.23831396 -0.16676712
0.43959808 0.23812546 -0.16865158
-0.44363132 0.26049089 -0.16072309
0.44044894 0.26023197 -0.16312504
-0.42108971 0.28133544 -0.16702116
0.41814381 0.28119203 -0.16826415
-0.39953104 0.30282927 -0.16726196
0.39659846 0.30267793 -0.16849124
-0.37797794 0.32432112 -0.16748917
0.37505484 0.32415864 -0.16873157
0.39808097 0.32559037 -0.15779221
-0.35642657 0.34580788 -0.16772974
0.35351658 0.34563747 -0.16895866
0.37645474 0.34715131 -0.15803432
-0.33488059 0.36729252 -0.16795671
0.33198026 0.36711097 -0.16919899
0.3548339 0.36871046 -0.15826297
-0.31388199 0.38949901 -0.16347373
0.31091878 0.38925371 -0.16506779
-0.27016073 0.41004887 -0.16966605
0.26727161 0.40979448 -0.17123985
-0.24938579 0.43288681 -0.1617837
0.24644844 0.43262106 -0.16335297
-0.20636363 0.45469311 -0.16041422
-0.18449193 0.45393312 -0.16470623
-0.16268714 0.4531756 -0.16898525
-0.14094891 0.45242032 -0.17325115
0.13821183 0.45234004 -0.17370379
0.15991294 0.45309278 -0.16945255
0.18168113 0.45385012 -0.16517484
0.20351608 0.45460993 -0.16088414
-0.098466136 0.47614336 -0.16108572
-0.076764867 0.4753508 -0.16537559
-0.055129964 0.47456062 -0.1696527
-0.033561103 0.47377282 -0.1739167
0.03084648 0.47368693 -0.17438221
0.052378912 0.47447437 -0.17011964
0.073977269 0.47526437 -0.1658442
0.095641851 0.47605658 -0.16155541
-0.20785366 -0.10668652 -0.14105797
-0.18596818 -0.10663243 -0.14339852
-0.16415156 -0.10659076 -0.14520586
-0.14236218 -0.10654874 -0.14702439
-0.12065532 -0.10653402 -0.14766157
-0.098958828 -0.10651958 -0.14828503
-0.077271938 -0.1065052 -0.14890826
-0.055594649 -0.10649092 -0.14953113
-0.033926956 -0.10647638 -0.15015388
-0.01226885 -0.106462 -0.15077615
0.0093796747 -0.10646054 -0.15084362
0.031032469 -0.10647485 -0.15022159
0.05269485 -0.10648921 -0.14959884
0.074366823 -0.10650356 -0.14897609
0.096048392 -0.10651803 -0.14835274
0.11773957 -0.10653238 -0.1477294
0.13943972 -0.10654646 -0.14711928
0.16120853 -0.10658601 -0.14540958
0.18300965 -0.10662776 -0.14360249
0.20485762 -0.10667585 -0.14152086
-0.29472059 -0.084959418 -0.14130306
-0.27258003 -0.08489497 -0.145491
-0.25050384 -0.084830478 -0.14968002
-0.22849439 -0.084766343 -0.15384316
0.22559243 -0.084759012 -0.15431559
0.24756728 -0.08482331 -0.15014029
0.26960757 -0.084887907 -0.14595258
0.29171357 -0.084952563 -0.14175236
-0.3599776 -0.063243456 -0.14059472
-0.33736363 -0.063187942 -0.14779711
-0.31496599 -0.063139491 -0.15408611
0.31205288 -0.063136116 -0.15454471
0.33436233 -0.063181974 -0.1485697
0.35691279 -0.063237324 -0.14138484
-0.38112018 -0.041516487 -0.14481211
-0.35806733 -0.041516487 -0.15519226
0.35507438 -0.041516487 -0.1563108
0.37803763 -0.041516434 -0.14593899
-0.40263191 -0.019831631 -0.14606118
-0.37951189 -0.019911397 -0.1564188
0.37651813 -0.019920122 -0.15754986
0.39955044 -0.019840408 -0.14718711
-0.42412665 0.0018341132 -0.14729571
0.4210442 0.0018165596 -0.14843416
-0.44567707 0.023491699 -0.14806831
0.44253975 0.023457479 -0.14954472
-0.44485915 0.045005236 -0.15312767
0.44175956 0.044959437 -0.1546123
0.46554995 0.045373116 -0.14118052
-0.46790251 0.066956758 -0.14478481
0.46472579 0.06689921 -0.14627826
-0.4670437 0.088417158 -0.14985609
0.46390247 0.088347167 -0.15137112
-0.49017745 0.1105226 -0.14150727
-0.46618563 0.10979976 -0.1549226
0.46308437 0.10971832 -0.15643215
0.48696116 0.11044122 -0.14301789
-0.4899919 0.1321779 -0.14255524
0.48671481 0.1320599 -0.14447236
-0.49032453 0.15401997 -0.14067662
-0.46574751 0.15285367 -0.15750933
0.48703486 0.15388794 -0.14258254
-0.46606237 0.17459354 -0.15565062
0.46290365 0.17444731 -0.15754986
0.48735532 0.17574516 -0.14069033
-0.46637759 0.19636203 -0.15378916
0.46320635 0.19620222 -0.15567768
-0.46669549 0.21816085 -0.15191174
0.46350941 0.21798624 -0.15380275
-0.46700931 0.23998611 -0.15005898
0.46381292 0.23979925 -0.15192533
0.46547288 0.26254565 -0.14165711
-0.44537058 0.28330517 -0.14996433
0.44210249 0.28302559 -0.15238488
-0.42273867 0.30417809 -0.15631092
0.41970897 0.30402401 -0.15756333
0.44376883 0.30599487 -0.14156175
-0.4244003 0.32719648 -0.14551806
-0.40109727 0.32575241 -0.15655339
0.42128611 0.32703152 -0.14678025
-0.40267557 0.34885165 -0.14576256
-0.3794615 0.34732479 -0.15678239
0.39957488 0.34867877 -0.1470108
-0.38136879 0.37094021 -0.14301765
-0.35782751 0.36889151 -0.15702486
0.37820822 0.37070367 -0.14463532
-0.33717841 0.3916811 -0.14930105
0.33409348 0.39143527 -0.15089786
-0.31644046 0.41463175 -0.14131653
-0.29318449 0.41232982 -0.1555562
0.29017302 0.41207284 -0.15714598
0.31330687 0.41437444 -0.14290893
-0.27236959 0.43528998 -0.14759398
0.26931077 0.43502378 -0.14916563
-0.22849439 0.45585647 -0.15384316
0.22550836 0.45557943 -0.15540791
0.24832828 0.45810339 -0.14115322
-0.18594088 0.47933835 -0.14379299
-0.16397111 0.47853601 -0.14813614
-0.14206895 0.47773588 -0.15246582
-0.12023405 0.47693855 -0.15678239
0.11737297 0.47685134 -0.15725362
0.13917093 0.47764856 -0.1529386
0.16103604 0.47844833 -0.14861023
0.18296862 0.47925037 -0.14426851
0.0093796747 0.49863398 -0.15629756
-0.05573659 0.50111896 -0.14338505
-0.03393675 0.49993885 -0.14951766
-0.012231533 0.4987638 -0.15562367
0.031032782 0.49981129 -0.15018082
0.052780263 0.50099081 -0.14405107
-0.012482307 -0.12896439 -0.12304747
0.0093796747 -0.12896237 -0.12311625
-0.29660481 -0.10708465 -0.12381947
-0.27429146 -0.10697901 -0.12838948
-0.25207892 -0.10688108 -0.13262939
-0.2299339 -0.10678387 -0.13684332
0.22690172 -0.106773 -0.13730752
0.24901062 -0.10687043 -0.13309515
0.27118683 -0.10696827 -0.12885654
0.29342952 -0.10706647 -0.1246053
-0.33972695 -0.085154727 -0.12860942
-0.31707063 -0.085043177 -0.13585937
0.31398124 -0.085030973 -0.13665199
0.33657515 -0.085142627 -0.12940598
-0.38274369 -0.063301206 -0.13309515
0.37957868 -0.06329295 -0.13416302
0.40280172 -0.06337323 -0.12372315
-0.4277389 -0.041516591 -0.1238333
-0.40434211 -0.041516487 -0.13436854
0.40116933 -0.041516591 -0.13550377
0.42447507 -0.041516591 -0.12497711
-0.4493899 -0.019670336 -0.12510121
-0.4259232 -0.019751348 -0.13562679
0.42275351 -0.01976002 -0.1367476
0.44612712 -0.019679165 -0.12624407
-0.47102153 0.0021563396 -0.12636781
-0.44748732 0.0019946285 -0.1368705
0.4443166 0.0019772314 -0.13800383
0.46775988 0.0021387897 -0.12750971
-0.46962953 0.023802873 -0.13458717
0.46637699 0.023768801 -0.13606417
-0.46876445 0.045418706 -0.13969529
-0.49289942 0.045836281 -0.1261338
0.48956656 0.045790169 -0.12763333
-0.49198717 0.067476317 -0.13128614
0.48869497 0.067418784 -0.13278008
-0.51535118 0.089666247 -0.12281287
-0.4910807 0.089038402 -0.13640583
0.4878265 0.088969022 -0.13790834
0.51197821 0.089596197 -0.12432969
-0.51449615 0.11128058 -0.12744093
0.5110867 0.11117698 -0.12936473
-0.51484698 0.13322571 -0.12554193
0.5114249 0.13310793 -0.12745464
-0.51519829 0.15520029 -0.12364042
0.51176357 0.15506843 -0.12554181
-0.49065769 0.17589106 -0.13879526
0.51210266 0.1770587 -0.12362671
-0.49099118 0.19779135 -0.13691139
0.48767626 0.19763175 -0.13879514
-0.4913252 0.21972083 -0.13502514
0.4879953 0.2195466 -0.13691139
-0.49249274 0.2421505 -0.12843072
0.48902228 0.24190871 -0.13084722
-0.46884066 0.26280546 -0.13924539
-0.47069082 0.28580421 -0.12832069
0.46723592 0.28552371 -0.13075101
-0.44712323 0.30629519 -0.13912261
-0.44888943 0.32946318 -0.12819707
0.44544804 0.32914162 -0.13065517
-0.4260748 0.35039264 -0.134642
0.42287743 0.35021815 -0.13590026
-0.40518042 0.37304369 -0.12863684
0.40189633 0.37280652 -0.13025701
-0.36071187 0.39388537 -0.13498402
0.35750246 0.39363694 -0.13659716
-0.33993524 0.41695935 -0.12691832
0.33667827 0.41670144 -0.12851298
-0.29558745 0.43771765 -0.13325942
0.29240456 0.43744874 -0.13484728
-0.27461499 0.46093571 -0.12515616
-0.25143754 0.45838314 -0.1395725
0.27138114 0.46065289 -0.12675309
-0.20797852 0.48014313 -0.13943624
0.20496897 0.48005515 -0.13991344
-0.23052762 0.48191774 -0.12983167
0.22731881 0.48153746 -0.13188934
-0.12171071 0.50469339 -0.12481177
-0.099623151 0.5034976 -0.13102543
-0.077631667 0.50230449 -0.13722551
0.074622735 0.50217563 -0.13789463
0.096560821 0.50336564 -0.13171113
0.11859568 0.50456351 -0.12548685
-0.27637923 -0.12944239 -0.10752726
-0.25422525 -0.12938492 -0.10939467
-0.23210026 -0.12932746 -0.11125982
-0.21000524 -0.12927045 -0.11310852
-0.18793787 -0.12921317 -0.11496866
-0.16589929 -0.12915599 -0.1168263
-0.14389019 -0.12909925 -0.11866796
-0.12193636 -0.12906046 -0.11992645
-0.10002641 -0.1290414 -0.12054837
-0.078126051 -0.1290222 -0.12117016
-0.056235593 -0.1290036 -0.12177777
-0.034354057 -0.12898391 -0.12241256
0.03124601 -0.12898184 -0.1224817
0.053122122 -0.12900144 -0.1218468
0.075007699 -0.12902056 -0.12122524
0.096902423 -0.12903917 -0.12061763
0.11880704 -0.12905841 -0.11999559
0.14074424 -0.12909284 -0.11887538
0.16273831 -0.12915002 -0.11702025
0.18476021 -0.12920678 -0.1151768
0.20681165 -0.12926406 -0.11331677
0.22889189 -0.12932137 -0.11145449
0.25099987 -0.12937838 -0.10960364
0.27313781 -0.12943593 -0.10773647
-0.34212273 -0.10742328 -0.10915792
-0.31930515 -0.10725346 -0.11650777
0.31606561 -0.10723493 -0.11731112
0.33881992 -0.10740453 -0.10996568
-0.40840057 -0.085493311 -0.10662055
-0.38539192 -0.085380055 -0.11398327
-0.36249977 -0.085267052 -0.12132192
0.35928696 -0.085254952 -0.12210917
0.38211417 -0.085367642 -0.11478829
0.4050594 -0.085480899 -0.10742974
-0.42956769 -0.0634638 -0.11195517
-0.40606859 -0.063382268 -0.12256444
0.426211 -0.063455075 -0.1131084
-0.45130843 -0.041516487 -0.11323333
0.44795498 -0.041516382 -0.11437201
-0.47302961 -0.019588856 -0.11451066
0.46967742 -0.019597685 -0.11564827
-0.49473137 0.0023191944 -0.11578691
0.49138039 0.002301693 -0.11692345
-0.51822931 0.024434607 -0.10723436
-0.4938125 0.024117362 -0.12097681
0.49044138 0.02408288 -0.12246788
0.51474082 0.02440023 -0.10872614
-0.51726472 0.046257492 -0.11245537
0.51381743 0.04621179 -0.11394167
-0.51630622 0.068001449 -0.11764359
0.51289493 0.067943275 -0.11915195
0.53733164 0.068473488 -0.10537815
-0.53985626 0.090300113 -0.1090883
0.53636581 0.090230107 -0.11060596
-0.53963387 0.11220728 -0.11024415
0.53607804 0.11210389 -0.11216354
-0.54000378 0.13428622 -0.10832202
0.53643519 0.13416867 -0.11023021
-0.5403741 0.15639491 -0.10639739
0.53679037 0.15626243 -0.10830796
-0.51555008 0.17720425 -0.12173629
0.53714854 0.17838708 -0.10636938
-0.51590228 0.19923766 -0.11982954
0.51243979 0.19907744 -0.12172246
-0.51632416 0.2213354 -0.11754668
0.51277983 0.22112705 -0.11980212
-0.51837367 0.24434982 -0.10645306
0.51471376 0.24410708 -0.10887945
-0.49444187 0.2651574 -0.1174221
0.49088353 0.26489508 -0.11985731
-0.4964062 0.28834385 -0.10632753
0.49275923 0.28806043 -0.10878181
-0.47255534 0.30898175 -0.11731124
0.46901262 0.30867991 -0.11976051
-0.47443679 0.33234164 -0.10620201
0.47080317 0.33201686 -0.1086843
-0.45130613 0.35335702 -0.11324751
0.44760269 0.35288405 -0.11666012
-0.4292362 0.37516874 -0.11410832
0.42582533 0.37492916 -0.11574519
-0.40850466 0.39836174 -0.10590887
-0.38448605 0.39611211 -0.12052071
0.38115075 0.39586115 -0.12215042
0.40504393 0.39811036 -0.1075412
-0.363671 0.41931081 -0.11237216
0.36028776 0.41905043 -0.11398327
-0.31904295 0.44016996 -0.11877847
0.31573462 0.4398984 -0.12038267
0.33930451 0.44237334 -0.10576904
-0.29803041 0.46351439 -0.11059201
0.29467183 0.46323115 -0.11219144
-0.2543385 0.48591989 -0.10816872
0.25108832 0.48584783 -0.10855901
-0.18855879 0.50831258 -0.1060065
-0.16617788 0.50710082 -0.11230254
-0.1438954 0.5058946 -0.11857104
0.140727 0.50576401 -0.11924875
0.16295584 0.50696963 -0.11298335
0.18528371 0.50818366 -0.10667634
-0.034574218 0.52988392 -0.10811293
-0.012548876 0.52862573 -0.11439979
0.0093796747 0.52848977 -0.11507964
0.031351365 0.52974731 -0.10879576
-0.1454493 -0.15210868 -0.089734316
-0.12324353 -0.15203595 -0.091625214
-0.10111471 -0.15201095 -0.092273712
-0.078996301 -0.15198648 -0.092907906
-0.056888003 -0.1519627 -0.093527555
-0.034789018 -0.15193819 -0.094161272
-0.012699797 -0.15191384 -0.094794512
0.0093796747 -0.15191115 -0.094864964
0.031463478 -0.15193549 -0.094231725
0.053557035 -0.15195987 -0.093598127
0.075660035 -0.15198378 -0.092978239
0.097773015 -0.15200815 -0.092344165
0.11989576 -0.15203257 -0.091709852
0.14208043 -0.15210047 -0.08994627
0.16429923 -0.15217333 -0.088053226
-0.34455162 -0.12999937 -0.089437962
-0.32157049 -0.12976989 -0.096889496
-0.29870823 -0.12954171 -0.10430241
0.29539838 -0.12952231 -0.10493112
0.31817871 -0.1297448 -0.097704053
0.34109575 -0.12997413 -0.09025681
-0.3881132 -0.10776524 -0.094344258
-0.36505845 -0.10759377 -0.10177028
0.36169204 -0.10757503 -0.10258222
0.38468283 -0.1077465 -0.095160127
-0.45519853 -0.085762054 -0.089169621
-0.43152842 -0.085607305 -0.09921968
0.42812344 -0.085594788 -0.10003293
0.45165253 -0.085743777 -0.090355635
-0.47709894 -0.063629143 -0.090482593
-0.45324528 -0.063546263 -0.1012522
0.44979596 -0.063537277 -0.10241425
0.47355637 -0.063620165 -0.091653466
0.47160873 -0.041516487 -0.10370123
0.49544278 -0.041516539 -0.09293592
-0.49898183 -0.041516434 -0.091780305
-0.47505689 -0.041516434 -0.10254025
-0.52084494 -0.019423822 -0.093076825
-0.49684644 -0.01950665 -0.10384095
0.49340424 -0.019515375 -0.10497308
0.51730722 -0.019432753 -0.094231606
-0.51919484 0.0025313832 -0.10200834
0.51566774 0.0025086366 -0.10349143
0.54042798 0.0027376004 -0.088618636
-0.54288071 0.024754811 -0.093372703
0.53927398 0.02472033 -0.094864845
-0.54186887 0.04668327 -0.098630548
0.53830105 0.046637107 -0.10013103
-0.5656541 0.069066897 -0.089960337
-0.54086071 0.068531603 -0.10386908
0.56200355 0.069008276 -0.091484189
-0.5646894 0.090960979 -0.094780326
0.5609985 0.090871975 -0.096706629
-0.56507826 0.11314531 -0.092837334
0.56137192 0.11304124 -0.094766259
-0.56546491 0.13535871 -0.090905786
0.56174856 0.1352416 -0.092809319
-0.56585479 0.15760311 -0.088957667
0.56212568 0.15747206 -0.0908494
-0.54074508 0.17853336 -0.10447001
0.56250066 0.17973192 -0.088901162
-0.54111648 0.20070174 -0.10254025
0.53750718 0.20054193 -0.10442829
-0.5424934 0.22338255 -0.095385194
0.53873134 0.2231593 -0.097802281
-0.52043927 0.26754463 -0.095272899
0.5166899 0.26728103 -0.097718
-0.49838585 0.31171173 -0.095146179
0.49465197 0.31140891 -0.097605824
0.45170251 0.37869018 -0.090031028
-0.43284103 0.40070423 -0.090694308
0.42918208 0.40038076 -0.092795134
-0.38765153 0.42168656 -0.097676039
0.38414055 0.42142329 -0.099303842
-0.36668158 0.44515109 -0.08936727
-0.34273973 0.44264767 -0.10414839
0.36311975 0.44487607 -0.090990424
-0.32234123 0.46712232 -0.090214491
0.31889766 0.4669773 -0.091032982
-0.21103986 0.50953221 -0.099668503
0.20770964 0.50940007 -0.10035551
-0.078917854 0.5324176 -0.095455647
-0.056696992 0.53114802 -0.1017983
0.053420223 0.53101069 -0.10248411
0.075586908 0.53227949 -0.096144438
-0.10123691 0.53368968 -0.089098811
0.097852074 0.53355408 -0.089776754
-0.32456946 -0.15283296 -0.070917487
-0.30196738 -0.15271185 -0.074061275
-0.27941296 -0.15259054 -0.077212334
-0.25691819 -0.15247388 -0.080242991
-0.23456554 -0.15240066 -0.082146406
-0.21224238 -0.15232751 -0.084047198
-0.18994866 -0.15225448 -0.085945368
-0.16768344 -0.15218094 -0.087855339
0.18654732 -0.15224622 -0.08615768
0.20882477 -0.15231933 -0.084259629
0.23113166 -0.15239248 -0.082359195
0.2534692 -0.15246633 -0.080442071
0.27592725 -0.15257803 -0.077539921
0.29845339 -0.15269867 -0.074403882
0.32102853 -0.15281957 -0.07126081
-0.39087224 -0.13046135 -0.074432373
-0.36765069 -0.13022947 -0.08196187
0.3641322 -0.13020471 -0.082770705
0.38728899 -0.13043636 -0.0752455
-0.45800117 -0.10828513 -0.071832776
-0.4345836 -0.10811105 -0.079375625
-0.41128793 -0.10793771 -0.086879492
0.40779519 -0.10791911 -0.087685585
0.43102628 -0.10809231 -0.080186129
0.4543789 -0.10826643 -0.072647333
-0.47916064 -0.085929215 -0.078308702
0.47552279 -0.085911095 -0.07948935
-0.50135946 -0.063722618 -0.078351378
0.49760687 -0.063708596 -0.080157757
-0.52362072 -0.041516539 -0.078052402
0.51985443 -0.041516434 -0.079845071
-0.54607302 -0.019298358 -0.076785088
0.54216719 -0.019316949 -0.079205155
-0.5442611 0.0027747303 -0.086200118
-0.56909639 0.025230754 -0.072761774
0.56513417 0.025173996 -0.075217128
-0.56720668 0.047189023 -0.082203031
0.5633148 0.04711305 -0.084670663
0.58816189 0.069787756 -0.0712322
-0.59155339 0.092024267 -0.07176125
0.5873872 0.091869816 -0.075102806
-0.59131575 0.11421938 -0.072904587
0.58716172 0.11404023 -0.076229334
-0.59124154 0.13644531 -0.073261738
0.5873729 0.13632762 -0.075174212
-0.5916515 0.15882717 -0.07128942
0.58776999 0.15869552 -0.073190212
-0.56624526 0.17987764 -0.087006807
0.58816761 0.18109421 -0.071203589
-0.56679797 0.20225099 -0.084245682
0.56293333 0.20204706 -0.086652994
-0.56907064 0.22546063 -0.072890401
0.56511497 0.22523643 -0.075316787
-0.54466182 0.24658506 -0.084118009
0.54080945 0.24634124 -0.08655405
-0.54685009 0.26997203 -0.072747469
0.54290402 0.26970595 -0.075217128
-0.5225237 0.29092303 -0.083990455
0.51868409 0.29063851 -0.086455107
-0.52462459 0.31448641 -0.072618723
0.52069402 0.3141804 -0.075102806
-0.5013544 0.33598265 -0.078379869
0.4973278 0.33553433 -0.081805587
-0.47845066 0.35761741 -0.082501054
0.4744837 0.35714409 -0.085917115
-0.45561451 0.37919253 -0.08659637
-0.50275671 0.40381956 -0.070459604
-0.48045844 0.40379098 -0.07064569
-0.41188061 0.42408711 -0.082827449
0.40824243 0.42382336 -0.084457994
-0.39120474 0.44808671 -0.072032928
0.38745707 0.44776013 -0.073961377
-0.27851495 0.48998117 -0.086185932
0.27524367 0.49021149 -0.084939957
-0.23456313 0.5128991 -0.082174778
0.23103774 0.51262856 -0.083579183
-0.14617473 0.53625691 -0.07627213
-0.12365579 0.53497052 -0.082699656
0.12021635 0.53483415 -0.083380818
0.14268042 0.53612018 -0.076956034
0.16524495 0.53741169 -0.070502639
-0.012880958 0.5595206 -0.07126081
0.0093796747 0.55923229 -0.072647452
-0.21452673 -0.17586038 -0.05437243
-0.19200185 -0.17577089 -0.056309938
-0.16980429 -0.17590454 -0.053417206
0.16618358 -0.17591991 -0.053084016
0.18839882 -0.17578094 -0.056093216
0.21088141 -0.17585105 -0.054574966
-0.3936699 -0.15347469 -0.054242134
-0.3702791 -0.15318081 -0.061877131
-0.34722078 -0.15295406 -0.067767143
0.3436529 -0.15294088 -0.068111062
0.36660632 -0.15314981 -0.062682986
0.38993159 -0.15344353 -0.05505228
-0.43768144 -0.13092873 -0.059254885
-0.41421551 -0.13069446 -0.066863418
0.41056713 -0.13066927 -0.067681074
0.43396756 -0.13090342 -0.060076475
-0.48201656 -0.10852504 -0.061445236
0.4782443 -0.10849716 -0.062654257
-0.50429159 -0.086183526 -0.061790705
0.50040799 -0.086155429 -0.063617706
-0.52668101 -0.063852392 -0.061488271
0.52278352 -0.063838422 -0.063301563
-0.54907227 -0.041516487 -0.06120038
0.54516387 -0.041516591 -0.062985063
-0.57291311 -0.019120598 -0.053692222
0.56880337 -0.019139552 -0.056151152
-0.57099843 0.0031279624 -0.063258171
0.56696272 0.0030901581 -0.065715432
-0.59416479 0.047897514 -0.059197068
0.59006888 0.047820289 -0.061704278
-0.59218407 0.069884181 -0.068727255
-0.59206194 0.18123968 -0.06931448
-0.59367365 0.2041719 -0.061560512
0.58961105 0.20396605 -0.063991547
-0.57136428 0.24885555 -0.061430812
0.56731659 0.24861075 -0.063876748
-0.54905289 0.29354301 -0.061301231
0.54501772 0.29325724 -0.063775897
0.50194925 0.36149511 -0.05451715
-0.48306251 0.38377458 -0.055269361
0.47888243 0.38327175 -0.058706641
-0.46000418 0.40551576 -0.059442282
0.45588201 0.4049857 -0.06288445
-0.43700969 0.42719236 -0.063617706
0.43294552 0.4266353 -0.067064285
-0.34719959 0.4710663 -0.067939043
0.34385493 0.47134572 -0.066361308
-0.3030681 0.49410844 -0.06384778
0.29980353 0.4946506 -0.060912251
-0.25880903 0.51720995 -0.059773803
0.25524008 0.51725733 -0.059528708
-0.2144243 0.5403738 -0.055703163
-0.19151548 0.53884721 -0.063330173
-0.16879441 0.53754926 -0.069815636
0.18791065 0.53870922 -0.064020276
0.21067815 0.54001242 -0.057508707
-0.035361767 0.56249291 -0.056960106
0.031738505 0.56217194 -0.05850482
-0.35107794 -0.17668809 -0.036450863
-0.32817763 -0.17653939 -0.039669991
-0.30532765 -0.17639101 -0.042881966
-0.28252783 -0.17624305 -0.046086788
-0.25977796 -0.17609534 -0.049284935
-0.23708166 -0.17594995 -0.052432179
-0.14756875 -0.17604373 -0.050402403
-0.1252864 -0.17618255 -0.047396064
-0.10293783 -0.17629753 -0.044907689
-0.080507971 -0.17634797 -0.043815136
-0.058060978 -0.1763978 -0.042735934
-0.035597384 -0.17644757 -0.041656375
-0.013117173 -0.17649767 -0.040575862
0.0093796747 -0.17650293 -0.040458918
0.031869102 -0.17645308 -0.041539669
0.054341905 -0.17640321 -0.042619467
0.076798104 -0.17635329 -0.04369843
0.099237263 -0.17630295 -0.044791102
0.12161372 -0.17619732 -0.047076106
0.14392163 -0.17605841 -0.05008328
0.23341982 -0.17594063 -0.052635074
0.25607803 -0.17607932 -0.049633145
0.27880186 -0.17622747 -0.046421528
0.30157435 -0.1763756 -0.043217301
0.32439694 -0.17652394 -0.040006042
0.34726977 -0.17667253 -0.036787868
-0.41718411 -0.15377006 -0.046566963
0.41337991 -0.1537388 -0.04738152
0.4373931 -0.1541516 -0.036655903
-0.48610818 -0.13160516 -0.037285566
-0.46177065 -0.13125941 -0.048514962
0.45790872 -0.13122228 -0.049720407
0.48215136 -0.13156834 -0.038485527
-0.50725764 -0.10890397 -0.0450387
0.50324148 -0.1088613 -0.04688704
-0.52977657 -0.086446241 -0.044732928
0.52574641 -0.086418048 -0.046566963
-0.55229753 -0.063983679 -0.044441581
0.54825628 -0.063969657 -0.046246886
-0.57483751 -0.041516539 -0.044077277
0.5707711 -0.041516539 -0.045926809
-0.59816575 0.0034869052 -0.03994751
0.59392369 0.0034484267 -0.042444229
-0.59615868 0.025765534 -0.049604058
0.59198844 0.025707629 -0.052113414
-0.62155694 0.04861727 -0.035820842
0.61725634 0.048539218 -0.038353801
-0.62077451 0.071010977 -0.039450645
0.61632133 0.070880115 -0.042852759
-0.62052572 0.093463197 -0.040605187
0.61608189 0.093306169 -0.04400444
-0.62027079 0.11589606 -0.041787744
0.61584276 0.11571456 -0.045155168
-0.62001926 0.13831174 -0.042954922
0.61560374 0.13810548 -0.04630518
-0.61976784 0.16070944 -0.044121027
0.61536497 0.16047856 -0.047454119
-0.62045014 0.18342279 -0.040955663
0.6157459 0.18306363 -0.045621276
-0.59607422 0.22757404 -0.050010562
0.59191889 0.22734778 -0.052461267
-0.59849089 0.25116202 -0.038383126
0.59424508 0.25091633 -0.040838838
-0.57367611 0.27243662 -0.049879909
0.56953305 0.27216932 -0.0523597
-0.57600647 0.29620636 -0.038236856
0.57176989 0.29591766 -0.040736675
-0.55264539 0.31817943 -0.04263401
0.54828852 0.31775609 -0.046072245
-0.52938128 0.34010589 -0.046872497
0.52508533 0.33965725 -0.050300956
-0.50618726 0.36197063 -0.051084161
-0.484359 0.42977944 -0.047613978
-0.4167569 0.45190477 -0.049487948
0.41315642 0.45198831 -0.048994303
-0.37244457 0.47506928 -0.045329928
0.36924648 0.47579217 -0.041247606
