ply
format ascii 1.0
comment PCL generated
element vertex 1334
property float x
property float y
property float z
element camera 0
property float view_px
property float view_py
property float view_pz
property float x_axisx
property float x_axisy
property float x_axisz
property float y_axisx
property float y_axisy
property float y_axisz
property float z_axisx
property float z_axisy
property float z_axisz
property float focal
property float scalex
property float scaley
property float centerx
property float centery
property int viewportx
property int viewporty
property float k1
property float k2
end_header
-0.07221882 -0.07479459 -0.15407175
-0.051141884 -0.074715152 -0.15750974
0.011771355 -0.074703053 -0.15803689
0.032754805 -0.074752346 -0.15590239
0.053771175 -0.074801669 -0.15376437
0.074820533 -0.074851081 -0.15162319
0.095902964 -0.074900746 -0.14947832
0.11701855 -0.074950278 -0.14733022
0.13816679 -0.074999705 -0.14519119
0.1593488 -0.075049475 -0.14303643
0.18056421 -0.075099275 -0.14087826
-0.15685807 -0.053959347 -0.14353204
-0.1355927 -0.053906053 -0.14699668
-0.11438164 -0.053853028 -0.15044016
-0.093223467 -0.053799868 -0.15388739
-0.072118998 -0.053747166 -0.15731353
0.053721819 -0.053752434 -0.15696996
0.074746102 -0.053785168 -0.15484607
0.095803574 -0.053818118 -0.15270644
0.11689411 -0.053850986 -0.15056342
0.13801779 -0.05388407 -0.14841706
0.15917471 -0.053917151 -0.14626747
0.18036492 -0.053950369 -0.14411432
0.20158853 -0.053983614 -0.14195776
-0.17794962 -0.032882087 -0.14334625
-0.15665689 -0.032855451 -0.14679897
-0.1354171 -0.032828875 -0.15025532
-0.11423151 -0.032802455 -0.15369064
-0.09309867 -0.032775931 -0.15712959
0.074672133 -0.03276886 -0.15804929
0.095704779 -0.032785363 -0.1559146
0.11677043 -0.032801863 -0.15377665
0.13786913 -0.032818258 -0.15163541
0.15900101 -0.032834783 -0.14949065
0.1801661 -0.032851316 -0.14734262
0.2013645 -0.032867949 -0.14519119
-0.13524194 -0.011802031 -0.15350604
0.15882772 -0.011802031 -0.15270638
0.179967 -0.011802004 -0.1505757
-0.199045 -0.011801977 -0.14314783
-0.17772326 -0.011801977 -0.14661354
-0.15645619 -0.011801977 -0.15005809
-0.11408174 -0.011801923 -0.15693331
0.11664703 -0.01180195 -0.1569823
0.13772084 -0.01180195 -0.15484619
0.20114015 -0.01180187 -0.14842951
0.22266118 -0.011801923 -0.14219344
-0.22015287 0.0092820544 -0.14283812
-0.19880199 0.0092553683 -0.14630437
-0.17750514 0.0092287604 -0.14976203
-0.15626201 0.0092021301 -0.15321088
-0.13507245 0.0091757923 -0.15665108
0.13757743 0.0091656856 -0.15795124
0.1586608 0.0091822688 -0.15580422
0.1797767 0.0091986619 -0.1536659
0.20092572 0.0092151612 -0.15152448
0.22240184 0.0092610661 -0.14556241
-0.19905454 0.030363187 -0.14302397
-0.17773183 0.030309811 -0.14648992
-0.15646301 0.030256625 -0.14994705
-0.1352479 0.030203521 -0.15339541
-0.11408627 0.030150551 -0.15683502
0.1166513 0.030150037 -0.15687203
0.13772595 0.030182909 -0.15473545
0.15883435 0.03021599 -0.15258324
0.17997535 0.030249074 -0.15044022
0.20114957 0.030282103 -0.14829367
0.22267263 0.03037829 -0.1420446
-0.17795821 0.051441226 -0.14322221
-0.15666449 0.05136146 -0.14667535
-0.13542375 0.05128156 -0.15013194
-0.11423662 0.051201958 -0.15357989
-0.093102917 0.051122565 -0.15701908
0.074674964 0.051101547 -0.15792662
0.095708564 0.051151004 -0.15579188
0.11677516 0.051200341 -0.15365374
0.13787483 0.051249739 -0.15151227
0.15900765 0.051299322 -0.14936727
0.18017371 0.051348913 -0.14721906
0.20137309 0.051398713 -0.14506757
-0.1568657 0.072516575 -0.14340818
-0.13559936 0.072409883 -0.14687312
-0.11438733 0.072303891 -0.15031683
-0.093228191 0.072197676 -0.15376437
-0.072122395 0.072091818 -0.15720326
0.053723518 0.072102353 -0.15685976
0.074748948 0.072168171 -0.15472329
0.095807359 0.072234064 -0.15258348
0.11689933 0.072300449 -0.150428
0.13802406 0.072366476 -0.14828122
0.15918203 0.072432727 -0.1461314
0.18037331 0.072499022 -0.14397812
0.20159797 0.072565377 -0.14182132
-0.1357794 0.093591422 -0.14353204
-0.11453898 0.093456611 -0.14703375
-0.093353301 0.09332259 -0.15051407
-0.072222605 0.093190446 -0.15394872
-0.051144708 0.093058079 -0.15738708
0.011771355 0.093037874 -0.15791434
0.032755751 0.093119949 -0.15577948
0.053773068 0.093202293 -0.1536414
0.07482338 0.093284741 -0.15149999
0.095906764 0.093367204 -0.14935493
0.11702473 0.093451396 -0.14716971
0.13817593 0.093535244 -0.14499325
0.15936083 0.093619108 -0.14281327
0.1805795 0.093703061 -0.14062989
-0.030276984 0.11434303 -0.15061265
-0.0092580356 0.11437429 -0.14993465
-0.072541073 0.1146667 -0.14360642
-0.051382098 0.1145049 -0.14710784
0.011771355 0.11447476 -0.1477626
0.032834213 0.11457513 -0.14558709
0.053930618 0.11467575 -0.14340818
0.075060651 0.11477657 -0.14122581
-0.07317251 -0.13921778 -0.12309951
-0.051854763 -0.13905427 -0.12664104
-0.030591667 -0.13889095 -0.13017374
-0.009413721 -0.13891234 -0.12971073
0.011771355 -0.13901363 -0.12751877
0.032990202 -0.13911507 -0.12532359
0.054243289 -0.13921778 -0.12309951
-0.13688719 -0.1179866 -0.12297386
-0.11548609 -0.11784974 -0.12652838
-0.09414053 -0.11771388 -0.13006097
-0.072849274 -0.11757773 -0.1335972
-0.051612947 -0.11744255 -0.13711184
-0.0093341563 -0.11732948 -0.14004642
0.011771355 -0.11741328 -0.13787091
0.032910481 -0.11749761 -0.1356796
0.054083206 -0.11758155 -0.13349742
0.075289607 -0.11766566 -0.13131154
0.096530154 -0.11775048 -0.12910968
0.11780426 -0.11783487 -0.12691689
0.13911226 -0.11791947 -0.12472075
0.16045497 -0.11800453 -0.12250847
-0.20060478 -0.096752375 -0.12288582
-0.17912175 -0.096643418 -0.12642783
-0.15769383 -0.09653455 -0.12996095
-0.13632011 -0.096425653 -0.13349736
-0.11500186 -0.09631744 -0.13701218
0.096211374 -0.096241981 -0.13946259
0.11740515 -0.096309066 -0.13728607
0.13863258 -0.096376136 -0.13510638
0.15989444 -0.096443787 -0.13291061
0.18118955 -0.09651114 -0.13072389
0.20251857 -0.096578464 -0.12853378
-0.24276438 -0.075435996 -0.12630242
-0.22125705 -0.075355187 -0.12979835
-0.19980328 -0.075274318 -0.13329768
-0.17840485 -0.075194046 -0.13677579
-0.15705973 -0.075113654 -0.14025742
0.20181307 -0.075149193 -0.13871664
0.22347769 -0.075313926 -0.13158649
0.24535529 -0.075506568 -0.12323797
-0.26426476 -0.054269083 -0.12341398
-0.24245879 -0.054173622 -0.12961054
-0.22097661 -0.054119766 -0.13311046
-0.19954991 -0.054066174 -0.13658905
-0.17817652 -0.054012559 -0.14007115
0.22320482 -0.054088645 -0.13513136
0.24505329 -0.054216892 -0.12680423
-0.26389536 -0.033007108 -0.12710524
-0.24215394 -0.032962497 -0.13291061
-0.22069785 -0.032935515 -0.13640213
-0.19929716 -0.032908879 -0.13987225
0.22293265 -0.032918125 -0.13866687
0.24475209 -0.032982007 -0.1303612
-0.26352698 -0.011802058 -0.13078636
-0.24184984 -0.011802031 -0.13620281
-0.22041978 -0.011802004 -0.13968593
0.24445166 -0.011801977 -0.13390905
0.26637548 -0.011801977 -0.12556201
-0.28539944 0.0094245486 -0.12433147
-0.26317325 0.0093476046 -0.13432091
-0.2415579 0.0093088243 -0.13936293
0.2441657 0.0093247611 -0.13728607
0.26606163 0.0093888845 -0.1289596
-0.263542 0.030553948 -0.13063639
-0.24186134 0.030470151 -0.1360783
-0.22043031 0.030416507 -0.13956177
0.2444654 0.030506082 -0.13374692
0.26639056 0.030634601 -0.12539887
-0.26391041 0.051816832 -0.12695462
-0.24216548 0.051682245 -0.13278592
-0.22070946 0.051601861 -0.13626516
-0.19930671 0.051521447 -0.13974822
0.22294414 0.051549826 -0.13851774
0.24476586 0.051742043 -0.13019866
-0.26428112 0.073137209 -0.12325042
-0.24247155 0.07294561 -0.12947279
-0.22098821 0.072837815 -0.13297307
-0.19955949 0.072730348 -0.13646448
-0.17818601 0.072623521 -0.1399346
0.22321634 0.072776034 -0.13498157
0.2450671 0.073032856 -0.12664115
-0.24280149 0.094269961 -0.12590086
-0.22128674 0.094133541 -0.12944788
-0.19982825 0.093997911 -0.13297313
-0.17842384 0.093861997 -0.13650185
-0.15707427 0.093726635 -0.14002144
0.20183203 0.093787342 -0.13844311
0.22350752 0.094066143 -0.13119918
0.24539894 0.094392329 -0.12272227
-0.2006406 0.11564524 -0.12242031
-0.17915392 0.11548159 -0.12596375
-0.15772159 0.11531781 -0.12951046
-0.13634433 0.11515437 -0.13304806
-0.11502199 0.11499146 -0.13657659
-0.093754292 0.11482881 -0.14009607
0.096224397 0.11487751 -0.13903975
0.11742193 0.11497866 -0.13685042
0.13865332 0.11508001 -0.1346575
0.15991867 0.11518146 -0.13246113
0.18121882 0.11528356 -0.13024855
0.20255241 0.1153854 -0.1280452
-0.13691363 0.13688298 -0.12248319
-0.11550811 0.13669075 -0.12605149
-0.094158351 0.13649961 -0.12959796
-0.072863102 0.13630834 -0.13314784
-0.051623005 0.13611822 -0.13667613
-0.030437373 0.13592862 -0.14019537
-0.0093373135 0.13595872 -0.1396364
0.011771355 0.13607667 -0.13744789
0.032913744 0.13619471 -0.13525593
0.054089934 0.13631299 -0.13306046
0.075300291 0.13643217 -0.13084906
0.09654443 0.13655092 -0.12864643
0.1178226 0.13666973 -0.12644041
0.1391349 0.13678882 -0.12423086
-0.073188007 0.15811679 -0.1225965
-0.051866051 0.15789779 -0.12615192
-0.030598797 0.15767866 -0.12971073
-0.0094172843 0.15770718 -0.12924749
0.011771355 0.15784296 -0.12704253
0.032993972 0.157979 -0.12483382
0.054250646 0.15811518 -0.12262177
-0.095070839 -0.16138107 -0.10589117
-0.073589236 -0.16118307 -0.10956579
-0.052164454 -0.16098548 -0.11323094
-0.030796237 -0.16078852 -0.11688638
-0.0095148738 -0.16080554 -0.11657053
0.011771355 -0.16092761 -0.11430699
0.033092558 -0.16105039 -0.11202723
0.054448918 -0.16117348 -0.10974371
0.07584022 -0.16129604 -0.10746908
0.097267061 -0.16141939 -0.10517812
-0.18059048 -0.14004323 -0.10522896
-0.158996 -0.13987741 -0.10881662
-0.13745727 -0.1397122 -0.11239481
-0.11597344 -0.13954671 -0.11597651
-0.094545633 -0.13938242 -0.11953628
0.075530112 -0.13931955 -0.12089723
0.096850961 -0.13942133 -0.11869144
0.1182059 -0.1395234 -0.11648208
0.13959618 -0.13962691 -0.11424369
0.16101977 -0.13972925 -0.11202723
0.1824777 -0.13983172 -0.10980713
0.20407847 -0.14000674 -0.10601848
-0.24472049 -0.11867353 -0.1051271
-0.22304237 -0.11853546 -0.10871494
-0.20142019 -0.11839774 -0.11229342
-0.17985374 -0.11826031 -0.11586279
-0.15834281 -0.1181234 -0.11942279
0.18183118 -0.11808941 -0.12030512
0.20328528 -0.11819857 -0.11746722
0.22522074 -0.11852674 -0.10894358
-0.26582098 -0.097214997 -0.10786319
-0.24373695 -0.096971422 -0.11577415
-0.2221431 -0.09686175 -0.11933464
0.22434129 -0.096829936 -0.12036812
0.24631852 -0.097091854 -0.11186242
-0.28699622 -0.075823545 -0.10951513
-0.2646364 -0.07558836 -0.11970025
0.26737195 -0.075702116 -0.11477518
0.28952792 -0.075899705 -0.10622209
-0.28658211 -0.054423884 -0.11335766
0.26703462 -0.054345839 -0.11842632
0.28915137 -0.054475836 -0.10998493
-0.30863029 -0.033162098 -0.10697287
-0.28618139 -0.033084266 -0.1170758
0.26670408 -0.03304635 -0.12200528
0.28879103 -0.033111222 -0.11358547
0.31101182 -0.033176288 -0.1051271
-0.30819899 -0.011801923 -0.1107083
-0.28578177 -0.011801977 -0.12078375
0.28843164 -0.011801977 -0.11717683
0.31062242 -0.01180195 -0.10874015
-0.30778781 0.0095019229 -0.1142692
0.28809083 0.0094533321 -0.12058228
0.31025314 0.0095180739 -0.11216664
-0.30821949 0.030863523 -0.11053073
-0.28579938 0.030708104 -0.12062013
0.28844935 0.030763898 -0.11699992
0.31064296 0.030894 -0.10854971
-0.30865085 0.052282479 -0.10679483
-0.28619909 0.052048821 -0.11691153
0.26672032 0.051935274 -0.12182897
0.28880876 0.052129742 -0.11340821
0.31103241 0.052325394 -0.10493594
-0.28660122 0.073447376 -0.11318028
0.26705098 0.073291332 -0.11824983
0.28916913 0.073551193 -0.10980713
-0.28705919 0.094923303 -0.10893089
-0.26468942 0.094529122 -0.11917078
0.26742455 0.094720095 -0.11420572
0.2895878 0.095050529 -0.10562384
-0.26588079 0.11634524 -0.10726559
-0.24378252 0.11597496 -0.11528111
-0.22218367 0.11580989 -0.11885536
0.22438397 0.1157656 -0.11981362
0.24636792 0.11615975 -0.11127913
-0.24477112 0.13784781 -0.10457903
-0.22308755 0.13765377 -0.10818118
-0.20146018 0.13746005 -0.11177367
-0.17988966 0.13726775 -0.11534441
-0.15837388 0.13707517 -0.11891848
0.16048142 0.13690811 -0.12201786
0.18186222 0.13702762 -0.11980116
0.20332465 0.13718396 -0.11689895
0.22526672 0.13764471 -0.10834628
-0.18063019 0.15922163 -0.10465568
-0.15902965 0.158999 -0.10827005
-0.13748594 0.15877771 -0.11186242
-0.11599797 0.15855712 -0.11544555
-0.094565049 0.15833628 -0.11903203
0.075541466 0.15825166 -0.12040597
0.096866503 0.15838836 -0.11818671
0.11822633 0.15852605 -0.11595124
0.13962016 0.15866308 -0.11372477
0.16104846 0.1588005 -0.11149478
0.18251131 0.15893807 -0.10926116
0.20412081 0.15917538 -0.1054073
-0.095111519 0.18058729 -0.10483402
-0.07362093 0.18033072 -0.1085369
-0.052187573 0.18007484 -0.11223006
-0.03081122 0.17981969 -0.11591327
-0.0095223654 0.17984156 -0.11559725
0.011771355 0.18000014 -0.11330694
0.033100367 0.18015914 -0.11101276
0.054464757 0.18031836 -0.10871494
0.075864613 0.18047787 -0.10641313
-0.074216709 -0.18377812 -0.089188516
-0.052633505 -0.18354823 -0.092920542
-0.031108309 -0.1833206 -0.096616864
-0.0096691679 -0.18332611 -0.09652698
0.011771355 -0.18346839 -0.094217896
0.033247359 -0.18361007 -0.091917694
0.054759037 -0.18375264 -0.089600921
0.076306179 -0.18389492 -0.087292969
-0.20333976 -0.16237976 -0.087357461
-0.18157063 -0.16217913 -0.091081321
-0.15985867 -0.16197819 -0.0948084
-0.13820532 -0.16177872 -0.098512411
-0.11660945 -0.16157956 -0.10220671
0.11872932 -0.16154313 -0.10288322
0.14022708 -0.16166699 -0.10058451
0.16175975 -0.1617904 -0.098294735
0.1833287 -0.16191468 -0.095988631
0.20513563 -0.16219644 -0.090759754
-0.24572584 -0.14055063 -0.094243586
-0.22394855 -0.14037648 -0.098013103
-0.20224188 -0.1402099 -0.1016193
0.22610851 -0.14040418 -0.097411275
0.24827453 -0.14080371 -0.088763177
-0.26701704 -0.11902824 -0.095911682
0.24729303 -0.11885726 -0.10035443
0.26950124 -0.11918938 -0.091724813
-0.31090721 -0.097849637 -0.087254286
-0.28828135 -0.097531244 -0.097590625
0.26843277 -0.097355768 -0.10329127
0.290683 -0.097620949 -0.094679892
-0.33221421 -0.07629928 -0.088917851
-0.30952153 -0.076060474 -0.099254608
0.31181991 -0.076098099 -0.097628891
0.33425188 -0.076298073 -0.088969469
-0.331707 -0.054736793 -0.093036115
-0.30906278 -0.054579843 -0.10322756
0.31140363 -0.054606635 -0.10149151
0.3337912 -0.054737978 -0.092959046
-0.35402223 -0.033319183 -0.086557329
-0.33124229 -0.033240303 -0.096808851
0.33336884 -0.033241808 -0.096616626
0.35586488 -0.033307817 -0.088041306
-0.33077884 -0.011802004 -0.10057163
-0.3535262 -0.011801896 -0.090347826
0.33294904 -0.01180195 -0.10025209
0.35541281 -0.011801896 -0.091711938
-0.35305673 0.0096585508 -0.09393537
-0.33034021 0.0095800757 -0.10413313
0.33255246 0.009583408 -0.10368669
0.35498872 0.0096490923 -0.095154762
0.37756324 0.009715151 -0.086570144
-0.35355315 0.031177346 -0.090141654
-0.33080405 0.031019911 -0.10036713
0.33297119 0.031024721 -0.10006046
0.35543814 0.031156436 -0.091506064
-0.35405096 0.05275486 -0.086337805
-0.33126757 0.052517798 -0.09660399
0.33339253 0.052522253 -0.096411526
0.35589033 0.052720327 -0.087834895
-0.33173388 0.074074402 -0.092817664
-0.30908486 0.07375969 -0.10303617
0.31142429 0.073813096 -0.10129994
0.33381495 0.074076369 -0.092753291
-0.3322984 0.095719755 -0.088234603
-0.30959541 0.095320255 -0.098614633
0.31188756 0.095382407 -0.097001195
0.33432779 0.095716819 -0.088311851
-0.31099066 0.11730286 -0.086531579
-0.28835177 0.11682223 -0.09693712
0.26848933 0.11655705 -0.10267895
0.29074723 0.11695608 -0.09403789
-0.26708251 0.13835005 -0.095257401
0.24734607 0.13810913 -0.099727809
0.26956186 0.13857581 -0.091068506
-0.24578756 0.15990405 -0.093575656
-0.22399846 0.15966693 -0.097423971
-0.20228612 0.15944397 -0.10104454
0.22615783 0.15970719 -0.096770585
0.24833129 0.1602416 -0.088092685
-0.18165179 0.18162112 -0.089909852
-0.15992984 0.18136181 -0.093652725
-0.13826604 0.18110335 -0.097385585
-0.11666018 0.18084529 -0.10110837
0.097300023 0.18063755 -0.10410744
0.11877109 0.18079749 -0.10179812
0.14027788 0.18095778 -0.099484861
0.16182049 0.18111834 -0.09716779
0.18339901 0.18127906 -0.094846725
0.20522216 0.18164887 -0.08951062
-0.074252829 0.20325854 -0.088015378
-0.052660223 0.20297006 -0.091763318
-0.031125482 0.20268226 -0.095501125
-0.0096778553 0.20269009 -0.095398426
0.011771355 0.20286806 -0.093087494
0.033256274 0.20304723 -0.090759754
0.054776892 0.20322566 -0.088440895
-0.07485266 -0.20670596 -0.068535447
-0.053109784 -0.2064454 -0.072296739
-0.031424589 -0.20618378 -0.076073885
-0.0098258164 -0.20617643 -0.076177955
0.011771355 -0.20633796 -0.07384789
0.033404529 -0.20650055 -0.071501017
0.055073697 -0.20666252 -0.069163084
-0.18299866 -0.18493088 -0.070469499
-0.16112545 -0.18469879 -0.074238658
-0.13931148 -0.18446806 -0.077984571
-0.11755507 -0.1842372 -0.081733465
-0.095856756 -0.1840069 -0.085472465
0.097889349 -0.18403797 -0.084968388
0.11950848 -0.18418144 -0.082639992
0.14116363 -0.18432489 -0.080307782
0.16285418 -0.18446806 -0.077984571
0.18458156 -0.18461218 -0.075644493
0.20667811 -0.18505232 -0.068496346
-0.2472254 -0.16288337 -0.078010678
-0.22516485 -0.16257952 -0.083649576
0.22730541 -0.16267584 -0.081862986
0.24961698 -0.1631583 -0.072909474
-0.29088509 -0.14151187 -0.073430896
-0.26821956 -0.14102849 -0.083895385
0.27057865 -0.14120565 -0.080061376
0.29302222 -0.14161009 -0.071305156
-0.31230789 -0.11982831 -0.075124025
-0.2895762 -0.11942604 -0.085575879
0.29184771 -0.11952363 -0.08304143
0.31433511 -0.11986054 -0.074290633
-0.33370489 -0.098171026 -0.076815128
0.31307298 -0.097888142 -0.086002111
0.3356013 -0.098156676 -0.077282906
0.35827062 -0.098426729 -0.06850934
-0.35507613 -0.07653971 -0.078504145
0.35682219 -0.07649903 -0.080268979
0.37953359 -0.076701209 -0.07151401
-0.37750107 -0.055054434 -0.072400928
-0.35451961 -0.054895062 -0.08275646
0.35631821 -0.054870363 -0.084360898
0.37898281 -0.055003315 -0.075722694
-0.37697053 -0.033398844 -0.076229811
0.37849993 -0.033374198 -0.079412758
0.4012734 -0.033441011 -0.070743799
0.40075848 -0.011802031 -0.07446003
-0.39952636 -0.011801923 -0.069672704
-0.37644139 -0.011801977 -0.080048263
0.37801656 -0.011801977 -0.08310616
-0.39899763 0.0098174643 -0.073287487
-0.37594241 0.0097377263 -0.083649576
0.40027729 0.0097817201 -0.077932715
0.42313212 0.0098486673 -0.069241524
-0.39956075 0.031496141 -0.069437623
-0.37647197 0.031336177 -0.079827905
0.37804368 0.031288851 -0.082898974
0.40079093 0.0314225 -0.074225664
-0.37700295 0.052993756 -0.075995684
0.3785271 0.052919526 -0.079205036
0.40130413 0.053120147 -0.070521832
-0.37753537 0.074710652 -0.072153091
-0.35455012 0.07439132 -0.082523465
0.35634369 0.074341059 -0.084153831
0.37901178 0.074607506 -0.075501442
-0.35517299 0.096122801 -0.077763796
0.35690689 0.096052796 -0.079581261
0.37962925 0.096391603 -0.070783019
-0.33379781 0.11778648 -0.076060772
0.31314534 0.11735831 -0.085330307
0.33568236 0.11776246 -0.076581001
-0.31239659 0.13947639 -0.074355841
-0.2896556 0.13891158 -0.084839284
0.29191768 0.13904606 -0.082342267
0.31441233 0.1395185 -0.073574185
-0.2909694 0.16119269 -0.072648764
-0.26829463 0.16054626 -0.083144844
0.27064458 0.16078016 -0.079347789
0.29309669 0.16132127 -0.070560932
-0.24735746 0.18254465 -0.07658112
-0.22527227 0.18214281 -0.082381129
-0.20343316 0.1818821 -0.086144209
0.22740917 0.18227205 -0.080515265
0.24973848 0.18289846 -0.071474791
-0.16120648 0.20442025 -0.072922587
-0.13937941 0.20412767 -0.076724052
-0.11761194 0.2038368 -0.080502152
-0.095903024 0.20354682 -0.084270358
0.076333597 0.20340545 -0.086105287
0.097926378 0.20358562 -0.083765984
0.11955534 0.203766 -0.081422448
0.14122055 0.20394669 -0.079075277
0.16292211 0.20412767 -0.076724052
0.18466012 0.20430896 -0.074368834
-0.18309191 0.20471276 -0.069123864
-0.053139921 0.22620608 -0.070991874
-0.031444423 0.22588482 -0.07478559
-0.0098356325 0.22587487 -0.074902654
0.011771355 0.22607343 -0.072557449
0.03341458 0.22627346 -0.070195317
-0.010026302 -0.22977848 -0.050133944
-0.16241185 -0.20775811 -0.053349733
-0.14043337 -0.20749378 -0.057164907
-0.11851411 -0.20723014 -0.060969591
-0.096654311 -0.20696813 -0.064751148
0.076779246 -0.20682573 -0.066808105
0.098521173 -0.20698914 -0.06444943
0.12029907 -0.20715187 -0.062099814
0.14211392 -0.20731583 -0.059733272
0.1639647 -0.20747918 -0.057375789
0.18585286 -0.20764367 -0.05500114
-0.24937409 -0.185899 -0.054750323
-0.22692068 -0.18539619 -0.062914252
-0.20492971 -0.18516281 -0.066703558
0.22903328 -0.18561158 -0.059417367
0.25153098 -0.18617268 -0.050306201
-0.29272196 -0.1640486 -0.056386948
-0.26988629 -0.16346374 -0.067240238
0.27207294 -0.16364461 -0.06388545
0.29467759 -0.16413608 -0.054763556
-0.33672211 -0.14248705 -0.052318454
-0.31371778 -0.14199765 -0.062914252
0.31560647 -0.14201699 -0.06249404
0.3383328 -0.14242652 -0.053627491
-0.35827631 -0.12063958 -0.054050207
-0.33520696 -0.1202327 -0.064620018
0.33696207 -0.12019889 -0.065498352
0.35973123 -0.12053938 -0.056650758
-0.37980962 -0.098819956 -0.055740237
-0.35667011 -0.098494053 -0.066323757
0.38108218 -0.098698601 -0.0596807
0.40403923 -0.098972589 -0.050783157
-0.40131527 -0.077026099 -0.057441831
-0.37810919 -0.076782048 -0.068012357
0.40238923 -0.076904863 -0.062691092
0.42557833 -0.077139944 -0.052516699
-0.42397788 -0.05537691 -0.05145824
-0.40065318 -0.055215091 -0.061968446
0.4017897 -0.05513737 -0.067017674
0.42478281 -0.055276852 -0.057955503
-0.42337957 -0.033559557 -0.055344462
-0.400089 -0.033478849 -0.065825939
0.42419013 -0.033508252 -0.062008023
-0.42278087 -0.011802031 -0.059233189
0.4236432 -0.011801977 -0.065747261
-0.44562206 0.0099786352 -0.052344918
-0.42222425 0.0098979026 -0.062848568
0.44717038 0.0099679939 -0.053732991
-0.4228214 0.031657338 -0.058969855
0.42367771 0.03155658 -0.065511346
-0.42342022 0.053476784 -0.055080414
-0.40012541 0.053234447 -0.06557703
0.4242247 0.053322222 -0.061771393
-0.42402068 0.075356349 -0.051180124
-0.4006916 0.075032339 -0.061705828
0.40182054 0.074875712 -0.06679523
0.42482716 0.075157255 -0.057652712
-0.40143868 0.096937552 -0.056597948
-0.37821978 0.096528828 -0.067214012
0.40249297 0.096731871 -0.06194222
0.4257215 0.09713237 -0.051537752
-0.37993035 0.11876522 -0.054869056
-0.35677814 0.11827435 -0.065498352
0.35836244 0.11816972 -0.067763686
0.38118383 0.11857887 -0.058903933
-0.35839564 0.14061977 -0.053138375
-0.33531034 0.14004625 -0.063780427
0.3370499 0.13999465 -0.064738035
0.35982871 0.14047314 -0.055859208
-0.33683294 0.16250014 -0.051418543
-0.31381482 0.16184396 -0.062073588
0.31569144 0.16186669 -0.061705709
0.338429 0.16241539 -0.052794576
-0.29289833 0.18405704 -0.054750323
-0.27003962 0.18329801 -0.065707922
0.27221361 0.18352978 -0.06236279
0.2948336 0.18416426 -0.053204417
-0.24952665 0.20594637 -0.053098798
-0.22704192 0.20530105 -0.06148243
-0.2050366 0.2050059 -0.06531477
0.20677781 0.20487185 -0.067056894
0.22914784 0.20557456 -0.057929277
-0.16250226 0.22782424 -0.051881671
-0.14051086 0.22749862 -0.055727124
-0.11857912 0.22717386 -0.059562087
-0.096707329 0.22685115 -0.063373685
-0.074894145 0.22652815 -0.067187786
0.055094033 0.22647272 -0.067842126
0.076809809 0.22667237 -0.065485239
0.09856239 0.22687332 -0.063110948
0.12035118 0.22707362 -0.060746074
0.14217716 0.22727534 -0.058364153
0.16404004 0.22747745 -0.055977821
0.18594724 0.22768985 -0.053468704
-0.11978339 -0.23105985 -0.033488989
-0.097700462 -0.23074557 -0.037571788
-0.07568115 -0.23043327 -0.041629195
-0.053724278 -0.23012076 -0.045688629
-0.031830285 -0.22981025 -0.049723268
0.011771355 -0.22997247 -0.047614455
0.033607833 -0.23016678 -0.045090437
0.055483039 -0.23036045 -0.04257524
0.077397391 -0.23055531 -0.040042281
0.099350452 -0.23074973 -0.037518144
0.12081167 -0.22988266 -0.048781991
0.14321536 -0.23087533 -0.035886526
-0.22870386 -0.20855443 -0.041855931
-0.2065464 -0.20828792 -0.045701981
-0.18444887 -0.20802222 -0.049537659
0.20824718 -0.20827773 -0.04584825
0.23078598 -0.20891513 -0.036649108
-0.29526919 -0.18725362 -0.032751441
-0.27223203 -0.18657328 -0.043800354
0.27417198 -0.1867357 -0.041162729
-0.33892411 -0.16523124 -0.034440398
-0.3157329 -0.16463733 -0.045462728
0.31742623 -0.16462934 -0.045608997
0.34032419 -0.16512659 -0.036381602
-0.35990179 -0.14298071 -0.041629434
0.36120421 -0.14283927 -0.044691563
0.38421878 -0.14325395 -0.0357126
-0.40495008 -0.12146553 -0.032590628
-0.38152865 -0.12105192 -0.043334484
0.38264385 -0.1208822 -0.047747135
0.4057014 -0.12122695 -0.038787365
-0.42661446 -0.099479049 -0.034333229
-0.40312374 -0.099148348 -0.045077205
0.4277212 -0.09937036 -0.037865758
-0.44825453 -0.077519953 -0.036060452
-0.42469642 -0.077272147 -0.046791196
0.45013446 -0.077556476 -0.034480691
-0.44747713 -0.05553988 -0.040869474
0.44925559 -0.055550359 -0.040189147
-0.47055969 -0.033726104 -0.033703446
-0.44684207 -0.033640694 -0.044797897
0.44854191 -0.0336404 -0.0448246
0.44783056 -0.011802031 -0.049444914
-0.46981633 -0.011801977 -0.038092852
-0.44621089 -0.011801977 -0.048702478
-0.46919712 0.010060228 -0.041749239
0.47182319 0.010105273 -0.035899878
-0.46986383 0.031983119 -0.037812352
-0.44625372 0.031819422 -0.048437238
0.44787955 0.031808835 -0.049126744
-0.47062328 0.05397911 -0.033328176
-0.44688722 0.053720679 -0.044518709
0.44859108 0.053720918 -0.044505358
-0.4475224 0.075682595 -0.040589333
0.44930491 0.075704783 -0.039868951
-0.44840816 0.097764522 -0.035109997
-0.4248355 0.097349793 -0.045888066
0.45029953 0.097830102 -0.033408403
-0.42676508 0.1197589 -0.033354878
-0.4032599 0.11926053 -0.04414618
0.4041512 0.11899127 -0.049974918
0.42787766 0.11959997 -0.036796212
-0.38165599 0.1411975 -0.0424155
0.38275331 0.14095528 -0.046910763
0.40582356 0.14144062 -0.037905812
-0.36002567 0.16316135 -0.040682793
0.36130908 0.16296694 -0.04384017
0.38433617 0.16352272 -0.034815431
-0.33915195 0.18559237 -0.032590628
-0.31593406 0.18482134 -0.043720365
0.31760252 0.18480381 -0.043973207
0.34051895 0.18544656 -0.034695029
-0.27240661 0.20679651 -0.042055845
0.25166455 0.20628276 -0.048729062
0.27432722 0.20699459 -0.039481759
-0.22883707 0.22880638 -0.040282488
-0.20666513 0.22847812 -0.044159532
-0.18455364 0.2281508 -0.048025966
0.20835774 0.22847022 -0.044252634
0.2309158 0.22925696 -0.034962893
-0.097812727 0.25119978 -0.034654617
-0.07576865 0.25081798 -0.038787484
-0.053788792 0.25043863 -0.04289484
-0.03187215 0.2500591 -0.047003865
-0.010046821 0.25001609 -0.047468424
0.011771355 0.25025055 -0.044930935
0.033628635 0.25048539 -0.042388797
0.05552512 0.25072071 -0.039842129
0.07746093 0.25095627 -0.037290931
0.099436149 0.25119236 -0.034734964
0.12145089 0.25142887 -0.032174706
-0.20875171 -0.23232496 -0.017053962
-0.18641235 -0.23200607 -0.021197438
-0.16413917 -0.23169002 -0.025301933
-0.14192909 -0.23137397 -0.029408097
0.16544499 -0.2313358 -0.029905438
0.18772008 -0.23173784 -0.024681568
0.21039818 -0.23249845 -0.014801264
0.27630639 -0.21020329 -0.018056989
-0.27461851 -0.21007192 -0.019952774
-0.25155872 -0.20929956 -0.031100869
0.25347263 -0.20955752 -0.027376652
-0.31848484 -0.1879386 -0.02162993
0.29696634 -0.18730664 -0.031892896
0.31990564 -0.18787864 -0.022602916
-0.36229625 -0.16582981 -0.023332119
0.36336669 -0.16562492 -0.027134299
0.38656297 -0.16612796 -0.017799497
-0.40678859 -0.1439787 -0.020020723
-0.38325727 -0.14347823 -0.030859113
0.40741131 -0.143682 -0.026447415
-0.42854944 -0.12188227 -0.021765113
0.42988446 -0.12183176 -0.023075461
-0.45028383 -0.099812463 -0.023507595
0.45241702 -0.099931091 -0.019655228
-0.47247171 -0.077835158 -0.022413611
0.47500357 -0.077978045 -0.016226411
-0.4714033 -0.055726957 -0.028722167
0.47403389 -0.055826932 -0.022224545
0.47327724 -0.033778455 -0.026905298
-0.49529007 -0.011801923 -0.017853856
0.47252089 -0.011801923 -0.031584263
-0.49447075 0.010208581 -0.022481203
0.49678895 0.010244217 -0.017840147
-0.49536213 0.032296591 -0.017446995
0.4725773 0.032084279 -0.031235099
0.47333387 0.05413552 -0.026555061
-0.47146937 0.076059952 -0.028331995
0.47409293 0.076259285 -0.021859765
-0.47268912 0.098302603 -0.021129727
0.47519448 0.098536864 -0.015045524
-0.45044971 0.12026124 -0.022481203
0.45260045 0.1204468 -0.018463492
-0.42870972 0.14236636 -0.020723939
-0.40509331 0.14177974 -0.031610966
0.4300583 0.14230375 -0.021886706
-0.40694299 0.16449878 -0.018964648
-0.38339502 0.16382751 -0.029865026
0.40757003 0.16410854 -0.025301814
-0.36255261 0.18636963 -0.021373153
0.36358738 0.1860946 -0.025342345
0.38680613 0.18674584 -0.01594162
-0.31870979 0.20851882 -0.019682288
-0.29546735 0.20765431 -0.030912876
0.2971397 0.20771219 -0.030160666
0.32010081 0.2084333 -0.02079165
-0.27481502 0.23069419 -0.017989397
-0.25173128 0.22974207 -0.029233217
0.25362092 0.23004766 -0.025625348
0.27647549 0.23084348 -0.016226649
-0.18663178 0.25273553 -0.018029928
-0.16433033 0.25235057 -0.022197604
-0.14209297 0.25196552 -0.026366711
-0.11992098 0.25158268 -0.030509949
0.14350528 0.2516658 -0.029609561
0.16559939 0.25190324 -0.027040124
0.18791798 0.25241789 -0.021467805
-0.099186108 -0.25590843 0.0010267496
-0.076866254 -0.25555536 -0.00314188
-0.054610547 -0.25520232 -0.0073119402
-0.032419439 -0.2548514 -0.011456251
-0.010317339 -0.25477755 -0.012327433
0.011771355 -0.25499782 -0.0097264051
0.033900023 -0.25521737 -0.0071344376
0.056068882 -0.2554383 -0.0045241117
0.078278035 -0.25565976 -0.0019090176
0.10052717 -0.25588048 0.00069713593
0.12281662 -0.25610152 0.0033079386
-0.25465474 -0.23382372 0.0024143457
-0.23143604 -0.23289959 -0.0095900297
0.23323582 -0.23326644 -0.004824996
-0.32128027 -0.21163297 0.0025793314
-0.29785791 -0.21084936 -0.0087308884
0.2992897 -0.21085316 -0.0086764097
0.32242411 -0.21150742 0.00076580048
-0.36546424 -0.18932463 0.00087559223
-0.3418825 -0.18862894 -0.010421276
0.34299496 -0.18845457 -0.01325202
0.36623582 -0.18903422 -0.0038399696
-0.40959203 -0.16704115 -0.0008534193
-0.38585153 -0.16643316 -0.012136698
0.41052681 -0.16687359 -0.0039631128
-0.43050161 -0.14448382 -0.0090856552
0.43207827 -0.14453045 -0.0080761909
-0.45233107 -0.12230258 -0.010843396
0.45472553 -0.12254053 -0.0046608448
-0.47518423 -0.10033941 -0.0063967705
0.47743335 -0.10049942 -0.001196146
-0.4982588 -0.078327671 -0.0010865927
0.50019586 -0.078405306 0.0022767782
-0.49707922 -0.056049891 -0.0077486038
0.49912983 -0.056107298 -0.0040178299
-0.49618426 -0.033887088 -0.012803316
0.49832702 -0.033918153 -0.0087581873
-0.52124077 -0.011802031 0.0032805204
0.49752453 -0.011801977 -0.013496757
-0.52037823 0.01037096 -0.0013881922
0.52207601 0.010385204 0.00046396255
-0.52132213 0.032622427 0.0037206411
0.49758896 0.032363296 -0.013116121
-0.49625656 0.054462541 -0.012395382
0.49839169 0.054555368 -0.0083763599
-0.49715415 0.076706856 -0.0073255301
0.49919477 0.076820493 -0.0036346912
-0.49850896 0.0991285 0.00032651424
0.50041246 0.09925288 0.0035554171
-0.47542036 0.12106849 -0.0050028563
0.47764179 0.12130381 9.3221664e-05
-0.45250726 0.14295754 -0.0097534657
0.45492357 0.14330128 -0.0033744574
-0.43067169 0.16517523 -0.0079805851
0.43226197 0.16524668 -0.0068202019
-0.40990916 0.18794143 0.0013149977
-0.38613644 0.18715188 -0.010080576
0.4108665 0.18774556 -0.0015114546
-0.36574656 0.21026736 0.003033042
-0.34213436 0.20938909 -0.0083762407
0.34321332 0.20915939 -0.011360884
0.36647871 0.20989013 -0.0018678904
-0.29808152 0.23165382 -0.0066564083
0.29948092 0.23164465 -0.0067657232
0.3226403 0.23245215 0.002771616
-0.2317539 0.25386193 -0.0058367252
-0.2089994 0.2531229 -0.013836503
0.21063372 0.25334784 -0.011401653
0.23350987 0.25428432 -0.0012648106
-0.076972634 0.27661595 0.00031268597
-0.05468915 0.27619353 -0.0039083958
-0.03247064 0.27577096 -0.0081306696
-0.010342503 0.2756781 -0.0090583563
0.011771355 0.27593902 -0.0064514875
0.033925384 0.27620041 -0.0038400888
0.056119692 0.27646214 -0.0012234449
0.078354388 0.27672455 0.0013973713
-0.18874773 -0.25688082 0.012510896
-0.16626772 -0.25660571 0.0092617273
-0.14383815 -0.25633129 0.0060200691
-0.12157132 -0.25626352 0.0052210093
0.14514585 -0.25632194 0.0059096813
0.16751537 -0.25654259 0.0085161924
0.19032563 -0.25731409 0.017627478
-0.2780697 -0.23475662 0.014533162
0.25623176 -0.23403876 0.005207181
0.27938995 -0.23481753 0.01532352
-0.34488952 -0.21242367 0.013992667
0.34571108 -0.21216582 0.010270238
0.36915213 -0.21282859 0.019837618
-0.38923228 -0.19002578 0.012261868
0.38965312 -0.18962862 0.005813241
-0.43351993 -0.16765386 0.010519028
0.43549672 -0.16791129 0.015295625
-0.45480558 -0.14510961 0.0044636726
0.45706263 -0.14538941 0.010519028
-0.477925 -0.12309662 0.0097866058
0.47989324 -0.1232595 0.014020324
-0.50113231 -0.1010026 0.015143156
0.50276744 -0.101074 0.017460704
-0.52443343 -0.078827545 0.020561099
0.52571326 -0.078837901 0.021006703
-0.52313292 -0.05637731 0.013521671
0.52454501 -0.056390963 0.014408469
-0.52218521 -0.034050167 0.0083919764
0.52369732 -0.034059681 0.0096210241
0.52284759 -0.011801923 0.0048216581
-0.54667091 0.010535652 0.020018697
0.5476858 0.010527804 0.018989325
0.52292317 0.032646023 0.0052484274
-0.52226937 0.054953124 0.0088473558
0.52377069 0.054980587 0.010035396
-0.52321994 0.077363208 0.013992667
0.52462107 0.07738933 0.014838099
-0.50140995 0.12207142 0.016711116
0.5030098 0.12217209 0.01889205
-0.47818491 0.14409323 0.011320949
0.48011282 0.14431192 0.015378833
-0.45504606 0.1660333 0.0059511662
0.45727554 0.16639963 0.011901975
-0.43387136 0.18873718 0.012801766
0.43588856 0.18909559 0.017974734
-0.38954702 0.21115278 0.014533162
0.38998336 0.21067569 0.0083367825
-0.34517133 0.23359613 0.01628077
-0.32153285 0.23262104 0.0047667027
0.34595224 0.23326403 0.012358546
0.36941963 0.23408118 0.022009611
-0.27848643 0.25612828 0.018697381
-0.25502089 0.25499025 0.0063781738
0.25654823 0.25522733 0.0089443922
0.27974913 0.25617573 0.019211769
-0.18937975 0.27874959 0.021633506
-0.16676582 0.27832091 0.017349601
-0.14421777 0.27789208 0.013064504
-0.12173691 0.27746591 0.0088062286
-0.09932211 0.27704099 0.0045599937
0.1006296 0.27698725 0.0040233135
0.12294541 0.27725056 0.0066539049
0.14530194 0.27751425 0.0092895031
0.16769931 0.27777848 0.01192975
0.19056547 0.2787385 0.021521926
-0.010712955 -0.28161377 0.039065123
-0.23519371 -0.25876707 0.034785986
-0.21179637 -0.25772649 0.022497416
0.21334991 -0.25817588 0.027803183
0.23653746 -0.25904465 0.03806448
-0.32549495 -0.23664619 0.03907907
-0.30168226 -0.23569733 0.02675426
0.30270958 -0.23560058 0.02549684
0.32619509 -0.23639037 0.035756111
-0.39266908 -0.21402225 0.037064672
-0.3686845 -0.21321982 0.025483012
0.39349246 -0.21388966 0.035151362
-0.43793222 -0.19168347 0.039177895
-0.41318884 -0.19073254 0.023738265
0.41456631 -0.19082193 0.025189638
-0.4589611 -0.16871274 0.03016901
0.46080309 -0.16896313 0.034814
-0.48070392 -0.14611343 0.026195288
0.4823747 -0.14626014 0.029370666
-0.5040409 -0.12393512 0.031570911
0.50537795 -0.12398529 0.032875538
-0.5274877 -0.10167849 0.037092805
0.52844423 -0.10165815 0.036431313
0.55156678 -0.079276413 0.03999567
-0.54957783 -0.056709919 0.035123467
0.55028766 -0.056678314 0.033072114
-0.54857582 -0.034215823 0.029916883
0.54939175 -0.034202866 0.028222799
0.54849619 -0.011802084 0.02337563
-0.54757738 -0.011801977 0.024728894
0.573627 0.010672232 0.037754655
-0.54766876 0.032953206 0.025203705
0.54858124 0.032932192 0.023835778
-0.54867291 0.055451389 0.030421257
0.54947704 0.055411238 0.028684616
-0.54967523 0.078029498 0.035629392
0.55037326 0.077965051 0.03353548
-0.52472168 0.09996739 0.022120953
0.52595985 0.09997803 0.022399783
-0.52779216 0.12308897 0.038740873
0.5287109 0.12305182 0.03793776
-0.50434154 0.14527583 0.033268809
0.50563484 0.14533634 0.034392476
-0.48097858 0.16737978 0.027817011
0.48261479 0.16756696 0.030855775
-0.45947123 0.19015905 0.033324957
0.46124932 0.19046314 0.037712336
-0.41353801 0.2120451 0.02612555
0.41494977 0.21218593 0.027956963
-0.39301854 0.23556964 0.039586782
-0.36899912 0.23457891 0.027887106
0.39386633 0.23543596 0.038008094
-0.30215448 0.25727728 0.031136274
0.30311686 0.25713232 0.029566765
0.32665202 0.25809577 0.039995551
-0.23557518 0.28051662 0.039290547
-0.21212733 0.27926627 0.026796222
0.21363328 0.27977642 0.031893373
-0.10130179 -0.28317761 0.055994034
-0.078531116 -0.28270933 0.05092597
0.056884333 -0.28247988 0.048441172
0.079513967 -0.28277239 0.051608324
0.10219257 -0.28306565 0.054782391
0.12492031 -0.28335947 0.057963371
-0.055838864 -0.28224283 0.045875311
-0.033224627 -0.28177786 0.040842414
0.011771355 -0.28189918 0.042155504
0.034303516 -0.28218794 0.045280814
-0.2587899 -0.2598165 0.047178984
0.25988793 -0.2599186 0.048384428
-0.34951031 -0.23760295 0.051508784
0.34984532 -0.23718463 0.046073914
-0.4168455 -0.21483094 0.048739076
0.41868854 -0.21526054 0.054939151
0.4398182 -0.19203217 0.044842005
-0.48525351 -0.16994621 0.05305934
0.48645046 -0.17002837 0.054582834
-0.5069977 -0.14713305 0.048270941
0.50801653 -0.14714158 0.048455358
-0.53056645 -0.12478897 0.053756714
0.5312044 -0.12472218 0.052020669
0.55445141 -0.10224868 0.055608988
-0.55100459 -0.079335108 0.042536974
-0.57641745 -0.057047151 0.057035327
0.57636702 -0.056969535 0.051992178
-0.5753597 -0.034384008 0.05175066
0.57542157 -0.034348048 0.047079682
-0.57430571 -0.011802031 0.04648459
0.5744766 -0.011802031 0.04216969
-0.57335728 0.010702977 0.041745782
0.59990591 0.010818487 0.056764364
-0.57441354 0.033289094 0.047023177
0.57457179 0.033222012 0.04266417
-0.57547069 0.055956643 0.052305222
0.57551438 0.055847209 0.047561765
-0.57652885 0.078705788 0.057592034
0.57646281 0.078548625 0.052490234
-0.55133104 0.10081853 0.044233561
0.55184317 0.10071295 0.041491747
0.5547545 0.12394376 0.057249546
-0.53090072 0.14647742 0.055566192
0.53149414 0.14637437 0.053657293
-0.50730681 0.16874695 0.05001688
0.50829053 0.16875042 0.050073624
-0.48583505 0.19176431 0.056493402
0.48695996 0.19185024 0.057734847
-0.43843418 0.21330081 0.042438149
0.44025543 0.213716 0.047831178
-0.41726518 0.23658758 0.051608324
0.41911745 0.23713176 0.058034658
-0.3260248 0.25843495 0.043667674
-0.35010314 0.25960389 0.056321979
0.35035476 0.2590647 0.050485611
-0.25922665 0.2817792 0.051906943
0.23686649 0.28082168 0.042339087
0.26026693 0.28187457 0.052860022
-0.17008674 -0.2845892 0.071274877
-0.14708009 -0.28411886 0.066182852
-0.12415132 -0.2836473 0.061079502
0.14769733 -0.28365394 0.061151028
0.17080329 -0.28442821 0.069532394
-0.30659062 -0.26194352 0.072298288
-0.2825875 -0.26087484 0.05967772
0.28340536 -0.2607998 0.058791757
0.307089 -0.26168618 0.069258809
-0.37373093 -0.23856804 0.064044595
0.37422124 -0.23833323 0.060993791
-0.44290051 -0.21640441 0.071447849
0.44422665 -0.21664919 0.074982643
-0.4641408 -0.19310179 0.062210321
0.46541163 -0.19325808 0.064747453
0.5124504 -0.17110892 0.074636102
-0.53368849 -0.14816688 0.070655465
0.53399926 -0.14803541 0.067806363
0.55736965 -0.12546827 0.071404457
-0.55423456 -0.10236295 0.059320569
0.58079988 -0.10284649 0.075025916
-0.57798392 -0.079850748 0.064862251
0.57775807 -0.079720452 0.059220433
0.60278428 -0.05726457 0.071145296
-0.60255122 -0.03455472 0.073928475
0.60178816 -0.034494951 0.066168308
-0.60144019 -0.011802031 0.068582773
0.60079545 -0.011801923 0.061208367
-0.60044926 0.010872882 0.063815236
-0.60155976 0.03362998 0.069158077
0.6008985 0.033515491 0.061723709
-0.60267431 0.05646975 0.074520588
0.6018945 0.056289088 0.066699862
0.60289097 0.079139441 0.0716784
-0.57835174 0.10168332 0.066699743
0.57806903 0.10145757 0.060836196
-0.55458134 0.12412269 0.061122417
0.5576973 0.14742638 0.073178172
-0.5340426 0.17013602 0.072572112
0.53430742 0.16994977 0.0695467
-0.46471336 0.21509548 0.06575191
0.46591133 0.21526802 0.067993164
-0.44345811 0.23857428 0.075069308
-0.37439069 0.26078305 0.069086194
0.37493822 0.26057318 0.066814661
-0.28308335 0.28305268 0.064632654
0.28383631 0.28293502 0.063456893
0.30757511 0.28400165 0.07411623
-0.21707214 -0.28641415 0.091031432
-0.19317402 -0.28506255 0.076399088
0.19429384 -0.28558576 0.082063317
0.26300925 -0.28587973 0.08524549
0.28598484 -0.28601551 0.08671546
-0.33079889 -0.26302022 0.085013032
0.33094501 -0.26258135 0.079829812
-0.39815947 -0.23954138 0.07668817
0.39970958 -0.24000096 0.082658768
-0.49076608 -0.19454287 0.085609317
0.49135795 -0.19450171 0.084940195
-0.51196253 -0.17119929 0.076312304
-0.56079018 -0.14921668 0.093384504
0.56032747 -0.148941 0.087414622
-0.55749071 -0.12565444 0.076239944
0.58388573 -0.12622486 0.091060877
-0.58139187 -0.10305785 0.081889272
-0.60537547 -0.080373898 0.087516427
0.60429633 -0.080170184 0.078699708
-0.60366642 -0.057389971 0.079293728
0.62897271 -0.011802031 0.087778687
-0.62898725 -0.011801923 0.091016889
-0.62795031 0.011045206 0.086205959
0.62760991 0.011006828 0.081221819
-0.62911946 0.033976026 0.09163034
0.62914544 0.033929478 0.088609457
-0.60378987 0.079392284 0.079887748
-0.60578752 0.10256079 0.089498997
0.60464722 0.10221265 0.080453157
-0.58178139 0.12517163 0.083835363
0.58114201 0.12484704 0.076803923
-0.55786657 0.14769675 0.078192949
0.58425128 0.14849241 0.092960358
0.56067222 0.171165 0.089280248
-0.51262122 0.1933952 0.080032587
0.51302338 0.19325577 0.078019261
-0.49141493 0.21691905 0.089440703
0.4919205 0.21684052 0.088420033
0.44471526 0.23884974 0.078323364
-0.39895055 0.26201251 0.082397342
0.40053222 0.26261744 0.088944912
-0.33142307 0.28563321 0.090418458
-0.30714792 0.28433728 0.077469349
0.33148792 0.28507778 0.084867477
-0.24125659 -0.28783247 0.10638499
0.21798374 -0.2867519 0.094686866
0.24187288 -0.28792375 0.10737371
-0.37984613 -0.26520151 0.11077332
-0.3552165 -0.26410609 0.097837448
0.35548741 -0.2638604 0.094935536
-0.42450789 -0.24142267 0.10112715
0.42557395 -0.24169233 0.10463023
-0.46944293 -0.2180367 0.09500885
0.47011802 -0.218058 0.09531641
-0.51782304 -0.19600876 0.10941267
0.5176599 -0.1957614 0.10539663
-0.53909826 -0.17247227 0.099936604
0.53880525 -0.17220357 0.09495008
0.58723265 -0.14991267 0.10845196
-0.58484232 -0.12653536 0.099128842
-0.60896921 -0.10376358 0.10480714
0.60845566 -0.10359953 0.099481225
-0.63319141 -0.080905169 0.11052167
-0.63133126 -0.057737846 0.10189164
0.63205898 -0.057749238 0.10262752
-0.63015711 -0.034727961 0.096444368
0.630512 -0.034718335 0.095184445
-0.6559155 0.011221778 0.10913157
-0.63029301 0.056990694 0.097074747
0.63068861 0.056966562 0.096034169
-0.63146764 0.080089331 0.1025244
0.63223648 0.080118731 0.10348129
-0.60940456 0.12623714 0.10690141
0.60902643 0.12602605 0.10233319
-0.58525109 0.14893489 0.10117114
-0.56119013 0.17154571 0.095462799
0.58780187 0.17252786 0.11140954
-0.53984016 0.19505237 0.10395241
0.53945148 0.19468156 0.098600388
0.51829493 0.21843599 0.10914636
-0.47007579 0.24059416 0.098923326
0.47067112 0.24059285 0.098908663
-0.42559218 0.26442769 0.10854053
0.42651334 0.26469269 0.11140954
-0.35591346 0.28694198 0.10349596
0.35625324 0.28674898 0.1015681
-0.26569214 -0.28926554 0.1218977
0.38113239 -0.26573765 0.11710513
-0.45147479 -0.24342512 0.12713957
0.45182458 -0.24340905 0.12693
-0.49641481 -0.21969636 0.11896384
0.49636561 -0.21948524 0.11591673
0.5443297 -0.19703963 0.1261524
-0.56667084 -0.17376578 0.12394142
0.56552756 -0.17331421 0.11556053
-0.58831841 -0.15028425 0.11649609
-0.61259896 -0.12742616 0.12227046
0.61328858 -0.1274783 0.1236279
-0.63714749 -0.10450464 0.12887585
0.63454348 -0.080998912 0.11458111
-0.65953505 -0.034950431 0.12534523
-0.65760589 -0.011801923 0.11670399
0.66009676 -0.011801923 0.12612236
0.65866607 0.011301327 0.11948466
-0.65783817 0.034377974 0.11774421
0.66029984 0.034521539 0.12706459
-0.65977526 0.057668325 0.12642157
-0.63365412 0.10345262 0.1126684
0.63514847 0.10363828 0.11749148
-0.61306417 0.15019244 0.12450874
0.6138956 0.15030837 0.12666082
-0.58876169 0.17297743 0.11871088
-0.56750232 0.1967366 0.1282618
0.56624705 0.19612636 0.11945498
-0.51854914 0.21877214 0.11351335
0.54504007 0.22005394 0.13016438
-0.49747786 0.2428226 0.1252408
0.4972505 0.24249665 0.12139082
-0.38083428 0.28842577 0.11832416
0.38200933 0.28901634 0.12422514
0.03502221 -0.31406313 0.13864219
0.058352578 -0.31457996 0.14380634
-0.29038274 -0.29071349 0.13757229
0.31485841 -0.29157472 0.14689529
-0.40649566 -0.26740959 0.13684952
0.40716222 -0.26764315 0.13960743
0.49950868 -0.24405782 0.13535964
-0.52391267 -0.22141749 0.14380646
0.52298146 -0.22093342 0.13681948
-0.54531497 -0.1974975 0.13358569
-0.61627758 -0.15136845 0.13996935
0.61817616 -0.15174161 0.14804769
0.63961035 -0.10481521 0.13895893
-0.6614753 -0.058232833 0.13403654
0.66338402 -0.058345709 0.14137316
0.66173786 -0.035015091 0.13373601
0.66194201 0.057859089 0.13468301
-0.66172367 0.081093922 0.135149
0.66359568 0.081315801 0.14235497
-0.63792318 0.12741829 0.13247442
0.64025658 0.12786143 0.14206803
-0.61693996 0.17448288 0.14315617
-0.54612947 0.22065669 0.13799441
0.52425963 0.24444227 0.14436615
-0.45270565 0.26688421 0.13513398
0.45289257 0.26680088 0.13423204
-0.40763995 0.29110605 0.14510775
0.40815961 0.29131836 0.14722872
-0.19862567 -0.31570885 0.15508676
-0.31533399 -0.29217792 0.15342665
-0.43362942 -0.26966563 0.16349137
0.43358564 -0.26957744 0.16244972
-0.47891864 -0.24546388 0.15362453
0.47847021 -0.24515134 0.1495651
-0.5732578 -0.19901125 0.1581682
0.57341355 -0.19901603 0.15824461
-0.59469712 -0.17508204 0.14836621
0.59569186 -0.17529964 0.15240717
-0.64320141 -0.12876149 0.15696251
0.64472842 -0.12901627 0.16358328
-0.66472846 -0.08178468 0.14860904
0.666179 -0.081917018 0.15434039
-0.69150007 -0.011802031 0.16352201
0.69203514 -0.011802031 0.16546941
-0.68972099 0.011581099 0.15581846
0.69053823 0.011603674 0.15876389
-0.69177973 0.035101399 0.16473317
-0.6655764 0.10498214 0.15240717
0.66688889 0.10518323 0.1576339
-0.64403784 0.1521503 0.16084278
0.61917353 0.17509091 0.15303111
-0.59561861 0.19844843 0.15297008
0.59694755 0.19886142 0.15893185
-0.57416135 0.22257113 0.16286325
0.57463497 0.22272448 0.16485584
-0.52538699 0.2450998 0.15213335
-0.48030573 0.26938495 0.16220474
0.47967717 0.26894155 0.1574049
0.011771355 -0.31724614 0.17044866
-0.34054869 -0.29365802 0.16944849
0.34123459 -0.29419905 0.17530537
-0.5068447 -0.2475365 0.18054914
-0.55214822 -0.22327185 0.17057192
0.55160892 -0.22304285 0.16726565
-0.67108148 -0.10598853 0.1770668
0.67154771 -0.10605566 0.17924821
-0.69562918 -0.058962014 0.18140173
0.69553316 -0.058957927 0.18113828
-0.69355863 -0.03531298 0.17243576
0.6937831 -0.035319589 0.17329907
0.69227159 0.035129134 0.16652846
-0.69384706 0.058759842 0.17368484
0.69402075 0.058775533 0.17436361
-0.69592655 0.082557768 0.18268907
0.69577891 0.082543895 0.18223917
-0.67199379 0.12966663 0.18115377
0.67232955 0.12974618 0.18287539
0.64544588 0.15248409 0.16703522
-0.55380273 0.24741949 0.17952704
0.55391699 0.24748497 0.18030155
0.50687414 0.27111393 0.18092132
-0.17715855 -0.31881309 0.18610668
-0.41510621 -0.29638702 0.19899082
-0.36805046 -0.29666838 0.20203626
-0.46124399 -0.2719605 0.19059217
0.46040937 -0.27153987 0.18562472
-0.60406148 -0.20128909 0.19515336
0.60507673 -0.20165966 0.20117223
-0.62678313 -0.17735319 0.19051421
0.62760735 -0.17760393 0.19516897
-0.64943635 -0.15348934 0.18588901
0.65005052 -0.15364172 0.18918908
-0.69933283 -0.082912371 0.19743907
0.69866192 -0.082859695 0.19515336
0.72325212 0.011914136 0.19906926
-0.70032918 0.10688147 0.20175338
0.69949055 0.1067702 0.19886541
-0.65122086 0.17762432 0.19416809
0.65154707 0.17776118 0.19638968
-0.62850589 0.20162375 0.19880259
-0.50840819 0.27193239 0.18978131
0.36810851 -0.29687175 0.20423758
0.488314 -0.27390036 0.21350265
-0.53527337 -0.24964751 0.20797157
0.53576994 -0.2499831 0.2123313
-0.58296698 -0.22590777 0.20861852
0.58400005 -0.22638774 0.21554589
-0.67755133 -0.13065076 0.20604837
0.67701215 -0.13059497 0.20459974
0.7266767 -0.035632148 0.21389818
-0.72646946 -0.011801923 0.21182525
0.7248202 -0.011801977 0.20585942
-0.72460246 0.011951925 0.20400167
-0.72679794 0.035847727 0.21320188
0.72509319 0.035752803 0.20704126
0.72695476 0.059716333 0.21510231
-0.67853755 0.15482427 0.21046615
0.67785454 0.15471888 0.20850801
0.62906677 0.20187718 0.20246053
-0.60573173 0.22569931 0.20349836
0.60650063 0.22608969 0.20857108
