ply
format ascii 1.0
comment PCL generated
element vertex 1325
property float x
property float y
property float z
element camera 0
property float view_px
property float view_py
property float view_pz
property float x_axisx
property float x_axisy
property float x_axisz
property float y_axisx
property float y_axisy
property float y_axisz
property float z_axisx
property float z_axisy
property float z_axisz
property float focal
property float scalex
property float scaley
property float centerx
property float centery
property int viewportx
property int viewporty
property float k1
property float k2
end_header
0.052500445 -0.093824632 -0.15648413
-0.03038305 -0.073147349 -0.15486217
-0.0096444739 -0.07311298 -0.15635121
0.011071182 -0.073078662 -0.1578384
0.031763952 -0.073044375 -0.15932387
0.052433874 -0.07301008 -0.16080791
0.073203623 -0.073098466 -0.15698022
-0.071844742 -0.05242395 -0.15461999
-0.051081371 -0.052401118 -0.15610909
-0.030340951 -0.052378204 -0.15759659
-0.0096234465 -0.052355289 -0.15908265
0.011071182 -0.052332401 -0.16056663
0.031742971 -0.052309703 -0.16204929
0.052391961 -0.052286815 -0.16353041
0.073139176 -0.05234471 -0.15977061
0.09395244 -0.052406646 -0.15574598
-0.11331446 -0.031696968 -0.15436554
-0.092525721 -0.031685431 -0.1558671
-0.071760528 -0.031673893 -0.15735495
-0.051018279 -0.031662464 -0.15884107
-0.030298937 -0.031651139 -0.16032553
-0.0096024619 -0.031639658 -0.16180837
0.011071182 -0.031628225 -0.16328973
0.031722035 -0.031616956 -0.16476923
0.052350134 -0.031605501 -0.16624731
0.073075153 -0.031633914 -0.1625433
0.093866803 -0.031664908 -0.15852708
0.11472076 -0.031695928 -0.15449888
-0.15479127 -0.010966073 -0.15412319
-0.13397819 -0.010966073 -0.15561289
-0.11318811 -0.010966073 -0.15710104
-0.071676858 -0.010966073 -0.16007221
-0.050955594 -0.010966046 -0.16155541
-0.030257009 -0.010966099 -0.16304886
-0.0095815221 -0.010966046 -0.16452885
0.011071182 -0.010966046 -0.16600698
0.03170114 -0.01096602 -0.16748369
0.052308388 -0.010966046 -0.16895866
0.073010966 -0.01096602 -0.16532224
-0.092421025 -0.010965993 -0.15858746
0.09378098 -0.010965993 -0.16131437
0.11461315 -0.010965966 -0.15729451
-0.15479201 0.0097668143 -0.15411109
-0.13397884 0.0097554373 -0.15560073
-0.11318867 0.0097439019 -0.15708888
-0.092421487 0.0097324969 -0.15857536
-0.07167723 0.0097210677 -0.16006011
-0.050955873 0.0097096646 -0.16154337
-0.030257378 0.0096982876 -0.16302484
-0.0095817065 0.0096868826 -0.16450483
0.011071182 0.0096755335 -0.16598308
0.031701323 0.0096641006 -0.16745955
0.052308757 0.0096528316 -0.1689347
0.073011525 0.0096806893 -0.1652981
0.093781725 0.0097115776 -0.16129023
0.11461408 0.0097424919 -0.15727031
-0.11331502 0.030496087 -0.15435344
-0.092526659 0.030473121 -0.15584284
-0.071761273 0.030450206 -0.15733069
-0.051018838 0.03042724 -0.15881681
-0.03029931 0.030404408 -0.16030139
-0.0096026482 0.030381706 -0.16178429
0.011071182 0.030358873 -0.16326565
0.031722222 0.030336063 -0.16474521
0.052350502 0.030313309 -0.16622329
0.073075421 0.030370194 -0.16253114
0.093867175 0.030431893 -0.15851498
0.11472122 0.030493986 -0.15448678
-0.071845122 0.05122124 -0.15460783
-0.05108165 0.051186871 -0.15609705
-0.030341137 0.051152445 -0.15758449
-0.0096235396 0.051118102 -0.15907043
0.011071182 0.051083893 -0.16055477
0.031743065 0.05104968 -0.16203737
0.052392147 0.051015336 -0.16351831
0.073139735 0.051102553 -0.15974653
0.093952812 0.051195189 -0.15573394
-0.030383237 0.071942769 -0.15485007
-0.009644567 0.071897 -0.15633899
0.011071182 0.071851119 -0.1578263
0.031764045 0.071805447 -0.15931201
0.052434061 0.071759753 -0.16079587
0.073203899 0.071877591 -0.156968
0.031797647 0.092666246 -0.15494704
0.052501004 0.092608511 -0.15644783
0.011071182 -0.13620073 -0.13598204
0.031931922 -0.13613047 -0.13750404
0.052773405 -0.13607268 -0.13875479
-0.093246214 -0.11528336 -0.13714838
-0.072335526 -0.11522441 -0.13868129
-0.05144877 -0.115166 -0.1402005
-0.030585423 -0.11510757 -0.14171779
-0.0097454535 -0.11504928 -0.14323336
0.011071182 -0.11499088 -0.1447475
0.031864427 -0.11493229 -0.146272
0.052635729 -0.1148774 -0.14769721
0.073512621 -0.11503514 -0.14359999
0.094452985 -0.11519328 -0.13949001
-0.17652516 -0.09434218 -0.13967383
-0.15557709 -0.09429013 -0.1413632
-0.1346637 -0.094243132 -0.14289135
-0.11377449 -0.094196536 -0.14440572
-0.092908643 -0.094149888 -0.14591855
-0.072066158 -0.094103284 -0.14742947
-0.051246684 -0.09405645 -0.14895093
-0.030450851 -0.094010092 -0.15045851
-0.0096782418 -0.093963653 -0.15196455
0.011071182 -0.0939174 -0.15346867
0.073306844 -0.093946882 -0.15251064
0.094177783 -0.09407261 -0.14842767
0.11511206 -0.094198741 -0.14433259
0.13610995 -0.094325244 -0.14022493
0.15717176 -0.09445212 -0.13610476
-0.19756457 -0.073556796 -0.13713592
-0.17619817 -0.073389195 -0.14439362
-0.15529805 -0.073354527 -0.14589411
-0.13442114 -0.073319919 -0.14739293
-0.11356736 -0.073285259 -0.1488902
-0.092736706 -0.073250778 -0.15038562
-0.071929134 -0.073216274 -0.15187937
-0.051144592 -0.073181883 -0.15337157
0.094038613 -0.073191606 -0.15294713
0.11493617 -0.073285043 -0.1489023
0.13589655 -0.073378742 -0.14484507
0.15692006 -0.073472664 -0.1407758
0.17800623 -0.073566705 -0.13670635
-0.19733526 -0.052647237 -0.14011478
-0.17600723 -0.052538972 -0.14714938
-0.15512854 -0.05251595 -0.14864683
-0.13427296 -0.052492905 -0.15014255
-0.11344051 -0.052469909 -0.15163672
-0.092631109 -0.052446838 -0.15312916
0.11482812 -0.052468769 -0.15170956
0.13576649 -0.052531157 -0.14766073
0.15676787 -0.052593648 -0.14360011
0.17783253 -0.05265633 -0.1395269
-0.19710645 -0.031783834 -0.14308685
-0.17581755 -0.031731442 -0.14988732
-0.15496011 -0.03171996 -0.15138167
-0.13412575 -0.031708449 -0.15287441
0.13563728 -0.031727005 -0.15045851
0.156616 -0.031758156 -0.14641809
0.17765844 -0.031789392 -0.14235359
0.19876428 -0.031820811 -0.1382767
-0.2183004 -0.01096602 -0.13864452
-0.19687818 -0.010966073 -0.14605242
0.13550776 -0.01096602 -0.1532625
0.17748548 -0.010966046 -0.14516217
0.19856828 -0.010966046 -0.14110619
-0.1756274 -0.010965993 -0.15263188
0.15646511 -0.010965993 -0.14921856
0.2197154 -0.010965993 -0.13702554
-0.21830247 0.009886167 -0.13862014
-0.19688004 0.0098290956 -0.1460281
-0.17562824 0.0097783515 -0.15261972
0.13550889 0.0097735645 -0.15323812
0.15646577 0.009804667 -0.14920634
0.17748621 0.0098358737 -0.14515024
0.19856997 0.0098672146 -0.14108175
0.21971731 0.0098985815 -0.13700098
-0.1971074 0.030669615 -0.14307463
-0.1758184 0.03056496 -0.14987499
-0.15496086 0.030541968 -0.15136945
-0.13412641 0.030519001 -0.15286225
0.13563783 0.030556217 -0.15044641
0.15661733 0.030618578 -0.14639372
0.17765994 0.030681178 -0.14232928
0.19876514 0.030743696 -0.13826448
-0.1973362 0.051556114 -0.14010245
-0.17600892 0.051393915 -0.14712495
-0.15513003 0.051359463 -0.14862239
-0.13427427 0.051324856 -0.15011829
-0.11344106 0.051290032 -0.1516245
-0.092631578 0.051255584 -0.15311694
0.11482858 0.051288493 -0.15169746
0.13576707 0.051381875 -0.14764863
0.15676853 0.05147576 -0.14358777
0.17783329 0.051569756 -0.13951457
-0.19756551 0.072488628 -0.13712382
-0.17619902 0.072265156 -0.1443814
-0.15529881 0.072219014 -0.14588189
-0.1344218 0.072172709 -0.14738065
-0.11356793 0.072126716 -0.14887786
-0.092737176 0.072080679 -0.15037346
-0.071929507 0.072034642 -0.15186739
-0.051144868 0.071988709 -0.15335947
0.094038986 0.072001807 -0.15293509
0.11493663 0.072126321 -0.14889002
0.13589711 0.072251335 -0.14483297
0.15692072 0.072376512 -0.1407634
0.17800772 0.07250227 -0.13668191
-0.17652771 0.093255594 -0.13963705
-0.1555786 0.093190148 -0.14133865
-0.13466568 0.093131699 -0.14285475
-0.11377617 0.093073457 -0.14436918
-0.092909589 0.093014814 -0.14589411
-0.072066903 0.09295655 -0.14740503
-0.05124753 0.092898548 -0.14891434
-0.030451413 0.092840411 -0.15042198
-0.0096784299 0.092782065 -0.15194029
0.011071182 0.092724144 -0.15344441
0.073307678 0.092761517 -0.15247416
0.094178908 0.092918672 -0.14839119
0.11511347 0.093076304 -0.14429593
0.13611165 0.093234301 -0.14018816
0.15717375 0.093392946 -0.13606799
0.011071182 0.11386498 -0.144723
0.03186471 0.11379512 -0.14623541
0.052636292 0.11372931 -0.14766085
-0.09324716 0.11421599 -0.1371237
-0.072336279 0.11414521 -0.13865685
-0.051449329 0.11407501 -0.14017594
-0.030585799 0.11400499 -0.14169335
-0.0097456416 0.11393492 -0.14320916
0.073513471 0.11391854 -0.14356321
0.094454497 0.11410887 -0.13944101
0.011071182 0.13514315 -0.13594508
0.031932205 0.13506104 -0.13746727
0.052774161 0.13499437 -0.13870585
-0.09392748 -0.15796413 -0.11944836
-0.072879925 -0.1578804 -0.1210016
-0.05185689 -0.1577982 -0.12252802
-0.030857008 -0.15771464 -0.12407774
-0.0098810932 -0.15763193 -0.12561333
0.011071182 -0.15754929 -0.12714702
0.031999856 -0.15746675 -0.12867916
0.052912191 -0.1574095 -0.12974066
0.07392858 -0.15763329 -0.12558848
0.09500929 -0.15785778 -0.1214236
-0.17784289 -0.1369088 -0.12065369
-0.15666297 -0.13676667 -0.12373072
-0.13561344 -0.13669576 -0.12526661
-0.11458763 -0.13662475 -0.12680089
-0.093585499 -0.13655399 -0.12833339
-0.072607033 -0.13648334 -0.12986386
-0.051652163 -0.13641271 -0.13139296
-0.030720871 -0.13634211 -0.13292027
-0.009813101 -0.13627169 -0.13444597
0.07371977 -0.13626327 -0.1346302
0.094730027 -0.13645422 -0.1304931
0.11580447 -0.13664594 -0.12634325
0.13694339 -0.13683823 -0.12218076
-0.19868144 -0.1158423 -0.12262732
-0.17718174 -0.11555102 -0.13019699
-0.15611826 -0.11545944 -0.13257551
-0.13513735 -0.11540072 -0.13410157
-0.11418002 -0.11534208 -0.13562566
0.11545711 -0.11535195 -0.13536781
0.13652527 -0.11551111 -0.13123286
0.15765779 -0.11567084 -0.12708509
0.17885494 -0.11583079 -0.12292492
0.20011702 -0.11599147 -0.11875194
-0.21949087 -0.094806828 -0.12458557
-0.19794786 -0.094573706 -0.13215685
0.17829777 -0.094579369 -0.13197201
0.1994883 -0.09470699 -0.12782687
0.22074363 -0.094834976 -0.12366879
0.24206403 -0.094963446 -0.11949813
-0.24067324 -0.073902145 -0.12218064
-0.21905959 -0.073728934 -0.12967885
0.19915675 -0.073661231 -0.13261241
0.22037125 -0.073756024 -0.12850618
0.24165 -0.073851265 -0.12438738
0.26299334 -0.073946565 -0.12025625
-0.24039504 -0.052877013 -0.1251924
-0.21880597 -0.05276186 -0.1326741
0.19896074 -0.05271925 -0.13544148
0.22015281 -0.052782435 -0.1313436
0.241409 -0.052845646 -0.12723362
0.26272851 -0.052908882 -0.12312347
-0.26180226 -0.031956326 -0.12067854
-0.24011743 -0.031898323 -0.12819749
-0.2185529 -0.031841014 -0.13566256
0.21993388 -0.031852338 -0.13418758
0.24116746 -0.031883888 -0.130086
0.26246533 -0.031915467 -0.12597221
0.28391603 -0.031954147 -0.12096417
-0.26150051 -0.010966046 -0.12369359
-0.23984045 -0.01096602 -0.13119572
0.28359327 -0.010966046 -0.12418926
0.24092641 -0.010965993 -0.13293272
0.26220161 -0.010965966 -0.12882727
-0.26150176 0.010001133 -0.12368113
-0.23984271 0.0099435328 -0.13117117
0.24092852 0.0099300826 -0.13290793
0.26220387 0.0099617122 -0.1288026
0.28359577 0.0099973595 -0.12416452
-0.26180226 0.031014461 -0.12067854
-0.24011856 0.030898828 -0.12818497
-0.21855395 0.030783944 -0.13565034
0.21993484 0.030806672 -0.13417524
0.24116851 0.030869883 -0.13007379
0.26246649 0.030933227 -0.12595987
0.2839185 0.031010501 -0.12093949
-0.24039617 0.051900778 -0.12517995
-0.218807 0.051727969 -0.13266176
0.19896159 0.051664118 -0.13542914
0.22015376 0.051758695 -0.13133132
0.24141005 0.051853698 -0.12722123
0.26273078 0.051948916 -0.12309855
-0.24067438 0.072949134 -0.12216824
-0.21906061 0.072718322 -0.12966663
0.19915845 0.072628289 -0.13258785
0.22037314 0.072754741 -0.12848139
0.2416521 0.072881617 -0.12436259
0.26299566 0.073008813 -0.12023145
-0.21949297 0.093835905 -0.12456089
-0.19795072 0.093544967 -0.13212001
0.17830007 0.093551956 -0.13193512
0.19949089 0.093711607 -0.12778962
0.22074743 0.093872085 -0.12361914
0.24206823 0.094032638 -0.11944836
-0.1986843 0.11488727 -0.12259012
-0.17718343 0.11453711 -0.13017243
-0.15611978 0.11442725 -0.13255107
-0.13513869 0.11435664 -0.13407689
-0.11418114 0.11428636 -0.13560128
0.115459 0.1142993 -0.13531846
0.13652755 0.1144904 -0.13118351
0.15766045 0.114682 -0.1270358
0.17885798 0.11487413 -0.12287539
0.20012046 0.11506685 -0.11870217
-0.17784463 0.13596852 -0.12062889
-0.15666449 0.13580263 -0.12370592
-0.13561477 0.13571993 -0.12524194
-0.11458876 0.13563718 -0.12677604
-0.093586452 0.13555461 -0.12830853
-0.072607793 0.13547224 -0.1298393
-0.051652737 0.13538975 -0.13136828
-0.030721251 0.13530743 -0.13289559
-0.0098132892 0.13522531 -0.13442141
0.073720902 0.13521668 -0.13458109
0.094731547 0.13543968 -0.13044369
0.11580637 0.13566317 -0.12629372
0.13694566 0.1358875 -0.12213099
-0.093928441 0.15703335 -0.11942345
-0.072881073 0.15693851 -0.12096429
-0.051857471 0.15684375 -0.12250334
-0.030857582 0.15674907 -0.12404054
-0.00988138 0.15665454 -0.1255762
0.011071182 0.15656005 -0.12711
0.032000143 0.15646565 -0.12864196
0.052912951 0.15640098 -0.12969118
0.073929727 0.15665686 -0.125539
0.095010825 0.15691324 -0.12137395
-0.15800004 -0.18003722 -0.10201949
-0.13678001 -0.17993887 -0.10361761
-0.11558466 -0.17984056 -0.10521412
-0.094413988 -0.17974232 -0.10680848
-0.073268302 -0.17964503 -0.1083886
-0.052146696 -0.17954703 -0.10997945
-0.031049602 -0.1794492 -0.11156845
-0.0099770883 -0.17935218 -0.11314315
0.011071182 -0.17925458 -0.11472827
0.03209506 -0.17915709 -0.11631173
0.053106282 -0.17910643 -0.1171338
0.074222922 -0.17937063 -0.11284328
0.095406033 -0.1796357 -0.10853904
0.11665594 -0.1799016 -0.10422134
-0.20016417 -0.15883078 -0.10336614
-0.17850789 -0.15841638 -0.11105573
-0.15721199 -0.15821376 -0.11481559
-0.13609329 -0.15813053 -0.11636156
-0.11499845 -0.15804733 -0.11790586
0.11615462 -0.15808281 -0.11724609
0.13736485 -0.15830868 -0.11305565
0.15864028 -0.15853518 -0.10885233
0.17998125 -0.15876234 -0.10463607
0.20138714 -0.15898958 -0.10041934
-0.22111845 -0.13761498 -0.10536474
-0.19942018 -0.13726091 -0.11303067
0.15814705 -0.13703108 -0.11800539
0.17941582 -0.13722454 -0.11381739
0.20074995 -0.1374186 -0.1096164
0.22214977 -0.13761319 -0.10540241
0.24361554 -0.13780831 -0.10117567
-0.24204341 -0.11643053 -0.10734797
-0.22030127 -0.11613534 -0.11501527
0.22144434 -0.11615267 -0.11456615
0.24283719 -0.11631426 -0.11036748
0.26429588 -0.11647636 -0.10615581
-0.28484282 -0.095512897 -0.10165435
-0.26293686 -0.095276237 -0.10934085
-0.24115321 -0.095040858 -0.11698455
0.26344982 -0.095092185 -0.11531466
0.28513059 -0.09529195 -0.10882729
-0.28426161 -0.074251615 -0.10704696
-0.26240644 -0.074076176 -0.11464107
0.28456378 -0.074079767 -0.11449128
0.30677083 -0.074330248 -0.103643
-0.30588353 -0.053226642 -0.1024853
-0.28393343 -0.053109549 -0.1100921
-0.26210463 -0.052993122 -0.11765683
0.28423953 -0.052991927 -0.11773157
0.30641884 -0.053158514 -0.10690898
-0.30553076 -0.032072779 -0.10554063
-0.28360599 -0.032014433 -0.11313051
0.30606768 -0.032037187 -0.11016726
-0.32720158 -0.010966073 -0.10096145
-0.30517873 -0.010966073 -0.10858911
-0.28327924 -0.010966046 -0.1161623
0.32801718 -0.01096602 -0.10256082
0.30571604 -0.010965993 -0.11343044
-0.32720158 0.010176015 -0.10096133
-0.30518019 0.010117403 -0.1085766
-0.28328058 0.010059108 -0.11614984
0.30572006 0.010080348 -0.11339277
0.3280201 0.010163867 -0.10253561
-0.30553222 0.031247795 -0.10552818
-0.2836073 0.031130943 -0.11311817
0.30607039 0.031176742 -0.11014217
-0.30588499 0.052425157 -0.10247266
-0.28393343 0.052249264 -0.11009216
-0.26210463 0.052074518 -0.11765683
0.284242 0.052073453 -0.11770672
0.30642155 0.052323293 -0.10688376
-0.28426161 0.073414765 -0.10704696
-0.26240769 0.073181272 -0.11462855
0.28456628 0.073186323 -0.11446649
0.30677354 0.073520355 -0.10361767
-0.28484687 0.09471903 -0.10161638
-0.26294062 0.094423205 -0.10930324
-0.24115553 0.094128467 -0.11695963
0.26345444 0.094193645 -0.11526471
0.28513563 0.094443329 -0.10877711
-0.24204573 0.11559235 -0.10732275
-0.22030443 0.11523884 -0.11497784
0.22144818 0.11526013 -0.11451614
0.24284142 0.11545404 -0.11031741
0.26430053 0.11564865 -0.10610557
-0.22112058 0.13679235 -0.10533959
-0.19942211 0.13637926 -0.11300564
0.15814975 0.13611248 -0.11795551
0.17941967 0.1363388 -0.11375487
0.2007543 0.13656528 -0.10955375
0.2221546 0.13679235 -0.10533959
0.24362089 0.13702013 -0.10111254
-0.20016612 0.15802377 -0.10334104
-0.17850962 0.15755022 -0.11103064
-0.15721352 0.1573187 -0.1147908
-0.13609396 0.15722267 -0.1163491
-0.11499961 0.15712842 -0.11788112
0.11615653 0.15717055 -0.11719632
0.13736714 0.15742864 -0.11300564
0.15864298 0.15768746 -0.10880214
0.17998435 0.15794717 -0.10458583
0.2013915 0.15820767 -0.1003564
-0.15800312 0.17924261 -0.10196906
-0.13678339 0.17913279 -0.10355484
-0.11558758 0.17902209 -0.10515124
-0.094416887 0.17891246 -0.1067332
-0.073270224 0.17880219 -0.10832608
-0.052148424 0.17869279 -0.10990429
-0.031050757 0.17858262 -0.11149335
-0.0099776676 0.17847365 -0.11306816
0.011071182 0.17836379 -0.11465353
0.03209573 0.1782549 -0.11622453
0.053107433 0.17819706 -0.11705917
0.074224651 0.17849441 -0.11276835
0.09540835 0.17879264 -0.10846388
0.11665884 0.17909175 -0.10414571
-0.15905969 -0.20236319 -0.08481282
-0.13770682 -0.20225205 -0.086418271
-0.11637815 -0.20214 -0.088034749
-0.095074452 -0.20202817 -0.089649379
-0.073795661 -0.2019164 -0.091262043
-0.052541755 -0.20180486 -0.092872679
-0.031312868 -0.20169418 -0.094468951
-0.010108472 -0.20158295 -0.096075892
0.011071182 -0.20147166 -0.097681105
0.032226235 -0.20136155 -0.099271655
0.053374104 -0.20132923 -0.099738419
0.074625917 -0.20163022 -0.095392942
0.095945068 -0.20193222 -0.091033518
0.11733186 -0.20223519 -0.086660385
-0.20125628 -0.18082801 -0.089179158
-0.17947301 -0.18033867 -0.097125113
0.13797237 -0.18016769 -0.099902391
0.1593567 -0.18043515 -0.095557332
0.18080878 -0.18070368 -0.091198564
0.20232892 -0.18097293 -0.086825848
0.22391649 -0.18124236 -0.082452059
-0.24384159 -0.15966515 -0.087882102
-0.22194143 -0.15924679 -0.095646024
0.2228599 -0.15921818 -0.096177101
0.24439915 -0.15944748 -0.091921687
0.2660051 -0.15967739 -0.08765316
-0.26488331 -0.13832964 -0.089890718
-0.24293873 -0.13797104 -0.097655833
0.2651476 -0.13800421 -0.09693563
0.28721774 -0.13841833 -0.087971091
-0.30800518 -0.11732479 -0.084111273
-0.28589305 -0.11702468 -0.091909051
-0.26390666 -0.11672673 -0.099650323
0.28617021 -0.1167734 -0.09843868
0.30852699 -0.11720026 -0.087347686
-0.32902732 -0.095990598 -0.086138189
-0.30687353 -0.095751256 -0.093911707
0.30739838 -0.095630974 -0.097819984
0.32984588 -0.095972575 -0.086723983
-0.35055873 -0.074783042 -0.08403486
-0.32833526 -0.074604757 -0.09175688
-0.30623713 -0.074427694 -0.099423051
0.32915491 -0.07458277 -0.092707992
-0.35015348 -0.05346293 -0.087131441
-0.32795602 -0.053344402 -0.094836116
0.32877475 -0.05332651 -0.095999956
0.35130936 -0.053495757 -0.085004032
-0.37204328 -0.032250158 -0.08250308
-0.34974918 -0.032190777 -0.090220869
-0.32757914 -0.032131713 -0.09789592
0.32839552 -0.032120999 -0.09928441
0.35090002 -0.032205291 -0.088327408
0.3504948 -0.010966046 -0.091617286
-0.37161377 -0.010965966 -0.085603058
-0.34934574 -0.010965993 -0.093303621
-0.37161377 0.010294278 -0.085603058
-0.34934574 0.010235001 -0.09330374
0.35049638 0.010248027 -0.091604412
-0.37204328 0.031602263 -0.0825032
-0.34974918 0.031483337 -0.090220869
-0.32757914 0.031365313 -0.097895801
0.32839844 0.031344209 -0.099259019
0.35090473 0.031513244 -0.088289201
-0.35015348 0.05277944 -0.087131321
-0.32795757 0.0526019 -0.09482348
0.32877767 0.052575242 -0.095974684
0.35131249 0.052829284 -0.08497858
-0.35055873 0.07412339 -0.08403486
-0.32833683 0.073885985 -0.091744125
-0.30623713 0.073649593 -0.09942317
0.32915783 0.073857196 -0.09268254
-0.32903045 0.095315769 -0.086112678
-0.30687645 0.095016487 -0.093886375
0.30740383 0.094867066 -0.097769558
0.32985175 0.095294155 -0.086673021
-0.30800813 0.11666567 -0.084085882
-0.28589579 0.11630554 -0.0918836
-0.26390916 0.11594801 -0.099625111
0.28617525 0.11600515 -0.098388314
0.30853248 0.11651737 -0.087296844
-0.26488584 0.13762616 -0.089865327
-0.24294224 0.13720848 -0.097617984
0.26515347 0.13724859 -0.096872389
0.28722286 0.13773106 -0.087920368
-0.24384394 0.15897739 -0.08785665
-0.22194357 0.1584993 -0.095620573
0.22286481 0.15846889 -0.09611398
0.24440451 0.15873092 -0.091858327
0.26601097 0.15899383 -0.087589502
-0.20126215 0.18013397 -0.089102864
-0.17947739 0.17958254 -0.097061872
0.13797644 0.17939182 -0.099814177
0.15936148 0.17969285 -0.09546876
0.18081425 0.179995 -0.091109753
0.20233423 0.18029706 -0.086749494
-0.15906361 0.20170239 -0.084749043
-0.13771024 0.20157883 -0.086354613
-0.11638109 0.20145437 -0.08797121
-0.095077381 0.20133108 -0.089573145
-0.073798008 0.20120692 -0.091185689
-0.052543804 0.20108393 -0.092783988
-0.031314038 0.20096005 -0.094392955
-0.010109057 0.20083636 -0.096000195
0.011071182 0.20071279 -0.097605228
0.032226719 0.20058931 -0.099208713
0.05337527 0.20055434 -0.099662721
0.074627675 0.2008889 -0.095316947
0.09594702 0.20122358 -0.09096992
0.11733431 0.20156017 -0.086596608
-0.16013351 -0.22497186 -0.067376077
-0.13864462 -0.22484574 -0.069014907
-0.11718103 -0.22471963 -0.070651948
-0.095743231 -0.22459483 -0.07227397
-0.074330069 -0.2244691 -0.073906958
-0.052942082 -0.22434355 -0.075538039
-0.031579245 -0.22421817 -0.077167273
-0.010241506 -0.22409292 -0.078794479
0.011071182 -0.22396879 -0.080407083
0.032358959 -0.22384383 -0.082030475
0.053645357 -0.22383693 -0.082119882
0.075033799 -0.22417478 -0.077731133
0.096490636 -0.22451466 -0.07331568
0.118016 -0.22485563 -0.068886042
-0.20269936 -0.20335953 -0.070432901
-0.18076341 -0.20280065 -0.078499973
0.13878661 -0.20253919 -0.082273185
0.160309 -0.2028432 -0.077884972
0.18190058 -0.20314907 -0.073469937
0.20356113 -0.20345594 -0.069040775
0.22529095 -0.20376375 -0.064597428
-0.26737049 -0.18231472 -0.065037251
-0.24520382 -0.18181597 -0.073135674
-0.22316688 -0.181321 -0.081174195
0.24557364 -0.18151326 -0.078051686
0.26737821 -0.18183737 -0.072788358
-0.28801474 -0.16050895 -0.072222531
-0.26586568 -0.16008584 -0.080074489
0.28827202 -0.16022803 -0.077436388
0.31080884 -0.16083479 -0.066174805
-0.33146226 -0.13941611 -0.066368639
-0.30914342 -0.13905178 -0.074253917
-0.2869508 -0.13868971 -0.082094371
0.30966425 -0.13893445 -0.07679534
0.33229327 -0.13945487 -0.065528572
0.35378614 -0.11806446 -0.064894974
-0.35260364 -0.11792924 -0.068408668
-0.33024123 -0.11762615 -0.076282382
0.33106488 -0.11763056 -0.076166809
-0.37371403 -0.096473828 -0.070445657
-0.35130653 -0.096231349 -0.078320503
0.35247684 -0.096317448 -0.075525165
-0.39541346 -0.075147718 -0.06824106
-0.37290528 -0.074962124 -0.076282322
0.35171807 -0.07483732 -0.081685424
0.37446257 -0.075093918 -0.070574462
-0.39491957 -0.053701822 -0.071617603
-0.37247381 -0.05358215 -0.079396129
0.37402311 -0.053666309 -0.073932588
-0.39446262 -0.032309838 -0.074742019
0.37358639 -0.032290459 -0.077269793
0.39645711 -0.032376371 -0.066110253
-0.39400852 -0.01096602 -0.077846467
0.37315238 -0.01096602 -0.080586135
0.3959921 -0.010965966 -0.069466174
-0.39400852 0.010353955 -0.077846467
0.37315404 0.010333034 -0.08057338
0.39599389 0.010418548 -0.069453418
-0.39446262 0.031721722 -0.07474196
0.37359139 0.031683393 -0.077231288
0.39646071 0.03185498 -0.066084325
-0.39491957 0.05313782 -0.071617603
-0.37247381 0.052958149 -0.079396129
0.37402815 0.053085182 -0.073894083
-0.39541346 0.074609652 -0.068241
-0.37290528 0.074362092 -0.076282382
0.35172126 0.07419654 -0.081660032
0.37446424 0.074538253 -0.070561647
-0.37371761 0.095919766 -0.070419967
-0.35131153 0.095617205 -0.078282237
0.3524816 0.095724702 -0.07548666
-0.35260701 0.11739095 -0.068382919
-0.33024439 0.11702732 -0.076256573
0.33107081 0.11703391 -0.076115489
0.35379252 0.11755446 -0.064843297
-0.33146706 0.13889438 -0.066329837
-0.3091464 0.13846883 -0.074228168
-0.28695357 0.13804643 -0.082068861
0.30966976 0.13833335 -0.07674396
0.33229926 0.13894045 -0.065476894
-0.28801888 0.15994264 -0.072183907
-0.2658695 0.15945904 -0.080035985
0.28827843 0.15962304 -0.077372253
0.31081578 0.16031662 -0.066110253
-0.26737696 0.18180574 -0.064972579
-0.24520975 0.18124461 -0.073071241
-0.22317228 0.18068779 -0.081110418
0.22392337 0.18060094 -0.082362533
0.24558124 0.18090577 -0.077961743
0.26738775 0.18127136 -0.07268554
-0.20270433 0.20280944 -0.07036835
-0.18076874 0.20218942 -0.078422964
0.13878956 0.20189795 -0.082209289
0.16031313 0.20223679 -0.077808022
0.18190533 0.20257668 -0.073392868
0.20356648 0.20291764 -0.06896323
-0.16013747 0.22444589 -0.067311645
-0.13864878 0.22430822 -0.068937719
-0.1171846 0.22416955 -0.070574522
-0.095745705 0.22403111 -0.072209537
-0.074332036 0.22389282 -0.073842704
-0.052943863 0.22375585 -0.075461149
-0.03158043 0.22361794 -0.077090263
-0.010242096 0.22348006 -0.078717649
0.011071182 0.22334251 -0.080343187
0.032359451 0.2232049 -0.081966579
0.053646341 0.22319731 -0.082056105
0.07503558 0.22357015 -0.077654243
0.096493013 0.22394399 -0.073238373
0.11801898 0.22431915 -0.068808675
-0.11822648 -0.24801175 -0.048017025
-0.096609898 -0.24786441 -0.049757242
-0.075019762 -0.24771613 -0.051508307
-0.05345694 -0.24756916 -0.053243995
-0.031920876 -0.24742229 -0.054977775
-0.010411416 -0.24727464 -0.056722164
0.011071182 -0.24712817 -0.058451653
0.032527171 -0.24698183 -0.060178757
0.053989358 -0.24701597 -0.059776425
0.075557157 -0.24741453 -0.05506897
0.097197928 -0.2478146 -0.050345659
-0.20416121 -0.22619836 -0.0514431
-0.18207231 -0.22556993 -0.059607625
0.1396102 -0.22519772 -0.064442098
0.1612736 -0.22554091 -0.059984088
0.18300651 -0.22588515 -0.055511832
0.20480928 -0.22623062 -0.051024914
-0.24695581 -0.20448621 -0.054169774
-0.22476242 -0.2039208 -0.062331557
0.24708928 -0.20407169 -0.060153008
0.26925719 -0.20460552 -0.052448153
-0.31209138 -0.18331933 -0.048723936
-0.28966558 -0.18281555 -0.056904316
0.28989908 -0.18255247 -0.061177731
0.31260777 -0.18327272 -0.049482703
-0.35522425 -0.16179354 -0.048383594
-0.33269367 -0.16136312 -0.056370974
-0.31028983 -0.16093449 -0.064325809
0.33353114 -0.16144739 -0.054808378
-0.37648469 -0.14015137 -0.050450206
-0.35390839 -0.13978244 -0.05843854
0.35510713 -0.13997948 -0.054169774
-0.39822787 -0.1186763 -0.048998594
-0.37509352 -0.118234 -0.06049037
0.37669298 -0.11850178 -0.053531051
-0.39645982 -0.096762083 -0.061086893
0.37529048 -0.096664637 -0.064248085
0.39829051 -0.097014688 -0.052878857
-0.41930112 -0.075521857 -0.052043557
0.39738873 -0.075352371 -0.05938673
0.42050228 -0.075613081 -0.048095703
-0.41871503 -0.053944699 -0.055850267
0.39692149 -0.053838316 -0.062759042
0.42000508 -0.054011792 -0.051495194
-0.41813055 -0.032426078 -0.059646606
0.41951093 -0.032462817 -0.054873586
-0.44160616 -0.010966099 -0.047178864
-0.41754767 -0.010966046 -0.063432574
0.41901612 -0.010965993 -0.058256745
0.44222674 -0.010965993 -0.046956301
-0.44160616 0.010590029 -0.047178984
-0.41754767 0.010464908 -0.063432574
0.41901803 0.010504914 -0.058243632
0.44222876 0.010591836 -0.046943188
-0.41813055 0.031954154 -0.059646487
0.41951478 0.032028105 -0.054847479
-0.41871503 0.053501885 -0.055850267
0.39692685 0.05334324 -0.062720299
0.4200089 0.053603109 -0.051469088
-0.41930112 0.075108379 -0.052043557
0.39739233 0.0748832 -0.059360981
0.42050612 0.075230815 -0.048069477
-0.39646551 0.09628053 -0.061048031
0.37529725 0.096159346 -0.064196408
0.39829776 0.096596934 -0.052826524
-0.39823362 0.11828808 -0.048959494
-0.37509891 0.11775734 -0.060451269
0.3767015 0.11807997 -0.053465843
-0.37648833 0.13975157 -0.050423861
-0.35391349 0.13932174 -0.058399558
0.35511357 0.13955258 -0.054117799
-0.35522941 0.16141078 -0.048344374
-0.33269688 0.16091803 -0.056344867
-0.31029433 0.1604289 -0.064286888
0.33353719 0.16101579 -0.054756165
-0.31210044 0.182937 -0.048645496
-0.28967258 0.18236922 -0.056839347
0.28990817 0.18207499 -0.061087012
0.31261766 0.18288524 -0.04939115
-0.2469618 0.20406146 -0.054104686
-0.22476901 0.20343412 -0.062253833
0.22529691 0.20325975 -0.064519823
0.24709696 0.20360288 -0.060062051
0.26926562 0.20419595 -0.052356839
-0.20416725 0.2257963 -0.051364541
-0.18207772 0.22510478 -0.059529662
0.13961379 0.22469538 -0.064364612
0.1612778 0.22507294 -0.059906125
0.18301132 0.22545172 -0.05543375
0.20481381 0.22583054 -0.050959706
-0.11823193 0.24764018 -0.047899246
-0.09661442 0.24747939 -0.049639583
-0.075023785 0.24731894 -0.051377654
-0.053459652 0.24715732 -0.053126693
-0.031922679 0.24699713 -0.054860473
-0.010412418 0.24683715 -0.056592226
0.011071182 0.24667622 -0.058334589
0.032528069 0.2465166 -0.060061932
0.053991158 0.24655385 -0.059659481
0.075560167 0.24698992 -0.054938555
0.097201958 0.24742635 -0.050214767
-0.18382785 -0.24917588 -0.034268856
-0.16163425 -0.24843597 -0.043007016
-0.13986999 -0.24815924 -0.046274781
0.11891204 -0.24821594 -0.045606136
0.14070046 -0.24861978 -0.040837407
0.16256246 -0.2490238 -0.036065817
0.18449894 -0.24942917 -0.031277776
-0.24873066 -0.22746754 -0.034956098
-0.22638099 -0.22683157 -0.043217301
0.22668223 -0.22657707 -0.046523809
0.24862574 -0.22692479 -0.042008042
0.27116388 -0.2277099 -0.03180778
-0.31432021 -0.20620081 -0.029421687
-0.29173222 -0.20562534 -0.037728548
-0.26927832 -0.20505407 -0.045973301
0.29195175 -0.20542185 -0.040666342
-0.3573415 -0.18433668 -0.032204866
-0.3346507 -0.18382697 -0.040482044
0.33550793 -0.183999 -0.037688971
-0.37788415 -0.16222648 -0.040350437
0.35643834 -0.16206419 -0.043361783
0.3795341 -0.16268608 -0.031820893
-0.40000942 -0.14078088 -0.036818266
0.37810802 -0.14050855 -0.042717934
0.40129834 -0.14104162 -0.031171799
-0.42232695 -0.11931548 -0.032390237
0.39978951 -0.11894339 -0.042060733
0.42307454 -0.11938792 -0.030509114
-0.42044577 -0.097269401 -0.04460907
0.42147923 -0.097367726 -0.041416287
0.44485894 -0.097723573 -0.029859304
-0.44346672 -0.075899929 -0.035669565
0.44380385 -0.075875953 -0.036712527
-0.44284627 -0.054196324 -0.039507747
0.4432762 -0.054186486 -0.040139794
-0.44222537 -0.032551598 -0.04334867
0.44275182 -0.032550085 -0.043545723
0.46618202 -0.032638043 -0.032125473
-0.46594715 -0.010966046 -0.030734539
0.46562833 -0.01096594 -0.035550714
-0.46594715 0.010716611 -0.03073442
0.46562833 0.010679555 -0.035550594
-0.44222537 0.032205086 -0.043348551
0.44275385 0.03220227 -0.043532491
0.46618417 0.032378163 -0.03211236
-0.44284627 0.053879317 -0.039507747
0.44328022 0.05386528 -0.040113449
-0.44346887 0.075612985 -0.035656333
0.4438079 0.075581402 -0.036686301
-0.42045182 0.096914776 -0.044569731
0.42148694 0.097038031 -0.041363597
0.44486713 0.097482964 -0.029806376
-0.42233306 0.11905522 -0.03235054
0.39979681 0.11860921 -0.042008162
0.42308229 0.1191427 -0.030456185
-0.40001521 0.14048682 -0.036778569
0.37811664 0.14017031 -0.042652249
0.40130749 0.14079252 -0.031105638
-0.37788963 0.16190539 -0.040310979
0.35644481 0.1617208 -0.043309212
0.37954277 0.1624324 -0.031754613
-0.3573519 0.18408144 -0.032125473
-0.3346588 0.18350713 -0.040416479
0.3355186 0.18370238 -0.037596583
-0.31432787 0.20596664 -0.029355288
-0.29174075 0.20532823 -0.037649274
-0.26928619 0.2046935 -0.045894623
0.29195964 0.20510201 -0.040587425
-0.24873677 0.22719127 -0.034890056
-0.22638655 0.22649176 -0.043151498
0.22668728 0.22621176 -0.046458364
0.2486313 0.22659411 -0.041942358
0.27117121 0.22745903 -0.031728148
-0.183837 0.2489116 -0.034136653
-0.16164234 0.24810423 -0.042875648
-0.13987705 0.24780242 -0.046143651
0.11891709 0.24786417 -0.045474887
0.14070591 0.24830349 -0.040719032
0.16256958 0.24874555 -0.035933733
0.1845071 0.24918781 -0.031145215
-0.14160401 -0.27269492 -0.014095783
-0.11971091 -0.27253017 -0.01587832
-0.097845376 -0.27236575 -0.017658591
-0.076006904 -0.27220029 -0.019449949
-0.054196365 -0.27203625 -0.02122581
-0.03241301 -0.27187118 -0.023012757
-0.010657278 -0.27170753 -0.024784088
0.011071182 -0.27154294 -0.026566505
0.032772318 -0.27137962 -0.028333426
0.054491244 -0.27148649 -0.027177811
0.076312549 -0.27193156 -0.02235949
0.098208956 -0.27237943 -0.017511368
0.12018013 -0.27282754 -0.012660027
-0.22863136 -0.2506685 -0.016641617
-0.20615911 -0.24991931 -0.02548933
0.20651026 -0.24983603 -0.026473403
0.22859682 -0.25024414 -0.021652818
0.2509087 -0.25080356 -0.01504755
-0.29382744 -0.22875081 -0.018287063
-0.27121243 -0.22810726 -0.026646256
0.29403484 -0.22863027 -0.01985085
-0.35989577 -0.20736031 -0.012686729
-0.33704051 -0.20677888 -0.021079063
0.31483701 -0.20624413 -0.028798103
0.33791819 -0.20707421 -0.016815543
-0.38052303 -0.18500787 -0.021305799
0.35860199 -0.18473142 -0.025795341
0.38189408 -0.185471 -0.01378715
-0.40180653 -0.16307893 -0.024531126
0.40282077 -0.16331312 -0.020184517
-0.42422464 -0.14155479 -0.020064354
0.42468232 -0.14158012 -0.019516706
-0.44671381 -0.11996238 -0.015583515
0.44655213 -0.1198363 -0.018862009
-0.46927664 -0.098301969 -0.01107502
-0.4447149 -0.097782455 -0.02794826
0.46843207 -0.098082483 -0.018206835
-0.46791938 -0.076282948 -0.019089222
0.46729565 -0.07614097 -0.025236487
0.49137121 -0.076461554 -0.011357188
-0.46725941 -0.054450683 -0.022986054
0.46673924 -0.054362964 -0.028678536
0.49061462 -0.054560944 -0.015824676
-0.46660352 -0.032678578 -0.026858926
0.48986262 -0.032729194 -0.020264745
0.48921904 -0.010966046 -0.024065256
-0.49057344 -0.010965993 -0.014109015
-0.49057344 0.010844628 -0.014109135
0.48921904 0.010767967 -0.024065137
-0.46660352 0.032458972 -0.026858926
0.48986262 0.03256046 -0.020264745
-0.46725941 0.054260876 -0.022986174
0.46674135 0.054129776 -0.028665423
0.49061686 0.05442648 -0.015811205
-0.46791938 0.076123193 -0.019089341
0.46729782 0.075934276 -0.025223374
0.49137348 0.076361604 -0.011343718
-0.46928346 0.098205559 -0.011034727
-0.44472352 0.097556487 -0.027895212
0.46844068 0.097931422 -0.018153429
-0.44672248 0.11983224 -0.01552999
0.44656035 0.1196807 -0.018808603
-0.42423287 0.14139031 -0.020010948
0.42469013 0.14141992 -0.019463539
-0.40181434 0.16288047 -0.024477839
0.40283 0.16314907 -0.020117879
-0.38053414 0.18483672 -0.02122581
0.35861343 0.18452644 -0.025702119
0.38190463 0.18535754 -0.013706684
-0.35990453 0.20725498 -0.012619615
-0.33704874 0.20660898 -0.021012306
0.31484559 0.20601581 -0.028718472
0.33792594 0.20693718 -0.016748667
-0.29383609 0.22860393 -0.018206835
-0.27121907 0.22789499 -0.026579857
0.29404286 0.2284715 -0.019770503
-0.22864272 0.25054002 -0.016507745
-0.20617038 0.24972381 -0.02534306
0.20651947 0.24963181 -0.026340604
0.22860709 0.25007704 -0.021519303
0.25092119 0.25068858 -0.014900088
-0.1416105 0.27258566 -0.013975024
-0.11971649 0.27240726 -0.01575768
-0.09785001 0.27222914 -0.01753819
-0.076010607 0.27204978 -0.019329786
-0.054199144 0.2718721 -0.021105766
-0.032415058 0.27169448 -0.022879481
-0.0106582 0.27151588 -0.024664283
0.011071182 0.27133891 -0.026433587
0.032773238 0.27116063 -0.028213859
0.054493293 0.27127764 -0.027045012
0.076315634 0.27175993 -0.022226334
0.098212667 0.27224371 -0.017390966
0.12018479 0.27272925 -0.012539029
-0.18626416 -0.2740798 0.00089633465
-0.16378635 -0.27325234 -0.0080612898
0.14222676 -0.27327719 -0.0077918768
0.16434853 -0.27372715 -0.0029205084
0.18654716 -0.27418 0.0019811392
-0.27399859 -0.25217891 0.0011945963
-0.25124374 -0.25142133 -0.0077514648
0.27389729 -0.25189 -0.0022175312
-0.33946362 -0.23005031 -0.0014058352
-0.31657842 -0.22939904 -0.0098649263
0.31709945 -0.22955766 -0.0078054667
0.34036294 -0.23049389 0.0043567419
-0.38382685 -0.20841503 0.0025372505
0.36119479 -0.2079106 -0.0047441721
-0.40483296 -0.18608361 -0.0038393736
0.40538347 -0.18621594 -0.0016899109
-0.42614317 -0.163991 -0.0076032877
0.4263007 -0.16394535 -0.0084518194
0.44997633 -0.1645828 0.0033788681
-0.4487325 -0.14233854 -0.0030962229
0.44825855 -0.14212228 -0.0077782869
0.47203135 -0.14266893 0.0040578842
-0.47139591 -0.12061765 0.0014386177
0.47022465 -0.12028833 -0.0071182251
-0.49413171 -0.098827414 0.005988121
0.49295112 -0.098580629 -0.0020281076
-0.49265972 -0.076670036 -0.0023255348
-0.49196401 -0.054708209 -0.0062552691
0.51639217 -0.054907016 0.0066546202
-0.51622772 -0.032936797 0.006695509
-0.49126777 -0.032806862 -0.010187626
0.51559347 -0.032901708 0.0021438599
-0.51549459 -0.010966046 0.0027272701
0.51479495 -0.010965993 -0.0023663044
-0.51549459 0.010974188 0.0027273893
0.51479733 0.01093506 -0.0023525953
-0.51622772 0.032975562 0.006695509
-0.49126777 0.032715645 -0.010187745
0.51559585 0.032905601 0.0021574497
-0.49196401 0.054647271 -0.0062553883
0.51639694 0.054946098 0.0066819191
-0.49266216 0.076639757 -0.0023121834
-0.49414137 0.098862827 0.0060424805
0.4929626 0.098554797 -0.0019603968
-0.47140512 0.12061834 0.0014928579
0.47023338 0.12022316 -0.0070642233
-0.4487412 0.14230475 -0.0030422211
0.44826683 0.14205241 -0.0077244043
0.47204015 0.14269033 0.0041120052
-0.42615148 0.16392305 -0.0075494051
0.42631054 0.16387162 -0.008384347
0.44998679 0.16460025 0.0034468174
-0.40484679 0.18604772 -0.0037448406
0.4053947 0.18619585 -0.0016087294
-0.38383815 0.20842798 0.0026187897
0.36120477 0.20786741 -0.0046631098
-0.33947197 0.23003238 -0.0013381243
-0.3165862 0.22931595 -0.0097975731
0.31710812 0.22949161 -0.0077246428
0.34037235 0.23052152 0.0044382811
-0.27401215 0.25218782 0.0013301373
-0.2512562 0.2513614 -0.0076167583
0.27390978 0.2518726 -0.0020822287
-0.18627355 0.27408746 0.0010318756
-0.16379465 0.27319095 -0.0079267025
0.14223237 0.27321652 -0.0076706409
0.1643558 0.27370545 -0.0027853251
0.1865555 0.27419597 0.0021166801
-0.12156368 -0.29834154 0.024235249
-0.099376269 -0.29812944 0.02211535
-0.077222019 -0.29791895 0.02001214
-0.055099905 -0.29770744 0.01789844
-0.033010591 -0.29749754 0.01580143
-0.010953479 -0.29728669 0.01369381
0.011071182 -0.29707605 0.011589408
0.033063363 -0.29686436 0.0094743967
0.0550921 -0.29710197 0.011848927
0.077234358 -0.29767311 0.017555475
0.099465169 -0.29824647 0.023285151
-0.23164792 -0.27575052 0.018982291
-0.20888422 -0.27491248 0.0099108219
0.20882241 -0.2746343 0.0068995953
0.23117366 -0.27508909 0.011821508
0.2541593 -0.276153 0.023340106
-0.31994271 -0.25370955 0.019270658
-0.29689726 -0.25294125 0.010197282
0.29709375 -0.25298512 0.010715723
0.32050353 -0.2540915 0.023780823
-0.36272633 -0.23084687 0.0089426041
0.3638249 -0.23143721 0.016609788
-0.40836373 -0.20964573 0.020300746
0.38467255 -0.20875505 0.0074442625
0.40835065 -0.20960572 0.019723773
-0.42944524 -0.18717253 0.013844252
0.42907426 -0.18696724 0.010510921
0.45296904 -0.18772514 0.022817016
-0.45077121 -0.16491345 0.0095151663
0.47435525 -0.16539399 0.018433452
-0.47353628 -0.14313161 0.01407671
-0.4963741 -0.1212802 0.018652916
0.49540076 -0.12104099 0.012436271
-0.51928759 -0.099359132 0.023257494
0.51893228 -0.099289723 0.021001577
-0.51769763 -0.077062033 0.014651418
0.5171957 -0.07698226 0.011193395
-0.51696295 -0.054968845 0.010674834
-0.54148656 -0.033068378 0.023780823
0.54089135 -0.010966046 0.020341873
-0.54071373 -0.010965993 0.019764781
-0.54071373 0.011105345 0.019765019
0.54089385 0.01110997 0.020355582
-0.54148656 0.033238672 0.023780704
-0.51696295 0.05503818 0.010674953
-0.51770014 0.077162571 0.014665008
0.51719815 0.077055976 0.011207104
-0.51930034 0.099528059 0.023326397
0.51894206 0.099440716 0.021056533
-0.49638382 0.12141354 0.018707871
0.49541005 0.12112632 0.012491107
-0.47354552 0.14323016 0.014131665
-0.45078003 0.16497734 0.0095697641
0.47436637 0.16552751 0.018501997
-0.42945999 0.18727292 0.013940096
0.42908621 0.18704107 0.010592937
0.45298389 0.1878946 0.022913456
-0.40837783 0.20979661 0.020396829
0.38468146 0.20880483 0.007512331
0.40836203 0.20975113 0.019806147
-0.362737 0.23090985 0.0090243816
0.36383504 0.23155917 0.016691923
-0.31995857 0.25385782 0.019407868
-0.29691344 0.25302076 0.010347366
0.29710877 0.25306872 0.010865808
0.32051986 0.25427571 0.023932219
-0.23165956 0.2758975 0.01911962
-0.20889471 0.2749896 0.010047197
0.20883091 0.27468687 0.0070221424
0.23118418 0.27518091 0.011958122
0.25417212 0.27633506 0.02349174
-0.12157642 0.29854503 0.02451098
-0.099386863 0.29831648 0.022390485
-0.077230476 0.2980898 0.020287037
-0.055106245 0.29786193 0.018172741
-0.033014808 0.29763585 0.016075253
-0.010955586 0.29740864 0.013967395
0.011071182 0.29718325 0.011876225
0.033065464 0.29695386 0.0097471476
0.055096518 0.29721123 0.012135863
0.077241004 0.2978265 0.017843485
0.099474065 0.29844406 0.023574352
-0.16659357 -0.29967123 0.037522078
-0.14381067 -0.29860368 0.02685523
0.1217856 -0.2988236 0.029051423
0.14419526 -0.29940149 0.034827113
0.16669507 -0.29998186 0.04062593
-0.27761036 -0.27744129 0.037285566
-0.25455537 -0.27659264 0.028097987
0.27747583 -0.27737081 0.036521196
-0.34313327 -0.25448161 0.028388143
0.34412831 -0.2552079 0.036965847
-0.38718688 -0.23222053 0.026786327
0.38749117 -0.23238952 0.028982282
0.4113628 -0.23335023 0.041462183
-0.43321055 -0.21089286 0.038300753
0.43223324 -0.2104639 0.032109499
-0.45436779 -0.18827608 0.031763196
-0.47570038 -0.16584794 0.02685523
0.5003708 -0.16665222 0.041782856
-0.49864379 -0.14393516 0.031472564
0.49787313 -0.1437301 0.02703464
-0.5216611 -0.12195192 0.036104441
0.52153254 -0.12193587 0.035687566
-0.54475254 -0.099897757 0.040751219
-0.54303342 -0.077458531 0.031818509
0.5434342 -0.077511378 0.034105539
-0.54225898 -0.055232432 0.027794242
0.54258215 -0.055258587 0.02949369
-0.56704688 -0.033201393 0.041057825
0.54173541 -0.033077043 0.024910688
-0.5662362 -0.01096594 0.03700757
-0.5662362 0.011237987 0.037007689
-0.56704968 0.033504806 0.041071773
0.54173791 0.033256266 0.024924397
-0.5422616 0.055433933 0.027807713
0.54258728 0.055473488 0.029521465
-0.54303879 0.077691548 0.031846404
0.54343677 0.077761568 0.034119368
-0.54476327 0.10020085 0.040807009
-0.52167135 0.1222196 0.036159873
0.52154237 0.12220041 0.035743237
-0.49865362 0.14416756 0.031527877
0.49788478 0.1439292 0.027103782
-0.47570974 0.16604519 0.026910424
0.5003826 0.16696543 0.041852713
-0.45438346 0.18851456 0.031860113
-0.43322343 0.21118136 0.038384199
0.43224543 0.21070461 0.032192588
-0.38719836 0.23242089 0.026869059
0.38750204 0.23260695 0.029065251
0.41137245 0.23366252 0.04153192
-0.34315032 0.25470015 0.028526068
0.34414601 0.25549373 0.037118912
-0.27762565 0.27773076 0.037438631
-0.25456941 0.27681124 0.028249741
0.27748993 0.27765426 0.036674142
-0.16661239 0.29998019 0.037827969
-0.14382629 0.29882896 0.027145028
0.12179625 0.2990641 0.029327869
0.14420871 0.29968813 0.035118461
0.16671084 0.30031329 0.040918469
-0.21267475 -0.30183572 0.059150815
-0.18954811 -0.30074936 0.048295856
0.18928647 -0.30056593 0.046462178
0.21197036 -0.30115381 0.052336097
-0.32416353 -0.27915382 0.055823922
0.30100745 -0.27859947 0.049823761
-0.30081165 -0.27829418 0.046518207
-0.36764002 -0.25601438 0.046490073
0.36797109 -0.25633475 0.050272703
-0.41195703 -0.23361246 0.044867992
0.43544042 -0.23431818 0.054036736
-0.45836899 -0.21215475 0.056514263
0.45692846 -0.21160182 0.048534274
-0.47960448 -0.18939351 0.049907923
0.47856316 -0.1890582 0.044462919
-0.50093144 -0.166793 0.044393063
-0.5240559 -0.14474785 0.049066782
0.52415955 -0.14481513 0.050525188
-0.54725522 -0.12263133 0.053755641
0.54809272 -0.1228455 0.059320331
-0.57052982 -0.10044309 0.05845952
0.54533482 -0.10000996 0.044393063
-0.5686779 -0.077860184 0.049206853
0.57009667 -0.078049071 0.057387829
-0.56786263 -0.055499312 0.045133591
0.56919473 -0.055615846 0.052701235
0.5682984 -0.033255141 0.048043847
-0.59212893 -0.010966099 0.054754257
0.56740499 -0.010966046 0.04340148
-0.59212893 0.011374778 0.054754257
0.56740767 0.011287431 0.043415427
0.56830382 0.033612572 0.04807198
-0.56786543 0.055834357 0.045147657
0.5692029 0.056009803 0.052743554
-0.56868351 0.078227013 0.049234986
0.57009941 0.078478478 0.057402134
-0.57054108 0.10088252 0.058516026
0.54534513 0.1003411 0.044448853
-0.54726607 0.12303493 0.053811789
0.54810315 0.12329198 0.059376717
-0.52406627 0.14511573 0.049122691
0.52417195 0.14519516 0.050595164
-0.50094134 0.1671254 0.044448853
-0.47961876 0.18977077 0.049991965
0.47858575 0.18939735 0.044602752
-0.45838496 0.21258451 0.056612849
0.45694786 0.21197228 0.048660398
-0.41196927 0.23395206 0.044952154
0.43545276 0.2347286 0.054121137
-0.36766195 0.25637501 0.046658158
0.36798838 0.25672182 0.050412893
-0.3241798 0.27958485 0.055964828
-0.30082822 0.27865478 0.046672106
0.30102149 0.27898425 0.04996419
-0.21269865 0.30231184 0.059461594
-0.18956849 0.30114019 0.048590183
0.18930371 0.30094099 0.046741962
0.21199077 0.3015756 0.052631259
-0.23597662 -0.30293167 0.070101857
0.23520127 -0.30233517 0.064141512
-0.34854451 -0.28067791 0.072321892
0.32475567 -0.27983841 0.063235641
0.34872639 -0.28109029 0.07678628
-0.3926281 -0.25767106 0.066054702
0.39203304 -0.25747079 0.063688636
0.4163208 -0.25861859 0.077243567
-0.4370386 -0.23502095 0.06316483
0.46136615 -0.23611352 0.077357769
-0.48384947 -0.21343352 0.074973226
0.48320729 -0.21331005 0.073190808
-0.50515872 -0.19052429 0.068268657
0.50498867 -0.19057231 0.069049954
-0.52647495 -0.1677503 0.062160254
0.52681625 -0.16793184 0.065530062
-0.54978329 -0.14557104 0.066891551
0.55088186 -0.14591876 0.074416876
-0.5731675 -0.12331959 0.071638346
0.57217157 -0.10074205 0.068169117
-0.59579802 -0.078395963 0.072407484
-0.59456909 -0.055828288 0.066494465
0.59624022 -0.055979062 0.076286435
-0.59334797 -0.033352006 0.060619712
0.59529567 -0.033436216 0.071567178
0.59435135 -0.010966046 0.066849113
0.59435415 0.011467868 0.066863298
-0.59335095 0.033805925 0.060633779
0.59530139 0.033974774 0.071595669
-0.59457499 0.056327987 0.066522717
0.59624881 0.056554463 0.07632935
-0.59580392 0.078941323 0.072435856
0.57218254 0.1012562 0.068226099
-0.57317889 0.12386093 0.071695447
-0.5497942 0.14607625 0.066948533
0.55089235 0.14648183 0.074473858
-0.52648544 0.16821945 0.062216878
0.52682632 0.16842712 0.065586805
-0.50517631 0.19104385 0.068367958
0.50501513 0.19110189 0.069206238
-0.48386392 0.21400441 0.075058937
0.48323029 0.2138716 0.073333383
-0.43705386 0.23550275 0.063263774
0.46138373 0.23670591 0.077472091
-0.39265168 0.25818259 0.066224813
0.39205343 0.25796258 0.063844204
0.41634259 0.25921494 0.077400804
-0.34856731 0.2812402 0.072507024
0.32477242 0.28032795 0.063391328
0.3487429 0.28168282 0.076929212
-0.23600312 0.30349204 0.070414782
0.23522745 0.30285263 0.064481616
0.03369315 -0.32767352 0.091285944
-0.28310972 -0.3051469 0.092238426
-0.25945345 -0.30403438 0.081121325
0.25897324 -0.30394116 0.080190063
-0.37362692 -0.28251773 0.092238545
0.37292138 -0.28235379 0.090463996
-0.41796055 -0.25935283 0.085914493
-0.46244186 -0.23644844 0.08170867
-0.50965327 -0.21472776 0.093654037
-0.53104156 -0.19167031 0.086877823
0.53187245 -0.19211429 0.094087481
-0.55233157 -0.1687188 0.080132842
0.55374801 -0.16924679 0.089930534
-0.57675362 -0.14661793 0.08955574
0.5750919 -0.12377015 0.083343744
-0.59869212 -0.10130128 0.086331367
0.59945321 -0.10148634 0.092339516
0.59719354 -0.078595541 0.081049562
-0.62312537 -0.033615962 0.094911695
0.62273216 -0.033620056 0.095461369
-0.62183428 -0.010966046 0.088921785
0.62173843 -0.010965993 0.090680242
-0.62183428 0.011637726 0.088921785
0.62173843 0.011651282 0.090680361
-0.62312847 0.034334 0.094926119
0.62273818 0.034342613 0.095490336
0.5971964 0.079207085 0.081063986
-0.59871006 0.10195642 0.086417675
0.59946477 0.10218662 0.092397332
0.57510293 0.1244015 0.083401203
-0.57676804 0.14729837 0.089627743
-0.55234808 0.1693282 0.080218792
0.55376923 0.16993326 0.090045929
-0.53105754 0.19233228 0.08696413
0.53190064 0.19283673 0.094246507
-0.50967121 0.21544366 0.093755364
-0.46245581 0.23707193 0.081794739
-0.41798577 0.26001728 0.086087108
-0.37365147 0.28323373 0.092426181
0.37293914 0.2830517 0.090608001
-0.28314152 0.30587837 0.092556119
-0.25948256 0.30468002 0.081436276
0.25900236 0.30458283 0.080533981
0.033726741 0.32886738 0.095649481
-0.011717261 -0.33000427 0.11291206
0.011071182 -0.32883459 0.10205913
-0.3069447 -0.30626655 0.10342598
0.28300872 -0.30556503 0.096416712
0.30731067 -0.30720556 0.1128093
-0.39905384 -0.28438276 0.1124289
