ply
format ascii 1.0
comment PCL generated
element vertex 1345
property float x
property float y
property float z
element camera 0
property float view_px
property float view_py
property float view_pz
property float x_axisx
property float x_axisy
property float x_axisz
property float y_axisx
property float y_axisy
property float y_axisz
property float z_axisx
property float z_axisy
property float z_axisz
property float focal
property float scalex
property float scaley
property float centerx
property float centery
property int viewportx
property int viewporty
property float k1
property float k2
end_header
0.25028625 0.017288402 -0.43726522
-0.25652614 0.043496717 -0.43974066
-0.24049766 0.039174244 -0.43138957
0.25261259 0.041237209 -0.43850303
-0.25270775 0.04554088 -0.42917043
0.2380189 0.045801576 -0.44017923
-0.25270775 0.070511788 -0.42917043
-0.23829606 0.061487135 -0.42990535
0.23625898 0.066450141 -0.43430138
0.25028625 0.060667012 -0.43726522
-0.24049766 0.082749404 -0.43138957
0.25028625 0.082356319 -0.43726522
-0.25270775 0.095482677 -0.42917043
-0.24049766 0.10453697 -0.43138957
0.2380189 0.096004061 -0.44017923
0.25028625 0.10404561 -0.43726522
-0.25270775 0.12045357 -0.42917043
0.2380189 0.12110529 -0.44017923
-0.24049766 0.12632453 -0.43138957
0.25028625 0.12573491 -0.43726522
-0.25476813 0.14843801 -0.42796516
-0.24049766 0.14811212 -0.43138957
0.2380189 0.14620651 -0.44017923
0.25275949 0.14944659 -0.43201381
-0.25270775 0.17039534 -0.42917043
-0.23843421 0.16408385 -0.43602568
0.23640127 0.16478798 -0.44042051
0.25028625 0.16911352 -0.43726522
-0.25270775 0.19536623 -0.42917043
-0.23850058 0.19808885 -0.43329662
0.23646763 0.20044978 -0.43769151
0.25028625 0.19080283 -0.43726522
-0.2535432 0.21419849 -0.43200719
-0.24049766 0.21347484 -0.43138957
0.25283611 0.21016853 -0.43496215
-0.22250971 0.22543108 -0.43375486
0.22092254 0.22543117 -0.43375498
0.23070635 0.23604199 -0.42715263
-0.21519372 0.24739863 -0.4387235
-0.20604321 0.24191563 -0.43301141
-0.18665113 0.24812348 -0.43653256
-0.17093401 0.25005183 -0.43882918
-0.15366516 0.24812229 -0.43649298
-0.1277831 0.24812125 -0.43646616
-0.10469903 0.24854611 -0.43939817
-0.091102399 0.24866049 -0.43469501
-0.067360923 0.24723755 -0.42857045
-0.064596228 0.25005183 -0.43882918
-0.041001774 0.24862202 -0.43271548
-0.022061184 0.25005177 -0.43882912
-0.00079363678 0.25005177 -0.43882912
0.020473909 0.25005177 -0.43882912
0.039414681 0.24862184 -0.43271548
0.063009001 0.25005183 -0.43882918
0.065773807 0.24723725 -0.42857021
0.089515261 0.2486604 -0.43469495
0.10311189 0.24854626 -0.43939823
0.12619591 0.24812122 -0.43646616
0.15207799 0.24812229 -0.43649298
0.16934581 0.25005922 -0.43884122
0.1850637 0.24812602 -0.43653655
0.20612611 0.24510626 -0.43296349
0.2127437 0.24872877 -0.43878227
-0.22523312 -0.23887597 -0.41045952
-0.20192152 -0.24381305 -0.41151392
-0.19462028 -0.24200276 -0.41188848
-0.17103186 -0.24260738 -0.41172183
-0.15013179 -0.24216765 -0.41221941
-0.13481408 -0.24348998 -0.41063815
-0.12587795 -0.24216031 -0.41314811
-0.10691629 -0.24204227 -0.40899414
-0.090722375 -0.2421461 -0.41408682
-0.067006201 -0.24368533 -0.42081022
-0.065398999 -0.24057813 -0.4092589
-0.04154915 -0.24211721 -0.41599154
-0.022328677 -0.24057813 -0.4092589
-0.0059924475 -0.24210243 -0.4169578
0.009603953 -0.2436268 -0.42465699
0.0207415 -0.24057807 -0.40925878
0.039961908 -0.24211714 -0.41599154
0.063811772 -0.24057807 -0.40925878
0.065418988 -0.24368533 -0.42081034
0.089135163 -0.24214607 -0.41408682
0.10532903 -0.24204227 -0.40899408
0.12428635 -0.2421535 -0.4131493
0.13322687 -0.24348998 -0.41063797
0.14854452 -0.24216765 -0.41221964
0.16944468 -0.24260743 -0.41172183
0.19303253 -0.24200654 -0.41189456
0.2003344 -0.24381305 -0.41151392
0.21910132 -0.23973085 -0.40986538
-0.24174249 -0.22238339 -0.41115981
-0.21973127 -0.22645789 -0.42202353
0.23793347 -0.22352006 -0.41777658
-0.2558597 -0.2014979 -0.41251355
0.23534542 -0.20437765 -0.41011965
0.25228599 -0.20099603 -0.41266769
0.25029951 -0.17870604 -0.41282189
-0.25598592 -0.15512018 -0.41766763
0.25234911 -0.15601903 -0.41524476
0.25029951 -0.13512975 -0.41282189
-0.25611544 -0.10748504 -0.42296147
0.25241384 -0.11041327 -0.41789174
-0.23565018 -0.09271808 -0.42105532
0.23405449 -0.092734531 -0.42105776
0.25029951 -0.091553457 -0.41282189
0.25029951 -0.069765322 -0.41282189
-0.23580243 -0.039683741 -0.41548896
0.2342068 -0.039699707 -0.41549134
0.25029951 -0.047977187 -0.41282189
0.25029951 -0.026189044 -0.41282189
-0.25638539 -0.008232912 -0.41005802
0.25479823 -0.0082330089 -0.41005802
0.25029951 -0.0044009038 -0.41282189
-0.23595047 0.011872786 -0.41007751
0.23435494 0.011857306 -0.41007996
0.25029951 0.017387237 -0.41282189
-0.25652614 0.043496717 -0.41546851
0.25261924 0.041336045 -0.41414535
0.25029951 0.060963515 -0.41282189
0.25029951 0.082751662 -0.41282189
-0.25667092 0.096709006 -0.42103457
0.25269163 0.10062446 -0.41692823
-0.23623446 0.11079264 -0.42298126
0.23463912 0.11077803 -0.42298365
0.25029951 0.12632793 -0.41282189
0.25029951 0.14811607 -0.41282189
-0.23637074 0.15826802 -0.41768688
0.23478363 0.15826821 -0.41768706
0.25029951 0.1699042 -0.41282189
-0.23650345 0.20449035 -0.41253227
0.23491634 0.20449054 -0.41253227
0.25029951 0.19169235 -0.41282189
0.2354207 0.22056623 -0.41005713
0.25029951 0.2134805 -0.41282189
-0.21931854 0.23233236 -0.41506046
0.22092254 0.22543117 -0.41116399
0.23569809 0.23422702 -0.41322416
-0.21736415 0.2488526 -0.4180761
-0.20604326 0.24191573 -0.41046166
-0.18472773 0.2488742 -0.41430688
-0.15708023 0.24887307 -0.41427165
-0.13339184 0.25230402 -0.41885346
-0.12747522 0.24715598 -0.41194624
-0.10456956 0.24967222 -0.41794229
-0.077642597 0.24968712 -0.41888088
-0.053832814 0.25230402 -0.41885346
-0.047333986 0.24710022 -0.42080367
-0.023390096 0.24971722 -0.42078555
-0.010259458 0.24716119 -0.42465037
0.0039394274 0.2497326 -0.42175192
0.021802999 0.24971731 -0.42078561
0.045746781 0.24710034 -0.4208039
0.05224584 0.2523039 -0.41885364
0.076055512 0.24968715 -0.41888094
0.10298209 0.24967696 -0.41793221
0.12588809 0.24715598 -0.41194624
0.13180408 0.25231311 -0.41883373
0.15549278 0.24887599 -0.4142651
0.18314017 0.24887727 -0.41430032
0.20445614 0.24191593 -0.41046178
0.21360661 0.24739845 -0.4145112
-0.21296425 -0.2384537 -0.40510982
-0.18644297 -0.2384537 -0.40510982
-0.15992159 -0.2384537 -0.40510982
-0.13340026 -0.2384537 -0.40510982
-0.12175132 -0.24374253 -0.3941009
-0.10687888 -0.2384537 -0.40510982
-0.09451057 -0.24371408 -0.39586782
-0.074519053 -0.24189505 -0.40319306
-0.053835817 -0.238463 -0.40508991
-0.043273445 -0.24361175 -0.40220857
-0.02301457 -0.24103004 -0.40409958
-0.011191258 -0.24362689 -0.40127218
0.0044052307 -0.24104489 -0.40318108
0.021427449 -0.24102999 -0.40409946
0.041686192 -0.24361171 -0.40220857
0.052248936 -0.2384629 -0.40509009
0.072931938 -0.24189508 -0.403193
0.092923358 -0.24371408 -0.39586788
0.10529111 -0.2384629 -0.40509009
0.12015545 -0.24372879 -0.39410299
0.1318123 -0.2384629 -0.40509009
0.15833348 -0.238463 -0.40508991
0.18485472 -0.2384629 -0.40509009
-0.21837403 -0.22519052 -0.39518666
0.20910542 -0.23053542 -0.39952826
0.22947672 -0.22408932 -0.40186441
-0.25117052 -0.20325033 -0.39833808
-0.23789559 -0.20243448 -0.4070707
0.23373611 -0.20350006 -0.40733558
-0.25267318 -0.17829005 -0.39709461
-0.24045897 -0.17949939 -0.40680814
0.23805258 -0.179193 -0.40787935
-0.25432956 -0.15428446 -0.39589423
-0.24045897 -0.15761209 -0.40680814
0.23805258 -0.15422271 -0.40787935
0.25439861 -0.15511999 -0.39469409
-0.23797624 -0.14150979 -0.40430629
0.23389766 -0.14731182 -0.40180677
-0.25267318 -0.12860744 -0.39709461
0.23805258 -0.1292524 -0.40787935
-0.25439432 -0.10562558 -0.39838552
-0.24045897 -0.11383745 -0.40680814
0.23805258 -0.1042821 -0.40787935
0.25452822 -0.10748504 -0.39967662
-0.23805462 -0.092334062 -0.40162116
0.23405449 -0.092734627 -0.39643645
-0.25267318 -0.07892482 -0.39709461
-0.24045897 -0.070062831 -0.40680814
0.23805258 -0.079311796 -0.40787935
-0.25446093 -0.056312229 -0.40094525
0.23805258 -0.054341502 -0.40787935
0.25466126 -0.058540847 -0.404796
-0.24045897 -0.048175525 -0.40680814
-0.25267318 -0.02924221 -0.39709461
-0.24045897 -0.026288215 -0.40680814
0.23805258 -0.029371202 -0.40787935
-0.25267318 -0.0044009038 -0.39709461
-0.24045897 -0.0044009038 -0.40680814
0.23805258 -0.0044009038 -0.40787935
-0.25267318 0.020440403 -0.39709461
-0.24045897 0.017486405 -0.40680814
0.23805258 0.020569395 -0.40787935
-0.24045897 0.039373714 -0.40680814
-0.25267318 0.045281708 -0.39709461
0.23805258 0.045539692 -0.40787935
-0.25267318 0.070123024 -0.39709461
-0.23827671 0.061636742 -0.40581161
0.23627582 0.066253781 -0.40634829
-0.24045897 0.083148345 -0.40680814
-0.25467205 0.095836669 -0.39675456
-0.24045897 0.10503564 -0.40680814
0.23805258 0.0954803 -0.40787935
0.25508371 0.096709102 -0.3964147
-0.25267318 0.11980563 -0.39709461
-0.23623441 0.11079255 -0.3996951
0.23634994 0.11562166 -0.40378731
-0.24045897 0.12692295 -0.40680814
-0.25475088 0.14804925 -0.39943838
-0.24045897 0.14881027 -0.40680814
0.23805258 0.14542089 -0.40787935
0.25523272 0.15146896 -0.40178448
-0.25267318 0.16948822 -0.39709461
-0.23841485 0.1644828 -0.40076017
0.23641811 0.16432969 -0.40129578
-0.25267318 0.19432953 -0.39709461
-0.24045897 0.19258487 -0.40680814
0.23805258 0.19536148 -0.40787935
-0.25412843 0.21356107 -0.40278107
-0.24045897 0.21447219 -0.40680814
0.25538605 0.20784473 -0.40731269
-0.21848135 0.23845747 -0.39524311
0.22958268 0.23724623 -0.40192032
-0.19460097 0.25016242 -0.3980478
-0.17306685 0.25016236 -0.39804769
-0.15153272 0.25016236 -0.39804769
-0.12999842 0.25016245 -0.39804786
-0.10536556 0.24860148 -0.39607131
-0.091635495 0.24871938 -0.40244436
-0.071146786 0.24715389 -0.40040863
-0.065395758 0.25016981 -0.39805996
-0.043290198 0.24815406 -0.39960283
-0.020897312 0.24865018 -0.39875346
-0.0055265473 0.24866562 -0.39966303
0.0086724432 0.24716099 -0.40126592
0.019310167 0.24865021 -0.39875352
0.041703049 0.24815406 -0.39960283
0.063808486 0.25016987 -0.39805996
0.069559626 0.2471538 -0.40040863
0.090048216 0.24871938 -0.4024443
0.10377808 0.24860527 -0.39607745
0.12841055 0.25016981 -0.39805996
0.14994462 0.25016981 -0.39805996
0.17147869 0.25016981 -0.39805996
0.19301271 0.25016987 -0.39805996
0.20921244 0.24684913 -0.399441
0.21454671 0.25016987 -0.39805996
-0.22523312 -0.23887597 -0.38791001
-0.20192161 -0.24381305 -0.38890219
-0.19463073 -0.24342737 -0.3903054
-0.1700104 -0.24362205 -0.38954848
-0.14872393 -0.24375723 -0.39235288
-0.13481408 -0.24348998 -0.38666803
-0.10536319 -0.24350624 -0.38487852
-0.076193869 -0.24353701 -0.38310474
-0.043273397 -0.24361171 -0.37876534
-0.018714458 -0.24359728 -0.37960947
-0.011191161 -0.2436268 -0.37788743
0.009603953 -0.2436268 -0.37788755
0.017127249 -0.24359728 -0.37960941
0.041686192 -0.24361171 -0.37876529
0.074606657 -0.24353701 -0.3831048
0.10376562 -0.24352084 -0.38487643
0.13322707 -0.24348988 -0.38666791
0.14713672 -0.24375723 -0.39235282
0.16842327 -0.24362211 -0.38954842
0.19304343 -0.24342747 -0.39030522
0.2003344 -0.24381305 -0.38890225
0.223646 -0.23887606 -0.38791007
-0.24174249 -0.22238339 -0.38856888
-0.22207028 -0.22525808 -0.38287055
0.2359055 -0.22291373 -0.38093001
-0.25585964 -0.20149781 -0.38984299
-0.23788278 -0.20288691 -0.38199663
0.23516332 -0.20337225 -0.37956047
0.25229934 -0.20144437 -0.38900244
-0.24043332 -0.18030371 -0.38200778
0.25032622 -0.17950305 -0.38816178
-0.24043332 -0.15831585 -0.38200778
0.25032622 -0.15761527 -0.38816178
-0.23796338 -0.14181149 -0.37941647
0.23389755 -0.14731202 -0.37682748
0.25032622 -0.13572751 -0.38816178
-0.25611544 -0.10748504 -0.37639147
-0.24043332 -0.11434015 -0.38200778
0.25242722 -0.11066239 -0.38227665
-0.24043332 -0.092352293 -0.38200778
0.25032622 -0.091951966 -0.38816178
-0.24043332 -0.070364445 -0.38200778
0.25032622 -0.070064202 -0.38816178
-0.25624856 -0.058540847 -0.3811909
0.25466135 -0.058540847 -0.38119102
-0.23811792 -0.044030074 -0.3866117
0.2342068 -0.039699707 -0.39121789
0.25032622 -0.048176438 -0.38816178
-0.24043332 -0.026388753 -0.38200778
0.25032622 -0.02628867 -0.38816178
-0.25638545 -0.0082330089 -0.38612407
0.25479817 -0.008232912 -0.38612419
-0.24043332 -0.0044009038 -0.38200778
0.25032622 -0.0044009038 -0.38816178
-0.2381919 0.014729866 -0.38407511
0.23435499 0.011857498 -0.38614458
0.25032622 0.017486863 -0.38816178
-0.25652614 0.043496717 -0.39119673
-0.24043332 0.039574791 -0.38200778
0.25263262 0.041435622 -0.38967931
-0.23826389 0.061787549 -0.38160825
0.23450734 0.062012646 -0.3812089
0.25032622 0.061262395 -0.38816178
-0.24043332 0.083550498 -0.38200778
0.25032622 0.083150171 -0.38816178
-0.24043332 0.10553834 -0.38200778
0.25032622 0.10503793 -0.38816178
-0.23623437 0.11079245 -0.37640876
0.2346473 0.11079274 -0.37640899
-0.24043332 0.12752618 -0.38200778
0.25032622 0.12692569 -0.38816178
-0.25682855 0.15145154 -0.37680423
-0.24043332 0.14951402 -0.38200778
0.25277948 0.15014121 -0.3824842
-0.24043332 0.17150187 -0.38200778
0.25032622 0.17070122 -0.38816178
-0.23846836 0.19898999 -0.38593417
0.23491634 0.20449054 -0.38986075
0.25032622 0.192589 -0.38816178
-0.25698191 0.20782682 -0.38196409
-0.24043332 0.21547759 -0.38200778
0.23666552 0.21929146 -0.37707227
0.25285614 0.21116075 -0.38506395
-0.23815851 0.23784097 -0.38765234
-0.22250967 0.22543098 -0.38857281
0.21017896 0.23796989 -0.38737738
0.22092259 0.22543128 -0.38857281
0.22844787 0.23846257 -0.37643391
-0.22023343 0.24641131 -0.38897341
-0.20604321 0.24191563 -0.38791186
-0.18387593 0.24715935 -0.38868284
-0.15566452 0.24715753 -0.38863659
-0.12747522 0.24715598 -0.38860768
-0.096341081 0.24726917 -0.38309669
-0.067360923 0.24723755 -0.38134056
-0.038674917 0.24719216 -0.37960351
-0.019466963 0.24713041 -0.37617624
-0.010259458 0.24716137 -0.37788159
0.0086724432 0.24716099 -0.37788147
0.017879948 0.2471308 -0.37617642
0.037087906 0.24719195 -0.37960345
0.065773807 0.24723734 -0.38134032
0.094753966 0.24726899 -0.38309669
0.12588809 0.24715598 -0.38860756
0.15407741 0.24715741 -0.38863671
0.18228884 0.24715941 -0.38868284
0.20445605 0.24191573 -0.38791203
0.2136067 0.24739836 -0.39029908
-0.22523321 -0.23887606 -0.36536044
-0.19949603 -0.2421356 -0.36693656
-0.19463064 -0.24342737 -0.36609274
-0.17176093 -0.24256735 -0.36662322
-0.15108864 -0.24210761 -0.36855394
-0.13322951 -0.24197401 -0.36514014
-0.12175136 -0.24374253 -0.3711642
-0.10759978 -0.24198219 -0.36430502
-0.091269113 -0.24208605 -0.37020159
-0.066612542 -0.24207552 -0.37104404
-0.044410653 -0.2404581 -0.36758244
-0.022602025 -0.24046573 -0.36759496
-0.00079363678 -0.24046573 -0.36759496
0.02101475 -0.24046569 -0.36759484
0.042823236 -0.24046579 -0.36759502
0.06502533 -0.24207553 -0.37104416
0.089681707 -0.24208991 -0.37020797
0.10600712 -0.24199322 -0.36431044
0.12015554 -0.24372888 -0.37116629
0.13164197 -0.24197781 -0.36514634
0.14950098 -0.24211141 -0.36856019
0.17017339 -0.24256995 -0.36662734
0.19304343 -0.24342737 -0.36609274
0.19790821 -0.24213943 -0.36694288
0.22046831 -0.23967087 -0.36647767
-0.23995876 -0.22324429 -0.36998993
-0.21718195 -0.22630636 -0.36954409
0.21019758 -0.22420791 -0.37378663
0.21050632 -0.22924739 -0.36643302
0.24015537 -0.22238359 -0.36597824
-0.254094 -0.20181382 -0.36638784
0.25231281 -0.2018968 -0.36522388
-0.25263914 -0.1773923 -0.36534989
0.23808596 -0.17828594 -0.37591463
0.25035313 -0.18030739 -0.36327511
-0.25431252 -0.15389967 -0.36853516
0.23808596 -0.15344521 -0.37591463
0.2523759 -0.15671962 -0.36749786
0.25035313 -0.13633078 -0.36327511
-0.25263914 -0.1279662 -0.36534989
0.23808596 -0.1286045 -0.37591463
-0.25263914 -0.10325313 -0.36534989
0.23808596 -0.10376377 -0.37591463
0.25035313 -0.11434246 -0.36327511
-0.23565018 -0.09271808 -0.37181294
0.23405449 -0.092734627 -0.37181503
0.25035313 -0.092354134 -0.36327511
-0.25263914 -0.078540072 -0.36534989
0.23808596 -0.078923054 -0.37591463
0.25035313 -0.070365831 -0.36327511
-0.25263914 -0.053827018 -0.36534989
0.23808596 -0.054082341 -0.37591463
-0.23580243 -0.039683741 -0.36694235
0.2342068 -0.039699707 -0.36694437
0.25035313 -0.048377525 -0.36327511
-0.25263914 -0.02911396 -0.36534989
0.23808596 -0.029241621 -0.37591463
0.25035313 -0.026389215 -0.36327511
-0.25638539 -0.008232912 -0.36219019
0.25479823 -0.0082330089 -0.36219031
-0.25263914 -0.0044009038 -0.36534989
0.23808596 -0.0044009038 -0.37591463
0.25035313 -0.0044009038 -0.36327511
-0.25263914 0.020312153 -0.36534989
-0.23595043 0.011872689 -0.36220747
0.23622048 0.016148657 -0.36906201
0.25035313 0.017587405 -0.36327511
-0.25652614 0.043496717 -0.36692458
0.25264606 0.041536216 -0.36509991
-0.25263914 0.045025207 -0.36534989
0.23808596 0.045280531 -0.37591463
-0.25263914 0.069738269 -0.36534989
0.23808596 0.070121258 -0.37591463
0.25035313 0.061564032 -0.36327511
0.25035313 0.083552338 -0.36327511
-0.25465497 0.095580265 -0.36857229
0.23808596 0.094961971 -0.37591463
0.25271842 0.10112488 -0.36753505
-0.25263914 0.11916438 -0.36534989
0.23808596 0.11980268 -0.37591463
0.25035313 0.12752895 -0.36327511
-0.25263914 0.14387743 -0.36534989
0.23808596 0.1446434 -0.37591463
0.25035313 0.14951725 -0.36327511
-0.25263914 0.16859049 -0.36534989
-0.23637074 0.15826802 -0.37173736
0.2364348 0.16387616 -0.37382603
0.25035313 0.17150557 -0.36327511
-0.25263914 0.19330354 -0.36534989
-0.23650341 0.20449024 -0.36718917
0.23650116 0.19940768 -0.37155193
0.25035313 0.19349387 -0.36327511
-0.25243187 0.21803495 -0.36551857
0.25035313 0.21548221 -0.36327511
-0.22073518 0.22826816 -0.36632848
0.22092254 0.22543117 -0.36598188
0.23920517 0.23101342 -0.36652398
-0.21623501 0.24354236 -0.36784077
-0.20604321 0.24191563 -0.36536217
-0.18387593 0.24715932 -0.36533213
-0.15566447 0.24715756 -0.36529255
-0.12747522 0.24715598 -0.36526912
-0.10226677 0.24704044 -0.37115872
-0.074932553 0.24707015 -0.37281513
-0.047333889 0.24710013 -0.37448758
0.045746781 0.24710034 -0.37448764
0.073345438 0.24707033 -0.37281525
0.1006797 0.24704073 -0.37115878
0.12588809 0.24715598 -0.36526901
0.15407743 0.24715747 -0.36529255
0.18228884 0.24715935 -0.36533213
0.20445609 0.24191582 -0.36536235
0.21210213 0.24640901 -0.36622339
-0.17544891 -0.2437851 -0.34518135
-0.14872389 -0.24375713 -0.34669822
-0.12175141 -0.24374261 -0.34822774
-0.09451057 -0.24371408 -0.34977382
-0.071600035 -0.24361113 -0.35535353
-0.043273397 -0.24361165 -0.35532206
-0.018714458 -0.24359719 -0.35611004
-0.011191161 -0.2436268 -0.35450256
0.0096040498 -0.24362689 -0.35450274
0.017127346 -0.24359709 -0.3561098
0.041686192 -0.2436118 -0.355322
0.070012778 -0.24361107 -0.35535353
0.092923358 -0.24371408 -0.34977388
0.12015554 -0.24372888 -0.34822965
0.14713672 -0.24375723 -0.34669834
0.17386183 -0.24378529 -0.34518147
-0.22646329 -0.2279806 -0.35490447
0.22720751 -0.22631106 -0.35063845
-0.25585964 -0.20149781 -0.34450221
-0.23783657 -0.20334612 -0.35678983
0.23577881 -0.20281203 -0.35057926
0.25427249 -0.2014979 -0.34450227
-0.24040729 -0.18111543 -0.35697848
0.23813386 -0.17738721 -0.34426832
-0.25598583 -0.15511999 -0.34874678
-0.24040729 -0.15902612 -0.35697848
0.23813386 -0.15267487 -0.34426832
0.2543987 -0.15512018 -0.3487469
-0.23795035 -0.14211589 -0.35441226
0.23389766 -0.14731191 -0.35184801
0.23813386 -0.12796256 -0.34426832
-0.25611544 -0.10748504 -0.35310644
-0.24040729 -0.11484747 -0.35697848
0.23813386 -0.10325021 -0.34426832
0.25452828 -0.10748514 -0.35310644
-0.23802873 -0.092738122 -0.35208511
0.23405449 -0.092734627 -0.34719372
-0.24040729 -0.070668839 -0.35697848
0.23813386 -0.078537881 -0.34426832
-0.25624847 -0.058540847 -0.35758585
0.23813386 -0.053825561 -0.34426832
0.25466126 -0.058540847 -0.35758603
-0.24040729 -0.048579536 -0.35697848
-0.24040729 -0.026490219 -0.35697848
0.23813386 -0.029113233 -0.34426832
-0.24040729 -0.0044009038 -0.35697848
0.23813386 -0.0044009038 -0.34426832
-0.24040729 0.017688412 -0.35697848
0.23813386 0.020311423 -0.34426832
-0.24040729 0.039777726 -0.35697848
0.23813386 0.045023751 -0.34426832
-0.23825085 0.061939705 -0.35729063
0.23632057 0.065874316 -0.35093558
-0.24040729 0.083956361 -0.35697848
-0.25667092 0.096709006 -0.3471747
-0.24040729 0.10604566 -0.35697848
0.23813386 0.09444841 -0.34426832
0.25508383 0.096709006 -0.34717494
-0.23623446 0.11079264 -0.35312271
0.23639058 0.11497675 -0.34869558
-0.24040729 0.12813498 -0.35697848
-0.25682855 0.15145154 -0.35182667
-0.24040729 0.1502243 -0.35697848
0.23813386 0.14387305 -0.34426832
0.25523272 0.15146907 -0.35182875
-0.23838902 0.16529082 -0.35287058
0.23645876 0.16342679 -0.34651554
-0.23845536 0.19944657 -0.350748
0.23652507 0.19889407 -0.34439301
-0.25698203 0.20782673 -0.35661775
-0.24040729 0.21649224 -0.35697848
0.23789592 0.21803103 -0.34445918
0.25538605 0.20784473 -0.35661978
-0.22656865 0.24401069 -0.35482001
-0.20339288 0.25120941 -0.35671133
-0.18360896 0.25213555 -0.35717893
-0.17525294 0.25028327 -0.35624343
-0.15569821 0.24980022 -0.3528657
-0.13150698 0.25120941 -0.35671133
-0.12934017 0.24701093 -0.34669131
-0.10578563 0.24981974 -0.35388172
-0.092182122 0.24877627 -0.35780406
-0.071913093 0.24918161 -0.35522914
-0.053026512 0.25213555 -0.35717893
-0.043472428 0.24819188 -0.35455912
-0.022992715 0.24984978 -0.3554427
-0.0039489106 0.24986009 -0.35597324
0.0086723464 0.24716119 -0.35449713
0.021405526 0.24984984 -0.3554427
0.041885279 0.24819191 -0.35455912
0.051439442 0.25213555 -0.35717893
0.070325978 0.24918158 -0.35522908
0.090594761 0.24877979 -0.35781026
0.10419835 0.24982239 -0.35388589
0.12775315 0.2470112 -0.34669125
0.12991908 0.25121778 -0.35670799
0.15411049 0.24980585 -0.35286349
0.17366464 0.25029081 -0.35625601
0.18202077 0.25214463 -0.35715973
0.19547197 0.2502909 -0.35625619
0.21727931 0.25029081 -0.35625613
0.22730136 0.23969123 -0.35068971
-0.22523321 -0.23887606 -0.34281069
-0.20583005 -0.24122138 -0.34365964
-0.18912545 -0.24102855 -0.34276026
-0.1645719 -0.24345891 -0.34029603
-0.15750229 -0.23862971 -0.34364039
-0.13309908 -0.2410599 -0.34118396
-0.10531462 -0.24106798 -0.34040874
-0.074115954 -0.24195065 -0.33581883
-0.053029899 -0.23862971 -0.34364039
-0.043273397 -0.24361171 -0.33187872
-0.022812994 -0.24111803 -0.33811587
-0.011191161 -0.2436267 -0.33111793
0.0044052792 -0.24113287 -0.33736956
0.021225873 -0.24111807 -0.33811581
0.041686192 -0.24361171 -0.33187872
0.051442344 -0.23863886 -0.34362125
0.072528645 -0.24195375 -0.33581239
0.10372196 -0.24107985 -0.34039819
0.13151167 -0.24106437 -0.34117448
0.15591434 -0.23863886 -0.34362125
0.16298468 -0.24345891 -0.34029591
0.18753773 -0.24103312 -0.34275067
0.2003344 -0.24381305 -0.34367901
0.223646 -0.23887606 -0.34281075
-0.24174254 -0.22238348 -0.34338737
-0.21911074 -0.22255427 -0.33685368
0.21189153 -0.22797398 -0.3337127
0.24015537 -0.22238359 -0.34338748
0.24283309 -0.21757136 -0.32990539
-0.25260526 -0.2010899 -0.33393151
-0.23728895 -0.20384938 -0.33118796
0.2337362 -0.20349987 -0.33129174
0.25030085 -0.20321521 -0.33811474
-0.25260526 -0.17650378 -0.33393151
-0.24038108 -0.18193468 -0.33171713
0.25038031 -0.18111914 -0.33815885
-0.25260526 -0.15191765 -0.33393151
-0.24038108 -0.15974297 -0.33171713
0.25038031 -0.15902936 -0.33815885
-0.24038108 -0.13755123 -0.33171713
0.25038031 -0.13693959 -0.33815885
-0.25260526 -0.12733153 -0.33393151
-0.25436035 -0.10511521 -0.33187652
-0.24038108 -0.11535951 -0.33171713
0.25245425 -0.11116742 -0.33399022
-0.24038108 -0.093167782 -0.33171713
0.25038031 -0.092760019 -0.33815885
-0.25260526 -0.078159273 -0.33393151
-0.24038108 -0.070976064 -0.33171713
0.25038031 -0.07067024 -0.33815885
-0.25442696 -0.056057051 -0.33395618
0.25466126 -0.058540847 -0.33398104
-0.23809175 -0.044234045 -0.33719307
0.2342068 -0.039699707 -0.34267092
0.25038031 -0.048580464 -0.33815885
-0.25260526 -0.028987028 -0.33393151
-0.24038108 -0.026592623 -0.33171713
0.25038031 -0.026490685 -0.33815885
-0.25638539 -0.008232912 -0.33825642
0.25479817 -0.008232912 -0.33825642
-0.25260526 -0.0044009038 -0.33393151
-0.24038108 -0.0044009038 -0.33171713
0.25038031 -0.0044009038 -0.33815885
-0.25260526 0.020185221 -0.33393151
-0.23816577 0.014831801 -0.33499467
0.23436336 0.01187298 -0.33827239
0.25038031 0.017688874 -0.33815885
-0.25652623 0.04349662 -0.34265256
-0.24038108 0.039982535 -0.33171713
0.25265965 0.041637685 -0.34040576
-0.25260526 0.044771343 -0.33393151
-0.25260526 0.06935747 -0.33393151
-0.23823771 0.062093262 -0.33285683
0.23450729 0.062012549 -0.33399653
0.25038031 0.06186844 -0.33815885
-0.24038108 0.084365986 -0.33171713
0.25038031 0.083958216 -0.33815885
-0.25260526 0.093943596 -0.33393151
-0.24038108 0.1065577 -0.33171713
0.25038031 0.106048 -0.33815885
-0.25260526 0.11852972 -0.33393151
-0.23623446 0.11079264 -0.32983655
0.2346473 0.11079274 -0.32983655
-0.24038108 0.12874942 -0.33171713
0.25038031 0.12813777 -0.33815885
-0.25260526 0.14311583 -0.33393151
-0.24038108 0.15094113 -0.33171713
0.25038031 0.15022755 -0.33815885
-0.25260526 0.16770196 -0.33393151
-0.24038108 0.17313285 -0.33171713
0.25038031 0.17231733 -0.33815885
-0.25260526 0.19228807 -0.33393151
-0.24038108 0.19532458 -0.33171713
0.25038031 0.19440712 -0.33815885
-0.25479364 0.21235046 -0.33260143
-0.23933944 0.21760795 -0.33113796
0.25288317 0.21217082 -0.33471608
-0.22250967 0.22543098 -0.34339076
0.22092259 0.22543128 -0.34339082
-0.21562652 0.24416286 -0.34277993
-0.20604321 0.24191563 -0.34281254
-0.18387592 0.24715932 -0.34198135
-0.15517232 0.24733303 -0.33872247
-0.12561016 0.24730091 -0.33716977
-0.096341081 0.24726917 -0.33563256
-0.067360923 0.24723755 -0.33411062
-0.043004453 0.24714623 -0.33038831
-0.019466963 0.24713053 -0.32963496
-0.010259458 0.24716137 -0.33111286
0.0086723464 0.24716099 -0.3311128
0.017879851 0.24713062 -0.32963508
0.041417368 0.24714614 -0.33038831
0.065773807 0.24723725 -0.33411062
0.094754063 0.24726878 -0.33563256
0.12402304 0.24730073 -0.33716971
0.15358521 0.24733303 -0.33872229
0.18228884 0.24715941 -0.34198135
0.2044562 0.24191593 -0.34281248
0.21279435 0.24570157 -0.33775789
-0.22523317 -0.23887597 -0.32026118
-0.20075744 -0.24207786 -0.32295716
-0.19463064 -0.24342747 -0.31766748
-0.17250846 -0.24252896 -0.32117152
-0.15206972 -0.24204995 -0.324359
-0.13407038 -0.24191634 -0.31980234
-0.12175136 -0.24374253 -0.32529128
-0.10830051 -0.24192458 -0.31908655
-0.091829814 -0.24202842 -0.32578695
-0.071626969 -0.24193987 -0.31837696
-0.044971328 -0.24034271 -0.32484698
-0.022882484 -0.24034266 -0.32484686
-0.00079358835 -0.24034275 -0.3248471
0.021295257 -0.24034275 -0.3248471
0.043384105 -0.24034271 -0.32484698
0.070039786 -0.24193981 -0.3183769
0.090242557 -0.24202839 -0.32578695
0.10670815 -0.24193172 -0.3190856
0.12015554 -0.24372888 -0.32529289
0.13248317 -0.24191631 -0.31980217
0.15048245 -0.2420499 -0.324359
0.17092092 -0.2425316 -0.32117587
0.19304343 -0.24342737 -0.31766748
0.19916961 -0.24208173 -0.32296365
0.22187278 -0.23959383 -0.32252818
-0.24174254 -0.22238348 -0.32079649
-0.2212469 -0.22764802 -0.31994522
0.22604871 -0.22743948 -0.32463104
0.24015537 -0.22238359 -0.32079655
-0.2558597 -0.2014979 -0.32183164
0.23816647 -0.20108414 -0.31295884
0.25177509 -0.20285916 -0.31700087
0.23816647 -0.17649874 -0.31295884
0.25040749 -0.18193844 -0.31280953
-0.25598592 -0.15512018 -0.32577312
0.23816647 -0.15191333 -0.31295884
0.25240311 -0.15743321 -0.31929135
-0.23549353 -0.14729479 -0.32686669
0.23389766 -0.14731191 -0.32686865
0.25040749 -0.13755405 -0.31280953
0.23816647 -0.12732793 -0.31295884
0.23816647 -0.10274252 -0.31295884
0.25040749 -0.11536186 -0.31280953
-0.23565027 -0.092717983 -0.32257056
0.2340544 -0.092734627 -0.32257235
0.25040749 -0.093169659 -0.31280953
0.23816647 -0.078157112 -0.31295884
0.25040749 -0.070977472 -0.31280953
0.23816647 -0.053571712 -0.31295884
-0.23580253 -0.039683547 -0.31839567
0.23421536 -0.039683547 -0.31839573
0.25040749 -0.048785288 -0.31280953
0.23816647 -0.028986309 -0.31295884
0.25040749 -0.026593097 -0.31280953
-0.25638539 -0.008232912 -0.31432235
0.25479829 -0.0082330089 -0.31432253
0.23816647 -0.0044009038 -0.31295884
0.25040749 -0.0044009038 -0.31280953
-0.23595047 0.011872786 -0.31433713
0.23626491 0.01602874 -0.31364805
0.25040749 0.017791286 -0.31280953
-0.25652623 0.04349662 -0.31838048
0.25267321 0.041740097 -0.31559503
0.23816647 0.044769902 -0.31295884
0.23816647 0.069355316 -0.31295884
0.25040749 0.062175673 -0.31280953
0.25040749 0.084367864 -0.31280953
-0.25667092 0.096709006 -0.32255489
0.23816647 0.09394072 -0.31295884
0.2527456 0.10163454 -0.31768227
0.23816647 0.11852612 -0.31295884
0.25040749 0.12875223 -0.31280953
-0.25682855 0.15145154 -0.32684892
0.23816647 0.14311151 -0.31295884
0.2528201 0.1512067 -0.31983012
-0.23637074 0.15826802 -0.3257879
0.23647505 0.16298255 -0.31937337
0.25040749 0.17313662 -0.31280953
-0.23650341 0.20449024 -0.32184607
0.23654138 0.19838637 -0.31740254
0.25040749 0.1953288 -0.31280953
0.23816647 0.21686773 -0.31295884
0.24938396 0.21761148 -0.31223023
-0.222377 0.22661379 -0.31968713
0.22092254 0.22543117 -0.32079971
0.24281761 0.22770315 -0.31841815
-0.23397861 0.24159351 -0.3190465
-0.21929587 0.24406378 -0.31917447
-0.20281352 0.24615766 -0.31680715
-0.18387596 0.2471592 -0.31863058
-0.17749605 0.25039971 -0.31335157
-0.15557912 0.24823819 -0.31685334
-0.13331971 0.25040737 -0.31336462
-0.12747516 0.24715592 -0.31859207
-0.10674942 0.24872394 -0.31932545
-0.092742726 0.24883826 -0.31263256
-0.070994623 0.24873875 -0.32004333
-0.044969007 0.25040743 -0.31336474
-0.022881275 0.25040737 -0.31336462
-0.00079358835 0.25040743 -0.31336474
0.021294096 0.25040737 -0.31336462
0.043381784 0.25040743 -0.31336474
0.069407433 0.24873887 -0.32004339
0.091155589 0.24883817 -0.31263256
0.10516226 0.24872403 -0.31932551
0.12588809 0.24715598 -0.31859189
0.13173252 0.25040737 -0.31336462
0.15399167 0.24824078 -0.31685781
0.17590784 0.25040743 -0.31336474
0.18228884 0.24715935 -0.31863058
0.20297192 0.24468102 -0.31747001
0.21994554 0.24623837 -0.31855714
-0.22523321 -0.23887606 -0.29771149
-0.20192152 -0.24381305 -0.29845566
-0.17544904 -0.24378529 -0.29974353
-0.14872393 -0.24375723 -0.30104357
-0.12175141 -0.24374261 -0.30235463
-0.09451057 -0.24371408 -0.30367988
-0.067006201 -0.24368533 -0.30501777
-0.043273397 -0.24361175 -0.30843544
-0.018714458 -0.24359728 -0.30911076
-0.011191161 -0.2436268 -0.30773306
0.009603953 -0.2436268 -0.30773324
0.017127249 -0.24359719 -0.30911076
0.041686192 -0.24361165 -0.30843544
0.065418988 -0.24368533 -0.30501795
0.092923358 -0.24371408 -0.30367994
0.12015554 -0.24372888 -0.30235624
0.14713678 -0.24375732 -0.30104369
0.17386189 -0.24378538 -0.29974359
0.2003344 -0.24381305 -0.29845572
0.22364591 -0.23887597 -0.29771161
-0.23786846 -0.22531909 -0.30191863
0.20648333 -0.22834633 -0.30544394
0.21906959 -0.22764714 -0.29985958
0.24015528 -0.22238339 -0.29820585
-0.25422311 -0.20079079 -0.30099183
-0.23673607 -0.2043575 -0.30545431
0.2337362 -0.20349987 -0.30594373
0.25427243 -0.20149781 -0.29916137
-0.25258648 -0.17562334 -0.30282229
-0.24035466 -0.18276156 -0.30622035
-0.2542862 -0.15314157 -0.30281091
-0.24035466 -0.16046649 -0.30622035
0.25439861 -0.15511999 -0.30279958
-0.23792404 -0.1427332 -0.3040539
0.23389766 -0.14731182 -0.30188924
-0.25258648 -0.12670264 -0.30282229
-0.25435096 -0.10486366 -0.30467933
-0.24035466 -0.11587631 -0.30622035
0.25452822 -0.10748504 -0.30653644
-0.23800242 -0.093149655 -0.30208492
0.23406316 -0.092717789 -0.29794943
-0.25258648 -0.077781938 -0.30282229
-0.24035466 -0.071286149 -0.30622035
-0.25441748 -0.055931225 -0.30659914
0.25466135 -0.058540847 -0.31037605
-0.24035466 -0.048991069 -0.30622035
-0.25258648 -0.028861251 -0.30282229
-0.24035466 -0.026695985 -0.30622035
-0.25258648 -0.0044009038 -0.30282229
-0.24035466 -0.0044009038 -0.30622035
-0.25258648 0.02005944 -0.30282229
-0.24035466 0.017894179 -0.30622035
-0.24035466 0.040189259 -0.30622035
-0.25258648 0.044519786 -0.30282229
-0.25258648 0.068980135 -0.30282229
-0.23822452 0.062248353 -0.30830532
0.23450729 0.062012549 -0.31039047
-0.24035466 0.084779426 -0.30622035
-0.25462872 0.095074795 -0.30037874
-0.24035466 0.1070745 -0.30622035
0.25508371 0.096709102 -0.29793507
-0.25258648 0.11790083 -0.30282229
-0.23623446 0.11079264 -0.30655038
0.23464735 0.11079284 -0.30655038
-0.24035466 0.12936959 -0.30622035
-0.25470752 0.14690636 -0.30234677
-0.24035466 0.15166466 -0.30622035
0.25523272 0.15146896 -0.30187285
-0.25258648 0.16682151 -0.30282229
-0.2383627 0.16611388 -0.30451679
0.23478368 0.15826821 -0.30281311
-0.25258648 0.19128186 -0.30282229
-0.23842902 0.20037252 -0.30269742
0.23491628 0.20449044 -0.29917467
-0.25478426 0.21178447 -0.30437368
-0.23823397 0.21873736 -0.30501986
0.25538605 0.20784473 -0.30592686
-0.22250967 0.22543098 -0.29820853
0.22092259 0.22543128 -0.29820865
-0.20631994 0.24694403 -0.2975322
-0.18179557 0.24946265 -0.29790074
-0.15565136 0.24947707 -0.29854465
-0.1293803 0.24949159 -0.29919469
-0.10298096 0.2495064 -0.29985088
-0.073421009 0.24875994 -0.30384088
-0.052244253 0.25197226 -0.29735172
-0.043004502 0.2471462 -0.30705971
-0.022992967 0.24955134 -0.30185795
-0.010259458 0.24716137 -0.30772841
0.003939379 0.24956663 -0.30254
0.02140587 0.24955149 -0.30185801
0.041417319 0.2471462 -0.30705965
0.05065728 0.25197226 -0.29735172
0.071833953 0.24875997 -0.30384088
0.10139377 0.24950643 -0.29985088
0.12779325 0.24949174 -0.29919469
0.15406422 0.24947716 -0.29854465
0.18020788 0.24946724 -0.2978915
0.20445609 0.24191582 -0.29771304
0.21916199 0.24239609 -0.29985142
-0.20660932 -0.23880054 -0.28401214
-0.18510643 -0.24081478 -0.28615087
-0.1645719 -0.24345891 -0.2921145
-0.15629244 -0.23950851 -0.28249878
-0.13493358 -0.24185325 -0.28588647
-0.12558982 -0.24127148 -0.28171527
-0.10724706 -0.24084109 -0.28482419
-0.092405252 -0.24196525 -0.2808091
-0.072274372 -0.24156174 -0.28376126
-0.052247401 -0.23880045 -0.28401232
-0.044031121 -0.2424826 -0.28366107
-0.022801727 -0.24087396 -0.28354079
-0.0059923991 -0.24192555 -0.28267354
0.0044052065 -0.24121812 -0.2841711
0.021214474 -0.24087705 -0.28353459
0.042443894 -0.24248259 -0.28366107
0.050660037 -0.23880954 -0.28399378
0.070684507 -0.24156755 -0.2837562
0.090817817 -0.2419692 -0.28081584
0.10565603 -0.24085152 -0.28482205
0.12399793 -0.24126916 -0.28170669
0.13334598 -0.24185716 -0.28589314
0.15470445 -0.23951688 -0.28249621
0.16298468 -0.24345891 -0.29211438
0.1835185 -0.24082039 -0.28614914
0.20059456 -0.24022427 -0.28099871
-0.22904165 -0.2254764 -0.29032397
-0.21349151 -0.22972623 -0.29101354
-0.23533222 -0.20348226 -0.28059429
-0.22564176 -0.21397455 -0.28067613
0.23596735 -0.20178948 -0.28128272
0.24739367 -0.20955364 -0.28322762
-0.24032795 -0.18359619 -0.28048486
0.23819849 -0.17561935 -0.28196961
0.25043517 -0.18276536 -0.28722423
-0.25598583 -0.15511999 -0.27982593
-0.24032795 -0.16119678 -0.28048486
0.23819849 -0.15115955 -0.28196961
0.25241694 -0.15779498 -0.28352517
-0.24032795 -0.13879737 -0.28048486
0.25043517 -0.13817425 -0.28722423
0.23819849 -0.12669979 -0.28196961
-0.2561155 -0.10748514 -0.28325129
-0.24032795 -0.11639795 -0.28048486
0.23819849 -0.10224 -0.28196961
0.2524817 -0.11168186 -0.28523779
-0.24032795 -0.093998536 -0.28048486
0.25043517 -0.093583122 -0.28722423
-0.24032795 -0.071599126 -0.28048486
0.23819849 -0.077780224 -0.28196961
0.25043517 -0.071287565 -0.28722423
-0.25624856 -0.058540847 -0.28677094
0.23819849 -0.053320456 -0.28196961
0.25466126 -0.058540847 -0.286771
-0.23806518 -0.044441734 -0.28730363
0.23421541 -0.039683353 -0.29412246
0.25043517 -0.048992019 -0.28722423
-0.24032795 -0.026800316 -0.28048486
0.23819849 -0.028860681 -0.28196961
0.25043517 -0.026696462 -0.28722423
-0.25638539 -0.008232912 -0.29038852
0.25479817 -0.008232912 -0.2903887
-0.24032795 -0.0044009038 -0.28048486
0.23819849 -0.0044009038 -0.28196961
0.25043517 -0.0044009038 -0.28722423
-0.23813917 0.014935599 -0.28544348
0.2362809 0.015965879 -0.28618592
0.25043517 0.017894652 -0.28722423
-0.25652623 0.04349662 -0.29410857
-0.24032795 0.040397916 -0.28048486
0.25268704 0.041843463 -0.29066646
0.23819849 0.044518646 -0.28196961
-0.23821117 0.062404837 -0.28363448
0.23635294 0.065495588 -0.28437686
0.25043517 0.062485766 -0.28722423
-0.24032795 0.085196741 -0.28048486
0.25043517 0.084781326 -0.28722423
-0.24032795 0.10759614 -0.28048486
0.23819849 0.093438208 -0.28196961
0.25043517 0.10707688 -0.28722423
-0.23623446 0.11079264 -0.28326416
0.23642293 0.11434541 -0.28261685
-0.24032795 0.12999555 -0.28048486
0.25043517 0.12937243 -0.28722423
-0.24032795 0.15239497 -0.28048486
0.23819849 0.14235774 -0.28196961
0.25043517 0.15166798 -0.28722423
-0.23637074 0.15826802 -0.27983832
0.23649107 0.16254286 -0.28090405
0.25043517 0.17396355 -0.28722423
-0.24032795 0.17479438 -0.28048486
-0.24032795 0.19719379 -0.28048486
0.23819849 0.1912773 -0.28196961
0.25043517 0.1962591 -0.28722423
-0.25698203 0.20782673 -0.28057867
0.23819849 0.21573709 -0.28196961
0.25186172 0.21329293 -0.28329796
-0.22914557 0.24122846 -0.29024333
-0.21439061 0.24542309 -0.2922591
-0.18503202 0.24736576 -0.29210991
-0.15517232 0.24733324 -0.29078305
-0.12561016 0.24730091 -0.28946924
-0.10226672 0.24704035 -0.279414
-0.096341081 0.24726917 -0.28816855
-0.071146742 0.24715383 -0.28375465
-0.043004453 0.2471462 -0.28373092
-0.019466963 0.24713041 -0.28309357
-0.010259458 0.24716119 -0.28434414
0.0086723464 0.24716119 -0.28434396
0.017879851 0.24713062 -0.28309369
0.041417368 0.2471462 -0.28373104
0.069559671 0.24715389 -0.28375471
0.094753966 0.24726899 -0.28816843
0.10067965 0.24704061 -0.27941406
0.12402304 0.24730073 -0.28946912
0.15358521 0.24733303 -0.29078281
0.18344492 0.24736555 -0.29210997
0.2136067 0.24739836 -0.2934503
-0.22523317 -0.23887597 -0.27516192
-0.20226821 -0.24043742 -0.27572554
-0.19463064 -0.24342737 -0.26924235
-0.17001048 -0.24362211 -0.27252412
-0.14872389 -0.24375713 -0.27821618
-0.13481408 -0.24348998 -0.26681739
-0.10536319 -0.24350643 -0.26562434
-0.076193869 -0.24353701 -0.26444191
-0.047312409 -0.2435672 -0.26327109
0.045725204 -0.24356709 -0.26327085
0.074596591 -0.24355133 -0.26444042
0.10376572 -0.24352065 -0.26562297
0.13322696 -0.24348988 -0.26681745
0.14713672 -0.24375723 -0.27821642
0.16842324 -0.24362205 -0.27252412
0.19304362 -0.24342728 -0.26924223
0.2003344 -0.24381305 -0.2758441
0.22355679 -0.23791763 -0.27529722
-0.24174249 -0.22238339 -0.27561492
-0.21223585 -0.23088972 -0.26429617
0.21915537 -0.2276005 -0.27059335
0.24015532 -0.22238348 -0.27561504
-0.2558597 -0.2014979 -0.27649087
-0.23702262 -0.20625979 -0.27858007
0.25427243 -0.20149781 -0.27649099
-0.25255319 -0.19908884 -0.27204144
-0.25255319 -0.17475285 -0.27204144
-0.25255319 -0.15041685 -0.27204144
-0.23549342 -0.14729498 -0.2769084
0.23389766 -0.14731191 -0.27690995
-0.25255319 -0.12608086 -0.27204144
-0.25255319 -0.10174486 -0.27204144
-0.23565018 -0.09271808 -0.27332807
0.2340544 -0.092734724 -0.27332968
-0.25255319 -0.077408873 -0.27204144
-0.25624868 -0.058540944 -0.26316589
0.25466126 -0.058540847 -0.26316607
-0.25255319 -0.053072888 -0.27204144
-0.23580253 -0.039683547 -0.26984918
0.23421536 -0.039683547 -0.26984918
-0.25255319 -0.028736897 -0.27204144
-0.25638539 -0.008232912 -0.2664547
0.25479823 -0.0082330089 -0.2664547
-0.25255319 -0.0044009038 -0.27204144
-0.25255319 0.019935086 -0.27204144
-0.23595047 0.011872786 -0.26646703
0.23436336 0.01187298 -0.26646715
-0.25453967 0.043883897 -0.27093899
0.25493902 0.04349662 -0.26983643
-0.25255319 0.068607077 -0.27204144
-0.23609444 0.062012453 -0.26317793
0.23450734 0.062012646 -0.26317799
-0.25255319 0.092943065 -0.27204144
-0.25667092 0.096709006 -0.27331513
0.25508371 0.096709102 -0.27331525
-0.25255319 0.11727905 -0.27204144
-0.25255319 0.14161503 -0.27204144
-0.25682855 0.15145154 -0.27689338
0.25523272 0.15146907 -0.27689505
-0.25255319 0.16595103 -0.27204144
-0.25255319 0.19028702 -0.27204144
-0.23650341 0.20449024 -0.27650303
0.23491628 0.20449044 -0.27650309
-0.25255319 0.21462302 -0.27204144
-0.23711707 0.21987833 -0.27863449
-0.22406904 0.22490892 -0.27231073
0.22092259 0.22543128 -0.27561772
0.24654061 0.22429164 -0.2688418
-0.21376312 0.24606298 -0.26679498
-0.20432301 0.24466836 -0.26956475
-0.18251622 0.24828188 -0.27107137
-0.15625013 0.2482806 -0.27106267
-0.13504596 0.25052688 -0.26935577
-0.12747516 0.24715592 -0.2719149
-0.11267056 0.25052688 -0.26935577
-0.093318135 0.24889801 -0.26689619
-0.067640357 0.24888222 -0.26631081
-0.045544438 0.25052688 -0.26935577
-0.02316899 0.25052691 -0.26935577
-0.00079363678 0.25052688 -0.26935577
0.021581717 0.25052688 -0.26935577
0.04395688 0.25053459 -0.26936924
0.066052996 0.24888597 -0.26631743
0.091730677 0.2489018 -0.2669028
0.11108274 0.25053465 -0.2693693
0.12588806 0.2471561 -0.2719149
0.13345785 0.25053465 -0.2693693
0.15466268 0.24828319 -0.2710672
0.18092871 0.24828444 -0.2710759
0.20251995 0.24622525 -0.27226633
0.21888517 0.24485077 -0.26855671
-0.22523317 -0.23887597 -0.25261223
-0.20192161 -0.24381305 -0.25323242
-0.17544904 -0.24378529 -0.2543056
-0.14872389 -0.24375713 -0.25538903
-0.12175141 -0.24374261 -0.25648153
-0.094510615 -0.24371417 -0.25758594
-0.067006201 -0.24368533 -0.25870091
-0.039234482 -0.24365631 -0.25982672
-0.018714458 -0.24359728 -0.26211166
-0.011191161 -0.2436268 -0.26096356
0.0096040498 -0.24362689 -0.26096362
0.017127249 -0.24359728 -0.2621116
0.03764718 -0.24365622 -0.25982684
0.065418892 -0.24368525 -0.25870103
0.092923358 -0.24371408 -0.257586
0.12015554 -0.24372888 -0.25648284
0.14713667 -0.24375713 -0.25538909
0.17386183 -0.24378529 -0.25430572
0.20033431 -0.24381305 -0.25323248
0.22364596 -0.23887597 -0.25261235
-0.23602584 -0.22331442 -0.25579882
0.24015532 -0.22238348 -0.25302422
-0.2558597 -0.2014979 -0.25382042
-0.23561293 -0.20538977 -0.25358438
0.23373611 -0.20350006 -0.25524783
0.25072271 -0.20388101 -0.25664508
-0.24030104 -0.18443866 -0.25450754
0.23823053 -0.19908431 -0.25129515
0.25046313 -0.18360002 -0.26139951
0.23823053 -0.1747489 -0.25129515
-0.25598592 -0.15512018 -0.25685221
-0.24030104 -0.16193394 -0.25450754
0.25243089 -0.15816011 -0.25912589
-0.23789729 -0.14336202 -0.25321829
0.23606409 -0.14886265 -0.25161284
0.25046313 -0.13880023 -0.26139951
0.23823053 -0.12607804 -0.25129515
-0.25611544 -0.10748504 -0.25996631
-0.24030104 -0.1169245 -0.25450754
0.25249571 -0.11194275 -0.260683
-0.23797561 -0.093568929 -0.25160718
0.23614684 -0.097230196 -0.25000101
0.25046313 -0.094000451 -0.26139951
-0.24030104 -0.07191506 -0.25450754
0.23823053 -0.077407174 -0.25129515
0.25046313 -0.071600564 -0.26139951
-0.24030104 -0.049410343 -0.25450754
0.23823053 -0.053071756 -0.25129515
0.25046313 -0.04920068 -0.26139951
-0.24030104 -0.026905622 -0.25450754
0.23823053 -0.028736331 -0.25129515
0.25046313 -0.026800793 -0.26139951
-0.24030104 -0.0044009038 -0.25450754
0.23823053 -0.0044009038 -0.25129515
0.25046313 -0.0044009038 -0.26139951
-0.24030104 0.018103816 -0.25450754
0.23823053 0.01993452 -0.25129515
0.25046313 0.017998982 -0.26139951
-0.24030104 0.040608533 -0.25450754
0.23823053 0.044269945 -0.25129515
0.25046313 0.04039887 -0.26139951
-0.24030104 0.063113257 -0.25450754
0.23823053 0.068605378 -0.25129515
0.25046313 0.062798768 -0.26139951
-0.24030104 0.085617974 -0.25450754
0.23823053 0.092940807 -0.25129515
0.25046313 0.085198656 -0.26139951
-0.25667092 0.096709006 -0.2486953
-0.24030104 0.10812269 -0.25450754
0.25277343 0.10215382 -0.25504744
-0.23623446 0.11079264 -0.259978
0.23643893 0.11403453 -0.25563651
-0.24030104 0.13062741 -0.25450754
0.23823053 0.14161165 -0.25129515
0.25046313 0.12999842 -0.26139951
-0.25682855 0.15145154 -0.25191557
-0.24030104 0.15313211 -0.25450754
0.25284794 0.15193368 -0.25665826
-0.23637074 0.15826802 -0.25686359
0.23650707 0.16210763 -0.2540794
-0.24030104 0.17563684 -0.25450754
0.23823053 0.19028249 -0.25129515
0.25046313 0.17479819 -0.26139951
-0.23840225 0.20131595 -0.25416946
0.23491639 0.20449063 -0.25383151
0.25046313 0.19719809 -0.26139951
-0.25657862 0.21345392 -0.25183231
-0.23600228 0.22102983 -0.25198603
0.23363107 0.21690823 -0.2497455
0.25133327 0.21386343 -0.25738335
-0.22250967 0.22543098 -0.25302655
0.22092254 0.22543117 -0.2530266
-0.2301705 0.24253906 -0.25566059
-0.20604321 0.24191563 -0.25261343
-0.18271984 0.24695297 -0.25322759
-0.15615672 0.24698178 -0.25430077
-0.12934017 0.24701093 -0.25538397
-0.10226677 0.24704044 -0.25647783
-0.074932553 0.24707015 -0.25758207
-0.043004453 0.2471462 -0.26040238
-0.01946706 0.24713062 -0.25982296
-0.010259458 0.24716137 -0.26095974
0.0086724432 0.24716099 -0.26095974
0.017879851 0.24713071 -0.25982291
0.041417319 0.2471462 -0.26040238
0.073345482 0.24707042 -0.25758213
0.1006797 0.24704073 -0.25647783
0.12775315 0.2470112 -0.25538427
0.1545696 0.24698199 -0.25430071
0.18113273 0.24695314 -0.25322753
0.20366701 0.243628 -0.25258744
-0.22995858 -0.23226087 -0.23962824
-0.22523317 -0.23887597 -0.23006253
-0.20644438 -0.23793918 -0.233961
-0.18839929 -0.24176113 -0.2405047
-0.17001042 -0.24362211 -0.23775981
-0.15411001 -0.24192597 -0.2342708
-0.1358192 -0.24179241 -0.23941357
-0.12175141 -0.24374261 -0.23354502
-0.10975787 -0.24180055 -0.23887672
-0.092995703 -0.24190456 -0.23525943
-0.070669696 -0.24243902 -0.23741056
-0.044227961 -0.24243945 -0.237397
-0.021089938 -0.24184602 -0.23729603
-0.0059923991 -0.24186082 -0.23677935
0.009603953 -0.2436268 -0.237579
0.01950272 -0.24184595 -0.23729594
0.042640753 -0.2424394 -0.23739697
0.069079116 -0.24244383 -0.23741011
0.091408469 -0.24190447 -0.23525949
0.10816543 -0.24180789 -0.23887612
0.12015549 -0.24372888 -0.23354618
0.13423193 -0.24179241 -0.23941354
0.15252279 -0.24192594 -0.23427074
0.16842319 -0.24362205 -0.23775975
0.18681158 -0.24176511 -0.24051158
0.20216073 -0.23875552 -0.23535402
0.22364596 -0.23887597 -0.23006268
-0.24174254 -0.22238348 -0.23043336
0.21923432 -0.22756611 -0.24137224
0.24015537 -0.22238359 -0.23043333
-0.25602597 -0.20377795 -0.23317744
0.22904989 -0.20615889 -0.23500581
0.25018853 -0.20439978 -0.23193155
-0.25252059 -0.19810405 -0.24157168
0.25049138 -0.18444254 -0.23533182
-0.25252059 -0.17389116 -0.24157168
-0.25598592 -0.15512018 -0.23387872
0.25244504 -0.15852875 -0.23460524
-0.25252059 -0.14967826 -0.24157168
0.25049138 -0.13943212 -0.23533182
-0.25252059 -0.12546536 -0.24157168
-0.25611544 -0.10748504 -0.23668127
0.25250977 -0.11220593 -0.2360066
-0.25252059 -0.10125247 -0.24157168
0.25049138 -0.094421707 -0.23533182
-0.25252059 -0.07703957 -0.24157168
0.25049138 -0.071916506 -0.23533182
-0.25624847 -0.058540847 -0.23956101
0.25466135 -0.058540847 -0.23956104
-0.25252059 -0.052826691 -0.24157168
-0.23580247 -0.039683741 -0.24557577
0.23421541 -0.039683353 -0.2455758
0.25049138 -0.049411312 -0.23533182
-0.25252059 -0.028613798 -0.24157168
0.25049138 -0.026906107 -0.23533182
-0.25638539 -0.008232912 -0.24252088
0.25479817 -0.008232912 -0.242521
-0.25252059 -0.0044009038 -0.24157168
0.25049138 -0.0044009038 -0.23533182
-0.25252059 0.019811988 -0.24157168
-0.23595047 0.011872786 -0.24253188
0.23436336 0.01187298 -0.24253197
0.25049138 0.0181043 -0.23533182
-0.25452337 0.043760799 -0.24356805
0.2527152 0.042053062 -0.24044813
-0.25252059 0.068237774 -0.24157168
-0.2360944 0.062012356 -0.23957171
0.23450729 0.062012549 -0.23957179
0.25049138 0.063114703 -0.23533182
-0.25252059 0.092450671 -0.24157168
0.25049138 0.085619912 -0.23533182
0.25049138 0.10812511 -0.23533182
-0.25252059 0.11666355 -0.24157168
-0.23623441 0.11079255 -0.23669182
0.23464739 0.11079293 -0.23669182
-0.25252059 0.14087644 -0.24157168
0.25049138 0.1306303 -0.23533182
0.25049138 0.15313551 -0.23533182
-0.25252059 0.16508934 -0.24157168
-0.23637074 0.15826802 -0.23388873
0.23478363 0.15826821 -0.23388891
-0.25252059 0.18930222 -0.24157168
0.25049138 0.1756407 -0.23533182
-0.23650341 0.20449024 -0.23116
0.23491634 0.20449054 -0.23115994
0.25049138 0.1981459 -0.23533182
-0.25252059 0.21351515 -0.24157168
0.24621256 0.22103466 -0.23277764
-0.22250967 0.22543098 -0.23043551
0.22092259 0.22543128 -0.23043554
-0.21519382 0.24739854 -0.24502592
-0.20688918 0.24658327 -0.23557056
-0.18387593 0.24715935 -0.23727287
