ply
format ascii 1.0
comment PCL generated
element vertex 1386
property float x
property float y
property float z
element camera 0
property float view_px
property float view_py
property float view_pz
property float x_axisx
property float x_axisy
property float x_axisz
property float y_axisx
property float y_axisy
property float y_axisz
property float z_axisx
property float z_axisy
property float z_axisz
property float focal
property float scalex
property float scaley
property float centerx
property float centery
property int viewportx
property int viewporty
property float k1
property float k2
end_header
-0.11988041 0.25038141 0.20490187
-0.090324372 0.25015053 0.20536745
-0.066427231 0.25231814 0.20778808
-0.054789755 0.24750744 0.20387235
-0.0307297 0.249678 0.20630643
-0.012629803 0.25226101 0.20768908
0.011356719 0.25075006 0.20711029
0.042680066 0.25062469 0.20707089
0.068074912 0.25204223 0.20730925
0.076979399 0.24972178 0.20691249
0.10166886 0.2526814 0.20583627
0.12188686 0.2519471 0.20714429
0.14488627 0.25274676 0.20530483
0.17448102 0.25275359 0.20472232
0.20392221 0.25276005 0.20414492
0.2332124 0.2527661 0.20357239
0.25641561 0.25192809 0.20711127
0.28322884 0.2525939 0.20826656
0.31021658 0.25199467 0.20722678
0.35159144 0.25042388 0.20089793
-0.85270506 0.26347467 0.20117792
-0.83438289 0.26968306 0.19591561
-0.80438811 0.26749122 0.19882494
-0.77445531 0.26531678 0.20171091
-0.74477845 0.26372588 0.20382258
-0.71578085 0.26406252 0.20337567
-0.6589002 0.27351847 0.19067499
-0.63195246 0.27357492 0.19077489
-0.60487938 0.27396971 0.19147232
-0.5821895 0.2575562 0.19771397
-0.53567642 0.26098657 0.19591692
-0.48825395 0.264476 0.19426578
-0.47035256 0.27374405 0.19107372
-0.45120588 0.26715168 0.18997529
-0.42680305 0.25495675 0.19143757
0.05108482 0.27345526 0.19245884
0.10501355 0.27001378 0.19023597
0.33224812 0.26360443 0.20398366
-0.79689014 0.2787542 0.20156014
-0.75652778 0.27734271 0.20048141
-0.71521145 0.27739558 0.1993086
-0.6852864 0.28799069 0.20179722
-0.57785594 0.27426112 0.19198701
-0.55094182 0.27426118 0.19198713
-0.52397513 0.27442086 0.19226933
-0.49705184 0.27445844 0.19233572
-0.19931023 0.28990436 0.19116312
-0.13234021 0.285469 0.19239667
-0.067311063 0.28116223 0.19359416
-0.0042163134 0.27698523 0.19471562
0.33997175 0.28078458 0.20108601
-0.78028709 0.29380414 0.19590569
-0.65846258 0.29471099 0.19690725
-0.61005044 0.30383235 0.19511759
-0.564924 0.31002924 0.19355509
-0.54113919 0.31207955 0.19632259
-0.51734477 0.31120858 0.18944314
-0.46289182 0.30688527 0.19806299
-0.39411819 0.30245179 0.19633195
-0.33030218 0.29840285 0.19312179
-0.26808795 0.29445505 0.19000438
0.30856395 0.30820945 0.1977191
0.33524606 0.30390936 0.19982943
0.35048103 0.30624443 0.20746967
0.36413783 0.30843413 0.19306779
-0.5212341 0.31525928 0.1920777
-0.48067248 0.31751412 0.19082534
-0.44194105 0.31816897 0.18969804
0.36545119 0.31532192 0.19292751
0.33374083 0.33980986 0.19987974
0.36547047 0.34312668 0.19600743
0.39325109 0.34353295 0.19157532
0.33436367 0.35896417 0.19611681
0.35889882 0.35547045 0.1910364
0.33374253 -0.34071156 0.21384621
0.34493738 -0.35520458 0.21868309
0.35555795 -0.32923159 0.21055377
0.30858001 -0.30889738 0.21159637
0.32947984 -0.30589873 0.21538076
0.35324305 -0.31767341 0.22059247
-0.58851373 -0.27288768 0.20991459
-0.50496632 -0.26840159 0.21329102
-0.43476614 -0.26478145 0.21151817
-0.3663803 -0.26125255 0.2098622
-0.74636936 -0.24745601 0.21088555
-0.68704933 -0.2482668 0.21390864
-0.65523303 -0.24960521 0.21657151
-0.63455838 -0.24312814 0.21174026
-0.63122255 -0.25322229 0.22235695
-0.60856855 -0.25442508 0.21707636
-0.58129102 -0.25426257 0.21758968
-0.55725431 -0.25500587 0.21385601
-0.55173308 -0.25542805 0.22463673
-0.52636409 -0.25394878 0.21862909
-0.50700229 -0.25616762 0.22078642
-0.49674374 -0.25322217 0.22235683
-0.47199786 -0.2551901 0.22120199
-0.4429698 -0.25328764 0.22010091
-0.43555266 -0.25862104 0.22306463
-0.41488299 -0.253001 0.220575
-0.39331788 -0.2558319 0.22180992
-0.38408071 -0.25254527 0.22030857
-0.35873976 -0.25459108 0.22122234
-0.33547813 -0.25271168 0.22148636
-0.31831488 -0.254428 0.22108689
-0.29605654 -0.25445372 0.21633831
-0.28348026 -0.2558991 0.21971175
-0.25894067 -0.25168845 0.22302878
-0.24041073 -0.25492844 0.22146839
-0.22963813 -0.25337973 0.21489835
-0.20477057 -0.25405508 0.22131711
-0.17647964 -0.25974783 0.21461758
-0.17409818 -0.25237408 0.22091094
-0.14408743 -0.25608605 0.21711197
-0.12029585 -0.25221026 0.22063172
-0.10581626 -0.2600379 0.21231458
-0.093391255 -0.25212348 0.22048351
-0.068752021 -0.25610435 0.2157582
-0.038065292 -0.25614563 0.21513894
-0.0075294841 -0.25625026 0.214589
0.014255438 -0.25191116 0.22012168
0.041171096 -0.25183403 0.2199901
0.06808909 -0.25175682 0.21985853
0.089804307 -0.25311908 0.2094928
0.095009476 -0.25167963 0.21972695
0.12302433 -0.25223193 0.21514863
0.14884906 -0.25166032 0.21969402
0.15881604 -0.25245252 0.21176213
0.1757745 -0.25158307 0.21956244
0.19831575 -0.25175354 0.21617669
0.22944167 -0.25159171 0.21668905
0.26036838 -0.25201061 0.21730927
0.28337798 -0.25216204 0.22054946
0.30110669 -0.2448331 0.21234414
0.31634501 -0.25206649 0.22156018
-0.66090292 -0.22321154 0.22454995
-0.64330173 -0.22805971 0.21041676
-0.61796135 -0.23314846 0.22162274
0.27113128 -0.23421684 0.22666091
0.32243714 -0.22478814 0.221589
0.33753017 -0.23685174 0.22592807
-0.7438916 -0.21366237 0.21197987
-0.71874493 -0.21408756 0.20926574
-0.69017786 -0.21760774 0.21516246
-0.64659947 -0.20497362 0.2143088
-0.61877 -0.20491391 0.22272542
0.29972267 -0.20845458 0.21334437
0.31156778 -0.22075921 0.22044182
-0.69324416 -0.18690658 0.2167936
-0.66355079 -0.19337259 0.22743821
-0.64373344 -0.20159912 0.21385351
0.31275019 -0.18978269 0.22152829
0.3228696 -0.19813348 0.22184715
-0.74141699 -0.17991015 0.21307284
-0.72204673 -0.18304747 0.21044075
-0.6739651 -0.17471233 0.21119934
-0.64979613 -0.1795693 0.21493092
-0.62316054 -0.18048437 0.2257275
0.29825512 -0.17163269 0.21548828
0.32616535 -0.17133258 0.22381452
0.35417199 -0.17057464 0.20971188
-0.72557318 -0.15125956 0.21085405
-0.6964792 -0.15558556 0.21785364
-0.64766097 -0.1570438 0.21915564
-0.62466282 -0.15629804 0.22675461
0.31387693 -0.15898658 0.22335672
0.34253913 -0.15034629 0.20937636
-0.73990613 -0.14623134 0.21373975
-0.66106313 -0.13403858 0.21633196
0.29674685 -0.13474791 0.21828517
0.3150813 -0.12746131 0.22444844
0.32749116 -0.14467904 0.22460595
0.355479 -0.14404799 0.21050596
-0.73194128 -0.11583155 0.21364409
-0.69980055 -0.12383968 0.21868822
0.3287999 -0.1180499 0.22538728
0.35115653 -0.11849803 0.21209913
0.42664719 -0.11757456 0.20872337
0.45418105 -0.11757456 0.20872337
0.4588657 -0.11484346 0.21300814
0.48163649 -0.11791427 0.20926371
0.50366986 -0.11370114 0.21107709
-0.70320606 -0.091666542 0.21931127
-0.65971529 -0.1028436 0.21979284
0.29525757 -0.098305382 0.22103226
0.31627646 -0.095795862 0.22576824
0.33034649 -0.091437824 0.22631049
0.35871813 -0.091048457 0.21247339
0.42764503 -0.089163221 0.21539679
0.45525029 -0.089163221 0.21539679
-0.73220009 -0.082702897 0.21436089
-0.69205582 -0.072029114 0.20949644
-0.65575039 -0.083515592 0.21906951
-0.65099776 -0.088193692 0.22027248
0.34517094 -0.08698903 0.21199703
0.46841872 -0.088813983 0.2190145
0.48308793 -0.088146985 0.21380782
0.5099417 -0.086546652 0.21150279
-0.73676193 -0.053067636 0.21051729
-0.70720983 -0.057709035 0.21765345
-0.65823489 -0.061211854 0.22101444
0.29381856 -0.062554352 0.22335365
0.31756088 -0.063293934 0.2262401
0.33117494 -0.064866334 0.22680485
0.35305697 -0.059457373 0.21269169
0.42950809 -0.056252774 0.21541435
0.4628315 -0.059697837 0.2172229
0.48527431 -0.054971155 0.21344385
0.50841272 -0.062647864 0.21411017
0.51379865 -0.051770866 0.20852354
-0.73157597 -0.045314342 0.21741912
-0.68806928 -0.036916383 0.21121028
-0.65587407 -0.03568266 0.21915546
0.32173583 -0.037552293 0.21026462
0.33198696 -0.038309854 0.22728977
0.35986409 -0.038184453 0.21316952
0.46841872 -0.037449948 0.2190145
0.50841272 -0.037207901 0.21411017
-0.74074405 -0.019236758 0.20970684
-0.7112481 -0.023406977 0.21601185
-0.65666366 -0.027171977 0.22569963
0.29242283 -0.027423857 0.22532508
0.31885594 -0.030498147 0.22673303
0.34813505 -0.020651324 0.21184552
0.43138701 -0.023034794 0.21544909
0.45925966 -0.023034794 0.21544898
0.48748249 -0.021465182 0.21307608
-0.73157597 -0.011767934 0.21741912
-0.68379819 -0.0012798468 0.21427158
-0.65711087 -0.011767934 0.22001523
-0.6458624 -0.0071018161 0.22523859
-0.62330109 -0.0020941589 0.22521532
0.32023787 7.3087402e-05 0.21908718
0.33244836 -0.011767934 0.22756535
0.35986409 -0.011767934 0.21316952
0.46841872 -0.011767934 0.2190145
0.50841272 -0.011767934 0.21411017
-0.73816943 0.018354677 0.21316203
-0.71511167 0.010679313 0.21522695
-0.65717274 0.012134633 0.22005811
0.29107893 0.0070296032 0.22683498
0.33244836 0.014769849 0.22756535
0.35478961 0.014078229 0.21209529
0.43328425 0.010506268 0.21548417
0.46485558 0.012210173 0.21724933
0.48971269 0.012375494 0.21270472
0.50841272 0.013672032 0.21411017
-0.68413466 0.034683932 0.22032019
-0.65594828 0.036060132 0.21920708
0.28990659 0.039878648 0.22642532
0.32029098 0.034175441 0.21862602
0.33203459 0.041315056 0.22731829
0.35986409 0.041065104 0.21316952
0.43519998 0.044375081 0.21551949
0.46588063 0.041979663 0.21727565
0.50841272 0.039112002 0.21411017
-0.73157597 0.055324886 0.21741912
-0.71901053 0.045105547 0.21445125
-0.65575039 0.059979718 0.21906951
0.31756088 0.06326928 0.2117095
0.35131159 0.048020575 0.21018782
0.4919627 0.046544265 0.212347
-0.72295439 0.07990054 0.21365026
-0.69203895 0.072434679 0.22439149
-0.67636174 0.066178329 0.21625838
-0.62870431 0.078225099 0.22028494
0.28874654 0.0724103 0.22600314
0.32724556 0.070563562 0.22502238
0.35955033 0.067490093 0.21297899
0.43713221 0.078564353 0.21557269
0.46691695 0.071921229 0.21729359
0.49423534 0.081057534 0.21198565
0.50841272 0.064551957 0.21411017
-0.73157597 0.088871293 0.21741912
-0.67257547 0.099723488 0.21776512
-0.65575039 0.083895601 0.21906951
0.31627485 0.095672488 0.21132192
0.33039424 0.094456851 0.22633904
0.35874948 0.093938291 0.21249229
0.46841872 0.090960123 0.2190145
0.50841272 0.089991927 0.21411017
-0.72709405 0.11548958 0.21223068
-0.6963402 0.10884725 0.2216323
-0.65494561 0.10784914 0.21851003
0.28765199 0.10421976 0.22491655
0.32684729 0.11497054 0.22352025
0.35857677 0.12037263 0.2123875
0.4398548 0.11722744 0.20977089
0.46396363 0.11666255 0.21234086
0.50415945 0.11562621 0.21139017
-0.73453134 0.12251625 0.21611369
-0.66120362 0.13144825 0.2166099
0.28656697 0.13574919 0.22383952
0.31507668 0.12725684 0.21009853
-0.73560196 0.15414357 0.21194467
-0.70108688 0.14684232 0.21723527
-0.6513617 0.15593083 0.21601909
-0.62626499 0.14901611 0.22171149
0.31387231 0.15867919 0.20907015
0.32708019 0.14709412 0.2212016
0.35554212 0.14696474 0.21054402
-0.67391115 0.17534439 0.22646475
-0.66638279 0.16249111 0.21534541
-0.63652438 0.1696261 0.22709131
0.28549299 0.16699217 0.22275522
0.3262451 0.1743858 0.2238622
0.35425082 0.1735016 0.20975977
-0.74133474 0.18999861 0.21310902
-0.70545179 0.18402056 0.21457529
-0.66349268 0.19304213 0.21343756
-0.64988291 0.17999853 0.21499124
-0.62287086 0.18667319 0.21978351
0.32830369 0.18378964 0.21489155
-0.67909825 0.21578729 0.21977457
-0.63995272 0.20184781 0.21814701
-0.61904866 0.20549792 0.22291619
0.28439888 0.1981796 0.22204378
0.32310995 0.20120405 0.2219907
-0.74378175 0.22376916 0.21202835
-0.7099781 0.22196674 0.21144119
-0.66087979 0.2227041 0.21045315
-0.64342654 0.22854459 0.2105037
-0.62349039 0.22922544 0.22030896
-0.61341155 0.23342614 0.21169508
0.28323814 0.22964798 0.22229132
0.31853443 0.22750784 0.22376829
-0.65229487 0.24686091 0.22620693
-0.64106268 0.25281921 0.20886058
-0.63086379 0.25349662 0.20983309
-0.60398227 0.25349674 0.2098332
-0.58219087 0.25052217 0.21611583
-0.56427985 0.2464468 0.21271735
-0.54397571 0.25257322 0.21767762
-0.52980733 0.24983825 0.21180159
-0.50803822 0.24592255 0.21479684
-0.49744177 0.25273567 0.21704134
-0.47455829 0.24955769 0.21280888
-0.45107099 0.25026286 0.21649221
-0.4196541 0.2501196 0.21638426
-0.39063877 0.24886261 0.21417511
-0.38356608 0.25220543 0.22048438
-0.36237565 0.24860524 0.21464518
-0.33800501 0.24965762 0.21650258
-0.30869028 0.25261754 0.21341151
-0.302439 0.24330588 0.22243971
-0.27593061 0.25015309 0.21563593
-0.25463876 0.25282204 0.20866242
-0.23854403 0.24762683 0.22019389
-0.22774979 0.25280306 0.20862961
-0.2050408 0.2475334 0.22018182
-0.17892541 0.24212484 0.2270081
-0.16422826 0.25273392 0.21335542
-0.1289679 0.25280479 0.21220994
-0.094047353 0.25289181 0.21107495
-0.059486236 0.25296107 0.20995218
-0.025219835 0.25309744 0.20883569
0.11268914 0.24572067 0.20938843
0.14712653 0.24546184 0.2105169
0.18098679 0.24912088 0.21113604
0.21713997 0.24481533 0.21281755
0.25258899 0.24461736 0.21397567
0.29438192 0.24559651 0.22134334
0.32248521 0.25450304 0.22161773
-0.74625933 0.25758252 0.21093413
-0.68387532 0.25529546 0.21501195
-0.43357268 0.2727811 0.21208903
-0.36462429 0.26876757 0.21071887
-0.29663309 0.26479164 0.20986447
-0.2224949 0.260304 0.21311259
-0.58659005 0.28184617 0.21079919
-0.50346136 0.27683052 0.21399686
0.32660457 0.3068715 0.22141719
0.33424732 0.32916 0.21396866
0.32395414 0.34713504 0.2185359
0.35544768 0.3321639 0.21048683
-0.63337827 -0.25688979 0.22956017
-0.59294403 -0.25725445 0.22823191
-0.55305058 -0.24604443 0.24002451
-0.52573162 -0.24765824 0.24102432
-0.49720979 -0.24725986 0.24220479
-0.46843922 -0.24688949 0.24339351
-0.4393934 -0.24649988 0.24459445
-0.41001025 -0.24597903 0.24581769
-0.35446385 -0.24438111 0.22966781
-0.25447658 -0.25176227 0.24661231
-0.21800227 -0.25210038 0.24526387
-0.18187611 -0.2524704 0.2439262
-0.1694264 -0.24974859 0.22829193
-0.14188766 -0.25096694 0.23604953
-0.12432763 -0.24792385 0.22989044
-0.1081467 -0.25082129 0.23600245
-0.074423969 -0.25065506 0.23596913
-0.041501753 -0.2532084 0.23876983
-0.039923027 -0.24779676 0.23312405
-0.0070568956 -0.25047389 0.23592651
0.026649352 -0.25044245 0.2359184
0.060361013 -0.25029695 0.23593193
0.094050884 -0.25017399 0.2359556
0.12765609 -0.25018594 0.23598018
0.16145189 -0.25014824 0.23602119
0.19493808 -0.25034747 0.236054
0.22342788 -0.25512788 0.22900692
0.25508001 -0.2552959 0.22784427
-0.63170648 -0.22905448 0.23433766
-0.6027028 -0.23484968 0.2440457
-0.58801615 -0.22913511 0.23290715
-0.55894375 -0.23191661 0.24102116
0.077278957 -0.24106456 0.23239043
0.24148227 -0.22419003 0.24018297
0.28323546 -0.23032379 0.23646411
0.29669017 -0.22562672 0.23734853
-0.59161752 -0.20598623 0.23353866
-0.56588513 -0.21225955 0.24284464
-0.63406253 -0.19980319 0.2380245
-0.61542636 -0.19461218 0.23231348
0.24033366 -0.18724567 0.24240842
0.2698676 -0.19763361 0.22817299
0.29068911 -0.1988112 0.23690224
-0.63653177 -0.17008215 0.24130964
-0.59623277 -0.18140945 0.23664245
-0.5798884 -0.18258443 0.24309379
0.29164428 -0.16975904 0.2374948
0.33813402 -0.18294068 0.22908336
-0.66639042 -0.16285701 0.22961912
-0.60440588 -0.15601411 0.23828718
0.2391573 -0.15027931 0.24522561
0.26855361 -0.16084111 0.23051706
-0.66956395 -0.13126807 0.23050314
-0.63951433 -0.13877346 0.24244079
-0.62660426 -0.13211927 0.22808209
-0.60020494 -0.13275634 0.23931393
0.29284638 -0.14069046 0.23844963
-0.63774002 -0.12653632 0.2299079
-0.6043312 -0.11237743 0.24259442
-0.58328849 -0.12704043 0.24659336
0.26721954 -0.1241409 0.23329845
0.29448068 -0.11382294 0.24313381
0.33804888 -0.12630643 0.23242411
-0.67259115 -0.099864744 0.23213065
-0.64236033 -0.10764384 0.24429452
-0.62873155 -0.10796974 0.22953671
0.26645064 -0.10146828 0.23256826
0.294732 -0.098127484 0.23980758
-0.63953441 -0.081787758 0.23930752
-0.62969971 -0.083892234 0.23019859
-0.60338694 -0.084272496 0.24145371
0.26590255 -0.087880865 0.23603007
0.28874654 -0.072546028 0.24046504
-0.67634559 -0.066281989 0.23083422
-0.62958527 -0.056485303 0.23367533
-0.60448396 -0.060083959 0.24219164
0.26458174 -0.051866785 0.23898461
0.3027615 -0.065124288 0.24090996
0.3368009 -0.065934524 0.23602751
-0.68020457 -0.032165278 0.22925377
-0.64929694 -0.041235041 0.24296629
-0.63093066 -0.035797898 0.23104024
-0.60575843 -0.035914134 0.24304873
0.28990659 -0.039904665 0.24095502
0.30355301 -0.03843905 0.24137414
-0.62526852 -0.016647546 0.24134895
0.26334512 -0.016896807 0.24097815
-0.68375313 0.0013373913 0.22911775
-0.65254539 -0.008314969 0.24347028
-0.63218564 -0.011767934 0.2318984
-0.60701919 -0.011767934 0.24389654
0.29107606 -0.0069676167 0.24146676
0.30644435 -0.011055924 0.2410067
0.33304548 0.00091793109 0.24010438
-0.65254116 0.0083947284 0.22889879
-0.62694663 0.015024303 0.23752913
-0.60709542 0.012365871 0.24394786
0.26221478 0.016857062 0.24169299
0.30440882 0.014895546 0.24187613
-0.65662014 0.02725333 0.24056095
-0.64928931 0.041215006 0.22848001
-0.63100606 0.03629059 0.23109186
-0.60582232 0.036523286 0.24309155
0.29241145 0.027542919 0.24013728
0.30360156 0.041573435 0.24140269
-0.6607033 0.063123293 0.23778775
-0.62415117 0.055387933 0.23643351
-0.60456055 0.060703982 0.24224302
0.26119274 0.049411904 0.24108261
0.29380852 0.06281513 0.23823115
0.31304976 0.056981657 0.2360332
-0.64576149 0.074585862 0.22940496
-0.61542648 0.082920209 0.24243736
0.26024091 0.081135854 0.23964709
0.30279386 0.068265721 0.24092898
-0.66454816 0.098554768 0.23620048
-0.62969971 0.084397785 0.23019859
-0.60338694 0.084904805 0.24145371
0.29856735 0.096831985 0.23820487
0.31357154 0.10017234 0.24666318
-0.64234155 0.10741822 0.23000383
-0.6288448 0.10847905 0.22961405
-0.60741782 0.11207769 0.24148557
-0.56142163 0.11807594 0.24652418
0.26018894 0.1101537 0.23681265
0.31479356 0.11742351 0.23240754
-0.6693337 0.13710657 0.23079365
-0.63859063 0.13267072 0.2366147
-0.62673038 0.13264662 0.22816828
-0.60032028 0.13341175 0.23939133
0.2986238 0.12848996 0.23648074
-0.60390717 0.15183198 0.23911721
0.25833768 0.14397104 0.23714274
0.29918641 0.14849252 0.23881283
-0.64221966 0.16546169 0.24000776
-0.60689706 0.17670587 0.23874632
-0.55821192 0.17318603 0.24304539
0.25741145 0.17487122 0.23572612
0.26854178 0.16137019 0.24561441
0.29804975 0.17378347 0.23434785
0.31519297 0.17385612 0.22906712
-0.59632266 0.18210143 0.23670295
-0.64745843 0.20663379 0.23211902
-0.60472798 0.20569462 0.23463237
-0.59190112 0.20670401 0.23372924
-0.56997341 0.20994556 0.24483901
-0.54641408 0.20836061 0.24121943
0.25642154 0.20610486 0.23531964
0.26986229 0.19836411 0.24327126
0.29835752 0.20568664 0.23302335
-0.60268527 0.23418319 0.23002321
-0.58681816 0.23144984 0.23031092
-0.55921972 0.23281625 0.24120361
0.27111927 0.23501489 0.24192986
0.29670632 0.2288219 0.23735806
-0.65810901 0.25080305 0.22944686
-0.61912495 0.24441691 0.23322523
-0.57386947 0.23986731 0.23971349
-0.54585665 0.24366792 0.24619302
-0.52552772 0.2403229 0.24306333
-0.50463355 0.23894291 0.24090773
-0.49248767 0.24367742 0.2462092
-0.47091725 0.24116252 0.2441636
-0.4471803 0.23832761 0.24327317
-0.43912685 0.24365847 0.24617684
-0.41525471 0.24077781 0.2452448
-0.38718998 0.24050085 0.24576703
-0.3751559 0.24481864 0.24245617
-0.35914224 0.243374 0.2456919
-0.33246464 0.2433265 0.24561089
-0.30578393 0.24328862 0.24554628
-0.27861524 0.24406789 0.246012
-0.2524094 0.2432697 0.24551404
-0.24152689 0.24514399 0.24514368
-0.22572039 0.2432697 0.24551404
-0.2021703 0.24434038 0.24466127
-0.17095362 0.24440314 0.2440066
-0.14647935 0.24253382 0.2368215
-0.12657712 0.24441309 0.24326962
-0.10525282 0.24643122 0.2370255
-0.087637275 0.24203457 0.23787999
-0.065042242 0.24444641 0.24185604
-0.050349656 0.24056469 0.23178324
-0.034511417 0.24449445 0.24116051
-0.0148031 0.24154605 0.23899469
0.011407433 0.24306814 0.23846382
0.042698331 0.24297903 0.23842862
0.069413073 0.24468757 0.23923305
0.083242983 0.2391793 0.23673096
0.099259511 0.2447273 0.23861295
0.11937538 0.24087499 0.24148244
0.1423602 0.24493136 0.238087
0.16051762 0.24288546 0.23466587
0.18075259 0.24058338 0.24267909
0.20125468 0.24520893 0.23719016
0.22169763 0.23856981 0.24180982
0.23046632 0.24535884 0.23677024
0.2554847 0.23669061 0.23429787
-0.54616141 -0.2435832 0.25867575
-0.51993161 -0.24665821 0.25753006
-0.48693746 -0.24686216 0.25681069
-0.4660733 -0.24357368 0.25865969
-0.44219029 -0.25059915 0.25351813
-0.43939185 -0.24351598 0.25856298
-0.40829903 -0.24711862 0.25526431
-0.3860375 -0.24334294 0.25827315
-0.3731612 -0.24823377 0.2488851
-0.35490668 -0.24413776 0.25320941
-0.33056667 -0.24721394 0.2537103
-0.32028943 -0.24459715 0.24953932
-0.29570839 -0.24627478 0.25226766
-0.27926308 -0.24318892 0.25801525
-0.25583503 -0.24347176 0.25502619
-0.22697641 -0.24327911 0.25566632
-0.19797328 -0.24309313 0.25631201
-0.1688187 -0.24290523 0.25696391
-0.14575611 -0.2431217 0.25790259
-0.12615937 -0.24264452 0.25751805
-0.092360541 -0.24295828 0.25762883
-0.065659389 -0.24287148 0.25748336
-0.038954776 -0.2428042 0.25737068
-0.012244804 -0.24285227 0.25745124
0.014463631 -0.24288121 0.25749964
0.022015985 -0.24673821 0.26480269
0.04117104 -0.24280426 0.2573708
0.061809454 -0.24489093 0.26032943
0.089072704 -0.24728377 0.26205316
0.094591498 -0.24269837 0.25719342
0.12171106 -0.24519095 0.25903347
0.14800785 -0.24276575 0.25730631
0.15500262 -0.24810334 0.25933129
0.18104684 -0.24550636 0.25759208
0.20140371 -0.24301593 0.25772545
0.21941744 -0.24852575 0.25669673
0.22805665 -0.24351598 0.25856298
0.2516602 -0.24956711 0.2553235
0.2803008 -0.24501002 0.25446284
-0.57388598 -0.24060762 0.25369114
-0.52652246 -0.23353289 0.24910578
-0.49333411 -0.23519668 0.25712636
-0.44718382 -0.23790532 0.25743407
-0.10100341 -0.2418111 0.25859642
-0.068365812 -0.24127246 0.25995249
-0.04190914 -0.23376963 0.26485476
-0.035435252 -0.24077919 0.26131749
-0.0061748568 -0.24079862 0.25878724
-0.0022863653 -0.24045086 0.26268068
0.031202519 -0.24010238 0.26405868
0.065129548 -0.23959588 0.26546493
0.23594069 -0.22793491 0.26435083
0.25548601 -0.23742841 0.2483654
0.26685736 -0.22674771 0.25099558
-0.60478085 -0.20618874 0.24853662
-0.5668667 -0.21515566 0.25390035
-0.52962106 -0.20988818 0.2549693
-0.49836648 -0.21000345 0.26034459
0.1831993 -0.20786355 0.26220062
0.21217756 -0.21527462 0.25220615
0.22876365 -0.21399277 0.26138392
0.25972584 -0.21417041 0.2518923
-0.50588703 -0.18474303 0.26515409
0.23761272 -0.20081058 0.26529729
0.27252376 -0.19290054 0.2549637
-0.60690767 -0.1772414 0.25289357
-0.58061355 -0.18385854 0.25591806
-0.56866926 -0.18236665 0.24745363
-0.55332243 -0.1762946 0.25741532
-0.53750187 -0.18354619 0.25624701
0.18234317 -0.17055009 0.26528734
0.21115118 -0.17789155 0.25522691
0.22957473 -0.18328375 0.26267022
0.25741377 -0.17539364 0.2499038
0.26850331 -0.17291504 0.25194412
-0.57068932 -0.1578836 0.24878964
-0.53957295 -0.15889235 0.25759402
0.2303793 -0.15244114 0.26417956
-0.60966665 -0.14632253 0.25444767
-0.57959914 -0.14519647 0.25230423
-0.57269299 -0.13343857 0.25011489
-0.54558849 -0.13644634 0.26019603
0.21016486 -0.14130844 0.25771883
0.25834128 -0.14438421 0.25136483
0.27379432 -0.13838717 0.25745982
-0.61237705 -0.11534967 0.25634414
-0.57470655 -0.10903013 0.25144687
-0.54378492 -0.10969622 0.26033351
0.23458834 -0.11749256 0.25692371
0.25929239 -0.1129707 0.25262412
0.27147859 -0.11909366 0.25365871
-0.57568914 -0.1078469 0.2563611
-0.54579651 -0.10121837 0.26574326
0.20919384 -0.10519514 0.26011461
0.2728574 -0.092225507 0.25445315
-0.61541909 -0.083205178 0.25685337
-0.60221922 -0.079123586 0.24862924
-0.576536 -0.084663965 0.25265688
-0.57190442 -0.071221516 0.25999781
-0.5457539 -0.08515992 0.2616142
0.2231131 -0.070822798 0.25453317
0.2368369 -0.077547707 0.25089651
0.26024577 -0.081334464 0.25397718
-0.58064133 -0.061018843 0.25227597
-0.54732442 -0.060667083 0.26263562
0.20819531 -0.06901668 0.26317021
0.27441517 -0.065378644 0.25535101
-0.6185596 -0.05055156 0.25705227
-0.59818351 -0.042449106 0.25275856
-0.57961762 -0.036038179 0.25469506
-0.56823397 -0.035271242 0.26325646
-0.54889292 -0.036203109 0.26365584
0.20722994 -0.033527441 0.26580691
0.20969404 -0.04117997 0.26133418
0.23569266 -0.041771501 0.25374958
0.26119637 -0.049519543 0.25549188
0.27561098 -0.03856267 0.25603995
-0.62164855 -0.017830737 0.25761971
0.26221353 -0.016900109 0.25623578
-0.58767521 -0.00899434 0.25628266
-0.55078858 -0.011767934 0.26488882
0.23456819 -0.0064786645 0.25646934
0.27641299 -0.011767934 0.25650242
-0.62522346 0.016595382 0.25614864
-0.58123344 0.012487405 0.25576377
-0.55092001 0.01264863 0.26497433
0.26333633 0.016904794 0.25569603
0.27646223 0.015019241 0.25653055
-0.58537424 0.031920921 0.25594082
-0.56188965 0.032531098 0.26539087
-0.54897195 0.037100971 0.26370719
0.23366639 0.026258454 0.25590724
0.27564368 0.041820958 0.25605905
-0.62942874 0.053224977 0.25202855
-0.58319843 0.060118329 0.25489849
-0.56091195 0.052838329 0.25081676
-0.54740363 0.061578613 0.26268706
0.20904207 0.047044925 0.26166469
0.2328338 0.058078501 0.25440747
0.26457042 0.051980954 0.25381827
-0.60217899 0.079252444 0.26352119
-0.55920285 0.064501286 0.26428244
0.20487319 0.064928778 0.26493964
0.2224355 0.076796882 0.25487632
0.23682921 0.077706292 0.26570952
0.25323191 0.064399444 0.26584411
0.27449706 0.068645947 0.25539818
-0.63329971 0.089105755 0.24957466
-0.58102971 0.088182136 0.25384793
-0.55118829 0.091131285 0.2624166
0.20420372 0.095947154 0.26280737
0.23200826 0.089624614 0.2529209
0.26941583 0.091825485 0.25271752
-0.60625809 0.11651646 0.25946808
-0.57482368 0.10980442 0.25152415
-0.5439173 0.11063634 0.26041952
0.23458341 0.11744011 0.25725436
-0.58276093 0.12214807 0.25343195
-0.57281011 0.13423035 0.2501924
-0.54789686 0.13116494 0.26014772
0.20350596 0.12710276 0.26131248
0.25404593 0.12200247 0.26203907
0.26937741 0.12347084 0.25098485
-0.61072576 0.15538007 0.25382328
-0.58013207 0.15302958 0.25179979
-0.57079345 0.15869363 0.24885857
-0.55155903 0.15787217 0.25963521
0.20281228 0.15801281 0.25986272
0.2347628 0.15131107 0.25511667
0.27018079 0.14928982 0.25291082
-0.53967917 0.1598704 0.25766307
0.25426164 0.1770817 0.25842366
0.26860219 0.17623089 0.25200111
-0.61532396 0.19501446 0.24778837
-0.580589 0.18381226 0.25643048
-0.56877363 0.18319432 0.24752265
-0.54339015 0.18634485 0.25695416
-0.52102399 0.19232899 0.26446572
-0.50602233 0.18590799 0.26524067
0.20213252 0.18857133 0.25827965
0.23495145 0.18525727 0.25298584
-0.54742515 0.21622264 0.25226858
-0.53170973 0.2095684 0.25247967
-0.49865228 0.21122351 0.2605274
0.23323743 0.20877336 0.2563408
0.2677137 0.203151 0.25148901
0.28880069 0.21309054 0.25422028
-0.5892483 0.22809961 0.25110817
-0.55796027 0.21825893 0.26416951
-0.52313924 0.22733383 0.25399467
-0.4916181 0.22387516 0.26508784
-0.23720612 0.23566732 0.25194532
-0.20610167 0.2353563 0.25322449
-0.17469761 0.23504257 0.25451598
-0.14298944 0.23472576 0.25581998
-0.11098301 0.23442237 0.25713515
-0.078622177 0.23404951 0.2584691
-0.045888934 0.23358938 0.25982404
-0.012840359 0.23314144 0.26119092
0.020404562 0.23289172 0.26255274
0.053990737 0.23262253 0.26392961
0.088016987 0.23219703 0.26533455
0.1744165 0.22323355 0.26401299
0.20147741 0.21866216 0.2563552
0.23874854 0.22815275 0.25988176
0.26693973 0.23007771 0.25104308
-0.54484314 0.2434345 0.25629234
-0.50542629 0.24375848 0.25483763
-0.49366194 0.23645627 0.25733599
-0.46639991 0.24411519 0.2533952
-0.46000662 0.2383299 0.2654961
-0.42798221 0.2442341 0.25198862
-0.38996527 0.24435191 0.25059706
-0.35558221 0.24077846 0.24807504
-0.32883316 0.23671004 0.24816871
-0.31508064 0.2446193 0.24785361
-0.29857749 0.23636042 0.24941608
-0.26803339 0.23600738 0.25067532
-0.00080800429 0.2393152 0.26467118
0.033011481 0.23955204 0.2632871
0.049682789 0.24402557 0.24718329
0.066441923 0.2397023 0.26192424
0.099589959 0.23991807 0.26056865
0.13253202 0.24031498 0.25920942
0.16499424 0.24045931 0.25788617
0.19715463 0.24061869 0.25657409
0.2295154 0.24161346 0.2551994
0.25759727 0.23597673 0.25443211
-0.4490149 -0.24235153 0.28415298
-0.4104034 -0.24280414 0.28256071
-0.3723605 -0.24305306 0.28100461
-0.33467108 -0.24335313 0.27945966
-0.29731753 -0.24372178 0.27792397
-0.26035163 -0.24408691 0.27640399
-0.22375464 -0.24446547 0.27489799
-0.1875076 -0.2448757 0.27340424
-0.15164527 -0.24526417 0.27192742
-0.11616115 -0.24563123 0.27046728
-0.081146851 -0.24583845 0.26903677
-0.046469878 -0.24606082 0.26761863
-0.012125785 -0.24629812 0.2662133
-0.5306716 -0.23585208 0.27148405
-0.49165535 -0.22462395 0.27888525
-0.44198611 -0.23323347 0.27553275
-0.43448412 -0.23681358 0.2714549
-0.40934381 -0.23301747 0.27811474
-0.37668395 -0.2384889 0.27390745
-0.34671399 -0.23803709 0.27527416
-0.31645876 -0.23758084 0.27665386
-0.28593248 -0.23715271 0.27804378
-0.25510451 -0.2367042 0.27944842
-0.22399849 -0.23628429 0.28086343
-0.19260167 -0.23587714 0.28229049
-0.16090026 -0.23546588 0.28373131
0.098522976 -0.23326559 0.27524081
0.12640607 -0.23250152 0.27650428
0.17442009 -0.22405183 0.27794346
0.20064729 -0.22941922 0.275612
-0.5474633 -0.21688239 0.26614094
-0.51950079 -0.22075665 0.27251872
-0.4976247 -0.20413855 0.26722398
-0.46551314 -0.21144564 0.26895827
-0.45246843 -0.21477234 0.27224198
-0.43254626 -0.21288234 0.2779254
-0.39539069 -0.21460722 0.28476846
0.10918935 -0.21250971 0.28023744
0.20147827 -0.21946062 0.27038521
-0.54922307 -0.18865937 0.27136824
-0.52108508 -0.19289345 0.27821904
-0.4706786 -0.1918885 0.27508566
-0.44074041 -0.18722394 0.28298986
0.12581186 -0.19295143 0.28231087
0.15442096 -0.20062804 0.27195823
0.1749161 -0.19460745 0.28099236
0.20287283 -0.19563864 0.27478892
-0.52326864 -0.16959554 0.26659548
0.20570017 -0.17473966 0.27842119
0.23889913 -0.17373627 0.2660256
-0.58014905 -0.15353543 0.26592004
-0.55157518 -0.15843867 0.2737188
-0.52314776 -0.16332631 0.28149268
-0.50801075 -0.15991588 0.26651227
-0.49339968 -0.16293773 0.27571914
-0.46985227 -0.15857555 0.28025946
-0.4437466 -0.16199557 0.28484759
0.15372758 -0.16323324 0.27531415
0.17547706 -0.16409466 0.28271472
0.20518196 -0.15305898 0.27672985
0.24050121 -0.14667073 0.26693252
-0.55407339 -0.12757148 0.2754553
-0.52260685 -0.13229811 0.27696043
-0.51014471 -0.13512707 0.26787695
-0.47725198 -0.13993573 0.27668273
0.17878403 -0.13368268 0.2761001
0.20350772 -0.12760274 0.27550405
-0.58277804 -0.12255562 0.26761201
-0.51251769 -0.11036853 0.26939449
-0.4854092 -0.11817824 0.27930024
0.15307264 -0.12685929 0.27784127
0.2138775 -0.11823557 0.27973345
0.24211867 -0.119633 0.26784801
-0.58544308 -0.091269866 0.26925272
-0.55654985 -0.096580952 0.2774184
-0.51610112 -0.094666839 0.27501625
0.15241827 -0.090776756 0.28052244
0.18071364 -0.098038241 0.27024442
0.20420738 -0.096326619 0.27702743
0.21093966 -0.093115501 0.28133416
0.23781554 -0.091271646 0.26793405
-0.51455033 -0.085662663 0.27069435
-0.48476654 -0.087217085 0.28199092
-0.47746992 -0.084921747 0.28048232
0.2769576 -0.072906196 0.26586792
-0.58823556 -0.059389606 0.27041438
-0.55920947 -0.064801402 0.2785967
-0.54224581 -0.064887583 0.26911065
-0.51445913 -0.059797004 0.27494267
-0.48469621 -0.061338503 0.28101906
0.15174432 -0.054608084 0.28389987
0.17988002 -0.061920263 0.27337977
0.20487678 -0.065212376 0.27921802
0.21330753 -0.065957978 0.28265065
0.23901771 -0.061968256 0.2691721
-0.56189311 -0.032737963 0.27978569
-0.51798916 -0.036368091 0.27289361
-0.48715717 -0.036530841 0.2825664
0.20557643 -0.033543732 0.28098381
0.21516548 -0.038846608 0.28368369
0.24676053 -0.038693167 0.27047572
-0.5910567 -0.027212646 0.27156988
-0.53872144 -0.028937079 0.27252045
-0.5092479 -0.022112712 0.28250137
-0.48075348 -0.028283283 0.28441587
0.17905568 -0.02621993 0.27649438
0.23366867 -0.026379537 0.2703312
-0.59415549 0.0060591036 0.27155837
-0.56447905 -3.6505051e-05 0.27434218
-0.52040201 -0.011767934 0.27443671
-0.48961377 -0.011767934 0.28411072
0.2029821 -0.0039611841 0.27303174
0.21697046 -0.011767934 0.28468734
0.2345605 0.0063653262 0.27111056
0.24986455 -0.0040719537 0.27059329
0.27568385 -0.012077576 0.26990271
-0.52789259 0.0096787894 0.2751812
-0.5061937 0.01237709 0.28450671
-0.48974991 0.012971398 0.28419656
-0.45796061 0.019795671 0.28434655
0.17830807 0.0080863414 0.27812666
0.19575275 0.017524216 0.26840007
0.21707185 0.015293966 0.28474361
0.24825495 0.015144088 0.27132171
-0.59814012 0.042420298 0.26757339
-0.56819636 0.035171803 0.2780019
-0.53287154 0.038015515 0.27368289
-0.51103449 0.040573843 0.27764192
-0.48729384 0.0377554 0.28265208
0.17773515 0.03963121 0.27612573
0.20639764 0.033390123 0.27356711
0.21526687 0.042387635 0.28374001
0.23568395 0.041781425 0.26849252
0.24686021 0.042080771 0.27053207
-0.5162304 0.062080737 0.27176896
-0.484833 0.062584184 0.28110501
-0.57186615 0.071261063 0.27483225
-0.54220968 0.064855129 0.28389928
-0.5303368 0.069819555 0.27245915
-0.50162905 0.075108483 0.28059089
-0.4549526 0.076171771 0.28041968
0.14963751 0.076766498 0.28314012
0.17717615 0.070786238 0.27394539
0.2108067 0.069290176 0.28032753
0.24528137 0.069046982 0.26963827
-0.54575002 0.10129071 0.28067201
-0.52782756 0.10133337 0.27122971
-0.51463097 0.086755417 0.27074593
-0.48299819 0.087434962 0.27995145
0.17661792 0.10173922 0.27186438
0.21105814 0.096691318 0.28140002
0.24370082 0.09604118 0.26874378
-0.57564712 0.10801744 0.27130422
-0.51265234 0.11147664 0.26948062
-0.49013227 0.10936847 0.27892578
0.14920193 0.10745473 0.28080153
0.20918627 0.10538437 0.27497113
0.24466231 0.10595056 0.27888724
-0.54953212 0.1388972 0.27641076
-0.52549809 0.13205186 0.26918414
-0.5102796 0.13625565 0.26796323
-0.497078 0.13701521 0.27707857
-0.47855172 0.137279 0.27715582
-0.45397323 0.13508628 0.27621964
0.1487464 0.13830264 0.2791262
0.17877886 0.13350177 0.27649677
0.20927982 0.12388436 0.28041118
0.24220206 0.1230597 0.26789522
-0.57956362 0.14553963 0.26730818
-0.4688063 0.14196248 0.28494737
0.20761828 0.15110254 0.27948767
0.21015717 0.14163324 0.27266136
0.24060147 0.15011013 0.2669892
-0.55329156 0.17672661 0.27245119
-0.52318764 0.16633311 0.27450678
-0.5081324 0.16106355 0.26659003
-0.49485743 0.16749144 0.27519953
-0.47143 0.16726643 0.27927318
-0.44387269 0.16348965 0.28492567
0.14829595 0.1688717 0.27743286
0.17890669 0.16719751 0.27443695
0.20580202 0.17835948 0.27847794
0.21114327 0.17835376 0.27025706
0.23898275 0.17718996 0.26607281
-0.49301875 0.19649026 0.27131617
-0.47399393 0.18729284 0.27429023
-0.44942501 0.18511592 0.27281836
-0.4411903 0.18872066 0.28326795
0.17491531 0.19383554 0.26694581
-0.5277437 0.21163884 0.27295619
-0.49752265 0.20430341 0.2826924
-0.46555677 0.2067322 0.27369064
-0.43374503 0.2084225 0.27842465
0.12097839 0.20371205 0.28320494
0.14787115 0.19881648 0.27514565
0.18318705 0.20829864 0.27738959
0.20371167 0.20566766 0.27731583
0.21216868 0.21586704 0.2673443
-0.46389648 0.22766721 0.27144012
-0.43629089 0.23145266 0.27778125
-0.41099733 0.23101512 0.27671954
-0.38487703 0.2305225 0.27242118
-0.38263178 0.23398304 0.28202015
-0.35562325 0.23203295 0.27785811
-0.32967615 0.23388854 0.28186181
-0.32503343 0.22975034 0.27514094
-0.29893807 0.23162751 0.27919057
-0.27669978 0.23387903 0.28184584
-0.26406407 0.22899549 0.27790958
-0.24167879 0.23124526 0.28057143
-0.22372255 0.23386952 0.28182989
-0.19959077 0.23107256 0.28127828
-0.17059687 0.23089822 0.28199196
-0.14145008 0.23072214 0.28271258
-0.1177652 0.23386957 0.28183001
-0.091275841 0.23386963 0.28183013
-0.064789206 0.23382218 0.28175074
-0.038302176 0.23375599 0.28163987
-0.011810251 0.23378436 0.28168726
0.014680993 0.23382224 0.28175074
0.041171096 0.23385072 0.28179845
0.067660749 0.2338506 0.28179833
0.10129207 0.22578646 0.28131512
0.12144791 0.23216856 0.27294514
0.14748506 0.22793414 0.27188727
0.15664572 0.23198844 0.26812568
0.20083481 0.23307492 0.27571613
-0.52935809 0.24424027 0.27207628
-0.47328761 0.23591794 0.28401539
-0.43454945 0.23629741 0.28242281
-0.3963981 0.2364569 0.28086829
-0.3585861 0.23668635 0.27932301
-0.32113901 0.23694928 0.27779025
-0.2840527 0.23724468 0.27627
-0.2473361 0.23755489 0.27476373
-0.21098435 0.23787923 0.27327129
-0.17501836 0.23818259 0.27179584
-0.13943137 0.2384658 0.27033713
-0.10429153 0.23862539 0.26890463
-0.068327636 0.2373807 0.27305886
-0.035060391 0.23893972 0.26608205
0.018603347 0.2439564 0.27182603
0.18352121 -0.24209544 0.28591233
-0.4639293 -0.22847474 0.28522453
-0.43632165 -0.23230904 0.29153672
-0.40935603 -0.23404732 0.29439831
-0.38301712 -0.22846743 0.29178882
-0.35636348 -0.23399931 0.29431936
-0.32986715 -0.2339706 0.29427209
-0.30336827 -0.2339514 0.29424053
-0.27686861 -0.23393226 0.29420897
-0.25036687 -0.23392253 0.29419303
-0.22386494 -0.233913 0.29417729
-0.20439415 -0.22887935 0.29563189
-0.19318078 -0.23722494 0.30303311
-0.16402191 -0.23579217 0.2977879
-0.14738378 -0.23053612 0.29382035
-0.12276746 -0.23568077 0.29304931
-0.091403544 -0.23568672 0.29300529
-0.064374685 -0.23401463 0.29111266
-0.051461589 -0.23887931 0.29660487
-0.034636077 -0.23375383 0.29179943
-0.01443092 -0.2364812 0.29454422
0.014666753 -0.23386499 0.29409823
0.017212363 -0.23959555 0.29349604
0.046143934 -0.23699057 0.2930651
0.067674927 -0.23389381 0.29414573
0.084584296 -0.24038275 0.2904402
0.094175681 -0.23399936 0.29431948
0.11702617 -0.23588118 0.29063639
0.14749025 -0.22877389 0.28571713
0.15742645 -0.23620242 0.2870003
-0.43744805 -0.20546971 0.29856795
-0.41016039 -0.20827243 0.30310285
-0.35477582 -0.21753149 0.29273754
-0.31867316 -0.21720515 0.29666585
-0.29698235 -0.2142712 0.30070081
-0.26600751 -0.2168984 0.2996608
-0.051786382 -0.20452638 0.3015756
-0.01518051 -0.21398081 0.30108619
0.012962541 -0.21654633 0.29768106
0.019514207 -0.20820245 0.29413965
0.041171096 -0.21885154 0.29462147
0.069458373 -0.22273809 0.28946298
0.094280556 -0.20787261 0.30245587
0.12615296 -0.2046237 0.29857603
0.19578694 -0.20962434 0.28770524
-0.50054044 -0.20232643 0.28506494
-0.49307662 -0.19710815 0.28503862
-0.46519703 -0.20130348 0.29182687
-0.43731704 -0.18773051 0.28935158
-0.4042539 -0.18869351 0.29015246
-0.36553556 -0.19028926 0.29647186
-0.3226952 -0.1921275 0.3009018
-0.27515566 -0.19424069 0.30322957
-0.16826519 -0.19913583 0.30338863
-0.11081766 -0.20179497 0.30247632
0.097442612 -0.18690833 0.29046038
0.14787337 -0.19962172 0.28910562
0.16757126 -0.20336366 0.28850588
-0.49487191 -0.16817835 0.28920996
-0.46674636 -0.17299508 0.29687098
-0.45862043 -0.16881183 0.30395868
-0.40823549 -0.18319176 0.29547235
-0.37936774 -0.17915402 0.30091783
0.0067636902 -0.17928424 0.30180773
0.041171156 -0.17822716 0.30216765
0.06924881 -0.18239795 0.296543
0.094254434 -0.18305822 0.28795102
0.12128045 -0.17502466 0.30009919
0.14154689 -0.17329022 0.29672334
0.17047945 -0.17584004 0.29009366
-0.43426782 -0.1500116 0.29343259
-0.4079845 -0.16321681 0.29241857
-0.36983508 -0.16455495 0.2990385
0.088036135 -0.15424125 0.29116264
0.097110763 -0.15023056 0.29313263
0.12530422 -0.15595341 0.28529015
0.13689214 -0.14933208 0.30305687
0.17238081 -0.14841142 0.29113171
0.19691567 -0.15786126 0.29138353
-0.49708986 -0.1376168 0.29116282
-0.46881744 -0.14262508 0.29899424
-0.4462139 -0.13684599 0.28637263
-0.40799004 -0.14195706 0.2964038
-0.37251419 -0.13897039 0.30063769
0.06908454 -0.14590678 0.29905781
0.12161328 -0.14454353 0.30199414
0.1487464 -0.13896108 0.29326501
-0.47089437 -0.11204816 0.30119911
-0.4545705 -0.11518611 0.28860548
-0.43136075 -0.1132338 0.29681653
-0.41306189 -0.11255094 0.29550278
-0.40271986 -0.10922398 0.30240074
-0.37521696 -0.11343299 0.3022511
0.068923116 -0.10989908 0.30146053
0.082068905 -0.12554041 0.29424456
0.096787855 -0.1141732 0.29550847
0.12338063 -0.11671676 0.29589495
0.17424513 -0.12101743 0.29214954
-0.52783996 -0.1017784 0.28540945
-0.4992907 -0.1069271 0.29332551
0.076255709 -0.096946634 0.29724708
0.14920193 -0.10801636 0.29500017
0.17635526 -0.097928159 0.28960711
0.19535016 -0.1001835 0.29560781
-0.53034294 -0.070183635 0.2867341
-0.50163782 -0.075525537 0.29481059
-0.47308403 -0.080859467 0.30287522
-0.45409706 -0.084198058 0.29132074
-0.42841291 -0.076566383 0.30063596
-0.41581458 -0.087280817 0.29717499
-0.37801671 -0.087941431 0.3039225
0.096453324 -0.077960104 0.29866332
0.12431692 -0.083530419 0.29077879
0.14963984 -0.077192843 0.29733157
0.17717837 -0.071151227 0.2881971
-0.48333824 -0.051819168 0.28791228
-0.45343652 -0.061668437 0.29083642
-0.418818 -0.062055748 0.29899931
0.067113489 -0.068395779 0.30196881
0.17848371 -0.066318437 0.29446352
-0.53288734 -0.038243685 0.28797233
-0.50396061 -0.044013705 0.29655212
-0.45500103 -0.040807731 0.29511169
-0.42180046 -0.036884982 0.30081102
0.096115828 -0.041918915 0.30215582
0.12380815 -0.047359131 0.29432905
0.15008008 -0.046140283 0.29971424
0.17931405 -0.039461277 0.29310685
0.19717923 -0.046858672 0.29936746
-0.4799754 -0.015345534 0.29239875
0.15052769 -0.01476795 0.30201876
0.15108755 -0.019043319 0.28699055
-0.53526193 -0.0066904449 0.29020509
-0.50620884 -0.012576438 0.29881358
-0.45466951 -0.010190062 0.2980887
-0.42481917 -0.011767934 0.30264482
0.12330763 -0.011683406 0.29775456
0.18077546 -0.010023851 0.2947956
-0.50920808 0.021839544 0.29718301
-0.47731078 0.018160783 0.29310676
-0.45358902 0.018523365 0.29783675
-0.42500317 0.013320264 0.30275652
0.095546216 0.025487088 0.30400044
0.12292093 0.020958357 0.29726639
0.15052587 0.01452121 0.28769481
0.15108027 0.018746454 0.30163315
0.18334544 0.015464739 0.29711795
-0.53867608 0.028730553 0.28726885
-0.45608145 0.038084701 0.29247093
-0.42195654 0.03846335 0.30090585
0.17774966 0.035865042 0.29544827
-0.51273406 0.058488619 0.29291061
-0.48329711 0.051604096 0.30265489
-0.47518727 0.04938684 0.29087529
-0.45008558 0.059051018 0.29515955
-0.41897431 0.063659564 0.29909432
0.095332846 0.056259278 0.30126595
0.12259819 0.05185068 0.29460052
0.1500777 0.045808557 0.28546527
0.15173759 0.054459322 0.29861364
0.17987147 0.061854322 0.28814653
-0.47307563 0.080378957 0.28869426
0.066643685 0.073161654 0.30221158
0.12227812 0.082500294 0.29195559
0.17862144 0.070054196 0.29453883
-0.51606637 0.09470205 0.28984782
-0.48658425 0.08822526 0.29886758
-0.44785079 0.086953476 0.2931909
-0.41644171 0.08890909 0.29954356
-0.37819147 0.089790449 0.30402681
0.068100139 0.090053812 0.30356911
0.075972274 0.10179386 0.29739347
0.095123962 0.086697057 0.29840812
0.15241195 0.090780184 0.29530957
0.17619245 0.095845535 0.29128572
-0.47088593 0.1114691 0.28707883
-0.44574779 0.11480052 0.2913968
-0.41412607 0.1168256 0.29757148
-0.37536278 0.11530683 0.30233824
0.06799072 0.12062027 0.30138832
0.094906718 0.11724887 0.29611647
0.12337835 0.11645349 0.29622796
-0.51966208 0.13220976 0.28557497
-0.48994005 0.12541774 0.2948826
-0.44635403 0.13831814 0.28645906
-0.41063273 0.13953784 0.29402739
0.081784561 0.13043536 0.29439154
0.15306883 0.12704773 0.29264882
0.17433161 0.12479014 0.29219648
-0.46365622 0.15639728 0.299867
-0.4406819 0.14689353 0.29279029
-0.41318288 0.14985965 0.29750791
-0.38577434 0.1528063 0.30219465
-0.37266022 0.14086716 0.30072495
0.067880213 0.15107924 0.29944766
0.087750524 0.15918526 0.29131007
0.094683319 0.14782649 0.29427403
0.12345642 0.14999482 0.29404852
0.13699764 0.15330352 0.30311343
0.17297779 0.15078977 0.29126045
-0.49337524 0.16323565 0.29064503
-0.43873268 0.17705995 0.29068172
-0.40812781 0.16491342 0.29250562
-0.36996701 0.16647533 0.29911724
0.094462544 0.1781214 0.2923992
0.12128045 0.17420393 0.2860606
0.15372126 0.16350964 0.29027548
-0.46726355 0.19598792 0.29372936
-0.408057 0.18521939 0.29299301
-0.37505075 0.18756986 0.29847658
-0.32326788 0.1943164 0.30123761
-0.2757445 0.19673052 0.30356878
0.0065271882 0.18365338 0.30193225
0.041171096 0.18424897 0.3023138
0.067770734 0.18127841 0.29750723
0.093853205 0.18804647 0.28815824
0.12580605 0.19326361 0.29734522
0.13492084 0.18094213 0.30200025
0.17058323 0.17964315 0.29015023
-0.49785757 0.21039312 0.28627375
-0.41011676 0.20749374 0.28943041
-0.39586756 0.21638761 0.28505826
-0.38304126 0.20972449 0.2931028
-0.35597569 0.21220827 0.29719168
-0.32917723 0.21375829 0.29974329
-0.30257282 0.21454178 0.30103323
-0.27599186 0.21532471 0.30232212
-0.24941529 0.21622121 0.30379799
-0.2229857 0.21630706 0.30393937
-0.19656998 0.21630706 0.30393937
-0.1695397 0.20931372 0.30384737
-0.14373855 0.21630706 0.30393937
-0.11732279 0.21630706 0.30393937
-0.11149903 0.20535807 0.30284852
-0.090907291 0.216307 0.30393925
-0.064491645 0.21630706 0.30393937
-0.052490871 0.2084783 0.3019532
-0.038088746 0.21602106 0.30346841
-0.01170641 0.21475191 0.30137908
0.014711183 0.213328 0.29903504
0.019752134 0.21248884 0.29497293
0.039985612 0.20853366 0.29497197
0.067683756 0.20976289 0.29316601
0.094278321 0.20700273 0.28862202
0.13157165 0.20870574 0.30020484
0.16107821 0.20409217 0.2878401
0.17270395 0.20105675 0.28765455
-0.44192773 0.23360145 0.29083052
-0.41224441 0.22732368 0.29903197
-0.3559953 0.21852919 0.29077658
-0.31250113 0.22094151 0.29492223
-0.26400065 0.22373144 0.29680121
-0.21670106 0.23029135 0.30288434
-0.21207106 0.22676824 0.2974509
-0.18061534 0.2306346 0.30125314
-0.15586071 0.23011591 0.29649195
-0.1448855 0.23099174 0.29963678
-0.10803024 0.22929066 0.29154283
-0.074342087 0.2292431 0.29149023
-0.041364308 0.22651438 0.28800234
-0.040021911 0.23180184 0.2949101
-0.0069720224 0.22917287 0.29142687
0.0283514 0.23262264 0.2918072
0.061903853 0.23284091 0.29029781
0.096549287 0.23033452 0.29384071
0.12734142 0.23329991 0.28949741
0.16270193 0.23455516 0.28624681
0.12672895 0.23664491 0.29760891
-0.37508869 -0.22768426 0.3080602
-0.34083027 -0.23555553 0.30972642
-0.30334842 -0.2359661 0.30802813
-0.28077132 -0.22306636 0.31845796
-0.26625687 -0.23637201 0.30634773
-0.22953606 -0.23679182 0.30468264
-0.3830846 -0.21052186 0.3067424
-0.35601819 -0.21302785 0.31079721
-0.32921115 -0.21462668 0.31338426
-0.3026042 -0.21542038 0.31466839
-0.27601892 -0.21622285 0.31596676
-0.24485116 -0.21427131 0.31095216
-0.2230082 -0.21721789 0.31757683
-0.20443593 -0.21604557 0.31455782
-0.18397549 -0.21143386 0.30446681
-0.16300221 -0.2143258 0.31102183
-0.14375445 -0.21721783 0.31757671
-0.12695147 -0.2149882 0.31478891
-0.099545524 -0.21143386 0.30446681
-0.090919375 -0.21720821 0.31756121
-0.06835027 -0.21395984 0.31500468
-0.043266658 -0.2116354 0.30419934
-0.038095467 -0.2169282 0.31710804
-0.010721913 -0.21311224 0.31799546
0.014709303 -0.21421999 0.31272614
0.042020738 -0.21057843 0.31338781
0.06768547 -0.21062884 0.30691558
0.089563474 -0.20635411 0.30916679
-0.35686579 -0.18659636 0.31850424
-0.33757609 -0.19155647 0.3211343
-0.30339584 -0.18871416 0.32187271
-0.22414334 -0.19654909 0.30428484
-0.01185206 -0.1882713 0.3211683
0.014637703 -0.18676394 0.31877074
0.04117104 -0.18518493 0.31625932
0.055441987 -0.19557688 0.32312983
-0.4387508 -0.17784649 0.30458736
-0.41134065 -0.18088821 0.30942538
-0.38404605 -0.18381092 0.31407383
-0.35065541 -0.17540213 0.30597755
-0.32815579 -0.16606952 0.30410472
-0.32242447 -0.17394929 0.30793676
-0.29423141 -0.17249838 0.30989349
-0.28148103 -0.1678361 0.30687472
-0.26607594 -0.17104942 0.31184736
-0.23495464 -0.17018229 0.31052852
-0.21016301 -0.17062016 0.31242642
-0.1796753 -0.17126101 0.31036717
-0.15431094 -0.17062004 0.31242654
-0.12363857 -0.17236951 0.3102015
-0.09845911 -0.17062016 0.31242642
-0.0668125 -0.17350912 0.31003118
-0.042635474 -0.17135632 0.31143349
-0.014758375 -0.17362951 0.30836809
0.013176771 -0.17591979 0.30527931
0.051515333 -0.17977069 0.32071006
0.067770734 -0.18217734 0.31147575
0.094758868 -0.17863052 0.30923209
-0.44069481 -0.14760694 0.30678433
-0.41319269 -0.15061978 0.31149557
-0.3857837 -0.15360269 0.31615975
-0.35845098 -0.15662646 0.32088795
-0.33154982 -0.15792374 0.32291645
-0.12442698 -0.14690559 0.30990663
-0.066726416 -0.14880133 0.30958414
0.0083758673 -0.1539173 0.31257448
0.047628991 -0.15330684 0.32015592
0.067880213 -0.15188487 0.3134737
0.096117556 -0.14950168 0.31084746
-0.44080535 -0.13680644 0.31198812
-0.37676883 -0.14199892 0.30441305
-0.34831706 -0.13876718 0.30884165
-0.33102059 -0.14022478 0.30578518
-0.32025614 -0.13734727 0.31078744
-0.29223043 -0.13591732 0.31274676
