ply
format ascii 1.0
comment PCL generated
element vertex 1355
property float x
property float y
property float z
element camera 0
property float view_px
property float view_py
property float view_pz
property float x_axisx
property float x_axisy
property float x_axisz
property float y_axisx
property float y_axisy
property float y_axisz
property float z_axisx
property float z_axisy
property float z_axisz
property float focal
property float scalex
property float scaley
property float centerx
property float centery
property int viewportx
property int viewporty
property float k1
property float k2
end_header
-0.77642 0.2920562 -0.24623686
-0.75252593 0.29172567 -0.24722537
-0.68352431 0.29767761 -0.25638691
-0.65204382 0.30525443 -0.25419492
-0.64863837 0.30014044 -0.25603589
-0.62184072 0.30105892 -0.2589505
-0.57771027 0.30751362 -0.25825864
-0.55489296 0.30277234 -0.24973062
-0.52944833 0.29842657 -0.24621937
-0.48805299 0.29206771 -0.26174557
-0.20174423 0.29237047 -0.24492213
-0.17264411 0.2922115 -0.24599153
-0.14325185 0.29203656 -0.24707237
-0.11357173 0.29185951 -0.24816394
-0.083599836 0.29168087 -0.249266
-0.053341977 0.29151532 -0.25037801
0.41832411 0.29845211 -0.24618641
0.43544069 0.29476631 -0.24721551
0.45211917 0.30240321 -0.25642335
0.53160536 0.30896273 -0.25465477
0.54872787 0.30501398 -0.25376263
0.58090609 0.29883769 -0.24569064
0.65372574 0.29330635 -0.24801871
0.69146502 0.29334679 -0.24923855
-0.69232112 0.31963021 -0.24783459
-0.68352431 0.31964564 -0.25638691
-0.6646015 0.3206436 -0.26149088
-0.61765563 0.32332677 -0.2568213
-0.60138518 0.30960152 -0.26201388
-0.56673092 0.3171725 -0.25000185
0.43544069 0.31820026 -0.24721551
0.50020522 0.31145963 -0.26139209
0.51315391 0.31984359 -0.25386205
-0.69900763 0.33409446 -0.24810049
-0.6724413 0.32963723 -0.25143406
-0.64962679 0.32971185 -0.2450113
-0.64800519 0.3304545 -0.25725204
-0.6220172 0.3305929 -0.25692499
-0.60044467 0.33283037 -0.25364283
-0.59022486 0.33233044 -0.25186104
-0.5691216 0.33346397 -0.25082037
-0.55000782 0.329184 -0.25070652
-0.53175634 0.33130723 -0.24799052
0.39549831 0.33406734 -0.24815848
0.42193776 0.33151495 -0.2506417
0.44858101 0.33280614 -0.25359827
0.46603471 0.3285172 -0.25520107
0.47297955 0.33279809 -0.25358358
0.49460214 0.33064628 -0.25390169
0.50659925 0.32924736 -0.25843379
0.52855641 0.33288762 -0.25212133
0.54615062 0.33284676 -0.25367275
-0.69905251 -0.33046773 -0.23392722
-0.58949095 -0.33489254 -0.24382755
-0.56221807 -0.33050463 -0.23385021
-0.55655313 -0.33115005 -0.2429572
-0.54129303 -0.33606946 -0.23114315
0.38867667 -0.33277163 -0.23601362
0.43350485 -0.33598843 -0.23398533
0.532336 -0.33047709 -0.23390788
0.56088066 -0.3355222 -0.23655796
-0.70103073 -0.31664357 -0.24190858
-0.67298615 -0.32741827 -0.24030158
-0.63443643 -0.31987184 -0.22870517
-0.60972524 -0.32040754 -0.22957364
-0.59023154 -0.32875967 -0.23749772
-0.55776739 -0.31759489 -0.23163185
-0.53176564 -0.32795861 -0.23364019
0.40505505 -0.31222832 -0.2312144
0.4219338 -0.32808554 -0.23620349
0.45897877 -0.3206625 -0.23785603
0.47769356 -0.32030293 -0.23330021
0.50662744 -0.3255643 -0.24417716
0.54723126 -0.32204553 -0.24355724
0.57377917 -0.32633609 -0.22837192
-0.88822645 -0.30087626 -0.24242756
-0.86528593 -0.30064744 -0.24337098
-0.84214628 -0.30041641 -0.24432257
-0.70103073 -0.29473156 -0.24190858
-0.67474878 -0.29989171 -0.2345036
-0.64861166 -0.29652059 -0.2414147
-0.59200662 -0.30061904 -0.23301271
-0.53338027 -0.30192867 -0.22999376
-0.49681678 -0.29905558 -0.23494443
-0.47054484 -0.29912403 -0.23589748
-0.44403449 -0.29919299 -0.23685896
-0.41728252 -0.29926261 -0.23782933
-0.39028567 -0.29933298 -0.23880854
-0.36304048 -0.29940397 -0.23979664
-0.33869007 -0.29716921 -0.23935014
-0.30777693 -0.29734394 -0.23929453
-0.27977139 -0.29960635 -0.24281776
-0.27404308 -0.2954146 -0.23568243
-0.25133255 -0.29940355 -0.24386543
-0.24067181 -0.29568622 -0.23458779
-0.2076441 -0.29595485 -0.23350444
-0.17495424 -0.29622105 -0.23243207
-0.14259732 -0.29648432 -0.23137066
-0.1105682 -0.29674491 -0.23032001
-0.078861929 -0.29700288 -0.22927997
-0.047484294 -0.29724312 -0.22825152
-0.01671271 -0.30008009 -0.22703937
0.013981756 -0.30243739 -0.22786239
0.045292102 -0.30220845 -0.22888798
0.076908052 -0.30199245 -0.22992298
0.10885603 -0.30175906 -0.23096955
0.14146319 -0.30107453 -0.23206118
0.17530781 -0.29919901 -0.23325509
0.20955503 -0.29728621 -0.23446423
0.24418783 -0.29536718 -0.235686
0.34189302 -0.30008766 -0.23860195
0.35839659 -0.29567522 -0.23909682
0.40530398 -0.301359 -0.24395269
0.42156237 -0.29778019 -0.23272738
0.4397648 -0.30794328 -0.24135929
0.50803226 -0.29798058 -0.23842165
0.55504936 -0.30455676 -0.24299639
0.57616925 -0.30229869 -0.23010239
0.61942524 -0.29799157 -0.22945267
0.64423597 -0.29818732 -0.22853753
0.66904825 -0.29889372 -0.22759211
0.68924016 -0.2939226 -0.22799516
-0.87996817 -0.27926657 -0.22828448
-0.87908369 -0.27962664 -0.24091262
-0.73438507 -0.28466168 -0.23263136
-0.56365782 -0.27674651 -0.23382464
-0.53730601 -0.27880815 -0.22803763
-0.48920286 -0.28981045 -0.23479387
-0.18895 -0.28538206 -0.24029514
-0.12961692 -0.28149012 -0.24045956
-0.071937084 -0.27770659 -0.24061924
0.14354599 -0.28894201 -0.24120685
0.19391316 -0.28530777 -0.24134645
0.24297056 -0.28176844 -0.24147359
0.27922502 -0.29342565 -0.23692214
0.29079765 -0.27831748 -0.24160632
0.31343019 -0.29301134 -0.23805127
0.38273972 -0.29241183 -0.24032667
0.40667281 -0.28511792 -0.23343715
0.55504936 -0.28188896 -0.24299639
0.57377917 -0.28112742 -0.22837192
0.6174013 -0.28472841 -0.24346316
0.63373584 -0.27572709 -0.24255762
0.65967208 -0.28765669 -0.24176246
0.68743998 -0.28498054 -0.22774217
0.70214182 -0.28985336 -0.24180251
0.7290954 -0.28510067 -0.23340675
-0.89152431 -0.26715022 -0.23831484
-0.87908369 -0.25887653 -0.24091262
-0.81087106 -0.26291788 -0.23853895
-0.73852146 -0.25920212 -0.23624131
-0.69514263 -0.26827404 -0.2353881
-0.52726644 -0.26309246 -0.22971213
-0.48918986 -0.26648381 -0.2347855
-0.44429764 -0.27290565 -0.23959845
-0.3775883 -0.26896742 -0.23978296
-0.31284723 -0.26514539 -0.23996222
-0.2500084 -0.26143602 -0.24012589
-0.015859254 -0.27402854 -0.24076498
0.038716175 -0.27044865 -0.24091631
0.09183199 -0.2669645 -0.24106362
0.14354599 -0.26357231 -0.24120685
0.19391316 -0.26026845 -0.24134645
0.33742598 -0.27495304 -0.2417357
0.36580673 -0.27338147 -0.23111522
0.41637734 -0.26258138 -0.23039031
0.55504936 -0.25922117 -0.24299639
0.577259 -0.25999013 -0.23572972
0.66299433 -0.27373895 -0.23615453
0.6871686 -0.26603281 -0.23091069
0.70576996 -0.26070085 -0.24071485
-0.87996817 -0.25681728 -0.22828448
-0.70103073 -0.25090751 -0.24190858
-0.53730601 -0.24892671 -0.22803763
-0.51447296 -0.25265011 -0.2267445
-0.48918986 -0.24315576 -0.2347855
-0.44429764 -0.24368005 -0.23959845
-0.18895 -0.25783139 -0.24029514
-0.12961692 -0.25432867 -0.24045956
-0.071937084 -0.25092345 -0.24061924
-0.015859254 -0.24761321 -0.24076498
0.038716175 -0.24439132 -0.24091631
0.09183199 -0.24125558 -0.24106362
0.24297056 -0.25705087 -0.24147359
0.29079765 -0.25391364 -0.24160632
0.33742598 -0.25085506 -0.2417357
0.36580673 -0.24942636 -0.23111522
0.40830082 -0.25780645 -0.23569223
0.42653435 -0.24502866 -0.24152002
0.47115123 -0.2551277 -0.23737961
0.6174013 -0.25418916 -0.24346316
0.63373584 -0.25357279 -0.24255762
0.65598631 -0.25312829 -0.24293739
0.66299433 -0.25175032 -0.23615453
0.68924016 -0.25022301 -0.22799516
0.73287117 -0.25583601 -0.23227301
-0.88574624 -0.23467943 -0.23329964
-0.87908369 -0.23812643 -0.24091262
-0.81087106 -0.23128755 -0.23853895
-0.73852146 -0.22803628 -0.23624131
-0.3775883 -0.24017942 -0.23978296
-0.31284723 -0.23678204 -0.23996222
-0.2500084 -0.2334848 -0.24012589
-0.18895 -0.23028074 -0.24029514
-0.12961692 -0.22716717 -0.24045956
-0.071937084 -0.22414033 -0.24061924
0.14354599 -0.23820259 -0.24120685
0.19391316 -0.23522912 -0.24134645
0.24297056 -0.23233332 -0.24147359
0.29079765 -0.22950982 -0.24160632
0.33742598 -0.22675708 -0.2417357
0.36580673 -0.22547129 -0.23111522
0.6174013 -0.22364993 -0.24346316
0.63373584 -0.23141846 -0.24255762
0.64777327 -0.22361644 -0.23199266
0.66299433 -0.22976168 -0.23615453
0.68526047 -0.22703238 -0.23151851
0.70943099 -0.23126069 -0.23963109
0.7366814 -0.22628187 -0.231143
-0.87996817 -0.21191874 -0.22828448
-0.87908369 -0.21737632 -0.24091262
-0.48918986 -0.21982773 -0.2347855
-0.44429764 -0.21445447 -0.23959845
-0.3775883 -0.2113914 -0.23978296
-0.31284723 -0.20841871 -0.23996222
-0.2500084 -0.20553364 -0.24012589
-0.015859254 -0.22119789 -0.24076498
0.038716175 -0.21833399 -0.24091631
0.09183199 -0.21554667 -0.24106362
0.14354599 -0.21283291 -0.24120685
0.19391316 -0.21018982 -0.24134645
0.24297056 -0.20761578 -0.24147359
0.29079765 -0.20510599 -0.24160632
0.63373584 -0.20926416 -0.24255762
0.65234435 -0.21898712 -0.24408314
0.66299433 -0.20777304 -0.23615453
0.68924016 -0.20652343 -0.22799516
-0.88574624 -0.1961505 -0.23329964
-0.87908369 -0.19662623 -0.24091262
-0.81087106 -0.19965723 -0.23853895
-0.73852146 -0.19687042 -0.23624131
-0.73346257 -0.19014503 -0.23846039
-0.48918986 -0.19649968 -0.2347855
-0.18895 -0.20273006 -0.24029514
-0.12961692 -0.20000568 -0.24045956
-0.071937084 -0.19735721 -0.24061924
-0.015859254 -0.19478257 -0.24076498
0.038716175 -0.19227666 -0.24091631
0.09183199 -0.18983774 -0.24106362
0.14354599 -0.18746321 -0.24120685
0.33742598 -0.20265912 -0.2417357
0.36580673 -0.20151618 -0.23111522
0.6174013 -0.1931107 -0.24346316
0.63373584 -0.18710984 -0.24255762
0.6775099 -0.19177388 -0.23622826
0.70979851 -0.19994321 -0.23285112
0.7405349 -0.19641566 -0.22998595
-0.89152431 -0.17067215 -0.23831484
-0.87908369 -0.17587613 -0.24091262
-0.48918986 -0.17317164 -0.2347855
-0.44429764 -0.18522887 -0.23959845
-0.3775883 -0.18260339 -0.23978296
-0.31284723 -0.18005536 -0.23996222
-0.2500084 -0.17758244 -0.24012589
-0.18895 -0.17517938 -0.24029514
-0.12961692 -0.17284419 -0.24045956
-0.071937084 -0.17057408 -0.24061924
0.19391316 -0.1851505 -0.24134645
0.24297056 -0.18289821 -0.24147359
0.29079765 -0.18070215 -0.24160632
0.33742598 -0.17856112 -0.2417357
0.36580673 -0.17756106 -0.23111522
0.66299433 -0.1857844 -0.23615453
0.68924016 -0.18467365 -0.22799516
0.71687388 -0.17145517 -0.23739958
-0.88157356 -0.16161995 -0.22878712
-0.87908369 -0.15512602 -0.24091262
-0.81087106 -0.16802691 -0.23853895
-0.73852146 -0.16570456 -0.23624131
-0.44429764 -0.15600328 -0.23959845
-0.3775883 -0.15381537 -0.23978296
-0.31284723 -0.15169202 -0.23996222
-0.015859254 -0.16836725 -0.24076498
0.038716175 -0.16621932 -0.24091631
0.09183199 -0.16412883 -0.24106362
0.14354599 -0.16209351 -0.24120685
0.19391316 -0.16011119 -0.24134645
0.24297056 -0.15818064 -0.24147359
0.29079765 -0.15629831 -0.24160632
0.33742598 -0.15446316 -0.2417357
0.36580673 -0.15360595 -0.23111522
0.61996979 -0.16314572 -0.23660395
0.63373584 -0.16495553 -0.24255762
0.65927178 -0.15876751 -0.23620644
0.66838503 -0.16100301 -0.23678613
0.68924016 -0.16282386 -0.22799516
0.70256501 -0.16468012 -0.22840759
0.74442381 -0.16625129 -0.22883269
-0.88574624 -0.14154185 -0.23329964
-0.87908369 -0.13437591 -0.24091262
-0.81087106 -0.13639659 -0.23853895
-0.73852146 -0.13453873 -0.23624131
-0.48918986 -0.14984359 -0.2347855
-0.2500084 -0.14963125 -0.24012589
-0.18895 -0.14762869 -0.24029514
-0.12961692 -0.14568272 -0.24045956
-0.071937084 -0.14379095 -0.24061924
-0.015859254 -0.14195192 -0.24076498
0.038716175 -0.14016198 -0.24091631
0.09183199 -0.13841991 -0.24106362
0.14354599 -0.1367238 -0.24120685
0.19391316 -0.13507187 -0.24134645
0.63373584 -0.1428012 -0.24255762
0.66299433 -0.14180712 -0.23615453
0.68924016 -0.14097406 -0.22799516
0.72064877 -0.14109875 -0.23628193
0.74835718 -0.13576499 -0.22765175
-0.87996817 -0.12212166 -0.22828448
-0.48918986 -0.12651554 -0.2347855
-0.44429764 -0.12677768 -0.23959845
-0.3775883 -0.12502736 -0.23978296
-0.31284723 -0.12332868 -0.23996222
-0.2500084 -0.12168007 -0.24012589
-0.18895 -0.12007802 -0.24029514
-0.12961692 -0.11852124 -0.24045956
-0.071937084 -0.11700781 -0.24061924
0.24297056 -0.13346308 -0.24147359
0.29079765 -0.13189448 -0.24160632
0.33742598 -0.13036518 -0.2417357
0.36580673 -0.12965085 -0.23111522
0.59752977 -0.12302846 -0.22712967
0.6174013 -0.13203223 -0.24346316
0.63373584 -0.12064689 -0.24255762
0.66653991 -0.12241828 -0.2373665
0.68924016 -0.11912427 -0.22799516
0.69870806 -0.131347 -0.22962031
-0.88574624 -0.1030129 -0.23329964
-0.87650269 -0.11116111 -0.24249417
-0.81087106 -0.10476626 -0.23853895
-0.73852146 -0.10337286 -0.23624131
-0.48918986 -0.10318749 -0.2347855
-0.015859254 -0.1155366 -0.24076498
0.038716175 -0.11410464 -0.24091631
0.09183199 -0.11271098 -0.24106362
0.14354599 -0.11135411 -0.24120685
0.19391316 -0.11003256 -0.24134645
0.24297056 -0.10874554 -0.24147359
0.29079765 -0.10749064 -0.24160632
0.33742598 -0.10626721 -0.2417357
0.36580673 -0.10569574 -0.23111522
0.61978757 -0.10637736 -0.23997137
0.63373584 -0.09849257 -0.24255762
0.69677413 -0.11584063 -0.24376252
0.72446704 -0.11041776 -0.23513722
-0.88592666 -0.09504512 -0.23279497
-0.87908369 -0.092875712 -0.24091262
-0.44429764 -0.097552083 -0.23959845
-0.3775883 -0.096239343 -0.23978296
-0.31284723 -0.094965331 -0.23996222
-0.2500084 -0.09372887 -0.24012589
-0.18895 -0.092527337 -0.24029514
-0.12961692 -0.091359749 -0.24045956
-0.071937084 -0.090224691 -0.24061924
-0.015859254 -0.089121275 -0.24076498
0.038716175 -0.088047311 -0.24091631
0.09183199 -0.087002061 -0.24106362
0.14354599 -0.085984401 -0.24120685
0.19391316 -0.084993243 -0.24134645
0.24297056 -0.084027968 -0.24147359
0.29079765 -0.083086804 -0.24160632
0.33742598 -0.082169227 -0.2417357
0.36580673 -0.081740625 -0.23111522
0.66471452 -0.095004752 -0.23794067
0.6920644 -0.097816795 -0.22941574
0.70047206 -0.084973499 -0.24266991
-0.88574624 -0.075708576 -0.23329964
-0.87908369 -0.072125606 -0.24091262
-0.81087106 -0.073135942 -0.23853895
-0.73852146 -0.072207004 -0.23624131
-0.73393595 -0.076045528 -0.22870928
-0.48918986 -0.079859443 -0.2347855
-0.44429764 -0.068326488 -0.23959845
-0.3775883 -0.067451328 -0.23978296
-0.31284723 -0.066601984 -0.23996222
-0.2500084 -0.065777674 -0.24012589
-0.18895 -0.064976655 -0.24029514
-0.12961692 -0.064198263 -0.24045956
-0.071937084 -0.063441552 -0.24061924
0.34832558 -0.070243515 -0.23365313
0.59735847 -0.078589417 -0.2291618
0.6174013 -0.070953764 -0.24346316
0.63373584 -0.076338254 -0.24255762
0.66299433 -0.075841211 -0.23615453
0.69017696 -0.070579022 -0.23000929
0.72832114 -0.079426609 -0.2339963
-0.87996817 -0.054773837 -0.22828448
-0.87908369 -0.051375501 -0.24091262
-0.73393595 -0.054202333 -0.24220911
-0.48918986 -0.056531392 -0.2347855
-0.015859254 -0.062705949 -0.24076498
0.038716175 -0.061989971 -0.24091631
0.09183199 -0.06129314 -0.24106362
0.14354599 -0.060614698 -0.24120685
0.19391316 -0.059953928 -0.24134645
0.24297056 -0.059310414 -0.24147359
0.29079765 -0.058682971 -0.24160632
0.33742598 -0.058071248 -0.2417357
0.36580673 -0.057785518 -0.23111522
0.63373584 -0.05418393 -0.24255762
0.66290635 -0.056765564 -0.23851666
0.68924016 -0.053574882 -0.22799516
0.70421296 -0.053773761 -0.24155024
0.73221964 -0.048100419 -0.23282743
-0.88675416 -0.035368279 -0.2343404
-0.87516469 -0.035816502 -0.24054825
-0.81087106 -0.04150562 -0.23853895
-0.73852146 -0.041041151 -0.23624131
-0.48918986 -0.033203345 -0.2347855
-0.44429764 -0.039100893 -0.23959845
-0.3775883 -0.038663313 -0.23978296
-0.31284723 -0.038238637 -0.23996222
-0.2500084 -0.037826486 -0.24012589
-0.18895 -0.037425976 -0.24029514
-0.12961692 -0.03703678 -0.24045956
-0.071937084 -0.036658425 -0.24061924
-0.015859254 -0.036290623 -0.24076498
0.038716175 -0.03593263 -0.24091631
0.09183199 -0.035584219 -0.24106362
0.14354599 -0.035244998 -0.24120685
0.19391316 -0.034914613 -0.24134645
0.24297056 -0.034592856 -0.24147359
0.29079765 -0.03427913 -0.24160632
0.33742598 -0.033973273 -0.2417357
0.36580673 -0.033830404 -0.23111522
0.6174013 -0.040414527 -0.24346316
0.63373584 -0.032029614 -0.24255762
0.66299433 -0.031863935 -0.23615453
0.6883074 -0.032583624 -0.23060444
0.65924448 -0.027531236 -0.2420029
0.70799333 -0.022245906 -0.24041864
0.73615485 -0.016454354 -0.23166242
-0.88574624 -0.0098752966 -0.23329964
-0.87908369 -0.0098752966 -0.24091262
-0.81087106 -0.0098752966 -0.23853895
-0.73852146 -0.0098752966 -0.23624131
-0.48918986 -0.0098752966 -0.2347855
-0.44429764 -0.0098752966 -0.23959845
-0.3775883 -0.0098752966 -0.23978296
-0.31284723 -0.0098752966 -0.23996222
-0.2500084 -0.0098752966 -0.24012589
-0.18895 -0.0098752966 -0.24029514
-0.12961692 -0.0098752966 -0.24045956
-0.071937084 -0.0098752966 -0.24061924
-0.015859254 -0.0098752966 -0.24076498
0.038716175 -0.0098752966 -0.24091631
0.09183199 -0.0098752966 -0.24106362
0.14354599 -0.0098752966 -0.24120685
0.19391316 -0.0098752966 -0.24134645
0.24297056 -0.0098752966 -0.24147359
0.29079765 -0.0098752966 -0.24160632
0.33742598 -0.0098752966 -0.2417357
0.36818182 -0.0024790177 -0.23083055
0.6174013 -0.0098752966 -0.24346316
0.63373584 -0.0098752966 -0.24255762
0.65570408 0.0042893421 -0.24313101
0.66299433 -0.0098752966 -0.23615453
0.6864596 -0.0056883837 -0.23118547
-0.88574624 0.017429024 -0.23329964
-0.87386012 0.017563587 -0.23867282
-0.81087106 0.021755027 -0.23853895
-0.73852146 0.021290559 -0.23624131
-0.50615126 0.019651048 -0.22789529
-0.48918986 0.013452753 -0.2347855
-0.44429764 0.0193503 -0.23959845
-0.3775883 0.018912721 -0.23978296
-0.31284723 0.018488048 -0.23996222
-0.2500084 0.018075895 -0.24012589
-0.18895 0.017675385 -0.24029514
-0.12961692 0.017286189 -0.24045956
-0.071937084 0.016907834 -0.24061924
-0.015859254 0.01654003 -0.24076498
0.038716175 0.016182041 -0.24091631
0.09183199 0.015833626 -0.24106362
0.14354599 0.015494406 -0.24120685
0.19391316 0.01516402 -0.24134645
0.24297056 0.014842264 -0.24147359
0.29079765 0.014528541 -0.24160632
0.33742598 0.014222682 -0.2417357
0.36580673 0.014079815 -0.23111522
0.6174013 0.020663938 -0.24346316
0.63373584 0.012279022 -0.24255762
0.66299433 0.012113342 -0.23615453
0.68924016 0.011974499 -0.22799516
0.70990938 0.017010812 -0.23303604
0.74013633 0.015537571 -0.23046881
-0.88584352 0.034399383 -0.23423025
-0.87908369 0.031624913 -0.24091262
-0.73393595 0.034451708 -0.24220911
-0.48918986 0.036780804 -0.2347855
-0.015859254 0.042955354 -0.24076498
0.038716175 0.042239375 -0.24091631
0.09183199 0.041542545 -0.24106362
0.14354599 0.04086411 -0.24120685
0.19391316 0.040203333 -0.24134645
0.24297056 0.039559826 -0.24147359
0.29079765 0.038932376 -0.24160632
0.33742598 0.038320661 -0.2417357
0.36580673 0.038034923 -0.23111522
0.63373584 0.034433343 -0.24255762
0.65220445 0.035767123 -0.24423158
0.66299433 0.034101978 -0.23615453
0.68462914 0.031969599 -0.23176822
0.71566981 0.041803651 -0.23813546
-0.88574624 0.05595798 -0.23329964
-0.87908369 0.052375011 -0.24091262
-0.81087106 0.053385347 -0.23853895
-0.73852146 0.052456416 -0.23624131
-0.73395211 0.05625464 -0.22864643
-0.48918986 0.060108848 -0.2347855
-0.44429764 0.048575893 -0.23959845
-0.3775883 0.04770074 -0.23978296
-0.31284723 0.046851389 -0.23996222
-0.2500084 0.046027087 -0.24012589
-0.18895 0.045226067 -0.24029514
-0.12961692 0.044447675 -0.24045956
-0.071937084 0.043690965 -0.24061924
0.6174013 0.051203169 -0.24346316
0.63373584 0.056587659 -0.24255762
0.66299433 0.056090616 -0.23615453
0.68924016 0.055674084 -0.22799516
0.70423329 0.055820942 -0.22796825
0.74415588 0.047859408 -0.22927856
-0.87908369 0.073125117 -0.24091262
-0.44429764 0.077801488 -0.23959845
-0.3775883 0.076488748 -0.23978296
-0.31284723 0.075214736 -0.23996222
-0.2500084 0.073978275 -0.24012589
-0.18895 0.072776742 -0.24029514
-0.12961692 0.071609154 -0.24045956
-0.071937084 0.070474096 -0.24061924
-0.015859254 0.06937068 -0.24076498
0.038716175 0.068296716 -0.24091631
0.09183199 0.067251466 -0.24106362
0.14354599 0.066233806 -0.24120685
0.19391316 0.065242648 -0.24134645
0.24297056 0.064277373 -0.24147359
0.29079765 0.063336208 -0.24160632
0.33742598 0.062418632 -0.2417357
0.36580673 0.06199003 -0.23111522
0.66969687 0.069735512 -0.23641694
0.68924016 0.07752388 -0.22799516
0.71956754 0.074335709 -0.23698357
-0.88574624 0.083262302 -0.23329964
-0.87260008 0.09058103 -0.23686123
-0.81087106 0.085015669 -0.23853895
-0.73852146 0.083622262 -0.23624131
-0.48918986 0.083436899 -0.2347855
-0.015859254 0.095786005 -0.24076498
0.038716175 0.094354048 -0.24091631
0.09183199 0.092960387 -0.24106362
0.14354599 0.09160351 -0.24120685
0.19391316 0.090281963 -0.24134645
0.24297056 0.088994943 -0.24147359
0.29079765 0.087740049 -0.24160632
0.33742598 0.086516611 -0.2417357
0.36580673 0.085945144 -0.23111522
0.61957675 0.087210052 -0.24089918
0.63373584 0.078741975 -0.24255762
0.67281801 0.092344515 -0.23780522
0.7004922 0.086908281 -0.22915867
0.74822277 0.080538511 -0.22805962
-0.88736826 0.10202074 -0.23617539
-0.48918986 0.10676493 -0.2347855
-0.44429764 0.10702708 -0.23959845
-0.3775883 0.10527676 -0.23978296
-0.31284723 0.10357808 -0.23996222
-0.2500084 0.10192946 -0.24012589
-0.18895 0.10032742 -0.24029514
-0.12961692 0.098770641 -0.24045956
-0.071937084 0.097257219 -0.24061924
0.24297056 0.11371248 -0.24147359
0.29079765 0.11214387 -0.24160632
0.33742598 0.11061458 -0.2417357
0.36580673 0.10990024 -0.23111522
0.6174013 0.11228163 -0.24346316
0.63373584 0.10089628 -0.24255762
0.66299433 0.10006789 -0.23615453
0.68924016 0.099373676 -0.22799516
0.72351116 0.1072281 -0.23580328
0.75232899 0.11355809 -0.22684371
-0.88574624 0.12179125 -0.23329964
-0.87908369 0.11462531 -0.24091262
-0.81087106 0.11664598 -0.23853895
-0.73852146 0.11478812 -0.23624131
-0.48918986 0.13009299 -0.2347855
-0.2500084 0.12988065 -0.24012589
-0.18895 0.1278781 -0.24029514
-0.12961692 0.12593213 -0.24045956
-0.071937084 0.12404034 -0.24061924
-0.015859254 0.12220132 -0.24076498
0.038716175 0.12041139 -0.24091631
0.09183199 0.11866931 -0.24106362
0.14354599 0.1169732 -0.24120685
0.19391316 0.11532127 -0.24134645
0.63373584 0.12305061 -0.24255762
0.66613209 0.12252224 -0.23754489
0.69301701 0.11944384 -0.22915819
-0.87996817 0.14726961 -0.22828448
-0.87139237 0.14181998 -0.23510832
-0.81087106 0.14827631 -0.23853895
-0.73852146 0.14595397 -0.23624131
-0.44429764 0.13625269 -0.23959845
-0.3775883 0.13406478 -0.23978296
-0.31284723 0.13194142 -0.23996222
-0.015859254 0.14861666 -0.24076498
0.038716175 0.14646873 -0.24091631
0.09183199 0.14437823 -0.24106362
0.14354599 0.14234291 -0.24120685
0.19391316 0.14036061 -0.24134645
0.24297056 0.13843004 -0.24147359
0.29079765 0.13654771 -0.24160632
0.33742598 0.13471256 -0.2417357
0.36580673 0.13385537 -0.23111522
0.62018812 0.14408615 -0.2356416
0.63373584 0.14520493 -0.24255762
0.66299433 0.14404517 -0.23615453
0.69118488 0.14559326 -0.22974128
0.69869184 0.13403422 -0.24358082
0.72749335 0.14046393 -0.23462656
-0.89152431 0.15092155 -0.23831484
-0.87908369 0.15612553 -0.24091262
-0.48918986 0.15342104 -0.2347855
-0.44429764 0.16547827 -0.23959845
-0.3775883 0.16285279 -0.23978296
-0.31284723 0.16030477 -0.23996222
-0.2500084 0.15783185 -0.24012589
-0.18895 0.15542878 -0.24029514
-0.12961692 0.15309361 -0.24045956
-0.071937084 0.15082349 -0.24061924
0.19391316 0.16539991 -0.24134645
0.24297056 0.16314761 -0.24147359
0.29079765 0.16095155 -0.24160632
0.33742598 0.15881053 -0.2417357
0.36580673 0.15781048 -0.23111522
0.62253821 0.16656415 -0.24370918
0.63896167 0.15082733 -0.23625016
0.66437805 0.15967055 -0.23809627
0.68924016 0.16492306 -0.22799516
-0.88574624 0.1763999 -0.23329964
-0.87908369 0.17687564 -0.24091262
-0.81087106 0.17990664 -0.23853895
-0.73852146 0.17711984 -0.23624131
-0.73344988 0.1703587 -0.23850933
-0.48918986 0.1767491 -0.2347855
-0.18895 0.18297946 -0.24029514
-0.12961692 0.18025509 -0.24045956
-0.071937084 0.17760661 -0.24061924
-0.015859254 0.17503197 -0.24076498
0.038716175 0.17252606 -0.24091631
0.09183199 0.17008714 -0.24106362
0.14354599 0.16771261 -0.24120685
0.33742598 0.18290852 -0.2417357
0.36580673 0.18176559 -0.23111522
0.6174013 0.17336011 -0.24346316
0.63373584 0.16735925 -0.24255762
0.66228598 0.18332659 -0.24114501
0.68950683 0.17824112 -0.23262608
0.70254838 0.16748786 -0.24244341
0.73152274 0.17407203 -0.23342058
-0.87996817 0.19216815 -0.22828448
-0.87908369 0.19762573 -0.24091262
-0.48918986 0.20007713 -0.2347855
-0.44429764 0.19470388 -0.23959845
-0.3775883 0.19164081 -0.23978296
-0.31284723 0.18866812 -0.23996222
-0.2500084 0.18578304 -0.24012589
-0.015859254 0.20144731 -0.24076498
0.038716175 0.19858341 -0.24091631
0.09183199 0.19579607 -0.24106362
0.14354599 0.19308232 -0.24120685
0.19391316 0.19043922 -0.24134645
0.24297056 0.18786518 -0.24147359
0.29079765 0.1853554 -0.24160632
0.63373584 0.18951356 -0.24255762
0.66299433 0.18802245 -0.23615453
0.68924016 0.18677284 -0.22799516
0.70644683 0.20130502 -0.24129376
-0.88574624 0.21492887 -0.23329964
-0.87908369 0.21837586 -0.24091262
-0.81087106 0.21153696 -0.23853895
-0.73852146 0.20828569 -0.23624131
-0.3775883 0.22042884 -0.23978296
-0.31284723 0.21703146 -0.23996222
-0.2500084 0.21373424 -0.24012589
-0.18895 0.21053015 -0.24029514
-0.12961692 0.20741658 -0.24045956
-0.071937084 0.20438975 -0.24061924
0.14354599 0.21845202 -0.24120685
0.19391316 0.21547855 -0.24134645
0.24297056 0.21258275 -0.24147359
0.29079765 0.20975924 -0.24160632
0.33742598 0.20700648 -0.2417357
0.36580673 0.20572069 -0.23111522
0.6174013 0.20389934 -0.24346316
0.63373584 0.2116679 -0.24255762
0.658849 0.21303174 -0.24222538
0.66660124 0.21334155 -0.23404583
0.68757868 0.20834695 -0.23088187
0.73559183 0.20803475 -0.232218
-0.87996817 0.2370667 -0.22828448
-0.48918986 0.2234052 -0.2347855
-0.44429764 0.22392948 -0.23959845
-0.18895 0.23808083 -0.24029514
-0.12961692 0.23457809 -0.24045956
-0.071937084 0.23117289 -0.24061924
-0.015859254 0.22786264 -0.24076498
0.038716175 0.22464076 -0.24091631
0.09183199 0.22150502 -0.24106362
0.24297056 0.23730029 -0.24147359
0.29079765 0.23416308 -0.24160632
0.33742598 0.23110449 -0.2417357
0.36580673 0.2296758 -0.23111522
0.6174013 0.23443858 -0.24346316
0.63373584 0.23382221 -0.24255762
0.66299433 0.23199975 -0.23615453
0.68580383 0.23403129 -0.23143959
0.71039218 0.23550417 -0.24011493
-0.89152431 0.24739966 -0.23831484
-0.87908369 0.23912595 -0.24091262
-0.81087106 0.24316731 -0.23853895
-0.73852146 0.23945156 -0.23624131
-0.70103073 0.25306895 -0.24190858
-0.48918986 0.24673325 -0.2347855
-0.44429764 0.25315508 -0.23959845
-0.3775883 0.24921685 -0.23978296
-0.31284723 0.24539483 -0.23996222
-0.2500084 0.24168545 -0.24012589
-0.015859254 0.25427794 -0.24076498
0.038716175 0.25069809 -0.24091631
0.09183199 0.24721393 -0.24106362
0.14354599 0.24382174 -0.24120685
0.19391316 0.24051788 -0.24134645
0.33742598 0.25520247 -0.2417357
0.36580673 0.25363091 -0.23111522
0.42556903 0.24889046 -0.24090266
0.45025519 0.24641508 -0.23749021
0.65544289 0.2424458 -0.24331018
0.66299433 0.25398839 -0.23615453
0.68924016 0.25232223 -0.22799516
0.73970556 0.24236995 -0.23100209
-0.87996817 0.259516 -0.22828448
-0.87908369 0.25987607 -0.24091262
-0.73852146 0.2706174 -0.23624131
-0.73436552 0.26495406 -0.2327072
-0.68923861 0.26687154 -0.2431137
-0.68434411 0.26591775 -0.23440957
-0.53329015 0.26401827 -0.23596802
-0.48918986 0.27006128 -0.2347855
-0.2500084 0.26963663 -0.24012589
-0.18895 0.2656315 -0.24029514
-0.12961692 0.26173955 -0.24045956
-0.071937084 0.25795603 -0.24061924
0.09183199 0.27292284 -0.24106362
0.14354599 0.26919144 -0.24120685
0.19391316 0.2655572 -0.24134645
0.24297056 0.26201788 -0.24147359
0.29079765 0.25856692 -0.24160632
0.42994344 0.27081236 -0.24305612
0.55504936 0.2621384 -0.24299639
0.57733172 0.26256669 -0.22948185
0.6174013 0.26497784 -0.24346316
0.63373584 0.25597653 -0.24255762
0.65207505 0.27155542 -0.24436879
0.67884982 0.26682004 -0.23600355
0.71008307 0.2660571 -0.23325625
-0.88574624 0.28076214 -0.23329964
-0.87908369 0.28062618 -0.24091262
-0.81087106 0.27479762 -0.23853895
-0.70103073 0.27498099 -0.24190858
-0.53730601 0.288939 -0.22803763
-0.44429764 0.28238067 -0.23959845
-0.3775883 0.27800488 -0.23978296
-0.36453429 0.28923586 -0.2379013
-0.33035532 0.28942347 -0.23678491
-0.31284723 0.27375817 -0.23996222
-0.2965185 0.28962502 -0.23567888
-0.26303178 0.28982437 -0.23458424
-0.22988945 0.29002181 -0.23350081
-0.19708642 0.29021704 -0.23242858
-0.16461734 0.29041046 -0.23136723
-0.13104707 0.28975144 -0.23538804
-0.10066117 0.29079118 -0.22927651
-0.070550516 0.28785902 -0.23443305
-0.03798122 0.29116452 -0.22722754
-0.015859254 0.28069329 -0.24076498
0.038716175 0.27675542 -0.24091631
0.19391316 0.29059651 -0.24134645
0.24297056 0.28673542 -0.24147359
0.26666379 0.28957802 -0.23568243
0.2963146 0.28534433 -0.2392624
0.33723569 0.28505516 -0.23962682
0.36580673 0.27758604 -0.23111522
0.40585437 0.28675187 -0.24033701
0.44424322 0.28632498 -0.23535705
0.55504936 0.28480619 -0.24299639
0.57377917 0.28398117 -0.22837192
0.60002762 0.29029912 -0.22944862
0.62492418 0.2904413 -0.22853345
0.63373584 0.27813086 -0.24255762
0.64982533 0.29109216 -0.227588
0.66548461 0.27631938 -0.23196599
0.68924016 0.27417204 -0.22799516
0.70216119 0.29109472 -0.22872683
0.74386919 0.27709624 -0.22975618
-0.87398022 0.29379448 -0.23902026
-0.8501364 0.2937049 -0.23949197
-0.82895982 0.29493403 -0.23563233
-0.8234213 0.29230362 -0.24431834
-0.8042928 0.29493397 -0.23563224
-0.77962565 0.29493397 -0.23563224
-0.7549268 0.29500121 -0.23575309
-0.69730562 0.30031902 -0.24064413
-0.68046254 0.29609215 -0.23771542
-0.53318113 0.29425344 -0.2344082
-0.48304978 0.29252973 -0.23486763
-0.45918581 0.29411891 -0.23416629
-0.45053518 0.29179591 -0.23589417
-0.42919981 0.29309568 -0.23564699
-0.40974706 0.29442996 -0.23472574
-0.3910628 0.29331869 -0.23641941
-0.37000248 0.29217547 -0.238805
-0.3603448 0.29466522 -0.23514885
-0.33916885 0.29348472 -0.23747095
-0.31507352 0.29243439 -0.24079055
-0.31100211 0.29466516 -0.23514873
-0.28677878 0.29361537 -0.23847285
-0.26165953 0.29466516 -0.23514873
-0.25911993 0.29269806 -0.24281299
-0.2337811 0.29360378 -0.23950544
-0.21231684 0.29466513 -0.23514861
-0.18895 0.29318219 -0.24029514
-0.18764549 0.29466516 -0.23514873
-0.16297418 0.29466522 -0.23514885
-0.13830277 0.29466516 -0.23514873
-0.11363142 0.29466516 -0.23514873
-0.088960215 0.29466513 -0.23514861
-0.06428881 0.29466516 -0.23514873
-0.039617408 0.29466516 -0.23514873
-0.014946159 0.29466513 -0.23514861
0.0045254827 0.29629159 -0.22684345
0.0097251907 0.29466516 -0.23514873
0.035008535 0.29540613 -0.23150325
0.059067897 0.29466513 -0.23514861
0.067038834 0.29598609 -0.22888345
0.083739199 0.29466516 -0.23514873
0.10359278 0.29524416 -0.23253402
0.13582054 0.29496166 -0.23577383
0.16064897 0.29486325 -0.23360258
0.18242458 0.29466516 -0.23514873
0.19752699 0.2932494 -0.23325166
0.20709586 0.29466516 -0.23514873
0.23182845 0.29304862 -0.23480409
0.25643852 0.29466516 -0.23514873
0.28110984 0.29466522 -0.23514885
0.30578139 0.29466516 -0.23514873
0.33045265 0.29466513 -0.23514861
0.35512394 0.29466516 -0.23514873
0.36466372 0.2945064 -0.23859715
0.42811358 0.29826114 -0.2416167
0.50187993 0.29870746 -0.24281955
0.5333159 0.30796391 -0.23968223
0.55461395 0.30356944 -0.23678154
0.57551086 0.30052453 -0.23157901
0.62195837 0.29508272 -0.23929083
0.65114403 0.29474914 -0.2352998
0.67575818 0.29487523 -0.23552671
0.68924016 0.29602185 -0.22799516
-0.70103073 0.31880501 -0.24190858
-0.6766327 0.32590219 -0.24095297
-0.66481948 0.31263554 -0.22686091
-0.64021468 0.31268623 -0.22775421
-0.58514351 0.31918457 -0.23626924
-0.56504315 0.31275997 -0.23048782
-0.53552818 0.31681269 -0.23085338
0.40530398 0.3107568 -0.24395269
0.42629632 0.32549316 -0.24020386
0.43203208 0.3134388 -0.23420393
0.50963026 0.31275785 -0.23141766
0.52441949 0.31391048 -0.24275288
0.56311637 0.31126043 -0.24414468
0.57403946 0.32377294 -0.23705286
-0.61281043 0.32965556 -0.24382216
-0.52173114 0.32846215 -0.23113999
0.40911978 0.32901093 -0.23601919
0.54891956 0.3292807 -0.23614159
0.57834142 0.32943076 -0.23609632
-0.71127802 -0.33394909 -0.2200267
-0.51575047 -0.33064121 -0.21495366
0.40628824 -0.33378163 -0.21334919
0.56451201 -0.32947105 -0.21673125
-0.72931343 -0.31325504 -0.22563922
-0.7137813 -0.31648067 -0.22415286
-0.67111617 -0.3264465 -0.21904343
-0.60375684 -0.31915095 -0.21746963
0.36669019 -0.31180808 -0.21193677
0.39432171 -0.31175497 -0.21018338
0.42330429 -0.31660378 -0.21199468
0.46545547 -0.3192586 -0.21439326
0.4776935 -0.32030293 -0.21003997
0.50652635 -0.31317434 -0.21583569
0.5373221 -0.31920883 -0.21643141
0.58819973 -0.32600361 -0.21090689
-0.86967957 -0.30446044 -0.21516877
-0.85284179 -0.30134761 -0.21934947
-0.83540988 -0.30233374 -0.21341762
-0.81501943 -0.30166075 -0.22002077
-0.79739088 -0.30531046 -0.22362784
-0.77793479 -0.30163309 -0.22022697
-0.76095992 -0.30204374 -0.21289587
-0.73584026 -0.30005953 -0.21752506
-0.71018338 -0.30439597 -0.21712673
-0.69360465 -0.30048105 -0.22500834
-0.66200501 -0.29592791 -0.22018418
-0.56816745 -0.31049216 -0.21443638
-0.54608196 -0.29363891 -0.21019036
-0.51069456 -0.30708042 -0.22195506
-0.49822333 -0.3018308 -0.21131065
-0.4786641 -0.29738605 -0.21492341
-0.47198465 -0.30191174 -0.21215597
-0.44427618 -0.29990527 -0.21345171
-0.41329169 -0.30016774 -0.21337256
-0.39182839 -0.30215859 -0.2147381
-0.37291789 -0.29869756 -0.21186757
-0.36461851 -0.30224249 -0.21561471
-0.33778527 -0.30072883 -0.21368486
-0.3068634 -0.30097803 -0.2136384
-0.28146797 -0.30249867 -0.21829346
-0.25323218 -0.30258569 -0.219203
-0.22473085 -0.30267361 -0.22012115
-0.19596016 -0.30276233 -0.22104809
-0.16691625 -0.3028518 -0.22198373
-0.13759536 -0.30294213 -0.22292826
-0.1079933 -0.30303329 -0.22388202
-0.089644819 -0.29999247 -0.20920643
-0.071418233 -0.30163288 -0.2171725
-0.047707722 -0.30288824 -0.22584128
-0.039840728 -0.30030897 -0.20977561
-0.014946107 -0.30047154 -0.21006812
0.012150556 -0.29919031 -0.21829161
0.034828186 -0.30077949 -0.21062189
0.044820473 -0.29799452 -0.22522363
0.067349441 -0.29950976 -0.21742791
0.084602378 -0.30077949 -0.21062189
0.1071711 -0.29962707 -0.21693039
0.1344032 -0.2997475 -0.21644533
0.16149932 -0.29980263 -0.21584958
0.18849683 -0.29953566 -0.21468127
0.20916709 -0.2998727 -0.20899093
0.22776324 -0.2996527 -0.21421009
0.24991322 -0.29966414 -0.21849597
0.26413938 -0.30292636 -0.209218
0.27809826 -0.29989359 -0.21757141
0.30460289 -0.30294874 -0.21353498
0.33554894 -0.30295834 -0.21357095
0.35836092 -0.30077949 -0.21062189
0.36106059 -0.30055478 -0.21485066
0.38904363 -0.30127922 -0.21961421
0.49738371 -0.30788097 -0.21005318
0.58819973 -0.30342302 -0.21090689
0.62504601 -0.30361018 -0.21963161
0.63215095 -0.30070242 -0.21048328
0.65899408 -0.30311126 -0.21586356
0.68132961 -0.30205217 -0.2129111
0.70281076 -0.30335712 -0.2172375
0.73112452 -0.3019242 -0.21268091
0.73811352 -0.30430382 -0.22280297
0.75602698 -0.30185583 -0.21255794
0.78092724 -0.30179605 -0.21245039
0.80674917 -0.29997543 -0.20917569
-0.87204272 -0.28188905 -0.20930362
-0.51807213 -0.28332612 -0.22051734
0.71516746 -0.29213893 -0.21994612
0.74076062 -0.29037884 -0.21198958
0.75621128 -0.28031933 -0.22496039
-0.87499458 -0.26678011 -0.21596268
0.42849752 -0.27558935 -0.21397513
0.71478075 -0.26865789 -0.22230926
0.74232388 -0.27132288 -0.21371567
0.78349084 -0.27550906 -0.21646276
0.71516746 -0.24871375 -0.21994612
0.74076062 -0.24722445 -0.21198958
0.76013249 -0.25095063 -0.2237955
0.78756285 -0.24602669 -0.21525109
-0.87204272 -0.24004076 -0.20930362
-0.85955018 -0.23336491 -0.22661448
0.61835885 -0.22465143 -0.2096613
0.7127884 -0.22972631 -0.2229358
0.74024415 -0.23245142 -0.21436954
-0.88052201 -0.2153749 -0.2259002
-0.87204272 -0.21911664 -0.20930362
-0.72142184 -0.21464378 -0.2113021
-0.69653994 -0.21379311 -0.20985189
-0.65567136 -0.21092398 -0.20986171
0.71516746 -0.20528859 -0.21994612
0.73560953 -0.20503211 -0.21805951
0.76409763 -0.22127268 -0.22260326
0.79168111 -0.21623306 -0.21401152
-0.87204272 -0.19819251 -0.20930362
-0.65567136 -0.18858524 -0.20986171
0.61835885 -0.19396913 -0.2096613
0.74076062 -0.20407008 -0.21198958
0.76810378 -0.19128953 -0.22139886
-0.87204272 -0.17726837 -0.20930362
-0.72469598 -0.18539397 -0.21152267
-0.69970036 -0.18452419 -0.2100658
0.71516746 -0.183576 -0.21994612
0.73154014 -0.17119192 -0.2193391
0.74076062 -0.18249288 -0.21198958
0.76069814 -0.17773382 -0.21022849
0.79583734 -0.18614121 -0.2127746
-0.87204272 -0.15634423 -0.20930362
-0.85701561 -0.16110414 -0.22291109
-0.73074007 -0.16172384 -0.21807456
-0.70288646 -0.15499218 -0.21029747
-0.65567136 -0.1662465 -0.20986171
-0.50566131 -0.15551563 -0.21873474
0.61835885 -0.16328682 -0.2096613
0.71516746 -0.16186342 -0.21994612
0.74076062 -0.16091567 -0.21198958
0.77214706 -0.16100584 -0.22019753
0.8000412 -0.15572827 -0.21150935
-0.87204272 -0.1354201 -0.20930362
-0.73350006 -0.14497496 -0.21033128
-0.65567136 -0.14390776 -0.20986171
0.62297493 -0.14249171 -0.21384609
0.71516746 -0.14015083 -0.21994612
0.72751045 -0.13770521 -0.22062093
0.74076062 -0.13933849 -0.21198958
0.75650221 -0.1441157 -0.21154749
-0.73133218 -0.12608291 -0.2119858
-0.70610619 -0.12517425 -0.21051562
-0.6808539 -0.12426461 -0.20904374
-0.65567136 -0.12156902 -0.20986171
0.34815767 -0.13098308 -0.21023023
0.62047571 -0.13220046 -0.21544591
0.71516746 -0.11843824 -0.21994612
0.74076062 -0.11776129 -0.21198958
0.77623671 -0.13039832 -0.21896821
0.80428439 -0.12500803 -0.21024665
-0.87204272 -0.11449597 -0.20930362
-0.65567136 -0.099230267 -0.20986171
0.61835885 -0.10192221 -0.2096613
0.72352827 -0.10458928 -0.22187307
0.7523371 -0.10790949 -0.21967146
0.78036445 -0.099480741 -0.21774176
-0.87204272 -0.093571834 -0.20930362
-0.7339077 -0.097958483 -0.2153205
-0.70935607 -0.095075861 -0.21073556
-0.68398684 -0.094146289 -0.20925714
0.71516746 -0.09672565 -0.21994612
0.74076062 -0.09618409 -0.21198958
-0.87204272 -0.072647698 -0.20930362
-0.86099327 -0.072015814 -0.21811527
-0.71263278 -0.064703435 -0.21097377
-0.68714923 -0.063743226 -0.20947243
-0.65567136 -0.076891527 -0.20986171
0.61835885 -0.071239904 -0.2096613
0.67905158 -0.069549464 -0.22290897
0.71516746 -0.075013064 -0.21994612
0.72406298 -0.076068133 -0.21880898
0.74450052 -0.076277278 -0.21307451
0.75634313 -0.073845118 -0.22526851
0.78454006 -0.068228766 -0.21648642
-0.87204272 -0.051723562 -0.20930362
-0.65567136 -0.054552779 -0.20986171
0.71516746 -0.05330047 -0.21994612
0.74246913 -0.049213722 -0.21371305
-0.87204272 -0.03079943 -0.20930362
-0.71594459 -0.034032471 -0.21119815
-0.69033796 -0.033061754 -0.20970578
-0.65567136 -0.032214038 -0.20986171
0.61835885 -0.040557601 -0.2096613
0.71516746 -0.031587884 -0.21994612
0.7156865 -0.039401151 -0.22435316
0.74076062 -0.031452492 -0.21198958
0.76040131 -0.042391472 -0.22405007
0.7887553 -0.036657281 -0.21523398
-0.88650888 -0.024907269 -0.21324629
0.74015361 -0.01318208 -0.21671578
0.76449811 -0.010616004 -0.22283524
-0.87204272 -0.0098752966 -0.20930362
-0.719284 -0.0030795061 -0.21144068
-0.6935609 -0.0020770975 -0.20992509
-0.65567136 -0.0098752966 -0.20986171
0.61835885 -0.0098752966 -0.2096613
0.71349871 -0.0086020129 -0.22275585
0.74076062 -0.0098752966 -0.21198958
0.7930153 -0.0047512432 -0.21396822
-0.86914152 0.01411402 -0.21128821
-0.65567136 0.012463447 -0.20986171
0.61835885 0.020807009 -0.2096613
0.71516746 0.011837292 -0.21994612
0.73846847 0.015192807 -0.21497774
0.76451576 0.012924591 -0.20911147
0.76863837 0.021497408 -0.22160685
-0.87204272 0.031972975 -0.20930362
-0.72265941 0.028180445 -0.2116695
-0.69681084 0.02919363 -0.2101631
-0.65567136 0.034802191 -0.20986171
-0.4845385 0.033784069 -0.22476098
0.71516746 0.033549882 -0.21994612
0.74076062 0.033279099 -0.21198958
0.79732507 0.027505836 -0.21267277
-0.87204272 0.052897103 -0.20930362
-0.72606719 0.059741676 -0.21190032
-0.70009595 0.060776517 -0.21038684
-0.65567136 0.057140931 -0.20986171
0.61835885 0.051489316 -0.2096613
0.71516746 0.055262469 -0.21994612
0.73223639 0.050225616 -0.21921888
0.74076062 0.0548563 -0.21198958
0.76041889 0.044585124 -0.21039888
0.77282709 0.053964704 -0.22034955
0.80167657 0.060097679 -0.21137965
-0.88175976 0.06464798 -0.21809152
-0.87204272 0.073821239 -0.20930362
-0.7339319 0.078148112 -0.21522543
0.70786482 0.070139915 -0.21911758
0.74076062 0.076433495 -0.21198958
0.75636047 0.075924464 -0.21168864
-0.87204272 0.094745375 -0.20930362
-0.72950405 0.091596909 -0.21214974
-0.70341301 0.092665337 -0.2106127
-0.67728984 0.093723528 -0.20909034
-0.65567136 0.079479672 -0.20986171
0.61835885 0.082171619 -0.2096613
0.72834194 0.081428364 -0.22044271
0.77705663 0.08676973 -0.21909478
0.80607969 0.093052082 -0.21005629
-0.65567136 0.10181842 -0.20986171
0.34883377 0.10159542 -0.22463468
0.62026459 0.11302673 -0.21637926
0.71516746 0.098687649 -0.21994612
0.72448355 0.11231736 -0.22166982
0.74076062 0.098010696 -0.21198958
0.75234872 0.10692766 -0.21294913
-0.87204272 0.1156695 -0.20930362
-0.73297834 0.12377317 -0.21238521
-0.70675832 0.12485269 -0.21085736
-0.68050975 0.12593339 -0.2093277
-0.65567136 0.12415715 -0.20986171
0.62341225 0.12410963 -0.211909
0.71516746 0.12040023 -0.21994612
0.74076062 0.11958789 -0.21198958
0.78133637 0.11994038 -0.2178103
-0.87204272 0.13659364 -0.20930362
-0.73345822 0.14774531 -0.22448617
-0.65567136 0.14649591 -0.20986171
-0.48486143 0.14838284 -0.21874723
0.61835885 0.14353622 -0.2096613
0.71516746 0.14211282 -0.21994612
0.72066915 0.14287783 -0.2228685
0.74456733 0.13939236 -0.21310103
0.75648427 0.14694679 -0.22559813
-0.87514186 0.15586081 -0.21610031
-0.71014029 0.15736617 -0.21108776
-0.68376535 0.15846989 -0.20955081
0.71516746 0.16382541 -0.21994612
0.74076062 0.16274229 -0.21198958
0.78565782 0.15345974 -0.21652818
-0.87204272 0.17844191 -0.20930362
-0.65567136 0.16883464 -0.20986171
0.61835885 0.17421854 -0.2096613
0.71688986 0.17313389 -0.22407067
0.74260277 0.17615275 -0.21371832
0.76068002 0.18068704 -0.22435582
-0.87204272 0.19936605 -0.20930362
-0.71355128 0.19018714 -0.21133718
-0.68705273 0.19132626 -0.20977603
-0.65567136 0.19117339 -0.20986171
0.71516746 0.18553801 -0.21994612
0.74055159 0.19805039 -0.21668461
0.79003119 0.18735687 -0.2152155
-0.87204272 0.2202902 -0.20930362
-0.86136538 0.20722882 -0.22591403
-0.65567136 0.21351215 -0.20986171
0.61835885 0.20490085 -0.2096613
0.71416038 0.20516105 -0.22259542
0.74076062 0.20589669 -0.21198958
0.7649219 0.21479627 -0.22309965
-0.88116509 0.22671616 -0.22660106
-0.71700019 0.22334406 -0.21157232
-0.69036859 0.22449489 -0.21002017
-0.64865828 0.22076689 -0.20965207
0.61835885 0.23558316 -0.2096613
0.71230906 0.23083851 -0.22318426
0.73873132 0.22763649 -0.21494174
0.7641148 0.22286345 -0.20932929
0.79444784 0.22161412 -0.21390516
-0.87204272 0.24121433 -0.20930362
-0.69073153 0.24861649 -0.22271132
-0.68307209 0.25327572 -0.22183076
-0.52854311 0.24861628 -0.22271132
-0.51447296 0.25414565 -0.21361369
0.41756424 0.24865401 -0.22266147
0.57974166 0.24860382 -0.22272801
0.71516746 0.25067577 -0.21994612
0.74076062 0.24905109 -0.21198958
0.76015341 0.25242475 -0.21057361
0.76921499 0.24929324 -0.22181296
-0.87204272 0.26213849 -0.20930362
-0.85910571 0.26427811 -0.22263432
-0.50364399 0.25791633 -0.21036783
0.40830767 0.25920844 -0.22255731
0.71516746 0.27238837 -0.21994612
0.73288751 0.25725496 -0.2191065
0.74076062 0.27062827 -0.21198958
0.79891336 0.25624925 -0.21258032
-0.87204272 0.28306261 -0.20930362
-0.73437732 0.28603119 -0.21961927
-0.54709041 0.28128874 -0.21669444
-0.52601135 0.28558761 -0.21022716
-0.51257789 0.28137928 -0.21125212
-0.50542718 0.28887224 -0.21437186
-0.0071081184 0.29134843 -0.22621837
0.3950544 0.28807646 -0.21774676
0.40667507 0.28645587 -0.22038314
0.5815596 0.2909098 -0.21807668
0.72911555 0.28640485 -0.22029144
0.75622791 0.28169534 -0.21182078
0.77355081 0.28415927 -0.22052893
0.80343318 0.29128167 -0.21122402
-0.87478405 0.29824719 -0.21742243
-0.84870923 0.29792118 -0.22103009
-0.83778644 0.29275903 -0.22440398
-0.82566124 0.29806349 -0.22186118
-0.80028039 0.29525399 -0.22301534
-0.77854025 0.29727626 -0.22362405
-0.75960606 0.29328743 -0.22216484
-0.75475639 0.29710132 -0.22450057
-0.7101655 0.30508751 -0.22565416
-0.50182819 0.29202652 -0.21491995
-0.47832343 0.29443413 -0.21130773
-0.46607056 0.29239625 -0.21388999
-0.45199534 0.29457074 -0.21215296
-0.42806262 0.2937353 -0.21293855
-0.39716002 0.29398575 -0.21286488
-0.37156615 0.29498813 -0.21473527
-0.36108792 0.29346552 -0.21086681
-0.34426358 0.29512957 -0.2156117
-0.3217687 0.29454628 -0.21318826
-0.28889912 0.29541701 -0.21738911
-0.2608299 0.29556248 -0.21829021
-0.23249799 0.29570964 -0.21919993
-0.20389953 0.29585785 -0.22011805
-0.1750401 0.29602221 -0.22104397
-0.14589754 0.29617348 -0.22197956
-0.11647691 0.29632613 -0.2229239
-0.08677429 0.29648027 -0.22387758
-0.056775771 0.29662129 -0.22484154
-0.026282124 0.29646462 -0.22583702
0.023460113 0.29153043 -0.22521913
0.053727478 0.29171044 -0.22422984
0.083689235 0.2918742 -0.22325119
0.11336914 0.29205102 -0.22228089
0.14276135 0.29222617 -0.22132006
0.17187011 0.29239953 -0.22036862
0.20069963 0.29257119 -0.21942621
0.2292538 0.29274139 -0.21849278
0.25753647 0.29290977 -0.21756822
0.28554344 0.2930623 -0.2166535
0.29179901 0.30022305 -0.2094409
0.31329513 0.29322794 -0.21574637
0.33329782 0.29673436 -0.21262935
0.3601636 0.29994491 -0.21139035
0.38962686 0.30606478 -0.21194455
0.42533198 0.30469468 -0.21223903
0.49365801 0.30805638 -0.21480045
0.58819973 0.30625305 -0.21090689
0.6487782 0.29860529 -0.21962804
0.68493706 0.30023572 -0.22057769
0.71516746 0.29410094 -0.21994612
0.72335768 0.29989696 -0.22168177
0.74076062 0.29220548 -0.21198958
0.76221198 0.29955447 -0.22279817
-0.72156799 0.32123265 -0.2119467
-0.7137813 0.31863049 -0.22415286
-0.6959427 0.31809106 -0.22251189
-0.66845405 0.31831601 -0.21804345
-0.66429329 0.31400344 -0.21851525
-0.61399144 0.31832504 -0.21802443
-0.58866239 0.31613934 -0.21723577
-0.56095189 0.31432402 -0.22638765
-0.54518765 0.32413 -0.2146768
-0.50722641 0.32006797 -0.21838826
0.39271143 0.31692868 -0.21794418
0.40516824 0.31319067 -0.21498194
0.42073643 0.31827939 -0.21811971
0.45302725 0.31385544 -0.21338367
0.47954714 0.31555861 -0.21362957
0.5024175 0.31830686 -0.21806246
0.52443373 0.31389454 -0.2154046
0.55659133 0.31907353 -0.21645993
0.587834 0.32431191 -0.21672332
-0.69615465 0.32831013 -0.22479585
0.38715035 0.32859039 -0.21150261
0.58819973 0.32883367 -0.21090689
-0.73907375 -0.33628803 -0.20170765
-0.70079833 -0.33479291 -0.19156682
-0.53940761 -0.33227777 -0.20838213
0.58722323 -0.33616158 -0.20566298
-0.89230669 -0.31210133 -0.19801345
-0.86925215 -0.31131285 -0.19880114
-0.72249645 -0.31749645 -0.20054361
-0.70829213 -0.3205083 -0.20353082
-0.69573206 -0.31479251 -0.20395607
-0.6809932 -0.31977987 -0.19797499
-0.63470227 -0.32044989 -0.20591646
-0.61404115 -0.31478322 -0.20397508
-0.60972524 -0.32040754 -0.2067275
-0.50723517 -0.31659311 -0.20395935
0.39561847 -0.31830594 -0.20172149
0.44798842 -0.3147926 -0.20395596
0.4752171 -0.31480178 -0.20393705
0.52967972 -0.31480178 -0.20393716
0.5546391 -0.32037827 -0.20754483
0.5566389 -0.31554323 -0.20241722
0.60541439 -0.3264823 -0.20583993
0.69280952 -0.31167847 -0.19300669
0.73140913 -0.31127524 -0.19395977
-0.88766533 -0.30218256 -0.19515538
-0.84613162 -0.3076148 -0.19792899
-0.82296908 -0.31089115 -0.20032187
-0.80311555 -0.30751905 -0.198213
-0.77588451 -0.31048846 -0.20186737
-0.76766485 -0.30465835 -0.19437467
-0.51686722 -0.30828834 -0.20488146
-0.46382236 -0.29759258 -0.20488991
-0.43884084 -0.29775584 -0.20518349
-0.41386676 -0.29791021 -0.2054612
-0.38889557 -0.29807323 -0.20575425
-0.36787552 -0.30810058 -0.19129677
-0.36392951 -0.29823619 -0.20604751
-0.33958435 -0.30304471 -0.19921233
-0.31401441 -0.29855353 -0.20661817
-0.31226271 -0.30730745 -0.19290866
-0.28656027 -0.30281433 -0.20031847
-0.26731116 -0.29941911 -0.20804836
-0.25557679 -0.30651337 -0.19455081
-0.23435408 -0.30183887 -0.20360276
-0.21424365 -0.29919618 -0.20777418
-0.197025 -0.30194741 -0.20375443
-0.17126352 -0.30119824 -0.20604001
-0.16657721 -0.30265287 -0.20269373
-0.13927148 -0.3023926 -0.20386945
