ply
format ascii 1.0
comment PCL generated
element vertex 1262
property float x
property float y
property float z
element camera 1
property float view_px
property float view_py
property float view_pz
property float x_axisx
property float x_axisy
property float x_axisz
property float y_axisx
property float y_axisy
property float y_axisz
property float z_axisx
property float z_axisy
property float z_axisz
property float focal
property float scalex
property float scaley
property float centerx
property float centery
property int viewportx
property int viewporty
property float k1
property float k2
end_header
0.070787638 -0.22911507 -0.28873205
0.086737245 -0.2280972 -0.29890299
0.070787638 -0.2122259 -0.28873211
0.086737245 -0.21128641 -0.29890287
0.070787638 -0.19533673 -0.28873211
0.086737245 -0.19447553 -0.29890287
0.070787638 -0.17844757 -0.28873211
0.086737245 -0.17766468 -0.29890287
0.070787638 -0.1615584 -0.28873217
0.086737245 -0.16085383 -0.29890287
0.070787638 -0.14466925 -0.28873217
0.086737245 -0.14404291 -0.29890287
0.070787638 -0.12778018 -0.28873211
0.086737245 -0.12723207 -0.29890287
0.070787638 -0.11089095 -0.28873205
0.086737245 -0.11042116 -0.29890287
0.070787638 -0.094001763 -0.28873211
0.086737245 -0.093610331 -0.29890287
0.070787638 -0.077112615 -0.28873211
0.086737245 -0.076799497 -0.29890287
0.070787638 -0.060223445 -0.28873211
0.086737245 -0.059988551 -0.29890287
0.070787638 -0.043334279 -0.28873217
0.086737245 -0.04317772 -0.29890293
0.070787638 -0.026445109 -0.28873217
0.086737245 -0.026366819 -0.29890287
0.070787638 -0.0095559414 -0.28873217
0.086737245 -0.0095559862 -0.29890287
0.070787638 0.0073332926 -0.28873217
0.086737245 0.0072549572 -0.29890287
0.070787638 0.024222348 -0.28873199
0.086737245 0.024065789 -0.29890293
0.070787638 0.04111154 -0.28873205
0.086737245 0.040876623 -0.29890287
0.070787638 0.058000706 -0.28873211
0.086737245 0.057687543 -0.29890287
0.070787638 0.074889854 -0.28873211
0.086737245 0.0744984 -0.29890293
0.070787638 0.091779038 -0.28873211
0.086737245 0.091309316 -0.29890293
0.070787638 0.10866821 -0.28873211
0.086737245 0.10812017 -0.29890299
0.070787638 0.12555742 -0.28873211
0.086737245 0.12493102 -0.29890299
0.070787638 0.14244659 -0.28873217
0.086737245 0.14174189 -0.29890293
0.070787638 0.15933567 -0.28873205
0.086737245 0.15855277 -0.29890299
0.070787638 0.17622487 -0.28873205
0.086737245 0.17536367 -0.29890299
0.070787638 0.19311403 -0.28873211
0.086737245 0.19217451 -0.29890299
0.070787638 0.21000315 -0.28873211
0.086737245 0.20898542 -0.29890293
0.070787638 0.22689235 -0.28873211
0.086737245 0.22579628 -0.29890299
0.10465993 -0.22920902 -0.2877931
0.12276483 -0.23033124 -0.27657956
0.10465993 -0.21231273 -0.28779304
0.12276483 -0.21334852 -0.27657944
0.10465993 -0.19541626 -0.28779316
0.12276483 -0.19636577 -0.27657944
0.10465993 -0.17851987 -0.2877931
0.12276483 -0.17938308 -0.27657944
0.10465993 -0.16162351 -0.28779304
0.12276483 -0.16240044 -0.27657944
0.10465993 -0.14472711 -0.28779316
0.12276483 -0.14541772 -0.27657944
0.12276483 -0.12843491 -0.27657944
0.10465993 -0.12783073 -0.28779304
0.10465993 -0.11093425 -0.28779316
0.12276483 -0.11145219 -0.27657944
0.10465993 -0.094037965 -0.28779316
0.12276483 -0.094469562 -0.27657944
0.10465993 -0.077141576 -0.28779304
0.12276483 -0.077486835 -0.27657944
0.10465993 -0.060245097 -0.28779316
0.12276483 -0.060504112 -0.27657944
0.10465993 -0.043348726 -0.28779304
0.12276483 -0.043521367 -0.2765795
0.10465993 -0.026452333 -0.28779322
0.12276483 -0.026538666 -0.2765795
0.10465993 -0.0095559414 -0.28779316
0.12276483 -0.00955592 -0.27657944
0.10465993 0.0073404284 -0.28779304
0.12276483 0.0074267806 -0.27657944
0.10465993 0.024236906 -0.28779316
0.12276483 0.024409436 -0.27657938
0.10465993 0.04113321 -0.2877931
0.12276483 0.04139214 -0.27657938
0.10465993 0.058029577 -0.28779304
0.12276483 0.058374949 -0.2765795
0.10465993 0.074926034 -0.28779316
0.12276483 0.075357608 -0.27657944
0.10465993 0.091822386 -0.2877931
0.12276483 0.092340328 -0.27657944
0.10465993 0.1087188 -0.28779316
0.12276483 0.10932308 -0.27657938
0.10465993 0.12561519 -0.2877931
0.12276483 0.12630576 -0.27657938
0.10465993 0.14251159 -0.28779304
0.12276483 0.14328842 -0.27657938
0.10465993 0.159408 -0.28779316
0.12276483 0.16027123 -0.27657944
0.10465993 0.17630436 -0.2877931
0.12276483 0.17725398 -0.27657944
0.10465993 0.19320083 -0.28779316
0.12276483 0.19423665 -0.27657938
0.10465993 0.21009719 -0.28779316
0.12276483 0.21121931 -0.27657944
0.10465993 0.2269935 -0.2877931
0.12276483 0.22820203 -0.27657938
0.055758595 -0.23153324 -0.26456851
0.1410557 -0.23146494 -0.26525068
0.055758595 -0.21445806 -0.26456839
0.1410557 -0.21439506 -0.26525056
0.055758595 -0.1973829 -0.26456833
0.1410557 -0.19732513 -0.26525068
0.055758595 -0.18030772 -0.26456833
0.1410557 -0.18025525 -0.26525056
0.055758595 -0.16323248 -0.26456845
0.1410557 -0.16318527 -0.26525056
0.055758595 -0.14615737 -0.26456839
0.1410557 -0.14611529 -0.26525068
0.055758595 -0.12908222 -0.26456839
0.1410557 -0.12904547 -0.26525056
0.055758595 -0.11200705 -0.26456833
0.1410557 -0.11197553 -0.26525068
0.055758595 -0.094931789 -0.26456845
0.1410557 -0.094905481 -0.26525068
0.055758595 -0.077856593 -0.26456839
0.1410557 -0.077835657 -0.26525062
0.055758595 -0.060781509 -0.26456839
0.1410557 -0.060765713 -0.26525068
0.055758595 -0.043706335 -0.26456839
0.1410557 -0.043695863 -0.26525062
0.055758595 -0.026631184 -0.26456833
0.1410557 -0.026625838 -0.26525068
0.055758595 -0.00955592 -0.26456845
0.1410557 -0.0095558977 -0.26525068
0.055758595 0.0075192535 -0.26456839
0.1410557 0.0075139524 -0.26525062
0.055758595 0.024594404 -0.26456833
0.1410557 0.024583891 -0.26525068
0.055758595 0.041669536 -0.26456833
0.1410557 0.041653831 -0.26525056
0.055758595 0.058744796 -0.26456845
0.1410557 0.058723748 -0.26525068
0.055758595 0.075819969 -0.26456839
0.1410557 0.075793728 -0.26525068
0.055758595 0.092895105 -0.26456839
0.1410557 0.092863582 -0.26525062
0.055758595 0.10997028 -0.26456833
0.1410557 0.10993356 -0.26525068
0.055758595 0.12704545 -0.26456851
0.1410557 0.12700342 -0.26525056
0.055758595 0.14412065 -0.26456845
0.1410557 0.1440734 -0.26525068
0.055758595 0.16119581 -0.26456839
0.1410557 0.16114335 -0.26525068
0.055758595 0.17827101 -0.26456833
0.1410557 0.17821321 -0.26525056
0.055758595 0.19534618 -0.26456833
0.1410557 0.19528314 -0.26525068
0.055758595 0.21242145 -0.26456839
0.1410557 0.21235305 -0.26525056
0.055758595 0.22949652 -0.26456839
0.1410557 0.22942299 -0.26525068
0.15953538 -0.2326104 -0.25380486
0.15953538 -0.21545234 -0.25380492
0.15953538 -0.19829436 -0.25380474
0.15953538 -0.1811363 -0.25380486
0.15953538 -0.16397822 -0.25380486
0.15953538 -0.14682017 -0.25380492
0.15953538 -0.12966225 -0.25380486
0.15953538 -0.11250415 -0.25380486
0.15953538 -0.09534613 -0.25380492
0.15953538 -0.078188114 -0.25380474
0.15953538 -0.061030079 -0.25380486
0.15953538 -0.043871973 -0.25380486
0.15953538 -0.026713956 -0.25380492
0.15953538 -0.0095559638 -0.25380474
0.15953538 0.0076020723 -0.25380486
0.15953538 0.024760175 -0.25380492
0.15953538 0.041918125 -0.25380474
0.15953538 0.059076123 -0.25380486
0.15953538 0.076234244 -0.25380486
0.15953538 0.093392283 -0.25380492
0.15953538 0.11055028 -0.25380474
0.15953538 0.12770832 -0.25380486
0.15953538 0.14486644 -0.25380492
0.15953538 0.16202433 -0.25380474
0.15953538 0.17918245 -0.25380474
0.15953538 0.1963405 -0.25380486
0.15953538 0.21349858 -0.25380492
0.15953538 0.23065652 -0.25380474
0.040395513 -0.23400624 -0.23985642
0.17820683 -0.23376775 -0.24224031
0.19707304 -0.23493707 -0.23055512
0.19707304 -0.21760012 -0.23055512
0.040395513 -0.21674089 -0.2398563
0.17820683 -0.21652058 -0.24224031
0.040395513 -0.19947551 -0.2398563
0.17820683 -0.19927365 -0.24224031
0.19707304 -0.2002631 -0.23055512
0.040395513 -0.18221009 -0.2398563
0.17820683 -0.18202657 -0.24224037
0.19707304 -0.18292607 -0.23055512
0.040395513 -0.16494466 -0.2398563
0.17820683 -0.16477948 -0.24224019
0.19707304 -0.16558897 -0.23055518
0.040395513 -0.14767927 -0.2398563
0.17820683 -0.14753245 -0.24224037
0.19707304 -0.14825203 -0.23055518
0.040395513 -0.13041376 -0.23985642
0.17820683 -0.13028531 -0.24224037
0.19707304 -0.13091505 -0.23055518
0.19707304 -0.11357799 -0.23055512
0.040395513 -0.11314839 -0.23985642
0.17820683 -0.11303833 -0.24224031
0.040395513 -0.095882989 -0.2398563
0.17820683 -0.095791198 -0.24224037
0.19707304 -0.09624102 -0.23055512
0.040395513 -0.07861761 -0.23985642
0.17820683 -0.078544222 -0.24224031
0.19707304 -0.078903995 -0.23055512
0.040395513 -0.061352231 -0.2398563
0.17820683 -0.06129707 -0.24224037
0.19707304 -0.061567001 -0.23055512
0.040395513 -0.044086833 -0.2398563
0.17820683 -0.044050116 -0.24224019
0.19707304 -0.044230048 -0.23055512
0.040395513 -0.026821364 -0.2398563
0.17820683 -0.026802961 -0.24224037
0.19707304 -0.026892915 -0.23055518
0.17820683 -0.0095559862 -0.24224031
0.19707304 -0.0095559414 -0.23055518
0.040395513 -0.0095558977 -0.23985642
0.040395513 0.0077095022 -0.2398563
0.17820683 0.007691144 -0.24224031
0.19707304 0.0077811005 -0.23055512
0.040395513 0.024974879 -0.23985642
0.17820683 0.024938144 -0.24224019
0.19707304 0.025118075 -0.23055512
0.040395513 0.042240281 -0.2398563
0.17820683 0.042185184 -0.24224031
0.19707304 0.042455047 -0.23055512
0.040395513 0.059505679 -0.2398563
0.17820683 0.059432358 -0.24224037
0.19707304 0.059792086 -0.23055512
0.040395513 0.076771058 -0.2398563
0.17820683 0.076679289 -0.24224031
0.19707304 0.077129066 -0.23055512
0.040395513 0.09403646 -0.2398563
0.17820683 0.093926467 -0.24224037
0.19707304 0.094466195 -0.23055512
0.040395513 0.11130199 -0.23985642
0.17820683 0.11117344 -0.24224031
0.19707304 0.11180317 -0.23055518
0.040395513 0.12856738 -0.23985642
0.17820683 0.12842056 -0.24224031
0.19707304 0.12914012 -0.23055518
0.040395513 0.14583279 -0.23985642
0.17820683 0.14566755 -0.24224031
0.19707304 0.14647719 -0.23055512
0.040395513 0.16309816 -0.2398563
0.17820683 0.16291471 -0.24224037
0.19707304 0.16381414 -0.23055512
0.040395513 0.18036355 -0.2398563
0.17820683 0.18016164 -0.24224031
0.19707304 0.18115121 -0.23055512
0.040395513 0.19762896 -0.2398563
0.17820683 0.19740881 -0.24224031
0.19707304 0.19848816 -0.230555
0.040395513 0.21489434 -0.2398563
0.17820683 0.21465579 -0.24224019
0.19707304 0.21582511 -0.23055512
0.040395513 0.23215973 -0.2398563
0.17820683 0.23190293 -0.24224031
0.19707304 0.23316227 -0.23055518
0.024685621 -0.23653394 -0.21459776
0.21613705 -0.23611879 -0.21874738
0.024685621 -0.21907417 -0.21459776
0.21613705 -0.21869087 -0.21874744
0.024685621 -0.20161428 -0.21459776
0.21613705 -0.20126283 -0.21874756
0.024685621 -0.18415453 -0.21459776
0.21613705 -0.18383501 -0.21874738
0.024685621 -0.16669463 -0.21459776
0.21613705 -0.16640703 -0.21874744
0.024685621 -0.14923473 -0.21459794
0.21613705 -0.14897919 -0.21874738
0.024685621 -0.13177492 -0.21459776
0.21613705 -0.1315513 -0.21874756
0.024685621 -0.11431502 -0.21459788
0.21613705 -0.1141234 -0.21874738
0.024685621 -0.09685526 -0.21459776
0.21613705 -0.096695475 -0.21874744
0.024685621 -0.079395346 -0.21459788
0.21613705 -0.079267591 -0.21874738
0.024685621 -0.061935544 -0.21459776
0.21613705 -0.06183967 -0.21874744
0.024685621 -0.044475634 -0.21459788
0.21613705 -0.044411767 -0.21874738
0.024685621 -0.027015831 -0.2145977
0.21613705 -0.026983842 -0.21874744
0.024685621 -0.0095559414 -0.21459776
0.21613705 -0.0095560085 -0.21874738
0.024685621 0.0079039475 -0.21459788
0.21613705 0.0078719826 -0.21874744
0.024685621 0.025363769 -0.21459776
0.21613705 0.025299795 -0.21874738
0.024685621 0.042823683 -0.21459788
0.21613705 0.042727806 -0.21874738
0.024685621 0.060283482 -0.21459776
0.21613705 0.060155705 -0.21874744
0.024685621 0.077743307 -0.21459788
0.21613705 0.077583544 -0.21874744
0.024685621 0.095203087 -0.21459776
0.21613705 0.095011555 -0.21874744
0.024685621 0.11266297 -0.21459788
0.21613705 0.11243935 -0.21874738
0.024685621 0.13012281 -0.21459776
0.21613705 0.12986736 -0.21874744
0.024685621 0.14758271 -0.21459776
0.21613705 0.14729521 -0.21874738
0.024685621 0.16504258 -0.21459788
0.21613705 0.16472317 -0.21874744
0.024685621 0.18250239 -0.21459776
0.21613705 0.182151 -0.21874738
0.024685621 0.1999623 -0.21459788
0.21613705 0.19957896 -0.21874744
0.024685621 0.21742213 -0.21459776
0.21613705 0.21700683 -0.21874738
0.024685621 0.23488201 -0.21459776
0.21613705 0.23443475 -0.21874744
0.23540205 -0.21979304 -0.2068153
0.23540205 -0.20227332 -0.20681518
0.23540205 -0.18475361 -0.20681518
0.23540205 -0.16723379 -0.2068153
0.23540205 -0.14971396 -0.2068153
0.23540205 -0.13219433 -0.20681518
0.23540205 -0.11467455 -0.20681518
0.23540205 -0.097154744 -0.20681518
0.23540205 -0.079635009 -0.2068153
0.23540205 -0.062115189 -0.2068153
0.23540205 -0.044595499 -0.20681518
0.23540205 -0.027075741 -0.20681518
0.23540205 -0.0095559414 -0.20681518
0.23540205 0.0079638595 -0.2068153
0.23540205 0.025483504 -0.20681518
0.23540205 0.043003283 -0.20681518
0.23540205 0.06052313 -0.20681518
0.23540205 0.078042857 -0.2068153
0.23540205 0.095562659 -0.2068153
0.23540205 0.11308235 -0.20681518
0.23540205 0.13060209 -0.20681518
0.23540205 0.14812188 -0.20681518
0.23540205 0.16564171 -0.2068153
0.23540205 0.18316138 -0.20681518
0.23540205 0.20068116 -0.20681518
0.23540205 0.21820094 -0.20681518
0.0086178631 -0.2214606 -0.18876392
0.25487119 -0.22090694 -0.19475669
0.0086178631 -0.20380192 -0.18876392
0.25487119 -0.2032944 -0.19475669
0.0086178631 -0.1861432 -0.1887638
0.25487119 -0.18568179 -0.19475669
0.0086178631 -0.16848436 -0.18876392
0.25487119 -0.16806923 -0.19475669
0.0086178631 -0.15082571 -0.18876398
0.25487119 -0.15045668 -0.19475651
0.0086178631 -0.13316694 -0.18876392
0.25487119 -0.13284409 -0.19475651
0.0086178631 -0.11550826 -0.18876392
0.25487119 -0.11523155 -0.19475657
0.0086178631 -0.097849578 -0.18876392
0.25487119 -0.097618878 -0.19475657
0.0086178631 -0.080190845 -0.1887638
0.25487119 -0.080006294 -0.19475657
0.0086178631 -0.062532157 -0.1887638
0.25487119 -0.062393758 -0.19475657
0.0086178631 -0.044873316 -0.18876392
0.25487119 -0.044781152 -0.19475669
0.0086178631 -0.02721465 -0.18876392
0.25487119 -0.027168501 -0.19475657
0.0086178631 -0.0095559638 -0.18876392
0.25487119 -0.0095559414 -0.19475669
0.0086178631 0.0081027886 -0.1887638
0.25487119 0.008056662 -0.19475669
0.0086178631 0.025761474 -0.1887638
0.25487119 0.025669288 -0.19475669
0.0086178631 0.04342014 -0.1887638
0.25487119 0.043281872 -0.19475669
0.0086178631 0.061079003 -0.18876398
0.25487119 0.060894407 -0.19475669
0.0086178631 0.078737669 -0.18876392
0.25487119 0.078506902 -0.19475657
0.0086178631 0.096396446 -0.18876392
0.25487119 0.096119553 -0.19475657
0.0086178631 0.1140551 -0.18876392
0.25487119 0.11373214 -0.19475657
0.0086178631 0.13171381 -0.18876392
0.25487119 0.13134472 -0.19475657
0.0086178631 0.14937255 -0.1887638
0.25487119 0.14895736 -0.19475657
0.0086178631 0.16703123 -0.1887638
0.25487289 0.16657077 -0.19474608
0.0086178631 0.18469 -0.18876398
0.25487289 0.18418337 -0.19474608
0.0086178631 0.20234872 -0.18876392
0.25487289 0.20179605 -0.19474608
0.0086178631 0.22000739 -0.18876392
0.25487289 0.21940871 -0.19474608
0.27454773 -0.22203286 -0.1825695
0.29443499 -0.22317064 -0.17025197
0.27454773 -0.20432639 -0.1825695
0.29443499 -0.2053694 -0.17025191
0.29443499 -0.18756819 -0.17025191
0.27454773 -0.18662004 -0.1825695
0.27454773 -0.16891368 -0.1825695
0.29443499 -0.16976699 -0.17025197
0.27454773 -0.15120721 -0.1825695
0.29443499 -0.1519658 -0.17025191
0.27454773 -0.13350084 -0.1825695
0.29443499 -0.13416457 -0.17025191
0.27454773 -0.11579441 -0.1825695
0.29443499 -0.11636332 -0.17025191
0.29443499 -0.098562121 -0.17025191
0.27454773 -0.098088004 -0.1825695
0.27454773 -0.08038158 -0.1825695
0.29443499 -0.080760904 -0.17025191
0.27454773 -0.062675215 -0.1825695
0.29443499 -0.062959619 -0.17025208
0.27454773 -0.044968817 -0.1825695
0.29443499 -0.045158312 -0.17025197
0.27454773 -0.02726239 -0.1825695
0.29443499 -0.027357139 -0.17025197
0.27454773 -0.0095560085 -0.1825695
0.29443499 -0.0095559414 -0.17025197
0.27454773 0.0081504611 -0.18256938
0.29443499 0.0082452549 -0.17025191
0.27454773 0.025856819 -0.1825695
0.29443499 0.026046537 -0.17025191
0.27454773 0.043563202 -0.1825695
0.29443499 0.043847732 -0.17025191
0.27454773 0.061269626 -0.1825695
0.2944369 0.061649263 -0.17024112
0.27454773 0.078975983 -0.1825695
0.2944369 0.079450592 -0.1702413
0.27454954 0.096683033 -0.18255889
0.2944369 0.097251877 -0.17024118
0.27454954 0.11438946 -0.18255889
0.2944369 0.11505315 -0.17024112
0.27454954 0.1320959 -0.18255889
0.2944369 0.13285452 -0.1702413
0.27454954 0.14980234 -0.18255877
0.2944369 0.15065581 -0.17024118
0.27454954 0.16750897 -0.18255889
0.2944369 0.16845709 -0.17024112
0.27454954 0.18521541 -0.18255889
0.2944369 0.18625845 -0.1702413
0.27454954 0.20292185 -0.18255889
0.2944369 0.20405973 -0.17024118
0.27454954 0.22062832 -0.18255877
0.2944369 0.221861 -0.17024112
-0.0078196526 -0.22390299 -0.16232383
0.31453642 -0.22432074 -0.15780157
-0.0078196526 -0.20604077 -0.16232377
0.31453642 -0.20642371 -0.15780175
-0.0078196526 -0.18817852 -0.16232383
0.31453642 -0.18852663 -0.15780175
-0.0078196526 -0.17031623 -0.16232383
0.31453642 -0.17062955 -0.15780175
-0.0078196526 -0.15245402 -0.16232377
0.31453642 -0.15273248 -0.15780163
-0.0078196526 -0.13459173 -0.16232383
0.31453642 -0.13483545 -0.15780163
-0.0078196526 -0.1167295 -0.16232395
0.31453642 -0.1169383 -0.15780175
-0.0078196526 -0.09886729 -0.16232383
0.31453642 -0.099041231 -0.15780175
-0.0078196526 -0.081004962 -0.16232383
0.31453642 -0.081144206 -0.15780163
-0.0078196526 -0.063142665 -0.16232383
0.31453642 -0.063247196 -0.15780175
-0.0078196526 -0.04528052 -0.16232383
0.31453642 -0.045350131 -0.15780163
-0.0078196526 -0.027418174 -0.16232383
0.31453642 -0.027453057 -0.15780163
-0.0078196526 -0.0095559414 -0.16232377
0.31453848 -0.0095559414 -0.15779066
-0.0078196526 0.0083063142 -0.16232383
0.31453848 0.008341196 -0.15779084
-0.0078196526 0.02616857 -0.16232395
0.31453848 0.026238311 -0.15779078
-0.0078196526 0.0440308 -0.16232383
0.31453848 0.044135559 -0.15779084
-0.0078196526 0.061893083 -0.16232383
0.31453848 0.06203261 -0.15779078
-0.0078196526 0.079755403 -0.16232383
0.31453848 0.079929814 -0.15779084
-0.0078196526 0.097617544 -0.16232383
0.31453848 0.097826995 -0.15779078
-0.0078196526 0.11547982 -0.16232383
0.31453848 0.11572402 -0.15779078
-0.0078196526 0.13334207 -0.16232377
0.31453848 0.13362129 -0.15779084
-0.0078196526 0.15120439 -0.16232383
0.31453848 0.1515184 -0.15779078
-0.0078196526 0.16906664 -0.16232395
0.31453848 0.16941555 -0.15779084
-0.0078196526 0.18692884 -0.16232383
0.31453848 0.18731271 -0.15779078
-0.0078196526 0.20479116 -0.16232383
0.31453848 0.20520994 -0.15779084
-0.0078196526 0.22265343 -0.16232383
0.31453848 0.22310697 -0.15779084
0.3348555 -0.22548333 -0.14521664
0.3348555 -0.20748937 -0.14521676
0.3348555 -0.1894954 -0.14521664
0.3348555 -0.17150153 -0.14521664
0.3348555 -0.15350753 -0.14521664
0.3348555 -0.1355136 -0.14521664
0.3348555 -0.11751969 -0.14521658
0.3348555 -0.09952569 -0.14521664
0.3348555 -0.081531771 -0.14521664
0.3348555 -0.063537806 -0.14521676
0.33485761 -0.045543976 -0.14520568
0.33485761 -0.027549993 -0.14520562
0.33485761 -0.0095559862 -0.14520568
0.33485761 0.0084381746 -0.14520568
0.33485761 0.026432116 -0.14520562
0.33485761 0.044426166 -0.14520568
0.33485761 0.062420152 -0.1452055
0.33485761 0.080414198 -0.14520562
0.33485761 0.098408252 -0.14520568
0.33485761 0.11640222 -0.14520562
0.33485761 0.13439631 -0.14520562
0.33485761 0.15239036 -0.14520568
0.33485761 0.1703843 -0.14520562
0.33485761 0.18837844 -0.14520562
0.33485761 0.20637245 -0.14520568
0.33485761 0.22436641 -0.14520562
-0.024640925 -0.22640139 -0.1352784
0.35539794 -0.22665954 -0.13248348
-0.024640925 -0.2083309 -0.1352784
0.35539794 -0.2085676 -0.13248348
-0.024640925 -0.19026044 -0.13527834
0.35539794 -0.19047567 -0.13248348
-0.024640925 -0.17218998 -0.1352784
0.35539794 -0.17238367 -0.13248348
-0.024640925 -0.15411964 -0.13527822
0.35539794 -0.15429173 -0.13248348
-0.024640925 -0.13604918 -0.13527822
0.35539794 -0.13619976 -0.13248348
-0.024640925 -0.11797872 -0.13527822
0.35539794 -0.1181078 -0.13248348
-0.024640925 -0.099908262 -0.13527822
0.35539794 -0.10001586 -0.13248348
-0.024640925 -0.081837796 -0.13527822
0.35539794 -0.081923798 -0.13248348
-0.024640925 -0.063767329 -0.13527822
0.35539794 -0.063831858 -0.13248348
-0.024640925 -0.045696914 -0.13527822
0.35539794 -0.045739859 -0.13248348
-0.024640925 -0.027626451 -0.13527822
0.35539794 -0.027647924 -0.13248348
-0.024640925 -0.0095559862 -0.13527822
0.35539794 -0.0095559862 -0.13248348
-0.024640925 0.0085144779 -0.13527822
0.35539794 0.0085359933 -0.13248348
-0.024640925 0.026584942 -0.13527822
0.35539794 0.026627973 -0.13248354
-0.024640925 0.04465536 -0.13527822
0.35539794 0.044719953 -0.13248354
-0.024640925 0.06272582 -0.13527822
0.35539794 0.062811889 -0.13248354
-0.024640925 0.080796286 -0.13527822
0.35539794 0.08090385 -0.13248354
-0.024640925 0.098866753 -0.13527822
0.35539794 0.098995894 -0.13248348
-0.024640925 0.1169372 -0.13527822
0.35539794 0.11708783 -0.13248348
-0.024640925 0.13500766 -0.13527822
0.35539794 0.1351798 -0.13248348
-0.024640925 0.15307811 -0.13527822
0.35539794 0.15327179 -0.13248348
-0.024640925 0.17114857 -0.13527822
0.35539794 0.17136376 -0.13248354
-0.024640925 0.18921903 -0.13527822
0.35539794 0.18945572 -0.13248354
-0.024640925 0.2072895 -0.13527822
0.35539794 0.20754768 -0.13248354
-0.024640925 0.22535993 -0.13527834
0.35539794 0.22563961 -0.13248354
0.37616313 -0.22784762 -0.11962205
0.37616313 -0.2096567 -0.11962205
0.37616313 -0.19146568 -0.11962205
0.37616313 -0.1732748 -0.11962205
0.37616313 -0.15508379 -0.11962217
0.37616313 -0.13689277 -0.11962205
0.37616313 -0.11870176 -0.11962205
0.37616313 -0.10051088 -0.11962205
0.37616313 -0.082319871 -0.11962205
0.37616313 -0.064128943 -0.11962205
0.37616313 -0.045937885 -0.11962205
0.37616313 -0.027746979 -0.11962205
0.37616313 -0.0095559414 -0.11962217
0.37616313 0.0086349184 -0.11962205
0.37616313 0.026825953 -0.11962217
0.37616313 0.045016944 -0.11962205
0.37616313 0.063207984 -0.11962217
0.37616313 0.081398867 -0.11962205
0.37616313 0.099589877 -0.11962217
0.37616313 0.11778084 -0.11962199
0.37616313 0.13597184 -0.11962205
0.37616313 0.15416288 -0.11962217
0.37616313 0.1723538 -0.11962217
0.37616313 0.19054478 -0.11962223
0.37616313 0.20873578 -0.11962205
0.37616313 0.22692679 -0.11962217
-0.041858941 -0.22895861 -0.10759491
0.3971568 -0.2290488 -0.10661912
-0.041858941 -0.21067508 -0.10759491
0.3971568 -0.21075767 -0.10661918
-0.041858941 -0.19239154 -0.10759473
0.3971568 -0.19246669 -0.10661918
-0.041858941 -0.17410803 -0.10759485
0.3971568 -0.17417562 -0.10661918
-0.041858941 -0.15582444 -0.10759473
0.3971568 -0.15588456 -0.10661912
-0.041858941 -0.13754089 -0.10759485
0.3971568 -0.13759339 -0.10661918
-0.041858941 -0.11925731 -0.10759485
0.3971568 -0.11930233 -0.10661918
-0.041858941 -0.10097378 -0.10759485
0.3971568 -0.10101137 -0.10661912
-0.041858941 -0.082690179 -0.10759485
0.3971568 -0.082720175 -0.1066193
-0.041858941 -0.064406648 -0.10759485
0.3971568 -0.064429134 -0.10661918
-0.041858941 -0.04612305 -0.10759485
0.3971568 -0.046138115 -0.10661912
-0.041858941 -0.027839541 -0.10759485
0.3971568 -0.027847007 -0.10661912
0.3971568 -0.0095559414 -0.1066193
-0.041858941 -0.0095558977 -0.10759485
-0.041858941 0.008727611 -0.10759485
0.3971568 0.0087350784 -0.10661918
-0.041858941 0.027011253 -0.10759485
0.3971568 0.027026188 -0.10661912
-0.041858941 0.045294762 -0.10759491
0.3971568 0.045317251 -0.10661912
-0.041858941 0.063578315 -0.10759473
0.3971568 0.063608363 -0.10661918
-0.041858941 0.081861824 -0.10759473
0.3971568 0.081899382 -0.10661918
-0.041858941 0.1001454 -0.10759473
0.3971568 0.10019045 -0.10661912
-0.041858941 0.11842894 -0.10759485
0.3971568 0.11848157 -0.1066193
-0.041858941 0.13671254 -0.10759485
0.3971568 0.13677266 -0.10661918
-0.041858941 0.1549961 -0.10759485
0.3971568 0.1550637 -0.10661912
-0.041858941 0.17327967 -0.10759485
0.3971568 0.17335467 -0.10661918
-0.041858941 0.1915632 -0.10759485
0.3971568 0.19164586 -0.10661918
-0.041858941 0.20984679 -0.10759485
0.3971568 0.20993695 -0.10661918
-0.041858941 0.22813036 -0.10759485
0.3971568 0.22822797 -0.10661912
0.41838279 -0.2302632 -0.093472362
0.41838279 -0.21187098 -0.093472362
0.41838279 -0.19347875 -0.093472302
0.41838279 -0.17508641 -0.093472481
0.41838279 -0.15669417 -0.093472362
0.41838279 -0.13830194 -0.093472302
0.41838279 -0.11990959 -0.093472481
0.41838279 -0.10151737 -0.093472362
0.41838279 -0.083125107 -0.093472302
0.41838279 -0.064732775 -0.093472481
0.41838279 -0.046340469 -0.093472302
0.41838279 -0.027948227 -0.093472302
0.41838279 -0.0095558977 -0.093472362
0.41838279 0.008836343 -0.093472302
0.41838279 0.027228583 -0.093472302
0.41838279 0.045620915 -0.093472362
0.41838279 0.064013153 -0.093472302
0.41838279 0.082405396 -0.093472302
0.41838279 0.10079773 -0.093472362
0.41838279 0.11918999 -0.093472362
0.41838279 0.1375822 -0.093472302
0.41838279 0.15597455 -0.093472362
0.41838536 0.17436767 -0.093460798
0.41838536 0.19276007 -0.093460917
0.41838536 0.21115246 -0.093460977
0.41838536 0.22954479 -0.093460798
0.46154734 -0.23273288 -0.066737354
-0.059487652 -0.23157807 -0.07923907
0.439845 -0.23149122 -0.080179334
-0.059487652 -0.2130762 -0.07923907
0.439845 -0.21299662 -0.080179155
0.46154734 -0.21413487 -0.066737354
-0.059487652 -0.19457437 -0.079238951
0.439845 -0.19450198 -0.080179214
0.46154734 -0.19553675 -0.066737354
-0.059487652 -0.17607254 -0.079238951
0.439845 -0.17600739 -0.080179214
0.46154734 -0.17693876 -0.066737354
0.46154734 -0.1583406 -0.066737354
-0.059487652 -0.15757066 -0.07923907
0.439845 -0.15751275 -0.080179334
-0.059487652 -0.13906883 -0.079238951
0.439845 -0.13901821 -0.080179214
0.46154734 -0.13974246 -0.066737473
-0.059487652 -0.12056708 -0.079238951
0.439845 -0.12052363 -0.080179214
0.46154734 -0.12114448 -0.066737354
-0.059487652 -0.10206516 -0.07923907
0.439845 -0.10202894 -0.080179214
0.46154734 -0.10254633 -0.066737473
0.46154734 -0.083948284 -0.066737354
-0.059487652 -0.083563328 -0.07923907
0.439845 -0.0835343 -0.080179334
-0.059487652 -0.065061465 -0.079238951
0.439845 -0.065039821 -0.080179155
0.46154734 -0.065350197 -0.066737354
-0.059487652 -0.046559658 -0.079238951
0.439845 -0.046545167 -0.080179214
0.46154734 -0.046752203 -0.066737354
-0.059487652 -0.028057709 -0.07923907
0.439845 -0.028050553 -0.080179334
0.46154734 -0.028153982 -0.066737354
-0.059487652 -0.0095559414 -0.07923907
0.439845 -0.0095559414 -0.080179334
0.46154734 -0.0095559414 -0.066737473
-0.059487652 0.0089458274 -0.079238951
0.439845 0.0089385817 -0.080179214
0.46154734 0.0090421 -0.066737354
-0.059487652 0.027447682 -0.079238951
0.439845 0.02743328 -0.080179214
0.46154734 0.027640272 -0.066737354
-0.059487652 0.045949586 -0.07923907
0.439845 0.04592789 -0.080179214
0.46154734 0.04623827 -0.066737354
-0.059487652 0.064451441 -0.079238951
0.439845 0.064422503 -0.080179334
0.46155015 0.064836666 -0.066725612
-0.059487652 0.082953252 -0.079238951
0.439845 0.082917027 -0.080179214
0.46155015 0.083434887 -0.066725612
-0.059487652 0.10145511 -0.07923913
0.43984768 0.10141221 -0.080167651
0.46155015 0.1020331 -0.066725612
-0.059487652 0.11995696 -0.07923907
0.43984768 0.11990691 -0.080167651
0.46155015 0.12063127 -0.066725731
-0.059487652 0.13845879 -0.079238951
0.43984768 0.1384016 -0.080167651
0.46155015 0.13922946 -0.066725731
-0.059487652 0.15696062 -0.079238951
0.43984768 0.15689637 -0.080167651
0.46155015 0.15782763 -0.066725731
-0.059487652 0.17546253 -0.07923907
0.43984768 0.17539103 -0.080167651
0.46155015 0.17642571 -0.066725612
-0.059487652 0.19396438 -0.079238951
0.43984768 0.19388574 -0.080167651
0.46155015 0.19502386 -0.066725612
-0.059487652 0.21246615 -0.079238951
0.43984768 0.21238042 -0.080167651
0.46155015 0.21362215 -0.066725612
-0.059487652 0.23096794 -0.079238951
0.43984768 0.23087512 -0.080167651
0.46155015 0.23222031 -0.066725731
-0.077542558 -0.23425977 -0.050209761
-0.077542558 -0.21553428 -0.050209939
-0.077542558 -0.19680899 -0.050209939
-0.077542558 -0.1780837 -0.050209939
-0.077542558 -0.15935837 -0.05020982
-0.077542558 -0.14063309 -0.050209939
-0.077542558 -0.12190782 -0.050209939
-0.077542558 -0.10318248 -0.050209939
-0.077542558 -0.084457174 -0.05020982
-0.077542558 -0.06573189 -0.05020982
-0.077542558 -0.047006559 -0.05020982
-0.077542558 -0.028281271 -0.05020982
-0.077542558 -0.0095559862 -0.05020982
-0.077542558 0.0091693448 -0.05020982
-0.077542558 0.027894627 -0.05020982
-0.077542558 0.046620004 -0.050209761
-0.077542558 0.065345332 -0.050209761
-0.077542558 0.084070623 -0.050209761
-0.077542558 0.10279591 -0.050209761
-0.077542558 0.1215212 -0.050209761
-0.077542558 0.14024653 -0.050209761
-0.077542558 0.15897182 -0.050209761
-0.077542558 0.17769711 -0.050209761
-0.077542558 0.19642252 -0.050209939
-0.077542558 0.21514781 -0.050209939
-0.077542558 0.23387311 -0.050209939
-0.096038848 -0.21805365 -0.020458639
-0.096038848 -0.1990993 -0.020458639
-0.096038848 -0.18014494 -0.020458698
-0.096038848 -0.16119066 -0.020458698
-0.096038848 -0.14223626 -0.020458698
-0.096038848 -0.12328194 -0.020458698
-0.096038848 -0.10432763 -0.020458639
-0.096038848 -0.0853732 -0.020458817
-0.096038848 -0.066418961 -0.020458698
-0.096038848 -0.047464684 -0.020458639
-0.096038848 -0.028510269 -0.020458698
-0.096038848 -0.0095559414 -0.020458698
-0.096038848 0.009398385 -0.020458639
-0.096038848 0.028352708 -0.020458817
-0.096038848 0.047307033 -0.020458698
-0.096038848 0.066261359 -0.020458639
-0.096038848 0.085215732 -0.020458698
-0.096038848 0.10417005 -0.020458698
-0.096038848 0.12312429 -0.020458639
-0.096038848 0.14207876 -0.020458817
-0.096038848 0.16103303 -0.020458639
-0.096038848 0.17998737 -0.020458639
-0.096038848 0.19894178 -0.020458698
-0.096038848 0.21789601 -0.020458698
-0.11499318 -0.22063425 0.010016799
-0.11499318 -0.20144533 0.010016799
-0.11499318 -0.18225637 0.010016561
-0.11499318 -0.16306739 0.010016799
-0.11499318 -0.14387846 0.010016799
-0.11499318 -0.1246896 0.010016799
-0.11499318 -0.10550061 0.01001668
-0.11499318 -0.086311676 0.010016799
-0.11499318 -0.067122735 0.010016799
-0.11499318 -0.04793385 0.010016799
-0.11499318 -0.028744962 0.010016799
-0.11499318 -0.0095559862 0.01001668
-0.11499318 0.0096330354 0.010016799
-0.11499318 0.028821923 0.010016799
-0.11499318 0.048010811 0.010016799
-0.11499318 0.067199789 0.01001668
-0.11499318 0.086388767 0.010016799
-0.11499318 0.10557766 0.010016799
-0.11499318 0.12476654 0.010016799
-0.11499318 0.14395557 0.01001668
-0.11499318 0.16314454 0.010016799
-0.11499318 0.18233339 0.010016799
-0.11499318 0.20152223 0.010016799
-0.11499318 0.22071122 0.010016799
-0.1344226 -0.22327952 0.04125607
-0.1344226 -0.20385009 0.041255951
-0.1344226 -0.18442068 0.04125607
-0.1344226 -0.16499123 0.04125607
-0.1344226 -0.14556189 0.04125607
-0.1344226 -0.12613247 0.04125607
-0.1344226 -0.10670298 0.04125607
-0.1344226 -0.087273605 0.04125607
-0.1344226 -0.06784419 0.04125607
-0.1344226 -0.048414774 0.041255951
-0.1344226 -0.028985355 0.04125607
-0.1344226 -0.0095559414 0.04125607
-0.1344226 0.0098734302 0.04125607
-0.1344226 0.029302843 0.04125607
-0.1344226 0.048732303 0.041255951
-0.1344226 0.068161719 0.04125607
-0.1344226 0.087591134 0.04125607
-0.1344226 0.1070205 0.04125607
-0.1344226 0.12644988 0.04125607
-0.1344226 0.14587939 0.04125607
-0.1344226 0.16530876 0.04125607
-0.1344226 0.18473826 0.04125607
-0.1344226 0.20416768 0.041255951
-0.1344226 0.22359705 0.04125607
-0.15434539 -0.22599304 0.073301435
-0.15434539 -0.20631699 0.073301435
-0.15434539 -0.18664083 0.073301435
-0.15434539 -0.16696478 0.073301435
-0.15434539 -0.14728861 0.073301435
-0.15434539 -0.12761258 0.073301435
-0.15434539 -0.10793645 0.073301435
-0.15434539 -0.088260368 0.073301435
-0.15434539 -0.068584234 0.073301435
-0.15434539 -0.048908155 0.073301435
-0.15434539 -0.029232115 0.073301435
-0.15434539 -0.0095559414 0.073301435
-0.15434539 0.010120098 0.073301435
-0.15434539 0.029796224 0.073301435
-0.15434539 0.049472354 0.073301435
-0.15434539 0.069148481 0.073301435
-0.15434539 0.088824563 0.073301435
-0.15434539 0.1085007 0.073301435
-0.15434539 0.12817678 0.073301435
-0.15434539 0.14785291 0.073301435
-0.15434539 0.16752885 0.073301435
-0.15434539 0.18720503 0.073301554
-0.15434539 0.20688108 0.073301435
-0.15434539 0.22655725 0.073301554
-0.17478026 -0.22877529 0.10615754
-0.17478026 -0.20884624 0.10615754
-0.17478026 -0.18891717 0.10615754
-0.17478026 -0.16898814 0.10615742
-0.17478026 -0.14905916 0.10615742
-0.17478026 -0.12913014 0.10615742
-0.17478026 -0.10920107 0.10615742
-0.17478026 -0.089272089 0.10615754
-0.17478026 -0.06934306 0.10615766
-0.17478026 -0.049413994 0.10615754
-0.17478026 -0.029485013 0.10615742
-0.17478026 -0.0095559862 0.10615742
-0.17478026 0.010373085 0.10615742
-0.17478026 0.030302111 0.10615742
-0.17478026 0.050231092 0.10615754
-0.17478026 0.070160165 0.10615766
-0.17478026 0.090089142 0.10615742
-0.17478026 0.11001817 0.10615742
-0.17478026 0.1299472 0.10615742
-0.17478026 0.14987619 0.10615742
-0.17478026 0.16980526 0.10615742
-0.17478026 0.18973428 0.10615742
-0.17478026 0.20966326 0.10615754
-0.17478026 0.22959234 0.10615742
-0.19574735 -0.23162985 0.13986921
-0.19574735 -0.21144132 0.13986921
-0.19574735 -0.19125286 0.13986933
-0.19574735 -0.17106432 0.13986921
-0.19574735 -0.15087575 0.13986921
-0.19574735 -0.13068725 0.13986921
-0.19574735 -0.11049866 0.13986921
-0.19574735 -0.090310059 0.13986921
-0.19574735 -0.070121504 0.13986921
-0.19574735 -0.049933046 0.13986933
-0.19574735 -0.029744495 0.13986921
-0.19574735 -0.0095559862 0.13986921
-0.19574735 0.010632609 0.13986921
-0.19574735 0.030821115 0.13986921
-0.19574735 0.051009666 0.13986921
-0.19574735 0.071198262 0.13986921
-0.19574735 0.091386683 0.13986921
-0.19574735 0.11157523 0.13986921
-0.19574735 0.13176379 0.13986921
-0.19574735 0.15195234 0.13986921
-0.19574735 0.17214085 0.13986921
-0.19574735 0.19232945 0.13986921
-0.19574735 0.21251796 0.13986921
-0.19574735 0.23270641 0.13986921
-0.21726824 -0.2345611 0.17448485
-0.21726824 -0.21410607 0.17448473
-0.21726824 -0.19365107 0.17448485
-0.21726824 -0.17319605 0.17448473
-0.21726824 -0.15274107 0.17448485
-0.21726824 -0.13228598 0.17448485
-0.21726824 -0.11183105 0.17448497
-0.21726824 -0.091375999 0.17448485
-0.21726824 -0.070920892 0.17448473
-0.21726824 -0.050465971 0.17448485
-0.21726824 -0.030010957 0.17448485
-0.21726824 -0.0095560299 0.17448485
-0.21726824 0.010899072 0.17448485
-0.21726824 0.031353995 0.17448485
-0.21726824 0.051809054 0.17448473
-0.21726824 0.072264068 0.17448497
-0.21726824 0.092719033 0.17448485
-0.21726824 0.11317414 0.17448461
-0.21726824 0.13362916 0.17448485
-0.21726824 0.15408413 0.17448473
-0.21726824 0.17453915 0.17448485
-0.21726824 0.19499424 0.17448485
-0.21726824 0.21544904 0.17448485
-0.21726824 0.23590419 0.17448485
-0.23936418 -0.21684094 0.21001184
-0.23936418 -0.19611248 0.21001184
-0.23936418 -0.17538399 0.21001184
-0.23936418 -0.15465553 0.21001184
-0.23936418 -0.13392694 0.21001172
-0.23936418 -0.11319844 0.21001172
-0.23936418 -0.09246999 0.21001172
-0.23936418 -0.071741484 0.21001172
-0.23936418 -0.0510129 0.21001184
-0.23936418 -0.030284442 0.21001184
-0.23936418 -0.0095559862 0.21001184
-0.23936418 0.011172515 0.21001184
-0.23936418 0.031901058 0.21001172
-0.23936418 0.05262956 0.21001172
-0.23936418 0.073358059 0.21001184
-0.23936418 0.094086513 0.21001184
-0.23936418 0.11481502 0.21001184
-0.23936418 0.13554353 0.21001184
-0.23936418 0.15627198 0.21001184
-0.23936418 0.17700048 0.21001184
-0.23936418 0.19772907 0.21001172
-0.23936418 0.21845752 0.2100116
-0.26205975 -0.21965106 0.24651659
-0.26205975 -0.19864155 0.24651659
-0.26205975 -0.17763205 0.24651659
-0.26205975 -0.15662256 0.24651659
-0.26205975 -0.13561305 0.24651659
-0.26205975 -0.11460357 0.24651659
-0.26205975 -0.093594022 0.24651659
-0.26205975 -0.072584525 0.24651659
-0.26205975 -0.051574938 0.24651659
-0.26205975 -0.030565485 0.24651647
-0.26205975 -0.0095559414 0.24651659
-0.26205975 0.011453557 0.24651659
-0.26205975 0.032463055 0.24651659
-0.26205975 0.053472511 0.24651659
-0.26205975 0.074482098 0.24651659
-0.26205975 0.095491685 0.2465167
-0.26205975 0.11650106 0.24651659
-0.26205975 0.1375106 0.24651659
-0.26205975 0.15852006 0.24651659
-0.26205975 0.17952955 0.24651659
-0.26205975 0.20053923 0.24651659
-0.26205975 0.22154863 0.24651659
-0.28537825 -0.22253725 0.28400946
-0.28537825 -0.20123915 0.28400934
-0.28537825 -0.17994106 0.28400934
-0.28537825 -0.15864287 0.28400934
-0.28537825 -0.13734464 0.28400934
-0.28537825 -0.11604664 0.28400946
-0.28537825 -0.09474846 0.28400946
-0.28537825 -0.073450275 0.28400934
-0.28537825 -0.052152269 0.28400934
-0.28537825 -0.030854084 0.28400934
-0.28537825 -0.0095558977 0.28400934
-0.28537825 0.011742198 0.28400958
-0.28537825 0.033040337 0.28400946
-0.28537825 0.054338522 0.28400946
-0.28537825 0.075636484 0.28400934
-0.28537825 0.096934669 0.28400934
-0.28537825 0.11823281 0.28400934
-0.28537825 0.13953091 0.28400958
-0.28537825 0.1608291 0.28400946
-0.28537825 0.18212728 0.28400934
-0.28537825 0.20342538 0.28400958
-0.28537825 0.22472343 0.28400934
-0.30934632 -0.22550385 0.32254672
-0.30934632 -0.20390911 0.32254684
-0.30934632 -0.18231425 0.3225466
-0.30934632 -0.16071951 0.32254672
-0.30934632 -0.13912469 0.32254672
-0.30934632 -0.11752997 0.32254672
-0.30934632 -0.095935188 0.32254672
-0.30934632 -0.074340366 0.32254672
-0.30934632 -0.052745543 0.3225466
-0.30934632 -0.031150721 0.3225466
-0.30934632 -0.0095559862 0.32254672
-0.30934632 0.012038748 0.32254672
-0.30934632 0.033633571 0.32254684
-0.30934632 0.055228435 0.3225466
-0.30934632 0.076823257 0.32254672
-0.30934632 0.098418079 0.32254672
-0.30934632 0.12001268 0.32254672
-0.30934632 0.14160751 0.32254672
-0.30934632 0.16320233 0.32254672
-0.30934632 0.18479724 0.32254672
-0.30934632 0.20639206 0.32254672
-0.30934632 0.22798666 0.32254672
-0.33399275 -0.2285555 0.36218894
-0.33399275 -0.20665561 0.36218894
-0.33399275 -0.18475558 0.36218894
-0.33399275 -0.16285563 0.36218894
-0.33399275 -0.14095569 0.36218894
-0.33399275 -0.1190557 0.36218894
-0.33399275 -0.097155765 0.36218894
-0.33399275 -0.075255819 0.36218894
-0.33399275 -0.053355917 0.36218894
-0.33399275 -0.031455886 0.36218894
-0.33399275 -0.0095558539 0.36218894
-0.33399275 0.012343957 0.36218894
-0.33399275 0.034244034 0.36218894
-0.33399275 0.056143843 0.36218894
-0.33399275 0.078043878 0.36218894
-0.33399275 0.099943906 0.36218894
-0.33399275 0.12184376 0.36218882
-0.33399275 0.14374375 0.36218894
-0.33399275 0.1656438 0.36218894
-0.33399275 0.18754365 0.36218894
-0.33399275 0.20944367 0.36218894
-0.33399275 0.23134367 0.36218894
-0.35934436 -0.2316934 0.402951
-0.35934436 -0.20947963 0.402951
-0.35934436 -0.18726592 0.402951
-0.35934436 -0.16505213 0.402951
-0.35934436 -0.14283842 0.402951
-0.35934436 -0.12062461 0.402951
-0.35934436 -0.098410927 0.402951
-0.35934436 -0.076197118 0.402951
-0.35934436 -0.053983435 0.402951
-0.35934436 -0.031769801 0.402951
-0.35934436 -0.0095559862 0.402951
-0.35934436 0.012657695 0.402951
-0.35934436 0.034871507 0.402951
-0.35934436 0.057085186 0.402951
-0.35934436 0.079299003 0.402951
-0.35934436 0.10151268 0.402951
-0.35934436 0.12372636 0.402951
-0.35934436 0.1459402 0.402951
-0.35934436 0.16815387 0.402951
-0.35934436 0.19036771 0.402951
-0.35934436 0.21258135 0.402951
-0.35934436 0.23479521 0.402951
-0.38543463 -0.21238704 0.44491529
-0.38543463 -0.18985029 0.44491541
-0.38543463 -0.16731347 0.44491529
-0.38543463 -0.14477664 0.44491529
-0.38543463 -0.12223991 0.44491529
-0.38543463 -0.09970317 0.44491529
-0.38543463 -0.077166297 0.44491529
-0.38543463 -0.054629512 0.44491529
-0.38543463 -0.032092769 0.44491541
-0.38543463 -0.0095558977 0.44491529
-0.38543463 0.012980842 0.44491541
-0.38543463 0.03551767 0.44491529
-0.38543463 0.05805441 0.44491541
-0.38543463 0.08059115 0.44491518
-0.38543463 0.10312789 0.44491529
-0.38543463 0.12566464 0.44491529
-0.38543463 0.14820151 0.44491529
-0.38543463 0.17073826 0.44491529
-0.38543463 0.19327517 0.44491529
-0.38543463 0.21581195 0.44491529
-0.41229311 -0.21537896 0.48810041
-0.41229311 -0.19250976 0.48810041
-0.41229311 -0.16964059 0.48810065
-0.41229311 -0.14677128 0.48810041
-0.41229311 -0.12390208 0.48810041
-0.41229311 -0.10103282 0.48810041
-0.41229311 -0.078163572 0.48810041
-0.41229311 -0.055294406 0.48810041
-0.41229311 -0.032425195 0.48810065
-0.41229311 -0.0095559414 0.48810041
-0.41229311 0.013313224 0.48810041
-0.41229311 0.036182523 0.48810041
-0.41229311 0.059051685 0.48810041
-0.41229311 0.081920944 0.48810041
-0.41229311 0.10479015 0.48810029
-0.41229311 0.12765941 0.48810041
-0.41229311 0.15052858 0.48810065
-0.41229311 0.17339784 0.48810041
-0.41229311 0.19626699 0.48810041
-0.41229311 0.21913616 0.48810041
-0.43995583 -0.2184606 0.53257871
-0.43995583 -0.1952489 0.53257871
-0.43995583 -0.17203729 0.53257871
-0.43995583 -0.14882566 0.53257871
-0.43995583 -0.12561405 0.53257847
-0.43995583 -0.10240247 0.53257847
-0.43995583 -0.079190895 0.53257871
-0.43995583 -0.055979274 0.53257847
-0.43995583 -0.032767519 0.53257871
-0.43995583 -0.0095558977 0.53257871
-0.43995583 0.013655636 0.53257883
-0.43995583 0.036867253 0.53257871
-0.43995583 0.060078874 0.53257871
-0.43995583 0.08329045 0.53257871
-0.43995583 0.10650207 0.53257871
-0.43995583 0.1297137 0.53257847
-0.43995583 0.15292533 0.53257871
-0.43995583 0.17613694 0.53257871
-0.43995583 0.19934875 0.53257871
-0.43995583 0.22256027 0.53257871
-0.46846166 -0.22163709 0.57842779
-0.46846166 -0.19807245 0.57842779
-0.46846166 -0.1745079 0.57842779
-0.46846166 -0.15094335 0.57842779
-0.46846166 -0.12737881 0.57842779
-0.46846166 -0.10381422 0.57842779
-0.46846166 -0.080249675 0.57842779
-0.46846166 -0.056685083 0.57842779
-0.46846166 -0.033120491 0.57842779
-0.46846166 -0.0095558977 0.57842779
-0.46846166 0.014008605 0.57842803
-0.46846166 0.037573196 0.57842779
-0.46846166 0.061137788 0.57842779
-0.46846166 0.084702246 0.57842779
-0.46846166 0.10826679 0.57842779
-0.46846166 0.13183135 0.57842767
-0.46846166 0.15539598 0.57842767
-0.46846166 0.17896044 0.57842779
-0.46846166 0.20252508 0.57842779
-0.46846166 0.22608963 0.57842779
-0.49784538 -0.2249103 0.62567329
-0.49784538 -0.20098205 0.62567329
-0.49784538 -0.17705379 0.62567329
-0.49784538 -0.15312538 0.62567329
-0.49784538 -0.1291973 0.62567353
-0.49784538 -0.10526896 0.62567353
-0.49784538 -0.08134079 0.62567329
-0.49784538 -0.057412408 0.62567329
-0.49784538 -0.033484329 0.62567329
-0.49784538 -0.0095559862 0.62567329
-0.49784538 0.014372223 0.62567329
-0.49784538 0.038300611 0.62567329
-0.49784538 0.062228732 0.62567329
-0.49784538 0.086157076 0.62567353
-0.49784538 0.11008537 0.62567353
-0.49784538 0.13401359 0.62567329
-0.49784538 0.15794194 0.62567329
-0.49784538 0.18187006 0.62567353
-0.49784538 0.20579843 0.62567353
-0.49784538 0.2297266 0.62567329
-0.52815032 -0.22828631 0.67440033
-0.52815032 -0.2039829 0.67440033
-0.52815032 -0.17967945 0.67440009
-0.52815032 -0.15537623 0.67440033
-0.52815032 -0.13107277 0.67440009
-0.52815032 -0.10676947 0.67440009
-0.52815032 -0.082466111 0.67440033
-0.52815032 -0.058162708 0.67440009
-0.52815032 -0.033859435 0.67440033
-0.52815032 -0.0095559862 0.67440009
-0.52815032 0.01474733 0.67440009
-0.52815032 0.039050642 0.67440033
-0.52815032 0.063354 0.67440009
-0.52815032 0.087657452 0.67440009
-0.52815032 0.11196072 0.67440009
-0.52815032 0.13626413 0.67440009
-0.52815032 0.16056749 0.67440009
-0.52815032 0.18487085 0.67440009
-0.52815032 0.20917422 0.67440009
-0.52815032 0.23347749 0.67440033
-0.55942339 -0.23177117 0.72469962
-0.55942339 -0.20708059 0.72469974
-0.55942339 -0.18238993 0.72469962
-0.55942339 -0.15769936 0.72469974
-0.55942339 -0.13300884 0.72469962
-0.55942339 -0.10831827 0.72469974
-0.55942339 -0.083627611 0.72469962
-0.55942339 -0.058937039 0.72469974
-0.55942339 -0.034246512 0.72469974
-0.55942339 -0.0095560746 0.72469974
-0.55942339 0.01513463 0.72469962
-0.55942339 0.039825156 0.72469974
-0.55942339 0.064515859 0.72469974
-0.55942339 0.089206211 0.72469974
-0.55942339 0.11389687 0.72469962
-0.55942339 0.1385874 0.72469974
-0.55942339 0.16327801 0.72469974
-0.55942339 0.18796855 0.72469974
-0.55942339 0.21265903 0.72469974
-0.55942339 0.23734973 0.72469974
-0.59170598 -0.21027721 0.77660668
-0.59170598 -0.1851871 0.77660668
-0.59170598 -0.160097 0.77660668
-0.59170598 -0.13500662 0.77660668
-0.59170598 -0.10991643 0.77660668
-0.59170598 -0.084826313 0.77660668
-0.59170598 -0.059736207 0.77660668
-0.59170598 -0.034646094 0.77660668
-0.59170598 -0.0095559862 0.77660668
-0.59170598 0.015534124 0.77660668
-0.59170598 0.040624321 0.77660644
-0.59170598 0.065714516 0.77660668
-0.59170598 0.090804629 0.77660668
-0.59170598 0.11589474 0.77660668
-0.59170598 0.14098485 0.77660668
-0.59170598 0.16607496 0.77660668
-0.59170598 0.19116516 0.77660644
-0.59170598 0.21625528 0.77660668
0 0 0 1 0 0 0 1 0 0 0 1 0 0 0 0 0 1262 1 0 0
