ply
format ascii 1.0
comment PCL generated
element vertex 1341
property float x
property float y
property float z
element camera 0
property float view_px
property float view_py
property float view_pz
property float x_axisx
property float x_axisy
property float x_axisz
property float y_axisx
property float y_axisy
property float y_axisz
property float z_axisx
property float z_axisy
property float z_axisz
property float focal
property float scalex
property float scaley
property float centerx
property float centery
property int viewportx
property int viewporty
property float k1
property float k2
end_header
0.37325191 0.19467324 -0.15863365
0.37325191 0.21027504 -0.15863347
0.37325191 0.22587688 -0.15863347
0.37325191 0.24147873 -0.15863353
0.37325191 0.25708053 -0.15863347
0.37325191 0.27268237 -0.15863347
0.37325191 0.28828421 -0.15863353
0.37325191 0.30388603 -0.15863347
0.37325191 0.31948796 -0.15863347
0.37325191 0.33508974 -0.15863353
0.25094691 -0.33930263 -0.13689935
0.26653916 -0.3390705 -0.13833559
0.28210956 -0.33883864 -0.13976979
0.29765818 -0.33860716 -0.14120185
0.31318501 -0.33837596 -0.14263201
0.3286916 -0.33814663 -0.14405078
0.34417513 -0.33791593 -0.145477
0.35963705 -0.33768576 -0.14690113
0.25094691 -0.32353354 -0.13689935
0.26653916 -0.3233124 -0.13833553
0.28210956 -0.32309157 -0.13976967
0.29765818 -0.32287109 -0.14120185
0.31318501 -0.32265091 -0.14263219
0.3286916 -0.32243243 -0.14405078
0.34417513 -0.3222129 -0.145477
0.35963705 -0.32199365 -0.14690113
0.25094691 -0.30776444 -0.13689935
0.26653916 -0.30755433 -0.13833553
0.28210956 -0.30734459 -0.13976967
0.29765818 -0.30713513 -0.14120185
0.31318501 -0.30692583 -0.14263213
0.3286916 -0.30671838 -0.14405078
0.34417513 -0.30650973 -0.145477
0.35963705 -0.30630147 -0.14690125
0.25094691 -0.2919952 -0.13689935
0.26653916 -0.29179624 -0.13833553
0.28210956 -0.29159752 -0.13976967
0.29765818 -0.29139903 -0.14120197
0.31318501 -0.29120088 -0.14263213
0.3286916 -0.2910043 -0.14405084
0.34417513 -0.29080671 -0.14547688
0.35963705 -0.29060927 -0.14690125
0.25094691 -0.27622607 -0.13689935
0.26653916 -0.27603805 -0.13833559
0.28210956 -0.27585047 -0.13976967
0.29765818 -0.27566302 -0.14120197
0.31318501 -0.27547589 -0.14263213
0.3286916 -0.27529019 -0.14405072
0.34417513 -0.27510363 -0.145477
0.35963705 -0.27491722 -0.14690113
0.25094691 -0.26045692 -0.13689935
0.26653916 -0.26028004 -0.13833559
0.28210956 -0.2601034 -0.13976985
0.29765818 -0.25992694 -0.14120191
0.31318501 -0.25975081 -0.14263201
0.32869014 -0.25957492 -0.14406025
0.34417513 -0.25940043 -0.145477
0.35963705 -0.2592251 -0.14690113
0.25094691 -0.24468778 -0.13689929
0.26653916 -0.24452192 -0.13833559
0.28210956 -0.2443563 -0.13976979
0.29765818 -0.24419095 -0.14120191
0.31318501 -0.24402586 -0.14263201
0.32869014 -0.24386089 -0.14406025
0.34417513 -0.24369736 -0.14547688
0.35963705 -0.24353287 -0.14690113
0.25094691 -0.22891861 -0.13689941
0.26653916 -0.22876388 -0.13833559
0.28210956 -0.22860931 -0.13976979
0.29765818 -0.22845492 -0.14120191
0.31318501 -0.22830084 -0.14263201
0.32869014 -0.2281469 -0.14406019
0.34417513 -0.22799419 -0.145477
0.35963705 -0.22784072 -0.14690113
0.25094691 -0.21314946 -0.13689935
0.26653916 -0.21300577 -0.13833553
0.28210956 -0.21286224 -0.13976979
0.29765818 -0.21271886 -0.14120191
0.31318501 -0.21257588 -0.14263201
0.32869014 -0.21243288 -0.14406019
0.34417513 -0.21229114 -0.14547688
0.35963705 -0.21214859 -0.14690125
0.25094691 -0.19738039 -0.13689935
0.26653916 -0.19724771 -0.13833553
0.28210956 -0.19711514 -0.13976967
0.29765818 -0.19698291 -0.14120191
0.31318501 -0.19685073 -0.14263213
0.32869014 -0.19671884 -0.14406025
0.34417513 -0.19658802 -0.145477
0.35963705 -0.19645645 -0.14690107
0.25094691 -0.18161124 -0.13689929
0.26653916 -0.18148962 -0.13833553
0.28210956 -0.18136814 -0.13976979
0.29765818 -0.18124689 -0.14120191
0.31318501 -0.18112576 -0.14263213
0.32869014 -0.18100487 -0.14406025
0.34417513 -0.18088482 -0.145477
0.35963705 -0.18076427 -0.14690107
0.25094691 -0.165842 -0.13689941
0.26653916 -0.16573155 -0.13833553
0.28210956 -0.16562106 -0.13976967
0.29765818 -0.16551088 -0.14120191
0.31318501 -0.16540076 -0.14263213
0.32869014 -0.16529085 -0.14406025
0.34417513 -0.16518179 -0.14547688
0.35963705 -0.16507214 -0.14690113
0.25094691 -0.1500729 -0.13689935
0.26653916 -0.14997338 -0.13833559
0.28210956 -0.149874 -0.13976967
0.29765818 -0.14977482 -0.14120185
0.31318501 -0.14967573 -0.14263201
0.32869014 -0.1495768 -0.14406019
0.34417513 -0.1494786 -0.14547688
0.35963705 -0.14937992 -0.14690113
0.25094691 -0.13430378 -0.13689935
0.26653916 -0.13421533 -0.13833559
0.28210956 -0.13412702 -0.13976967
0.29765818 -0.13403882 -0.14120185
0.31318501 -0.13395071 -0.14263201
0.32869014 -0.13386275 -0.14406025
0.34417361 -0.13377494 -0.14548647
0.35963705 -0.13368779 -0.14690125
0.25094691 -0.11853462 -0.13689929
0.26653916 -0.11845721 -0.13833559
0.28210956 -0.11837995 -0.13976967
0.29765818 -0.11830281 -0.14120185
0.31318501 -0.11822575 -0.14263201
0.32869014 -0.11814873 -0.14406025
0.34417361 -0.1180719 -0.14548635
0.35963705 -0.11799574 -0.14690107
0.25094691 -0.10276544 -0.13689941
0.26653916 -0.10269915 -0.13833553
0.28210956 -0.10263295 -0.13976967
0.29765818 -0.10256679 -0.14120185
0.31318501 -0.10250074 -0.14263201
0.32869014 -0.10243469 -0.14406025
0.34417361 -0.10236892 -0.1454863
0.35963705 -0.10230353 -0.14690107
0.25094581 -0.086995929 -0.13690889
0.26653916 -0.086941093 -0.13833553
0.28210956 -0.086885899 -0.13976967
0.29765818 -0.08683072 -0.14120173
0.31318501 -0.086775705 -0.14263201
0.32869014 -0.08672072 -0.14406019
0.34417361 -0.086665794 -0.14548635
0.35963705 -0.086611405 -0.14690113
0.25094581 -0.07122685 -0.13690889
0.26653916 -0.071182996 -0.13833541
0.28210956 -0.071138844 -0.13976967
0.29765818 -0.071094722 -0.14120191
0.31318501 -0.071050704 -0.14263195
0.32869014 -0.07100676 -0.14406019
0.34417361 -0.070962787 -0.1454863
0.35963544 -0.070918962 -0.14691061
0.25094581 -0.055457789 -0.13690889
0.26653916 -0.055424936 -0.13833553
0.28210956 -0.055391751 -0.13976985
0.29765818 -0.0553587 -0.14120191
0.31318501 -0.055325653 -0.14263213
0.32869014 -0.055292662 -0.14406025
0.34417361 -0.055259731 -0.14548647
0.35963544 -0.055226818 -0.14691061
0.25094581 -0.03968877 -0.13690889
0.26653916 -0.039666742 -0.13833559
0.28210956 -0.039644696 -0.13976979
0.29765818 -0.039622631 -0.14120191
0.31318501 -0.039600585 -0.14263201
0.32869014 -0.039578639 -0.14406025
0.34417361 -0.03955669 -0.14548635
0.35963705 -0.039534878 -0.14690125
0.25094581 -0.023919668 -0.13690889
0.26653916 -0.023908703 -0.13833559
0.28210956 -0.0238977 -0.13976979
0.29765818 -0.023886619 -0.14120191
0.31318501 -0.023875615 -0.14263213
0.32869014 -0.023864651 -0.14406025
0.34417361 -0.023853727 -0.14548635
0.35963544 -0.023842683 -0.14691061
0.31318501 -0.0081506455 -0.14263213
0.35963544 -0.0081506846 -0.14691055
0.25094581 -0.008150626 -0.13690889
0.26653916 -0.0081505869 -0.13833559
0.28210956 -0.008150626 -0.13976967
0.29765818 -0.0081506064 -0.14120191
0.32869014 -0.008150626 -0.14406019
0.34417361 -0.0081506064 -0.14548635
0.25094581 0.0076184943 -0.13690889
0.26653916 0.0076074507 -0.13833559
0.28210956 0.0075964294 -0.13976967
0.29765818 0.0075854249 -0.14120191
0.31318501 0.0075744018 -0.14263201
0.32869014 0.0075633805 -0.14406013
0.34417361 0.0075524356 -0.14548635
0.35963544 0.0075414311 -0.14691055
0.25094581 0.023387574 -0.13690889
0.26653799 0.023365371 -0.138345
0.28210956 0.023343425 -0.13976979
0.29765818 0.023321457 -0.14120185
0.31318501 0.023299411 -0.14263201
0.32869014 0.023277465 -0.14406025
0.34417361 0.023255419 -0.1454863
0.35963544 0.023233548 -0.14691049
0.25094581 0.039156634 -0.13690883
0.26653799 0.039123412 -0.13834506
0.28210956 0.039090518 -0.13976967
0.29765818 0.039057471 -0.14120185
0.31318501 0.039024383 -0.14263195
0.32869014 0.038991489 -0.14406025
0.34417361 0.038958497 -0.14548635
0.35963544 0.038925607 -0.14691055
0.25094581 0.054925662 -0.13690889
0.26653799 0.054881427 -0.13834506
0.28210956 0.054837596 -0.13976967
0.29765818 0.054793421 -0.14120191
0.31318501 0.054749388 -0.14263195
0.32869014 0.054705415 -0.14406025
0.34417361 0.054661561 -0.14548635
0.35963544 0.054617744 -0.14691061
0.26653799 0.070639461 -0.13834506
0.28210956 0.070584595 -0.13976967
0.29765818 0.070529476 -0.14120185
0.31318501 0.07047452 -0.14263213
0.32869014 0.070419416 -0.14406019
0.34417361 0.070364624 -0.14548647
0.35963544 0.070309728 -0.14691055
0.25094581 0.070694745 -0.13690889
0.25094581 0.086463839 -0.13690889
0.26653799 0.086397469 -0.13834506
0.28210956 0.086331666 -0.13976967
0.29765818 0.086265475 -0.14120185
0.31318501 0.086199492 -0.14263213
0.32869014 0.086133525 -0.14406025
0.34417361 0.086067647 -0.14548635
0.35963544 0.086001858 -0.14691061
0.25094581 0.10223292 -0.13690889
0.26653799 0.10215551 -0.13834512
0.28210956 0.10207866 -0.13976967
0.29765818 0.10200152 -0.14120185
0.31318501 0.10192449 -0.14263213
0.32869014 0.10184753 -0.14406025
0.34417361 0.10177061 -0.14548635
0.35963544 0.1016939 -0.14691055
0.25094581 0.11800198 -0.13690883
0.26653799 0.11791353 -0.13834512
0.28210956 0.1178257 -0.13976967
0.29765818 0.11773753 -0.14120173
0.31318501 0.11764954 -0.14263201
0.32869014 0.11756156 -0.14406025
0.34417361 0.11747375 -0.14548635
0.35963544 0.11738604 -0.14691061
0.25094581 0.13377109 -0.13690889
0.26653799 0.13367149 -0.138345
0.28210834 0.13357216 -0.13977921
0.29765818 0.13347356 -0.14120173
0.31318501 0.13337451 -0.14263201
0.32869014 0.13327555 -0.14406013
0.34417361 0.13317677 -0.14548635
0.35963544 0.13307801 -0.14691055
0.26653799 0.1494295 -0.138345
0.28210834 0.14931916 -0.13977921
0.29765818 0.14920966 -0.14120191
0.31318501 0.1490995 -0.14263201
0.32869014 0.14898957 -0.14406013
0.34417361 0.14887975 -0.1454863
0.35963544 0.14877014 -0.14691055
0.25094581 0.14954008 -0.13690889
0.25094581 0.16530919 -0.13690889
0.26653799 0.16518752 -0.138345
0.28210834 0.16506608 -0.13977909
0.29765818 0.16494569 -0.14120191
0.31318501 0.16482447 -0.14263201
0.32869014 0.16470368 -0.14406025
0.34417361 0.16458285 -0.14548635
0.35963544 0.16446221 -0.14691061
0.25094581 0.18107827 -0.13690889
0.26653799 0.18094555 -0.13834506
0.28210834 0.18081303 -0.13977915
0.29765818 0.18068166 -0.14120191
0.31318501 0.18054952 -0.14263195
0.32869014 0.1804176 -0.14406025
0.34417361 0.18028581 -0.14548635
0.35963544 0.18015432 -0.14691055
0.25094581 0.19684733 -0.13690889
0.26653799 0.19670358 -0.138345
0.28210834 0.19656003 -0.13977915
0.29765686 0.19641672 -0.14121139
0.31318501 0.19627459 -0.14263213
0.32869014 0.1961316 -0.14406019
0.34417361 0.19598888 -0.1454863
0.35963544 0.19584647 -0.14691055
0.25094581 0.21261643 -0.13690889
0.26653799 0.21246158 -0.13834506
0.28210834 0.21230702 -0.13977915
0.29765818 0.2121537 -0.14120191
0.31318501 0.21199958 -0.14263213
0.32869014 0.21184564 -0.14406019
0.34417361 0.21169198 -0.14548635
0.35963544 0.21153845 -0.14691055
0.26653799 0.22821963 -0.13834506
0.28210834 0.22805405 -0.13977921
0.29765818 0.22788976 -0.14120191
0.31318501 0.22772463 -0.14263213
0.32869014 0.22755972 -0.14406025
0.34417361 0.22739497 -0.14548635
0.35963544 0.22723058 -0.14691055
0.25094581 0.22838551 -0.13690889
0.25094581 0.24415453 -0.13690889
0.26653799 0.24397765 -0.13834512
0.28210834 0.24380104 -0.13977921
0.29765686 0.24362464 -0.14121139
0.31318501 0.24344961 -0.14263213
0.32869014 0.24327372 -0.14406025
0.34417361 0.24309804 -0.14548647
0.35963544 0.24292256 -0.14691049
0.25094581 0.25992361 -0.13690889
0.26653799 0.25973567 -0.13834506
0.28210834 0.25954786 -0.13977915
0.29765686 0.25936052 -0.14121133
0.31318501 0.25917459 -0.14263201
0.32869014 0.25898772 -0.14406019
0.34417361 0.2588011 -0.14548635
0.35963544 0.25861469 -0.14691055
0.25094581 0.27569267 -0.13690889
0.26653799 0.27549362 -0.138345
0.28210834 0.27529493 -0.13977909
0.29765686 0.27509648 -0.14121133
0.31318501 0.27489957 -0.14263201
0.32869014 0.27470174 -0.14406013
0.34417361 0.27450407 -0.14548635
0.35963544 0.2743068 -0.14691061
0.25094581 0.29146177 -0.13690889
0.26653799 0.29125169 -0.138345
0.28210834 0.29104194 -0.13977909
0.29765686 0.2908324 -0.14121133
0.31318501 0.29062462 -0.14263195
0.32869014 0.29041573 -0.14406013
0.34417361 0.29020718 -0.14548635
0.35963544 0.28999877 -0.14691055
0.26653799 0.30700958 -0.138345
0.28210834 0.3067888 -0.13977921
0.29765686 0.30656838 -0.14121133
0.31318364 0.3063482 -0.14264148
0.32869014 0.30612984 -0.14406025
0.34417361 0.30591014 -0.14548635
0.35963544 0.30569091 -0.14691061
0.25094581 0.30723083 -0.13690889
0.25094581 0.32299989 -0.13690883
0.26653799 0.32276762 -0.13834506
0.28210834 0.32253581 -0.13977921
0.29765686 0.32230431 -0.14121139
0.31318364 0.32207313 -0.14264148
0.32869014 0.32184386 -0.14406019
0.34417361 0.32161325 -0.14548624
0.35963544 0.32138297 -0.14691049
0.25094581 0.33876899 -0.13690883
0.26653799 0.33852565 -0.13834506
0.28210834 0.33828279 -0.13977921
0.29765686 0.33804029 -0.14121145
0.31318364 0.33779806 -0.1426416
0.32869014 0.33755785 -0.14406013
0.34417361 0.3373163 -0.14548635
0.35963544 0.33707511 -0.14691055
0.10962496 -0.34140387 -0.12390161
0.12541577 -0.34116867 -0.12535614
0.14118434 -0.34093389 -0.12680852
0.15693134 -0.34070101 -0.12824923
0.17265557 -0.34046689 -0.12969762
0.1883577 -0.34023306 -0.13114399
0.20403771 -0.33999965 -0.13258827
0.21969573 -0.3397665 -0.13403046
0.23533173 -0.33953354 -0.13547075
0.10962496 -0.32553461 -0.12390178
0.12541577 -0.32531071 -0.12535608
0.14118434 -0.32508713 -0.12680852
0.15693134 -0.32486531 -0.12824929
0.17265557 -0.32464233 -0.12969762
0.1883577 -0.32441959 -0.13114399
0.20403771 -0.3241972 -0.13258821
0.21969573 -0.32397518 -0.13403052
0.23533173 -0.32375345 -0.13547063
0.10962496 -0.30966538 -0.12390167
0.12541577 -0.30945271 -0.12535614
0.14118434 -0.30924025 -0.12680858
0.15693134 -0.30902952 -0.12824929
0.17265557 -0.30881768 -0.12969762
0.1883577 -0.30860612 -0.13114405
0.20403771 -0.30839491 -0.13258809
0.21969573 -0.308184 -0.13403046
0.23533173 -0.30797333 -0.13547075
0.10962496 -0.29379621 -0.12390167
0.12541577 -0.29359475 -0.12535608
0.14118434 -0.29339343 -0.12680858
0.15693134 -0.29319376 -0.12824929
0.17265557 -0.29299313 -0.12969762
0.1883577 -0.29279268 -0.13114399
0.20403771 -0.29259259 -0.13258821
0.21969573 -0.2923927 -0.13403052
0.23533173 -0.2921932 -0.13547075
0.10962496 -0.27792704 -0.12390167
0.12541577 -0.27773666 -0.12535614
0.14118434 -0.27754664 -0.12680858
0.15693134 -0.27735808 -0.12824923
0.17265557 -0.27716854 -0.12969756
0.1883577 -0.27697924 -0.13114405
0.20403771 -0.27679023 -0.13258827
0.21969573 -0.27660155 -0.13403052
0.23533173 -0.27641305 -0.13547063
0.10962496 -0.26205784 -0.12390167
0.12541577 -0.2618787 -0.12535608
0.14118434 -0.26169977 -0.12680852
0.15693134 -0.26152238 -0.12824929
0.17265557 -0.26134396 -0.12969762
0.1883577 -0.26116589 -0.13114387
0.20403771 -0.26098797 -0.13258821
0.21969573 -0.26081029 -0.13403046
0.23533173 -0.26063296 -0.13547063
0.10962496 -0.24618864 -0.12390161
0.12541577 -0.24602066 -0.12535614
0.14118434 -0.24585296 -0.12680858
0.15693134 -0.24568661 -0.12824935
0.17265557 -0.2455194 -0.12969762
0.1883577 -0.24535237 -0.13114387
0.20403771 -0.2451856 -0.13258827
0.21969573 -0.24501905 -0.13403052
0.23533173 -0.24485272 -0.13547081
0.10962496 -0.2303194 -0.12390161
0.12541577 -0.23016271 -0.12535608
0.14118434 -0.23000608 -0.12680852
0.15693134 -0.22985084 -0.12824935
0.17265557 -0.22969481 -0.12969756
0.1883577 -0.22953892 -0.13114387
0.20403771 -0.22938322 -0.13258833
0.21969573 -0.22922778 -0.13403046
0.23533173 -0.22907262 -0.13547075
0.10962496 -0.21445024 -0.12390161
0.12541577 -0.21430469 -0.12535614
0.14118434 -0.21415931 -0.12680858
0.15693134 -0.21401519 -0.12824929
0.17265557 -0.21387015 -0.12969774
0.1883577 -0.21372545 -0.13114387
0.20403771 -0.21358095 -0.13258821
0.21969573 -0.21343663 -0.13403046
0.23533173 -0.21329242 -0.13547063
0.10962496 -0.19858103 -0.12390161
0.12541577 -0.19844668 -0.12535608
0.14118434 -0.19831248 -0.12680858
0.15693134 -0.19817942 -0.12824929
0.17265557 -0.19804558 -0.12969762
0.1883577 -0.19791199 -0.13114387
0.20403771 -0.19777861 -0.13258827
0.21969573 -0.19764534 -0.13403052
0.23533173 -0.19751231 -0.13547063
0.10962496 -0.18271185 -0.12390161
0.12541577 -0.18258865 -0.12535614
0.14118434 -0.18246564 -0.12680858
0.15693134 -0.18234366 -0.12824935
0.17265557 -0.18222107 -0.12969756
0.1883577 -0.18209854 -0.13114387
0.20403771 -0.18197629 -0.13258809
0.21969573 -0.18185414 -0.13403046
0.23533173 -0.18173218 -0.13547063
0.10962496 -0.16684267 -0.12390161
0.12541577 -0.16673069 -0.12535608
0.14118434 -0.16661882 -0.12680858
0.15693134 -0.1665079 -0.12824935
0.17265557 -0.16639642 -0.12969774
0.1883577 -0.16628514 -0.13114387
0.20403771 -0.16617393 -0.13258821
0.21969573 -0.16606292 -0.13403034
0.23533173 -0.16595207 -0.13547063
0.10962496 -0.15097344 -0.12390155
0.12541577 -0.15087262 -0.12535608
0.14118434 -0.15077201 -0.12680858
0.15693134 -0.15067223 -0.12824929
0.17265557 -0.15057184 -0.12969762
0.1883577 -0.15047167 -0.13114399
0.20403771 -0.15037155 -0.13258827
0.21969573 -0.1502717 -0.13403052
0.23533173 -0.15017192 -0.13547057
0.10962496 -0.13510422 -0.12390167
0.12541577 -0.1350147 -0.12535608
0.14118434 -0.13492516 -0.12680858
0.15693134 -0.13483647 -0.12824929
0.17265557 -0.13474731 -0.12969756
0.1883577 -0.13465822 -0.13114387
0.20403771 -0.13456929 -0.13258821
0.21969573 -0.13448043 -0.13403046
0.23533173 -0.13439174 -0.13547075
0.10962496 -0.11923495 -0.12390167
0.12541577 -0.11915664 -0.12535614
0.14118434 -0.11907835 -0.12680858
0.15693134 -0.1190007 -0.12824929
0.17265557 -0.11892265 -0.12969762
0.1883577 -0.11884475 -0.13114399
0.20403771 -0.11876695 -0.13258821
0.21969573 -0.11868922 -0.13403052
0.23533173 -0.1186116 -0.13547063
0.10962496 -0.10336581 -0.12390167
0.12541577 -0.10329868 -0.12535608
0.14118434 -0.10323158 -0.12680846
0.15693134 -0.10316499 -0.12824935
0.17265557 -0.10309814 -0.12969762
0.1883577 -0.10303131 -0.13114399
0.20403771 -0.10296459 -0.13258827
0.21969573 -0.10289799 -0.13403046
0.23533173 -0.1028315 -0.13547063
0.10962496 -0.087496579 -0.12390161
0.12541577 -0.08744061 -0.12535608
0.14118434 -0.08738476 -0.12680846
0.15693134 -0.087329343 -0.12824923
0.17265557 -0.087273583 -0.12969762
0.1883577 -0.087217838 -0.13114387
0.20403771 -0.087162316 -0.13258821
0.21969573 -0.087106809 -0.13403046
0.23533173 -0.087051362 -0.13547063
0.10962496 -0.071627393 -0.12390161
0.12541577 -0.07158263 -0.12535602
0.14118434 -0.071537971 -0.12680852
0.15693134 -0.071493581 -0.12824929
0.17265557 -0.071448907 -0.12969774
0.1883577 -0.071404368 -0.13114399
0.20403771 -0.071359932 -0.13258827
0.21969573 -0.071315497 -0.13403046
0.23533173 -0.071271256 -0.13547063
0.10962496 -0.055758245 -0.12390167
0.12541577 -0.055724669 -0.12535614
0.14118434 -0.055691089 -0.12680846
0.15693134 -0.055657808 -0.12824935
0.17265557 -0.055624347 -0.12969756
0.1883577 -0.055590983 -0.13114399
0.20403771 -0.055557583 -0.13258827
0.21969573 -0.055524357 -0.13403046
0.23533173 -0.055491112 -0.13547063
0.10962496 -0.039889019 -0.12390161
0.12541577 -0.03986666 -0.12535608
0.14118434 -0.039844323 -0.12680852
0.15693134 -0.039822079 -0.12824935
0.17265557 -0.039799839 -0.12969762
0.1883577 -0.039777517 -0.13114399
0.20403771 -0.039755318 -0.13258821
0.21969573 -0.039733093 -0.13403046
0.23533173 -0.039710931 -0.13547075
0.10962496 -0.024019873 -0.12390161
0.12541577 -0.024008634 -0.12535608
0.14118434 -0.023997493 -0.12680852
0.15693134 -0.023986392 -0.12824923
0.17265557 -0.023975173 -0.12969774
0.1883577 -0.023964072 -0.13114399
0.20403771 -0.023952913 -0.13258821
0.21969573 -0.023941871 -0.13403052
0.23533173 -0.02393071 -0.13547063
0.20403771 -0.0081506651 -0.13258821
0.21969573 -0.0081506651 -0.13403046
0.10962496 -0.008150626 -0.12390161
0.12541577 -0.008150626 -0.12535608
0.14118434 -0.008150626 -0.12680846
0.15693134 -0.008150626 -0.12824929
0.17265557 -0.008150626 -0.12969762
0.1883577 -0.0081505869 -0.13114399
0.23533173 -0.008150626 -0.13547063
0.10962496 0.0077185426 -0.12390161
0.12541577 0.0077074226 -0.12535608
0.14118434 0.0076961834 -0.12680852
0.15693069 0.0076850224 -0.12825894
0.17265557 0.0076739602 -0.12969756
0.1883577 0.0076628588 -0.13114399
0.20403771 0.0076517202 -0.13258821
0.21969573 0.0076406188 -0.13403052
0.23533173 0.0076295361 -0.13547063
0.10962496 0.023587748 -0.12390161
0.12541577 0.02356533 -0.12535608
0.14118434 0.02354297 -0.12680852
0.15693069 0.023520689 -0.12825882
0.17265557 0.023498606 -0.12969774
0.1883577 0.023476306 -0.13114399
0.20403771 0.023454044 -0.13258827
0.21969573 0.023431823 -0.13403046
0.23533173 0.023409639 -0.13547063
0.10962496 0.039456937 -0.12390161
0.12541577 0.039423399 -0.12535614
0.14118434 0.039389838 -0.12680852
0.15693069 0.039356418 -0.12825894
0.17265557 0.039323114 -0.12969762
0.1883577 0.039289791 -0.13114399
0.20403771 0.039256349 -0.13258821
0.21969573 0.039223008 -0.13403046
0.23533173 0.039189782 -0.13547057
0.10962496 0.055326205 -0.12390178
0.12541577 0.055281345 -0.12535608
0.14118434 0.055236626 -0.12680852
0.15693069 0.055192005 -0.12825882
0.17265557 0.055147681 -0.12969756
0.1883577 0.055103157 -0.13114405
0.20403771 0.055058714 -0.13258821
0.21969573 0.055014309 -0.13403052
0.23533173 0.054969963 -0.13547075
0.10962496 0.071195409 -0.12390167
0.12541577 0.07113941 -0.12535614
0.14118434 0.071083516 -0.12680852
0.15693069 0.071027696 -0.12825894
0.17265557 0.070972323 -0.12969774
0.1883577 0.070916563 -0.13114387
0.20403771 0.070861042 -0.13258827
0.21969573 0.070805475 -0.13403046
0.23533173 0.070750102 -0.13547063
0.10962496 0.087064594 -0.12390167
0.12541577 0.086997375 -0.12535608
0.14118434 0.086930305 -0.12680852
0.15693069 0.086863324 -0.12825894
0.17265557 0.08679688 -0.12969762
0.1883577 0.086730018 -0.13114387
0.20403771 0.08666335 -0.13258821
0.21969573 0.086596698 -0.13403034
0.23533173 0.086530209 -0.13547075
0.10962496 0.10293381 -0.12390167
0.12541577 0.10285544 -0.12535608
0.14118434 0.10277709 -0.12680852
0.15693069 0.102699 -0.12825894
0.17265557 0.10262144 -0.12969756
0.1883577 0.10254346 -0.13114387
0.20403771 0.10246567 -0.13258821
0.21969573 0.10238796 -0.13403052
0.23533173 0.10231036 -0.13547063
0.10962496 0.11880299 -0.12390161
0.12541577 0.11871336 -0.12535608
0.14118434 0.11862397 -0.12680852
0.15693069 0.11853461 -0.12825894
0.17265485 0.1184455 -0.12970728
0.1883577 0.11835694 -0.13114387
0.20403771 0.11826806 -0.13258833
0.21969573 0.11817917 -0.13403046
0.23533173 0.11809047 -0.13547063
0.10962496 0.13467219 -0.12390161
0.12541577 0.13457143 -0.12535608
0.14118434 0.13447081 -0.12680852
0.15693069 0.13437031 -0.12825894
0.17265485 0.13427 -0.12970728
0.1883577 0.1341704 -0.13114387
0.20403771 0.13407038 -0.13258821
0.21969573 0.13397044 -0.13403058
0.23533173 0.1338706 -0.13547063
0.10962496 0.15054139 -0.12390161
0.12541577 0.15042941 -0.12535608
0.14118434 0.15031758 -0.12680852
0.15693069 0.15020591 -0.12825882
0.17265485 0.15009452 -0.12970728
0.1883577 0.14998388 -0.13114387
0.20403771 0.14987271 -0.13258821
0.21969573 0.14976166 -0.13403046
0.23533173 0.14965087 -0.13547075
0.10962496 0.16641054 -0.12390161
0.12541577 0.16628744 -0.12535608
0.14118434 0.16616444 -0.12680852
0.15693069 0.16604163 -0.12825894
0.17265485 0.16591899 -0.12970728
0.1883577 0.16579732 -0.13114387
0.20403771 0.165675 -0.13258809
0.21969573 0.16555284 -0.13403046
0.23533173 0.16543096 -0.13547063
0.10962496 0.18227978 -0.12390161
0.12541577 0.18214542 -0.12535602
0.14118434 0.18201123 -0.12680852
0.15693069 0.1818773 -0.12825882
0.17265485 0.18174352 -0.12970722
0.1883577 0.18161073 -0.13114387
0.20403771 0.18147734 -0.13258821
0.21969573 0.18134414 -0.13403046
0.23533173 0.18121111 -0.13547063
0.10962496 0.19814894 -0.12390161
0.12541577 0.1980034 -0.12535608
0.14118434 0.19785812 -0.12680852
0.15693069 0.19771299 -0.12825894
0.17265485 0.19756801 -0.12970722
0.18835688 0.19742329 -0.13115346
0.20403771 0.19727971 -0.13258821
0.21969573 0.19713531 -0.13403046
0.23533173 0.19699122 -0.13547063
0.10962496 0.21401818 -0.12390161
0.12541577 0.21386139 -0.12535608
0.14118434 0.21370491 -0.12680852
0.15693069 0.21354857 -0.12825882
0.17265485 0.21339251 -0.12970722
0.1883577 0.21323764 -0.13114387
0.20403771 0.21308197 -0.13258821
0.21969573 0.21292654 -0.13403046
0.23533173 0.21277136 -0.13547063
0.10962496 0.22988732 -0.12390161
0.12541577 0.22971946 -0.12535608
0.14118434 0.2295517 -0.12680852
0.15693069 0.2293843 -0.12825894
0.17265485 0.22921701 -0.12970722
0.18835688 0.22905 -0.13115346
0.20403771 0.22888434 -0.13258821
0.21969573 0.22871786 -0.13403046
0.23533173 0.22855148 -0.13547057
0.10962496 0.24575667 -0.12390167
0.12541577 0.24557744 -0.12535608
0.14118434 0.24539857 -0.12680852
0.15693069 0.2452199 -0.12825894
0.17265485 0.24504153 -0.1297071
0.18835688 0.24486341 -0.13115352
0.20403771 0.24468668 -0.13258827
0.21969573 0.244509 -0.13403046
0.23533173 0.24433161 -0.13547063
0.10962496 0.26162577 -0.12390167
0.12541577 0.26143545 -0.12535608
0.14118434 0.26124534 -0.12680852
0.15693069 0.26105559 -0.12825894
0.17265485 0.26086599 -0.12970722
0.18835688 0.2606768 -0.13115352
0.20403771 0.26048896 -0.13258821
0.21969573 0.26030034 -0.13403052
0.23533173 0.26011178 -0.13547063
0.10962496 0.27749497 -0.12390167
0.12541577 0.27729341 -0.12535608
0.14118434 0.27709222 -0.12680852
0.15693069 0.2768912 -0.12825882
0.17265485 0.27669051 -0.1297071
0.18835688 0.27649009 -0.13115346
0.20403771 0.27629137 -0.13258821
0.21969573 0.27609155 -0.13403046
0.23533173 0.27589202 -0.13547063
0.10962496 0.29336417 -0.12390161
0.12541577 0.2931515 -0.12535608
0.14118434 0.29293904 -0.12680852
0.15693069 0.29272693 -0.12825894
0.17265485 0.29251504 -0.1297071
0.18835688 0.29230356 -0.13115346
0.20403683 0.29209232 -0.13259774
0.21969573 0.29188272 -0.13403034
0.23533173 0.29167211 -0.13547063
0.10962496 0.30923343 -0.12390161
0.12541577 0.30900949 -0.12535602
0.14118434 0.30878583 -0.12680852
0.15693069 0.30856249 -0.12825894
0.17265485 0.3083396 -0.12970728
0.18835688 0.30811691 -0.13115352
0.20403683 0.30789456 -0.13259774
0.21969573 0.30767396 -0.13403046
0.23533173 0.30745226 -0.13547063
0.10962496 0.32510251 -0.12390161
0.12541577 0.3248674 -0.12535614
0.14118434 0.32463261 -0.12680852
0.15693069 0.32439825 -0.12825894
0.17265485 0.32416415 -0.12970728
0.18835688 0.32393035 -0.13115352
0.20403683 0.32369682 -0.1325978
0.21969573 0.32346514 -0.13403046
0.23533173 0.32323235 -0.13547063
0.10962496 0.34097177 -0.12390161
0.12541577 0.34072539 -0.12535608
0.14118434 0.34047943 -0.12680858
0.15693069 0.3402338 -0.12825894
0.17265485 0.33998859 -0.12970728
0.18835688 0.33974361 -0.13115346
0.20403683 0.33949903 -0.13259774
0.21969573 0.33925641 -0.13403034
0.23533173 0.3390125 -0.13547057
-0.033501849 -0.34353188 -0.11073792
-0.017508779 -0.34329525 -0.11220133
-0.0015381882 -0.34305748 -0.11367232
0.014409757 -0.34281999 -0.11514127
0.030335102 -0.34258291 -0.11660814
0.046237901 -0.34234607 -0.11807287
0.062118415 -0.3421112 -0.11952591
0.077976324 -0.34187514 -0.12098658
0.093811825 -0.34163928 -0.12244517
-0.033501849 -0.32756126 -0.11073798
-0.017508779 -0.32733607 -0.11220121
-0.0015381882 -0.32710961 -0.11367232
0.014409757 -0.32688341 -0.11514121
0.030335102 -0.32665753 -0.11660814
0.046237901 -0.32643202 -0.11807293
0.062118415 -0.32620832 -0.11952591
0.077976324 -0.32598352 -0.12098658
0.093811825 -0.32575887 -0.12244517
-0.033501849 -0.31159076 -0.11073792
-0.017508779 -0.31137672 -0.11220139
-0.0015381882 -0.31116164 -0.11367238
0.014409757 -0.31094667 -0.11514127
0.030335102 -0.31073222 -0.11660814
0.046237901 -0.310518 -0.11807287
0.062118415 -0.31030548 -0.11952597
0.077976324 -0.31009176 -0.12098658
0.093811825 -0.30987856 -0.12244511
-0.033501849 -0.29562026 -0.11073792
-0.017508779 -0.29541749 -0.11220121
-0.0015381882 -0.29521367 -0.11367232
0.014409757 -0.29501012 -0.11514127
0.030335102 -0.29480687 -0.11660814
0.046237901 -0.29460391 -0.11807293
0.062118415 -0.29440257 -0.11952591
0.077976324 -0.29420018 -0.12098646
0.093811825 -0.29399809 -0.12244511
-0.033501849 -0.27964976 -0.11073792
-0.017508779 -0.27945822 -0.11220121
-0.0015381882 -0.27926567 -0.11367232
0.014409757 -0.27907342 -0.11514133
0.030335102 -0.27888152 -0.11660814
0.046237901 -0.2786898 -0.11807287
0.062118415 -0.27849969 -0.11952591
0.077976324 -0.27830848 -0.12098658
0.093811825 -0.2781176 -0.12244517
-0.033501849 -0.26367915 -0.1107381
-0.017508779 -0.26349893 -0.11220133
-0.0015381882 -0.26331779 -0.11367232
0.014409757 -0.2631368 -0.11514127
0.030335102 -0.26295614 -0.11660814
0.046237901 -0.26277575 -0.11807275
0.062118415 -0.26259685 -0.11952591
0.077976324 -0.26241687 -0.12098658
0.093811825 -0.26223725 -0.12244505
-0.033501849 -0.24770863 -0.11073798
-0.017508779 -0.2475397 -0.11220121
-0.0015381882 -0.24736986 -0.11367226
0.014409757 -0.24720025 -0.11514121
0.030335102 -0.24703087 -0.11660814
0.046237901 -0.24686168 -0.11807287
0.062118415 -0.24669382 -0.11952591
0.077976324 -0.24652526 -0.12098646
0.093811825 -0.24635683 -0.12244511
-0.033501849 -0.23173814 -0.11073792
-0.017508779 -0.23158035 -0.11220133
-0.0015381882 -0.23142183 -0.11367232
0.014409757 -0.23126355 -0.11514127
0.030335102 -0.23110543 -0.11660814
0.046237901 -0.23094763 -0.11807293
0.062118415 -0.23079097 -0.11952591
0.077976324 -0.23063359 -0.12098658
0.093811825 -0.23047642 -0.12244511
-0.033501849 -0.21576759 -0.11073792
-0.017508779 -0.2156211 -0.11220121
-0.0015381882 -0.21547391 -0.11367232
0.014409757 -0.21532696 -0.11514121
0.030335102 -0.21518013 -0.11660802
0.046237901 -0.2150335 -0.11807293
0.062118415 -0.21488811 -0.11952591
0.077976324 -0.21474192 -0.12098646
0.093811825 -0.21459594 -0.12244517
-0.033501849 -0.19979708 -0.11073792
-0.017508779 -0.1996619 -0.11220121
-0.0015381882 -0.19952595 -0.11367238
0.014409757 -0.19939026 -0.11514127
0.030335102 -0.19925475 -0.11660814
0.046237901 -0.19911946 -0.11807287
0.062118415 -0.19898519 -0.11952585
0.077976324 -0.19885026 -0.12098658
0.093811825 -0.19871557 -0.12244511
-0.033501849 -0.18382645 -0.11073798
-0.017508779 -0.18370259 -0.11220133
-0.0015381882 -0.18357804 -0.11367232
0.014409757 -0.18345368 -0.11514127
0.030335102 -0.18332949 -0.11660802
0.046237901 -0.18320534 -0.11807287
0.062118415 -0.18308233 -0.11952591
0.077976324 -0.18295865 -0.12098658
0.093811825 -0.18283515 -0.12244511
-0.033501849 -0.16785592 -0.11073798
-0.017508779 -0.16774334 -0.11220121
-0.0015381882 -0.16763009 -0.11367226
0.014409757 -0.16751696 -0.11514127
0.030335102 -0.16740406 -0.11660814
0.046237901 -0.1672913 -0.11807293
0.062118415 -0.16717952 -0.11952585
0.077976324 -0.16706707 -0.12098646
0.093811825 -0.16695474 -0.12244517
-0.033501849 -0.15188542 -0.11073792
-0.017508779 -0.15178399 -0.11220133
-0.0015381882 -0.15168209 -0.11367232
0.014409757 -0.15158035 -0.11514121
0.030335102 -0.15147868 -0.11660814
0.046237901 -0.15137729 -0.11807287
0.062118415 -0.15127666 -0.11952585
0.077976324 -0.15117536 -0.12098658
0.093811825 -0.15107438 -0.12244511
-0.033501849 -0.13591492 -0.11073792
-0.017508779 -0.13582481 -0.11220133
-0.0015381882 -0.1357342 -0.11367232
0.014409757 -0.13564377 -0.11514121
0.030335102 -0.13555342 -0.11660814
0.046237901 -0.13546318 -0.11807287
0.062118415 -0.13537367 -0.11952591
0.077976324 -0.1352838 -0.12098658
0.093811825 -0.13519393 -0.12244511
-0.033501849 -0.11994441 -0.11073786
-0.017508779 -0.11986554 -0.11220121
-0.0015381882 -0.11978622 -0.11367238
0.014409757 -0.11970706 -0.11514127
0.030335102 -0.11962804 -0.11660814
0.046237901 -0.11954908 -0.11807293
0.062118415 -0.1194708 -0.11952597
0.077976324 -0.11939205 -0.12098658
0.093811825 -0.11931351 -0.12244511
-0.033501849 -0.10397381 -0.11073798
-0.017508779 -0.10390623 -0.11220133
-0.0015381882 -0.10383826 -0.11367232
0.014409757 -0.10377048 -0.11514121
0.030335102 -0.10370268 -0.11660814
0.046237901 -0.10363504 -0.11807275
0.062118415 -0.10356796 -0.11952591
0.077976324 -0.10350046 -0.12098658
0.093811825 -0.10343306 -0.12244517
-0.033501849 -0.088003308 -0.11073798
-0.017508779 -0.087946966 -0.11220121
-0.0015381882 -0.087890372 -0.11367226
0.014409757 -0.087833762 -0.11514127
0.030335102 -0.087777346 -0.11660814
0.046237901 -0.087720975 -0.11807287
0.062118415 -0.087665036 -0.11952585
0.077976324 -0.087608859 -0.12098646
0.093811825 -0.087552711 -0.12244511
-0.033501849 -0.072032794 -0.11073792
-0.017508779 -0.071987689 -0.11220133
-0.0015381882 -0.071942404 -0.11367238
0.014409757 -0.071897194 -0.11514121
0.030335102 -0.071852043 -0.11660814
0.046237901 -0.071806908 -0.11807293
0.062118415 -0.071762174 -0.11952585
0.077976324 -0.071717188 -0.12098658
0.093811825 -0.071672305 -0.12244511
-0.033501849 -0.056062266 -0.11073792
-0.017508779 -0.056028452 -0.11220121
-0.0015381882 -0.055994485 -0.11367232
0.014409757 -0.055960495 -0.11514127
0.030335102 -0.055926606 -0.11660814
0.046237901 -0.05589287 -0.11807287
0.062118415 -0.055859312 -0.11952585
0.077976324 -0.055825599 -0.12098658
0.093811825 -0.055791825 -0.12244511
-0.033501849 -0.040091623 -0.11073798
-0.017508779 -0.040069163 -0.11220121
-0.0015381882 -0.040046453 -0.11367238
0.014409757 -0.04002386 -0.11514121
0.030335102 -0.040001344 -0.11660802
0.046237901 -0.03997875 -0.11807287
0.062118415 -0.039956391 -0.11952585
0.077976324 -0.039933912 -0.12098658
0.093811825 -0.039911497 -0.12244505
-0.033501849 -0.024121134 -0.11073798
-0.017508779 -0.024109855 -0.11220133
-0.0015381882 -0.02409854 -0.11367232
0.014409757 -0.024087261 -0.11514127
0.030335102 -0.024075964 -0.11660814
0.046237901 -0.024064628 -0.11807293
0.062118415 -0.024053469 -0.11952597
0.077976324 -0.024042251 -0.12098658
0.093811825 -0.024031071 -0.12244511
-0.017508779 -0.0081506651 -0.11220133
-0.0015381882 -0.0081506651 -0.11367232
0.030335102 -0.0081506651 -0.11660802
0.046237901 -0.0081507042 -0.11807287
0.077976324 -0.0081506651 -0.12098646
-0.033501849 -0.008150626 -0.11073792
0.014409757 -0.008150626 -0.11514127
0.062118415 -0.0081505869 -0.11952591
0.093811825 -0.008150626 -0.12244511
-0.033501849 0.0078199208 -0.11073792
-0.017508779 0.0078086834 -0.11220133
-0.0015381882 0.0077973269 -0.11367232
0.014409757 0.0077859312 -0.11514121
0.030335102 0.007774733 -0.11660814
0.046237901 0.0077634156 -0.11807287
0.062118415 0.0077522565 -0.11952591
0.077976324 0.0077410173 -0.12098658
0.093811825 0.0077298582 -0.12244511
-0.033501849 0.023790427 -0.11073792
-0.017508779 0.023767911 -0.11220121
-0.0015381882 0.02374528 -0.11367226
0.014409757 0.023722645 -0.11514127
0.030335102 0.023700051 -0.11660802
0.046237901 0.023677535 -0.11807293
0.062118415 0.023655158 -0.11952585
0.077976324 0.023632623 -0.12098658
0.093811825 0.023610186 -0.12244505
-0.033501849 0.039760996 -0.11073798
-0.017508779 0.039727163 -0.11220121
-0.0015381882 0.039693192 -0.11367226
0.014409757 0.039659262 -0.11514121
0.030335102 0.03962541 -0.11660814
0.046237901 0.039591659 -0.11807293
0.062118415 0.039558001 -0.11952591
0.077976324 0.039524324 -0.12098658
0.093811825 0.039490592 -0.12244511
-0.033501849 0.055731501 -0.11073798
-0.017508779 0.055686448 -0.11220133
-0.0015381882 0.055641126 -0.11367238
0.014409757 0.055595916 -0.11514127
0.030335102 0.05555075 -0.1166082
0.046237901 0.055505682 -0.11807275
0.062118415 0.055460881 -0.11952585
0.077976324 0.055415969 -0.12098658
0.093811825 0.055371035 -0.12244511
-0.033501849 0.071702033 -0.11073792
-0.017508779 0.071645707 -0.11220121
-0.0015381882 0.071589053 -0.11367226
0.014409757 0.071532533 -0.11514121
0.030335102 0.071476132 -0.11660814
0.046237901 0.071419716 -0.11807293
0.062118415 0.071363807 -0.11952585
0.077976324 0.07130757 -0.12098646
0.093811825 0.071251467 -0.12244517
-0.033501849 0.087672532 -0.11073792
-0.017508779 0.087605029 -0.11220133
-0.0015381882 0.087537065 -0.11367238
0.014409757 0.08746925 -0.11514127
0.030335102 0.087401494 -0.11660814
0.046237901 0.087333843 -0.11807293
0.062118415 0.087266728 -0.11952591
0.077976324 0.087199256 -0.12098658
0.093811825 0.087131873 -0.12244511
-0.033501849 0.1036431 -0.11073786
-0.017508779 0.10356426 -0.11220121
-0.0015381882 0.103485 -0.11367232
0.014409757 0.10340586 -0.11514127
0.030335102 0.10332675 -0.11660814
0.046237901 0.10324787 -0.11807275
0.062118191 0.1031691 -0.11953562
0.077976324 0.10309082 -0.12098646
0.093811825 0.10301228 -0.12244511
-0.033501849 0.11961371 -0.11073792
-0.017508779 0.11952348 -0.11220121
-0.0015381882 0.11943287 -0.11367226
0.014409757 0.11934245 -0.11514109
0.030335102 0.1192522 -0.11660814
0.046237901 0.11916195 -0.11807287
0.062118191 0.11907183 -0.11953557
0.077976324 0.11898251 -0.12098658
0.093811825 0.1188927 -0.12244517
-0.033501849 0.13558422 -0.11073792
-0.017508779 0.1354828 -0.11220133
-0.0015381882 0.13538088 -0.11367232
0.014409757 0.13527915 -0.11514121
0.030335102 0.13517749 -0.11660802
0.046237901 0.13507605 -0.11807293
0.062118191 0.13497466 -0.11953557
0.077976324 0.13487412 -0.12098658
0.093811825 0.13477302 -0.12244511
-0.033501849 0.15155475 -0.11073792
-0.017508779 0.15144205 -0.11220121
-0.0015381882 0.1513288 -0.11367226
0.014409757 0.15121576 -0.11514121
0.030335102 0.15110283 -0.11660814
0.046237901 0.15099001 -0.11807287
0.062118191 0.15087746 -0.11953557
0.077976324 0.15076575 -0.12098646
0.093811825 0.15065353 -0.12244511
-0.033501849 0.16752522 -0.11073792
-0.017508779 0.16740142 -0.11220133
-0.0015381882 0.16727681 -0.11367232
0.014409757 0.16715242 -0.11514127
0.030335102 0.16702813 -0.11660802
0.046237901 0.16690412 -0.11807287
0.062118191 0.16678031 -0.11953557
0.077976324 0.16665745 -0.12098658
0.093811825 0.16653398 -0.12244511
-0.033501849 0.18349575 -0.11073786
-0.017508779 0.18336058 -0.11220121
-0.0015381882 0.18322471 -0.11367232
0.014409757 0.18308905 -0.11514121
0.030335102 0.18295357 -0.11660814
0.046237901 0.18281823 -0.11807293
0.062118191 0.18268311 -0.11953557
0.077976018 0.18254817 -0.1209963
0.093811825 0.18241438 -0.12244517
-0.033501849 0.19946635 -0.11073798
-0.017508779 0.1993199 -0.11220133
-0.0015381882 0.19917265 -0.11367226
0.014409757 0.19902568 -0.11514127
0.030335102 0.19887887 -0.11660802
0.046237901 0.19873226 -0.11807275
0.062118191 0.19858594 -0.11953557
0.077976018 0.19843978 -0.12099618
0.093811825 0.19829471 -0.12244511
-0.0015381882 0.21512066 -0.11367232
0.014409757 0.21496229 -0.11514121
0.030335102 0.21480423 -0.11660814
0.046237901 0.21464638 -0.11807275
0.062118191 0.21448873 -0.11953562
0.077976018 0.2143313 -0.12099618
0.093811825 0.21417512 -0.12244511
-0.033501849 0.21543686 -0.11073792
-0.017508779 0.21527919 -0.11220133
-0.033501849 0.23140739 -0.11073792
-0.017508779 0.23123844 -0.11220121
-0.0015381882 0.2310686 -0.11367226
0.014409757 0.23089898 -0.11514127
0.030335102 0.23072957 -0.11660796
0.046237901 0.23056042 -0.11807293
0.062118191 0.23039158 -0.11953557
0.077976018 0.23022282 -0.12099612
0.093811825 0.23005563 -0.12244511
-0.033501849 0.24737792 -0.11073792
-0.017508779 0.24719767 -0.11220133
-0.0015381882 0.24701653 -0.11367238
0.014409757 0.24683554 -0.11514127
0.030335102 0.24665494 -0.11660814
0.046237901 0.24647452 -0.11807293
0.062118191 0.24629439 -0.11953562
0.077976018 0.24611442 -0.12099612
0.093811825 0.24593596 -0.12244505
-0.033501849 0.26334843 -0.1107381
-0.017508779 0.26315701 -0.11220115
-0.0015381882 0.26296449 -0.11367226
0.014409757 0.26277217 -0.11514121
0.030335102 0.26258028 -0.11660814
0.046237901 0.26238847 -0.11807287
0.062118191 0.26219714 -0.11953568
0.077976018 0.2620061 -0.1209963
0.093811825 0.26181641 -0.12244505
-0.033501849 0.27931896 -0.11073798
-0.017508779 0.27911618 -0.11220133
-0.0015381882 0.27891237 -0.11367226
0.014409757 0.27870888 -0.11514127
0.030335102 0.27850562 -0.11660802
0.046237901 0.27830264 -0.11807293
0.062118191 0.27809995 -0.11953545
0.077976018 0.27789763 -0.12099618
0.093811825 0.27769682 -0.12244511
0.062118191 0.29400277 -0.11953557
0.077976018 0.29378915 -0.12099618
0.093811825 0.29357728 -0.12244511
-0.033501849 0.29528949 -0.11073792
-0.01750863 0.29507408 -0.11221105
-0.0015381882 0.2948603 -0.11367238
0.014409757 0.29464546 -0.11514109
0.030335102 0.29443094 -0.11660814
0.046237901 0.29421669 -0.11807293
-0.033501849 0.31125996 -0.11073792
-0.01750863 0.31103319 -0.11221105
-0.0015381882 0.31080833 -0.11367226
0.014409757 0.31058216 -0.11514127
0.030335102 0.31035629 -0.11660802
0.046237901 0.3101308 -0.11807275
0.062118191 0.30990553 -0.11953557
0.077976018 0.30968067 -0.12099618
0.093811452 0.30945617 -0.12245482
-0.033501849 0.32723066 -0.11073786
-0.01750863 0.32699242 -0.11221093
-0.0015381882 0.32675627 -0.11367238
0.014409757 0.32651877 -0.11514121
0.030335102 0.3262817 -0.11660814
0.046237901 0.32604483 -0.11807293
0.062118191 0.32580832 -0.11953557
0.077976018 0.32557219 -0.12099618
0.093811452 0.32533643 -0.12245482
-0.033501849 0.34320119 -0.11073792
-0.01750863 0.34295166 -0.11221111
-0.0015381882 0.34270409 -0.11367232
0.014409757 0.34245545 -0.11514127
0.030335102 0.34220695 -0.11660802
0.046237901 0.34195888 -0.11807293
0.062118191 0.34171125 -0.11953557
0.077976018 0.34146386 -0.12099612
0.093811452 0.3412168 -0.12245482
-0.12993979 -0.34496626 -0.10186505
-0.11381005 -0.34472767 -0.10334098
-0.097702637 -0.34448776 -0.10482466
-0.081618153 -0.34424835 -0.10630608
-0.065556556 -0.34400913 -0.10778552
-0.049517803 -0.34377038 -0.1092627
-0.12993979 -0.32892743 -0.10186505
-0.11381005 -0.32870013 -0.10334104
-0.097702637 -0.32847172 -0.10482466
-0.081618153 -0.32824367 -0.10630608
-0.065556556 -0.32801592 -0.10778546
-0.049517803 -0.32778838 -0.10926288
-0.12993979 -0.31288856 -0.10186511
-0.11381005 -0.3126727 -0.10334098
-0.097702637 -0.31245562 -0.10482466
-0.081618153 -0.31223899 -0.10630608
-0.065556556 -0.31202263 -0.10778558
-0.049517803 -0.31180656 -0.10926276
-0.12993979 -0.29684976 -0.10186505
-0.11381005 -0.29664522 -0.10334092
-0.097702637 -0.29643962 -0.1048246
-0.081618153 -0.29623431 -0.10630608
-0.065556556 -0.29602939 -0.10778546
-0.049517803 -0.29582465 -0.1092627
-0.12993979 -0.28081086 -0.10186511
-0.11381005 -0.28061768 -0.10334098
-0.097702637 -0.28042352 -0.10482466
-0.081618153 -0.28022975 -0.10630608
-0.065556556 -0.28003606 -0.10778552
-0.049517803 -0.27984273 -0.10926276
-0.12993979 -0.26477212 -0.10186505
-0.11381005 -0.26459026 -0.10334104
-0.097702637 -0.26440752 -0.10482466
-0.081618153 -0.26422507 -0.10630608
-0.065556556 -0.26404285 -0.10778546
-0.049517803 -0.26386091 -0.10926276
-0.12993979 -0.24873321 -0.10186511
-0.11381005 -0.24856277 -0.10334092
-0.097702637 -0.24839142 -0.1048246
-0.081618153 -0.24822035 -0.10630608
-0.065556556 -0.24804953 -0.10778552
-0.049517803 -0.24787898 -0.1092627
-0.12993979 -0.2326944 -0.10186511
-0.11381005 -0.23253529 -0.10334104
-0.097702637 -0.23237534 -0.1048246
-0.081618153 -0.23221567 -0.10630614
-0.065556556 -0.23205632 -0.10778546
-0.049517803 -0.23189709 -0.10926288
-0.12993979 -0.21665551 -0.10186511
-0.11381005 -0.21650781 -0.10334098
-0.097702637 -0.21635932 -0.10482466
-0.081618153 -0.21621111 -0.10630608
-0.065556556 -0.21606302 -0.10778552
-0.049517803 -0.21591517 -0.10926276
-0.12993979 -0.20061672 -0.10186505
-0.11381005 -0.20048033 -0.10334092
-0.097702637 -0.20034324 -0.10482466
-0.081618153 -0.20020644 -0.10630608
-0.065556556 -0.2000698 -0.10778546
-0.049517803 -0.19993335 -0.10926276
-0.12993979 -0.18457784 -0.10186511
-0.11381005 -0.18445285 -0.10334104
-0.097702637 -0.18432721 -0.10482466
-0.081618153 -0.18420175 -0.10630608
-0.065556556 -0.18407646 -0.10778552
-0.049517803 -0.18395139 -0.10926276
-0.12993979 -0.16853903 -0.10186505
-0.11381005 -0.16842537 -0.10334098
-0.097702637 -0.16831113 -0.1048246
-0.081618153 -0.16819718 -0.10630602
-0.065556556 -0.16808324 -0.10778546
-0.049517803 -0.16796952 -0.10926276
-0.12993979 -0.15250014 -0.10186511
-0.11381005 -0.15239796 -0.10334092
-0.097702637 -0.15229511 -0.10482466
-0.081618153 -0.1521925 -0.10630608
-0.065556556 -0.15208994 -0.10778552
-0.049517803 -0.15198761 -0.1092627
-0.12993979 -0.13646135 -0.10186511
-0.11381005 -0.13637041 -0.10334104
-0.097702637 -0.13627903 -0.1048246
-0.081618153 -0.13618776 -0.10630608
-0.065556556 -0.13609673 -0.10778546
-0.049517803 -0.13600573 -0.10926276
-0.12993979 -0.12042247 -0.10186511
-0.11381005 -0.12034293 -0.10334092
-0.097702637 -0.12026303 -0.10482466
-0.081618153 -0.12018315 -0.10630614
-0.065556556 -0.12010343 -0.10778552
-0.049517803 -0.12002385 -0.10926276
-0.12993979 -0.10438369 -0.10186511
-0.11381005 -0.10431552 -0.10334092
-0.097702637 -0.10424693 -0.10482466
-0.081618153 -0.10417855 -0.10630608
-0.065556556 -0.10411021 -0.10778546
-0.049517803 -0.10404198 -0.10926276
-0.12993979 -0.088344887 -0.10186505
-0.11381005 -0.088287964 -0.10334104
-0.097702637 -0.088230848 -0.1048246
-0.081618153 -0.088173851 -0.10630608
-0.065556556 -0.088116914 -0.10778552
-0.049517803 -0.088060066 -0.10926288
-0.12993979 -0.072306022 -0.10186511
-0.11381005 -0.072260559 -0.10334098
-0.097702637 -0.072214842 -0.10482466
-0.081618153 -0.072169214 -0.10630614
-0.065556556 -0.072123691 -0.10778546
-0.049517803 -0.072078183 -0.10926276
-0.12993979 -0.056267198 -0.10186505
-0.11381005 -0.056233071 -0.10334092
-0.097702637 -0.05619875 -0.1048246
-0.081618153 -0.056164604 -0.10630602
-0.065556556 -0.056130361 -0.10778546
-0.049517803 -0.056096353 -0.1092627
-0.12993979 -0.040228263 -0.10186511
-0.11381005 -0.040205512 -0.10334098
-0.097702637 -0.040182721 -0.10482466
-0.081618153 -0.040159911 -0.10630608
-0.065556556 -0.040137142 -0.10778546
-0.049517803 -0.040114373 -0.10926276
-0.12993979 -0.024189463 -0.10186499
-0.11381005 -0.024178108 -0.10334098
-0.097702637 -0.024166634 -0.1048246
-0.081618153 -0.02415528 -0.10630608
-0.065556556 -0.024143845 -0.10778552
-0.049517803 -0.024132529 -0.10926276
-0.12993979 -0.0081505869 -0.10186505
-0.11381005 -0.008150626 -0.10334092
-0.097702637 -0.008150626 -0.1048246
-0.081618153 -0.0081505869 -0.10630614
-0.065556556 -0.008150626 -0.10778546
-0.049517803 -0.008150626 -0.1092627
-0.12993979 0.0078882501 -0.10186499
-0.11381005 0.0078768563 -0.10334104
-0.097702637 0.0078654606 -0.10482466
-0.081618153 0.0078539886 -0.10630602
-0.065556556 0.0078426711 -0.10778552
-0.049517803 0.0078312773 -0.10926288
-0.12993979 0.023927126 -0.10186505
-0.11381005 0.023904338 -0.10334098
-0.097702637 0.023881469 -0.10482466
-0.081618153 0.02385864 -0.10630608
-0.065556556 0.02383589 -0.10778546
-0.049517803 0.023813181 -0.10926276
-0.12993979 0.039965887 -0.10186499
-0.11381005 0.039931819 -0.10334092
-0.097702637 0.039897557 -0.10482466
-0.081618153 0.039863333 -0.10630608
-0.065556556 0.039829206 -0.10778552
-0.049517803 0.039795022 -0.1092627
-0.12993979 0.056004781 -0.10186511
-0.11381005 0.055959281 -0.10334104
-0.097702637 0.055913646 -0.1048246
-0.081618153 0.055868048 -0.10630614
-0.065556556 0.055822428 -0.10778546
-0.049517803 0.055777024 -0.10926276
-0.12993979 0.072043568 -0.10186505
-0.11381005 0.071986765 -0.10334092
-0.097702637 0.071929649 -0.1048246
-0.081618153 0.071872577 -0.10630608
-0.065556556 0.071815744 -0.10778546
-0.049517803 0.071758851 -0.10926276
-0.12993979 0.088082433 -0.10186511
-0.11381005 0.088014245 -0.10334092
-0.097702637 0.087945744 -0.1048246
-0.081618153 0.087877274 -0.10630608
-0.065556556 0.087808967 -0.10778546
-0.049517803 0.087740675 -0.10926276
-0.12993979 0.10412124 -0.10186505
-0.11381005 0.10404173 -0.10334104
-0.097702637 0.10396175 -0.1048246
-0.081618153 0.10388197 -0.10630608
-0.065556556 0.10380226 -0.10778552
-0.049517803 0.10372268 -0.10926276
-0.12993979 0.12016016 -0.10186511
-0.11381005 0.12006922 -0.10334092
-0.097702637 0.11997783 -0.1048246
-0.081618153 0.1198865 -0.10630602
-0.065556556 0.11979549 -0.10778546
-0.049517803 0.1197045 -0.10926276
-0.12993979 0.13619894 -0.10186505
-0.11381005 0.13609661 -0.10334092
-0.097702637 0.13599388 -0.10482466
-0.081618153 0.13589121 -0.10630608
-0.065556556 0.1357888 -0.10778552
-0.049517803 0.13568637 -0.1092627
-0.12993979 0.15223782 -0.10186511
