ply
format ascii 1.0
comment PCL generated
element vertex 1347
property float x
property float y
property float z
element camera 1
property float view_px
property float view_py
property float view_pz
property float x_axisx
property float x_axisy
property float x_axisz
property float y_axisx
property float y_axisy
property float y_axisz
property float z_axisx
property float z_axisy
property float z_axisz
property float focal
property float scalex
property float scaley
property float centerx
property float centery
property int viewportx
property int viewporty
property float k1
property float k2
end_header
-0.0061048754 -0.52964103 -0.35870004
0.01539856 -0.53153229 -0.34753227
-0.049240761 -0.50904053 -0.35311365
0.036945 -0.50904053 -0.35311365
0.05858352 -0.5100075 -0.3471328
-0.027988443 -0.53382242 -0.33400977
-0.071387865 -0.51219416 -0.33360636
-0.11479972 -0.49055967 -0.33320284
-0.092800356 -0.48936099 -0.34098804
0.10195769 -0.48936099 -0.34098804
-0.15847296 -0.46951023 -0.32875681
0.1458022 -0.46951023 -0.32875681
0.037179023 -0.53573555 -0.32271338
0.080748692 -0.51401621 -0.32233477
0.1243311 -0.49229559 -0.32192802
0.16792679 -0.47057045 -0.32150722
-0.2028906 -0.4494859 -0.31641865
0.21185881 -0.4494859 -0.31641865
-0.0064853467 -0.55989516 -0.30927539
0.01539856 -0.56191039 -0.29789364
-0.05026231 -0.53807843 -0.30887902
0.05934798 -0.54000896 -0.29747975
-0.094052032 -0.51625788 -0.30846834
0.10330883 -0.51809424 -0.29710877
-0.1378544 -0.49443099 -0.30805767
0.14728373 -0.49618253 -0.29668057
-0.18166944 -0.47259778 -0.30764699
0.19127098 -0.47426236 -0.29626632
-0.22549592 -0.45075628 -0.30725002
0.23527205 -0.45233768 -0.29583776
-0.26962292 -0.42928573 -0.30397248
-0.24769819 -0.42928573 -0.30397248
-0.22577345 -0.42928573 -0.30397248
-0.20384873 -0.42928573 -0.30397248
-0.18192402 -0.42928573 -0.30397248
-0.15999927 -0.42928573 -0.30397248
-0.13807455 -0.42928573 -0.30397248
-0.11614981 -0.42928573 -0.30397248
-0.094225086 -0.42928573 -0.30397248
-0.072300352 -0.42928573 -0.30397248
-0.050375625 -0.42928573 -0.30397248
-0.028450897 -0.42928573 -0.30397248
-0.0065261684 -0.42928573 -0.30397248
0.01539856 -0.42928573 -0.30397248
0.037323289 -0.42928573 -0.30397248
0.059248015 -0.42928573 -0.30397248
0.081172749 -0.42928573 -0.30397248
0.10309748 -0.42928573 -0.30397248
0.1250222 -0.42928573 -0.30397248
0.14694694 -0.42928573 -0.30397248
0.16887167 -0.42928573 -0.30397248
0.19079639 -0.42928573 -0.30397248
0.21272114 -0.42928573 -0.30397248
0.23464586 -0.42928573 -0.30397248
0.25657058 -0.42928573 -0.30397248
-0.028763017 -0.5644235 -0.28369975
-0.072937019 -0.54241103 -0.28329623
-0.11712411 -0.52039474 -0.28287816
-0.16132408 -0.49837193 -0.28246009
-0.20553695 -0.47634286 -0.28204167
-0.24976137 -0.45430529 -0.28163767
-0.18367554 -0.45471355 -0.27869129
-0.16155618 -0.45471355 -0.27869129
-0.13943684 -0.45471355 -0.27869129
-0.1173175 -0.45471355 -0.27869129
-0.095198162 -0.45471355 -0.27869129
-0.073078819 -0.45471355 -0.27869129
-0.050959468 -0.45471355 -0.27869129
-0.02884013 -0.45471355 -0.27869129
-0.0067207851 -0.45471355 -0.27869129
0.01539856 -0.45471355 -0.27869129
0.037517905 -0.45471355 -0.27869129
0.059637249 -0.45471355 -0.27869129
0.081756592 -0.45471355 -0.27869129
0.10387594 -0.45471355 -0.27869129
0.12599528 -0.45471355 -0.27869129
0.14811462 -0.45471355 -0.27869129
0.17023396 -0.45471355 -0.27869129
0.19235331 -0.45471355 -0.27869129
-0.27088091 -0.40890929 -0.29140198
-0.24885941 -0.40890929 -0.29140198
-0.22683792 -0.40890929 -0.29140198
-0.2048164 -0.40890929 -0.29140198
-0.1827949 -0.40890929 -0.29140198
-0.16077341 -0.40890929 -0.29140198
-0.13875191 -0.40890929 -0.29140198
-0.11673042 -0.40890929 -0.29140198
-0.09470892 -0.40890929 -0.29140198
-0.072687425 -0.40890929 -0.29140198
-0.05066593 -0.40890929 -0.29140198
-0.028644433 -0.40890929 -0.29140198
-0.0066229366 -0.40890929 -0.29140198
0.01539856 -0.40890929 -0.29140198
0.037420057 -0.40890929 -0.29140198
0.059441552 -0.40890929 -0.29140198
0.081463054 -0.40890929 -0.29140198
0.10348455 -0.40890929 -0.29140198
0.12550604 -0.40890929 -0.29140198
0.14752755 -0.40890929 -0.29140198
0.16954903 -0.40890929 -0.29140198
0.19157054 -0.40890929 -0.29140198
0.21359202 -0.40890929 -0.29140198
0.23561352 -0.40890929 -0.29140198
0.25763503 -0.40890929 -0.29140198
-0.25002956 -0.38835052 -0.27873468
-0.22791056 -0.38835052 -0.27873468
-0.20579155 -0.38835052 -0.27873468
-0.18367253 -0.38835052 -0.27873468
-0.16155352 -0.38835052 -0.27873468
-0.13943452 -0.38835052 -0.27873468
-0.1173155 -0.38835052 -0.27873468
-0.095196493 -0.38835052 -0.27873468
-0.073077478 -0.38835052 -0.27873468
-0.05095847 -0.38835052 -0.27873468
-0.02883946 -0.38835052 -0.27873468
-0.0067204516 -0.38835052 -0.27873468
0.01539856 -0.38835052 -0.27873468
0.03751757 -0.38835052 -0.27873468
0.059636578 -0.38835052 -0.27873468
0.081755593 -0.38835052 -0.27873468
0.1038746 -0.38835052 -0.27873468
0.12599361 -0.38835052 -0.27873468
0.14811262 -0.38835052 -0.27873468
0.17023164 -0.38835052 -0.27873468
0.19235064 -0.38835052 -0.27873468
0.21446966 -0.38835052 -0.27873468
0.23658867 -0.38835052 -0.27873468
0.25870767 -0.38835052 -0.27873468
0.037568219 -0.56646752 -0.27215528
0.081916258 -0.54436177 -0.27177763
0.12627536 -0.52224791 -0.27141428
0.1706488 -0.50013757 -0.27099276
0.21503624 -0.47802269 -0.27055669
0.25943586 -0.45589915 -0.27013493
-0.25121149 -0.36761039 -0.26593983
-0.22899398 -0.36761039 -0.26593983
-0.20677647 -0.36761039 -0.26593983
-0.18455897 -0.36761039 -0.26593983
-0.16234148 -0.36761039 -0.26593983
-0.14012396 -0.36761039 -0.26593983
-0.11790647 -0.36761039 -0.26593983
-0.095688954 -0.36761039 -0.26593983
-0.073471457 -0.36761039 -0.26593983
-0.051253952 -0.36761039 -0.26593983
-0.029036449 -0.36761039 -0.26593983
-0.0068189427 -0.36761039 -0.26593983
0.01539856 -0.36761039 -0.26593983
0.037616063 -0.36761039 -0.26593983
0.059833571 -0.36761039 -0.26593983
0.082051076 -0.36761039 -0.26593983
0.10426858 -0.36761039 -0.26593983
0.12648608 -0.36761039 -0.26593983
0.14870359 -0.36761039 -0.26593983
0.17092109 -0.36761039 -0.26593983
0.1931386 -0.36761039 -0.26593983
0.2153561 -0.36761039 -0.26593983
0.23757359 -0.36761039 -0.26593983
0.25979111 -0.36761039 -0.26593983
-0.0068794098 -0.59123671 -0.25808489
0.01539856 -0.59337789 -0.2464956
-0.051445179 -0.56903404 -0.25765955
0.060140669 -0.57109964 -0.24599302
-0.096023478 -0.54682231 -0.25724876
0.10489462 -0.54879373 -0.24560833
-0.14061524 -0.52460665 -0.25682306
0.14965837 -0.52647471 -0.24526799
-0.18522011 -0.5023846 -0.25639725
0.19443899 -0.50416648 -0.24482393
-0.2298381 -0.48015592 -0.25597131
-0.14085688 -0.48068726 -0.25233877
-0.11853467 -0.48068726 -0.25233877
-0.096212462 -0.48068726 -0.25233877
-0.073890261 -0.48068726 -0.25233877
-0.051568054 -0.48068726 -0.25233877
-0.029245852 -0.48068726 -0.25233877
-0.0069236457 -0.48068726 -0.25233877
0.01539856 -0.48068726 -0.25233877
0.037720766 -0.48068726 -0.25233877
0.06004297 -0.48068726 -0.25233877
0.082365178 -0.48068726 -0.25233877
0.10468739 -0.48068726 -0.25233877
0.12700959 -0.48068726 -0.25233877
0.23923214 -0.48184916 -0.24439466
-0.25240263 -0.34668338 -0.25304532
-0.23008585 -0.34668338 -0.25304532
-0.2077691 -0.34668338 -0.25304532
-0.18545233 -0.34668338 -0.25304532
-0.16313557 -0.34668338 -0.25304532
-0.1408188 -0.34668338 -0.25304532
-0.11850204 -0.34668338 -0.25304532
-0.096185267 -0.34668338 -0.25304532
-0.073868498 -0.34668338 -0.25304532
-0.051551737 -0.34668338 -0.25304532
-0.02923497 -0.34668338 -0.25304532
-0.0069182049 -0.34668338 -0.25304532
0.01539856 -0.34668338 -0.25304532
0.037715323 -0.34668338 -0.25304532
0.060032092 -0.34668338 -0.25304532
0.082348861 -0.34668338 -0.25304532
0.10466562 -0.34668338 -0.25304532
0.12698239 -0.34668338 -0.25304532
0.14929916 -0.34668338 -0.25304532
0.17161593 -0.34668338 -0.25304532
0.1939327 -0.34668338 -0.25304532
0.21624945 -0.34668338 -0.25304532
0.23856622 -0.34668338 -0.25304532
0.26088297 -0.34668338 -0.25304532
0.12799419 -0.64206266 -0.22675788
0.12802535 -0.61969942 -0.22594845
0.17280585 -0.61873424 -0.23096311
-0.029565522 -0.59613431 -0.23157561
-0.07454294 -0.57372898 -0.23114228
-0.11953302 -0.55131447 -0.23072398
-0.16453691 -0.52889603 -0.23029041
-0.20955415 -0.5064708 -0.22985685
-0.074716263 -0.50713944 -0.22551358
-0.052187555 -0.50713944 -0.22551358
-0.029658852 -0.50713944 -0.22551358
-0.007130146 -0.50713944 -0.22551358
0.01539856 -0.50713944 -0.22551358
0.037927266 -0.50713944 -0.22551358
0.06045597 -0.50713944 -0.22551358
0.082984678 -0.50713944 -0.22551358
-0.25458339 -0.4840368 -0.22943783
-0.25360584 -0.32556972 -0.24002028
-0.2311888 -0.32556972 -0.24002028
-0.20877175 -0.32556972 -0.24002028
-0.18635473 -0.32556972 -0.24002028
-0.1639377 -0.32556972 -0.24002028
-0.14152066 -0.32556972 -0.24002028
-0.11910364 -0.32556972 -0.24002028
-0.096686594 -0.32556972 -0.24002028
-0.07426957 -0.32556972 -0.24002028
-0.051852539 -0.32556972 -0.24002028
-0.029435506 -0.32556972 -0.24002028
-0.007018473 -0.32556972 -0.24002028
0.01539856 -0.32556972 -0.24002028
0.037815593 -0.32556972 -0.24002028
0.060232624 -0.32556972 -0.24002028
0.082649663 -0.32556972 -0.24002028
0.10506669 -0.32556972 -0.24002028
0.12748371 -0.32556972 -0.24002028
0.14990076 -0.32556972 -0.24002028
0.17231779 -0.32556972 -0.24002028
0.19473483 -0.32556972 -0.24002028
0.21715185 -0.32556972 -0.24002028
0.23956887 -0.32556972 -0.24002028
0.26198593 -0.32556972 -0.24002028
-0.2548185 -0.3042644 -0.22689259
-0.23230043 -0.3042644 -0.22689259
-0.20978232 -0.3042644 -0.22689259
-0.18726425 -0.3042644 -0.22689259
-0.16474615 -0.3042644 -0.22689259
-0.14222807 -0.3042644 -0.22689259
-0.11970997 -0.3042644 -0.22689259
-0.097191878 -0.3042644 -0.22689259
-0.074673794 -0.3042644 -0.22689259
-0.052155703 -0.3042644 -0.22689259
-0.029637618 -0.3042644 -0.22689259
-0.0071195289 -0.3042644 -0.22689259
0.01539856 -0.3042644 -0.22689259
0.037916649 -0.3042644 -0.22689259
0.060434736 -0.3042644 -0.22689259
0.082952827 -0.3042644 -0.22689259
0.10547092 -0.3042644 -0.22689259
0.12798899 -0.3042644 -0.22689259
0.15050709 -0.3042644 -0.22689259
0.17302519 -0.3042644 -0.22689259
0.19554327 -0.3042644 -0.22689259
0.21806137 -0.3042644 -0.22689259
0.24057944 -0.3042644 -0.22689259
0.26309755 -0.3042644 -0.22689259
0.10578392 -0.66666657 -0.21672773
0.10555312 -0.64257008 -0.22422302
0.15061793 -0.64251596 -0.22449303
0.10576116 -0.62133151 -0.21746695
0.15070672 -0.62034947 -0.22257066
0.19628458 -0.62183416 -0.21485543
0.037971579 -0.59831774 -0.21975744
0.12840348 -0.59898907 -0.21612394
0.1508798 -0.59849024 -0.21882367
0.17354123 -0.59876871 -0.21731615
0.083126299 -0.57581139 -0.21938097
0.12829378 -0.55330437 -0.21897447
0.17347054 -0.53078139 -0.21862781
0.21866426 -0.50826693 -0.21819079
0.26387653 -0.48575458 -0.21769309
-0.25604355 -0.28276715 -0.21363115
-0.23342338 -0.28276715 -0.21363115
-0.21080321 -0.28276715 -0.21363115
-0.18818302 -0.28276715 -0.21363115
-0.16556285 -0.28276715 -0.21363115
-0.14294268 -0.28276715 -0.21363115
-0.1203225 -0.28276715 -0.21363115
-0.097702324 -0.28276715 -0.21363115
-0.075082146 -0.28276715 -0.21363115
-0.052461967 -0.28276715 -0.21363115
-0.029841794 -0.28276715 -0.21363115
-0.0072216168 -0.28276715 -0.21363115
0.01539856 -0.28276715 -0.21363115
0.038018737 -0.28276715 -0.21363115
0.060638912 -0.28276715 -0.21363115
0.083259091 -0.28276715 -0.21363115
0.10587927 -0.28276715 -0.21363115
0.12849945 -0.28276715 -0.21363115
0.15111962 -0.28276715 -0.21363115
0.17373981 -0.28276715 -0.21363115
0.19635998 -0.28276715 -0.21363115
0.21898015 -0.28276715 -0.21363115
0.24160033 -0.28276715 -0.21363115
0.26422051 -0.28276715 -0.21363115
0.12890774 -0.66951483 -0.20302331
0.083390996 -0.66849738 -0.20791936
0.083390303 -0.64582717 -0.20794964
0.17433769 -0.64691067 -0.20253587
-0.007287927 -0.62372762 -0.20501709
0.01539856 -0.62599927 -0.19321287
0.083480507 -0.62391496 -0.20404327
0.22031195 -0.6257692 -0.19440818
0.060962483 -0.60333246 -0.19261467
0.10616044 -0.60113657 -0.20450008
0.19702169 -0.60143477 -0.2028861
0.22010519 -0.60244972 -0.19739246
-0.05267109 -0.6011225 -0.2045759
-0.098067835 -0.57851076 -0.20413482
0.10630168 -0.57925826 -0.19991291
0.12928121 -0.58042556 -0.19332004
0.15147184 -0.5781796 -0.20600545
0.17464368 -0.57979935 -0.19685733
0.19764103 -0.58051246 -0.19282937
-0.14347737 -0.55588979 -0.20370841
0.15196575 -0.55731171 -0.19531178
-0.18890108 -0.53326446 -0.20326698
-0.030079802 -0.53408813 -0.19817197
-0.0073406212 -0.53408813 -0.19817197
0.01539856 -0.53408813 -0.19817197
0.19772229 -0.53516519 -0.19150984
-0.23433711 -0.51063019 -0.20284045
0.24333869 -0.51244557 -0.19104946
-0.25727978 -0.26107416 -0.20024884
-0.23455659 -0.26107416 -0.20024884
-0.21183339 -0.26107416 -0.20024884
-0.18911019 -0.26107416 -0.20024884
-0.16638699 -0.26107416 -0.20024884
-0.14366379 -0.26107416 -0.20024884
-0.12094061 -0.26107416 -0.20024884
-0.098217413 -0.26107416 -0.20024884
-0.075494215 -0.26107416 -0.20024884
-0.052771024 -0.26107416 -0.20024884
-0.030047828 -0.26107416 -0.20024884
-0.0073246341 -0.26107416 -0.20024884
0.01539856 -0.26107416 -0.20024884
0.038121752 -0.26107416 -0.20024884
0.06084495 -0.26107416 -0.20024884
0.083568148 -0.26107416 -0.20024884
0.10629134 -0.26107416 -0.20024884
0.12901454 -0.26107416 -0.20024884
0.15173773 -0.26107416 -0.20024884
0.17446092 -0.26107416 -0.20024884
0.19718412 -0.26107416 -0.20024884
0.21990731 -0.26107416 -0.20024884
0.24263051 -0.26107416 -0.20024884
0.26535371 -0.26107416 -0.20024884
0.083818913 -0.69515526 -0.18939018
0.061157666 -0.67431319 -0.17993724
0.061093681 -0.65060198 -0.18409264
-0.03039773 -0.62901896 -0.17752206
0.061092973 -0.62774551 -0.18413913
-0.076207854 -0.60620391 -0.17707253
0.08391881 -0.60472745 -0.18506444
-0.12203184 -0.58338189 -0.17662287
-0.16786869 -0.56055039 -0.17618871
0.17566137 -0.56024843 -0.17797136
-0.21372016 -0.5377146 -0.17573893
-0.25958401 -0.51486963 -0.17530465
-0.25852588 -0.23918162 -0.18675923
-0.23569885 -0.23918162 -0.18675923
-0.21287179 -0.23918162 -0.18675923
-0.19004478 -0.23918162 -0.18675923
-0.16721773 -0.23918162 -0.18675923
-0.1443907 -0.23918162 -0.18675923
-0.12156366 -0.23918162 -0.18675923
-0.098736614 -0.23918162 -0.18675923
-0.075909585 -0.23918162 -0.18675923
-0.053082548 -0.23918162 -0.18675923
-0.030255513 -0.23918162 -0.18675923
-0.0074284766 -0.23918162 -0.18675923
0.01539856 -0.23918162 -0.18675923
0.038225599 -0.23918162 -0.18675923
0.061052635 -0.23918162 -0.18675923
0.083879672 -0.23918162 -0.18675923
0.10670671 -0.23918162 -0.18675923
0.12953374 -0.23918162 -0.18675923
0.15236078 -0.23918162 -0.18675923
0.17518783 -0.23918162 -0.18675923
0.19801486 -0.23918162 -0.18675923
0.2208419 -0.23918162 -0.18675923
0.24366891 -0.23918162 -0.18675923
0.26649597 -0.23918162 -0.18675923
0.061366059 -0.70011032 -0.16640151
0.10711776 -0.69859964 -0.17341018
0.15299602 -0.67575389 -0.17300594
0.19888863 -0.65290809 -0.17257082
0.038388923 -0.63132429 -0.16554272
0.24560438 -0.63207996 -0.16161692
0.24516279 -0.6079995 -0.16735351
0.22209668 -0.58479393 -0.168648
0.22242767 -0.53963333 -0.16387033
0.26847786 -0.51670951 -0.16335428
-0.25978485 -0.21708906 -0.17313039
-0.23685291 -0.21708906 -0.17313039
-0.21392097 -0.21708906 -0.17313039
-0.19098902 -0.21708906 -0.17313039
-0.16805705 -0.21708906 -0.17313039
-0.14512509 -0.21708906 -0.17313039
-0.12219314 -0.21708906 -0.17313039
-0.099261202 -0.21708906 -0.17313039
-0.076329246 -0.21708906 -0.17313039
-0.05339729 -0.21708906 -0.17313039
-0.030465344 -0.21708906 -0.17313039
-0.0075333919 -0.21708906 -0.17313039
0.01539856 -0.21708906 -0.17313039
0.03833051 -0.21708906 -0.17313039
0.061262466 -0.21708906 -0.17313039
0.084194414 -0.21708906 -0.17313039
0.10712637 -0.21708906 -0.17313039
0.13005832 -0.21708906 -0.17313039
0.15299027 -0.21708906 -0.17313039
0.17592221 -0.21708906 -0.17313039
0.19885418 -0.21708906 -0.17313039
0.22178614 -0.21708906 -0.17313039
0.24471809 -0.21708906 -0.17313039
0.26765004 -0.21708906 -0.17313039
-0.26105401 -0.19479169 -0.15939128
-0.23801631 -0.19479169 -0.15939128
-0.21497859 -0.19479169 -0.15939128
-0.19194087 -0.19479169 -0.15939128
-0.16890317 -0.19479169 -0.15939128
-0.14586544 -0.19479169 -0.15939128
-0.12282772 -0.19479169 -0.15939128
-0.099790014 -0.19479169 -0.15939128
-0.076752298 -0.19479169 -0.15939128
-0.053714581 -0.19479169 -0.15939128
-0.03067687 -0.19479169 -0.15939128
-0.0076391548 -0.19479169 -0.15939128
0.01539856 -0.19479169 -0.15939128
0.038436275 -0.19479169 -0.15939128
0.061473988 -0.19479169 -0.15939128
0.084511705 -0.19479169 -0.15939128
0.10754942 -0.19479169 -0.15939128
0.13058713 -0.19479169 -0.15939128
0.15362485 -0.19479169 -0.15939128
0.17666256 -0.19479169 -0.15939128
0.1997003 -0.19479169 -0.15939128
0.222738 -0.19479169 -0.15939128
0.24577571 -0.19479169 -0.15939128
0.26881343 -0.19479169 -0.15939128
0.13122147 -0.70517373 -0.1429106
0.17757799 -0.6821146 -0.14240324
-0.0077117048 -0.65743226 -0.14996672
0.22394134 -0.65902221 -0.14202249
-0.053942807 -0.63441014 -0.14950895
-0.10018801 -0.61138093 -0.14905095
-0.14644733 -0.58834481 -0.14859283
-0.19271965 -0.56529874 -0.14815068
0.19996242 -0.564116 -0.15513468
-0.23900563 -0.54224604 -0.14770794
-0.26233637 -0.17228833 -0.14550912
-0.2391918 -0.17228833 -0.14550912
-0.21604724 -0.17228833 -0.14550912
-0.19290267 -0.17228833 -0.14550912
-0.16975808 -0.17228833 -0.14550912
-0.14661349 -0.17228833 -0.14550912
-0.12346891 -0.17228833 -0.14550912
-0.10032434 -0.17228833 -0.14550912
-0.07717976 -0.17228833 -0.14550912
-0.054035172 -0.17228833 -0.14550912
-0.030890601 -0.17228833 -0.14550912
-0.0077460203 -0.17228833 -0.14550912
0.01539856 -0.17228833 -0.14550912
0.038543142 -0.17228833 -0.14550912
0.061687723 -0.17228833 -0.14550912
0.084832296 -0.17228833 -0.14550912
0.10797688 -0.17228833 -0.14550912
0.13112146 -0.17228833 -0.14550912
0.15426603 -0.17228833 -0.14550912
0.17741062 -0.17228833 -0.14550912
0.20055521 -0.17228833 -0.14550912
0.22369979 -0.17228833 -0.14550912
0.24684437 -0.17228833 -0.14550912
0.085202038 -0.7313323 -0.12949884
0.01539856 -0.65984279 -0.13792312
0.24760483 -0.54419857 -0.13563037
-0.26362926 -0.14957458 -0.13151348
-0.24037695 -0.14957458 -0.13151348
-0.21712463 -0.14957458 -0.13151348
-0.1938723 -0.14957458 -0.13151348
-0.17061999 -0.14957458 -0.13151348
-0.14736766 -0.14957458 -0.13151348
-0.12411535 -0.14957458 -0.13151348
-0.10086303 -0.14957458 -0.13151348
-0.077610709 -0.14957458 -0.13151348
-0.054358393 -0.14957458 -0.13151348
-0.031106075 -0.14957458 -0.13151348
-0.0078537576 -0.14957458 -0.13151348
0.01539856 -0.14957458 -0.13151348
0.038650878 -0.14957458 -0.13151348
0.061903194 -0.14957458 -0.13151348
0.085155517 -0.14957458 -0.13151348
0.10840783 -0.14957458 -0.13151348
0.13166015 -0.14957458 -0.13151348
0.15491247 -0.14957458 -0.13151348
0.17816478 -0.14957458 -0.13151348
0.20141712 -0.14957458 -0.13151348
0.22466943 -0.14957458 -0.13151348
0.24792175 -0.14957458 -0.13151348
0.1090055 -0.73521566 -0.11210406
0.1558314 -0.71191859 -0.1116184
0.20266727 -0.6885972 -0.11121368
-0.031261325 -0.66314387 -0.12142968
0.038756147 -0.66386271 -0.1178385
-0.077935576 -0.63990366 -0.12096322
-0.12462421 -0.61665636 -0.12049651
-0.17132621 -0.59339911 -0.12004578
-0.21804336 -0.57013762 -0.11957872
0.22541931 -0.56994945 -0.12068975
-0.2647734 -0.54686624 -0.11912787
-0.2649357 -0.1266489 -0.11737084
-0.2415745 -0.1266489 -0.11737084
-0.21821332 -0.1266489 -0.11737084
-0.19485213 -0.1266489 -0.11737084
-0.17149095 -0.1266489 -0.11737084
-0.14812976 -0.1266489 -0.11737084
-0.12476857 -0.1266489 -0.11737084
-0.10140738 -0.1266489 -0.11737084
-0.078046195 -0.1266489 -0.11737084
-0.054685004 -0.1266489 -0.11737084
-0.03132382 -0.1266489 -0.11737084
-0.0079626292 -0.1266489 -0.11737084
0.01539856 -0.1266489 -0.11737084
0.038759749 -0.1266489 -0.11737084
0.062120937 -0.1266489 -0.11737084
0.085482128 -0.1266489 -0.11737084
0.10884332 -0.1266489 -0.11737084
0.1322045 -0.1266489 -0.11737084
0.15556569 -0.1266489 -0.11737084
0.17892689 -0.1266489 -0.11737084
0.20228808 -0.1266489 -0.11737084
0.22564925 -0.1266489 -0.11737084
0.24901044 -0.1266489 -0.11737084
-0.0081517436 -0.69242352 -0.092804074
-0.055262953 -0.66896504 -0.092345238
0.25011688 -0.66683298 -0.10299754
-0.10238893 -0.64550281 -0.091869593
-0.14952955 -0.62203318 -0.091393948
-0.1966837 -0.59855342 -0.090934515
-0.24385202 -0.57506657 -0.090474844
-0.26625291 -0.10350727 -0.10311151
-0.24278197 -0.10350727 -0.10311151
-0.219311 -0.10350727 -0.10311151
-0.19584006 -0.10350727 -0.10311151
-0.17236911 -0.10350727 -0.10311151
-0.14889814 -0.10350727 -0.10311151
-0.12542717 -0.10350727 -0.10311151
-0.10195622 -0.10350727 -0.10311151
-0.078485265 -0.10350727 -0.10311151
-0.055014305 -0.10350727 -0.10311151
-0.031543352 -0.10350727 -0.10311151
-0.0080723967 -0.10350727 -0.10311151
0.01539856 -0.10350727 -0.10311151
0.038869515 -0.10350727 -0.10311151
0.062340476 -0.10350727 -0.10311151
0.085811429 -0.10350727 -0.10311151
0.10928239 -0.10350727 -0.10311151
0.13275334 -0.10350727 -0.10311151
0.1562243 -0.10350727 -0.10311151
0.17969526 -0.10350727 -0.10311151
0.20316623 -0.10350727 -0.10311151
0.22663718 -0.10350727 -0.10311151
0.25010812 -0.10350727 -0.10311151
0.18095317 -0.7187838 -0.079767585
0.01539856 -0.69497514 -0.080527902
0.25203118 -0.5771572 -0.078130245
-0.26758412 -0.080147296 -0.088700891
-0.24400222 -0.080147296 -0.088700891
-0.22042035 -0.080147296 -0.088700891
-0.19683844 -0.080147296 -0.088700891
-0.17325655 -0.080147296 -0.088700891
-0.14967467 -0.080147296 -0.088700891
-0.12609278 -0.080147296 -0.088700891
-0.10251089 -0.080147296 -0.088700891
-0.078928992 -0.080147296 -0.088700891
-0.055347107 -0.080147296 -0.088700891
-0.031765215 -0.080147296 -0.088700891
-0.0081833284 -0.080147296 -0.088700891
0.01539856 -0.080147296 -0.088700891
0.038980447 -0.080147296 -0.088700891
0.062562339 -0.080147296 -0.088700891
0.086144231 -0.080147296 -0.088700891
0.10972612 -0.080147296 -0.088700891
0.13330801 -0.080147296 -0.088700891
0.1568899 -0.080147296 -0.088700891
0.18047179 -0.080147296 -0.088700891
0.20405367 -0.080147296 -0.088700891
0.22763556 -0.080147296 -0.088700891
0.25121745 -0.080147296 -0.088700891
-0.26892638 -0.056565396 -0.074170232
-0.24523267 -0.056565396 -0.074170232
-0.22153892 -0.056565396 -0.074170232
-0.19784516 -0.056565396 -0.074170232
-0.17415142 -0.056565396 -0.074170232
-0.15045767 -0.056565396 -0.074170232
-0.12676391 -0.056565396 -0.074170232
-0.10307018 -0.056565396 -0.074170232
-0.079376429 -0.056565396 -0.074170232
-0.055682674 -0.056565396 -0.074170232
-0.031988934 -0.056565396 -0.074170232
-0.0082951877 -0.056565396 -0.074170232
0.01539856 -0.056565396 -0.074170232
0.03909231 -0.056565396 -0.074170232
0.062786058 -0.056565396 -0.074170232
0.086479798 -0.056565396 -0.074170232
0.11017355 -0.056565396 -0.074170232
0.13386729 -0.056565396 -0.074170232
0.15756103 -0.056565396 -0.074170232
0.18125479 -0.056565396 -0.074170232
0.20494854 -0.056565396 -0.074170232
0.22864228 -0.056565396 -0.074170232
0.25233603 -0.056565396 -0.074170232
-0.032158375 -0.69858402 -0.063164592
-0.079729721 -0.67489916 -0.062696695
-0.12731625 -0.65121031 -0.06221199
-0.1749167 -0.62751114 -0.061743736
-0.22253156 -0.60380465 -0.061275363
-0.2701624 -0.58009374 -0.060790062
-0.27028301 -0.032758519 -0.059484124
-0.24647623 -0.032758519 -0.059484124
-0.22266945 -0.032758519 -0.059484124
-0.19886264 -0.032758519 -0.059484124
-0.17505582 -0.032758519 -0.059484124
-0.15124904 -0.032758519 -0.059484124
-0.12744223 -0.032758519 -0.059484124
-0.10363545 -0.032758519 -0.059484124
-0.079828635 -0.032758519 -0.059484124
-0.056021832 -0.032758519 -0.059484124
-0.032215036 -0.032758519 -0.059484124
-0.0084082391 -0.032758519 -0.059484124
0.01539856 -0.032758519 -0.059484124
0.039205357 -0.032758519 -0.059484124
0.06301216 -0.032758519 -0.059484124
0.086818956 -0.032758519 -0.059484124
0.11062576 -0.032758519 -0.059484124
0.13443257 -0.032758519 -0.059484124
0.15823935 -0.032758519 -0.059484124
0.18204616 -0.032758519 -0.059484124
0.20585294 -0.032758519 -0.059484124
0.22965977 -0.032758519 -0.059484124
0.25346658 -0.032758519 -0.059484124
0.039272077 -0.70115036 -0.05081737
-0.27165112 -0.0087237768 -0.044674277
-0.24773031 -0.0087237768 -0.044674277
-0.2238095 -0.0087237768 -0.044674277
-0.19988869 -0.0087237768 -0.044674277
-0.17596787 -0.0087237768 -0.044674277
-0.1520471 -0.0087237768 -0.044674277
-0.12812628 -0.0087237768 -0.044674277
-0.10420547 -0.0087237768 -0.044674277
-0.080284663 -0.0087237768 -0.044674277
-0.056363858 -0.0087237768 -0.044674277
-0.032443054 -0.0087237768 -0.044674277
-0.0085222442 -0.0087237768 -0.044674277
0.01539856 -0.0087237768 -0.044674277
0.039319366 -0.0087237768 -0.044674277
0.06324017 -0.0087237768 -0.044674277
0.087160982 -0.0087237768 -0.044674277
0.11108179 -0.0087237768 -0.044674277
0.13500258 -0.0087237768 -0.044674277
0.1589234 -0.0087237768 -0.044674277
0.18284422 -0.0087237768 -0.044674277
0.206765 -0.0087237768 -0.044674277
0.23068582 -0.0087237768 -0.044674277
0.2546066 -0.0087237768 -0.044674277
-0.0086087324 -0.7287696 -0.033439279
0.01539856 -0.73146772 -0.020921469
-0.056634724 -0.70486498 -0.032945275
-0.10467529 -0.68094939 -0.032468319
-0.15273054 -0.65702641 -0.031991005
-0.20080169 -0.63309932 -0.031496406
-0.24888664 -0.60916162 -0.031018853
-0.2489979 0.015542846 -0.029704809
-0.22496188 0.015542846 -0.029704809
-0.20092581 0.015542846 -0.029704809
-0.17688979 0.015542846 -0.029704809
-0.15285373 0.015542846 -0.029704809
-0.12881769 0.015542846 -0.029704809
-0.10478166 0.015542846 -0.029704809
-0.080745608 0.015542846 -0.029704809
-0.056709565 0.015542846 -0.029704809
-0.032673523 0.015542846 -0.029704809
-0.0086374823 0.015542846 -0.029704809
0.01539856 0.015542846 -0.029704809
0.039434604 0.015542846 -0.029704809
0.063470647 0.015542846 -0.029704809
0.087506689 0.015542846 -0.029704809
0.11154273 0.015542846 -0.029704809
0.13557878 0.015542846 -0.029704809
0.15961482 0.015542846 -0.029704809
0.18365085 0.015542846 -0.029704809
0.20768692 0.015542846 -0.029704809
0.23172294 0.015542846 -0.029704809
0.255759 0.015542846 -0.029704809
0.25662425 -0.61138451 -0.018464446
-0.2502763 0.040043671 -0.01460743
-0.22612403 0.040043671 -0.01460743
-0.20197178 0.040043671 -0.01460743
-0.17781952 0.040043671 -0.01460743
-0.15366726 0.040043671 -0.01460743
-0.12951501 0.040043671 -0.01460743
-0.10536274 0.040043671 -0.01460743
-0.081210479 0.040043671 -0.01460743
-0.057058223 0.040043671 -0.01460743
-0.032905959 0.040043671 -0.01460743
-0.0087537002 0.040043671 -0.01460743
0.01539856 0.040043671 -0.01460743
0.039550819 0.040043671 -0.01460743
0.063703083 0.040043671 -0.01460743
0.087855347 0.040043671 -0.01460743
0.1120076 0.040043671 -0.01460743
0.13615985 0.040043671 -0.01460743
0.16031213 0.040043671 -0.01460743
0.18446438 0.040043671 -0.01460743
0.20861664 0.040043671 -0.01460743
0.23276891 0.040043671 -0.01460743
0.25692114 0.040043671 -0.01460743
0.039740339 -0.7381351 0.010011554
-0.033090331 -0.73540974 -0.0026327372
-0.081594184 -0.71126652 -0.002146244
-0.13011384 -0.68711907 -0.0016423464
-0.17864797 -0.66296071 -0.0011556149
-0.22719707 -0.63879484 -0.00066864491
-0.25156862 0.064783275 0.00065386295
-0.22729887 0.064783275 0.00065386295
-0.20302911 0.064783275 0.00065386295
-0.17875938 0.064783275 0.00065386295
-0.15448964 0.064783275 0.00065386295
-0.13021989 0.064783275 0.00065386295
-0.10595015 0.064783275 0.00065386295
-0.08168041 0.064783275 0.00065386295
-0.057410665 0.064783275 0.00065386295
-0.033140928 0.064783275 0.00065386295
-0.0088711828 0.064783275 0.00065386295
0.01539856 0.064783275 0.00065386295
0.039668303 0.064783275 0.00065386295
0.063938044 0.064783275 0.00065386295
0.088207789 0.064783275 0.00065386295
0.11247753 0.064783275 0.00065386295
0.13674727 0.064783275 0.00065386295
0.16101702 0.064783275 0.00065386295
0.18528676 0.064783275 0.00065386295
0.20955651 0.064783275 0.00065386295
0.23382623 0.064783275 0.00065386295
0.25809598 0.064783275 0.00065386295
-0.0090838093 -0.76655406 0.028274775
-0.058060408 -0.74218249 0.028788567
-0.10705215 -0.71779925 0.029284716
-0.15605918 -0.69340843 0.029781103
-0.25287354 0.089764774 0.016064167
-0.22848517 0.089764774 0.016064167
-0.20409678 0.089764774 0.016064167
-0.17970842 0.089764774 0.016064167
-0.15532005 0.089764774 0.016064167
-0.13093168 0.089764774 0.016064167
-0.1065433 0.089764774 0.016064167
-0.08215493 0.089764774 0.016064167
-0.057766557 0.089764774 0.016064167
-0.033378184 0.089764774 0.016064167
-0.0089898109 0.089764774 0.016064167
0.01539856 0.089764774 0.016064167
0.039786931 0.089764774 0.016064167
0.064175308 0.089764774 0.016064167
0.088563681 0.089764774 0.016064167
0.11295205 0.089764774 0.016064167
0.13734043 0.089764774 0.016064167
0.1617288 0.089764774 0.016064167
0.18611717 0.089764774 0.016064167
0.21050555 0.089764774 0.016064167
0.2348939 0.089764774 0.016064167
0.25928229 0.089764774 0.016064167
0.01539856 -0.76940483 0.041044116
-0.20508276 -0.6690135 0.030295491
-0.25412068 -0.64460725 0.030792117
-0.25418976 0.1149908 0.031608462
-0.22968175 0.1149908 0.031608462
-0.20517372 0.1149908 0.031608462
-0.18066569 0.1149908 0.031608462
-0.15615767 0.1149908 0.031608462
-0.13164963 0.1149908 0.031608462
-0.10714159 0.1149908 0.031608462
-0.082633562 0.1149908 0.031608462
-0.058125533 0.1149908 0.031608462
-0.033617504 0.1149908 0.031608462
-0.009109471 0.1149908 0.031608462
0.01539856 0.1149908 0.031608462
0.039906591 0.1149908 0.031608462
0.06441462 0.1149908 0.031608462
0.088922657 0.1149908 0.031608462
0.11343069 0.1149908 0.031608462
0.13793871 0.1149908 0.031608462
0.16244675 0.1149908 0.031608462
0.1869548 0.1149908 0.031608462
0.21146281 0.1149908 0.031608462
0.23597084 0.1149908 0.031608462
0.26047885 0.1149908 0.031608462
-0.034059532 -0.77370775 0.060319066
-0.083533205 -0.74908769 0.060825109
-0.13302331 -0.72446382 0.061349392
-0.18252845 -0.69982815 0.061856031
-0.2320492 -0.67518485 0.062362552
-0.25552055 0.14046663 0.047323823
-0.23089153 0.14046663 0.047323823
-0.20626251 0.14046663 0.047323823
-0.1816335 0.14046663 0.047323823
-0.15700449 0.14046663 0.047323823
-0.13237548 0.14046663 0.047323823
-0.10774648 0.14046663 0.047323823
-0.08311747 0.14046663 0.047323823
-0.058488458 0.14046663 0.047323823
-0.033859454 0.14046663 0.047323823
-0.0092304479 0.14046663 0.047323823
0.01539856 0.14046663 0.047323823
0.040027566 0.14046663 0.047323823
0.064656578 0.14046663 0.047323823
0.089285582 0.14046663 0.047323823
0.11391459 0.14046663 0.047323823
0.13854361 0.14046663 0.047323823
0.1631726 0.14046663 0.047323823
0.18780161 0.14046663 0.047323823
0.21243063 0.14046663 0.047323823
0.23705964 0.14046663 0.047323823
0.26168865 0.14046663 0.047323823
-0.25686294 0.16619404 0.06317699
-0.23211192 0.16619404 0.06317699
-0.20736085 0.16619404 0.06317699
-0.18260981 0.16619404 0.06317699
-0.15785876 0.16619404 0.06317699
-0.13310771 0.16619404 0.06317699
-0.10835668 0.16619404 0.06317699
-0.083605625 0.16619404 0.06317699
-0.058854572 0.16619404 0.06317699
-0.034103535 0.16619404 0.06317699
-0.0093524866 0.16619404 0.06317699
0.01539856 0.16619404 0.06317699
0.040149607 0.16619404 0.06317699
0.064900652 0.16619404 0.06317699
0.089651696 0.16619404 0.06317699
0.11440275 0.16619404 0.06317699
0.13915379 0.16619404 0.06317699
0.16390483 0.16619404 0.06317699
0.18865588 0.16619404 0.06317699
0.21340694 0.16619404 0.06317699
0.23815797 0.16619404 0.06317699
0.26290902 0.16619404 0.06317699
0.040227056 -0.77659178 0.073238134
-0.25822029 0.19217907 0.079206228
-0.23334584 0.19217907 0.079206228
-0.2084714 0.19217907 0.079206228
-0.18359695 0.19217907 0.079206228
-0.15872252 0.19217907 0.079206228
-0.13384807 0.19217907 0.079206228
-0.10897364 0.19217907 0.079206228
-0.084099196 0.19217907 0.079206228
-0.059224755 0.19217907 0.079206228
-0.034350321 0.19217907 0.079206228
-0.0094758794 0.19217907 0.079206228
0.01539856 0.19217907 0.079206228
0.040273 0.19217907 0.079206228
0.065147437 0.19217907 0.079206228
0.090021878 0.19217907 0.079206228
0.11489632 0.19217907 0.079206228
0.13977076 0.19217907 0.079206228
0.1646452 0.19217907 0.079206228
0.18951964 0.19217907 0.079206228
0.21439408 0.19217907 0.079206228
0.23926853 0.19217907 0.079206228
0.26414296 0.19217907 0.079206228
-0.0095780678 -0.80586427 0.092480779
-0.059543669 -0.78100699 0.093015552
-0.10952503 -0.75613743 0.093531966
-0.15952229 -0.73126018 0.094048619
-0.20953551 -0.70637494 0.094565392
-0.25956619 -0.6814853 0.09510088
-0.25958964 0.21842276 0.095377803
-0.23459071 0.21842276 0.095377803
-0.20959181 0.21842276 0.095377803
-0.18459287 0.21842276 0.095377803
-0.15959394 0.21842276 0.095377803
-0.13459501 0.21842276 0.095377803
-0.10959607 0.21842276 0.095377803
-0.084597155 0.21842276 0.095377803
-0.059598222 0.21842276 0.095377803
-0.034599297 0.21842276 0.095377803
-0.0096003693 0.21842276 0.095377803
0.01539856 0.21842276 0.095377803
0.040397488 0.21842276 0.095377803
0.065396421 0.21842276 0.095377803
0.090395346 0.21842276 0.095377803
0.11539428 0.21842276 0.095377803
0.1403932 0.21842276 0.095377803
0.16539213 0.21842276 0.095377803
0.19039106 0.21842276 0.095377803
0.21539 0.21842276 0.095377803
0.24038893 0.21842276 0.095377803
0.26538783 0.21842276 0.095377803
0.065560736 -0.78391695 0.10605073
-0.26097438 0.2449324 0.11173069
-0.23584956 0.2449324 0.11173069
-0.21072476 0.2449324 0.11173069
-0.18559994 0.2449324 0.11173069
-0.16047513 0.2449324 0.11173069
-0.13535032 0.2449324 0.11173069
-0.1102255 0.2449324 0.11173069
-0.085100688 0.2449324 0.11173069
-0.059975877 0.2449324 0.11173069
-0.034851067 0.2449324 0.11173069
-0.0097262524 0.2449324 0.11173069
0.01539856 0.2449324 0.11173069
0.040523373 0.2449324 0.11173069
0.065648183 0.2449324 0.11173069
0.090773001 0.2449324 0.11173069
0.11589781 0.2449324 0.11173069
0.14102262 0.2449324 0.11173069
0.16614744 0.2449324 0.11173069
0.19127226 0.2449324 0.11173069
0.21639706 0.2449324 0.11173069
0.24152188 0.2449324 0.11173069
0.26664668 0.2449324 0.11173069
-0.18656731 -0.73820019 0.12743902
-0.23709938 -0.71306008 0.12796652
-0.26237154 0.27170837 0.12823021
-0.2371197 0.27170837 0.12823021
-0.21186787 0.27170837 0.12823021
-0.18661605 0.27170837 0.12823021
-0.16136421 0.27170837 0.12823021
-0.13611241 0.27170837 0.12823021
-0.11086057 0.27170837 0.12823021
-0.085608743 0.27170837 0.12823021
-0.060356922 0.27170837 0.12823021
-0.035105094 0.27170837 0.12823021
-0.0098532662 0.27170837 0.12823021
0.01539856 0.27170837 0.12823021
0.040650386 0.27170837 0.12823021
0.065902211 0.27170837 0.12823021
0.091154046 0.27170837 0.12823021
0.11640587 0.27170837 0.12823021
0.1416577 0.27170837 0.12823021
0.16690953 0.27170837 0.12823021
0.19216134 0.27170837 0.12823021
0.21741317 0.27170837 0.12823021
0.24266499 0.27170837 0.12823021
0.26791683 0.27170837 0.12823021
-0.2637845 0.29875839 0.14491653
-0.23840421 0.29875839 0.14491653
-0.21302392 0.29875839 0.14491653
-0.18764365 0.29875839 0.14491653
-0.16226338 0.29875839 0.14491653
-0.13688309 0.29875839 0.14491653
-0.11150283 0.29875839 0.14491653
-0.086122543 0.29875839 0.14491653
-0.060742266 0.29875839 0.14491653
-0.03536199 0.29875839 0.14491653
-0.0099817161 0.29875839 0.14491653
0.01539856 0.29875839 0.14491653
0.040778838 0.29875839 0.14491653
0.066159114 0.29875839 0.14491653
0.09153939 0.29875839 0.14491653
0.11691967 0.29875839 0.14491653
0.14229995 0.29875839 0.14491653
0.16768022 0.29875839 0.14491653
0.1930605 0.29875839 0.14491653
0.21844077 0.29875839 0.14491653
0.24382104 0.29875839 0.14491653
-0.26521027 0.32608303 0.16175425
-0.23970038 0.32608303 0.16175425
-0.21419047 0.32608303 0.16175425
-0.18868057 0.32608303 0.16175425
-0.1631707 0.32608303 0.16175425
-0.13766079 0.32608303 0.16175425
-0.11215091 0.32608303 0.16175425
-0.086641006 0.32608303 0.16175425
-0.061131112 0.32608303 0.16175425
-0.035621226 0.32608303 0.16175425
-0.010111332 0.32608303 0.16175425
0.01539856 0.32608303 0.16175425
0.040908452 0.32608303 0.16175425
0.066418342 0.32608303 0.16175425
0.091928236 0.32608303 0.16175425
0.11743813 0.32608303 0.16175425
0.14294803 0.32608303 0.16175425
0.16845791 0.32608303 0.16175425
0.19396782 0.32608303 0.16175425
0.2194777 0.32608303 0.16175425
0.24498759 0.32608303 0.16175425
-0.26665235 0.35369051 0.17878401
-0.24101132 0.35369051 0.17878401
-0.21537036 0.35369051 0.17878401
-0.18972935 0.35369051 0.17878401
-0.16408837 0.35369051 0.17878401
-0.13844737 0.35369051 0.17878401
-0.11280638 0.35369051 0.17878401
-0.087165393 0.35369051 0.17878401
-0.061524406 0.35369051 0.17878401
-0.035883419 0.35369051 0.17878401
-0.010242429 0.35369051 0.17878401
0.01539856 0.35369051 0.17878401
0.041039549 0.35369051 0.17878401
0.066680536 0.35369051 0.17878401
0.09232153 0.35369051 0.17878401
0.11796252 0.35369051 0.17878401
0.1436035 0.35369051 0.17878401
0.1692445 0.35369051 0.17878401
0.19488549 0.35369051 0.17878401
0.22052647 0.35369051 0.17878401
0.24616748 0.35369051 0.17878401
-0.26810759 0.38158053 0.19597018
-0.24233434 0.38158053 0.19597018
-0.21656105 0.38158053 0.19597018
-0.19078775 0.38158053 0.19597018
-0.16501446 0.38158053 0.19597018
-0.13924117 0.38158053 0.19597018
-0.11346789 0.38158053 0.19597018
-0.087694593 0.38158053 0.19597018
-0.061921306 0.38158053 0.19597018
-0.036148019 0.38158053 0.19597018
-0.010374729 0.38158053 0.19597018
0.01539856 0.38158053 0.19597018
0.041171849 0.38158053 0.19597018
0.066945136 0.38158053 0.19597018
0.09271843 0.38158053 0.19597018
0.11849172 0.38158053 0.19597018
0.14426501 0.38158053 0.19597018
0.1700383 0.38158053 0.19597018
0.19581158 0.38158053 0.19597018
0.22158487 0.38158053 0.19597018
0.24735817 0.38158053 0.19597018
-0.26957971 0.40976259 0.21335447
-0.24367258 0.40976259 0.21335447
-0.21776545 0.40976259 0.21335447
-0.19185835 0.40976259 0.21335447
-0.16595124 0.40976259 0.21335447
-0.14004412 0.40976259 0.21335447
-0.11413701 0.40976259 0.21335447
-0.088229895 0.40976259 0.21335447
-0.06232278 0.40976259 0.21335447
-0.036415666 0.40976259 0.21335447
-0.010508554 0.40976259 0.21335447
0.01539856 0.40976259 0.21335447
0.041305676 0.40976259 0.21335447
0.06721279 0.40976259 0.21335447
0.093119904 0.40976259 0.21335447
0.11902702 0.40976259 0.21335447
0.14493413 0.40976259 0.21335447
0.17084125 0.40976259 0.21335447
0.19674836 0.40976259 0.21335447
0.22265548 0.40976259 0.21335447
0.24856257 0.40976259 0.21335447
-0.27106541 0.438236 0.23090041
-0.24502325 0.438236 0.23090041
-0.21898107 0.438236 0.23090041
-0.19293889 0.438236 0.23090041
-0.1668967 0.438236 0.23090041
-0.14085452 0.438236 0.23090041
-0.11481234 0.438236 0.23090041
-0.088770166 0.438236 0.23090041
-0.06272798 0.438236 0.23090041
-0.036685802 0.438236 0.23090041
-0.010643622 0.438236 0.23090041
0.01539856 0.438236 0.23090041
0.04144074 0.438236 0.23090041
0.067482926 0.438236 0.23090041
0.093525104 0.438236 0.23090041
0.11956729 0.438236 0.23090041
0.14560947 0.438236 0.23090041
0.17165165 0.438236 0.23090041
0.19769382 0.438236 0.23090041
0.22373602 0.438236 0.23090041
0.2497782 0.438236 0.23090041
-0.27256846 0.46701115 0.24865031
-0.24638966 0.46701115 0.24865031
-0.22021084 0.46701115 0.24865031
-0.194032 0.46701115 0.24865031
-0.16785318 0.46701115 0.24865031
-0.14167435 0.46701115 0.24865031
-0.11549555 0.46701115 0.24865031
-0.089316718 0.46701115 0.24865031
-0.063137896 0.46701115 0.24865031
-0.036959082 0.46701115 0.24865031
-0.01078026 0.46701115 0.24865031
0.01539856 0.46701115 0.24865031
0.04157738 0.46701115 0.24865031
0.067756198 0.46701115 0.24865031
0.09393502 0.46701115 0.24865031
0.12011384 0.46701115 0.24865031
0.14629267 0.46701115 0.24865031
0.17247148 0.46701115 0.24865031
0.1986503 0.46701115 0.24865031
0.22482912 0.46701115 0.24865031
0.25100794 0.46701115 0.24865031
-0.24777046 0.49608952 0.26658738
-0.22145356 0.49608952 0.26658738
-0.19513664 0.49608952 0.26658738
-0.16881974 0.49608952 0.26658738
-0.14250284 0.49608952 0.26658738
-0.11618595 0.49608952 0.26658738
-0.089869045 0.49608952 0.26658738
-0.063552141 0.49608952 0.26658738
-0.037235245 0.49608952 0.26658738
-0.010918342 0.49608952 0.26658738
0.01539856 0.49608952 0.26658738
0.041715462 0.49608952 0.26658738
0.068032362 0.49608952 0.26658738
0.094349265 0.49608952 0.26658738
0.12066617 0.49608952 0.26658738
0.14698307 0.49608952 0.26658738
0.17329997 0.49608952 0.26658738
0.19961686 0.49608952 0.26658738
0.22593376 0.49608952 0.26658738
0.25225067 0.49608952 0.26658738
-0.24916431 0.525473 0.28469408
-0.22270802 0.525473 0.28469408
-0.19625174 0.525473 0.28469408
-0.16979544 0.525473 0.28469408
-0.14333916 0.525473 0.28469408
-0.11688288 0.525473 0.28469408
-0.090426587 0.525473 0.28469408
-0.063970298 0.525473 0.28469408
-0.037514016 0.525473 0.28469408
-0.011057727 0.525473 0.28469408
0.01539856 0.525473 0.28469408
0.041854847 0.525473 0.28469408
0.068311132 0.525473 0.28469408
0.094767421 0.525473 0.28469408
0.12122371 0.525473 0.28469408
0.14768 0.525473 0.28469408
0.17413628 0.525473 0.28469408
0.20059256 0.525473 0.28469408
0.22704886 0.525473 0.28469408
0.25350514 0.525473 0.28469408
-0.25057459 0.55517292 0.30301464
-0.2239773 0.55517292 0.30301464
-0.19737996 0.55517292 0.30301464
-0.17078266 0.55517292 0.30301464
-0.14418533 0.55517292 0.30301464
-0.11758801 0.55517292 0.30301464
-0.0909907 0.55517292 0.30301464
-0.064393386 0.55517292 0.30301464
-0.037796073 0.55517292 0.30301464
-0.011198755 0.55517292 0.30301464
0.01539856 0.55517292 0.30301464
0.041995876 0.55517292 0.30301464
0.068593189 0.55517292 0.30301464
0.09519051 0.55517292 0.30301464
0.12178782 0.55517292 0.30301464
0.14838514 0.55517292 0.30301464
0.17498246 0.55517292 0.30301464
0.20157978 0.55517292 0.30301464
0.22817709 0.55517292 0.30301464
0.25477442 0.55517292 0.30301464
-0.25199839 0.58518738 0.3215102
-0.22525871 0.58518738 0.3215102
-0.19851902 0.58518738 0.3215102
-0.1717793 0.58518738 0.3215102
-0.14503962 0.58518738 0.3215102
-0.11829992 0.58518738 0.3215102
-0.09156023 0.58518738 0.3215102
-0.064820528 0.58518738 0.3215102
-0.038080834 0.58518738 0.3215102
-0.011341138 0.58518738 0.3215102
0.01539856 0.58518738 0.3215102
0.042138256 0.58518738 0.3215102
0.068877958 0.58518738 0.3215102
0.095617652 0.58518738 0.3215102
0.12235735 0.58518738 0.3215102
0.14909704 0.58518738 0.3215102
0.17583674 0.58518738 0.3215102
0.20257643 0.58518738 0.3215102
0.22931615 0.58518738 0.3215102
0.25605583 0.58518738 0.3215102
-0.25343919 0.61552894 0.34022641
-0.22655539 0.61552894 0.34022641
-0.19967163 0.61552894 0.34022641
-0.17278785 0.61552894 0.34022641
-0.14590408 0.61552894 0.34022641
-0.11902031 0.61552894 0.34022641
-0.092136532 0.61552894 0.34022641
-0.065252759 0.61552894 0.34022641
-0.038368985 0.61552894 0.34022641
-0.011485213 0.61552894 0.34022641
0.01539856 0.61552894 0.34022641
0.042282335 0.61552894 0.34022641
0.069166109 0.61552894 0.34022641
0.096049882 0.61552894 0.34022641
0.12293366 0.61552894 0.34022641
0.14981744 0.61552894 0.34022641
0.1767012 0.61552894 0.34022641
0.20358497 0.61552894 0.34022641
0.23046875 0.61552894 0.34022641
0.2573525 0.61552894 0.34022641
-0.2548939 0.64619499 0.35912371
-0.22786464 0.64619499 0.35912371
-0.20083541 0.64619499 0.35912371
-0.17380615 0.64619499 0.35912371
-0.14677691 0.64619499 0.35912371
-0.11974767 0.64619499 0.35912371
-0.092718422 0.64619499 0.35912371
-0.065689176 0.64619499 0.35912371
-0.03865993 0.64619499 0.35912371
-0.011630686 0.64619499 0.35912371
0.01539856 0.64619499 0.35912371
0.042427808 0.64619499 0.35912371
0.069457054 0.64619499 0.35912371
0.0964863 0.64619499 0.35912371
0.12351555 0.64619499 0.35912371
0.15054479 0.64619499 0.35912371
0.17757404 0.64619499 0.35912371
0.20460327 0.64619499 0.35912371
0.23163253 0.64619499 0.35912371
0.25866175 0.64619499 0.35912371
-0.2563661 0.67719924 0.37824833
-0.22918965 0.67719924 0.37824833
-0.20201319 0.67719924 0.37824833
-0.17483671 0.67719924 0.37824833
-0.14766024 0.67719924 0.37824833
-0.12048377 0.67719924 0.37824833
-0.093307316 0.67719924 0.37824833
-0.066130839 0.67719924 0.37824833
-0.038954377 0.67719924 0.37824833
-0.011777909 0.67719924 0.37824833
0.01539856 0.67719924 0.37824833
0.042575032 0.67719924 0.37824833
0.069751501 0.67719924 0.37824833
0.096927963 0.67719924 0.37824833
0.12410444 0.67719924 0.37824833
0.15128089 0.67719924 0.37824833
0.17845736 0.67719924 0.37824833
0.20563383 0.67719924 0.37824833
0.23281032 0.67719924 0.37824833
0.25998676 0.67719924 0.37824833
-0.25785276 0.70853823 0.39756083
-0.23052764 0.70853823 0.39756083
-0.2032025 0.70853823 0.39756083
-0.17587736 0.70853823 0.39756083
-0.14855224 0.70853823 0.39756083
-0.1212271 0.70853823 0.39756083
-0.093901969 0.70853823 0.39756083
-0.066576838 0.70853823 0.39756083
-0.039251707 0.70853823 0.39756083
-0.011926573 0.70853823 0.39756083
0.01539856 0.70853823 0.39756083
0.042723693 0.70853823 0.39756083
0.070048824 0.70853823 0.39756083
0.097373962 0.70853823 0.39756083
0.12469909 0.70853823 0.39756083
0.15202422 0.70853823 0.39756083
0.17934936 0.70853823 0.39756083
0.20667449 0.70853823 0.39756083
0.23399962 0.70853823 0.39756083
0.26132476 0.70853823 0.39756083
-0.25935751 0.74022716 0.4171077
-0.23188189 0.74022716 0.4171077
-0.20440628 0.74022716 0.4171077
-0.17693067 0.74022716 0.4171077
-0.14945507 0.74022716 0.4171077
-0.12197948 0.74022716 0.4171077
-0.094503857 0.74022716 0.4171077
-0.067028254 0.74022716 0.4171077
-0.039552651 0.74022716 0.4171077
-0.012077045 0.74022716 0.4171077
0.01539856 0.74022716 0.4171077
0.042874165 0.74022716 0.4171077
0.070349768 0.74022716 0.4171077
0.097825378 0.74022716 0.4171077
0.12530097 0.74022716 0.4171077
0.1527766 0.74022716 0.4171077
0.18025219 0.74022716 0.4171077
0.20772779 0.74022716 0.4171077
0.2352034 0.74022716 0.4171077
0.26267901 0.74022716 0.4171077
-0.26087713 0.77226168 0.43684828
-0.23324957 0.77226168 0.43684828
-0.205622 0.77226168 0.43684828
-0.17799443 0.77226168 0.43684828
-0.15036686 0.77226168 0.43684828
-0.12273929 0.77226168 0.43684828
-0.09511172 0.77226168 0.43684828
-0.067484148 0.77226168 0.43684828
-0.039856583 0.77226168 0.43684828
-0.01222901 0.77226168 0.43684828
0.01539856 0.77226168 0.43684828
0.043026131 0.77226168 0.43684828
0.070653699 0.77226168 0.43684828
0.098281272 0.77226168 0.43684828
0.12590884 0.77226168 0.43684828
0.15353641 0.77226168 0.43684828
0.18116398 0.77226168 0.43684828
0.20879155 0.77226168 0.43684828
0.23641913 0.77226168 0.43684828
0.2640467 0.77226168 0.43684828
-0.26241547 0.80465806 0.45683181
-0.23463404 0.80465806 0.45683181
-0.20685264 0.80465806 0.45683181
-0.17907125 0.80465806 0.45683181
-0.15128985 0.80465806 0.45683181
-0.12350845 0.80465806 0.45683181
-0.095727041 0.80465806 0.45683181
-0.067945644 0.80465806 0.45683181
-0.04016424 0.80465806 0.45683181
-0.012382841 0.80465806 0.45683181
0.01539856 0.80465806 0.45683181
0.043179959 0.80465806 0.45683181
0.070961364 0.80465806 0.45683181
0.098742768 0.80465806 0.45683181
0.12652417 0.80465806 0.45683181
0.15430558 0.80465806 0.45683181
0.18208697 0.80465806 0.45683181
0.20986837 0.80465806 0.45683181
0.23764977 0.80465806 0.45683181
0.26543117 0.80465806 0.45683181
-0.26396921 0.83741158 0.47701561
-0.23603246 0.83741158 0.47701561
-0.20809565 0.83741158 0.47701561
-0.1801589 0.83741158 0.47701561
-0.1522221 0.83741158 0.47701561
-0.12428533 0.83741158 0.47701561
-0.096348546 0.83741158 0.47701561
-0.068411767 0.83741158 0.47701561
-0.040474996 0.83741158 0.47701561
-0.012538217 0.83741158 0.47701561
0.01539856 0.83741158 0.47701561
0.043335337 0.83741158 0.47701561
0.071272112 0.83741158 0.47701561
0.099208891 0.83741158 0.47701561
0.12714566 0.83741158 0.47701561
0.15508245 0.83741158 0.47701561
0.18301922 0.83741158 0.47701561
0.21095602 0.83741158 0.47701561
0.23889278 0.83741158 0.47701561
0.26682958 0.83741158 0.47701561
0 0 0 1 0 0 0 1 0 0 0 1 0 0 0 0 0 1347 1 0 0
