ply
format ascii 1.0
comment PCL generated
element vertex 1309
property float x
property float y
property float z
element camera 0
property float view_px
property float view_py
property float view_pz
property float x_axisx
property float x_axisy
property float x_axisz
property float y_axisx
property float y_axisy
property float y_axisz
property float z_axisx
property float z_axisy
property float z_axisz
property float focal
property float scalex
property float scaley
property float centerx
property float centery
property int viewportx
property int viewporty
property float k1
property float k2
end_header
-0.16371408 -0.23956692 -0.17126441
-0.16371408 -0.21890594 -0.17126441
-0.16371408 -0.19824493 -0.17126429
-0.16371408 -0.17758408 -0.17126441
-0.16371408 -0.15692307 -0.17126441
-0.16371408 -0.13626209 -0.17126429
-0.16371408 -0.11560109 -0.17126441
-0.16371408 -0.094940111 -0.17126429
-0.16371408 -0.07427898 -0.17126441
-0.16371408 -0.05361804 -0.17126441
-0.16371408 -0.032957055 -0.17126429
-0.16371408 -0.012296066 -0.17126441
-0.16371408 0.0083649196 -0.17126429
-0.16371408 0.029025957 -0.17126429
-0.16371408 0.049686942 -0.17126429
-0.16371408 0.070348024 -0.17126441
-0.16371408 0.091008961 -0.17126441
-0.16371408 0.11166996 -0.17126441
-0.16371408 0.13233094 -0.17126429
-0.16371408 0.15299197 -0.17126429
-0.16371408 0.17365296 -0.17126429
-0.16371408 0.19431385 -0.17126429
-0.16371313 0.21497381 -0.17127812
-0.16371313 0.23563461 -0.17127788
-0.16371313 0.25629553 -0.17127788
-0.16371313 0.27695647 -0.171278
-0.16371313 0.29761735 -0.17127812
-0.16371313 0.31827828 -0.17127812
-0.16371313 0.33893913 -0.17127812
-0.16371313 0.35960007 -0.17127812
-0.16371313 0.38026088 -0.17127788
-0.16371313 0.40092176 -0.171278
-0.16371313 0.42158267 -0.171278
-0.16371313 0.44224361 -0.17127812
-0.16371313 0.46290454 -0.17127812
-0.16371313 0.48356539 -0.17127812
-0.16371313 0.50422627 -0.17127788
-0.16371313 0.5248872 -0.171278
-0.16371313 0.54554802 -0.171278
-0.16371313 0.56620896 -0.17127812
-0.16371313 0.5868699 -0.17127812
-0.16371313 0.60753083 -0.17127812
-0.16371313 0.62819153 -0.17127788
-0.16371313 0.64885247 -0.171278
-0.16371313 0.6695134 -0.171278
-0.16371313 0.69017434 -0.17127812
-0.16371313 0.71083516 -0.17127812
-0.16371313 0.7314961 -0.17127812
-0.16371313 0.75215697 -0.17127788
-0.16371313 0.77281791 -0.17127788
-0.33175173 -0.78273755 -0.15025318
-0.14381237 -0.78026468 -0.15893483
-0.33175173 -0.76191473 -0.1502533
-0.14381237 -0.75950885 -0.15893483
-0.12372701 -0.76295722 -0.14649141
-0.33175173 -0.74109197 -0.15025318
-0.14381237 -0.7387529 -0.15893483
-0.12372701 -0.74210548 -0.14649153
-0.33175173 -0.72026926 -0.15025318
-0.14381237 -0.71799707 -0.15893483
-0.12372701 -0.72125381 -0.14649129
-0.33175173 -0.69944656 -0.15025318
-0.14381237 -0.69724101 -0.15893483
-0.12372701 -0.70040214 -0.14649141
-0.33175173 -0.67862374 -0.1502533
-0.14381237 -0.67648512 -0.15893483
-0.12372701 -0.67955035 -0.14649153
-0.33175173 -0.65780103 -0.15025318
-0.14381237 -0.65572929 -0.15893483
-0.12372701 -0.65869874 -0.14649153
-0.33175173 -0.63697833 -0.15025318
-0.14381237 -0.63497341 -0.15893483
-0.12372701 -0.63784695 -0.14649165
-0.33175173 -0.61615545 -0.1502533
-0.14381237 -0.61421746 -0.15893471
-0.12372701 -0.61699539 -0.14649141
-0.33175173 -0.59533274 -0.15025318
-0.14381237 -0.59346151 -0.15893483
-0.12372701 -0.5961436 -0.14649153
-0.33175173 -0.5745101 -0.15025318
-0.14381237 -0.57270563 -0.15893483
-0.12372701 -0.57529193 -0.14649153
-0.33175173 -0.55368733 -0.15025318
-0.14381237 -0.55194974 -0.15893483
-0.12372701 -0.5544402 -0.14649153
-0.33175173 -0.53286451 -0.1502533
-0.14381237 -0.53119379 -0.15893471
-0.12372701 -0.53358859 -0.14649153
-0.33175173 -0.51204181 -0.15025318
-0.14381237 -0.51043785 -0.15893483
-0.12372701 -0.5127368 -0.14649141
-0.33175173 -0.49121907 -0.15025318
-0.14381237 -0.48968196 -0.15893483
-0.12372701 -0.49188513 -0.14649153
-0.33175173 -0.47039637 -0.15025318
-0.14381237 -0.4689261 -0.15893483
-0.12372701 -0.4710333 -0.14649153
-0.33175173 -0.44957355 -0.15025318
-0.14381237 -0.44817016 -0.15893483
-0.12372701 -0.45018175 -0.14649141
-0.33175173 -0.42875087 -0.15025318
-0.14381237 -0.42741427 -0.15893471
-0.12372701 -0.42932999 -0.14649141
-0.33175173 -0.40792811 -0.15025318
-0.14381237 -0.40665826 -0.15893483
-0.12372701 -0.40847829 -0.14649153
-0.33175173 -0.38710538 -0.15025318
-0.14381237 -0.38590243 -0.15893483
-0.12372701 -0.38762653 -0.14649153
-0.33175173 -0.36628264 -0.15025318
-0.14381237 -0.36514646 -0.15893483
-0.12372701 -0.36677495 -0.14649141
-0.33175173 -0.34545991 -0.15025318
-0.14381237 -0.3443906 -0.15893471
-0.12372701 -0.34592319 -0.14649141
-0.33175173 -0.32463717 -0.15025318
-0.14381237 -0.32363474 -0.15893483
-0.12372701 -0.32507151 -0.14649153
-0.33175173 -0.30381435 -0.15025318
-0.14381237 -0.30287874 -0.15893483
-0.12372701 -0.30421975 -0.14649153
-0.33175173 -0.28299162 -0.15025318
-0.14381237 -0.28212291 -0.15893483
-0.12372701 -0.28336817 -0.14649141
-0.33175173 -0.26216897 -0.15025318
-0.14381237 -0.26136696 -0.15893483
-0.12372701 -0.2625165 -0.14649153
-0.33175173 -0.24134628 -0.15025318
-0.14381237 -0.24061108 -0.15893483
-0.12372701 -0.24166474 -0.14649153
-0.33175173 -0.22052343 -0.15025318
-0.14381237 -0.21985513 -0.15893483
-0.12372701 -0.22081307 -0.14649165
-0.33175173 -0.1997007 -0.15025318
-0.14381237 -0.19909927 -0.15893483
-0.12372701 -0.19996139 -0.14649141
-0.33175173 -0.17887798 -0.15025318
-0.14381237 -0.17834327 -0.15893483
-0.12372701 -0.17910968 -0.14649153
-0.33175173 -0.15805534 -0.15025318
-0.14381237 -0.15758741 -0.15893483
-0.12372701 -0.1582579 -0.14649141
-0.33175173 -0.1372325 -0.15025318
-0.14381237 -0.13683155 -0.15893483
-0.12372701 -0.1374062 -0.14649153
-0.33175173 -0.1164097 -0.15025318
-0.14381237 -0.11607556 -0.15893483
-0.12372701 -0.11655456 -0.14649129
-0.33175173 -0.095587015 -0.15025318
-0.14381237 -0.095319614 -0.15893483
-0.12372701 -0.095702857 -0.14649141
-0.33175173 -0.074764192 -0.15025318
-0.14381237 -0.074563757 -0.15893483
-0.12372701 -0.074851111 -0.14649141
-0.33175173 -0.053941496 -0.1502533
-0.14381237 -0.053807862 -0.15893483
-0.12372701 -0.053999413 -0.14649153
-0.33175173 -0.033118807 -0.15025318
-0.14381237 -0.033052012 -0.15893471
-0.12372701 -0.033147763 -0.14649129
-0.33175173 -0.012296066 -0.15025318
-0.12372701 -0.012296066 -0.14649141
-0.14381237 -0.012295973 -0.15893483
-0.33175173 0.0085267667 -0.15025318
-0.14381237 0.0084599257 -0.15893483
-0.12372701 0.0085556787 -0.14649153
-0.33175173 0.029349457 -0.15025318
-0.14381237 0.029215779 -0.15893483
-0.12372625 0.029407188 -0.14650548
-0.33175173 0.050172146 -0.15025318
-0.14381237 0.049971629 -0.15893483
-0.12372625 0.0502587 -0.14650548
-0.33175173 0.070994884 -0.15025318
-0.14381237 0.070727617 -0.15893483
-0.12372625 0.071110308 -0.14650536
-0.33175173 0.091817677 -0.15025318
-0.14381237 0.091483563 -0.15893483
-0.12372625 0.091961905 -0.14650548
-0.33175173 0.11264041 -0.15025318
-0.14381237 0.11223942 -0.15893483
-0.12372625 0.1128135 -0.14650536
-0.33175173 0.13346319 -0.15025318
-0.14381154 0.13299461 -0.15894866
-0.12372625 0.13366507 -0.14650548
-0.33175173 0.15428594 -0.1502533
-0.14381154 0.15375042 -0.15894866
-0.12372625 0.15451667 -0.14650536
-0.33175173 0.17510863 -0.15025318
-0.14381154 0.17450622 -0.15894866
-0.12372625 0.17536826 -0.14650548
-0.33175173 0.19593136 -0.15025318
-0.14381154 0.19526199 -0.15894866
-0.12372625 0.19621979 -0.14650548
-0.33175173 0.21675409 -0.15025318
-0.14381154 0.21601778 -0.15894866
-0.12372625 0.21707152 -0.14650548
-0.33174992 0.23757558 -0.150267
-0.14381154 0.23677355 -0.15894866
-0.12372625 0.23792304 -0.14650536
-0.33174992 0.25839818 -0.150267
-0.14381154 0.25752947 -0.15894854
-0.12372625 0.25877467 -0.14650548
-0.33174992 0.27922091 -0.150267
-0.14381154 0.27828521 -0.15894854
-0.12372625 0.27962634 -0.14650536
-0.33174992 0.30004346 -0.150267
-0.14381154 0.29904103 -0.15894866
-0.12372625 0.3004778 -0.14650536
-0.33174992 0.32086602 -0.15026712
-0.14381154 0.31979683 -0.15894866
-0.12372625 0.32132941 -0.14650536
-0.33174992 0.34168881 -0.150267
-0.14381154 0.34055263 -0.15894866
-0.12372625 0.34218094 -0.14650536
-0.33174992 0.36251131 -0.150267
-0.14381154 0.3613084 -0.15894866
-0.12372625 0.36303273 -0.14650536
-0.33174992 0.38333404 -0.150267
-0.14381154 0.38206419 -0.15894866
-0.12372625 0.38388419 -0.14650536
-0.33174992 0.40415666 -0.15026712
-0.14381154 0.4028202 -0.15894866
-0.12372625 0.40473589 -0.14650548
-0.33174992 0.42497939 -0.150267
-0.14381154 0.42357591 -0.15894866
-0.12372625 0.42558736 -0.14650536
-0.33174992 0.44580197 -0.150267
-0.14381154 0.44433174 -0.15894866
-0.12372625 0.44643903 -0.14650536
-0.33174992 0.46662459 -0.15026712
-0.14381154 0.4650875 -0.15894866
-0.12372625 0.46729064 -0.14650536
-0.33174992 0.48744723 -0.150267
-0.14381154 0.48584327 -0.15894866
-0.12372625 0.48814219 -0.14650548
-0.33174992 0.50826985 -0.15026712
-0.14381154 0.50659901 -0.15894866
-0.12372625 0.50899374 -0.14650548
-0.33174992 0.52909261 -0.150267
-0.14381154 0.52735478 -0.15894866
-0.12372625 0.52984542 -0.14650536
-0.33174992 0.54991513 -0.15026712
-0.14381154 0.54811066 -0.15894866
-0.12372625 0.55069697 -0.14650536
-0.33174992 0.57073766 -0.15026712
-0.14381154 0.56886655 -0.15894854
-0.12372625 0.57154852 -0.14650536
-0.33174992 0.59156042 -0.150267
-0.14381154 0.58962232 -0.15894866
-0.12372625 0.59240007 -0.14650548
-0.33175173 0.61238617 -0.15025318
-0.14381154 0.61037809 -0.15894866
-0.12372625 0.61325181 -0.14650536
-0.33175173 0.63320899 -0.15025318
-0.14381154 0.63113391 -0.15894866
-0.12372625 0.63410336 -0.14650548
-0.33146971 0.65350097 -0.152408
-0.14381154 0.65188968 -0.15894866
-0.12372625 0.65495485 -0.14650536
-0.33108115 0.67355275 -0.15537751
-0.14381154 0.67264545 -0.15894866
-0.12372625 0.67580652 -0.14650548
-0.33117732 0.69452846 -0.15464258
-0.14381154 0.69340128 -0.15894866
-0.12372625 0.69665813 -0.14650536
-0.33117732 0.71531731 -0.15464246
-0.14381154 0.71415728 -0.15894866
-0.12372625 0.71750969 -0.14650536
-0.33117732 0.73610634 -0.15464246
-0.14381154 0.73491293 -0.15894854
-0.12372625 0.7383613 -0.14650548
-0.33117732 0.75689524 -0.15464246
-0.14381154 0.75566876 -0.15894854
-0.12372625 0.75921279 -0.14650536
-0.33117732 0.77768415 -0.15464246
-0.14381154 0.77642453 -0.15894866
-0.12372625 0.78006458 -0.14650536
-0.10345536 -0.76643753 -0.13393283
-0.10345536 -0.74548936 -0.13393271
-0.10345536 -0.72454089 -0.13393271
-0.10345536 -0.70359254 -0.13393283
-0.10345536 -0.68264407 -0.13393283
-0.10345536 -0.66169566 -0.13393283
-0.10345536 -0.64074731 -0.13393271
-0.10345536 -0.61979896 -0.13393283
-0.10345536 -0.59885061 -0.13393271
-0.10345536 -0.5779022 -0.13393283
-0.10345536 -0.55695379 -0.13393283
-0.10345536 -0.53600544 -0.13393271
-0.10345536 -0.51505709 -0.13393271
-0.10345536 -0.49410874 -0.13393283
-0.10345536 -0.47316036 -0.13393283
-0.10345536 -0.45221192 -0.13393283
-0.10345536 -0.43126363 -0.13393271
-0.10345536 -0.41031516 -0.13393283
-0.10345536 -0.38936678 -0.13393271
-0.10345536 -0.36841843 -0.13393283
-0.10345536 -0.34747002 -0.13393283
-0.10345536 -0.32652172 -0.13393259
-0.10345536 -0.30557331 -0.13393271
-0.10345536 -0.2846249 -0.13393283
-0.10345536 -0.26367649 -0.13393283
-0.10345536 -0.24272819 -0.13393283
-0.10345536 -0.22177988 -0.13393271
-0.10345536 -0.20083146 -0.13393271
-0.10345536 -0.17988305 -0.13393283
-0.10345536 -0.15893465 -0.13393283
-0.10345536 -0.13798618 -0.13393283
-0.10345536 -0.11703798 -0.13393271
-0.10345471 -0.096089184 -0.13394666
-0.10345471 -0.075140849 -0.13394678
-0.10345471 -0.054192599 -0.13394666
-0.10345471 -0.033244312 -0.1339469
-0.10345471 -0.012296112 -0.13394678
-0.10345471 0.0086522233 -0.13394678
-0.10345471 0.029600468 -0.13394678
-0.10345471 0.050548803 -0.13394678
-0.10345471 0.071497053 -0.13394678
-0.10345471 0.092445388 -0.13394678
-0.10345471 0.11339353 -0.13394678
-0.10345471 0.13434182 -0.1339469
-0.10345471 0.15529007 -0.13394678
-0.10345471 0.1762383 -0.1339469
-0.10345471 0.19718665 -0.13394678
-0.10345471 0.21813488 -0.1339469
-0.10345471 0.23908319 -0.13394678
-0.10345471 0.26003143 -0.13394678
-0.10345471 0.28097978 -0.13394678
-0.10345471 0.30192801 -0.13394678
-0.10345471 0.32287616 -0.13394678
-0.10345471 0.3438246 -0.13394678
-0.10345471 0.36477274 -0.13394678
-0.10345471 0.38572118 -0.13394678
-0.10345471 0.40666932 -0.13394678
-0.10345471 0.42761767 -0.13394678
-0.10345471 0.44856584 -0.13394678
-0.10345471 0.46951404 -0.1339469
-0.10345471 0.49046242 -0.13394678
-0.10345471 0.51141065 -0.1339469
-0.10345471 0.532359 -0.13394666
-0.10345471 0.55330724 -0.1339469
-0.10345471 0.57425541 -0.13394678
-0.10345471 0.59520382 -0.13394678
-0.10345471 0.61615199 -0.13394678
-0.10345471 0.6371004 -0.13394678
-0.10345471 0.65804857 -0.13394678
-0.10345471 0.67899692 -0.13394678
-0.10345471 0.69994503 -0.13394678
-0.10345471 0.72089332 -0.1339469
-0.10345471 0.74184161 -0.13394678
-0.10345471 0.76278991 -0.1339469
-0.082994878 -0.76995039 -0.12125695
-0.082994878 -0.74890447 -0.12125707
-0.082994878 -0.72785854 -0.12125707
-0.082994878 -0.70681244 -0.12125707
-0.082994878 -0.68576658 -0.12125707
-0.082994878 -0.66472065 -0.12125695
-0.082994878 -0.64367461 -0.12125707
-0.082994878 -0.62262875 -0.12125707
-0.082994878 -0.60158283 -0.12125695
-0.082994878 -0.58053672 -0.12125707
-0.082994878 -0.55949086 -0.12125695
-0.082994878 -0.53844494 -0.12125695
-0.082994878 -0.51739895 -0.12125707
-0.082994878 -0.49635297 -0.12125695
-0.082994878 -0.47530696 -0.12125707
-0.082994878 -0.45426109 -0.12125695
-0.082994878 -0.43321514 -0.12125695
-0.082994878 -0.4121691 -0.12125695
-0.082994878 -0.39112327 -0.12125695
-0.082994878 -0.37007731 -0.12125695
-0.082994878 -0.34903127 -0.12125695
-0.082994878 -0.32798532 -0.12125695
-0.082994878 -0.30693936 -0.12125707
-0.082994878 -0.28589344 -0.12125707
-0.082994878 -0.26484749 -0.12125695
-0.082994878 -0.24380152 -0.12125707
-0.082994878 -0.22275561 -0.12125707
-0.082994878 -0.20170966 -0.12125695
-0.082994327 -0.18066284 -0.12127125
-0.082994327 -0.15961693 -0.12127125
-0.082994327 -0.13857111 -0.12127113
-0.082994327 -0.11752529 -0.12127113
-0.082994327 -0.096479431 -0.12127113
-0.082994327 -0.075433612 -0.12127113
-0.082994327 -0.054387793 -0.12127125
-0.082994327 -0.033341929 -0.12127113
-0.082994327 -0.012296066 -0.12127113
-0.082994327 0.0087498911 -0.12127125
-0.082994327 0.029795706 -0.12127125
-0.082994327 0.050841521 -0.12127125
-0.082994327 0.071887389 -0.12127125
-0.082994327 0.092933208 -0.12127125
-0.082994327 0.11397897 -0.12127113
-0.082994327 0.13502494 -0.12127113
-0.082994327 0.15607069 -0.12127125
-0.082994327 0.17711656 -0.12127113
-0.082994327 0.19816233 -0.12127125
-0.082994327 0.2192082 -0.12127125
-0.082994327 0.24025412 -0.12127113
-0.082994327 0.2613 -0.12127113
-0.082994327 0.28234574 -0.12127113
-0.082994327 0.30339161 -0.12127113
-0.082994327 0.32443747 -0.12127113
-0.082994327 0.34548333 -0.12127125
-0.082994327 0.3665292 -0.12127125
-0.082994327 0.38757506 -0.12127125
-0.082994327 0.40862089 -0.12127125
-0.082994327 0.42966676 -0.12127125
-0.082994327 0.45071262 -0.12127113
-0.082994327 0.47175831 -0.12127125
-0.082994327 0.49280423 -0.12127113
-0.082994327 0.51385015 -0.12127113
-0.082994327 0.53489602 -0.12127113
-0.082994327 0.55594176 -0.12127113
-0.082994327 0.57698762 -0.12127113
-0.082994327 0.59803349 -0.12127113
-0.35734412 0.59924793 -0.11583114
-0.35746479 0.62053668 -0.11496031
-0.082994327 0.61907929 -0.12127113
-0.35760531 0.64187312 -0.11394632
-0.082994327 0.64012516 -0.12127113
-0.082994327 0.66117102 -0.12127113
-0.35763302 0.6630246 -0.11374617
-0.35763302 0.68412858 -0.11374605
-0.082994327 0.68221676 -0.12127113
-0.35763302 0.7052322 -0.11374617
-0.082994327 0.70326281 -0.12127125
-0.082994327 0.72430867 -0.12127125
-0.35763302 0.72633594 -0.11374617
-0.35763302 0.74743974 -0.11374617
-0.082994327 0.74535435 -0.12127125
-0.35763302 0.7685436 -0.11374629
-0.082994327 0.76640022 -0.12127125
-0.35854414 -0.77385408 -0.10717094
-0.062342886 -0.77349603 -0.10846281
-0.35854414 -0.75269967 -0.10717094
-0.062342886 -0.75235164 -0.10846269
-0.35854414 -0.73154521 -0.10717094
-0.062342886 -0.73120713 -0.10846281
-0.35854414 -0.71039093 -0.10717094
-0.062342886 -0.71006274 -0.10846269
-0.35854414 -0.68923652 -0.10717094
-0.062342886 -0.68891823 -0.10846281
-0.35854414 -0.66808212 -0.10717094
-0.062342886 -0.66777384 -0.10846269
-0.35854414 -0.64692765 -0.10717094
-0.062342886 -0.64662927 -0.10846281
-0.35854414 -0.62577337 -0.10717094
-0.062342886 -0.62548494 -0.10846269
-0.35854414 -0.60461897 -0.10717094
-0.062342886 -0.60434049 -0.10846269
-0.35854414 -0.58346456 -0.10717094
-0.062342886 -0.5831961 -0.10846257
-0.35854414 -0.5623101 -0.10717094
-0.062342886 -0.56205159 -0.10846281
-0.35854414 -0.54115582 -0.10717094
-0.062342886 -0.54090714 -0.10846257
-0.35854414 -0.52000135 -0.10717094
-0.062342886 -0.51976264 -0.10846281
-0.35854414 -0.49884704 -0.10717094
-0.062342886 -0.49861833 -0.10846269
-0.35854414 -0.4776926 -0.10717094
-0.062342886 -0.47747386 -0.10846281
-0.35854414 -0.45653823 -0.10717082
-0.062342886 -0.45632941 -0.10846269
-0.35854414 -0.43538377 -0.10717094
-0.062342886 -0.43518487 -0.10846269
-0.35854414 -0.41422948 -0.10717094
-0.062342886 -0.41404051 -0.10846257
-0.35854414 -0.39307502 -0.10717094
-0.062342886 -0.39289606 -0.10846269
-0.35854414 -0.37192068 -0.10717082
-0.062342886 -0.37175158 -0.10846257
-0.35854414 -0.35076624 -0.10717094
-0.062342886 -0.3506071 -0.10846269
-0.35854414 -0.32961184 -0.10717082
-0.062342886 -0.32946277 -0.10846257
-0.35854414 -0.30845746 -0.10717094
-0.062342886 -0.30831829 -0.10846281
-0.35854414 -0.28730312 -0.10717082
-0.062342439 -0.28717235 -0.108477
-0.35854414 -0.26614866 -0.10717094
-0.062342439 -0.26602805 -0.108477
-0.35854414 -0.24499431 -0.10717082
-0.062342439 -0.24488376 -0.108477
-0.35854414 -0.22383985 -0.10717094
-0.062342439 -0.22373946 -0.108477
-0.35854414 -0.20268561 -0.10717082
-0.062342439 -0.20259497 -0.108477
-0.35854414 -0.18153115 -0.10717094
-0.062342439 -0.18145071 -0.108477
-0.35854414 -0.16037677 -0.10717082
-0.062342439 -0.16030639 -0.108477
-0.35854414 -0.13922232 -0.10717094
-0.062342439 -0.13916211 -0.108477
-0.35854414 -0.11806804 -0.10717082
-0.062342439 -0.11801769 -0.108477
-0.35854414 -0.096913576 -0.10717094
-0.062342439 -0.096873313 -0.10847712
-0.35854414 -0.075759217 -0.10717082
-0.062342439 -0.075728998 -0.108477
-0.35854414 -0.054604799 -0.10717094
-0.062342439 -0.05458476 -0.108477
-0.35854414 -0.033450432 -0.10717094
-0.062342439 -0.033440344 -0.108477
-0.35854414 -0.012296019 -0.10717094
-0.062342439 -0.012296066 -0.108477
-0.35854414 0.0088583473 -0.10717094
-0.062342439 0.0088483542 -0.10847712
-0.35854414 0.03001276 -0.10717094
-0.062342439 0.029992629 -0.108477
-0.35854414 0.051167127 -0.10717094
-0.062342439 0.051136907 -0.108477
-0.35854414 0.072321534 -0.10717094
-0.062342439 0.072281286 -0.108477
-0.35854414 0.093475908 -0.10717094
-0.062342439 0.093425602 -0.108477
-0.35854414 0.11463031 -0.10717094
-0.062342439 0.11457002 -0.108477
-0.35854414 0.13578469 -0.10717082
-0.062342439 0.13571429 -0.10847712
-0.35854414 0.15693915 -0.10717094
-0.062342439 0.15685862 -0.108477
-0.35854414 0.17809351 -0.10717082
-0.062342439 0.17800285 -0.108477
-0.35854414 0.19924793 -0.10717094
-0.062342439 0.19914731 -0.10847688
-0.35854414 0.22040215 -0.10717094
-0.062342439 0.22029173 -0.108477
-0.35854414 0.2415566 -0.10717094
-0.062342439 0.24143605 -0.108477
-0.35854414 0.26271099 -0.10717094
-0.062342439 0.26258036 -0.108477
-0.35854414 0.28386542 -0.10717094
-0.062342439 0.28372467 -0.108477
-0.35854414 0.30501983 -0.10717082
-0.062342439 0.30486891 -0.108477
-0.35854414 0.32617429 -0.10717094
-0.062342439 0.32601333 -0.10847712
-0.35854414 0.3473286 -0.10717082
-0.062342439 0.3471576 -0.108477
-0.35854414 0.36848301 -0.10717094
-0.062342439 0.36830199 -0.108477
-0.35854414 0.38963744 -0.10717082
-0.062342439 0.38944644 -0.108477
-0.35854414 0.41079193 -0.10717094
-0.062342439 0.41059068 -0.10847688
-0.35854414 0.43194601 -0.10717094
-0.062342439 0.43173504 -0.108477
-0.35854414 0.45310053 -0.10717094
-0.062342439 0.4528794 -0.108477
-0.35854414 0.47425494 -0.10717082
-0.062342439 0.4740237 -0.108477
-0.35854414 0.49540931 -0.10717094
-0.062342439 0.49516797 -0.108477
-0.35854414 0.51656377 -0.10717082
-0.062342439 0.51631218 -0.108477
-0.35854414 0.53771806 -0.10717082
-0.062342439 0.53745669 -0.108477
-0.35854414 0.55887252 -0.10717082
-0.062342439 0.55860096 -0.108477
-0.35854414 0.58002687 -0.10717082
-0.062342439 0.57974541 -0.108477
-0.062342439 0.60088968 -0.10847688
-0.062342439 0.62203407 -0.108477
-0.062342439 0.6431784 -0.108477
-0.062342439 0.66432267 -0.108477
-0.062342439 0.68546706 -0.108477
-0.062342439 0.70661134 -0.108477
-0.062342439 0.72775561 -0.108477
-0.062342439 0.74889994 -0.108477
-0.062342439 0.77004439 -0.108477
-0.04149669 -0.77707505 -0.095548034
-0.04149669 -0.75583124 -0.095548034
-0.020453542 -0.75934374 -0.082511187
-0.04149669 -0.73458743 -0.095547915
-0.020453542 -0.7379995 -0.082511306
-0.04149669 -0.71334344 -0.095548034
-0.020453542 -0.71665525 -0.082511306
-0.04149669 -0.69209969 -0.095547915
-0.020453542 -0.69531107 -0.082511187
-0.04149669 -0.67085576 -0.095547915
-0.020453542 -0.67396688 -0.082511306
-0.04149669 -0.64961183 -0.095548153
-0.020453542 -0.65262258 -0.082511306
-0.04149669 -0.62836802 -0.095547915
-0.020453542 -0.63127846 -0.082511306
-0.020453542 -0.60993415 -0.082511306
-0.04149669 -0.60712421 -0.095548034
-0.04149669 -0.58588034 -0.095547915
-0.020453542 -0.58858991 -0.082511306
-0.04149669 -0.56463647 -0.095548034
-0.020453542 -0.56724584 -0.082511306
-0.020453542 -0.54590148 -0.082511306
-0.04149669 -0.54339254 -0.095548034
-0.04149669 -0.52214873 -0.095547915
-0.020453542 -0.52455723 -0.082511306
-0.04149669 -0.50090492 -0.095547795
-0.020453315 -0.50321048 -0.082525849
-0.04149669 -0.47966102 -0.095548153
-0.020453315 -0.48186645 -0.082525849
-0.04149669 -0.45841712 -0.095548034
-0.020453315 -0.46052226 -0.082525969
-0.04149669 -0.43717334 -0.095547915
-0.020453315 -0.43917817 -0.082525849
-0.041496355 -0.41592735 -0.095562339
-0.020453315 -0.41783401 -0.082525969
-0.04149669 -0.39468557 -0.095548034
-0.020453315 -0.39648986 -0.082525849
-0.041496355 -0.37343982 -0.095562339
-0.020453315 -0.37514588 -0.082525849
-0.041496355 -0.3521961 -0.095562458
-0.020453315 -0.3538017 -0.082525969
-0.041496355 -0.33095229 -0.095562339
-0.020453315 -0.33245757 -0.082525849
-0.020453315 -0.31111357 -0.082525849
-0.041496355 -0.3097086 -0.095562339
-0.041496355 -0.28846478 -0.095562458
-0.020453315 -0.28976938 -0.082525969
-0.041496355 -0.26722103 -0.095562458
-0.020453315 -0.26842526 -0.082525969
-0.041496355 -0.24597731 -0.095562458
-0.020453315 -0.24708126 -0.082525849
-0.041496355 -0.22473358 -0.095562458
-0.020453315 -0.22573709 -0.082525969
-0.041496355 -0.20348977 -0.095562339
-0.020453315 -0.20439298 -0.082525849
-0.041496355 -0.18224606 -0.095562458
-0.020453315 -0.18304893 -0.082525849
-0.041496355 -0.16100225 -0.095562458
-0.020453315 -0.16170479 -0.082525969
-0.041496355 -0.13975857 -0.095562458
-0.020453315 -0.14036064 -0.082525849
-0.041496355 -0.11851476 -0.095562458
-0.020453315 -0.11901663 -0.082525849
-0.041496355 -0.09727104 -0.095562458
-0.020453315 -0.097672492 -0.082525969
-0.041496355 -0.076027274 -0.095562458
-0.020453315 -0.076328352 -0.082525849
-0.041496355 -0.054783504 -0.095562458
-0.020453315 -0.054984305 -0.082525849
-0.041496355 -0.033539739 -0.095562577
-0.020453315 -0.033640161 -0.082525969
-0.041496355 -0.012296112 -0.095562339
-0.020453315 -0.012296019 -0.082525969
-0.041496355 0.0089477003 -0.095562339
-0.020453315 0.0090480298 -0.082525849
-0.041496355 0.030191373 -0.095562339
-0.020453315 0.030392174 -0.082525969
-0.041496355 0.051435184 -0.095562458
-0.020453315 0.051736269 -0.082525849
-0.041496355 0.072678864 -0.095562339
-0.020453315 0.073080361 -0.082525849
-0.041496355 0.093922675 -0.095562339
-0.020453315 0.094424561 -0.082525969
-0.041496355 0.11516649 -0.095562339
-0.020453315 0.1157686 -0.082525849
-0.041496355 0.13641021 -0.095562339
-0.020453315 0.13711265 -0.082525849
-0.041496355 0.15765402 -0.095562458
-0.020453315 0.15845683 -0.082525849
-0.041496355 0.17889781 -0.095562339
-0.020453315 0.17980084 -0.082525849
-0.041496355 0.20014141 -0.095562458
-0.020453315 0.20114498 -0.082525849
-0.041496355 0.22138523 -0.095562458
-0.020453315 0.22248918 -0.082525969
-0.041496355 0.24262898 -0.095562339
-0.020453315 0.24383314 -0.082525969
-0.041496355 0.2638728 -0.095562339
-0.020453315 0.26517728 -0.082525849
-0.041496355 0.28511649 -0.095562458
-0.020453315 0.28652152 -0.082525849
-0.041496355 0.30636024 -0.095562458
-0.020453315 0.30786562 -0.082525849
-0.041496355 0.32760406 -0.095562458
-0.020453315 0.32920972 -0.082525969
-0.041496355 0.3488479 -0.095562458
-0.020453315 0.35055381 -0.082525849
-0.041496355 0.37009147 -0.095562458
-0.020453315 0.37189794 -0.082525849
-0.041496355 0.39133528 -0.095562458
-0.020453315 0.39324206 -0.082525969
-0.041496355 0.41257894 -0.095562339
-0.020453315 0.41458616 -0.082525849
-0.041496355 0.43382275 -0.095562339
-0.020453315 0.43593028 -0.082525849
-0.041496355 0.45506638 -0.095562339
-0.020453315 0.45727429 -0.082525969
-0.041496355 0.47631016 -0.095562339
-0.020453315 0.47861847 -0.082525849
-0.041496355 0.49755394 -0.095562339
-0.020453315 0.49996251 -0.082525849
-0.041496355 0.51879776 -0.095562339
-0.020453315 0.52130663 -0.082525969
-0.041496355 0.54004145 -0.095562339
-0.020453315 0.54265082 -0.082525849
-0.041496355 0.56128526 -0.095562339
-0.020453315 0.56399488 -0.082525849
-0.041496355 0.58252901 -0.095562339
-0.020453315 0.58533895 -0.082525969
-0.041496355 0.60377282 -0.095562339
-0.020453315 0.60668308 -0.082525849
-0.041496355 0.62501645 -0.095562458
-0.020453315 0.6280272 -0.08252573
-0.041496355 0.64626026 -0.095562458
-0.020453315 0.64937127 -0.082525969
-0.041496355 0.66750407 -0.095562339
-0.020453315 0.67071539 -0.082525849
-0.041496355 0.68874788 -0.095562339
-0.020453315 0.69205958 -0.082525849
-0.041496355 0.70999146 -0.095562458
-0.020453315 0.71340352 -0.082525969
-0.041496355 0.73123527 -0.095562458
-0.020453315 0.73474771 -0.082525849
-0.041496355 0.75247908 -0.095562458
-0.020453315 0.75609177 -0.08252573
-0.041496355 0.77372283 -0.095562458
-0.020453315 0.77743584 -0.082525969
0.00078936853 -0.76288956 -0.069350839
0.00078936853 -0.74144399 -0.069350839
0.00078936853 -0.71999848 -0.069350958
0.00078936853 -0.69855297 -0.069350719
0.00078936853 -0.67710745 -0.069350839
0.00078936853 -0.65566188 -0.069350958
0.00078936853 -0.63421631 -0.069350839
0.00078948401 -0.61276758 -0.069365621
0.00078948401 -0.59132224 -0.069365621
0.00078948401 -0.56987691 -0.069365501
0.00078948401 -0.5484314 -0.069365621
0.00078948401 -0.526986 -0.069365501
0.00078948401 -0.50554055 -0.06936574
0.00078948401 -0.48409519 -0.069365621
0.00078948401 -0.46264976 -0.069365501
0.00078948401 -0.44120437 -0.06936574
0.00078948401 -0.41975901 -0.069365621
0.00078948401 -0.39831349 -0.06936574
0.00078948401 -0.3768681 -0.069365621
0.00078948401 -0.35542262 -0.069365621
0.00078948401 -0.33397725 -0.069365501
0.00078948401 -0.31253186 -0.069365501
0.00078948401 -0.29108647 -0.069365621
0.00078948401 -0.26964107 -0.069365501
0.00078948401 -0.24819556 -0.06936574
0.00078948401 -0.22675018 -0.069365621
0.00078948401 -0.20530482 -0.069365501
0.00078948401 -0.1838593 -0.069365621
0.00078948401 -0.16241391 -0.069365501
0.00078948401 -0.1409685 -0.06936574
0.00078948401 -0.11952314 -0.069365621
0.00078948401 -0.098077744 -0.069365501
0.00078948401 -0.076632291 -0.069365501
0.00078948401 -0.055186879 -0.069365501
0.00078948401 -0.033741377 -0.069365621
0.00078948401 -0.012296019 -0.069365501
0.00078948401 0.0091493856 -0.06936574
0.00078948401 0.030594792 -0.069365621
0.00078948401 0.052040156 -0.069365501
0.00078948401 0.073485658 -0.069365621
0.00078948401 0.094931006 -0.069365501
0.00078948401 0.1163765 -0.06936574
0.00078948401 0.13782187 -0.069365621
0.00078948401 0.15926726 -0.069365501
0.00078948401 0.18071277 -0.069365501
0.00078948401 0.20215814 -0.069365501
0.00078948401 0.22360364 -0.069365621
0.00078948401 0.24504884 -0.069365621
0.00078948401 0.26649436 -0.06936574
0.00078948401 0.28793973 -0.069365621
0.00078948401 0.30938512 -0.069365501
0.00078948401 0.33083057 -0.06936574
0.00078948401 0.352276 -0.069365501
0.00078948401 0.37372148 -0.069365621
0.00078948401 0.39516681 -0.069365501
0.00078948401 0.41661221 -0.069365501
0.00078948401 0.43805772 -0.069365501
0.00078948401 0.45950311 -0.069365501
0.00078948401 0.48094863 -0.069365621
0.00078948401 0.5023939 -0.069365501
0.00078948401 0.52383941 -0.069365621
-0.38449758 0.54428512 -0.074359298
0.00078948401 0.54528469 -0.069365621
-0.38465032 0.56590939 -0.073314905
0.00078948401 0.56673002 -0.069365501
-0.38480321 0.58754957 -0.072269678
0.00078948401 0.58817559 -0.06936574
-0.38490233 0.609124 -0.071592093
0.00078948401 0.60962093 -0.069365501
-0.38490233 0.63055205 -0.071592212
0.00078948401 0.63106638 -0.06936574
-0.38490233 0.6519804 -0.071592212
0.00078948401 0.65251178 -0.069365501
-0.38490233 0.67340875 -0.071592212
0.00078948401 0.67395723 -0.069365501
-0.38490233 0.69483703 -0.071592212
0.00078948401 0.69540268 -0.069365621
-0.38490233 0.71626532 -0.071592212
0.00078948401 0.71684813 -0.069365501
-0.38490233 0.73769355 -0.071592093
0.00078948401 0.73829347 -0.069365621
-0.38490233 0.75912184 -0.071592093
0.00078948401 0.75973892 -0.069365501
-0.38490233 0.78055018 -0.071592212
-0.38620594 -0.76468706 -0.062679172
0.022234898 -0.76646924 -0.056064844
-0.38620594 -0.74319023 -0.062679052
0.022234898 -0.74492139 -0.056064963
-0.38620594 -0.72169322 -0.062679291
0.022234898 -0.72337359 -0.056064725
-0.38620594 -0.70019639 -0.062679052
0.022234898 -0.70182216 -0.056079745
-0.38620594 -0.67869955 -0.062679052
0.022234898 -0.68027437 -0.056079745
-0.38620594 -0.65720266 -0.062679052
0.022234898 -0.65872669 -0.056079745
-0.3862038 -0.63570249 -0.062693954
0.022234898 -0.63717902 -0.056079745
-0.3862038 -0.61420578 -0.062693834
0.022234898 -0.61563134 -0.056079745
-0.3862038 -0.59270895 -0.062693954
0.022234898 -0.59408367 -0.056079745
-0.3862038 -0.57121217 -0.062693954
0.022234898 -0.57253605 -0.056079745
-0.3862038 -0.54971534 -0.062694073
0.022234898 -0.55098814 -0.056079745
-0.3862038 -0.52821851 -0.062693954
0.022234898 -0.52944058 -0.056079745
-0.3862038 -0.50672179 -0.062693954
0.022234898 -0.50789285 -0.056079745
-0.3862038 -0.48522496 -0.062693954
0.022234898 -0.4863452 -0.056079745
-0.3862038 -0.46372825 -0.062694073
0.022234898 -0.46479756 -0.056079745
-0.3862038 -0.44223148 -0.062693954
0.022234898 -0.44324982 -0.056079745
-0.3862038 -0.42073473 -0.062694073
0.022234898 -0.42170206 -0.056079745
-0.3862038 -0.39923787 -0.062694073
0.022234898 -0.40015444 -0.056079745
-0.3862038 -0.37774116 -0.062694073
0.022234898 -0.37860677 -0.056079745
-0.3862038 -0.35624442 -0.062693954
0.022234898 -0.35705915 -0.056079626
-0.3862038 -0.33474767 -0.062693834
0.022234898 -0.33551139 -0.056079745
-0.3862038 -0.31325087 -0.062693834
0.022234898 -0.31396371 -0.056079745
-0.3862038 -0.2917541 -0.062693954
0.022234898 -0.29241598 -0.056079745
-0.3862038 -0.27025729 -0.062693834
0.022234898 -0.27086833 -0.056079626
-0.3862038 -0.24876061 -0.062693954
0.022234898 -0.24932067 -0.056079626
-0.3862038 -0.22726378 -0.062693954
0.022234898 -0.22777295 -0.056079745
-0.3862038 -0.20576705 -0.062694073
0.022234898 -0.20622525 -0.056079745
-0.3862038 -0.1842702 -0.062693954
0.022234898 -0.1846776 -0.056079745
-0.3862038 -0.16277348 -0.062694073
0.022234898 -0.16312991 -0.056079745
-0.3862038 -0.14127664 -0.062694073
0.022234898 -0.14158212 -0.056079745
-0.3862038 -0.11977986 -0.062694073
0.022234898 -0.12003446 -0.056079745
-0.3862038 -0.098283112 -0.062694073
0.022234898 -0.098486811 -0.056079745
-0.3862038 -0.07678628 -0.062694073
0.022234898 -0.076939151 -0.056079745
-0.3862038 -0.055289544 -0.062694073
0.022234898 -0.055391505 -0.056079745
-0.3862038 -0.033792853 -0.062693834
0.022234898 -0.03384367 -0.056079745
-0.3862038 -0.012296112 -0.062693954
0.022234898 -0.012296019 -0.056079745
-0.3862038 0.0092007201 -0.062693834
0.022234898 0.0092516318 -0.056079745
-0.3862038 0.030697457 -0.062693954
0.022234898 0.030799281 -0.056079745
-0.3862038 0.052194286 -0.062693954
0.022234898 0.052346978 -0.056079745
-0.3862038 0.073691025 -0.062693834
0.022234898 0.073894769 -0.056079745
-0.3862038 0.095187858 -0.062693954
0.022234898 0.095442474 -0.056079745
-0.3862038 0.1166846 -0.062694073
0.022234898 0.11699012 -0.056079745
-0.3862038 0.13818143 -0.062694073
0.022234898 0.13853781 -0.056079626
-0.3862038 0.15967822 -0.062693834
0.022234898 0.16008541 -0.056079626
-0.3862038 0.18117486 -0.062694073
0.022234898 0.18163325 -0.056079745
-0.3862038 0.20267169 -0.062694073
0.022234898 0.2031808 -0.056079745
-0.3862038 0.22416848 -0.062694073
0.022234898 0.22472855 -0.056079745
-0.3862038 0.2456653 -0.062694073
0.022234898 0.24627616 -0.056079745
-0.3862038 0.26716191 -0.062693954
0.022234898 0.26782387 -0.056079626
-0.3862038 0.28865871 -0.062693834
0.022234898 0.2893717 -0.056079745
-0.3862038 0.31015554 -0.062693834
0.022234898 0.31091931 -0.056079745
-0.3862038 0.33165237 -0.062693834
0.022234898 0.33246705 -0.056079745
-0.3862038 0.35314921 -0.062693834
0.022234898 0.35401466 -0.056079745
-0.3862038 0.37464586 -0.062693954
0.022234898 0.37556231 -0.056079626
-0.3862038 0.39614263 -0.062693834
0.022234898 0.39711019 -0.056079745
-0.3862038 0.41763946 -0.062693834
0.022234898 0.41865781 -0.056079745
-0.3862038 0.4391363 -0.062693834
0.022234898 0.44020545 -0.056079626
-0.3862038 0.46063295 -0.062694073
0.022234898 0.46175304 -0.056079745
-0.3862038 0.48212978 -0.062693954
0.022234898 0.48330083 -0.056079626
-0.3862038 0.50362659 -0.062694073
0.022234898 0.50484848 -0.056079745
-0.3862038 0.52512342 -0.062693954
0.022234898 0.52639621 -0.056079745
0.022234898 0.54794401 -0.056079626
0.022234898 0.56949157 -0.056079745
0.022234898 0.5910393 -0.056079745
0.022234898 0.61258692 -0.056079745
0.022234898 0.63413465 -0.056079745
0.022234898 0.65568238 -0.056079626
0.022234898 0.67723 -0.056079745
0.022234898 0.69877779 -0.056079745
0.022234898 0.72032541 -0.056079745
0.022234898 0.74187309 -0.056079745
0.022234898 0.7634207 -0.056079745
0.043885842 -0.77007914 -0.042666554
0.043885842 -0.74842811 -0.042666554
0.043885842 -0.7267772 -0.042666554
0.043885842 -0.70512629 -0.042666435
0.043885842 -0.68347538 -0.042666554
0.043885842 -0.66182441 -0.042666554
0.043885842 -0.64017338 -0.042666554
0.043885842 -0.61852247 -0.042666674
0.043885842 -0.5968715 -0.042666554
0.043885842 -0.57522058 -0.042666554
0.043885842 -0.55356967 -0.042666674
0.043885842 -0.53191864 -0.042666674
0.043885842 -0.51026779 -0.042666435
0.043885842 -0.48861682 -0.042666435
0.043885842 -0.46696585 -0.042666674
0.043885842 -0.44531482 -0.042666674
0.043885842 -0.423664 -0.042666435
0.043885842 -0.40201306 -0.042666554
0.043885842 -0.38036203 -0.042666554
0.043885842 -0.35871112 -0.042666674
0.043885842 -0.33706018 -0.042666435
0.043885842 -0.31540927 -0.042666554
0.043885842 -0.29375833 -0.042666674
0.043885842 -0.2721073 -0.042666674
0.043885842 -0.25045645 -0.042666435
0.043885842 -0.22880544 -0.042666435
0.043885842 -0.20715454 -0.042666674
0.043885842 -0.1855036 -0.042666674
0.043885842 -0.16385266 -0.042666435
0.043885842 -0.14220175 -0.042666554
0.043885842 -0.12055072 -0.042666554
0.043885842 -0.098899797 -0.042666554
0.043885842 -0.077248931 -0.042666554
0.043885842 -0.055597913 -0.042666554
0.043885842 -0.033946991 -0.042666554
0.043885842 -0.012295973 -0.042666554
0.043885842 0.0093548559 -0.042666435
0.043885842 0.031005777 -0.042666554
0.043885842 0.052656796 -0.042666554
0.043885842 0.074307725 -0.042666674
0.043885842 0.095958591 -0.042666435
0.043885842 0.11760961 -0.042666435
0.043885842 0.13926062 -0.042666435
0.043885842 0.16091152 -0.042666674
0.043885842 0.18256238 -0.042666435
0.043885842 0.20421344 -0.042666435
0.043885842 0.22586441 -0.042666435
0.043885842 0.24751528 -0.042666674
0.043885842 0.26916617 -0.042666435
0.043885842 0.29081723 -0.042666435
0.043885842 0.31246805 -0.042666554
0.043885842 0.33411908 -0.042666674
0.043885842 0.35576999 -0.042666435
0.043885842 0.37742087 -0.042666554
0.043885842 0.3990719 -0.042666554
0.043885842 0.42072287 -0.042666554
0.043885842 0.44237378 -0.042666435
0.043885842 0.46402466 -0.042666435
0.043885842 0.48567566 -0.042666435
0.043885842 0.50732666 -0.042666435
0.043885842 0.52897745 -0.042666435
0.043885842 0.55062848 -0.042666435
0.043885842 0.57227945 -0.042666435
0.043885842 0.59393042 -0.042666435
0.043885842 0.61558139 -0.042666674
0.043885842 0.6372323 -0.042666435
0.043885842 0.65888327 -0.042666435
0.043885842 0.68053418 -0.042666674
0.043885842 0.70218515 -0.042666674
0.043885842 0.72383606 -0.042666435
0.043885842 0.74548692 -0.042666554
0.043885842 0.76713794 -0.042666554
0.065745279 -0.77372777 -0.02912426
0.065745279 -0.75197256 -0.02912426
0.065745279 -0.73021746 -0.02912426
0.065745279 -0.70846224 -0.02912426
0.065745279 -0.68670702 -0.029124141
0.065745279 -0.6649518 -0.029124141
0.065745279 -0.6431967 -0.02912426
0.065745279 -0.62144136 -0.029124379
0.065745279 -0.59968615 -0.02912426
0.065745279 -0.57793105 -0.02912426
0.065745279 -0.55617589 -0.02912426
0.065745279 -0.53442061 -0.02912426
0.065745279 -0.51266551 -0.02912426
0.065745279 -0.49091029 -0.029124141
0.065745279 -0.4691551 -0.029124141
0.065745279 -0.44739997 -0.02912426
0.065745279 -0.42564476 -0.029124141
0.065745279 -0.40388945 -0.02912426
0.065745279 -0.38213426 -0.02912426
0.065745279 -0.36037913 -0.029124379
0.065745279 -0.33862391 -0.02912426
0.065745279 -0.31686869 -0.02912426
0.065745279 -0.29511359 -0.02912426
0.065745279 -0.27335837 -0.02912426
0.065745279 -0.25160316 -0.029124141
0.065745279 -0.22984801 -0.029124141
0.065745279 -0.20809284 -0.02912426
0.065745279 -0.18633758 -0.02912426
0.065745279 -0.16458234 -0.02912426
0.065745279 -0.14282717 -0.02912426
0.065745279 -0.12107199 -0.02912426
0.065745279 -0.099316761 -0.029124141
0.065745279 -0.077561632 -0.02912426
0.065745279 -0.055806417 -0.029124141
0.065745279 -0.034051239 -0.029124141
0.065745279 -0.012296112 -0.029124141
0.065745279 0.0094592031 -0.029124379
0.065745279 0.031214423 -0.02912426
0.065745279 0.052969601 -0.02912426
0.065745279 0.074724734 -0.02912426
0.065745279 0.096479863 -0.02912426
0.065745279 0.11823517 -0.02912426
0.065745279 0.13999026 -0.02912426
0.065745279 0.16174538 -0.02912426
0.065745279 0.18350068 -0.029124022
0.065745279 0.20525578 -0.029124141
0.065745279 0.22701119 -0.02912426
0.065745279 0.24876632 -0.02912426
0.065745279 0.27052146 -0.02912426
0.065745279 0.29227677 -0.02912426
0.065745279 0.3140319 -0.02912426
0.065745279 0.335787 -0.02912426
0.065745279 0.35754234 -0.029124022
0.065745279 0.37929738 -0.02912426
0.065745279 0.40105256 -0.02912426
0.065745279 0.42280781 -0.029124022
0.065745279 0.44456309 -0.02912426
0.065745279 0.46631813 -0.02912426
-0.4125092 0.4876596 -0.031461
0.065745279 0.48807347 -0.02912426
-0.41267496 0.50959581 -0.030384064
0.065745279 0.50982857 -0.02912426
-0.41284093 0.53154874 -0.029306412
0.065745279 0.53158373 -0.02912426
-0.41300696 0.55351841 -0.028227806
0.065745279 0.55333894 -0.029124141
-0.41302335 0.57530254 -0.028121471
0.065745279 0.57509416 -0.029124141
-0.41302335 0.59706551 -0.028121471
0.065745279 0.59684932 -0.02912426
-0.41302335 0.61882836 -0.028121471
0.065745279 0.61860454 -0.029124141
-0.41302335 0.64059132 -0.028121471
0.065745279 0.6403597 -0.029124141
-0.41302335 0.66235423 -0.02812171
0.065745279 0.6621151 -0.02912426
-0.41302335 0.68411714 -0.028121471
0.065745279 0.68387014 -0.02912426
-0.41302335 0.70587999 -0.028121471
0.065745279 0.70562536 -0.02912426
-0.41302335 0.72764295 -0.028121471
0.065745279 0.72738057 -0.02912426
-0.41302335 0.74940586 -0.028121471
0.065745279 0.74913573 -0.02912426
-0.41302335 0.77116883 -0.028121471
0.065745279 0.77089089 -0.02912426
-0.41477591 -0.77706486 -0.016738296
0.087816253 -0.7774117 -0.015450954
-0.41477591 -0.75521433 -0.016738296
0.087816253 -0.75555134 -0.015450835
-0.41477591 -0.73336393 -0.016738296
0.087816253 -0.73369092 -0.015450835
-0.41477591 -0.71151328 -0.016738415
0.087816253 -0.7118305 -0.015450835
-0.41477591 -0.68966281 -0.016738296
0.087816253 -0.68997002 -0.015450835
-0.41477591 -0.66781223 -0.016738415
0.087816253 -0.66810954 -0.015450835
-0.41477591 -0.6459617 -0.016738296
0.087816253 -0.64624912 -0.015450835
-0.41477591 -0.62411118 -0.016738296
0.087816253 -0.62438858 -0.015450835
-0.41477591 -0.60226059 -0.016738415
0.087816253 -0.60252821 -0.015450954
-0.41477591 -0.58041006 -0.016738296
0.087816253 -0.58066779 -0.015450835
-0.41477591 -0.55855948 -0.016738296
0.087816253 -0.55880737 -0.015450835
-0.41477591 -0.53670895 -0.016738296
0.087816253 -0.53694677 -0.015450835
-0.41477591 -0.51485848 -0.016738296
0.087816253 -0.51508641 -0.015450835
-0.41477591 -0.49300787 -0.016738415
0.087816253 -0.49322599 -0.015450835
-0.41477591 -0.47115734 -0.016738296
0.087816253 -0.47136545 -0.015450954
-0.41477591 -0.44930682 -0.016738534
0.087816253 -0.44950503 -0.015450835
-0.41477591 -0.42745635 -0.016738296
0.087816253 -0.42764467 -0.015450835
-0.41477591 -0.40560582 -0.016738296
0.087816253 -0.40578416 -0.015450835
-0.41477591 -0.38375518 -0.016738415
0.087816253 -0.38392362 -0.015450835
-0.41477591 -0.36190471 -0.016738296
0.087816253 -0.36206323 -0.015450835
-0.41477591 -0.34005406 -0.016738415
0.087816253 -0.34020281 -0.015450835
-0.41477591 -0.31820357 -0.016738296
0.087816253 -0.31834233 -0.015450954
-0.41477352 -0.29635149 -0.016753674
0.087816253 -0.29648188 -0.015450835
-0.41477352 -0.27450117 -0.016753674
0.087816253 -0.2746214 -0.015450835
-0.41477352 -0.25265065 -0.016753793
0.087816253 -0.25276104 -0.015450835
-0.41477352 -0.23080021 -0.016753793
0.087816253 -0.23090054 -0.015450835
-0.41477352 -0.20894983 -0.016753674
0.087816253 -0.20904012 -0.015450835
-0.41477352 -0.18709943 -0.016753674
0.087816253 -0.18717967 -0.015450835
-0.41477352 -0.16524896 -0.016753674
0.087816253 -0.16531917 -0.015450954
-0.41477352 -0.14339855 -0.016753674
0.087816253 -0.14345871 -0.015450835
-0.41477352 -0.12154818 -0.016753674
0.087816253 -0.1215983 -0.015450835
-0.41477352 -0.099697724 -0.016753674
0.087816253 -0.099737838 -0.015450835
-0.41477352 -0.077847302 -0.016753674
0.087816253 -0.077877387 -0.015450835
-0.41477352 -0.055996895 -0.016753674
0.087816253 -0.056016978 -0.015450835
-0.41477352 -0.034146436 -0.016753674
0.087816253 -0.034156568 -0.015450835
-0.41477352 -0.012296019 -0.016753554
0.087816253 -0.012295973 -0.015450954
-0.41477352 0.0095543005 -0.016753674
0.087816253 0.009564437 -0.015450835
-0.41477352 0.03140476 -0.016753674
0.087816253 0.031424847 -0.015450835
-0.41477352 0.053255174 -0.016753674
0.087816253 0.053285252 -0.015450835
-0.41477352 0.075105682 -0.016753793
0.087816253 0.075145811 -0.015450835
-0.41477352 0.096956149 -0.016753674
0.087816253 0.097006172 -0.015450835
-0.41477352 0.11880656 -0.016753674
0.087816253 0.11886667 -0.015450716
-0.41477352 0.14065696 -0.016753674
0.087816253 0.14072707 -0.015450835
-0.41477352 0.16250743 -0.016753674
0.087816253 0.16258758 -0.015450835
-0.41477352 0.18435784 -0.016753674
0.087816253 0.18444808 -0.015450835
-0.41477352 0.20620826 -0.016753674
0.087816253 0.20630839 -0.015450835
-0.41477352 0.22805853 -0.016753793
0.087816253 0.22816899 -0.015450835
-0.41477352 0.24990894 -0.016753674
0.087816253 0.25002933 -0.015450835
-0.41477352 0.27175936 -0.016753674
0.087816253 0.27188978 -0.015450835
-0.41477591 0.2936115 -0.016738296
0.087816253 0.29375038 -0.015450835
-0.41477591 0.31546193 -0.016738296
0.087816253 0.31561074 -0.015450835
-0.41477591 0.33731267 -0.016738296
0.087816253 0.33747119 -0.015450835
-0.41477591 0.35916308 -0.016738296
0.087816253 0.35933155 -0.015450835
-0.41477591 0.38101378 -0.016738296
0.087816253 0.38119215 -0.015450835
-0.41477591 0.40286422 -0.016738296
0.087816253 0.40305242 -0.015450835
-0.41477591 0.42471474 -0.016738176
0.087816253 0.42491296 -0.015450835
-0.41477591 0.44656524 -0.016738296
0.087816253 0.44677353 -0.015450835
-0.41477591 0.46841589 -0.016738296
0.087816253 0.46863392 -0.015450835
0.087816253 0.49049437 -0.015450835
0.087816253 0.51235467 -0.015450835
0.087816253 0.53421527 -0.015450835
0.087816253 0.55607575 -0.015450835
0.087816253 0.57793605 -0.015450835
0.087816253 0.59979671 -0.015450835
0.087816253 0.62165695 -0.015450835
0.087816253 0.64351743 -0.015450835
0.087816253 0.66537803 -0.015450716
0.087816253 0.6872384 -0.015450835
0.087816253 0.70909888 -0.015450835
0.087816253 0.73095924 -0.015450835
0.087816253 0.75281978 -0.015450835
0.087816253 0.7746802 -0.015450835
0.11010182 -0.75916499 -0.0016446114
0.13260515 -0.76281381 0.012296796
0.11010182 -0.73719817 -0.0016446114
0.13260515 -0.74073964 0.012296677
0.13260515 -0.71866566 0.012296796
0.11010182 -0.71523148 -0.0016446114
0.11010182 -0.69326478 -0.0016444921
0.13260515 -0.69659168 0.012296796
0.11010182 -0.67129797 -0.0016446114
0.13260515 -0.67451757 0.012296677
0.11010182 -0.64933127 -0.0016444921
0.13260515 -0.65244359 0.012296677
0.11010182 -0.62736458 -0.0016444921
0.13260515 -0.63036948 0.012296796
0.13260515 -0.60829538 0.012296677
0.11010182 -0.60539782 -0.0016446114
0.11010182 -0.58343107 -0.0016446114
0.13260515 -0.5862214 0.012296677
0.11010182 -0.56146431 -0.0016446114
0.13260515 -0.56414735 0.012296796
0.11010182 -0.53949761 -0.0016446114
0.13260515 -0.54207325 0.012296677
0.11010182 -0.51753092 -0.0016444921
0.13260515 -0.51999921 0.012296796
0.11010182 -0.4955641 -0.0016446114
0.13260515 -0.49792522 0.012296796
0.11010182 -0.47359741 -0.0016444921
0.13260515 -0.47585106 0.012296677
0.11010182 -0.45163068 -0.0016444921
0.13260515 -0.4537771 0.012296677
0.11010182 -0.42966393 -0.0016446114
0.13260515 -0.431703 0.012296796
0.11010182 -0.4076972 -0.0016446114
0.13260515 -0.4096289 0.012296677
0.11010182 -0.3857305 -0.0016443729
0.13260515 -0.38755494 0.012296677
0.11010182 -0.36376366 -0.0016446114
0.13260515 -0.36548093 0.012296796
0.11010182 -0.34179699 -0.0016444921
0.13260515 -0.34340677 0.012296677
0.11010182 -0.3198303 -0.0016444921
0.13260515 -0.32133278 0.012296796
0.11010182 -0.29786348 -0.0016444921
0.13260515 -0.29925877 0.012296796
0.11010182 -0.27589676 -0.0016444921
0.13260515 -0.27718467 0.012296677
0.11010182 -0.25393018 -0.0016444921
0.13260515 -0.25511065 0.012296796
0.11010182 -0.23196338 -0.0016446114
0.13260515 -0.23303646 0.012296677
0.11010182 -0.20999667 -0.0016444921
0.13260515 -0.21096244 0.012296677
0.11010182 -0.18802986 -0.0016446114
0.13260515 -0.18888849 0.012296796
0.11010182 -0.16606319 -0.0016446114
0.13260515 -0.16681439 0.012296677
0.11010182 -0.14409646 -0.0016446114
0.13260515 -0.1447403 0.012296796
0.11010182 -0.12212965 -0.0016446114
0.13260515 -0.12266628 0.012296796
0.11010182 -0.10016298 -0.0016446114
0.13260515 -0.10059223 0.012296677
0.11010182 -0.078196257 -0.0016444921
0.13260515 -0.078518227 0.012296677
0.11010182 -0.056229454 -0.0016446114
0.13260515 -0.056444217 0.012296796
0.11010182 -0.034262784 -0.0016444921
0.13260515 -0.034369979 0.012296677
0.11010182 -0.012296066 -0.0016444921
0.13260515 -0.012296019 0.012296677
0.11010182 0.0096707456 -0.0016446114
0.13260515 0.0097779874 0.012296796
0.11010182 0.031637415 -0.0016446114
0.13260515 0.031852085 0.012296677
0.11010182 0.05360413 -0.0016444921
0.13260515 0.053926188 0.012296796
0.11010182 0.075570941 -0.0016446114
0.13260515 0.076000139 0.012296796
0.11010182 0.097537518 -0.0016446114
0.13260515 0.098074242 0.012296677
0.11010182 0.11950433 -0.0016444921
0.13260515 0.12014824 0.012296677
0.11010182 0.14147104 -0.0016446114
0.13260515 0.14222226 0.012296796
