ply
format ascii 1.0
comment PCL generated
element vertex 1323
property float x
property float y
property float z
element camera 0
property float view_px
property float view_py
property float view_pz
property float x_axisx
property float x_axisy
property float x_axisz
property float y_axisx
property float y_axisy
property float y_axisz
property float z_axisx
property float z_axisy
property float z_axisz
property float focal
property float scalex
property float scaley
property float centerx
property float centery
property int viewportx
property int viewporty
property float k1
property float k2
end_header
-0.44464311 -0.37180036 -0.10438412
-0.42960632 -0.37319064 -0.10401557
0.42390248 -0.37275326 -0.1137842
0.44079167 -0.3740027 -0.109275
-0.4596037 -0.35182983 -0.10406531
-0.43305585 -0.35537404 -0.10956661
0.4314144 -0.35841805 -0.11372458
0.45964462 -0.35582989 -0.10465432
-0.47396219 -0.33332306 -0.10531722
0.47434178 -0.33748829 -0.1091197
-0.48420754 -0.31647313 -0.10398946
-0.46036133 -0.32612276 -0.10216007
0.45801568 -0.32369173 -0.11415909
0.46961346 -0.3223204 -0.11226694
0.48908877 -0.31713557 -0.10559392
-0.4746142 -0.30166018 -0.11174534
-0.49987453 -0.28680241 -0.1067156
0.48297197 -0.28328657 -0.10580019
0.50124508 -0.29217839 -0.10639353
-0.49856126 -0.27062613 -0.11569804
-0.48309377 -0.27815759 -0.11744789
0.5074544 -0.27090412 -0.10590632
-0.51140708 -0.25356233 -0.10961466
0.50579304 -0.25021595 -0.11150742
-0.52247071 -0.23150913 -0.10860999
-0.50486594 -0.23232917 -0.10522527
0.52143466 -0.23383369 -0.1120709
0.51057863 -0.22087069 -0.10784017
0.53244889 -0.22680573 -0.10862671
-0.53397304 -0.20334823 -0.10957503
-0.51273358 -0.20343722 -0.10870558
0.5352304 -0.20880596 -0.1092523
-0.52142817 -0.18632264 -0.11654968
0.54367691 -0.1829529 -0.10700642
-0.54475737 -0.17297135 -0.11066195
-0.53933775 -0.17381634 -0.1123518
0.54622889 -0.1630853 -0.10775155
-0.54342705 -0.15017228 -0.10896808
0.5305137 -0.15202388 -0.11173417
0.53410763 -0.15072767 -0.11560185
-0.54866683 -0.12827501 -0.10917809
0.54333222 -0.13400127 -0.11100039
0.55283058 -0.13871996 -0.11196633
-0.55595595 -0.11504947 -0.10544693
0.55131292 -0.11876094 -0.11128539
-0.55088151 -0.10316281 -0.10280009
-0.53984618 -0.097386867 -0.10240972
0.54165024 -0.10355516 -0.10936064
0.5560835 -0.09570618 -0.11343877
-0.54905152 -0.08053796 -0.109265
0.5454033 -0.080081582 -0.10625511
0.55638671 -0.074627385 -0.11481196
-0.56137145 -0.040820032 -0.11624888
-0.54495168 -0.053060815 -0.10595833
0.54517072 -0.050146937 -0.11003494
0.56141454 -0.051169068 -0.11615109
-0.54749626 -0.030969635 -0.10772708
0.56142712 -0.030684412 -0.11831538
-0.5453409 -0.0089700967 -0.10622886
0.54265481 -0.015834145 -0.11087673
0.5549196 -0.009497188 -0.10935
-0.54280341 0.013069801 -0.10446519
0.54692113 0.013069801 -0.10499913
0.55670178 0.013069801 -0.11503089
-0.54026055 0.03515726 -0.10269776
0.54319769 0.036379479 -0.10808018
0.55417985 0.03501476 -0.11327805
-0.54870856 0.059605855 -0.10459804
-0.52823287 0.053348564 -0.11392939
0.53947502 0.059762843 -0.11116052
0.55166447 0.057006814 -0.11152966
-0.5505687 0.07578557 -0.10473464
0.54089469 0.070917472 -0.11349298
-0.54499918 0.082984023 -0.1076674
0.53572804 0.083220616 -0.11426106
-0.54126537 0.10643657 -0.11075688
-0.52462649 0.099392787 -0.115803
0.52820617 0.10901849 -0.11469112
0.54660541 0.10113326 -0.10801329
-0.5323897 0.13021748 -0.11810122
-0.52287591 0.12377595 -0.11753945
0.54179627 0.12337422 -0.10467051
-0.52987331 0.14731219 -0.11518604
-0.51445776 0.13947463 -0.11328225
0.5153181 0.13792574 -0.11426374
0.54353976 0.13649338 -0.10361131
-0.50228006 0.16192502 -0.11356978
-0.5065881 0.16912049 -0.10640289
0.50390607 0.17316075 -0.1090073
0.52054441 0.16812548 -0.11683615
-0.49053732 0.19089814 -0.11257432
0.49176994 0.19619763 -0.11225972
0.51240337 0.19088301 -0.11126975
-0.50513196 0.20557588 -0.10969245
-0.48501095 0.21452881 -0.11873724
0.49421132 0.20244047 -0.11818086
0.5041942 0.2137979 -0.10565683
-0.47893742 0.21951851 -0.11159104
0.48020446 0.22478652 -0.11127685
-0.47668079 0.23768534 -0.11313508
-0.46699724 0.24682625 -0.11067755
-0.46318993 0.25612968 -0.10504374
0.47285473 0.25487414 -0.1128561
-0.46466982 0.27543694 -0.11280611
-0.45170215 0.26693952 -0.11018901
0.45197815 0.27188873 -0.10684897
-0.44324845 0.2850022 -0.11793993
-0.43518367 0.28541592 -0.11211011
0.43784058 0.29534003 -0.10572819
0.46278748 0.28400904 -0.10466771
-0.42719653 0.30958831 -0.10732294
-0.42138413 0.30678576 -0.10922137
0.42372921 0.30888104 -0.10631341
0.44126269 0.30774516 -0.11748806
-0.42546266 0.32651842 -0.11358087
-0.4063592 0.32652113 -0.10874233
0.40670124 0.32958928 -0.10855524
0.42750621 0.33330572 -0.10665394
-0.39143214 0.34615046 -0.10826547
0.39179397 0.3491993 -0.10807864
0.39928615 0.3424269 -0.10350629
-0.38888347 0.35883123 -0.10960562
-0.37570104 0.36405343 -0.10789053
0.37506175 0.36524665 -0.10781716
0.40114596 0.3583324 -0.10769351
-0.37489748 0.3833409 -0.11200261
-0.36075234 0.38133699 -0.10891028
0.35713884 0.37903923 -0.10769266
0.37665921 0.38348621 -0.10250224
0.37915421 0.38554376 -0.10211319
-0.3398532 0.39160585 -0.10764317
-0.33109394 0.39360327 -0.1177178
0.33923709 0.39279711 -0.1075691
-0.32197908 0.40536213 -0.1075189
-0.30570382 0.41685599 -0.10728636
0.31914645 0.41030705 -0.10650033
0.34032345 0.41039056 -0.10674188
-0.30261493 0.43680304 -0.11595459
-0.28630814 0.43279701 -0.10727199
0.2857233 0.43397868 -0.10719744
0.3035329 0.42027313 -0.1073212
0.32824272 0.42020011 -0.1181711
-0.29080072 0.44973481 -0.1056001
-0.26851088 0.44647563 -0.10714899
0.26412448 0.45013618 -0.10904127
0.30390164 0.4394629 -0.10936254
-0.28063631 0.45620173 -0.10542246
-0.24815263 0.45601493 -0.10728849
-0.22571725 0.46778756 -0.11248408
-0.21059971 0.46960294 -0.11281221
0.22538982 0.46390522 -0.1075349
0.2497758 0.46331143 -0.10514431
-0.205302 0.47203159 -0.10776825
-0.17869067 0.48173445 -0.10744433
-0.15915678 0.48084229 -0.11319543
-0.13398896 0.48667437 -0.10911742
-0.12593167 0.48515737 -0.11651357
0.1832661 0.48127252 -0.10793218
0.20357557 0.47579449 -0.11193071
0.23211744 0.47250491 -0.11876151
-0.14676814 0.49060202 -0.11217345
-0.11778425 0.49525172 -0.11844432
-0.10910094 0.49039781 -0.10965171
-0.086913422 0.4960658 -0.11249687
-0.062315982 0.50279361 -0.11040895
0.11635494 0.50270832 -0.10884517
0.14091954 0.4987157 -0.10833225
0.16563983 0.49447888 -0.10895487
0.18533944 0.49388605 -0.10982815
-0.050886039 0.50576407 -0.11344297
-0.034354221 0.51531035 -0.10786419
-0.014733011 0.51554275 -0.11156189
-0.0006513577 0.51920372 -0.10941782
0.011399324 0.5186587 -0.11135267
0.02555248 0.52163625 -0.10980088
0.041525338 0.51718086 -0.1110612
0.068669245 0.51390648 -0.10974811
0.09779048 0.50826973 -0.11209553
0.12558898 0.51002485 -0.10736068
-0.015226426 0.52300322 -0.10983191
-0.00065140845 0.52469748 -0.10906934
-0.16243826 0.82406288 -0.11669868
-0.1501815 0.83307463 -0.11304057
-0.1443301 0.84255636 -0.10594004
-0.050557062 0.82920259 -0.10972476
-0.036663551 0.83943206 -0.11084809
-0.15237343 0.85041267 -0.10263114
-0.051460404 0.8518452 -0.11426239
-0.15131108 0.87016618 -0.10699089
-0.052286856 0.87811846 -0.11719401
-0.036680717 0.8652609 -0.11083834
-0.1503368 0.89687169 -0.10969346
-0.050538883 0.88360602 -0.10971257
-0.036646388 0.89107454 -0.11085759
-0.15237343 0.8996681 -0.10263114
-0.13785253 0.90636253 -0.11848465
-0.10928944 0.90669739 -0.11754239
-0.08103694 0.90703821 -0.11660977
-0.051832393 0.90909076 -0.1127066
-0.1523581 0.92430091 -0.10262184
-0.14141415 0.91691792 -0.10893221
-0.11567271 0.91665506 -0.10977936
-0.08965382 0.91638964 -0.11063573
-0.063344911 0.91611207 -0.11150207
-0.036756892 0.91584045 -0.112377
-0.023963999 -0.58661407 -0.089022309
-0.0006513577 -0.58770281 -0.097420573
0.017729463 -0.59435529 -0.084949598
0.022176735 -0.58856767 -0.099419318
0.04739517 -0.58822423 -0.090309195
0.082152665 -0.58539915 -0.086865723
-0.12209953 -0.57389152 -0.088256381
-0.089057416 -0.57852376 -0.087272041
-0.056495201 -0.58307827 -0.086302429
-0.046497423 -0.5836156 -0.087973788
0.068067282 -0.5844925 -0.090000466
0.091130659 -0.58244449 -0.085266814
0.11920013 -0.57550865 -0.090002388
0.15160154 -0.57242668 -0.089061812
-0.17756064 -0.56001496 -0.093057841
-0.15891291 -0.5614084 -0.09271656
0.14696807 -0.56313986 -0.097076356
0.17943296 -0.55791986 -0.090137675
0.19854164 -0.55245864 -0.090986267
-0.2102935 -0.53778917 -0.094608597
-0.18404093 -0.54949009 -0.093052767
0.19794428 -0.54354483 -0.10091785
-0.27573365 -0.51749414 -0.091395997
-0.26474532 -0.52373415 -0.093927667
0.23440915 -0.52681184 -0.097948618
0.25024226 -0.53299248 -0.090837196
0.26276839 -0.51778841 -0.086159997
-0.27834627 -0.5119561 -0.095156536
-0.2612322 -0.51677889 -0.093878746
0.28799155 -0.50912052 -0.1014463
0.30056858 -0.51156974 -0.094667993
-0.321987 -0.48845327 -0.095657766
-0.30774105 -0.48443061 -0.090537854
0.3190532 -0.48511344 -0.096558504
-0.32160875 -0.481794 -0.10164415
0.3267774 -0.48033714 -0.09807919
0.34818801 -0.45254749 -0.096105278
0.36960036 -0.4545036 -0.09094283
-0.37770146 -0.44741565 -0.089184672
-0.36067829 -0.43926328 -0.099339217
0.39814949 -0.43594891 -0.097407065
-0.37758249 -0.43026447 -0.085753523
0.40202639 -0.42448676 -0.091536671
-0.40503889 -0.40117353 -0.092667572
0.42347553 -0.40996826 -0.097623304
0.41055724 -0.39697731 -0.093790956
0.44194603 -0.37404519 -0.090651356
0.45084989 -0.37810117 -0.086682662
-0.44396022 -0.35116822 -0.09112969
0.45841947 -0.3488304 -0.10173003
0.45137149 -0.34462404 -0.092087269
-0.45514366 -0.32812673 -0.093527898
0.48015285 -0.32483637 -0.089218751
-0.4795852 -0.30255324 -0.087939963
0.49405783 -0.30049586 -0.098726273
0.50326502 -0.30314386 -0.097457439
-0.49545583 -0.29308021 -0.088107347
-0.48807126 -0.27898103 -0.093742155
0.48489454 -0.29425919 -0.095535383
-0.51204532 -0.26905733 -0.087986574
-0.48321575 -0.27449048 -0.09497828
0.49769843 -0.26911348 -0.085263155
-0.49649793 -0.25557363 -0.09950377
0.51581097 -0.25457984 -0.086609073
-0.52521324 -0.237242 -0.085796475
0.50604939 -0.23743974 -0.088568464
0.52530336 -0.23704474 -0.08894565
-0.52376509 -0.22086196 -0.095161714
0.53796005 -0.21462508 -0.086344019
-0.53582114 -0.20523535 -0.090007231
-0.51818764 -0.20987104 -0.087355599
0.52919406 -0.20278762 -0.095172554
-0.54834259 -0.18076755 -0.087453797
-0.52645785 -0.18688019 -0.093103856
0.54956162 -0.1862513 -0.087177128
-0.53214604 -0.16423751 -0.097057566
0.53032136 -0.17508791 -0.095934846
0.5566172 -0.14712133 -0.088543162
-0.55494529 -0.13846225 -0.089869633
-0.53471833 -0.14190555 -0.09884546
0.55364096 -0.14134015 -0.086078741
-0.53526592 -0.12104672 -0.10069551
0.55618805 -0.11913782 -0.087878361
-0.55951291 -0.094506249 -0.090571664
0.53908139 -0.10527006 -0.099912465
0.56042874 -0.10017999 -0.089901075
-0.55459714 -0.079769194 -0.09972544
0.56125414 -0.074877962 -0.091457598
0.56776017 -0.058596969 -0.091750756
-0.5617553 -0.053070143 -0.094427422
0.54792285 -0.045115724 -0.097276956
0.5637849 -0.052819595 -0.093245491
-0.56458336 -0.030639097 -0.091615282
-0.54548401 -0.030347928 -0.096844822
0.55959207 -0.032083482 -0.097551465
-0.55974233 -0.010089017 -0.09546794
0.54789633 -0.021580927 -0.096410267
0.56412274 -0.008890152 -0.093484178
0.54263794 0.0072189197 -0.096500881
0.56510741 0.0071047619 -0.094396539
-0.55923694 0.024032392 -0.095235638
-0.55607998 0.013069801 -0.098498508
-0.53970587 0.016884483 -0.0951294
0.5421803 0.025614306 -0.094694793
0.56160444 0.013069801 -0.091705017
-0.55240631 0.036301233 -0.10153842
0.55909246 0.035077076 -0.089930229
-0.53772414 0.057292201 -0.1009348
0.55656326 0.057131946 -0.088143349
-0.53024751 0.068299696 -0.094971776
0.53659737 0.071709059 -0.093019232
0.55404055 0.07923422 -0.086360998
-0.53517032 0.07947512 -0.099159554
-0.5505482 0.099104434 -0.090165205
-0.53057283 0.10488509 -0.094599456
0.55234212 0.099450171 -0.098334767
-0.52800208 0.12408084 -0.094177172
0.52841419 0.12478697 -0.089209229
-0.51843321 0.14272186 -0.089715943
0.51813155 0.14404376 -0.090625644
0.53374875 0.14588712 -0.099077091
-0.5289939 0.15311995 -0.090901166
0.519023 0.15363204 -0.097964361
-0.52815419 0.16467282 -0.090639114
-0.5168249 0.17730033 -0.10081647
-0.50509953 0.16793557 -0.090034984
0.50629336 0.17325759 -0.089765318
0.52565813 0.1685535 -0.093453601
-0.49498099 0.19150302 -0.093222991
0.51749992 0.19137642 -0.087783039
-0.49010047 0.21508873 -0.095129669
0.49459341 0.2020995 -0.088916168
0.513951 0.21461368 -0.09061911
-0.48177308 0.22533183 -0.088346273
0.4869943 0.22795369 -0.089378536
-0.48525652 0.24376933 -0.091459557
0.47719654 0.2366692 -0.098886088
0.49594051 0.2368699 -0.10001343
-0.47989753 0.26654851 -0.092983395
-0.46937698 0.25161189 -0.087614685
0.47373706 0.25243574 -0.094316944
0.48413166 0.26045996 -0.091939129
-0.4541021 0.27167469 -0.087197438
0.4543646 0.27476299 -0.087038182
0.48557246 0.26854283 -0.086866602
-0.44829589 0.29431236 -0.091776952
0.43920261 0.29468411 -0.086623639
-0.42382342 0.31142128 -0.086371087
0.42413267 0.31448448 -0.086211577
0.44687977 0.30850437 -0.09396936
0.45749092 0.30159396 -0.096744031
-0.40992546 0.32990697 -0.090118937
0.40916103 0.33417809 -0.085801348
-0.42765075 0.33497813 -0.09278971
-0.41215977 0.35071492 -0.093557961
-0.39390972 0.35068846 -0.085554637
-0.39771566 0.36419904 -0.088457271
-0.38042858 0.36225885 -0.091327257
0.39427286 0.35373944 -0.085394263
0.4088257 0.35756838 -0.096033923
-0.36050481 0.38248456 -0.089714736
0.3594766 0.38316894 -0.085082911
0.37523025 0.37370926 -0.091108695
-0.3422204 0.39571363 -0.085040711
0.34252387 0.39804143 -0.084891945
-0.34627897 0.40890259 -0.098361999
-0.32551259 0.41108036 -0.091050081
0.32377055 0.41063714 -0.084870838
0.34184921 0.40565276 -0.085413173
0.3551707 0.40670139 -0.09153758
-0.30654737 0.4231407 -0.084829241
-0.28350261 0.43562394 -0.096650384
-0.2893225 0.44031185 -0.10146397
-0.27844077 0.44916248 -0.097980298
0.28819203 0.43970329 -0.091853455
0.31018454 0.43871886 -0.08746767
-0.23522317 0.46692514 -0.097281627
-0.23004723 0.4689393 -0.09046527
0.2345982 0.46772552 -0.091605961
0.24891563 0.4593004 -0.084776476
0.28159219 0.45857263 -0.09019953
-0.23301898 0.47682518 -0.093594328
-0.20607781 0.4787308 -0.092645906
-0.18850932 0.4790166 -0.090166584
-0.1582195 0.48546916 -0.089752622
0.18591568 0.48527843 -0.085285634
0.20498163 0.47852027 -0.09179759
0.20967479 0.48707914 -0.095599569
0.2311658 0.47147948 -0.086385474
-0.13662368 0.49052775 -0.086307809
-0.12090795 0.49151754 -0.092490882
-0.11191399 0.49444491 -0.08675395
-0.085898519 0.50123227 -0.089122877
0.15013452 0.50292528 -0.090981066
0.16809583 0.49913538 -0.085807472
-0.088087961 0.50935417 -0.088704661
-0.065211967 0.50682658 -0.087401494
-0.059098084 0.51546073 -0.096809641
-0.04030586 0.5157491 -0.089435622
-0.020974692 0.51712793 -0.094166219
-0.0097914506 0.52189702 -0.088599175
0.017367374 0.52014643 -0.088008359
0.043147322 0.51683909 -0.087512352
0.064631842 0.51760566 -0.092705503
0.087024748 0.51561284 -0.097011663
0.096592829 0.51460356 -0.09262152
0.1170425 0.51096839 -0.091903239
0.13912086 0.51107973 -0.092099145
0.14494561 0.50729561 -0.085972197
0.1627387 0.50852078 -0.086643964
0.0056680264 0.52564102 -0.088383444
0.034840323 0.52502471 -0.089116
-0.11935569 0.84021962 -0.089146584
-0.083788604 0.83441603 -0.098895125
-0.16555211 0.86188936 -0.090946361
-0.11619501 0.84690225 -0.093973473
-0.052381821 0.84728873 -0.097830437
-0.15025616 0.86530119 -0.091300942
-0.052286856 0.87811834 -0.096414559
-0.15794446 0.89224136 -0.090398967
-0.16230221 0.91361737 -0.094372675
-0.13031116 0.91420424 -0.096970893
-0.052219618 0.90833116 -0.095027782
-0.14750215 0.9242754 -0.088675752
-0.12603073 0.92106038 -0.09534163
-0.10524227 0.91629022 -0.09871155
-0.091498166 0.92094791 -0.095713466
-0.069682613 0.91881633 -0.095840856
-0.043599498 0.92071933 -0.09646932
-0.08767204 -0.58706182 -0.082676575
-0.06269142 -0.59023309 -0.083158664
-0.03385476 -0.59077442 -0.082507625
-0.0064234296 -0.59290332 -0.083402485
0.0072590802 -0.59199572 -0.08440388
0.031365596 -0.58823031 -0.081317507
0.059091378 -0.58718383 -0.083334349
-0.15985763 -0.57531404 -0.081385396
-0.13707432 -0.58076507 -0.081724428
-0.11944959 -0.57697821 -0.074911334
-0.11246286 -0.58390206 -0.082198851
-0.090824872 -0.58075052 -0.076053068
-0.069538504 -0.58156449 -0.083233021
-0.059619833 -0.58504838 -0.077495985
0.058267552 -0.58303285 -0.074944206
0.085864067 -0.58200985 -0.076977901
0.097951218 -0.5774287 -0.073942043
0.11161332 -0.58063358 -0.0814441
0.13555482 -0.57804012 -0.078815632
0.15944698 -0.57545733 -0.076187819
-0.20089585 -0.55838895 -0.081053935
-0.1857934 -0.55247492 -0.073666491
-0.18040274 -0.56684047 -0.081219435
0.17867057 -0.56622267 -0.081254251
0.20316119 -0.55653721 -0.080581523
-0.23821507 -0.54162639 -0.075116254
-0.2213368 -0.54995853 -0.080888733
-0.20579638 -0.54841912 -0.074609309
-0.19502109 -0.5498811 -0.07108546
0.206046 -0.54587746 -0.076589093
0.21961658 -0.54933774 -0.080923364
0.23973362 -0.54067093 -0.074814506
-0.28235701 -0.52480721 -0.080395162
-0.25792408 -0.5292694 -0.075093165
-0.23237121 -0.53121436 -0.082340851
0.2603552 -0.53253853 -0.080594212
0.27947414 -0.52572197 -0.077000245
-0.29656142 -0.51353526 -0.081083037
-0.27988386 -0.50617748 -0.082942232
0.29032496 -0.50420028 -0.06840834
0.298381 -0.51004076 -0.076374106
0.31690359 -0.50074488 -0.080470227
-0.33463052 -0.48620754 -0.08064238
-0.31741071 -0.4994576 -0.080540054
0.334122 -0.48751479 -0.080571994
-0.3503738 -0.47305852 -0.078057677
0.31927025 -0.47836155 -0.082263358
0.33340672 -0.48144054 -0.074370198
0.35103858 -0.47600913 -0.078739882
-0.36146677 -0.45546943 -0.078117222
-0.346194 -0.45776051 -0.079053387
0.36821851 -0.45437229 -0.07345251
-0.403889 -0.43272889 -0.075060293
-0.3864747 -0.44636768 -0.080948859
0.3747564 -0.43760437 -0.075953178
0.38592592 -0.44767588 -0.080879286
0.40325305 -0.43436223 -0.080981664
-0.38791358 -0.42718869 -0.081340618
0.40275741 -0.42336339 -0.070908628
0.41855165 -0.41732985 -0.081279263
-0.43111956 -0.39924502 -0.072231136
-0.41427955 -0.40822917 -0.07502342
-0.40408373 -0.40016854 -0.077916272
0.4024913 -0.40677172 -0.082545616
0.42523605 -0.39960498 -0.079413481
0.43295327 -0.39844769 -0.081671491
-0.42828101 -0.3951183 -0.083078176
-0.45762461 -0.36442369 -0.072822057
-0.44702801 -0.37624943 -0.082233436
-0.42732409 -0.37655479 -0.079941578
0.42922562 -0.37183857 -0.083148211
0.43818164 -0.36857164 -0.072310358
0.44743508 -0.37943906 -0.082066663
-0.46162444 -0.35711658 -0.082630612
0.46293625 -0.35505295 -0.080274127
-0.48009357 -0.33390057 -0.078219011
-0.4643901 -0.34291148 -0.082833156
0.45570904 -0.33725107 -0.083764829
0.47768193 -0.34338725 -0.079208903
-0.49108377 -0.31850153 -0.083432488
-0.46583521 -0.32701904 -0.078538425
0.4782244 -0.31711429 -0.070876837
0.49141744 -0.32173014 -0.08326602
0.48140773 -0.30065489 -0.081015602
0.50152463 -0.29955661 -0.079429314
-0.49784529 -0.28607303 -0.077036947
-0.50808555 -0.26804572 -0.077974774
0.51131761 -0.27412939 -0.082752854
-0.50149769 -0.25633407 -0.075754769
-0.53290462 -0.22752272 -0.073822394
-0.51523381 -0.23814647 -0.074756891
0.51037973 -0.24423186 -0.075089246
0.52913374 -0.23211052 -0.068764232
0.53658664 -0.23553373 -0.074510619
-0.51622975 -0.2063431 -0.072478555
0.53737146 -0.20904641 -0.074584253
-0.53150374 -0.1874419 -0.069518119
0.52863783 -0.19250692 -0.071637377
0.54556394 -0.18614115 -0.080372222
-0.55167419 -0.16718079 -0.075960897
-0.53702879 -0.16474698 -0.073421814
0.53825504 -0.1728317 -0.082294032
0.55109996 -0.16358994 -0.084283538
-0.55112594 -0.14879668 -0.072868168
-0.53960311 -0.14235036 -0.075240381
0.5419994 -0.14933589 -0.079242945
-0.55482149 -0.12545457 -0.069857001
0.5457322 -0.1259146 -0.07620161
-0.54217178 -0.12000251 -0.077055238
-0.54299003 -0.10044917 -0.076933809
0.5486623 -0.097085238 -0.070662431
-0.54728073 -0.075452819 -0.080664843
0.54708713 -0.085975796 -0.074293099
0.55966169 -0.077211678 -0.069062665
-0.56903023 -0.058521405 -0.068288326
0.54789555 -0.068354666 -0.082705788
0.57500613 -0.063280299 -0.067860536
-0.54983258 -0.053250134 -0.08246766
0.56869364 -0.053007871 -0.069796212
-0.57269371 -0.032396436 -0.076338015
-0.55237907 -0.031095579 -0.084266931
0.57477462 -0.034474611 -0.076550141
-0.54985827 -0.014999896 -0.077455431
0.5518685 -0.012207173 -0.07178098
0.57080317 -0.0096933916 -0.069914758
-0.56690007 0.00067087263 -0.072913058
-0.54569143 0.019538388 -0.075852312
0.56053692 0.013069801 -0.068644919
-0.54518515 0.035220169 -0.079184294
0.54437083 0.032494076 -0.076234162
0.55084705 0.03618351 -0.072033994
-0.5494228 0.058317885 -0.073053911
0.54487818 0.056339711 -0.071388029
-0.53797424 0.071877055 -0.069335334
-0.55254382 0.082399264 -0.07171274
-0.53330529 0.087111056 -0.079192236
0.54198837 0.081601374 -0.073511235
0.56004292 0.080890454 -0.073008522
-0.55159461 0.10171986 -0.074211545
-0.53752971 0.10195935 -0.073775627
0.53974915 0.1059617 -0.081076548
0.5515002 0.10138461 -0.084566295
-0.54555523 0.12501445 -0.077086873
-0.53052831 0.1184075 -0.069289945
0.53992832 0.12216873 -0.07458204
0.54325122 0.14573884 -0.072822593
-0.51170456 0.16955322 -0.082849354
0.52324921 0.17271324 -0.070382081
-0.50348979 0.19252321 -0.077139534
0.49994397 0.19165766 -0.081221379
-0.51345766 0.20005918 -0.073664762
0.50633866 0.20755133 -0.081393659
-0.50015855 0.22228742 -0.079570197
0.50103879 0.23749408 -0.07634142
-0.46803752 0.26008266 -0.074925572
0.47553295 0.25348115 -0.073553041
0.48981416 0.26109233 -0.068539567
-0.47700855 0.27277011 -0.072866134
0.46476713 0.27394271 -0.081506476
-0.45454985 0.2864024 -0.070822246
-0.43762055 0.29141322 -0.078096658
0.44967741 0.28719503 -0.07328622
0.46843767 0.28470433 -0.081208579
-0.43283474 0.31035393 -0.083647572
0.45252591 0.30926749 -0.070329085
-0.43832374 0.32329977 -0.073212683
0.42462832 0.32299539 -0.077543721
0.43076286 0.33332178 -0.083130285
-0.41657957 0.33533156 -0.072715662
0.43358749 0.34191194 -0.070050381
0.39722279 0.3556596 -0.072822362
0.41443244 0.35846764 -0.072147951
-0.39534995 0.37543011 -0.076203845
0.3835924 0.38425934 -0.079344362
0.4068678 0.37156111 -0.075040288
-0.37768346 0.39193124 -0.072973847
-0.36583105 0.39463484 -0.070651762
-0.35134566 0.40102482 -0.076528087
-0.33408713 0.40108067 -0.080447637
-0.33362478 0.41355699 -0.073664762
0.34725979 0.41122568 -0.083380446
-0.31384382 0.42838281 -0.077262685
-0.28875676 0.43682814 -0.084723562
0.30633751 0.42906868 -0.082896702
0.3149164 0.42462295 -0.071187638
0.33122206 0.42782253 -0.080961674
-0.2962696 0.44122154 -0.077735737
-0.27098659 0.45048141 -0.084618539
0.26980713 0.45068073 -0.084607877
0.28816965 0.43800598 -0.084659934
0.30730459 0.44892204 -0.070415214
-0.28888541 0.4595443 -0.070289776
-0.27124238 0.45772946 -0.073050573
-0.26051465 0.46203899 -0.083237492
-0.25067925 0.46003354 -0.084736466
0.25612029 0.46597481 -0.079927154
-0.24635448 0.47147077 -0.074449062
-0.22571081 0.47481483 -0.071569718
-0.21256849 0.4771117 -0.074764639
-0.18840447 0.48180002 -0.076447144
0.23426431 0.48020113 -0.081222393
-0.1743505 0.49398947 -0.068311751
-0.15194888 0.49023867 -0.069572091
-0.1456448 0.49782252 -0.073398963
-0.11641257 0.50057614 -0.074627817
0.17337194 0.49822748 -0.073936351
0.18705358 0.50176293 -0.072237641
-0.050768837 0.52179611 -0.075173013
-0.00065128179 0.52985597 -0.071511485
0.022668168 0.52957314 -0.076975353
0.046064429 0.52747536 -0.072413556
0.069538191 0.52536374 -0.067821793
0.07432434 0.52316207 -0.07635843
-0.15277259 0.84538108 -0.077589326
-0.039721645 0.84413725 -0.079464518
-0.15234703 0.85438567 -0.073800504
-0.087746695 0.85129881 -0.081892535
-0.053941697 0.8517884 -0.07460276
-0.15130164 0.87221575 -0.072526298
-0.051391948 0.87875521 -0.076438539
-0.036639176 0.86920893 -0.081209444
-0.15033691 0.89687175 -0.070009694
-0.036621809 0.89514732 -0.081219301
-0.15233159 0.90387988 -0.073791012
-0.051376559 0.90740341 -0.07585609
-0.15139158 0.92606157 -0.0729701
-0.12699406 0.92593038 -0.072338656
-0.10584991 0.93053883 -0.069440119
-0.091113627 0.92605299 -0.071990758
-0.069598392 0.92778486 -0.071253642
-0.049928308 0.93081766 -0.071114086
-0.040379327 0.92548043 -0.075140946
-0.12805118 0.93138695 -0.069194742
-0.115546 -0.58812708 -0.060124744
-0.090812087 -0.59129637 -0.060521469
-0.065897807 -0.59448886 -0.060921084
-0.052187625 -0.58844745 -0.063482054
-0.040792368 -0.59769315 -0.061324153
-0.019816516 -0.59584796 -0.059382308
-0.00065140845 -0.59575337 -0.058549803
0.012455422 -0.5984686 -0.062133163
0.029778503 -0.59563434 -0.061033778
0.045471966 -0.5949223 -0.059465222
0.065517135 -0.59198642 -0.056009516
0.082503334 -0.58953696 -0.06230725
0.11054777 -0.58627766 -0.064760335
-0.1797052 -0.56969303 -0.058076821
-0.16255394 -0.57913047 -0.059468009
-0.14231707 -0.57820427 -0.063573495
-0.11756486 -0.57937169 -0.065102212
-0.098902822 -0.58170545 -0.063182391
-0.084642589 -0.583942 -0.064286418
0.072860152 -0.58458406 -0.055940434
0.11446574 -0.58103681 -0.063761547
0.13664827 -0.58198589 -0.059872501
0.14536458 -0.57619345 -0.063203715
0.16081731 -0.57851619 -0.059497032
0.1830851 -0.56997144 -0.057807237
-0.22392185 -0.55380249 -0.059055492
-0.20351781 -0.56222373 -0.05919271
-0.19775586 -0.55708218 -0.059449486
-0.15826617 -0.5660454 -0.06636215
0.19145213 -0.56076819 -0.067232691
0.20179306 -0.56160641 -0.05922148
0.22221081 -0.55319518 -0.059083704
-0.26457524 -0.53702384 -0.058782279
-0.24427423 -0.54540253 -0.058918733
-0.21007572 -0.54576564 -0.058475047
0.2186269 -0.54736298 -0.057835124
0.23562637 -0.54303813 -0.061887447
0.26287565 -0.53641373 -0.058810335
-0.28483215 -0.52867764 -0.058645617
-0.25994262 -0.52850932 -0.062511593
0.24715261 -0.52894664 -0.06379424
0.28313103 -0.52805459 -0.058674186
0.30277941 -0.51863056 -0.057437111
-0.31980217 -0.50332701 -0.058768008
-0.30262825 -0.51652002 -0.058683604
-0.27967563 -0.51356214 -0.067123614
0.28977314 -0.50743842 -0.062844381
0.30125463 -0.51148248 -0.053458177
0.31929985 -0.5046221 -0.058709428
-0.33699602 -0.4901017 -0.058853071
-0.31999466 -0.49893087 -0.061524305
-0.31250781 -0.48885173 -0.059354037
0.32705331 -0.49862546 -0.066519901
0.33648491 -0.49140471 -0.058794517
-0.35422418 -0.47686738 -0.058937829
-0.32998663 -0.47224587 -0.065037422
0.32751653 -0.47793257 -0.065603867
0.35370424 -0.4781785 -0.058879096
-0.38876152 -0.45033592 -0.059107546
-0.37342975 -0.46084183 -0.057177797
-0.35707375 -0.45605028 -0.060942832
0.34603798 -0.46321052 -0.06215382
0.37094355 -0.46491963 -0.058964387
0.38821718 -0.45165187 -0.059049197
-0.40606415 -0.43702686 -0.059193168
-0.38571292 -0.44536132 -0.053346504
0.40374678 -0.44078851 -0.058840737
-0.41563499 -0.4187991 -0.061958119
-0.39337975 -0.42837161 -0.057113387
0.40045235 -0.41995794 -0.052155625
0.42413798 -0.41974407 -0.059801921
-0.43490773 -0.39964139 -0.059833601
0.43300572 -0.40176904 -0.057539631
0.42602336 -0.38883507 -0.052711248
0.44981232 -0.3838737 -0.060022011
-0.4503189 -0.37370914 -0.061665226
-0.43211702 -0.37283891 -0.061424568
0.4473874 -0.37507933 -0.066815712
0.46436334 -0.36479706 -0.060352154
-0.46397573 -0.3615849 -0.060491506
-0.44942731 -0.35213721 -0.067319691
0.45342281 -0.35066122 -0.053655978
0.46935788 -0.3507542 -0.054320991
-0.47864175 -0.3423835 -0.060823325
-0.45928863 -0.33543164 -0.055697992
0.472101 -0.34319723 -0.055992886
-0.49215066 -0.31932062 -0.061526027
-0.47133794 -0.32792014 -0.05479186
0.47953001 -0.31648105 -0.054366648
0.48968709 -0.32601869 -0.063326865
-0.50537205 -0.29785806 -0.061740227
-0.48457217 -0.30345297 -0.063990563
0.50597835 -0.30597204 -0.058718503
-0.50859261 -0.29045033 -0.066334337
-0.5049718 -0.29030621 -0.050778676
-0.48689669 -0.2836979 -0.061181009
0.49465904 -0.2914477 -0.057895608
0.51247251 -0.2787264 -0.056992978
-0.51659018 -0.27056932 -0.062406763
0.51792437 -0.27597517 -0.062176459
-0.50653815 -0.25709754 -0.05187992
0.50442773 -0.25477326 -0.064098224
0.5250324 -0.25185823 -0.062872991
-0.52794403 -0.24295031 -0.063081324
-0.51491827 -0.23371635 -0.057800487
-0.53619665 -0.21686865 -0.060890317
-0.52323991 -0.21049838 -0.063679822
0.52291548 -0.21961294 -0.065032139
0.54068428 -0.22043259 -0.063534513
0.53887945 -0.20246126 -0.053011812
-0.55307949 -0.18475734 -0.060743298
0.55145091 -0.18942861 -0.060523506
0.54100788 -0.16557248 -0.051809419
0.55598736 -0.16409837 -0.060672306
-0.55111212 -0.14473864 -0.058560867
0.56038064 -0.15547137 -0.065262839
0.55854219 -0.14178327 -0.062506668
-0.54707474 -0.1203858 -0.053337008
0.54785794 -0.11488514 -0.053661056
0.5635044 -0.11573704 -0.065456353
-0.56090647 -0.10264176 -0.066899985
-0.54964 -0.098021939 -0.055179033
0.56362319 -0.097299352 -0.066155173
-0.56216592 -0.078990549 -0.063872747
-0.55219942 -0.075706795 -0.057016794
0.57853198 -0.080279186 -0.054101251
-0.56924975 -0.05568324 -0.0613975
-0.55475342 -0.053440213 -0.058850795
0.55685973 -0.056093723 -0.067134894
-0.56948876 -0.032816172 -0.057906374
-0.55730194 -0.031222016 -0.060680687
0.5605455 -0.032966629 -0.06413164
-0.56711787 -0.0098965317 -0.059837982
-0.55521393 -0.0090958476 -0.059181452
0.55819583 -0.0099715441 -0.066046193
-0.56530416 0.015384585 -0.061932556
-0.5526728 0.013069801 -0.057356741
-0.55985343 0.036107656 -0.065756924
-0.55012631 0.035283551 -0.055528119
0.56402117 0.035139874 -0.066440932
-0.54758584 0.057545338 -0.053703971
0.56150186 0.057257574 -0.064632013
0.54258096 0.076346733 -0.053342544
-0.54502815 0.079855651 -0.051867325
0.55896533 0.079423398 -0.062810659
0.55643517 0.10163695 -0.060993768
0.5399338 0.12857768 -0.051378839
0.55211544 0.12398295 -0.057891898
-0.52504915 0.1471086 -0.064957947
-0.51977742 0.14479017 -0.067316279
0.54407096 0.14662191 -0.052115351
-0.53764123 0.15189055 -0.054263249
0.52367496 0.15003751 -0.064023219
-0.52561098 0.17585218 -0.063914597
-0.51238412 0.17195359 -0.062888093
0.509103 0.17924733 -0.066377848
-0.52644271 0.18190861 -0.066232264
-0.50864184 0.19302303 -0.053366054
-0.49682885 0.19488664 -0.056386925
0.52263719 0.19187167 -0.064174302
-0.49618053 0.20269418 -0.065897986
0.49786896 0.20843136 -0.061266676
0.51442975 0.21491683 -0.058375768
-0.48459655 0.23111996 -0.06520164
0.50010884 0.22341162 -0.053590875
0.51776081 0.22384056 -0.057212058
-0.50015545 0.24549171 -0.057819583
-0.48687744 0.23894173 -0.065592892
0.48678043 0.2421954 -0.064187527
0.5061655 0.23812175 -0.052536961
-0.47608194 0.26264054 -0.058089245
-0.47174826 0.25638059 -0.064634643
0.47198543 0.25947708 -0.06450215
-0.47744533 0.2799418 -0.062678114
-0.45649341 0.27639282 -0.064288042
0.45675731 0.27948374 -0.064155191
-0.46395633 0.29645371 -0.05328089
-0.44132429 0.29626998 -0.063944235
0.44161502 0.29935509 -0.063810982
0.45167944 0.29773051 -0.061814383
0.4741168 0.28540319 -0.057628941
-0.45157087 0.31387985 -0.062435467
-0.43237799 0.31358191 -0.061725758
0.46148604 0.30917656 -0.059948184
-0.41355398 0.33196682 -0.051151223
0.42656457 0.31910598 -0.063468851
0.43640411 0.33415449 -0.059306022
-0.42530391 0.34770441 -0.057797596
-0.41126767 0.33567783 -0.06326206
0.41203249 0.34376878 -0.062621839
-0.39823708 0.35792637 -0.062276836
-0.38612387 0.36436749 -0.061112247
0.39674294 0.35826367 -0.062790178
-0.39843801 0.37936109 -0.057221502
-0.38031828 0.37235832 -0.06268739
0.36959681 0.38447165 -0.064338639
0.38512492 0.37929535 -0.059366576
-0.36192939 0.38667256 -0.057880491
-0.34457985 0.39980793 -0.062511884
0.34397405 0.40101719 -0.062458206
0.36181381 0.38729775 -0.062546469
0.382631 0.39292926 -0.064364538
-0.34409666 0.41943693 -0.064080857
-0.3267602 0.41351312 -0.062423624
0.32616237 0.41471487 -0.062370148
0.33498868 0.41456699 -0.057674799
0.35631877 0.41317087 -0.056815159
-0.32683867 0.43074334 -0.067072324
-0.30896112 0.42718399 -0.062336326
0.30837122 0.42837811 -0.062282901
-0.30324617 0.4421351 -0.05390624
-0.28863013 0.44215506 -0.060737051
0.28849128 0.44606704 -0.059875123
0.31713897 0.43962407 -0.063789517
-0.29166323 0.45911926 -0.062415663
-0.27345425 0.45447415 -0.062161222
-0.25319755 0.46403897 -0.062257964
-0.23731631 0.47033703 -0.060603395
0.25143561 0.46330845 -0.062291179
0.27025712 0.46218067 -0.061389722
0.28422442 0.46621311 -0.051982857
-0.25743082 0.47174984 -0.05289783
-0.2317857 0.47850615 -0.058944158
-0.21018977 0.47954655 -0.062620513
-0.18668748 0.48447597 -0.062934712
0.20956907 0.48059493 -0.062572472
0.23052873 0.4719407 -0.062431697
0.25911307 0.47324389 -0.066679463
-0.2028681 0.48914188 -0.061877556
-0.1630443 0.48942083 -0.063251242
-0.13925016 0.49436915 -0.063570775
-0.11470893 0.49846607 -0.063933171
-0.091463342 0.50464767 -0.064201102
0.17077602 0.50075746 -0.06112504
0.18556841 0.49693292 -0.063460454
0.20157219 0.48921633 -0.061976179
0.21162361 0.4949342 -0.057680182
-0.087450027 0.51727176 -0.051335976
-0.071675539 0.51319742 -0.061531611
-0.043032438 0.5176115 -0.065581761
0.046349846 0.52122772 -0.064544909
0.071894258 0.51794666 -0.06413544
0.096525222 0.5181753 -0.065581098
0.11813237 0.51770324 -0.059176318
0.14042605 0.51900077 -0.053985059
0.1463633 0.50667745 -0.062997475
-0.058670279 0.52333951 -0.059262909
-0.02496372 0.52522415 -0.064876243
-0.0013232152 0.52876586 -0.065329365
0.020629011 0.52454489 -0.064956717
0.029568614 0.52997392 -0.066580325
0.049079966 0.52963489 -0.061083503
0.060237456 0.52629286 -0.065018475
0.086383343 0.52350646 -0.059480973
0.093089238 0.52325207 -0.063229829
-0.16339858 0.85837716 -0.061163742
-0.067174301 0.85301179 -0.055775896
-0.052381821 0.84728873 -0.055867065
-0.15025616 0.86530119 -0.051203061
-0.052286856 0.87811834 -0.05485573
-0.036614597 0.87319881 -0.051294688
-0.16551474 0.88331896 -0.059692942
-0.16551474 0.90891457 -0.059692942
-0.052219618 0.90833116 -0.053865068
-0.036579859 0.89925289 -0.051314801
-0.14382765 0.92950195 -0.055025604
-0.11541295 0.92969596 -0.054444332
-0.087304875 0.92989755 -0.053868953
-0.059516426 0.93008745 -0.053300481
-0.036579859 0.92531699 -0.051314801
-0.16553088 0.93450481 -0.059681669
-0.055452205 0.93709874 -0.050770663
-0.018813787 -0.60517997 -0.039410725
0.0093742218 -0.60493326 -0.039873518
-0.14312556 -0.58919227 -0.037817083
-0.11780666 -0.58890772 -0.036203641
-0.091953933 -0.59097999 -0.038124822
-0.073359147 -0.59161603 -0.042388029
-0.051344965 -0.59279698 -0.043404114
-0.037003808 -0.59895188 -0.041711137
-0.015988283 -0.59820896 -0.040135667
-0.00065120542 -0.59700096 -0.045631342
0.01513797 -0.60212803 -0.039529156
0.028635662 -0.59396446 -0.041846529
0.043207463 -0.59704667 -0.039286159
0.061674435 -0.59330517 -0.038467072
0.080177486 -0.59204006 -0.037712272
0.096164942 -0.59156197 -0.042150684
0.11526512 -0.58887899 -0.039735064
0.13924916 -0.58657211 -0.038904876
-0.18571223 -0.57447934 -0.037512992
-0.15833139 -0.57856303 -0.040290125
-0.11305161 -0.58482605 -0.042057522
0.16351423 -0.58233351 -0.03764569
0.18420191 -0.57144797 -0.040591728
-0.22649835 -0.55763352 -0.037293963
-0.2054853 -0.56279767 -0.041308623
-0.19291128 -0.55739504 -0.03932143
-0.16332978 -0.56710333 -0.049809419
0.1745971 -0.56265599 -0.049146689
0.2037171 -0.55949509 -0.037520818
0.21697994 -0.56014073 -0.039113499
-0.26708603 -0.5408842 -0.037075743
-0.24071975 -0.54411262 -0.040150881
-0.23311101 -0.55044985 -0.033693206
-0.20603161 -0.55026954 -0.049097173
0.23085481 -0.54831034 -0.040432632
0.25061899 -0.54523593 -0.043392431
0.2653878 -0.54027611 -0.03709814
0.28102183 -0.53498966 -0.034075707
-0.3050307 -0.52034116 -0.036999516
-0.28913233 -0.52808857 -0.041624323
-0.2464018 -0.53389931 -0.045550227
0.26097828 -0.52673262 -0.050256517
0.28424153 -0.52908784 -0.041675784
0.30454892 -0.52164704 -0.036952086
-0.32217896 -0.50717264 -0.037066907
-0.31230447 -0.50320256 -0.047352906
-0.2863479 -0.51475632 -0.042915374
-0.28253049 -0.51409876 -0.044366315
0.28853184 -0.51457 -0.034615234
0.32168111 -0.50847495 -0.037019782
-0.34303492 -0.48881966 -0.039351571
-0.3254672 -0.48562932 -0.040037818
0.31729969 -0.48888576 -0.048401184
0.33884737 -0.49529403 -0.037087172
0.35408288 -0.48542106 -0.037805773
-0.3737849 -0.46754277 -0.037269432
-0.35655591 -0.48077333 -0.037201837
-0.34935972 -0.47400957 -0.050372507
-0.32363197 -0.48138803 -0.048175745
0.34007919 -0.48254621 -0.050563961
0.35603344 -0.48208034 -0.037155069
0.3732537 -0.46885806 -0.037222557
-0.39103407 -0.4542793 -0.037337683
-0.37360859 -0.46128798 -0.034719441
-0.36046848 -0.45792556 -0.036747135
0.37806618 -0.45926458 -0.047952231
0.39050087 -0.45561481 -0.037290305
-0.40831724 -0.44100708 -0.037405532
-0.40154862 -0.44317341 -0.035559099
-0.38119987 -0.43755645 -0.046721362
0.3724578 -0.44828892 -0.042348679
0.38701206 -0.4448722 -0.050179414
0.40776843 -0.44233882 -0.037358455
-0.42290896 -0.42282397 -0.037645586
0.41855273 -0.42634875 -0.040670067
-0.43311781 -0.40819693 -0.039921671
-0.41182208 -0.40574098 -0.042333417
0.43772921 -0.40719527 -0.037793979
-0.45176598 -0.38508821 -0.038166881
-0.43810934 -0.39059329 -0.043473542
0.45357424 -0.38700956 -0.043464571
-0.46632507 -0.36604959 -0.038429789
-0.45532623 -0.3776871 -0.042689033
0.45285782 -0.37611908 -0.042852402
0.46671337 -0.36926299 -0.038318321
-0.4809722 -0.34689581 -0.038694374
-0.45492351 -0.35311133 -0.043382533
0.48133388 -0.35011828 -0.038583156
0.48310649 -0.35307252 -0.037299968
-0.47967216 -0.34122062 -0.042931829
0.49604973 -0.33086991 -0.038849108
-0.49570829 -0.32762581 -0.038960632
0.49114937 -0.32662708 -0.041927937
-0.50753176 -0.30549312 -0.040616594
-0.48959997 -0.30435628 -0.039912939
0.50948185 -0.30874252 -0.039211299
-0.49809903 -0.28064358 -0.045917504
0.52065295 -0.28156877 -0.039742194
-0.51838398 -0.27083504 -0.040424276
0.50505573 -0.26927096 -0.043849595
-0.5309329 -0.24670584 -0.044971757
0.52891743 -0.2550754 -0.039667368
-0.51999342 -0.23441522 -0.033890806
0.51981151 -0.24190263 -0.038028408
0.5374862 -0.23860116 -0.042438287
-0.54214048 -0.22075973 -0.041008078
-0.52832073 -0.21112926 -0.039870381
-0.52023208 -0.21518441 -0.03790947
0.54339677 -0.22621502 -0.040823884
-0.54517859 -0.19449683 -0.048216231
0.52696794 -0.20982833 -0.047512062
0.55497462 -0.19802214 -0.041374892
-0.55375838 -0.19254462 -0.041559082
-0.53659004 -0.18800573 -0.045808218
-0.54848576 -0.16796057 -0.044971328
0.54606992 -0.17126198 -0.046455964
0.56251812 -0.16418983 -0.039528631
-0.56008089 -0.15121657 -0.039894778
0.55661517 -0.14509825 -0.041138683
0.54784101 -0.13815424 -0.039149813
-0.56471378 -0.11796775 -0.038951829
0.55972916 -0.12232205 -0.04059466
0.56968391 -0.12048556 -0.043167707
0.55712503 -0.10159612 -0.037586689
0.57359713 -0.099504679 -0.041428734
-0.57265478 -0.078612059 -0.047492258
-0.54914916 -0.084145546 -0.049565744
0.56079102 -0.0785193 -0.034645703
0.57323587 -0.075790122 -0.044299353
-0.57282078 -0.067282513 -0.044531606
0.55561078 -0.062379196 -0.04348468
-0.55970263 -0.053631365 -0.035097882
0.57361907 -0.053197548 -0.046203926
-0.562253 -0.031349182 -0.036959156
0.55917513 -0.026051722 -0.039780244
0.57801837 -0.029418811 -0.046740144
-0.56709296 -0.009967491 -0.040726464
-0.55340248 -0.011661246 -0.047598485
0.57402736 -0.0090154409 -0.046501927
0.55581528 -0.0028932318 -0.047308609
0.56199419 0.013069801 -0.033680409
0.57150543 0.013069801 -0.044661626
-0.56710565 0.040589612 -0.046793982
-0.54756826 0.035056524 -0.046469156
0.55420548 0.03988827 -0.041384339
0.56898993 0.035202906 -0.042825844
0.56058818 0.058183718 -0.04024715
0.56764865 0.062559962 -0.047995258
-0.56094521 0.080642171 -0.042457856
-0.54186887 0.080695242 -0.04536593
0.54440308 0.08938311 -0.045076363
0.55749458 0.08083047 -0.040793605
-0.54939002 0.10354992 -0.044654183
0.54498166 0.10228871 -0.042180181
0.56138647 0.10189119 -0.037277572
-0.54952538 0.12817171 -0.044728711
-0.53447306 0.12358324 -0.042316921
0.53568888 0.12682706 -0.044236705
0.55732381 0.12428954 -0.034312818
-0.54831088 0.13805118 -0.049011298
-0.53022754 0.14748107 -0.041239612
-0.52256364 0.15084898 -0.043840945
0.52372134 0.15619914 -0.043661073
0.55173516 0.1540865 -0.0358507
-0.51637441 0.17515111 -0.03931912
0.52254611 0.16988392 -0.037081037
0.53595889 0.16941744 -0.046290461
-0.52224082 0.19841647 -0.037138574
0.51189381 0.18519664 -0.043093003
0.527803 0.1923697 -0.040434085
-0.52474594 0.19904536 -0.042002134
-0.4989838 0.20855391 -0.042711109
0.50630134 0.20646918 -0.043212708
0.51959056 0.21548098 -0.034537077
-0.51010287 0.22264934 -0.046725728
-0.5003528 0.21621899 -0.047509778
-0.49201837 0.23957521 -0.041621506
-0.48740774 0.23688309 -0.042156555
0.48868209 0.24216612 -0.041976526
-0.47796333 0.26220679 -0.038074844
0.47434941 0.26423115 -0.041630585
0.49552602 0.26172799 -0.045020007
-0.48908603 0.27015835 -0.033739924
-0.45887622 0.28109428 -0.04146041
0.47514263 0.2690928 -0.042796798
0.48985037 0.27588925 -0.049662754
-0.46025082 0.28710723 -0.047085531
-0.44143242 0.29904199 -0.041042015
0.45326328 0.29234424 -0.042270519
0.47982571 0.28610569 -0.033927523
-0.44396278 0.30640945 -0.038557261
0.44401878 0.30400911 -0.041079737
0.4582012 0.31003454 -0.046566267
-0.4509367 0.32014483 -0.033654913
-0.42867601 0.32064289 -0.040913366
0.42519766 0.3290841 -0.041809656
0.43859836 0.32152873 -0.042102277
-0.42224187 0.33617133 -0.048732042
-0.41370887 0.3402319 -0.040642589
0.41405451 0.34330678 -0.040535383
0.44207501 0.33499148 -0.035357591
-0.40575248 0.36155415 -0.037457496
-0.39883864 0.3597163 -0.040372927
0.39518082 0.36875653 -0.042453296
0.39920413 0.36277175 -0.040265925
0.42006862 0.35937166 -0.048136756
-0.38261575 0.37649059 -0.040196199
0.38198429 0.37769783 -0.040153742
0.40492061 0.37587494 -0.039432731
-0.37724221 0.38720351 -0.046260297
-0.36475971 0.39020056 -0.040126115
0.36476177 0.39574993 -0.038805343
-0.3702035 0.40458786 -0.043732129
-0.34156063 0.40899318 -0.044197455
-0.32913902 0.41756868 -0.039985802
0.32853895 0.4187665 -0.039943248
0.35376534 0.40900135 -0.038182989
-0.33478895 0.42043078 -0.050637789
-0.31136701 0.43121427 -0.03991618
0.31078225 0.43241704 -0.039873116
0.31293601 0.43504572 -0.037251212
0.33425415 0.43559188 -0.043087378
-0.31562775 0.44485295 -0.050477121
-0.29363039 0.44485104 -0.039846145
0.29305366 0.44604629 -0.03980308
0.32412305 0.44053316 -0.040010393
-0.28688538 0.46836281 -0.034297835
-0.27591386 0.45845395 -0.039776571
-0.26072514 0.46585745 -0.044683248
0.25395483 0.46731544 -0.039879002
0.27477944 0.45872617 -0.039766826
0.27924904 0.46993071 -0.039145499
-0.259278 0.4772234 -0.046058327
-0.24267451 0.47884989 -0.044579908
-0.22109039 0.48039871 -0.04722634
-0.21363921 0.48378885 -0.03756424
-0.18975428 0.48806995 -0.041572012
0.21215554 0.48457164 -0.040103674
0.23302934 0.48141623 -0.04435683
0.25731021 0.471421 -0.038356978
-0.1838049 0.48838043 -0.046413802
-0.16556765 0.49317294 -0.040653504
-0.14479645 0.49950927 -0.040716939
-0.11750315 0.50248611 -0.041187651
-0.11091869 0.5041641 -0.044820465
0.17015272 0.50192755 -0.040328998
0.19118069 0.49323869 -0.040216155
0.1938026 0.50491714 -0.042227559
-0.11607802 0.51122069 -0.043430679
-0.090292454 0.51426452 -0.037535418
-0.072232902 0.51459503 -0.042782258
-0.047562398 0.52110434 -0.041832145
0.075027004 0.52230942 -0.041335076
0.1003307 0.51904231 -0.041010976
0.1254535 0.51579845 -0.04068926
0.14649506 0.51326269 -0.04499273
0.16820437 0.51170516 -0.043201338
0.18879978 0.50978625 -0.033947531
-0.036726322 0.52426267 -0.043093003
-0.024718415 0.53130859 -0.044948623
-0.0011767042 0.53297591 -0.042293541
0.024358738 0.53461689 -0.04231555
0.048025753 0.53059202 -0.037836462
0.058804855 0.53150123 -0.043281768
0.091468334 0.52713966 -0.04392479
-0.00065130694 0.5402984 -0.034086373
-0.13566396 0.86276329 -0.049129728
-0.097796679 0.85762846 -0.043024711
-0.10762353 0.8672002 -0.036980942
-0.051371429 0.87666851 -0.039580211
-0.15132855 0.89006525 -0.047431402
-0.15230477 0.90812671 -0.044685237
-0.050492059 0.90217179 -0.045107353
-0.15043765 0.92782295 -0.049152367
-0.05047388 0.92910874 -0.045095675
-0.15877812 0.93483919 -0.039527982
-0.13399512 0.93843263 -0.03921333
-0.108859 0.93925077 -0.042125583
-0.084974661 0.93922716 -0.042387754
-0.066444814 0.94129914 -0.034535199
-0.044513661 0.94129914 -0.034535199
-0.072257861 -0.60293031 -0.016692989
-0.047277145 -0.60616499 -0.016932689
-0.022113306 -0.60942316 -0.017174114
-0.0062377639 -0.60372442 -0.018309213
0.011835912 -0.608284 -0.01737697
0.029758798 -0.60535645 -0.019478556
0.043660745 -0.60314232 -0.017020289
-0.11745173 -0.58685118 -0.032979999
-0.10855979 -0.59025455 -0.019121617
-0.075855881 -0.59472603 -0.018636633
-0.049198307 -0.59580487 -0.027711086
-0.04361381 -0.59913433 -0.018158607
0.023563942 -0.59864849 -0.020556983
0.06885089 -0.60072726 -0.017607629
0.10159633 -0.59709567 -0.018918432
0.13464211 -0.59261048 -0.019407682
-0.17515166 -0.57729053 -0.021063194
-0.14392301 -0.58265877 -0.024898343
0.1160524 -0.5848695 -0.030509878
0.14495729 -0.58042693 -0.024972424
0.16238332 -0.58426154 -0.031430487
0.18204102 -0.57760775 -0.018461537
-0.21212153 -0.55370921 -0.018851765
-0.1911734 -0.56262177 -0.020667475
0.1702455 -0.56820089 -0.032075033
0.22488649 -0.55723321 -0.021198366
0.23377375 -0.55653399 -0.025380623
-0.26116583 -0.54141998 -0.02226118
-0.24211663 -0.54393882 -0.022767514
-0.21705736 -0.55065852 -0.027078271
0.23122242 -0.54450995 -0.026173152
0.24556096 -0.53598112 -0.033499211
0.27370691 -0.53667599 -0.022194948
-0.25944665 -0.53212458 -0.027588595
0.30633295 -0.52749693 -0.017110292
-0.31179926 -0.5056017 -0.025530048
-0.29305065 -0.51595592 -0.018597085
0.30793816 -0.5126701 -0.029305544
0.33019039 -0.50647449 -0.027450465
0.31974578 -0.49379712 -0.021538023
0.34678161 -0.48365688 -0.026651181
-0.37308511 -0.46858233 -0.021876242
-0.33314264 -0.47992939 -0.025863878
0.3439188 -0.473773 -0.028657492
0.367814 -0.46637589 -0.024718489
0.38482776 -0.45523167 -0.024041049
0.40587813 -0.45061243 -0.018919207
0.39155477 -0.44176352 -0.018118247
0.39843383 -0.43301135 -0.02207135
-0.39882246 -0.4295702 -0.032719124
0.41178101 -0.41650492 -0.032724861
0.41918924 -0.42789447 -0.019450504
0.43121818 -0.42580163 -0.022150166
-0.42497179 -0.41445112 -0.023767833
-0.42139357 -0.40453386 -0.020077024
0.42491984 -0.3983044 -0.022953972
0.4361321 -0.40183085 -0.031226996
-0.43682694 -0.37720007 -0.03031271
0.45389056 -0.36852717 -0.024777733
-0.48329467 -0.35139239 -0.01664393
-0.46266398 -0.3584038 -0.021150365
0.47486433 -0.3517248 -0.030422583
-0.49801135 -0.33216995 -0.016842801
-0.46350738 -0.34287882 -0.017187279
0.47715062 -0.32987827 -0.024712916
0.4983471 -0.33540255 -0.016759463
-0.47686991 -0.32882595 -0.030919041
0.49415442 -0.32057148 -0.024426371
0.51196766 -0.31704634 -0.021289021
-0.51082951 -0.30883294 -0.017145623
-0.50188178 -0.31239694 -0.023789976
0.50909138 -0.30318171 -0.026998032
-0.5220325 -0.2817263 -0.017542142
-0.4968968 -0.28726822 -0.024342351
0.50424629 -0.28868711 -0.020938467
0.5204429 -0.28334081 -0.025228035
-0.52951175 -0.26192307 -0.025292054
-0.53336418 -0.25427973 -0.01794384
-0.51160729 -0.25786525 -0.027869076
0.53466171 -0.25971532 -0.017805457
-0.52978766 -0.24097283 -0.031177379
0.54268235 -0.23272942 -0.019676488
-0.54341859 -0.22160091 -0.019941401
0.52874535 -0.22227295 -0.025887493
-0.55489665 -0.19922312 -0.025867783
0.54598242 -0.20184232 -0.022875741
0.5576666 -0.20387609 -0.018623125
-0.54170507 -0.18857278 -0.021964554
0.55572551 -0.1872624 -0.033146419
-0.56518894 -0.16324912 -0.019345626
-0.54515034 -0.16429128 -0.02612998
0.54782379 -0.1614217 -0.024639077
0.56784558 -0.17203377 -0.01912507
-0.54944521 -0.1432485 -0.02761282
0.54912496 -0.14558765 -0.026105545
0.57342732 -0.12896137 -0.019903485
-0.57172132 -0.12247217 -0.019387223
-0.55201805 -0.12077063 -0.029490296
0.57485729 -0.12139836 -0.021714166
-0.56931376 -0.10147446 -0.032299597
-0.55458516 -0.098341942 -0.031363603
0.57350636 -0.097935647 -0.018718965
-0.57659429 -0.076004207 -0.020921089
