ply
format ascii 1.0
comment PCL generated
element vertex 845
property float x
property float y
property float z
element camera 1
property float view_px
property float view_py
property float view_pz
property float x_axisx
property float x_axisy
property float x_axisz
property float y_axisx
property float y_axisy
property float y_axisz
property float z_axisx
property float z_axisy
property float z_axisz
property float focal
property float scalex
property float scaley
property float centerx
property float centery
property int viewportx
property int viewporty
property float k1
property float k2
end_header
-0.21202208 -0.42919561 -0.61885685
-0.19543445 -0.41238064 -0.62131733
-0.21329421 -0.44789267 -0.60783994
-0.19661598 -0.43096289 -0.61035377
-0.21238801 -0.41350737 -0.61568779
-0.17998081 -0.41408041 -0.6128248
-0.16440187 -0.41579199 -0.60427314
-0.19702765 -0.39892209 -0.60653418
-0.17964245 -0.39706084 -0.61620587
-0.16338333 -0.3972353 -0.61529911
-0.14792278 -0.3992565 -0.60479671
-0.21457635 -0.46677876 -0.59673625
-0.2307678 -0.44975877 -0.59918231
-0.19781187 -0.44974259 -0.59925759
-0.1822053 -0.45160946 -0.59059626
-0.23138388 -0.43432444 -0.5941807
-0.18108679 -0.43274641 -0.60177296
-0.1654319 -0.4345443 -0.59312266
-0.14869791 -0.41751936 -0.59564304
-0.21457201 -0.4008005 -0.59677392
-0.20023625 -0.48788437 -0.57676214
-0.1990172 -0.46871269 -0.58807343
-0.18333365 -0.47066653 -0.57932127
-0.16647188 -0.45349148 -0.58186466
-0.14964896 -0.43635496 -0.5844115
-0.13373666 -0.4381783 -0.57563889
-0.232004 -0.41881973 -0.5891459
-0.13286574 -0.41925874 -0.58695251
-0.23262586 -0.40324017 -0.58409703
-0.21679413 -0.38786346 -0.57752955
-0.19907963 -0.38602254 -0.58749413
-0.18256615 -0.38611552 -0.58699048
-0.16704164 -0.3882021 -0.57569671
-0.18447484 -0.48992687 -0.56791747
-0.16752192 -0.47263637 -0.57049739
-0.15158132 -0.47462451 -0.56159163
-0.15061007 -0.45538896 -0.57306159
-0.13461827 -0.45730194 -0.56418645
-0.23466988 -0.38971618 -0.56750149
-0.168584 -0.49198627 -0.55900013
-0.25282097 -0.4253439 -0.55654919
-0.25349933 -0.40953931 -0.55136544
-0.23709963 -0.37649116 -0.54777443
-0.21904866 -0.37467989 -0.5580048
-0.20232302 -0.37478697 -0.55739939
-0.25418091 -0.39365965 -0.54615712
-0.25517625 -0.37812412 -0.53855145
-0.18667522 -0.37681767 -0.54593015
-0.25743592 -0.36410767 -0.52128464
-0.23929729 -0.36264324 -0.52993178
-0.22211345 -0.36238396 -0.53146309
-0.20630114 -0.36424279 -0.52048695
-0.27651277 -0.38374105 -0.50682688
-0.25973263 -0.34987128 -0.50373435
-0.24144576 -0.34845608 -0.51248807
-0.22526203 -0.34979671 -0.50419563
-0.27726421 -0.36747456 -0.50140417
-0.27816814 -0.35130256 -0.49488056
-0.28065845 -0.33679271 -0.47690815
-0.26207009 -0.33541259 -0.48587281
-0.24450336 -0.33513683 -0.48766351
-0.22849055 -0.33689624 -0.47623575
-0.30047181 -0.35685855 -0.46051174
-0.21254794 -0.35653332 -0.46252382
-0.28306922 -0.3219223 -0.45950985
-0.26444659 -0.32072246 -0.467713
-0.24799861 -0.32195503 -0.4592858
-0.30130136 -0.34019035 -0.45483994
-0.30212566 -0.32342955 -0.44920433
-0.28506783 -0.30637169 -0.44508636
-0.26673785 -0.30566263 -0.45020467
-0.23340203 -0.32569709 -0.43370122
-0.30379918 -0.30738658 -0.43776238
-0.25047165 -0.30718637 -0.43920696
-0.28711155 -0.29064178 -0.43033701
-0.2688562 -0.29016009 -0.43401742
-0.23469542 -0.30950147 -0.42249984
-0.3059848 -0.29162553 -0.42281926
-0.25243315 -0.29156509 -0.42328161
-0.27100331 -0.27443555 -0.41761076
-0.32545802 -0.32884827 -0.41215652
-0.3263464 -0.31173423 -0.40638608
-0.32676125 -0.29412869 -0.40369189
-0.23600148 -0.2931475 -0.41118932
-0.32693881 -0.276292 -0.4025383
-0.30801633 -0.27550486 -0.40892947
-0.28919557 -0.27472052 -0.41529685
-0.25439176 -0.27569568 -0.40737969
-0.29089049 -0.2582435 -0.40306479
-0.27296108 -0.25829133 -0.40265036
-0.23763321 -0.27696696 -0.39705801
-0.32871565 -0.25963697 -0.39099753
-0.30976257 -0.25894493 -0.39699048
-0.25621593 -0.25945541 -0.39256936
-0.29276812 -0.24172021 -0.38951445
-0.27483886 -0.2418509 -0.38830149
-0.22135381 -0.31527737 -0.38081533
-0.34910727 -0.29766408 -0.37667656
-0.34924802 -0.27958453 -0.3758058
-0.34940004 -0.26149973 -0.37486547
-0.23923226 -0.26053616 -0.38320976
-0.34973782 -0.24352415 -0.37277597
-0.33056468 -0.24285467 -0.37898785
-0.31146026 -0.24216549 -0.38538319
-0.25799859 -0.24295081 -0.37809587
-0.31313959 -0.22519481 -0.37390149
-0.29500148 -0.22524525 -0.3733964
-0.27686763 -0.22530513 -0.37279892
-0.35025498 -0.31683463 -0.36957699
-0.22255631 -0.29858264 -0.3696577
-0.22367375 -0.28161883 -0.35928935
-0.24078514 -0.24384908 -0.36976141
-0.35160083 -0.22646056 -0.36125195
-0.33233845 -0.22583871 -0.36746663
-0.25966364 -0.22612792 -0.36457741
-0.31486252 -0.20807481 -0.36212176
-0.29669228 -0.20816042 -0.3611939
-0.27852005 -0.20825477 -0.36017233
-0.37234393 -0.28315002 -0.3468582
-0.37247127 -0.26482049 -0.34610647
-0.22479846 -0.26450324 -0.34885317
-0.37254295 -0.246444 -0.34568334
-0.37251309 -0.22800104 -0.34585959
-0.24235584 -0.22697037 -0.35615861
-0.37283984 -0.20975527 -0.34393036
-0.35337976 -0.20917164 -0.35024762
-0.3340238 -0.20859224 -0.35651982
-0.26107997 -0.20891014 -0.35307831
-0.24362113 -0.20963784 -0.34520108
-0.33522585 -0.19091144 -0.3487125
-0.31641611 -0.19067532 -0.35149997
-0.29808578 -0.19070607 -0.35113722
-0.2798495 -0.19080131 -0.35001338
-0.2258337 -0.24713756 -0.33924729
-0.22636725 -0.22915819 -0.33429658
-0.37473077 -0.19226192 -0.33276463
-0.24490629 -0.19215125 -0.33407116
-0.35511979 -0.19169292 -0.33948362
-0.26242581 -0.19146696 -0.34215134
-0.35639623 -0.17382771 -0.33158767
-0.33657214 -0.17318256 -0.33996791
-0.31798536 -0.17312072 -0.34077096
-0.29949111 -0.17310345 -0.34099531
-0.28128317 -0.17325261 -0.3390581
-0.26378846 -0.17386608 -0.33108813
-0.33824 -0.15546368 -0.329135
-0.31956702 -0.15540676 -0.32995695
-0.30090842 -0.15535063 -0.3307668
-0.39593595 -0.26810917 -0.31762606
-0.39601263 -0.24951448 -0.31719279
-0.39607233 -0.23090348 -0.31685579
-0.39582729 -0.21212845 -0.31823957
-0.22715624 -0.21132144 -0.3269757
-0.39558047 -0.19337375 -0.31963396
-0.22807442 -0.19347352 -0.31845605
-0.39639449 -0.17510179 -0.3150363
-0.3765156 -0.17454833 -0.32222599
-0.24620487 -0.17450221 -0.32282519
-0.37787008 -0.15649652 -0.314228
-0.35767919 -0.15584363 -0.32365155
-0.28273159 -0.15554306 -0.32799011
-0.26517555 -0.15610862 -0.31982625
-0.35897058 -0.13774066 -0.3156631
-0.33992115 -0.1375834 -0.31821555
-0.32116476 -0.1375331 -0.31903321
-0.30242103 -0.13748275 -0.31985021
-0.28419501 -0.1376701 -0.31680769
-0.38036817 -0.30776685 -0.29947758
-0.21112378 -0.23242769 -0.30162549
-0.22899781 -0.17549804 -0.30988824
-0.39822128 -0.15715538 -0.30471838
-0.24751423 -0.1566865 -0.31148577
-0.22992904 -0.15739581 -0.30124742
-0.37923563 -0.13832556 -0.3061648
-0.26657718 -0.13818504 -0.30844617
-0.36060622 -0.11962934 -0.30554509
-0.34182885 -0.11961432 -0.30582452
-0.32305759 -0.11959992 -0.3060919
-0.30429044 -0.11958548 -0.30635917
-0.28593311 -0.11973818 -0.30352592
-0.21253385 -0.27158374 -0.28753501
-0.42004782 -0.2526589 -0.28801596
-0.21169738 -0.25180998 -0.29589367
-0.42012754 -0.23383287 -0.28758436
-0.41994762 -0.21487027 -0.2885583
-0.21163489 -0.21413496 -0.29651815
-0.41968593 -0.19588527 -0.28997469
-0.21250546 -0.19606778 -0.28781879
-0.41942227 -0.17692114 -0.29140186
-0.41916117 -0.15798001 -0.29281503
-0.39965802 -0.13891441 -0.29660374
-0.24897419 -0.13877654 -0.29884225
-0.23127796 -0.13939917 -0.28873086
-0.38199627 -0.1204744 -0.289864
-0.26839209 -0.12026705 -0.29371119
-0.21327794 -0.17779124 -0.28009987
-0.21388417 -0.15928066 -0.27404177
-0.42076191 -0.13968131 -0.28415084
-0.40395984 -0.12142038 -0.27230728
-0.25073773 -0.12081356 -0.28356946
-0.23293631 -0.12136462 -0.27334344
-0.36504695 -0.10216382 -0.27807546
-0.3452915 -0.10192087 -0.28333437
-0.32634634 -0.10190832 -0.28360665
-0.3073934 -0.10189174 -0.28396535
-0.28839257 -0.10185625 -0.2847321
-0.27051398 -0.1022374 -0.27648354
-0.44475418 -0.23682496 -0.25768554
-0.44466668 -0.21768026 -0.25814021
-0.44438729 -0.19845799 -0.25959194
-0.1963634 -0.19856918 -0.2582792
-0.21449342 -0.1406787 -0.26795399
-0.21510443 -0.12198399 -0.26184845
-0.38699484 -0.10298265 -0.2603488
-0.25265378 -0.10267651 -0.266976
-0.2346565 -0.1031196 -0.25738204
-0.34881672 -0.08389692 -0.26043713
-0.3296946 -0.083886229 -0.26071453
-0.31052434 -0.083860993 -0.26136971
-0.29134938 -0.083831474 -0.26213789
-0.27272975 -0.083971672 -0.2584939
-0.40712664 -0.29453531 -0.25442111
-0.19716541 -0.21846935 -0.24959731
-0.19693302 -0.17994562 -0.25211298
-0.19750544 -0.16122933 -0.24591625
-0.4089489 -0.10373171 -0.24412906
-0.21655849 -0.1035845 -0.24731851
-0.36986253 -0.084364638 -0.2482866
-0.25474715 -0.084342949 -0.24884677
-0.19890797 -0.25883237 -0.23073375
-0.19803339 -0.23857473 -0.240201
-0.44862518 -0.18106507 -0.23757136
-0.19808076 -0.14241943 -0.2396884
-0.19865775 -0.12351473 -0.23344219
-0.19922566 -0.10450932 -0.22729421
-0.39183548 -0.085000418 -0.2317661
-0.23662557 -0.084717743 -0.23911142
-0.21836431 -0.085096382 -0.2292738
-0.35256469 -0.065564878 -0.23609352
-0.3330833 -0.065520167 -0.23754561
-0.31371522 -0.065495715 -0.23834145
-0.29436111 -0.06547156 -0.23912418
-0.27501914 -0.065447494 -0.23990643
-0.25687596 -0.065739915 -0.2304107
-0.43366835 -0.28004107 -0.21429276
-0.18116841 -0.18301922 -0.21218491
-0.18092124 -0.16336399 -0.21510363
-0.41401163 -0.085625209 -0.21553493
-0.19989981 -0.085453466 -0.21999657
-0.37455168 -0.066082634 -0.21928
-0.23863508 -0.066046186 -0.2204653
-0.33664131 -0.046824206 -0.21321952
-0.31711823 -0.046811219 -0.21378243
-0.29760557 -0.046798494 -0.21433187
-0.27809981 -0.046785511 -0.21489441
-0.22119935 -0.30112192 -0.20094442
-0.18198709 -0.203291 -0.20251656
-0.18145618 -0.14432259 -0.20878625
-0.18192448 -0.12514129 -0.20325577
-0.18239596 -0.10587668 -0.19768798
-0.39672872 -0.066587873 -0.20287311
-0.22024767 -0.066354409 -0.21045387
-0.20162924 -0.066637047 -0.20127487
-0.35758582 -0.047049101 -0.20348012
-0.25904709 -0.046861429 -0.21160805
-0.24067764 -0.047094505 -0.20151281
-0.18281204 -0.2237184 -0.19277418
-0.43697131 -0.12550993 -0.19641483
-0.18281204 -0.086501174 -0.1927743
-0.18317094 -0.06702932 -0.18853593
-0.38009879 -0.047476653 -0.18496644
-0.22215952 -0.047329273 -0.19134974
-0.34084612 -0.027821753 -0.18447089
-0.32074046 -0.027772885 -0.18764114
-0.30098841 -0.027760033 -0.18848252
-0.28128222 -0.0277512 -0.18905652
-0.26158488 -0.027742285 -0.18963027
-0.16438532 -0.14624925 -0.17750108
-0.16472591 -0.12676758 -0.17307663
-0.20338334 -0.04753859 -0.18228614
-0.18441479 -0.047733493 -0.17384672
-0.2427512 -0.027855601 -0.18227267
-0.2241018 -0.028014664 -0.17194104
-0.16596943 -0.1872734 -0.15692282
-0.16517526 -0.16668011 -0.16723955
-0.1651648 -0.10727689 -0.16737533
-0.16556157 -0.0876773 -0.16222095
-0.16589575 -0.067973234 -0.15788031
-0.40294287 -0.047910478 -0.16618037
-0.36327204 -0.028097637 -0.1665473
-0.20516516 -0.028152306 -0.16299748
-0.18605895 -0.028284274 -0.15443003
-0.32450843 -0.008340287 -0.16044819
-0.30451968 -0.0083321938 -0.16149855
-0.28454554 -0.0083240131 -0.16256154
-0.26462871 -0.0083186468 -0.16326976
-0.2448564 -0.0083227148 -0.16273868
-0.18653947 -0.24772598 -0.14875555
-0.16677001 -0.20803249 -0.146523
-0.16623101 -0.048202768 -0.15352499
-0.38615745 -0.028391141 -0.14748824
-0.16682525 -0.028417025 -0.14580548
-0.34633997 -0.0084444704 -0.14690912
-0.22607253 -0.0084034381 -0.15224838
-0.20697276 -0.0084712626 -0.1434294
-0.14768153 -0.12887511 -0.13396549
-0.14751668 -0.10871007 -0.13634491
-0.14789213 -0.088881783 -0.13092566
-0.14820023 -0.068940133 -0.12647891
-0.3691285 -0.0085861357 -0.12850833
-0.18772702 -0.0085382638 -0.13473117
-0.1683896 -0.0086094653 -0.12548387
-0.32918239 0.011511031 -0.12671685
-0.30815199 0.011511031 -0.13374257
-0.28796306 0.011510987 -0.13481474
-0.24763651 0.011510987 -0.13694239
-0.22806539 0.011511031 -0.13233495
-0.26778913 0.011511073 -0.1358999
-0.14915828 -0.17046219 -0.11265051
-0.14841689 -0.14958404 -0.12335134
-0.14849962 -0.048927195 -0.12215734
-0.1486185 -0.02880761 -0.12044156
-0.14893885 -0.008683824 -0.11581767
-0.20882493 0.011511031 -0.12337935
-0.18950811 0.011511031 -0.11369753
-0.14990377 -0.19150981 -0.10189009
-0.12969844 -0.090059817 -0.10031927
-0.12980588 -0.069799431 -0.098574638
-0.12991257 -0.049511861 -0.09684217
-0.39239886 -0.00873728 -0.10887945
-0.35199994 0.011510987 -0.10821176
-0.17004667 0.011511031 -0.10395813
-0.31186339 0.031786218 -0.10538232
-0.29145324 0.031777691 -0.10647786
-0.27105844 0.03176925 -0.10758674
-0.25081554 0.031770334 -0.10744464
-0.23058753 0.0317728 -0.10713196
-0.21080606 0.031812795 -0.101933
-0.17162424 -0.23381601 -0.083464742
-0.13029462 -0.1108212 -0.090638399
-0.13002029 -0.029197764 -0.095093131
-0.13012815 -0.0088567836 -0.093341827
-0.37515849 0.011510987 -0.089342117
-0.1504413 0.011510987 -0.094131589
-0.13068919 0.011510987 -0.084231734
-0.33462691 0.031924423 -0.087424397
-0.19134741 0.03188945 -0.091976404
-0.17173237 0.031965714 -0.082060099
-0.13174438 -0.15304828 -0.067097306
-0.13101675 -0.13184172 -0.078912616
-0.11085229 -0.070584543 -0.073076367
-0.1109632 -0.050108172 -0.071017981
-0.11105929 -0.029595923 -0.06923461
-0.11115552 -0.0090561891 -0.067448735
-0.35782924 0.032071192 -0.068356633
-0.15196981 0.032042712 -0.072069526
-0.29557985 0.052560415 -0.072974205
-0.27504337 0.052558772 -0.073076367
-0.25455406 0.052563749 -0.072755456
-0.23406132 0.052568857 -0.072419643
-0.21356606 0.052574527 -0.072054982
-0.19316666 0.052598592 -0.070492029
-0.11191727 -0.11254512 -0.05331254
-0.11127323 -0.091409117 -0.065264463
-0.1112511 0.011510987 -0.065675139
-0.13205808 0.032120191 -0.062003374
-0.17341001 0.052755967 -0.060266733
-0.13330561 -0.17537464 -0.041745901
-0.11256631 -0.1338703 -0.04126811
-0.091885224 -0.071622424 -0.039369941
-0.091612935 -0.050702881 -0.045265079
-0.091710001 -0.029997375 -0.043163657
-0.091807216 -0.009259359 -0.041058898
-0.091891438 0.011511073 -0.039235353
-0.11199549 0.032198142 -0.051860929
-0.31914699 0.052918322 -0.049725413
-0.15350142 0.052914642 -0.049962759
-0.13343997 0.053074747 -0.039564133
-0.09244664 -0.092873558 -0.027215004
-0.091975793 0.032309424 -0.037409067
-0.34312877 0.053282548 -0.026067376
-0.11322197 0.053235762 -0.02910018
-0.28055 0.074184045 -0.025387526
-0.25839409 0.073912963 -0.037124515
-0.23762797 0.073920883 -0.036779642
-0.21685512 0.073928416 -0.036449909
-0.19608863 0.073939234 -0.03598547
-0.1753173 0.073950663 -0.035490513
-0.1550356 0.074127771 -0.027818441
-0.15607922 -0.21935961 -0.012755394
-0.11376488 -0.15600879 -0.019025326
-0.093013838 -0.11431773 -0.014934897
-0.072118044 -0.051448822 -0.012968779
-0.071967974 -0.030402198 -0.016867518
-0.072050571 -0.0094620986 -0.014721513
-0.072133899 0.011510987 -0.012556911
-0.072216168 0.032517225 -0.010419488
-0.092839628 0.053395819 -0.018706322
-0.13481338 0.074371673 -0.017262936
-0.093892857 -0.13631478 0.0040967464
-0.072594509 -0.072816603 -0.00058972836
-0.07230033 0.053557094 -0.0082325935
-0.3044081 0.074740402 -0.0012975931
-0.11443309 0.074617349 -0.0066246986
-0.093892857 0.074864887 0.0040967464
-0.24129121 0.095851384 -0.00017416477
-0.22023742 0.095861815 0.00016462803
-0.19918102 0.095873199 0.00053417683
-0.17813081 0.0958893 0.0010581017
-0.15707146 0.095904969 0.0015665293
-0.13620968 0.096023351 0.0054100752
-0.13652346 -0.20016195 0.010504961
-0.07307592 -0.094379805 0.011917591
-0.051960919 -0.030876882 0.013969183
-0.051904444 -0.0096688168 0.012135029
-0.051971938 0.011511031 0.01432693
-0.052040022 0.032724809 0.016538143
-0.052107733 0.053972263 0.018737078
-0.073191419 0.075114846 0.014918327
-0.11566447 0.096356325 0.016226411
-0.073679522 -0.11628234 0.027599573
-0.052349199 -0.052362092 0.026578903
-0.05228303 0.075334415 0.024430037
-0.26497391 0.096593559 0.023928642
-0.094957381 0.096692637 0.027144074
-0.11667027 -0.18068421 0.034891844
-0.052741539 -0.074045449 0.039320588
-0.031401116 -0.009894277 0.041429043
-0.031364497 0.011511031 0.03984344
-0.031356078 0.032901406 0.039479017
-0.031347666 0.054286066 0.039114714
-0.031339984 0.075665966 0.038782001
-0.074008852 0.096970037 0.036155701
-0.052911628 0.097237565 0.044844389
-0.20236482 0.11841088 0.038133025
-0.18102017 0.11842858 0.0385921
-0.15967396 0.1184494 0.039130449
-0.13831949 0.11847 0.039669037
-0.1169533 0.11848839 0.040144563
-0.095920533 0.11879055 0.047997236
-0.096461773 -0.16085795 0.059715152
-0.053137999 -0.095930114 0.052196026
-0.031698178 -0.03149765 0.054292202
-0.010281749 0.011510987 0.060004592
-0.010276057 0.033056576 0.059634805
-0.010270368 0.054596361 0.059265018
-0.010265417 0.076131478 0.058943748
-0.28924295 0.097393125 0.049895525
-0.031683754 0.097509295 0.053667903
-0.010323875 0.097788692 0.062740564
-0.22480778 0.11885388 0.049640059
-0.074801907 0.11912794 0.05676043
-0.03199837 -0.053302243 0.067291021
-0.010428052 -0.010110476 0.069507003
-0.24892376 0.11987194 0.076094627
-0.053550083 0.11946729 0.065578818
-0.0321634 0.11980814 0.074436784
-0.18399104 0.14159451 0.077184916
-0.16232851 0.14160654 0.077445388
-0.14065993 0.1416171 0.077673316
-0.11898784 0.14162762 0.077901363
-0.097311527 0.14163744 0.078112841
-0.075888351 -0.14067353 0.084986687
-0.032300998 -0.075310268 0.080394983
-0.010632638 -0.031936582 0.082795143
0.011080327 0.011511073 0.084201455
0.011112014 0.033213995 0.080085158
0.011114901 0.054910984 0.079710007
0.011117412 0.076603606 0.07938385
0.011119545 0.098292544 0.079106688
-0.010644466 0.12015947 0.083563447
0.011014016 0.1205156 0.092815399
-0.075632557 0.14164792 0.078341126
-0.054197613 0.1420299 0.086607933
-0.010839418 -0.053970575 0.096226215
0.010976959 -0.010326934 0.09762907
0.032814939 0.033373665 0.10083652
0.032814939 0.055230502 0.10045576
0.032814939 0.077083007 0.10014153
0.032814939 0.098931573 0.099860311
0.032814939 0.12087476 0.1021446
-0.20788625 0.14280249 0.10333788
-0.032652508 0.14244597 0.095615983
-0.010969598 0.14286453 0.10468149
-0.054940026 -0.12012142 0.11071861
0.010872345 -0.032374259 0.11121881
0.032814939 0.011510944 0.11263669
0.05483675 0.055554692 0.12150931
0.054834291 0.07756912 0.12119043
0.054832093 0.099579655 0.12090492
0.054829895 0.12158577 0.12061954
0.010850249 0.14329916 0.11408925
-0.14304468 0.16538814 0.11639655
-0.12107575 0.16540164 0.1166476
-0.099102959 0.16541526 0.11689866
-0.077125654 0.16542795 0.11713302
-0.055144247 0.16543955 0.1173507
-0.033159863 0.16545215 0.11758518
-0.033271823 -0.098633617 0.12243319
-0.011294968 -0.076708741 0.12581468
0.010735322 -0.054727852 0.12901866
0.032814939 -0.010548241 0.12637067
0.054885071 0.033581078 0.12778676
-0.23244803 0.14414245 0.13234818
0.032814939 0.14373654 0.12355947
0.054925788 0.14417608 0.13307583
-0.011302486 0.16592203 0.12630332
0.010684002 0.16642748 0.13568532
0.032814939 -0.032821286 0.14025486
0.054991927 0.011510944 0.1416676
0.077190951 0.055887103 0.14309883
0.077182546 0.078062415 0.14255345
0.077164456 0.10021003 0.14137816
0.077134326 0.12230946 0.13942122
0.077156596 0.14453594 0.14086747
-0.16705562 0.16696593 0.14567542
0.032814939 0.16694568 0.14529979
0.055100083 -0.01077422 0.15571797
0.077407219 0.033807103 0.15714598
0.099894717 0.056230813 0.16543221
0.099727213 0.078423306 0.15817916
0.099681094 0.10066588 0.15618229
0.09963505 0.12287794 0.15418816
0.099589065 0.14505936 0.15219676
0.055082358 0.167383 0.15341532
0.077465601 0.16778834 0.16093791
-0.10101996 0.1899576 0.15840316
-0.078657135 0.18986635 0.15692222
-0.056370679 0.18988229 0.15718043
-0.034080241 0.18989809 0.15743864
-0.011785824 0.18991409 0.15769684
0.01051257 0.18992993 0.15795517
-0.011987966 -0.10049617 0.17082644
0.010386702 -0.07820192 0.17430604
0.032814939 -0.055851825 0.17768908
0.077625871 0.011510987 0.17134798
0.10022137 0.0339798 0.17957616
0.12248392 0.078762732 0.17287838
0.12242985 0.10112594 0.17112195
0.12236781 0.12345209 0.16910732
0.12230586 0.14574742 0.16709507
-0.19156538 0.16857716 0.17557824
0.099965975 0.16819681 0.16851723
0.12258424 0.16860718 0.17613614
0.032814939 0.19042884 0.16605568
0.055238217 0.19089723 0.17366171
0.05529438 -0.033447936 0.18095767
0.077846408 -0.011004661 0.18567216
0.10055079 0.011510987 0.1938405
0.12284924 0.05652808 0.18474233
0.14555804 0.079156913 0.18994439
0.14540848 0.10158582 0.18605864
0.1453369 0.12403295 0.1841985
0.14525865 0.1464435 0.18216562
0.14532137 0.16901992 0.18379509
-0.12498748 0.19185655 0.18924022
0.077779219 0.19136812 0.18130755
0.10043886 0.19184148 0.18899393
0.12329003 0.03412969 0.19905734
0.14611101 0.05682946 0.20431054
0.16861437 0.10204402 0.20093656
0.16854231 0.12461714 0.19937623
0.16844988 0.1471459 0.19737542
0.16835515 0.1696412 0.19532394
0.12321754 0.19231619 0.19670296
0.14611717 0.19279455 0.20447052
-0.057752986 0.21528876 0.20207214
-0.035025019 0.21503097 0.19834888
-0.012417428 0.21505667 0.19872081
0.010192618 0.21511182 0.19951808
0.032814939 0.21516722 0.20031571
0.055449679 0.2152237 0.20113146
0.078099176 0.21529005 0.20208979
0.10090156 0.21577093 0.20902956
0.10111187 -0.011254619 0.21813631
0.12373516 0.011510944 0.21351337
0.14666942 0.034281917 0.21881831
0.1690129 0.079609871 0.20956481
0.19205655 0.10250615 0.21594846
0.19197161 0.12519442 0.21437228
0.19188388 0.14785592 0.21274412
0.19177219 0.1704683 0.21067142
-0.14943185 0.1937578 0.22011173
0.16913828 0.19327545 0.21227944
0.19228186 0.19375889 0.22012985
0.12383996 0.2163173 0.21691632
0.055656821 -0.057014666 0.22803998
0.078490362 -0.034164444 0.22749817
0.16968621 0.057134822 0.22414267
0.19278505 0.080069751 0.22946799
0.21596706 0.10308701 0.23481238
0.21564128 0.12577747 0.22952235
0.21554331 0.14855723 0.22793162
0.21543658 0.17130497 0.2261982
0.21554777 0.19424391 0.22800386
-0.08161813 0.21749057 0.23385108
0.14690071 0.21686535 0.22482753
0.17008604 0.21741764 0.23279905
0.12479517 -0.011483976 0.24793768
0.14742491 0.011510944 0.23844683
0.17036539 0.034436133 0.23884714
0.19358028 0.057443906 0.24422538
0.21688031 0.080535524 0.24964166
0.23955628 0.12636729 0.24484658
0.23944493 0.1492644 0.2432394
0.23933372 0.17213669 0.24163401
0.23920368 0.19496773 0.23975742
0.19339547 0.21797161 0.24079573
0.21683064 0.21852872 0.24883521
0.0098611079 0.24104929 0.24258256
0.032814939 0.24111244 0.24340379
0.055781417 0.24117573 0.24422538
0.078760549 0.24123918 0.24504769
0.10175321 0.24130522 0.24590695
0.12476304 0.24138114 0.24689448
0.14778741 0.2414559 0.24786448
0.10202113 -0.034626361 0.25750792
0.19438346 0.03459217 0.2591306
0.21780157 0.057757534 0.26460099
0.24026382 0.10371045 0.255059
0.26373225 0.12696971 0.26049626
0.26359302 0.14997777 0.25868785
0.26346818 0.17296815 0.25706577
0.26334342 0.19593373 0.25544548
0.24039391 0.21909 0.25693679
0.26408386 0.21965303 0.26506376
0.17102417 0.24185972 0.25311017
0.19449687 0.24248508 0.261235
0.14896639 -0.011719306 0.27849555
0.1717433 0.011510987 0.26867962
0.241304 0.081007302 0.27007282
0.26489365 0.10434248 0.27558327
0.28856829 0.12776253 0.28109527
0.2879926 0.15069878 0.27429712
0.28776872 0.17375422 0.27165318
0.28754368 0.19676818 0.2689954
0.31166476 0.19741085 0.27943027
0.28773567 0.22008249 0.27126265
0.31143522 0.22047623 0.27694547
-0.01358157 0.24349353 0.27433419
0.21809621 0.24311264 0.26938534
0.24182542 0.24374482 0.27759874
0.21934684 0.034827501 0.289693
0.24235596 0.058075707 0.28525651
0.26606536 0.081486098 0.29080403
0.31312326 0.12830611 0.29521883
0.3121579 0.15118243 0.28476858
0.33648983 0.15166871 0.2952944
0.31191024 0.17431651 0.28208768
0.33622158 0.17488369 0.29261363
0.33595189 0.19805676 0.28991878
0.33569774 0.22119905 0.28737915
0.26558775 0.24428378 0.28459966
0.28934255 0.24471791 0.29023886
0.31318435 0.24515218 0.2958802
0.10277875 0.26804495 0.2903142
0.12612613 0.26811662 0.29116189
0.14948873 0.2681933 0.29206681
0.17287053 0.26827967 0.29308534
0.19626705 0.26836434 0.29408574
0.21968016 0.26845071 0.29510546
0.19659123 0.011510987 0.3001014
0.28986186 0.10498254 0.29637182
0.31451067 0.10540961 0.31023824
0.33784217 0.12882923 0.30880761
0.36115181 0.15222676 0.30737877
0.36070085 0.17545398 0.3031944
0.36040837 0.19870725 0.30048048
0.36013481 0.22193101 0.29794204
0.38474303 0.22266774 0.30857897
0.33711702 0.24558946 0.30156171
0.36115181 0.24603739 0.30737865
0.079672746 0.26922908 0.30429637
0.24324401 0.26870203 0.29807472
0.26706156 0.26918235 0.30374515
0.29096982 0.26966587 0.30945599
0.17370072 -0.011970087 0.31105888
0.24490426 0.035076421 0.32203805
0.26762018 0.058472052 0.31100178
0.29115731 0.081967928 0.31167006
0.33935878 0.10583223 0.32396245
0.36278349 0.12935689 0.32251906
0.38618618 0.1528596 0.32107699
0.38535154 0.17602806 0.31384909
0.41017792 0.17660722 0.32459784
0.38503823 0.19936338 0.31113541
0.40983897 0.20002289 0.32184589
0.40952659 0.22341143 0.31930983
0.38527867 0.24648681 0.313218
0.40949824 0.24693795 0.31907964
0.3149662 0.27014968 0.31516922
0.33905461 0.27063692 0.32092333
0.22202221 0.011511031 0.33313549
0.31591192 0.082285151 0.32540703
0.3644315 0.10625856 0.3378104
0.38795021 0.12988944 0.33635402
0.41144666 0.15349782 0.33489895
0.43517715 0.17718963 0.3354032
0.43481448 0.20068724 0.33263183
0.43448281 0.22415875 0.33009732
0.43415672 0.24759437 0.32760584
0.45926794 0.2484293 0.33845186
0.3632319 0.27112433 0.32667959
0.38750252 0.27161524 0.33247685
0.41187951 0.27211788 0.33841288
0.1749776 0.29583624 0.33870459
0.19872482 0.295928 0.33969617
0.29358318 0.058923449 0.34031892
0.34110472 0.082654655 0.34140897
0.38973197 0.1066888 0.35178435
0.41334543 0.13042676 0.35031486
0.43693644 0.15414208 0.34884655
0.46050501 0.17783494 0.34737957
0.45996931 0.20135748 0.34351349
0.45961836 0.22491266 0.34098065
0.48492992 0.22567062 0.35192156
0.48455742 0.24927016 0.34937489
0.056529388 0.27236992 0.34138954
0.43635085 0.2726225 0.34437191
0.46091717 0.27312902 0.35035396
0.22246458 0.29598543 0.34031892
0.2461964 0.29601958 0.34068871
0.26993394 0.29605386 0.34105849
0.29367551 0.2960861 0.34140897
0.3174243 0.29612035 0.34177887
0.3411788 0.29615456 0.34214926
0.36535326 0.29654387 0.34636331
0.38978177 0.29708445 0.35221589
0.27104974 0.035334472 0.35555351
0.31915313 0.059234094 0.36049414
0.36700156 0.083122373 0.36165774
0.41526085 0.10712241 0.36586607
0.4389722 0.13096906 0.36440277
0.46265852 0.15479214 0.36292112
0.48632219 0.17859265 0.36144066
0.48530015 0.20203096 0.35445309
0.51081747 0.20271206 0.36551011
0.51042193 0.22643414 0.36294091
0.51003009 0.25011861 0.36039567
0.48557895 0.27363741 0.35635924
0.51033682 0.27414805 0.3623879
0.41430557 0.29762897 0.35811031
0.43892306 0.2981756 0.36402726
0.29690927 0.035519551 0.37959766
0.34506029 0.059548717 0.38093555
0.39324111 0.083596148 0.38217461
0.4413895 0.10764626 0.38287461
0.46483102 0.13151555 0.37859976
0.48861322 0.15544727 0.3771044
0.51237565 0.17935725 0.37563074
0.53660482 0.20343095 0.37718427
0.53642774 0.22734506 0.37608862
0.53624749 0.25124085 0.37497365
0.53609955 0.27513632 0.37405872
0.15263084 0.29906911 0.37370062
0.4636513 0.2987352 0.37008595
0.48847628 0.29929703 0.37616837
0.49093047 0.13206767 0.39294755
0.51480949 0.15610938 0.3914386
0.53889287 0.18020362 0.39133811
0.56364655 0.25279799 0.39520395
0.56286246 0.27653468 0.3905741
0.51359564 0.29997942 0.3835547
0.29757178 0.32440549 0.38742161
0.32167578 0.32444355 0.38780248
0.34578568 0.32448182 0.38818407
0.36990145 0.32451984 0.3885653
0.3940208 0.32455593 0.38892674
0.41814819 0.32459435 0.38930821
0.44228145 0.32463238 0.38968992
0.46643454 0.32468072 0.39017212
0.49141383 0.32528928 0.39625263
0.37131143 0.059867624 0.40164816
0.4198302 0.08407633 0.40296459
0.46830258 0.10828608 0.4036535
0.51727116 0.13262506 0.40742815
0.5416944 0.15690506 0.40866792
0.56479621 0.20495866 0.40199232
0.56419343 0.22889313 0.39843297
0.58990723 0.27794641 0.4072454
0.54109031 0.30195412 0.40493107
0.27449223 0.3256914 0.40027249
0.39791581 0.06019121 0.42265844
0.44677314 0.084562488 0.42401302
0.49557927 0.10893515 0.42473185
0.56775123 0.18171799 0.41944098
0.59210277 0.23036276 0.41964555
0.59083676 0.2541292 0.41249526
0.56868553 0.30380413 0.42495763
0.51811099 0.32695344 0.41288269
0.54599047 0.13369563 0.43524289
0.57074273 0.15821865 0.43710494
0.59399062 0.20670255 0.43030822
0.62027705 0.23180927 0.44052458
0.61895376 0.25573552 0.43336213
0.61796713 0.27970576 0.42802167
0.42399183 0.35379079 0.43675315
0.44849187 0.35383317 0.43714631
0.47299796 0.35387561 0.43753958
0.47407663 0.085054614 0.4453243
0.52322429 0.10959296 0.44609463
0.59713608 0.18326098 0.44807351
0.62265939 0.20812573 0.45341909
0.64760268 0.25742617 0.45532358
0.64653659 0.28154862 0.44978392
0.59643197 0.30557206 0.44409704
0.25333339 0.33003759 0.44370186
0.5476774 0.33023545 0.445678
0.40031207 0.35450834 0.44341111
0.50174737 0.085552886 0.46690369
0.64860785 0.23319636 0.46054626
0.62499875 0.30760294 0.46608126
0.50142986 0.35680625 0.46473265
0.55361336 0.11071061 0.48239732
0.57750946 0.13530524 0.47706032
0.60149515 0.15986237 0.4726938
0.62585294 0.18448044 0.47070503
0.65154099 0.2095032 0.4757874
0.67731047 0.23460554 0.48088586
0.67665529 0.25914186 0.47761238
0.67550135 0.28341684 0.47184694
0.57709277 0.33312973 0.47459996
0.70571804 0.26073438 0.49829912
0.70486528 0.28530928 0.49419618
0.65367907 0.30952579 0.48689699
0.60600966 0.33549061 0.4981916
0.38078681 0.35948285 0.48956907
0.63254869 0.16144444 0.50694692
0.65753347 0.18643233 0.50692523
0.68139464 0.21107395 0.50129151
0.70682853 0.23618224 0.50364196
0.68260014 0.3114118 0.50731444
0.73504901 0.26230893 0.51875257
0.73464549 0.28723007 0.51688051
0.71188956 0.31332201 0.52799189
0.71477914 0.2135745 0.54189432
0.73814225 0.23822348 0.5331037
0.76331788 0.26340857 0.53303766
0.76251924 0.28829536 0.52946007
0.79019094 0.28921545 0.5403266
0.74011332 0.31463885 0.54224777
0.53669465 0.36422673 0.5335871
0.76859432 0.2398562 0.55667329
0.79102266 0.26424679 0.54392803
0.76660424 0.31514794 0.54775894
0 0 0 1 0 0 0 1 0 0 0 1 0 0 0 0 0 845 1 0 0
