ply
format ascii 1.0
comment PCL generated
element vertex 1357
property float x
property float y
property float z
element camera 0
property float view_px
property float view_py
property float view_pz
property float x_axisx
property float x_axisy
property float x_axisz
property float y_axisx
property float y_axisy
property float y_axisz
property float z_axisx
property float z_axisy
property float z_axisz
property float focal
property float scalex
property float scaley
property float centerx
property float centery
property int viewportx
property int viewporty
property float k1
property float k2
end_header
-0.36364919 -0.57837933 -0.092271566
-0.33921552 -0.5770734 -0.099340558
-0.10417794 -0.5772661 -0.098297
-0.080775961 -0.57781643 -0.095318675
-0.057456594 -0.57913738 -0.088168383
-0.38626936 -0.55361164 -0.099076033
-0.057198461 -0.55405867 -0.09655118
-0.033856932 -0.55550402 -0.088387847
-0.43518251 -0.53218204 -0.086787581
-0.010265492 -0.53192705 -0.088293791
-0.033655446 -0.53043348 -0.097112536
-0.45782533 -0.50761437 -0.092740893
-0.010121074 -0.50681698 -0.097673893
0.013327282 -0.50835109 -0.088184118
-0.48038036 -0.48314202 -0.098670959
0.013353569 -0.48423085 -0.091598988
-0.52967006 -0.46141925 -0.086426735
0.013375472 -0.46024644 -0.094444275
-0.55226755 -0.43708369 -0.091677308
0.013397213 -0.43630889 -0.097268581
0.036921743 -0.43800715 -0.085013032
0.013418917 -0.41241547 -0.10008764
0.036921743 -0.41401634 -0.087854624
-0.57479715 -0.38930985 -0.096863151
0.036921743 -0.3901028 -0.090424895
0.036921743 -0.36687663 -0.087384105
-0.59774196 -0.34195226 -0.09966743
0.036921743 -0.34360275 -0.084352732
0.013405971 -0.3185724 -0.098406196
0.013382684 -0.29533604 -0.095381021
-0.64845383 -0.27283734 -0.083094597
0.013361037 -0.27203521 -0.092568755
0.013342844 -0.24865638 -0.090205669
-0.67206568 -0.22556362 -0.083188891
0.013316533 -0.22531432 -0.086787701
-0.67047781 -0.20150724 -0.090064883
-0.66889697 -0.17755845 -0.096909761
-0.010133557 -0.17756096 -0.096863151
-0.010227617 -0.15431547 -0.090753913
-0.010314792 -0.13095875 -0.085091472
-0.69561225 -0.083757743 -0.083550692
-0.69397181 -0.060021769 -0.090425014
-0.69233871 -0.036391892 -0.097268581
-0.033618737 -0.012867413 -0.098702073
-0.033621978 0.010647225 -0.098561883
-0.69221222 0.034173515 -0.097798467
-0.6938448 0.057851914 -0.090957165
-0.69548464 0.081636667 -0.084085464
-0.010321327 0.12886174 -0.084667206
-0.010234125 0.15217824 -0.090331078
-0.66877455 0.17531832 -0.097440004
-0.010143645 0.17539415 -0.096208096
-0.67035484 0.19931552 -0.090597391
-0.67194217 0.22342068 -0.083723903
0.013311336 0.2232368 -0.086112618
0.013341397 0.2465165 -0.090017676
-0.6480782 0.27058095 -0.084777236
0.013359711 0.26987705 -0.092396975
0.013380999 0.29316226 -0.09516263
0.013404291 0.31637689 -0.098188043
0.036921743 0.34151903 -0.084116817
0.036921743 0.36476958 -0.087164402
-0.57445401 0.38687843 -0.09857738
0.036921743 0.38797396 -0.090205789
0.013420591 0.41015333 -0.10030544
0.036921743 0.4118503 -0.088058472
-0.55206585 0.43476331 -0.092725158
0.013398895 0.4340668 -0.097486854
0.036921743 0.43585894 -0.085232854
-0.52932221 0.45900252 -0.088309526
0.013377275 0.45802197 -0.094678402
0.013355495 0.48202375 -0.091849327
-0.010110758 0.5044902 -0.09834373
-0.45752475 0.50512397 -0.094600439
0.013329696 0.50615758 -0.088497639
-0.43489748 0.52972472 -0.088638783
-0.033640321 0.5281086 -0.097767234
-0.01025318 0.52964431 -0.089093328
-0.41218188 0.55442137 -0.08265388
-0.057178777 0.55173564 -0.097190619
-0.03383847 0.55321431 -0.089187384
-0.36349574 0.57598191 -0.093444347
-0.10412686 0.57483512 -0.099402666
-0.080733925 0.5754109 -0.096410871
-0.057437275 0.57687652 -0.088795424
-0.31764102 0.60170794 -0.082590938
-0.29362565 0.60100633 -0.086096764
-0.26966509 0.60030609 -0.089594722
-0.24576053 0.59961087 -0.093069196
-0.22191146 0.59892011 -0.096520066
-0.19836676 0.59888268 -0.096707344
-0.17504449 0.59947944 -0.093725562
-0.15167764 0.60008049 -0.090722442
-0.128264 0.6006797 -0.087729216
-0.10480529 0.60128313 -0.084714413
-0.24809888 -0.63041204 -0.067755818
-0.22404876 -0.6297068 -0.071279883
-0.20005473 -0.62900621 -0.074780107
-0.17614357 -0.62838936 -0.077861786
-0.15265554 -0.62899351 -0.074843168
-0.12912135 -0.62959886 -0.071818829
-0.10554087 -0.63020533 -0.068788409
-0.3419252 -0.60481566 -0.077340722
-0.3178429 -0.60414177 -0.080842853
-0.08134222 -0.60418725 -0.080606341
-0.057888333 -0.60543042 -0.074146986
-0.034357648 -0.60686225 -0.066706657
-0.38963151 -0.58160508 -0.074811578
-0.034098934 -0.58103287 -0.077909112
-0.010589279 -0.58299965 -0.067263126
-0.41245142 -0.55684537 -0.080811262
-0.010426831 -0.55737603 -0.077814221
0.013165496 -0.55926108 -0.067167759
-0.46176416 -0.53530025 -0.068375587
0.013246726 -0.53371769 -0.077719688
0.036921743 -0.53552097 -0.067072392
-0.48448813 -0.51057678 -0.074416041
0.036921743 -0.51049751 -0.074906468
-0.50712323 -0.48594996 -0.080433011
0.036921743 -0.48627776 -0.078303695
0.06069538 -0.48834014 -0.064908385
0.036921743 -0.46210909 -0.081709385
0.060669057 -0.46406639 -0.068327785
0.060642675 -0.43984407 -0.071755528
-0.57925189 -0.41575009 -0.074606061
0.060616467 -0.41567764 -0.075159669
0.060631327 -0.39222071 -0.073228836
-0.60235953 -0.36802363 -0.07745111
0.060655005 -0.36886635 -0.070153594
0.06067872 -0.34546503 -0.067072272
-0.62542444 -0.32038522 -0.080291271
0.036921743 -0.32028431 -0.081299782
0.036921743 -0.29691941 -0.078240752
0.036921743 -0.27350792 -0.075175524
0.036921743 -0.25033695 -0.068375468
0.013250129 -0.20224023 -0.078161716
0.013183352 -0.17903616 -0.069486976
-0.69891536 -0.13155086 -0.069709301
-0.69726008 -0.10760049 -0.076645613
-0.010402538 -0.10751595 -0.079392433
-0.010490116 -0.083985135 -0.073703766
-0.010536961 -0.060326047 -0.070661306
-0.010567997 -0.036612157 -0.068645597
-0.010599073 -0.012867413 -0.066626906
-0.010601278 0.010894093 -0.066483855
-0.010569952 0.034624368 -0.0685184
-0.010538917 0.058323625 -0.070534348
-0.010496702 0.08196941 -0.073276162
-0.69713193 0.10552841 -0.077182651
-0.010408852 0.10545909 -0.078982234
-0.69878662 0.12952775 -0.070248723
0.013178341 0.17707981 -0.068836093
0.013245024 0.2002231 -0.077498436
-0.67623222 0.24862242 -0.065147281
0.036921743 0.24841908 -0.067549229
0.036921743 0.27148971 -0.074938178
0.036921743 0.29487932 -0.078003883
-0.62506449 0.31812572 -0.081961155
0.036921743 0.31822073 -0.081079125
0.060680438 0.34351304 -0.066849709
-0.60200846 0.36575779 -0.079140067
0.060656711 0.3668921 -0.069931507
0.06063316 0.39022669 -0.072991133
-0.57891005 0.41347778 -0.076313615
0.060614523 0.41360265 -0.075412631
0.060640723 0.4377932 -0.072008967
0.036921743 0.45997745 -0.081976891
0.060666978 0.46203741 -0.068597794
-0.50678855 0.48356369 -0.082323194
0.036921743 0.48417017 -0.078572035
0.060693417 0.48633799 -0.065163255
-0.48416936 0.50822371 -0.076297879
0.036921743 0.50841397 -0.075175524
-0.46145877 0.53297794 -0.070264697
0.013252923 0.53151548 -0.078524828
0.036921743 0.53339958 -0.067882895
-0.010414679 0.55516952 -0.078603625
0.013171615 0.55713564 -0.067962408
-0.38937739 0.57921475 -0.076645494
-0.034080703 0.57881975 -0.078698277
-0.010577288 0.58087045 -0.068041801
-0.36716551 0.60514826 -0.065401912
-0.34170941 0.60240823 -0.079092622
-0.081299782 0.6018846 -0.081709266
-0.057844002 0.6031099 -0.075586438
-0.03432424 0.60459769 -0.068152905
-0.27202407 0.62878937 -0.066022635
-0.24793163 0.62805265 -0.069566369
-0.22389713 0.62732434 -0.073070526
-0.1999172 0.62659782 -0.076566458
-0.17606594 0.62609565 -0.078982353
-0.15258637 0.62672251 -0.075966001
-0.12906159 0.62735385 -0.072927833
-0.10548954 0.62798339 -0.069899559
-0.22606611 -0.65838295 -0.047456026
-0.20188451 -0.65764427 -0.051010489
-0.17775819 -0.6569072 -0.054556727
-0.15368696 -0.6561718 -0.058094978
-0.12992725 -0.65642786 -0.05686307
-0.10640877 -0.65785468 -0.049998045
-0.32106331 -0.63337487 -0.052953124
-0.29636279 -0.63182443 -0.060699463
-0.27220249 -0.63111579 -0.064239621
-0.082053795 -0.63154012 -0.062119722
-0.05848958 -0.63304096 -0.054620862
-0.034811143 -0.63455242 -0.04706955
-0.3934488 -0.61060429 -0.047262788
-0.36755121 -0.60768056 -0.062454581
-0.010752846 -0.60879982 -0.056639194
-0.41604307 -0.58503342 -0.056254864
0.013083708 -0.58498019 -0.056542873
-0.43894848 -0.56011808 -0.062326908
0.036921743 -0.56115919 -0.05644691
-0.48866159 -0.53845072 -0.049772978
0.060761258 -0.53733665 -0.056350946
-0.51231837 -0.51434743 -0.051090837
0.084730282 -0.51485699 -0.047939062
0.060721762 -0.51266778 -0.061481595
-0.53616279 -0.49043781 -0.051283598
0.084677055 -0.49042052 -0.051395893
-0.56000113 -0.46652871 -0.051492333
0.084623948 -0.46603844 -0.054845095
-0.58382982 -0.44261846 -0.051733136
0.084570967 -0.44171035 -0.058286786
0.084538981 -0.41761386 -0.060364246
-0.60704476 -0.39447707 -0.054909348
0.084593132 -0.39423844 -0.056847095
0.084647402 -0.37080976 -0.053322077
-0.63027424 -0.34646532 -0.057791114
0.084702045 -0.34732947 -0.049772978
0.060702369 -0.3220154 -0.064000726
-0.65347117 -0.29854718 -0.060619593
0.060726184 -0.29852071 -0.060907006
0.060770258 -0.27520105 -0.055181742
-0.67662215 -0.25071523 -0.063459039
0.036921743 -0.22722466 -0.059213996
0.036921743 -0.20394799 -0.050432086
-0.70224839 -0.17977676 -0.055742264
0.013116196 -0.15570071 -0.06076324
-0.70057815 -0.15560935 -0.062741518
0.013067309 -0.13213958 -0.054412365
0.013022676 -0.10846367 -0.04861486
-0.72504067 -0.012867306 -0.060012937
-0.72472209 0.010933942 -0.061306
0.013019333 0.10664475 -0.048180461
0.013063977 0.13027921 -0.053979635
-0.70044881 0.15363562 -0.063283563
0.013111157 0.15380667 -0.060108542
-0.70211846 0.17785266 -0.056286931
0.036921743 0.20214413 -0.049772978
0.036921743 0.22535768 -0.058558702
0.060776673 0.27339166 -0.05434835
-0.65309715 0.29645148 -0.062295198
0.060728028 0.29661438 -0.060667515
0.060704209 0.32008711 -0.063761711
-0.62991583 0.34436703 -0.059453607
0.084706008 0.34551454 -0.049515724
0.084651604 0.3689715 -0.053049326
-0.6066919 0.39237094 -0.056607008
0.084597073 0.39237303 -0.056591034
0.084542915 0.4157232 -0.060108662
-0.58342516 0.44046304 -0.053755045
0.084567025 0.43976286 -0.058542728
-0.55933428 0.46413738 -0.05495739
0.084619999 0.46411514 -0.055101633
-0.53552252 0.48802134 -0.054749012
0.084673099 0.48852178 -0.051652908
-0.51170754 0.51190847 -0.054540753
0.060719676 0.51068717 -0.061752677
0.084726319 0.51298285 -0.048196435
-0.4883405 0.53627038 -0.051669002
0.060754973 0.53529674 -0.057167053
-0.43865889 0.55782932 -0.064207792
0.036921743 0.55911541 -0.057247281
-0.41577157 0.58278167 -0.058110952
0.013089744 0.58293253 -0.057327151
-0.39303416 0.60818005 -0.050254941
-0.01074053 0.60674202 -0.057439208
-0.2961719 0.62952751 -0.062470675
-0.08199732 0.62929565 -0.063586354
-0.32072088 0.6308893 -0.055918574
-0.058444697 0.63085616 -0.056078672
-0.034776945 0.63242072 -0.048550487
-0.22591349 0.65616769 -0.049258351
-0.20174608 0.65540242 -0.052808642
-0.17763387 0.65463907 -0.056350946
-0.15357672 0.65387708 -0.059885025
-0.12986603 0.65428364 -0.057999015
-0.1063405 0.65568978 -0.05147624
-0.17942677 -0.68595171 -0.030472636
-0.1552518 -0.68547475 -0.032685041
-0.13137828 -0.68606752 -0.029935241
-0.27459919 -0.65987247 -0.040290236
-0.2503047 -0.65912676 -0.043877244
-0.082811251 -0.6594255 -0.042440176
-0.059099007 -0.66100752 -0.03482914
-0.34681368 -0.63643754 -0.037651181
-0.01101676 -0.63606799 -0.039497256
0.012893792 -0.6375941 -0.031872153
-0.41969264 -0.61367583 -0.031302571
0.013001354 -0.6108771 -0.045845032
0.036921743 -0.61296898 -0.034975171
-0.44277498 -0.58850342 -0.037472963
0.036921743 -0.58697456 -0.045748234
0.060926557 -0.58898288 -0.034878016
-0.46576363 -0.56342769 -0.04363513
0.06084362 -0.56307054 -0.045651555
0.084932864 -0.56499535 -0.034780502
0.084783629 -0.53934807 -0.044474244
0.10903114 -0.54166979 -0.030765533
0.10895044 -0.51706827 -0.034260869
0.1088699 -0.49252179 -0.037748456
0.10878953 -0.46803001 -0.041228294
0.10870898 -0.44359079 -0.044716239
0.13306211 -0.44549903 -0.030944705
-0.61179918 -0.42132124 -0.032034755
0.10872686 -0.41976306 -0.043941736
0.10880895 -0.39626583 -0.040387154
-0.63519901 -0.37293205 -0.034942865
0.10889123 -0.37271476 -0.036824584
0.10897368 -0.34910974 -0.033253908
-0.65855891 -0.32463452 -0.037829399
0.084752589 -0.32376793 -0.046489477
0.10905673 -0.32545224 -0.029658556
0.084823892 -0.30028024 -0.041858435
-0.68187934 -0.27642778 -0.040694594
0.084990919 -0.27724785 -0.031009674
0.060853057 -0.25218052 -0.044425845
0.060936555 -0.22900078 -0.033578753
-0.7051608 -0.20437254 -0.043538213
0.036921743 -0.18053886 -0.041599989
0.036921743 -0.15699533 -0.032733679
0.012977879 -0.084698923 -0.042795658
0.012929421 -0.060852077 -0.036500335
-0.72911876 -0.036806196 -0.043457508
0.012888156 -0.036901005 -0.03113997
-0.72878885 0.034989562 -0.044796705
0.012885025 0.035206053 -0.030733109
0.012926301 0.059118923 -0.036094785
0.012974648 0.082921021 -0.042375684
0.036921743 0.15531778 -0.03206718
0.036921743 0.17879704 -0.040953279
-0.7048527 0.20248646 -0.044829249
0.060942814 0.22734334 -0.032766223
0.06085939 0.25044665 -0.043602705
-0.68148369 0.27449477 -0.04240799
0.085003451 0.27562284 -0.030195832
0.084836334 0.29857758 -0.041050196
-0.65817934 0.32269853 -0.039529681
0.084756069 0.32197291 -0.046263933
0.10906273 0.32379061 -0.029397964
0.10898007 0.34742424 -0.032977462
-0.63483185 0.37099183 -0.036646128
0.1088976 0.37100381 -0.036548853
0.10881492 0.39452738 -0.040128469
-0.61144108 0.41937447 -0.033757329
0.10873282 0.41799924 -0.043683529
0.10870339 0.44174978 -0.044958234
0.13307063 0.44383985 -0.03066802
0.10878356 0.46621141 -0.041486859
0.10886391 0.49072775 -0.038007617
0.10894443 0.51529896 -0.034520745
0.08477965 0.53749853 -0.044732332
0.10902514 0.53992522 -0.031025887
-0.46545589 0.56127858 -0.045538545
0.060837418 0.56110883 -0.046457291
0.08492063 0.56311935 -0.035575747
-0.44248322 0.58638883 -0.039367795
0.036921743 0.5850091 -0.046537876
0.060920432 0.58709979 -0.035672903
-0.41941676 0.61159599 -0.033188701
0.013007557 0.6089015 -0.046650648
0.036921743 0.61107594 -0.035786629
-0.34644482 0.63406366 -0.040646076
-0.010994095 0.63399643 -0.04096961
0.012905303 0.63557649 -0.033367515
-0.29956076 0.66009766 -0.031026125
-0.27441964 0.65771401 -0.042084694
-0.25013781 0.65693825 -0.045683622
-0.082754061 0.65731716 -0.043925643
-0.059053045 0.65895605 -0.036321998
-0.15509477 0.68319243 -0.035234928
-0.17930166 0.68385243 -0.032278299
-0.1312415 0.6838088 -0.032473683
-0.10734595 0.68442637 -0.029707313
-0.25266612 -0.68857241 -0.018314362
-0.2281163 -0.6875096 -0.023244619
-0.20374276 -0.686728 -0.026871085
-0.10746264 -0.68666124 -0.02718091
-0.083577797 -0.68766475 -0.022524834
-0.05971526 -0.68932647 -0.014815927
-0.32574061 -0.66565967 -0.012446523
-0.29988554 -0.66242427 -0.028012633
-0.035270076 -0.66259378 -0.027197242
-0.011324212 -0.66418779 -0.019528031
0.012739437 -0.66578978 -0.011820674
-0.37281737 -0.63952726 -0.022213936
0.036921743 -0.63914424 -0.024127483
0.061094165 -0.64135021 -0.013105154
0.06101007 -0.61507547 -0.024029493
0.085268103 -0.61719698 -0.013006449
0.085099906 -0.59100538 -0.023931265
0.10945459 -0.59313011 -0.012430072
0.10919124 -0.56693369 -0.023833156
0.13350359 -0.54406756 -0.016607165
0.13338439 -0.51929629 -0.020478368
0.13327605 -0.49463889 -0.023996711
0.13316795 -0.47003686 -0.027507186
0.15778132 -0.4721337 -0.013170958
0.15773381 -0.44779083 -0.014404774
0.13317247 -0.42193303 -0.027360439
0.1332836 -0.39831474 -0.023751497
0.13339448 -0.37464014 -0.020150542
0.13350561 -0.35091087 -0.016541481
0.10929181 -0.30234766 -0.019478559
0.085159123 -0.25405425 -0.020084977
-0.70915771 -0.22947107 -0.026789546
0.061020516 -0.20565756 -0.022672176
0.061093278 -0.18206817 -0.01322031
0.036921743 -0.1333297 -0.023489952
-0.73323685 -0.061002221 -0.026740432
0.012846749 -0.012867253 -0.025761127
0.012843607 0.011210765 -0.025352955
-0.73289931 0.05930322 -0.028110504
-0.73705417 0.083879553 -0.011244059
0.036921743 0.1317593 -0.021935821
0.061098345 0.18054539 -0.012561798
0.061026815 0.20407817 -0.021853805
-0.70885408 0.22770543 -0.028061509
0.085171737 0.25250763 -0.019265532
0.10931227 0.30082476 -0.018593073
0.13351421 0.34935436 -0.016262293
0.13340305 0.3730579 -0.01987195
0.13329215 0.39670685 -0.02347362
-0.63982087 0.3980121 -0.013499975
0.13318151 0.42030159 -0.027066827
0.15774521 0.44626176 -0.014108658
0.13316043 0.46832612 -0.027751923
0.15777054 0.47052783 -0.013450742
0.13326851 0.49295315 -0.024241805
0.13337632 0.5176326 -0.020740509
0.13349499 0.54242867 -0.016886234
0.10917275 0.56514055 -0.024634123
0.13366467 0.56759 -0.011375785
0.085087568 0.58920544 -0.024732232
0.10943255 0.59138918 -0.013384938
0.061003778 0.61326551 -0.024846435
0.085255437 0.61547053 -0.013829112
-0.37241942 0.63726276 -0.025254846
0.036921743 0.63732702 -0.024944425
0.061087832 0.63961691 -0.013928056
-0.32538918 0.66344643 -0.015489936
-0.035235431 0.66059941 -0.028697252
-0.011301253 0.66225457 -0.021018982
0.01275097 0.66391432 -0.013319016
-0.252386 0.68629313 -0.02134645
-0.22796127 0.68546051 -0.025075078
-0.20360343 0.68465567 -0.02868104
-0.083521143 0.68570137 -0.023996472
-0.0596692 0.68741691 -0.016311407
-0.20563145 -0.7162717 -0.0023363829
-0.18146801 -0.71656775 -0.0010099411
-0.1573763 -0.71719784 0.001812458
-0.13324051 -0.71782529 0.0046231747
-0.27836421 -0.6919449 -0.0026676655
-0.011635378 -0.69266713 0.00068283081
-0.035734531 -0.69099271 -0.007085681
-0.35184839 -0.668917 0.003225565
0.036921743 -0.66740298 -0.0040590763
0.061223716 -0.66902071 0.003724575
-0.39907771 -0.64264441 -0.0066394806
0.085442334 -0.64363503 -0.0016897917
-0.44781494 -0.6187883 -0.0047376156
0.10974899 -0.61976105 0.00031745434
-0.47201961 -0.59451461 -0.0049362183
0.13408715 -0.59585983 0.0023442507
-0.49622411 -0.57024717 -0.0051181316
0.13369361 -0.5693056 -0.010436296
0.15845595 -0.57192481 0.0043568611
-0.52042294 -0.54597974 -0.0053166151
0.15823151 -0.54663044 -0.0014741421
-0.54461551 -0.52171254 -0.0055316687
0.15808108 -0.52173668 -0.0053827763
-0.56879854 -0.4974435 -0.0057798624
0.157931 -0.49690449 -0.0092816353
0.18283509 -0.49924511 0.0059220791
-0.59298098 -0.47318092 -0.0060111284
0.18265373 -0.47435194 0.0019952059
-0.61715645 -0.4489195 -0.006259203
0.18262072 -0.44996426 0.0012807846
0.15788022 -0.42412621 -0.010601163
0.1827974 -0.42618176 0.0051060915
-0.64079058 -0.40013158 -0.009001255
0.15802063 -0.40038377 -0.0069535971
0.15816136 -0.37658614 -0.0032972097
-0.66834843 -0.35334259 0.0060220957
0.15830176 -0.35273144 0.00035083294
0.13367635 -0.3273198 -0.010996699
0.13404468 -0.3042362 0.00096523762
0.1095662 -0.27923036 -0.0075978041
0.10984266 -0.25593707 0.0043734312
0.085328497 -0.23069777 -0.0090836287
0.085499071 -0.20717666 0.0019952059
0.061212581 -0.15861243 0.0022779703
0.036921743 -0.10974702 -0.0069367886
-0.73740345 -0.085460335 -0.0098260641
-0.74126637 0.10872446 0.0058555603
0.036921743 0.10827482 -0.0058293343
0.061224617 0.15725277 0.0038410425
0.085511863 0.20578827 0.002826333
0.0853412 0.22922985 -0.008258462
0.10986342 0.2545855 0.0052727461
0.10958679 0.2777929 -0.0067056417
0.1340723 0.302872 0.0018622875
0.13370375 0.32586977 -0.010106564
-0.66728997 0.35138005 0.0012806654
0.15831262 0.35130519 0.00063312054
0.15817219 0.3751339 -0.0030156374
0.15803206 0.39890763 -0.0066559315
0.15789165 0.42262429 -0.010304213
0.18281125 0.42480114 0.0054057837
-0.6164391 0.44690517 -0.0097106695
0.18263376 0.44855392 0.0015633106
-0.59228349 0.47113657 -0.0094964504
0.18264067 0.47286242 0.0017126799
-0.56812459 0.49537149 -0.0092818737
0.15792021 0.49532619 -0.009562254
0.182822 0.49778351 0.005638957
-0.54396236 0.51960963 -0.009067297
0.15807025 0.52018595 -0.0056638718
-0.51979685 0.5438512 -0.0088526011
0.15822066 0.54510766 -0.0017559528
-0.495628 0.56809592 -0.0086381435
0.1584188 0.57031858 0.0033918619
-0.47145593 0.59234399 -0.0084234476
0.13405746 0.59423083 0.0013804436
-0.4472805 0.61659551 -0.0082087517
0.10972714 0.61811274 -0.00062823296
-0.39865446 0.64049679 -0.0096942186
0.085427791 0.64196426 -0.0026346445
-0.35146978 0.6668179 0.00015163422
0.036921743 0.66558558 -0.0055648088
0.06121207 0.66726172 0.0022112131
-0.27805775 0.68977916 -0.0057300329
-0.035700206 0.68914467 -0.0085718632
-0.011612382 0.69087738 -0.00081062317
-0.23043239 0.71628022 0.0041071177
-0.2054899 0.71436763 -0.0041748285
-0.18129003 0.7145052 -0.0035789013
-0.15721782 0.7151559 -0.0007609129
-0.13310248 0.71580786 0.0020617247
-0.10894392 0.71646082 0.0048896074
-0.25649256 -0.72195196 0.023108482
-0.23069334 -0.71839803 0.0071889162
-0.10906245 -0.71845758 0.0074554682
-0.084839672 -0.71908361 0.010259628
-0.060574401 -0.71971458 0.013085723
-0.036265742 -0.72034639 0.015916467
-0.011950582 -0.72151613 0.021156192
-0.30432197 -0.69535494 0.013152599
0.012583083 -0.69434983 0.0084898472
0.036921743 -0.69604456 0.016352415
-0.37822023 -0.67221045 0.01907146
0.085715979 -0.67158955 0.016084075
0.11004616 -0.64661241 0.013185859
0.13448338 -0.62262774 0.015212536
0.15895252 -0.59861517 0.017258286
0.18345252 -0.57456875 0.019289851
0.1831992 -0.54921812 0.013805389
0.18301693 -0.5242005 0.0098589659
0.20798121 -0.50160879 0.021273732
0.20776755 -0.47659174 0.017308474
0.20775671 -0.45215729 0.017107129
0.20796582 -0.42826009 0.020987749
0.18297528 -0.40234345 0.0089572668
0.18315282 -0.37844509 0.01280117
0.18333156 -0.35449025 0.016671062
0.15865615 -0.32937688 0.0095582008
-0.6961748 -0.30610594 0.021206379
0.15912263 -0.30614948 0.021677494
0.13441582 -0.28097609 0.013018489
0.11010651 -0.2324217 0.015799046
0.085796654 -0.18392958 0.021324277
0.061376825 -0.13514285 0.023613811
-0.74161536 -0.11018452 0.0072723627
0.036921743 -0.085872188 0.0080060959
0.036921743 -0.061771344 0.023209691
0.036921743 0.060514685 0.024338365
0.036921743 0.084507309 0.0091408491
-0.74553716 0.13384375 0.023192644
0.085824132 0.1827421 0.023108482
0.1101255 0.23114526 0.016620755
0.13444366 0.27969837 0.013922691
-0.69507319 0.30433041 0.016436338
0.15915762 0.30494586 0.022586465
0.15869087 0.32808617 0.010460258
0.18334551 0.35319209 0.016973019
0.18316673 0.37711927 0.013102174
0.18298915 0.40099034 0.0092579126
0.20798121 0.42699978 0.021273851
0.20777208 0.45086929 0.017392516
0.20775218 0.4752197 0.017023444
0.20796582 0.50026482 0.020987749
0.1830038 0.52276671 0.0095750093
0.18318605 0.5478124 0.013520718
0.18340753 0.57307571 0.018315673
0.15891509 0.59709936 0.016285419
0.13445397 0.62109214 0.014257669
-0.42768294 0.64736027 0.02332747
0.11002415 0.64505422 0.012232304
-0.37781391 0.67022657 0.015966773
0.085687086 0.66984743 0.014207482
-0.30398864 0.693304 0.010059357
0.012594512 0.69262224 0.0070054531
0.036921743 0.69437224 0.014843941
-0.084741369 0.71711135 0.0077058077
-0.060496133 0.71776652 0.010543823
-0.036206935 0.71841943 0.013370037
-0.25620502 0.71994954 0.019995809
-0.011927802 0.71987563 0.019676566
-0.15961109 -0.74986547 0.038100839
-0.1351444 -0.75029379 0.039955139
-0.28255132 -0.72553807 0.039172292
0.012424698 -0.72328162 0.029064775
0.036921743 -0.72527617 0.037998915
-0.33053783 -0.69879204 0.029098749
0.061402921 -0.69834042 0.027003884
0.086112082 -0.70153207 0.041811466
0.11045273 -0.6746462 0.030790091
-0.42870268 -0.65003777 0.030299425
0.13488287 -0.64961469 0.028185964
0.15945253 -0.62552136 0.030248523
-0.50420946 -0.60319233 0.042032957
0.18405408 -0.60139674 0.032313824
-0.52876711 -0.57855618 0.041811466
0.20868665 -0.57723778 0.034365058
0.20841016 -0.55183101 0.029233813
0.20819542 -0.5266884 0.025248885
0.23362014 -0.52920073 0.040789366
0.23337293 -0.5039953 0.036775351
0.23312636 -0.47885326 0.032771349
0.23314722 -0.45437476 0.033110261
0.23338863 -0.43035954 0.03703022
0.23362957 -0.40628308 0.040942788
0.20817542 -0.4043043 0.024877906
0.20838465 -0.38028786 0.028760552
0.20859531 -0.35621452 0.032669783
0.18385015 -0.33121222 0.027898788
0.18441251 -0.30784899 0.040074229
0.15959269 -0.28274351 0.033890247
-0.72428209 -0.25841704 0.036588669
0.1347893 -0.25753629 0.025147796
0.13518293 -0.2339551 0.037930846
0.11051765 -0.20912306 0.03360188
-0.75017405 -0.16044787 0.042016029
-0.74586922 -0.13517845 0.024540782
0.036921743 -0.037392881 0.032771349
0.036921743 -0.012867413 0.038407087
0.036921743 0.011704714 0.038815141
0.036921743 0.036190279 0.0331949
0.061389156 0.13393706 0.02521503
-0.7498551 0.15924007 0.040721297
0.11055957 0.20804615 0.03541708
0.13523896 0.2329257 0.039750814
-0.72312456 0.25682643 0.031738043
0.13481735 0.25634542 0.026058555
0.1596286 0.28162909 0.03482306
0.1844542 0.30678621 0.040976644
0.18389151 0.330062 0.028794408
0.2086364 0.35509259 0.033432484
0.20840013 0.37908331 0.029048085
0.20819089 0.40307194 0.025164485
0.23364636 0.4051725 0.041215301
0.23340537 0.4292208 0.037302017
0.23316394 0.45320788 0.033381701
0.23310758 0.4775973 0.032466531
0.23335412 0.5027675 0.036469698
0.20817907 0.52536994 0.024945378
0.23360124 0.52800137 0.040482879
-0.55266106 0.55214942 0.038015962
0.20839377 0.55054063 0.028929472
0.20863366 0.57585913 0.033381701
-0.52813423 0.57675618 0.038236856
-0.50360405 0.60136634 0.03845787
0.1840087 0.59999496 0.031331778
-0.47907037 0.6259799 0.038679123
0.15941542 0.62409973 0.029284477
0.13485374 0.64817351 0.027240157
0.11040936 0.67301697 0.028912663
-0.33017704 0.69685674 0.025974393
0.061388634 0.69667232 0.025147796
0.086083233 0.69997412 0.039938092
-0.28223836 0.72365594 0.036045074
0.012436146 0.72170037 0.027577877
0.036921743 0.7236796 0.036146998
-0.18439817 0.74945676 0.04128325
-0.15938731 0.74782997 0.034466863
-0.13500418 0.74851876 0.03735292
-0.1105769 0.74920881 0.040244341
-0.21002303 -0.75370169 0.054712176
-0.18475282 -0.75178266 0.046402216
-0.1106973 -0.75096256 0.042851329
-0.08620514 -0.7516287 0.045735717
-0.061668742 -0.75229597 0.048625231
-0.037087966 -0.75296456 0.051520109
-0.012462452 -0.75363034 0.054403067
0.012202514 -0.75444442 0.057927847
-0.30887502 -0.72916061 0.055399299
0.061602343 -0.72860479 0.052909374
-0.3587302 -0.70525831 0.05909884
0.11105202 -0.70474994 0.056740522
0.13541956 -0.6777277 0.04561615
0.18527052 -0.65571213 0.05865097
0.15995663 -0.65264887 0.043345809
-0.47976142 -0.6279664 0.04295361
0.18465979 -0.6284427 0.045428157
0.20939425 -0.60420167 0.0474962
0.23416173 -0.57993239 0.049584031
-0.55414408 -0.55467772 0.046043277
0.23386797 -0.55446953 0.044813395
0.25932211 -0.53180152 0.056877971
0.25903288 -0.50644773 0.0527035
0.25874558 -0.48116222 0.048556805
0.25878116 -0.45658618 0.049070239
-0.65485704 -0.4328759 0.056259036
0.25904953 -0.43244213 0.052943707
0.25931734 -0.40823734 0.056809306
0.23387216 -0.3821494 0.044881701
0.2341533 -0.35802272 0.04944706
0.20924601 -0.33289811 0.044745207
-0.72990471 -0.30970338 0.060149908
0.20990907 -0.30941701 0.057050109
0.18497919 -0.28430605 0.05234313
0.16006638 -0.2591567 0.046197057
0.111085 -0.18591505 0.058168888
0.086171448 -0.16061647 0.045667171
0.061543174 -0.11135305 0.045223236
0.061555669 0.11030213 0.046846509
0.086199343 0.1596043 0.047479272
0.11112757 0.18501493 0.060011983
0.16010256 0.25813046 0.047137141
0.18502119 0.28333154 0.053252697
0.20995636 0.30848262 0.057927966
0.20929384 0.3318769 0.045633197
0.23420709 0.35704264 0.050320506
0.233889 0.3810671 0.045154929
0.25933522 0.40724695 0.057067394
-0.65382451 0.43118376 0.051468849
0.25906736 0.43142381 0.053201199
0.25879896 0.45554009 0.049327016
0.25872424 0.48002708 0.048248887
0.25901148 0.50534207 0.052394748
0.25929946 0.53072268 0.056551456
0.23384902 0.55329847 0.044506192
0.2341006 0.57866925 0.048591137
0.20934173 0.60291833 0.046521902
0.18461485 0.62713611 0.044454932
0.21005566 0.6302014 0.059770823
0.15991989 0.65132266 0.042391062
0.18522601 0.6545018 0.057686806
0.13536227 0.67621619 0.043755293
0.16054839 0.67944175 0.058719873
-0.357858 0.70267093 0.05201745
0.11100915 0.70331085 0.054883838
-0.30853271 0.72739208 0.052223206
0.061588086 0.72712284 0.051057458
-0.23498544 0.75341642 0.057876348
-0.20962565 0.7514295 0.04954958
-0.086105272 0.74990004 0.043141246
-0.061589237 0.75059253 0.046043277
-0.037028234 0.75128245 0.048933387
-0.012423083 0.75197744 0.051845908
0.012227001 0.75266957 0.054746628
-0.26095933 -0.75757009 0.071462631
-0.23542488 -0.75563085 0.063065529
0.036921743 -0.75787085 0.072764993
0.086514667 -0.73196477 0.067960024
0.13622665 -0.70800185 0.071827292
-0.4099648 -0.68319732 0.071931481
0.16062069 -0.68084168 0.060597897
0.18605895 -0.68398494 0.075721025
0.21082705 -0.6588015 0.074085951
0.21010768 -0.6313886 0.060735941
0.23580138 -0.63436639 0.076208472
0.23497817 -0.60703677 0.062841177
0.2600275 -0.58302653 0.067059517
0.25961089 -0.55721867 0.061046481
0.28535792 -0.53458339 0.074085951
0.28503311 -0.50909001 0.0698663
0.28471047 -0.48366591 0.065675378
0.28459066 -0.45867148 0.064119339
0.28489035 -0.43441403 0.068011999
0.2851907 -0.41009769 0.071913838
-0.6830622 -0.38527286 0.071931362
0.2595858 -0.38397413 0.060684204
0.28549182 -0.38572255 0.075825453
0.2598657 -0.35966903 0.064724207
0.23491333 -0.3346037 0.061788201
0.26066738 -0.33605549 0.076295495
0.23567817 -0.31100199 0.074207544
0.21057726 -0.28575462 0.06945014
0.18555024 -0.26058158 0.064707041
0.16077949 -0.23581131 0.064724207
0.13594039 -0.21090466 0.062530279
0.086552024 -0.13694313 0.070386767
0.061708871 -0.08722885 0.066747785
0.061717935 0.086317323 0.067925334
0.086580351 0.1361084 0.072226524
0.13599624 0.21005026 0.064344049
0.16085006 0.23498929 0.066557646
0.18559258 0.25969586 0.065623283
0.21062492 0.28490952 0.070334673
0.23573172 0.31019872 0.075077295
0.23496649 0.33371094 0.062651277
0.26072291 0.33526778 0.077096701
0.25992197 0.35879982 0.065536857
-0.68198615 0.38377151 0.067111492
0.25960374 0.38301176 0.060943007
0.28551325 0.3848789 0.076104164
0.28521076 0.40922397 0.072174549
0.28491032 0.43351215 0.068271875
0.28461063 0.45774147 0.0643785
0.28468651 0.48266199 0.065363884
0.2850104 0.50811887 0.069571733
0.28533381 0.53363907 0.073772907
0.25958818 0.55616897 0.060718775
0.28565809 0.5592261 0.077985406
0.25995195 0.58187973 0.065969348
0.23491758 0.60586947 0.061857343
0.23574136 0.63329637 0.075233936
-0.46051338 0.65866995 0.077741385
0.2107746 0.65770793 0.073112607
-0.40898532 0.68076581 0.06486249
0.1859722 0.68270129 0.073842406
0.13616949 0.70667881 0.069970369
0.086485878 0.73059464 0.066090465
-0.26047584 0.75540972 0.066228986
0.036921743 0.75611228 0.069172859
-0.11296362 -0.78727496 0.091918468
-0.087654054 -0.78523743 0.083379865
-0.06278792 -0.78561735 0.084971786
-0.03792889 -0.78632402 0.087932825
-0.013075251 -0.78782088 0.094205499
-0.28763643 -0.76184785 0.089985967
0.061870471 -0.76132911 0.087739825
0.11166197 -0.73535633 0.083152533
0.16163974 -0.71128809 0.087073684
0.2117378 -0.68715787 0.090987086
-0.46161848 -0.66096967 0.084919214
0.23669852 -0.66214204 0.090776205
0.26104075 -0.61051798 0.08168447
0.28637525 -0.5866105 0.087301493
0.28568223 -0.56014043 0.078298926
0.31203496 -0.56309384 0.095737696
0.31167433 -0.53739506 0.091479063
0.31131467 -0.51176369 0.087231517
0.31095445 -0.4861967 0.082977772
0.31064245 -0.46077397 0.079292893
0.31097516 -0.43640453 0.083222508
0.3113102 -0.41197783 0.087178946
0.31164455 -0.38748944 0.091127634
0.285795 -0.36128998 0.079764009
0.31198123 -0.36294314 0.095103383
0.28656566 -0.33740443 0.089775085
0.26147363 -0.31226987 0.087932706
-0.75945121 -0.28662071 0.079676867
-0.73470199 -0.28666937 0.080252647
0.23641011 -0.28716379 0.086092472
-0.76247549 -0.26267904 0.091953754
0.21125063 -0.26190865 0.081946492
0.18648221 -0.23720802 0.084884286
0.16173764 -0.2125728 0.089617133
0.13670963 -0.18749619 0.087512016
0.11166157 -0.16234711 0.083135009
0.11170439 0.16162547 0.084989548
0.13676526 0.18681958 0.089318871
0.1618032 0.21191911 0.091320872
0.18655986 0.23652954 0.086565614
0.21129866 0.26115343 0.082837939
0.23645973 0.28643951 0.086898565
0.26152956 0.31156603 0.088739514
0.2866292 0.33672309 0.090600491
0.28581649 0.36047459 0.080043197
0.3120051 0.36224636 0.095385432
0.31166837 0.38676411 0.09140873
0.31133246 0.41122195 0.087441921
0.3109974 0.43562022 0.08348465
0.31066459 0.45996118 0.079554796
0.33705664 0.4623462 0.095861077
0.31092781 0.48532555 0.082663059
0.31128797 0.51092249 0.08691597
-0.58536214 0.53474253 0.080287457
0.31164753 0.53658426 0.09116292
0.31200811 0.56231326 0.09542048
0.28629163 0.58562022 0.086215138
0.2609657 0.6094768 0.080601811
0.26198873 0.63732618 0.095367789
0.23663364 0.66116035 0.089722514
0.21163654 0.68599176 0.089108109
0.16156691 0.71007472 0.085181952
0.1116188 0.73410302 0.081282616
-0.33806792 0.73711187 0.094311118
-0.28675848 0.75898546 0.081212997
0.061842427 0.75967371 0.084097147
-0.13812658 0.78735346 0.095297337
-0.11272527 0.78525013 0.086758375
-0.08750011 0.78343266 0.079380274
-0.062707141 0.78416377 0.082348466
-0.037868191 0.7848919 0.085304618
-0.01301894 0.78618354 0.090548038
-0.16398437 -0.7913785 0.10911393
-0.13840705 -0.78932357 0.10050237
0.011806428 -0.79144228 0.10938048
0.087051898 -0.76481968 0.10285449
-0.33889714 -0.73945051 0.10149229
0.13704817 -0.73878402 0.09850657
0.18729341 -0.71460187 0.10244763
0.23801073 -0.69154269 0.11208367
0.26309383 -0.66625351 0.11131859
0.26206198 -0.63825703 0.096425176
0.28751531 -0.61429203 0.10211146
0.31305635 -0.59023976 0.10779989
0.33868682 -0.5661034 0.11350834
-0.58852553 -0.53824311 0.096724868
0.33827597 -0.54023731 0.10906088
0.33787772 -0.51446068 0.10474944
0.33748212 -0.48875469 0.10046721
0.33708596 -0.46311364 0.096178293
0.33730918 -0.43841621 0.098594785
0.3638553 -0.44039589 0.11372221
0.33767813 -0.41387591 0.10258913
0.3380464 -0.38927323 0.10657561
0.33839256 -0.36458328 0.11032271
0.31268257 -0.33876655 0.10338569
0.28747037 -0.3135258 0.10152781
0.26228571 -0.28831223 0.099654436
0.28838032 -0.28947181 0.11334801
0.23713112 -0.26312914 0.097800732
0.26310495 -0.26418206 0.11147869
0.21241258 -0.23849843 0.10350943
0.18756194 -0.21372099 0.10826159
0.16264142 -0.18887497 0.11309862
0.13749036 -0.16372027 0.11286712
0.087138429 -0.11330081 0.10847461
0.087204129 0.11283865 0.11274242
0.18763991 0.21320996 0.10994935
0.21250136 0.23796058 0.10515714
0.23718111 0.26248923 0.098612547
0.26316166 0.26364803 0.11229742
0.26234326 0.28769454 0.10048473
0.28753302 0.31292728 0.10234141
0.31275153 0.33818877 0.10420012
0.33841553 0.36399987 0.11057162
0.33807263 0.38866717 0.10685921
0.33770266 0.41323894 0.10285449
0.33733365 0.4377504 0.098859668
0.36384639 0.46494555 0.11363304
0.33745274 0.48801777 0.10014892
0.33784989 0.51375675 0.1044482
0.33824643 0.53956115 0.10874104
0.33864403 0.56543374 0.11304522
0.31296471 0.5894081 0.10671747
0.28743225 0.61340886 0.10103273
0.26302117 0.66543078 0.11026943
0.23787051 0.69045323 0.10980701
-0.38979226 0.71505642 0.10749817
0.18720601 0.71350646 0.10055542
0.1369895 0.73764068 0.096601486
0.16260235 0.74121642 0.11208367
0.086995289 0.7632724 0.099177599
-0.16366103 0.78946358 0.1038636
0.011834713 0.78991765 0.10570645
-0.18932928 0.79158068 0.11245763
-0.18969618 -0.79344022 0.11775339
0.036921743 -0.79509759 0.12469828
0.11246888 -0.76833892 0.11809289
0.18854928 -0.74573386 0.12963808
0.16267569 -0.74224043 0.11398923
-0.39073038 -0.71723557 0.11466646
0.21322924 -0.71809733 0.11866462
0.28866446 -0.64222425 0.11703932
0.31432638 -0.61811388 0.12279797
0.34007716 -0.59391534 0.12855899
0.36516747 -0.54311055 0.12683415
0.36473128 -0.5171898 0.12247562
0.36429629 -0.49133787 0.11812854
0.36387849 -0.4655768 0.11395371
0.39065537 -0.44240108 0.12904465
0.36422122 -0.41569754 0.11737859
0.36458975 -0.39094588 0.12106097
0.3649573 -0.36613649 0.12473416
0.33883828 -0.33994362 0.11514795
0.36532572 -0.34127143 0.12841535
0.31366953 -0.31477404 0.11504102
0.33979839 -0.31574398 0.12554121
0.31454957 -0.29049525 0.1254338
0.28929821 -0.26524386 0.12527227
0.23829612 -0.23941356 0.11671782
0.26429579 -0.24024153 0.128667
0.21360172 -0.21478738 0.12557733
0.11246146 -0.13876697 0.11777139
0.062102892 -0.06322968 0.1179322
0.062138002 0.062781401 0.12249351
0.11256224 0.13841368 0.12213528
0.13754687 0.16322656 0.11470211
0.1627059 0.18838729 0.11477351
0.21368009 0.21439333 0.12703156
0.2383852 0.23896194 0.11816442
0.26439673 0.23988259 0.13012385
0.28935766 0.26481214 0.12604403
0.28844339 0.28895864 0.11416769
0.31461033 0.2900655 0.12615168
0.31373143 0.31427136 0.11577225
0.3398647 0.31532088 0.12625945
0.3389042 0.33944556 0.11586142
0.3653509 0.34082562 0.12866688
0.36498424 0.36566627 0.12500322
0.36461484 0.39044723 0.12131166
0.36424622 0.41517237 0.11762846
0.36387849 0.43984208 0.11395371
0.39062244 0.44189072 0.12873888
0.36426592 0.49073908 0.11782491
0.36470082 0.51662207 0.12217104
0.36513692 0.54257363 0.12652886
0.33997753 0.59324419 0.12748063
0.31423539 0.61739081 0.12172353
0.2885834 0.64145291 0.11598635
0.28974515 0.66975582 0.13107812
0.21310605 0.71703905 0.11637878
0.18845959 0.74482197 0.12769628
0.11238359 0.76690495 0.11439919
0.1380101 0.7705673 0.1297462
-0.21513471 0.79371321 0.12111485
0.036921743 0.79368228 0.12098944
-0.21697634 -0.79995137 0.14503813
0.062274139 -0.79879171 0.14017832
0.13812546 -0.77189529 0.13349271
0.16402474 -0.7754854 0.14903808
0.24002677 -0.72373503 0.14482021
0.26495039 -0.69695342 0.13811553
0.28982559 -0.67041731 0.13212264
0.31560811 -0.6462456 0.1379348
0.34148037 -0.62198466 0.14374912
0.36591688 -0.56962842 0.13432252
0.39246124 -0.54617667 0.14580095
0.39200756 -0.52013296 0.14159131
0.39155701 -0.49415809 0.1374104
0.39110562 -0.46824664 0.13322222
0.41816765 -0.44494614 0.1484921
0.39095801 -0.41748026 0.13185251
0.41793245 -0.41927877 0.14645505
0.39135838 -0.39262095 0.13556778
0.39175776 -0.36770335 0.13927317
0.39215803 -0.34272972 0.14298737
0.36609572 -0.31672028 0.13610959
0.39256114 -0.31770116 0.1467278
0.34076464 -0.29139 0.13600111
0.36714742 -0.29228914 0.14661884
0.3154352 -0.2660614 0.13589275
0.34173706 -0.2668801 0.14652789
0.29026741 -0.2408786 0.13786256
0.31632653 -0.24147129 0.14641869
0.23958158 -0.21552718 0.13759112
0.26568317 -0.21621092 0.14869213
0.18865822 -0.18989331 0.13199663
0.21473165 -0.19067727 0.14654613
0.16366072 -0.16495413 0.13958108
0.16377299 0.16472432 0.14249766
0.18873648 0.18955225 0.13369095
0.214812 0.19043571 0.14803708
0.23967178 0.21522652 0.13905621
0.29036072 0.24057159 0.13907421
0.3163881 0.24119297 0.14714611
0.31549639 0.26570737 0.1366154
0.34180254 0.26660669 0.1472367
0.3408297 0.29104057 0.13670564
0.36722019 0.29202354 0.1473459
0.3661662 0.31637704 0.13681412
0.39263755 0.31744006 0.14743674
0.39218536 0.34239617 0.14324117
0.39178506 0.36734334 0.13952672
0.39138561 0.39223427 0.13582051
0.39098519 0.41706666 0.13210475
0.41796187 0.4189781 0.14670956
0.41813195 0.44458494 0.14818263
0.39107257 0.46776605 0.13291574
0.39152387 0.49370697 0.1371032
0.39197633 0.51971447 0.14130139
0.39242992 0.54578835 0.1455102
0.36581036 0.56901258 0.13325822
0.36733669 0.5971294 0.14851034
0.34138149 0.62142366 0.14267886
0.31551781 0.64563233 0.13686824
0.26479265 0.69606411 0.13583863
0.23988485 0.72287393 0.14251578
0.21487476 0.74978834 0.14920187
0.16387916 0.77426851 0.14525604
0.062245321 0.79748714 0.13643467
-0.064554229 0.82430959 0.14233446
-0.1163564 -0.83035076 0.16537452
-0.090466365 -0.82815135 0.15644538
-0.064843118 -0.82698631 0.15171611
-0.03976151 -0.83082211 0.16728759
0.08786685 -0.80251658 0.15578735
0.21500042 -0.75062203 0.15153396
0.29232445 -0.70245481 0.16458416
0.31729329 -0.67556387 0.15783572
0.34289661 -0.65031505 0.15908062
0.36898389 -0.62590522 0.16497004
0.36744419 -0.59763795 0.14958429
0.39388651 -0.57381207 0.15902567
0.4196358 -0.52315289 0.1612066
0.41914517 -0.49701712 0.15695751
0.41865581 -0.47094825 0.15271938
0.4454824 -0.42142805 0.16390443
0.41836527 -0.39431095 0.15020347
0.44561365 -0.39601603 0.16497004
0.41879699 -0.36928427 0.15394211
0.41922966 -0.344201 0.15768933
0.41959772 -0.31900811 0.16087639
0.39363208 -0.29313982 0.15666497
0.42004281 -0.29382282 0.16473126
0.36820766 -0.26770282 0.15721357
0.39456281 -0.26832524 0.16530108
0.34271401 -0.24221152 0.15710378
0.36907592 -0.24282029 0.16588938
0.29161912 -0.21662532 0.15542173
0.31766105 -0.21704143 0.16217875
0.34360883 -0.21732549 0.16679084
0.26690778 -0.1917454 0.16636765
0.24088581 -0.19133595 0.15876925
0.18991594 -0.16586158 0.15922701
0.13891844 -0.14036326 0.15924549
0.13902572 0.14028861 0.16272914
0.190026 0.16575424 0.16161025
0.24097833 0.19118918 0.16027153
0.26576769 0.21597861 0.149912
0.29171485 0.21644649 0.15666497
0.31776828 0.21691617 0.16344512
0.3427833 0.24201727 0.15785396
0.36913663 0.24268258 0.16649628
0.36826995 0.26750407 0.15783572
0.39463019 0.26818925 0.16592622
0.39369515 0.29293844 0.15725017
0.42011285 0.29368544 0.16533792
0.41962311 0.3188071 0.16109657
0.41925713 0.34397894 0.15792716
0.41882652 0.3690373 0.15419781
0.41839474 0.39403716 0.15045881
0.44564533 0.39585614 0.16522753
0.44544393 0.42118746 0.16359234
0.41861996 0.47061726 0.1524092
0.41910926 0.49671605 0.15664649
0.4195998 0.52288187 0.16089487
0.3937701 0.57338345 0.15794563
0.36887723 0.62550867 0.16390443
0.34279853 0.64986563 0.15801895
0.31710127 0.67484593 0.155568
0.29214776 0.7017653 0.1622889
-0.37008607 0.75027215 0.15129685
-0.32005882 0.7775895 0.15917218
0.19018289 0.77898192 0.16500688
0.087808669 0.80132347 0.15200782
-0.11611055 0.82881021 0.1600517
-0.090263277 0.82655364 0.15116942
-0.039521251 0.82800543 0.15688431
-0.014442433 -0.83469421 0.18300641
0.11370331 -0.80627698 0.17154479
0.19043972 -0.7804572 0.17056692
0.24208365 -0.75657934 0.17821968
0.26725492 -0.72945958 0.17137861
0.34525618 -0.68092549 0.1846236
0.37053806 -0.65443724 0.18049991
0.39559007 -0.6021083 0.17483258
0.42068684 -0.55013865 0.17030895
0.44767269 -0.52630615 0.18168783
0.44706309 -0.49991018 0.17673826
0.44653481 -0.47368202 0.17244923
0.44600791 -0.44752145 0.16817141
0.47368994 -0.42394328 0.18432617
0.47319162 -0.39781138 0.18051851
0.44602379 -0.37083158 0.16830015
0.47340542 -0.37232453 0.18215215
0.44641662 -0.34558189 0.17148924
0.44680789 -0.32028204 0.17466629
0.44720221 -0.29493517 0.17786753
0.42104703 -0.26895097 0.17342794
0.44765902 -0.26957822 0.18157637
0.39550039 -0.24338229 0.17400086
0.42205438 -0.24394694 0.18215203
0.36994499 -0.2178047 0.17457378
0.39644092 -0.2183069 0.18272781
0.29298678 -0.19211282 0.17318785
0.3189958 -0.19236912 0.1779418
0.34490269 -0.19252288 0.18079698
0.37085399 -0.19267701 0.18365681
0.21594855 -0.16631886 0.16912925
0.2420323 -0.16670023 0.17738616
0.26814681 -0.16701734 0.18425179
0.16527428 -0.14121996 0.18150198
0.11367264 -0.11520196 0.1702168
0.088067725 -0.089586385 0.16883445
0.088131905 0.089552894 0.1730032
0.11375661 0.11519071 0.17385304
0.16539013 0.14129475 0.18451214
0.21607773 0.16628858 0.17152631
0.24210991 0.16667219 0.17864597
0.26699448 0.19164164 0.16761887
0.29308349 0.1920619 0.17444432
0.31907898 0.19233793 0.17892373
0.34499356 0.19251382 0.18178046
0.37095258 0.19269007 0.18464231
0.34370068 0.21721694 0.16778457
0.3700079 0.21773063 0.17520249
0.39650902 0.21829592 0.1833595
0.39556813 0.24330857 0.17462909
0.42212731 0.2439363 0.18278348
0.42111742 0.26887617 0.17403793
0.44773448 0.26956633 0.18218899
0.44722956 0.29486358 0.17808998
0.44683293 0.32018551 0.17486954
0.44644162 0.34546259 0.17169237
0.446051 0.37069145 0.1685214
0.47343457 0.37229109 0.18237484
0.47315767 0.39770755 0.18025899
0.47365344 0.42386422 0.18404734
0.44596937 0.44731119 0.16785836
0.44649616 0.47350222 0.17213535
0.44702435 0.49976084 0.17642355
0.44755384 0.52608722 0.18072283
0.42055917 0.54980081 0.16920292
0.42239565 0.57819259 0.18510735
0.39547452 0.6017946 0.17376053
0.37043411 0.6541574 0.1794616
0.345045 0.68040997 0.18233776
0.26709399 0.72879875 0.16905546
0.24193884 0.7559467 0.17586839
0.1136152 0.80519599 0.1677295
0.13966841 0.80910581 0.18360114
-0.14255999 0.83326083 0.1775713
-0.014280461 0.83196884 0.17248619
-0.14387794 -0.83938009 0.20202899
0.011117645 -0.83859867 0.19885612
0.13978644 -0.81006867 0.18743443
0.29492664 -0.73528117 0.19838715
0.32014239 -0.70804536 0.19148195
0.39730993 -0.63067579 0.19079113
0.4243778 -0.60696667 0.20227325
0.42252243 -0.57841516 0.18620539
0.44964179 -0.55456251 0.19767475
0.47531664 -0.50283813 0.19675648
0.47474861 -0.47644874 0.19241595
0.47418693 -0.45013261 0.18812382
0.50182992 -0.40029082 0.20199132
0.50129938 -0.37405005 0.1981622
0.47382626 -0.34697086 0.18536782
0.50146574 -0.34837136 0.19936264
0.47424549 -0.32156649 0.18857133
0.50191331 -0.32286182 0.20259297
0.47466794 -0.29611492 0.1917994
0.47508878 -0.27061272 0.19501531
0.47542948 -0.24501848 0.19761848
0.44873878 -0.24451452 0.19034314
0.42306703 -0.21881154 0.1909219
0.44958177 -0.21919744 0.19718766
0.39735821 -0.19308567 0.19123924
0.42382082 -0.19342028 0.1974498
0.29421547 -0.16724372 0.18914938
0.32018825 -0.16737646 0.19202375
0.34620574 -0.16750932 0.1949029
0.37213492 -0.16758125 0.19645691
0.39805585 -0.16763908 0.1977123
0.19148944 -0.1416738 0.19329441
0.21759592 -0.1419204 0.19970024
0.24354066 -0.14200419 0.20187879
0.2693173 -0.141976 0.20114601
0.14024451 -0.11619013 0.20231104
0.19160178 0.14181265 0.19572639
0.21769813 0.14208378 0.20159686
0.26941493 0.14212793 0.20255542
0.26823315 0.16704138 0.18549812
0.29429016 0.16729051 0.1901195
0.32027212 0.16744648 0.19301403
0.34629738 0.16760176 0.19589496
0.37220615 0.1676704 0.19716883
0.39810637 0.16772489 0.19818103
0.39740855 0.19312514 0.19170606
0.42387494 0.19350769 0.19791853
0.42312524 0.21885458 0.19142592
0.4496372 0.2192851 0.19763744
0.44881696 0.24456707 0.19097769
0.475454 0.24509269 0.197806
0.4751206 0.27067316 0.19525862
0.47469726 0.29615065 0.19202375
0.47427228 0.32157713 0.18877637
0.50194192 0.32298055 0.2027998
0.47385305 0.34695828 0.1855725
0.50149429 0.34846678 0.19956923
0.5012604 0.37408146 0.1978811
0.50179088 0.40034965 0.20170975
0.47415036 0.45008057 0.18784428
0.47470707 0.47642201 0.1920985
0.47527498 0.50284225 0.19643819
0.44950566 0.55443543 0.19656909
0.42425197 0.60686094 0.20118368
0.39719328 0.63047463 0.18970871
0.31994644 0.70755923 0.18916798
-0.45253992 0.73420566 0.19327569
-0.42704314 0.73463166 0.19518375
0.29474631 0.734824 0.19604492
0.011199256 0.83597463 0.18825436
0.036921743 -0.8425355 0.21483827
0.16635144 -0.81533152 0.20948756
0.21825463 -0.79000849 0.21192443
0.27023441 -0.76465267 0.21438372
0.34841329 -0.71372348 0.21880054
0.3738437 -0.68671131 0.21353209
0.40013841 -0.66146851 0.21703613
0.42648575 -0.63616991 0.22052872
0.4516322 -0.5830943 0.21383476
0.47695062 -0.53054839 0.20924222
0.50342906 -0.47937477 0.21353209
0.50289482 -0.45295304 0.20967638
0.50236177 -0.42659184 0.2058295
0.53026944 -0.3763867 0.2198447
0.52970338 -0.35003382 0.21597481
0.5298143 -0.32416803 0.21673298
0.5023644 -0.29730457 0.20584834
0.53018337 -0.29843983 0.21925604
0.50271964 -0.27164394 0.20841181
0.50305969 -0.2459363 0.21086597
0.47618872 -0.21958131 0.20342028
0.50340283 -0.2201923 0.21334279
0.4503819 -0.19375616 0.20368361
0.47704202 -0.19409344 0.20994067
0.50380164 -0.1944318 0.21622109
0.42457107 -0.16792713 0.20394707
0.45118514 -0.16821618 0.21020496
0.4778986 -0.16850631 0.21648633
0.2953054 -0.14205921 0.20330739
0.32138762 -0.14217009 0.20618761
0.34728122 -0.14218381 0.20654523
0.37315395 -0.14218743 0.20663965
0.39902607 -0.14219041 0.20671523
0.42532638 -0.1423355 0.2104882
0.45193544 -0.14255911 0.21629691
0.1666719 -0.11666747 0.21781385
0.29636514 -0.11664476 0.21707404
0.32227898 -0.11663369 0.21671379
0.34822756 -0.11663603 0.21678972
0.37417918 -0.11663891 0.21688449
0.40004647 -0.11661725 0.21618307
0.42588988 -0.11659224 0.21536839
0.45243093 -0.11674462 0.22031963
0.42649671 -0.090782426 0.22062373
0.14033662 0.11640126 0.20530224
0.1667669 0.11697785 0.22028172
