ply
format ascii 1.0
comment PCL generated
element vertex 1375
property float x
property float y
property float z
element camera 0
property float view_px
property float view_py
property float view_pz
property float x_axisx
property float x_axisy
property float x_axisz
property float y_axisx
property float y_axisy
property float y_axisz
property float z_axisx
property float z_axisy
property float z_axisz
property float focal
property float scalex
property float scaley
property float centerx
property float centery
property int viewportx
property int viewporty
property float k1
property float k2
end_header
0.53567725 -0.16490051 -0.15798068
-0.53745145 -0.1439687 -0.15630257
0.53561741 -0.14384618 -0.15829146
-0.53742433 -0.1229133 -0.15643811
0.53567469 -0.12282944 -0.15799403
-0.53877705 -0.10217845 -0.14967942
0.53697652 -0.10210684 -0.15122962
-0.51659888 -0.080863535 -0.15528691
0.51485461 -0.080804169 -0.15683067
-0.51794785 -0.060023505 -0.14827716
0.51610541 -0.059968624 -0.1500603
-0.49650106 -0.038871568 -0.15010095
0.49479508 -0.0388445 -0.15127027
-0.47608286 -0.017834689 -0.14627385
-0.45337838 -0.017691046 -0.15559852
0.45173132 -0.017673001 -0.15677655
0.47435588 -0.017816693 -0.14744627
-0.43294114 0.0033329856 -0.15178657
-0.4107652 0.0033876188 -0.15888619
-0.38973704 0.0033876188 -0.15888619
-0.36870885 0.0033876188 -0.15888619
-0.34768066 0.0033876188 -0.15888619
-0.32665247 0.0033876188 -0.15888619
-0.30562431 0.0033876188 -0.15888619
-0.28459612 0.0033876188 -0.15888619
-0.26356795 0.0033876188 -0.15888619
-0.24253975 0.0033876188 -0.15888619
-0.22151159 0.0033876188 -0.15888619
-0.2004834 0.0033876188 -0.15888619
-0.17945522 0.0033876188 -0.15888619
-0.15842703 0.0033876188 -0.15888619
-0.13739885 0.0033876188 -0.15888619
-0.11637066 0.0033876188 -0.15888619
-0.095342487 0.0033876188 -0.15888619
-0.074314304 0.0033876188 -0.15888619
-0.05328612 0.0033876188 -0.15888619
-0.032257937 0.0033876188 -0.15888619
-0.011229757 0.0033876188 -0.15888619
0.0097984243 0.0033876188 -0.15888619
0.030826606 0.0033876188 -0.15888619
0.051854789 0.0033876188 -0.15888619
0.072882965 0.0033876188 -0.15888619
0.093911149 0.0033876188 -0.15888619
0.11493933 0.0033876188 -0.15888619
0.13596751 0.0033876188 -0.15888619
0.1569957 0.0033876188 -0.15888619
0.17802387 0.0033876188 -0.15888619
0.19905207 0.0033876188 -0.15888619
0.22008024 0.0033876188 -0.15888619
0.24110843 0.0033876188 -0.15888619
0.26213661 0.0033876188 -0.15888619
0.28316483 0.0033876188 -0.15888619
0.30419299 0.0033876188 -0.15888619
0.32522118 0.0033876188 -0.15888619
0.34624934 0.0033876188 -0.15888619
0.36727753 0.0033876188 -0.15888619
0.38830572 0.0033876188 -0.15888619
0.40933391 0.0033876188 -0.15888619
0.43127328 0.0033421088 -0.15296793
0.45385957 0.0032700673 -0.14361167
-0.01141192 -0.5058428 -0.13522291
0.0097984243 -0.50532728 -0.13790119
-0.20203546 -0.48398545 -0.13872445
-0.33041251 -0.44337419 -0.12835872
0.32839239 -0.4428553 -0.13142276
-0.3718411 -0.42083031 -0.13628113
0.36983171 -0.42033112 -0.13936865
-0.41547376 -0.40085632 -0.12830353
0.41262811 -0.39961541 -0.13636339
-0.45581147 -0.35653761 -0.14123189
-0.4775458 -0.33579513 -0.1380111
0.4752855 -0.33527866 -0.14195704
-0.49932352 -0.31499881 -0.13482392
0.49701154 -0.31451499 -0.13875175
-0.52114904 -0.29415253 -0.13164341
0.51878822 -0.29370281 -0.13553894
0.54148972 -0.27333128 -0.12777817
-0.54166502 -0.25131589 -0.13525033
0.53953892 -0.25104919 -0.13791502
0.56298435 -0.23090066 -0.12664425
-0.5631125 -0.20899226 -0.13410866
0.5609538 -0.20876525 -0.13678932
-0.56196219 -0.18734722 -0.13964295
0.55997699 -0.18719128 -0.14166975
-0.56189382 -0.16614826 -0.13997173
0.55991405 -0.16600876 -0.14198446
-0.56228995 -0.1450918 -0.13806581
0.56001258 -0.14488076 -0.14149189
-0.5629009 -0.12406175 -0.13512647
0.56059951 -0.12387674 -0.1385597
-0.56396025 -0.10308607 -0.13002968
0.56181002 -0.10297143 -0.13251162
-0.54087913 -0.081483662 -0.13917696
0.53881896 -0.08138828 -0.14165604
-0.54304713 -0.060637254 -0.12834489
0.54090244 -0.060560849 -0.13082993
-0.52002132 -0.039162535 -0.13750327
0.51808065 -0.039119471 -0.13936877
-0.49935147 -0.018013299 -0.13467276
0.49741736 -0.017985784 -0.13645959
-0.4786537 0.0031787511 -0.13175356
-0.45560753 0.0032610428 -0.14243579
0.47671029 0.0031926297 -0.13354445
-0.032954 -0.50998944 -0.11367583
0.031153588 -0.50946325 -0.11641026
0.39453933 -0.42444843 -0.11389923
0.48003021 -0.36031926 -0.11394107
0.50198847 -0.33937678 -0.11064196
-0.54369229 -0.27361763 -0.12512159
-0.56734192 -0.25346643 -0.11375964
0.56502986 -0.25319988 -0.11642408
-0.5652194 -0.23114763 -0.12397158
-0.58907586 -0.18946783 -0.11209679
0.58623141 -0.18907778 -0.1171627
-0.58881384 -0.16799523 -0.1133126
0.58630961 -0.16775458 -0.11678648
-0.58945882 -0.14680047 -0.11032009
0.58693004 -0.14658609 -0.11380136
0.58755469 -0.12537286 -0.11079597
-0.56622666 -0.082255378 -0.11912537
0.56399131 -0.082159638 -0.12161291
0.56618994 -0.061182883 -0.11062801
-0.54523224 -0.039626118 -0.11742735
0.54300243 -0.039568547 -0.11991811
-0.5233227 -0.018233787 -0.12034893
0.52126366 -0.018206224 -0.12214053
-0.50254273 0.0030682627 -0.11739933
0.50047415 0.003082091 -0.11919487
-0.48171851 0.024415821 -0.11444366
-0.45855159 0.024415918 -0.12505233
-0.43726292 0.024415918 -0.12505233
-0.41597432 0.024415918 -0.12505233
-0.39468566 0.024415918 -0.12505233
-0.37339702 0.024415918 -0.12505233
-0.35210839 0.024415918 -0.12505233
-0.33081976 0.024415918 -0.12505233
-0.30953112 0.024415918 -0.12505233
-0.28824249 0.024415918 -0.12505233
-0.26695386 0.024415918 -0.12505233
-0.24566524 0.024415918 -0.12505233
-0.22437659 0.024415918 -0.12505233
-0.20308796 0.024415918 -0.12505233
-0.18179931 0.024415918 -0.12505233
-0.16051067 0.024415918 -0.12505233
-0.13922204 0.024415918 -0.12505233
-0.11793341 0.024415918 -0.12505233
-0.096644767 0.024415918 -0.12505233
-0.075356126 0.024415918 -0.12505233
-0.054067492 0.024415918 -0.12505233
-0.032778852 0.024415918 -0.12505233
-0.011490213 0.024415918 -0.12505233
0.0097984243 0.024415918 -0.12505233
0.031087061 0.024415918 -0.12505233
0.052375697 0.024415918 -0.12505233
0.073664337 0.024415918 -0.12505233
0.094952971 0.024415918 -0.12505233
0.11624161 0.024415918 -0.12505233
0.13753025 0.024415918 -0.12505233
0.15881889 0.024415918 -0.12505233
0.18010752 0.024415918 -0.12505233
0.20139615 0.024415918 -0.12505233
0.2226848 0.024415918 -0.12505233
0.24397343 0.024415918 -0.12505233
0.2652621 0.024415918 -0.12505233
0.28655073 0.024415918 -0.12505233
0.30783936 0.024415918 -0.12505233
0.329128 0.024415918 -0.12505233
0.35041663 0.024415918 -0.12505233
0.37170526 0.024415918 -0.12505233
0.3929939 0.024415918 -0.12505233
0.41428253 0.024415918 -0.12505233
0.43557119 0.024415918 -0.12505233
0.4568598 0.024415918 -0.12505233
0.47964033 0.024415918 -0.116243
-0.3975049 -0.42576155 -0.10577714
0.46180177 -0.38453946 -0.094481707
-0.48267674 -0.36099944 -0.1090318
-0.50452399 -0.33989584 -0.10667562
-0.52658415 -0.31886899 -0.10340154
0.52399635 -0.31838274 -0.10734928
-0.54869068 -0.29778942 -0.10014772
0.54605377 -0.29733732 -0.10406268
-0.57084888 -0.2766605 -0.096886754
0.56816053 -0.27624074 -0.10078228
0.5903635 -0.23361306 -0.09728229
-0.59120798 -0.21169382 -0.10220516
0.58829153 -0.2112665 -0.10725093
-0.59010524 -0.12556008 -0.10732114
-0.59075612 -0.10427436 -0.10430169
0.58818078 -0.1041135 -0.10778403
-0.59194642 -0.083038613 -0.09877944
0.58952761 -0.082941458 -0.1013037
-0.56851107 -0.061259586 -0.10813463
-0.57081366 -0.04009657 -0.09705627
0.56840611 -0.040038895 -0.099555492
-0.54754716 -0.018456873 -0.10586131
0.54536194 -0.018429216 -0.10765767
-0.5266844 0.0029565468 -0.10288084
0.52448672 0.0029705726 -0.10469532
-0.50577688 0.024415771 -0.099894047
0.50356948 0.024415918 -0.10171223
0.13910003 -0.51434088 -0.091065407
0.16100371 -0.51560301 -0.084506869
0.35570937 -0.4512116 -0.082080722
-0.4650996 -0.38572335 -0.086387992
-0.59660983 -0.25713083 -0.077143788
0.59262192 -0.25620282 -0.086416364
-0.5933553 -0.23407863 -0.092242837
-0.61748415 -0.1702581 -0.080651402
0.61434919 -0.16990404 -0.085761189
-0.61718112 -0.14854397 -0.082009196
0.6144014 -0.14832783 -0.085518956
-0.61786747 -0.12708971 -0.078934431
0.61505944 -0.12689947 -0.082466125
0.61571884 -0.10542423 -0.079406738
-0.59435034 -0.061891135 -0.087626338
0.59184748 -0.061813656 -0.090142488
0.59418595 -0.040516119 -0.078891635
-0.57314056 -0.018764704 -0.085860968
0.57063997 -0.018725865 -0.088394403
-0.55107731 0.0028437525 -0.088223815
0.54875189 0.0028577279 -0.090043068
-0.53008604 0.024415918 -0.085205555
0.52775067 0.024415869 -0.087028742
-0.50904423 0.046034284 -0.082209229
-0.48597339 0.045971166 -0.090412259
-0.46441808 0.045971166 -0.090412259
-0.44286278 0.045971166 -0.090412259
-0.42130747 0.045971166 -0.090412259
-0.39975217 0.045971166 -0.090412259
-0.37819687 0.045971166 -0.090412259
-0.35664156 0.045971166 -0.090412259
-0.33508629 0.045971166 -0.090412259
-0.31353098 0.045971166 -0.090412259
-0.29197568 0.045971166 -0.090412259
-0.2704204 0.045971166 -0.090412259
-0.24886514 0.045971166 -0.090412259
-0.22730984 0.045971166 -0.090412259
-0.20575453 0.045971166 -0.090412259
-0.18419923 0.045971166 -0.090412259
-0.16264394 0.045971166 -0.090412259
-0.14108863 0.045971166 -0.090412259
-0.11953336 0.045971166 -0.090412259
-0.097978055 0.045971166 -0.090412259
-0.076422758 0.045971166 -0.090412259
-0.054867469 0.045971166 -0.090412259
-0.033312164 0.045971166 -0.090412259
-0.011756871 0.045971166 -0.090412259
0.0097984243 0.045971166 -0.090412259
0.03135372 0.045971166 -0.090412259
0.052909017 0.045971166 -0.090412259
0.074464314 0.045971166 -0.090412259
0.096019603 0.045971166 -0.090412259
0.1175749 0.045971166 -0.090412259
0.1391302 0.045971166 -0.090412259
0.16068548 0.045971166 -0.090412259
0.18224078 0.045971166 -0.090412259
0.20379607 0.045971166 -0.090412259
0.22535138 0.045971166 -0.090412259
0.24690668 0.045971166 -0.090412259
0.268462 0.045971166 -0.090412259
0.29001728 0.045971166 -0.090412259
0.31157255 0.045971166 -0.090412259
0.33312786 0.045971166 -0.090412259
0.35468316 0.045971166 -0.090412259
0.37623844 0.045971166 -0.090412259
0.39779374 0.045971166 -0.090412259
0.41934904 0.045971166 -0.090412259
0.44090435 0.045971166 -0.090412259
0.46245965 0.045971166 -0.090412259
0.48401496 0.045971166 -0.090412259
0.50669914 0.046020254 -0.084036231
0.11818391 -0.51751155 -0.074589729
-0.35991514 -0.45403707 -0.065397739
-0.44726673 -0.41088429 -0.063169837
0.44384286 -0.40962854 -0.071326256
-0.53369504 -0.34515974 -0.066452503
0.53005403 -0.34409854 -0.074561238
-0.5544737 -0.32282853 -0.071254134
0.55160153 -0.32233807 -0.075235963
-0.5770815 -0.30162844 -0.066900253
0.57394671 -0.30105427 -0.071873069
-0.62201768 -0.21523844 -0.060343981
0.61873221 -0.21480808 -0.065426588
-0.61974275 -0.19266731 -0.070534229
0.61653125 -0.19227441 -0.075637817
-0.61855221 -0.10558778 -0.075867414
-0.61923838 -0.084038749 -0.072793722
0.61638278 -0.083902806 -0.076326489
-0.62057662 -0.062532455 -0.066799045
0.61788279 -0.062453348 -0.069367051
-0.59677362 -0.040573988 -0.07638371
-0.59922266 -0.019085631 -0.065021873
0.59654325 -0.019046791 -0.067549825
-0.57573104 0.0027295351 -0.073397279
0.5732736 0.002743708 -0.075235963
-0.55465531 0.024415918 -0.070347071
0.55218774 0.024415918 -0.07218945
-0.53352833 0.046148989 -0.067318916
0.53105354 0.046134815 -0.069150805
0.2940667 -0.47852018 -0.049948335
0.51252246 -0.36902037 -0.051145911
0.62145799 -0.2377239 -0.05278039
-0.64654285 -0.15060849 -0.048486114
0.64311099 -0.15029101 -0.053640723
-0.64619851 -0.12865001 -0.049977541
0.64313698 -0.1284589 -0.053523898
-0.64692146 -0.10692813 -0.046846867
0.64383417 -0.10676397 -0.050401092
0.64452958 -0.085020557 -0.047286153
0.64523304 -0.063230306 -0.044134855
-0.62312394 -0.041058954 -0.055388451
0.6203441 -0.040999811 -0.057948351
-0.62569517 -0.019411262 -0.043870807
0.62282538 -0.019371737 -0.046436667
-0.60169148 0.0025769193 -0.053567767
0.59891665 0.0025966819 -0.056130767
-0.57948321 0.024415918 -0.055344939
0.57688498 0.024415869 -0.057192564
-0.55827343 0.046264723 -0.052269816
0.55566496 0.046250552 -0.054121614
-0.53701478 0.068160951 -0.0492028
-0.51409352 0.068073563 -0.05487895
-0.49226466 0.068073563 -0.05487895
-0.47043586 0.068073563 -0.05487895
-0.44860703 0.068073563 -0.05487895
-0.42677817 0.068073563 -0.05487895
-0.40494937 0.068073563 -0.05487895
-0.38312054 0.068073563 -0.05487895
-0.36129171 0.068073563 -0.05487895
-0.33946285 0.068073563 -0.05487895
-0.31763405 0.068073563 -0.05487895
-0.29580522 0.068073563 -0.05487895
-0.27397636 0.068073563 -0.05487895
-0.25214753 0.068073563 -0.05487895
-0.23031873 0.068073563 -0.05487895
-0.20848988 0.068073563 -0.05487895
-0.18666106 0.068073563 -0.05487895
-0.16483222 0.068073563 -0.05487895
-0.1430034 0.068073563 -0.05487895
-0.12117456 0.068073563 -0.05487895
-0.099345729 0.068073563 -0.05487895
-0.077516899 0.068073563 -0.05487895
-0.055688068 0.068073563 -0.05487895
-0.033859238 0.068073563 -0.05487895
-0.012030406 0.068073563 -0.05487895
0.0097984243 0.068073563 -0.05487895
0.031627253 0.068073563 -0.05487895
0.053456083 0.068073563 -0.05487895
0.075284913 0.068073563 -0.05487895
0.097113743 0.068073563 -0.05487895
0.11894257 0.068073563 -0.05487895
0.1407714 0.068073563 -0.05487895
0.16260025 0.068073563 -0.05487895
0.18442906 0.068073563 -0.05487895
0.20625791 0.068073563 -0.05487895
0.22808672 0.068073563 -0.05487895
0.24991557 0.068073563 -0.05487895
0.2717444 0.068073563 -0.05487895
0.29357323 0.068073563 -0.05487895
0.31540209 0.068073563 -0.05487895
0.33723092 0.068073563 -0.05487895
0.35905972 0.068073563 -0.05487895
0.38088858 0.068073563 -0.05487895
0.40271741 0.068073563 -0.05487895
0.42454624 0.068073563 -0.05487895
0.44637504 0.068073563 -0.05487895
0.4682039 0.068073563 -0.05487895
0.49003273 0.068073563 -0.05487895
0.5118615 0.068073563 -0.05487895
0.53439623 0.068132311 -0.051058412
-0.51626569 -0.37013215 -0.043121934
-0.60615695 -0.28356189 -0.032850623
0.60177004 -0.28253239 -0.042402267
-0.62581319 -0.23859589 -0.043342113
-0.65134794 -0.19596627 -0.027679563
0.64775217 -0.19556816 -0.032850623
-0.64893323 -0.17320368 -0.038135409
0.64542311 -0.17284696 -0.043283582
-0.64764607 -0.085158214 -0.043709397
-0.64837563 -0.063340694 -0.040550113
-0.649867 -0.041550737 -0.034092426
0.64689487 -0.041490715 -0.036690831
-0.62829071 0.0024127774 -0.032244205
0.62532371 0.0024328362 -0.034845948
-0.60457987 0.024415968 -0.04016757
0.6018464 0.024415918 -0.042035103
-0.58328068 0.046381738 -0.037074208
0.58053994 0.046367466 -0.038931012
-0.56193525 0.068395376 -0.03397429
0.55918419 0.068366736 -0.035835028
0.65099764 -0.21879759 -0.018312693
-0.67627102 -0.13050307 -0.015590787
0.67253917 -0.13022359 -0.020775795
-0.67588186 -0.10829651 -0.01722157
0.67253572 -0.10813163 -0.020790696
-0.67664629 -0.086301073 -0.014018178
0.67327362 -0.086163312 -0.017595291
0.67400974 -0.064145654 -0.014407873
0.67475098 -0.0420794 -0.011198163
-0.65256709 -0.019741949 -0.022400498
0.64950353 -0.019701783 -0.025005221
-0.6309076 0.024415918 -0.020522237
0.6278457 0.024415869 -0.023145199
-0.60856038 0.046500124 -0.021700025
0.60568285 0.046485607 -0.023576975
-0.58712745 0.068632588 -0.018566608
0.58423942 0.06860365 -0.020447612
-0.56572253 0.09082213 -0.015051842
-0.5429337 0.09074381 -0.018447042
-0.52082437 0.09074381 -0.018447042
-0.49871507 0.09074381 -0.018447042
-0.47660577 0.09074381 -0.018447042
-0.45449653 0.09074381 -0.018447042
-0.43238726 0.09074381 -0.018447042
-0.41027793 0.09074381 -0.018447042
-0.38816866 0.09074381 -0.018447042
-0.36605939 0.09074381 -0.018447042
-0.34395009 0.09074381 -0.018447042
-0.32184082 0.09074381 -0.018447042
-0.29973155 0.09074381 -0.018447042
-0.27762225 0.09074381 -0.018447042
-0.25551295 0.09074381 -0.018447042
-0.23340368 0.09074381 -0.018447042
-0.21129443 0.09074381 -0.018447042
-0.18918513 0.09074381 -0.018447042
-0.16707586 0.09074381 -0.018447042
-0.14496657 0.09074381 -0.018447042
-0.12285727 0.09074381 -0.018447042
-0.100748 0.09074381 -0.018447042
-0.07863871 0.09074381 -0.018447042
-0.056529425 0.09074381 -0.018447042
-0.03442014 0.09074381 -0.018447042
-0.012310859 0.09074381 -0.018447042
0.0097984243 0.09074381 -0.018447042
0.031907707 0.09074381 -0.018447042
0.054016992 0.09074381 -0.018447042
0.07612627 0.09074381 -0.018447042
0.098235555 0.09074381 -0.018447042
0.12034485 0.09074381 -0.018447042
0.14245412 0.09074381 -0.018447042
0.16456342 0.09074381 -0.018447042
0.1866727 0.09074381 -0.018447042
0.20878197 0.09074381 -0.018447042
0.23089127 0.09074381 -0.018447042
0.25300053 0.09074381 -0.018447042
0.27510983 0.09074381 -0.018447042
0.29721913 0.09074381 -0.018447042
0.31932843 0.09074381 -0.018447042
0.3414377 0.09074381 -0.018447042
0.36354697 0.09074381 -0.018447042
0.38565627 0.09074381 -0.018447042
0.40776554 0.09074381 -0.018447042
0.42987481 0.09074381 -0.018447042
0.45198414 0.09074381 -0.018447042
0.47409341 0.09074381 -0.018447042
0.49620265 0.09074381 -0.018447042
0.51831192 0.09074381 -0.018447042
0.54042119 0.09074381 -0.018447042
0.56275201 0.090770289 -0.017296433
-0.63593882 -0.2650525 0.0020149946
0.63117254 -0.26407927 -0.0077105761
-0.65572679 -0.21961007 -0.008718729
0.67745268 -0.17588049 0.00050055981
-0.67880583 -0.15328847 -0.0049687624
0.67498684 -0.1529678 -0.010176778
-0.67741597 -0.064256936 -0.010792851
-0.67866194 -0.042209264 -0.0055718422
0.67815608 -0.020141337 0.0035462379
-0.65625167 0.0022142101 -0.0064457655
0.65270656 0.0022465773 -0.01065743
-0.63554329 0.046668973 0.00024318695
0.6322971 0.046647932 -0.0024933815
-0.61407727 0.068978421 0.0038951635
0.61082572 0.068936393 0.0011668205
0.58929688 0.091281161 0.0048209429
0.68126374 -0.19940588 0.017002702
-0.68136311 -0.17624395 0.0057475567
0.70265353 -0.10968511 0.012844205
0.70424193 -0.087591201 0.019500375
-0.68184924 -0.020206563 0.0077844858
-0.66109812 0.024415918 0.014539719
0.65737772 0.024415869 0.010266304
-0.59256017 0.091344565 0.007571578
-0.57253069 0.11400495 0.018963695
-0.55013341 0.11400495 0.018963695
-0.52773613 0.11400495 0.018963695
-0.50533885 0.11400495 0.018963695
-0.48294157 0.11400495 0.018963695
-0.46054426 0.11400495 0.018963695
-0.43814939 0.11400549 0.018979073
-0.41575196 0.11400549 0.018979073
-0.39335459 0.11400549 0.018979073
-0.3709572 0.11400549 0.018979073
-0.34855983 0.11400549 0.018979073
-0.3261624 0.11400549 0.018979073
-0.30376503 0.11400549 0.018979073
-0.28136918 0.11400594 0.018994451
-0.25897166 0.11400594 0.018994451
-0.23657417 0.11400594 0.018994451
-0.21417667 0.11400594 0.018994451
-0.19177915 0.11400594 0.018994451
-0.16938163 0.11400594 0.018994451
-0.14698415 0.11400594 0.018994451
-0.12458734 0.11400628 0.019009829
0.12178656 0.11400628 0.019009829
0.14418347 0.11400594 0.018994451
0.16658099 0.11400594 0.018994451
0.18897848 0.11400594 0.018994451
0.211376 0.11400594 0.018994451
0.23377351 0.11400594 0.018994451
0.25617102 0.11400594 0.018994451
0.27856854 0.11400594 0.018994451
0.30096453 0.11400549 0.018979073
0.3233619 0.11400549 0.018979073
0.34575927 0.11400549 0.018979073
0.3681567 0.11400549 0.018979073
0.39055407 0.11400549 0.018979073
0.41295147 0.11400549 0.018979073
0.43534884 0.11400549 0.018979073
0.45774627 0.11400549 0.018979073
0.48014113 0.11400495 0.018963695
0.50253844 0.11400495 0.018963695
0.52493566 0.11400495 0.018963695
0.54733294 0.11400495 0.018963695
0.56973022 0.11400495 0.018963695
-0.66645283 -0.24608462 0.037726402
0.66130012 -0.24517109 0.02783668
-0.68638057 -0.20015797 0.026772738
0.70785093 -0.1557267 0.034623742
-0.71079868 -0.1332148 0.034732342
0.70524251 -0.13261993 0.023693323
-0.70852673 -0.11027008 0.025509357
-0.70870513 -0.087850332 0.026233435
0.7072708 -0.065580651 0.032192945
-0.6869033 0.0019416399 0.028963089
0.68303627 0.0019745938 0.024678111
-0.66601199 0.046942916 0.035817623
0.6621207 0.046909712 0.031512499
-0.64147615 0.06933137 0.026818991
0.63801771 0.069288611 0.024047136
-0.61982346 0.091875389 0.030553937
0.61635613 0.091811135 0.027775168
-0.59811527 0.11447717 0.03429842
0.59464216 0.11439183 0.031527758
-0.713085 -0.15630504 0.044013739
-0.71184242 -0.065789223 0.038969278
-0.71500725 -0.0435347 0.05181694
0.71032631 -0.043377127 0.0449965
-0.69203168 0.024415771 0.050453424
0.6879918 0.024415821 0.046136379
0.66693014 0.069735274 0.053056002
-0.64752257 0.092414588 0.05390358
0.64384794 0.092349768 0.051095843
0.62199259 0.11511128 0.054893136
0.69218731 -0.22579341 0.064303279
-0.71820384 -0.021084301 0.064793468
0.7134124 -0.02097857 0.057928801
0.71652198 0.0016183611 0.070959568
0.69302088 0.047189984 0.067912817
-0.67099833 0.069802269 0.057409167
-0.62567639 0.11519797 0.057708263
-0.60377371 0.13804036 0.061522961
-0.58021599 0.13788019 0.05736208
-0.55752313 0.13788019 0.05736208
-0.53483027 0.13788019 0.05736208
-0.51213747 0.13788019 0.05736208
-0.48944455 0.13788019 0.05736208
-0.46675169 0.13788019 0.05736208
-0.44405881 0.13788019 0.05736208
-0.42136824 0.13788077 0.057377815
-0.39867526 0.13788077 0.057377815
-0.37598228 0.13788077 0.057377815
-0.35328931 0.13788077 0.057377815
-0.33059633 0.13788077 0.057377815
-0.30790502 0.13788152 0.057393432
-0.2852135 0.1378819 0.057409286
-0.26252171 0.13788255 0.057425022
-0.23982975 0.13788323 0.057440758
-0.21713625 0.13788323 0.057440758
-0.19444388 0.13788383 0.057456493
0.19134714 0.13788383 0.057456493
0.21403965 0.13788323 0.057440758
0.23673309 0.13788323 0.057440758
0.25942525 0.13788255 0.057425022
0.28211859 0.13788255 0.057425022
0.3048088 0.13788152 0.057393432
0.32750022 0.13788077 0.057377815
0.3501932 0.13788077 0.057377815
0.37288618 0.13788077 0.057377815
0.39557916 0.13788077 0.057377815
0.41827214 0.13788077 0.057377815
0.44096282 0.13788019 0.05736208
0.46365568 0.13788019 0.05736208
0.48634857 0.13788019 0.05736208
0.50904143 0.13788019 0.05736208
0.53173429 0.13788019 0.05736208
0.55442709 0.13788019 0.05736208
0.57711995 0.13788019 0.05736208
0.60008389 0.13793232 0.058716178
-0.69772589 -0.22664116 0.074314833
-0.72142482 0.0015652012 0.077868938
0.71965921 0.024415918 0.08410573
-0.69723618 0.04722343 0.072262287
-0.67605889 0.093001619 0.079321861
0.67181462 0.092900291 0.074935675
-0.65368235 0.11593045 0.081495881
0.64978731 0.11584282 0.07865119
-0.63163924 0.13895826 0.085372329
0.627738 0.13884914 0.082536221
-0.7246784 0.024415869 0.091076851
-0.7025184 0.070371732 0.094397426
0.69812143 0.070304051 0.089998603
0.67803413 0.11658618 0.10279572
-0.61109996 0.16239335 0.09677124
-0.58810693 0.16239394 0.096787572
-0.56511062 0.16239394 0.096787572
-0.54211426 0.16239394 0.096787572
-0.51911783 0.16239394 0.096787572
-0.49612418 0.16239478 0.096803665
-0.47312775 0.16239478 0.096803665
-0.45013371 0.16239542 0.096819758
-0.42713711 0.16239542 0.096819758
-0.40414274 0.16239624 0.09683609
-0.38114604 0.16239624 0.09683609
-0.35815129 0.16239694 0.096851945
-0.33515441 0.16239694 0.096851945
-0.31215757 0.16239694 0.096851945
-0.28916231 0.16239776 0.096868277
-0.26616535 0.16239776 0.096868277
-0.24316974 0.16239859 0.096884489
0.23976947 0.16239859 0.096884489
0.26276523 0.16239776 0.096868277
0.28576222 0.16239776 0.096868277
0.30875757 0.16239694 0.096851945
0.33175445 0.16239694 0.096851945
0.35475129 0.16239694 0.096851945
0.37774616 0.16239624 0.09683609
0.40074292 0.16239624 0.09683609
0.42373738 0.16239542 0.096819758
0.44673398 0.16239542 0.096819758
0.46973059 0.16239542 0.096819758
0.49272463 0.16239478 0.096803665
0.51571828 0.16239394 0.096787572
0.53871465 0.16239394 0.096787572
0.56171107 0.16239394 0.096787572
0.58470744 0.16239394 0.096787572
0.60770053 0.16239335 0.09677124
0.7497533 -0.068078518 0.11331522
-0.75442344 -0.04505885 0.11781585
0.74762195 -0.044755083 0.1046629
0.75093466 -0.021905154 0.11811078
-0.72924787 0.047511008 0.10962665
0.72470844 0.047477365 0.10526431
-0.70788014 0.093868613 0.11686552
0.70330238 0.093766317 0.11243308
-0.68214011 0.11667426 0.10565424
-0.6599586 0.13989127 0.10961032
0.65583903 0.13978019 0.10672772
-0.63771498 0.16316864 0.11356044
0.63358897 0.16303594 0.11068642
0.75458711 -0.11523207 0.13293791
-0.75935996 -0.092123285 0.13724852
0.75216436 -0.091578782 0.12310278
-0.75687534 -0.068514287 0.12746787
-0.75628912 -0.022013679 0.12516022
0.75428134 0.0011507533 0.13169682
-0.73483938 0.070955761 0.13232541
0.73011732 0.070887983 0.12792981
-0.17661107 0.14092177 0.13638532
0.68522549 0.14086875 0.13500881
-0.22328116 0.16426358 0.13726509
-0.75974393 0.0010964647 0.13876009
-0.76323432 0.024415821 0.15250003
0.75765425 0.024415821 0.1453892
-0.71549648 0.11800234 0.14878142
0.70978177 0.11774699 0.14048946
-0.68990457 0.14103304 0.13927531
0.17334063 0.14123181 0.14443791
-0.66835243 0.1647228 0.14720964
0.22012825 0.1646357 0.1453222
0.66364384 0.16452561 0.14293742
-0.61951989 0.18757245 0.13728166
-0.59621179 0.18757245 0.13728166
-0.57290691 0.18757328 0.13729811
-0.54959869 0.18757328 0.13729811
-0.5262934 0.18757425 0.13731492
-0.50298512 0.18757425 0.13731492
-0.47967669 0.18757425 0.13731492
-0.45637092 0.18757504 0.13733149
-0.43306246 0.18757504 0.13733149
-0.40975398 0.18757504 0.13733149
-0.3864477 0.18757612 0.13734806
-0.36313909 0.18757612 0.13734806
-0.33983049 0.18757612 0.13734806
-0.3165237 0.1875769 0.13736463
-0.29321498 0.1875769 0.13736463
-0.26990625 0.1875769 0.13736463
0.26621971 0.18759304 0.1376636
0.28950313 0.1875769 0.13736463
0.31281185 0.1875769 0.13736463
0.33612058 0.1875769 0.13736463
0.35942736 0.18757612 0.13734806
0.38273597 0.18757612 0.13734806
0.4060424 0.18757504 0.13733149
0.42935085 0.18757504 0.13733149
0.45265934 0.18757504 0.13733149
0.47596523 0.18757425 0.13731492
0.49927357 0.18757425 0.13731492
0.52258193 0.18757425 0.13731492
0.54588729 0.18757328 0.13729811
0.56919551 0.18757328 0.13729811
0.59250057 0.18757245 0.13728166
0.61580861 0.18757245 0.13728166
0.64195573 0.18830855 0.15094125
0.76363516 0.04797332 0.16966867
0.73847854 0.094933242 0.16296697
-0.64669067 0.18853816 0.15520227
-0.7444188 0.095123678 0.17121279
-0.70033979 0.16644351 0.18446136
0.69530332 0.16624455 0.18015194
-0.25010648 0.1898099 0.17880344
0.24648611 0.19009733 0.18413591
-0.62817132 0.21344396 0.17890608
-0.60454619 0.21344502 0.17892301
-0.5809176 0.21344502 0.17892301
-0.55728894 0.21344502 0.17892301
-0.53366333 0.21344605 0.17893994
-0.51003456 0.21344605 0.17893994
-0.48640853 0.21344703 0.17895699
-0.46277961 0.21344703 0.17895699
-0.43915072 0.21344703 0.17895699
-0.41552415 0.21344812 0.17897427
-0.39189288 0.21344703 0.17895699
-0.36826399 0.21344703 0.17895699
-0.34463313 0.21344605 0.17893994
-0.32100251 0.21344502 0.17892301
-0.29737386 0.21344502 0.17892301
0.29334211 0.21344502 0.17892301
0.31697074 0.21344502 0.17892301
0.34060124 0.21344605 0.17893994
0.36423197 0.21344703 0.17895699
0.38786086 0.21344703 0.17895699
0.41149202 0.21344812 0.17897427
0.43511868 0.21344703 0.17895699
0.4587476 0.21344703 0.17895699
0.48237649 0.21344703 0.17895699
0.5060026 0.21344605 0.17893994
0.52963138 0.21344605 0.17893994
0.55326015 0.21344605 0.17893994
0.57688576 0.21344502 0.17892301
0.60051441 0.21344502 0.17892301
0.62413961 0.21344396 0.17890608
-0.7735917 0.048154965 0.1932714
-0.72745585 0.14332788 0.19889653
0.72131956 0.14300273 0.1904496
-0.67849308 0.19055513 0.19263434
0.67342561 0.19032261 0.18831921
-0.65653741 0.21479753 0.20088553
0.65144557 0.21453343 0.19659913
0.75057989 0.12000057 0.21367705
-0.20474251 0.16744322 0.20610416
-0.2762481 0.21511361 0.20601737
0.27233756 0.21535341 0.20991206
-0.75695264 0.12025976 0.22209406
0.20146565 0.16816632 0.22176063
-0.71108693 0.19262239 0.23099792
-0.23015079 0.19238029 0.22650433
0.22613373 0.19267666 0.23200405
0.70568252 0.19238798 0.22664523
0.6835084 0.21690443 0.23509741
-0.63706756 0.24003783 0.22170818
-0.61310959 0.24003783 0.22170818
-0.58915156 0.24003783 0.22170818
-0.56519681 0.24003911 0.22172546
-0.54123873 0.24003911 0.22172546
-0.51728052 0.24003911 0.22172546
-0.49331954 0.24003783 0.22170818
-0.46935883 0.2400367 0.22169054
-0.44540095 0.2400367 0.22169054
-0.42144313 0.2400367 0.22169054
-0.39748526 0.2400367 0.22169054
-0.37352741 0.2400367 0.22169054
-0.34956953 0.2400367 0.22169054
-0.32561165 0.2400367 0.22169054
-0.30165377 0.2400367 0.22169054
0.29734305 0.24007447 0.22223449
0.32125065 0.2400367 0.22169054
0.34520853 0.2400367 0.22169054
0.3691664 0.2400367 0.22169054
0.39312428 0.2400367 0.22169054
0.41708213 0.2400367 0.22169054
0.44104001 0.2400367 0.22169054
0.46499783 0.2400367 0.22169054
0.48895839 0.24003783 0.22170818
0.51291925 0.24003911 0.22172546
0.53687733 0.24003911 0.22172546
0.56083554 0.24003911 0.22172546
0.58479363 0.24003911 0.22172546
0.60874838 0.24003783 0.22170818
0.6327064 0.24003783 0.22170818
0.78152627 0.072648808 0.24229741
-0.73980767 0.16950098 0.25065613
0.73325223 0.16910665 0.24211967
-0.68894166 0.21717186 0.23943818
-0.25535965 0.21725798 0.24084044
0.25115374 0.21750011 0.24477005
-0.66668791 0.24185789 0.24797797
0.66122466 0.24155791 0.24364889
-0.79216594 0.073019758 0.26638854
0.76308995 0.14591451 0.26609981
-0.2806294 0.24223673 0.25344622
0.27635634 0.24250866 0.25737166
-0.64621168 0.2673825 0.26570272
-0.62191504 0.2673825 0.26570272
-0.59761834 0.2673825 0.26570272
-0.5733217 0.2673825 0.26570272
-0.549025 0.2673825 0.26570272
-0.52472836 0.2673825 0.26570272
-0.50043166 0.2673825 0.26570272
-0.47613499 0.2673825 0.26570272
-0.45183828 0.2673825 0.26570272
-0.42754164 0.2673825 0.26570272
-0.40324494 0.2673825 0.26570272
-0.37894827 0.2673825 0.26570272
-0.35465163 0.2673825 0.26570272
-0.33035496 0.2673825 0.26570272
-0.30605647 0.26738131 0.26568484
0.30148852 0.26749095 0.26711059
0.32565334 0.26738131 0.26568484
0.34994987 0.26738131 0.26568484
0.37424642 0.26738131 0.26568484
0.39854294 0.26738131 0.26568484
0.42283946 0.26738131 0.26568484
0.44713601 0.26738131 0.26568484
0.47143251 0.26738131 0.26568484
0.49572906 0.26738131 0.26568484
0.52002561 0.26738131 0.26568484
0.54432207 0.26738131 0.26568484
0.56861866 0.26738131 0.26568484
0.59291518 0.26738131 0.26568484
0.6172117 0.26738131 0.26568484
0.64151186 0.2673825 0.26570272
-0.76990563 0.1462445 0.2746768
-0.72232831 0.21964966 0.27967441
-0.23399186 0.21944809 0.2764014
0.22959799 0.2197932 0.28200591
0.71638501 0.21933623 0.27458608
-0.25910968 0.24443153 0.28512609
-0.18651968 0.17165443 0.29728162
-0.21028312 0.19559047 0.28607607
0.2058641 0.19597329 0.29318261
0.74558777 0.19610012 0.29553413
-0.70175207 0.24524178 0.29682148
0.25448269 0.24463162 0.28801453
0.6952852 0.24475093 0.28973508
-0.28409675 0.2693285 0.29098129
0.27944627 0.26955029 0.29386187
0.18196143 0.17198418 0.30441999
-0.75395024 0.19687515 0.30991995
-0.23675361 0.24631259 0.31227767
0.23189752 0.24651489 0.31519699
0.67567044 0.27103522 0.313151
-0.26191315 0.27142632 0.31823361
-0.63096184 0.29550672 0.31090343
-0.60631722 0.29550672 0.31090343
-0.58167261 0.29550672 0.31090343
-0.557028 0.29550672 0.31090343
-0.53238332 0.29550672 0.31090343
-0.50773877 0.29550672 0.31090343
-0.48309407 0.29550672 0.31090343
-0.45844942 0.29550672 0.31090343
-0.43380484 0.29550672 0.31090343
-0.4091602 0.29550672 0.31090343
-0.38451329 0.29550523 0.31088495
-0.35986668 0.29550356 0.31086636
-0.33522031 0.2955021 0.31084788
-0.31057426 0.29550049 0.31082928
0.30552536 0.29549882 0.31081057
0.33016929 0.29549882 0.31081057
0.35481319 0.29549882 0.31081057
0.37945709 0.29549882 0.31081057
0.40410331 0.29550049 0.31082928
0.42874736 0.29550049 0.31082928
0.45339397 0.2955021 0.31084788
0.47803816 0.2955021 0.31084788
0.50268233 0.2955021 0.31084788
0.5273295 0.29550356 0.31086636
0.55197388 0.29550356 0.31086636
0.57662153 0.29550523 0.31088495
0.60126603 0.29550523 0.31088495
0.62591404 0.29550672 0.31090343
0.80028725 0.098524138 0.31845737
-0.18870863 0.19810948 0.33282578
-0.21263774 0.22213694 0.32006216
0.20778999 0.22240736 0.32445514
-0.68226945 0.27158305 0.32026732
0.25703022 0.27164778 0.32110786
-0.28715953 0.29662734 0.32413709
0.28225577 0.29687324 0.32704043
-0.16416033 0.14867213 0.33774459
0.15921603 0.14893049 0.34445882
0.18372971 0.19834723 0.33723497
-0.2143963 0.24861047 0.34544468
0.20926732 0.24881825 0.34844398
-0.23910114 0.27331543 0.34277284
0.23396029 0.27348459 0.34497058
-0.66249812 0.29831442 0.3440609
-0.26427513 0.29848945 0.34612763
0.25912577 0.29867595 0.34832978
0.65576088 0.29770768 0.33689523
-0.16529766 0.17449823 0.35885108
0.16018789 0.17480537 0.36550009
-0.19019252 0.22440681 0.35692108
0.18495326 0.22459282 0.35994124
-0.21566744 0.27493346 0.36379206
0.21034963 0.27510497 0.36601853
-0.24098082 0.30027291 0.3671906
-0.61527258 0.32444987 0.35743678
-0.59026974 0.32444987 0.35743678
-0.56526691 0.32444987 0.35743678
-0.54026407 0.32444987 0.35743678
-0.51525813 0.3244482 0.3574177
-0.49025247 0.32444653 0.35739851
-0.46524712 0.32444465 0.35737944
-0.44024208 0.32444289 0.35736024
-0.41523981 0.32444289 0.35736024
-0.39023757 0.32444289 0.35736024
-0.36523533 0.32444289 0.35736024
-0.34023309 0.32444289 0.35736024
-0.31523082 0.32444289 0.35736024
-0.29022858 0.32444289 0.35736024
0.28482321 0.32444289 0.35736024
0.30982545 0.32444289 0.35736024
0.33482769 0.32444289 0.35736024
0.35982996 0.32444289 0.35736024
0.3848322 0.32444289 0.35736024
0.40983444 0.32444289 0.35736024
0.43483669 0.32444289 0.35736024
0.45983896 0.32444289 0.35736024
0.484844 0.32444465 0.35737944
0.50984639 0.32444465 0.35737944
0.53485185 0.32444653 0.35739851
0.55985439 0.32444653 0.35739851
0.58486032 0.3244482 0.3574177
0.60986304 0.3244482 0.3574177
0.63554662 0.32477504 0.36095595
-0.16591188 0.20012619 0.37024939
0.16059248 0.20034237 0.37425971
-0.1912425 0.25058684 0.37397027
0.18587267 0.25079691 0.37700331
0.23565431 0.30046198 0.36942184
-0.64243156 0.3254452 0.3682096
-0.26634872 0.32566735 0.37061548
0.26101342 0.32587397 0.37285125
-0.14179516 0.15074378 0.39157021
0.13628204 0.15089953 0.39561355
-0.14218634 0.17640068 0.40003943
-0.1667428 0.22617723 0.38566959
0.16126056 0.22636551 0.38872445
-0.1674411 0.25229523 0.39862812
-0.19219427 0.27690673 0.38942564
0.18665551 0.27706879 0.39153111
-0.21733004 0.3020173 0.38778985
0.21179111 0.30215591 0.38942564
-0.24281101 0.3275471 0.39096558
0.23726182 0.32770029 0.39262402
0.13660958 0.17658924 0.40412354
-0.14242674 0.20201191 0.40524423
0.13675503 0.20215507 0.407902
-0.14255133 0.22754891 0.40794146
0.13685977 0.227714 0.41062343
0.16181672 0.25244328 0.40076494
-0.16803432 0.27846262 0.40963709
0.16232494 0.27862671 0.41176867
-0.7021836 0.30412322 0.41265762
-0.19306071 0.30334717 0.40349448
0.18738915 0.30348712 0.40514588
0.69484848 0.30351031 0.40542138
-0.21864022 0.32900068 0.40670049
0.21295691 0.32915354 0.40835536
-0.62448829 0.35424501 0.40532303
-0.5991168 0.35424501 0.40532303
-0.57374531 0.35424501 0.40532303
-0.54837388 0.35424501 0.40532303
-0.52300239 0.35424501 0.40532303
-0.49763092 0.35424501 0.40532303
-0.47225946 0.35424501 0.40532303
-0.44688523 0.35424292 0.40530324
-0.42151394 0.35424292 0.40530324
-0.39614263 0.35424292 0.40530324
-0.37077132 0.35424292 0.40530324
-0.34540001 0.35424292 0.40530324
-0.32002866 0.35424292 0.40530324
-0.29465735 0.35424292 0.40530324
-0.26928604 0.35424292 0.40530324
-0.24426962 0.3547042 0.40991318
0.23857452 0.35487017 0.41157115
0.2635116 0.35424292 0.40530324
0.28888291 0.35424292 0.40530324
0.31425422 0.35424292 0.40530324
0.33962554 0.35424292 0.40530324
0.36499688 0.35424292 0.40530324
0.39036819 0.35424292 0.40530324
0.41573951 0.35424292 0.40530324
0.44111082 0.35424292 0.40530324
0.4664821 0.35424292 0.40530324
0.49185634 0.35424501 0.40532303
0.51722777 0.35424501 0.40532303
0.5425992 0.35424501 0.40532303
0.56797069 0.35424501 0.40532303
0.59334213 0.35424501 0.40532303
0.61871362 0.35424501 0.40532303
-0.11785364 0.15206784 0.42597032
0.11202446 0.15219833 0.42936027
-0.11792806 0.17768762 0.42790401
0.11206257 0.17781208 0.4305985
-0.1180333 0.20338021 0.43063831
0.11214013 0.2035138 0.43311727
-0.11804946 0.22897243 0.43105793
0.11213028 0.22907963 0.43279707
-0.14305994 0.25370345 0.41895342
0.13726367 0.25385335 0.42111707
-0.14349638 0.2799072 0.42840266
0.13759863 0.28001618 0.42981946
0.72549248 0.28002092 0.42987931
-0.16863045 0.30480421 0.42070007
0.16283749 0.30498752 0.42286611
-0.19423531 0.33046651 0.42256749
0.18841903 0.3306227 0.42425823
0.67450339 0.33120281 0.43053842
-0.21996424 0.35629526 0.42581105
0.2141362 0.35646489 0.42750502
-0.11815259 0.12677659 0.43373752
0.11226226 0.12687972 0.43708324
-0.093008652 0.1786264 0.44823039
-0.092998706 0.20431067 0.44790745
0.086936377 0.20440449 0.44964409
-0.092988759 0.22999018 0.44758439
0.086928912 0.2300971 0.44932079
-0.11818495 0.25478587 0.4345783
-0.093012378 0.25574023 0.44835138
0.086932644 0.25581855 0.44948244
0.11222953 0.25488582 0.43602085
-0.11847463 0.28096199 0.44210434
0.11246086 0.28107199 0.44353294
-0.1438427 0.30609122 0.43590045
-0.11876562 0.30725673 0.44966435
0.13788748 0.30621171 0.43732393
-0.68343669 0.33252031 0.44480181
-0.1694625 0.33172029 0.43614089
-0.14436372 0.33274016 0.44718087
0.13831037 0.33284453 0.44831121
0.16350344 0.33182588 0.43728375
-0.19534807 0.35777894 0.44063663
0.18936338 0.35789365 0.44178236
-0.093481407 0.12769566 0.46358335
0.087306313 0.12775977 0.46566284
-0.093188003 0.1531488 0.45405471
0.087085985 0.15322849 0.4561224
-0.067649208 0.17931107 0.4630537
0.061445236 0.17935629 0.46403158
0.08694385 0.17870678 0.44996762
-0.067603618 0.20502055 0.46107912
0.06141451 0.20507209 0.46203542
-0.067558065 0.23069976 0.45910692
0.061384119 0.23075871 0.46006238
-0.067512572 0.25634888 0.45713699
-0.041866913 0.25690985 0.46523452
0.035633445 0.2569311 0.46554053
0.06135378 0.25641504 0.45809114
-0.73929429 0.28272375 0.4649899
-0.093190491 0.28188804 0.45413589
-0.06762711 0.28250086 0.46209657
0.061427981 0.28256363 0.46291113
0.087059297 0.28195223 0.45496666
-0.093359828 0.30810097 0.45963514
0.087185897 0.30817002 0.46044862
0.11269323 0.30737653 0.45107925
-0.11909309 0.33375549 0.45817232
-0.093529731 0.3344003 0.46515286
0.087313384 0.33447567 0.46596897
0.11293165 0.33381557 0.45882249
-0.17030127 0.35888663 0.45170653
-0.14508744 0.36000204 0.46285009
0.13891388 0.360116 0.46399093
0.16422193 0.35900012 0.45283961
-0.58247751 0.3849315 0.45464242
-0.55672646 0.3849315 0.45464242
-0.53097206 0.38492948 0.45462215
-0.50522101 0.38492948 0.45462215
-0.47947004 0.38492948 0.45462215
-0.45371908 0.38492948 0.45462215
-0.42796811 0.38492948 0.45462215
-0.40221709 0.38492948 0.45462215
-0.3764638 0.38492724 0.454602
-0.35071298 0.38492724 0.454602
-0.32496217 0.38492724 0.454602
-0.29921135 0.38492724 0.454602
-0.27346054 0.38492724 0.454602
-0.24770974 0.38492724 0.454602
-0.22195894 0.38492724 0.454602
-0.19630799 0.38510203 0.45622385
0.19020496 0.38522884 0.4574008
0.21580496 0.38492724 0.454602
0.24155578 0.38492724 0.454602
0.2673066 0.38492724 0.454602
0.29305741 0.38492724 0.454602
0.31880823 0.38492724 0.454602
0.34455904 0.38492724 0.454602
0.37030986 0.38492724 0.454602
0.39606303 0.38492948 0.45462215
0.42181396 0.38492948 0.45462215
0.44756499 0.38492948 0.45462215
0.47331595 0.38492948 0.45462215
0.49906692 0.38492948 0.45462215
0.52481782 0.38492948 0.45462215
0.5505721 0.3849315 0.45464242
0.57632327 0.3849315 0.45464242
0.60312033 0.38556841 0.46055031
-0.0678766 0.15387426 0.47290003
0.061599128 0.15391757 0.4740274
-0.041996598 0.1798009 0.4736582
-0.016134005 0.18001035 0.47819424
0.0097984243 0.18002751 0.47856426
0.035704777 0.17985386 0.47480631
-0.041948676 0.20553076 0.47054541
-0.016099719 0.20570275 0.47374022
0.0097984243 0.20571943 0.47404778
0.03567544 0.2055549 0.47099566
-0.041908704 0.23124446 0.46794915
-0.016078748 0.23143317 0.47101617
0.0097984243 0.2314522 0.47132301
0.035654344 0.23126324 0.46825576
-0.016057814 0.2571221 0.46829665
0.0097984243 0.25714323 0.46860301
-0.041911222 0.28296414 0.46811259
-0.016076544 0.2831656 0.47072959
0.0097984243 0.28318599 0.47099566
0.03565529 0.2829845 0.46837819
-0.067754723 0.30877727 0.4676224
-0.041981772 0.30920693 0.47269523
-0.016111875 0.3094292 0.47531927
0.0097984243 0.3094517 0.47558606
0.035690572 0.30922964 0.47296143
0.061513104 0.30884659 0.46843958
-0.067882277 0.33513871 0.47314584
-0.042052522 0.33552164 0.47728992
-0.016147304 0.33576459 0.47992146
0.0097984243 0.33578938 0.48018885
0.035725951 0.33554611 0.47755718
0.061598182 0.33521438 0.47396576
-0.11961029 0.36087841 0.47160983
-0.093930028 0.36153328 0.47815323
0.087610431 0.36160132 0.47883141
0.11334557 0.36094412 0.47226501
-0.1711468 0.38630632 0.46739781
0.16494812 0.38643172 0.46856225
-0.61250401 0.38742563 0.47778308
-0.1458142 0.38751206 0.47858465
0.13950093 0.38758287 0.47924256
-0.068118185 0.12830462 0.48336065
-0.042320497 0.12865373 0.49469602
0.035866678 0.12868886 0.49583805
0.061760612 0.12834021 0.48451591
-0.042158045 0.15430705 0.48414433
-0.016217655 0.15449625 0.4890604
0.0097984243 0.15451053 0.48943257
0.035785552 0.15435149 0.48529994
-0.06815058 0.3621949 0.48476326
-0.042204447 0.36243448 0.48715842
-0.016219882 0.36265388 0.4893502
0.0097984243 0.36267456 0.48955667
0.035801612 0.36245736 0.48738551
0.061771095 0.36223817 0.48519659
-0.12013166 0.38822016 0.48515534
-0.094350033 0.38893536 0.49179304
-0.068446644 0.38955948 0.49758363
0.061965004 0.38958177 0.49779153
0.087925076 0.38900688 0.4924562
0.11376347 0.38829362 0.48583651
-0.016301842 0.1288169 0.49999678
0.0097984243 0.12882838 0.50037146
-0.042398587 0.38979498 0.49976766
-0.016317075 0.3900328 0.50197566
0.0097984243 0.39005756 0.50220501
0.035898693 0.38981962 0.49999678
-0.56533277 0.41655073 0.50546014
-0.53918701 0.41654831 0.5054394
-0.51304483 0.41654831 0.5054394
-0.48690265 0.41654831 0.5054394
-0.4607605 0.41654831 0.5054394
-0.43461832 0.41654831 0.5054394
-0.40847617 0.41654831 0.5054394
-0.38233402 0.41654831 0.5054394
-0.35619187 0.41654831 0.5054394
-0.33004969 0.41654831 0.5054394
-0.30390751 0.41654831 0.5054394
-0.27776536 0.41654831 0.5054394
-0.25162318 0.41654831 0.5054394
-0.22548105 0.41654831 0.5054394
-0.19933888 0.41654831 0.5054394
-0.17319673 0.41654831 0.5054394
-0.14705455 0.41654831 0.5054394
-0.12091239 0.41654831 0.5054394
-0.094772801 0.416558 0.50552309
-0.068739653 0.41710618 0.51027107
-0.0425945 0.41736269 0.5124929
-0.01641516 0.41761959 0.51471734
0.0097984243 0.41764385 0.51492751
0.0359965 0.41738698 0.51270235
0.062160365 0.41713053 0.51048064
0.088242285 0.41663513 0.50619149
0.11436708 0.41654831 0.5054394
0.14050923 0.41654831 0.5054394
0.1666514 0.41654831 0.5054394
0.19279358 0.41654831 0.5054394
0.21893573 0.41654831 0.5054394
0.24507789 0.41654831 0.5054394
0.27122006 0.41654831 0.5054394
0.29736224 0.41654831 0.5054394
0.32350439 0.41654831 0.5054394
0.34964657 0.41654831 0.5054394
0.37578875 0.41654831 0.5054394
0.4019309 0.41654831 0.5054394
0.42807305 0.41654831 0.5054394
0.4542152 0.41654831 0.5054394
0.48035738 0.41654831 0.5054394
0.50649953 0.41654831 0.5054394
0.53264165 0.41654831 0.5054394
0.55878723 0.41655073 0.50546014
0.5948537 0.42331731 0.56405938
-0.52111673 0.44914803 0.55786753
-0.49457094 0.44914803 0.55786753
-0.46802515 0.44914803 0.55786753
-0.44147944 0.44914803 0.55786753
-0.41493365 0.44914803 0.55786753
-0.38838789 0.44914803 0.55786753
-0.36184216 0.44914803 0.55786753
-0.33529639 0.44914803 0.55786753
-0.30875063 0.44914803 0.55786753
-0.28220487 0.44914803 0.55786753
-0.25565913 0.44914803 0.55786753
-0.22911337 0.44914803 0.55786753
-0.20256762 0.44914803 0.55786753
-0.17602187 0.44914803 0.55786753
-0.14947611 0.44914803 0.55786753
-0.12293036 0.44914803 0.55786753
-0.0963846 0.44914803 0.55786753
-0.069838844 0.44914803 0.55786753
-0.043293089 0.44914803 0.55786753
-0.016747331 0.44914803 0.55786753
0.0097984243 0.44914803 0.55786753
0.036344178 0.44914803 0.55786753
0.062889934 0.44914803 0.55786753
0.089435689 0.44914803 0.55786753
0.11598144 0.44914803 0.55786753
0.14252721 0.44914803 0.55786753
0.16907296 0.44914803 0.55786753
0.19561872 0.44914803 0.55786753
0.22216447 0.44914803 0.55786753
0.24871022 0.44914803 0.55786753
0.27525601 0.44914803 0.55786753
0.30180174 0.44914803 0.55786753
0.3283475 0.44914803 0.55786753
0.35489327 0.44914803 0.55786753
0.38143903 0.44914803 0.55786753
0.40798476 0.44914803 0.55786753
0.43453053 0.44914803 0.55786753
0.46107632 0.44914803 0.55786753
0.48762202 0.44914803 0.55786753
0.51416779 0.44914803 0.55786753
0.54071355 0.44914803 0.55786753
-0.4755238 0.48277563 0.61198437
-0.44856146 0.48277563 0.61198437
-0.42159909 0.48277563 0.61198437
-0.39463675 0.48277563 0.61198437
-0.36767441 0.48277563 0.61198437
-0.34071207 0.48277563 0.61198437
-0.31374973 0.48277563 0.61198437
-0.28678739 0.48277563 0.61198437
-0.25982502 0.48277563 0.61198437
-0.2328627 0.48277563 0.61198437
-0.20590034 0.48277563 0.61198437
-0.17893799 0.48277563 0.61198437
-0.15197566 0.48277563 0.61198437
-0.12501331 0.48277563 0.61198437
-0.098050959 0.48277563 0.61198437
-0.07108862 0.48277563 0.61198437
-0.044126265 0.48277563 0.61198437
-0.017163921 0.48277563 0.61198437
0.0097984243 0.48277563 0.61198437
0.03676077 0.48277563 0.61198437
0.063723117 0.48277563 0.61198437
0.090685464 0.48277563 0.61198437
0.1176478 0.48277563 0.61198437
0.14461015 0.48277563 0.61198437
0.17157251 0.48277563 0.61198437
0.19853483 0.48277563 0.61198437
0.22549719 0.48277563 0.61198437
0.25245956 0.48277563 0.61198437
0.2794219 0.48277563 0.61198437
0.30638427 0.48277563 0.61198437
0.33334661 0.48277563 0.61198437
0.36030895 0.48277563 0.61198437
0.38727129 0.48277563 0.61198437
0.41423362 0.48277563 0.61198437
0.44119596 0.48277563 0.61198437
0.46815833 0.48277563 0.61198437
-0.42847428 0.51747251 0.66780376
-0.40108225 0.51747251 0.66780376
-0.37369019 0.51747251 0.66780376
-0.34629813 0.51747251 0.66780376
-0.3189061 0.51747251 0.66780376
-0.29151407 0.51747251 0.66780376
-0.26412201 0.51747251 0.66780376
-0.23672998 0.51747251 0.66780376
-0.20933793 0.51747251 0.66780376
-0.18194589 0.51747251 0.66780376
-0.15455385 0.51747251 0.66780376
-0.1271618 0.51747251 0.66780376
-0.099769756 0.51747251 0.66780376
-0.072377712 0.51747251 0.66780376
-0.044985667 0.51747251 0.66780376
-0.01759362 0.51747251 0.66780376
0.0097984243 0.51747251 0.66780376
0.037190467 0.51747251 0.66780376
0.064582512 0.51747251 0.66780376
0.091974556 0.51747251 0.66780376
0.1193666 0.51747251 0.66780376
0.14675865 0.51747251 0.66780376
0.17415069 0.51747251 0.66780376
0.20154274 0.51747251 0.66780376
0.22893478 0.51747251 0.66780376
0.25632682 0.51747251 0.66780376
0.28371888 0.51747251 0.66780376
0.31111094 0.51747251 0.66780376
0.33850297 0.51747251 0.66780376
0.365895 0.51747251 0.66780376
0.39328706 0.51747251 0.66780376
0.42067912 0.51747251 0.66780376
-0.32422513 0.55328649 0.72538376
-0.29638982 0.55328649 0.72538376
-0.26855451 0.55328649 0.72538376
-0.24071924 0.55328649 0.72538376
-0.21288395 0.55328649 0.72538376
-0.18504865 0.55328649 0.72538376
-0.15721336 0.55328649 0.72538376
-0.12937805 0.55328649 0.72538376
-0.10154276 0.55328649 0.72538376
-0.073707469 0.55328649 0.72538376
-0.045872167 0.55328649 0.72538376
-0.018036872 0.55328649 0.72538376
0.0097984243 0.55328649 0.72538376
0.037633721 0.55328649 0.72538376
0.065469019 0.55328649 0.72538376
0.093304314 0.55328649 0.72538376
0.12113961 0.55328649 0.72538376
0.1489749 0.55328649 0.72538376
0.1768102 0.55328649 0.72538376
0.2046455 0.55328649 0.72538376
0.23248079 0.55328649 0.72538376
0.2603161 0.55328649 0.72538376
0.28815138 0.55328649 0.72538376
0.31598669 0.55328649 0.72538376
-0.18825744 0.59028983 0.78493118
-0.15996376 0.59028983 0.78493118
-0.13167004 0.59028983 0.78493118
-0.10337635 0.59028983 0.78493118
-0.07508266 0.59028983 0.78493118
-0.046788961 0.59028983 0.78493118
-0.018495269 0.59028983 0.78493118
0.0097984243 0.59028983 0.78493118
0.038092118 0.59028983 0.78493118
0.066385813 0.59028983 0.78493118
