ply
format ascii 1.0
comment PCL generated
element vertex 1327
property float x
property float y
property float z
element camera 0
property float view_px
property float view_py
property float view_pz
property float x_axisx
property float x_axisy
property float x_axisz
property float y_axisx
property float y_axisy
property float y_axisz
property float z_axisx
property float z_axisy
property float z_axisz
property float focal
property float scalex
property float scaley
property float centerx
property float centery
property int viewportx
property int viewporty
property float k1
property float k2
end_header
0.23453042 -0.34684992 -0.27270645
-0.25528258 -0.32672948 -0.27068567
0.25499231 -0.32654154 -0.27204156
-0.23394176 -0.32534224 -0.28069711
0.23373985 -0.32515579 -0.28204274
-0.27577174 -0.30640221 -0.27000713
-0.2543481 -0.30509135 -0.28002375
0.25413057 -0.30491522 -0.2813701
0.2754657 -0.30622467 -0.27136391
-0.27513653 -0.28525501 -0.27590114
-0.25397167 -0.284284 -0.28378516
0.25380871 -0.28415227 -0.28485429
0.27490401 -0.28512269 -0.27697659
-0.29623359 -0.26560044 -0.26965523
-0.27495596 -0.26468572 -0.27757663
-0.25380498 -0.26377654 -0.28545082
0.27473772 -0.26456311 -0.2786383
0.29594687 -0.26547855 -0.27071071
-0.29603919 -0.24499507 -0.27133864
-0.27477694 -0.24414377 -0.27923757
0.27457288 -0.24403076 -0.28028554
0.29576692 -0.24488275 -0.27238041
-0.29584649 -0.22441705 -0.27300745
-0.27459681 -0.2236263 -0.28090894
0.27440697 -0.2235228 -0.28194308
0.29558721 -0.22431298 -0.27404785
-0.29580742 -0.20398763 -0.27334595
-0.27472988 -0.20340309 -0.27967435
-0.25375402 -0.20282243 -0.28595996
0.27455041 -0.20332585 -0.28051001
0.29557234 -0.20391002 -0.27418572
-0.27520126 -0.18342663 -0.27530026
-0.25419092 -0.18289368 -0.2815944
0.2540305 -0.18282092 -0.28245372
0.27498785 -0.18335561 -0.27613866
0.29604572 -0.18389286 -0.26979357
-0.27567422 -0.16338399 -0.27091175
-0.25462675 -0.16289693 -0.27723914
-0.23367833 -0.16241118 -0.28354877
0.23354177 -0.16234702 -0.28438205
0.25443369 -0.1628314 -0.27808887
0.27542678 -0.16331929 -0.27175289
-0.25506404 -0.14283399 -0.27286959
-0.23408121 -0.14239632 -0.27918774
-0.21319713 -0.14195989 -0.28548807
0.21309061 -0.14190993 -0.28620833
0.23390979 -0.14233761 -0.28003609
0.25483823 -0.142776 -0.27370948
-0.2348724 -0.12257323 -0.27062279
-0.21404073 -0.12227128 -0.27552557
-0.19328597 -0.12197043 -0.28041023
-0.172711 -0.1217626 -0.28378516
-0.15229861 -0.12166545 -0.28536379
0.15223521 -0.12165236 -0.28557503
0.1726338 -0.12174971 -0.28399664
0.19315347 -0.12193288 -0.28102106
0.23353754 -0.12172289 -0.28443182
-0.19406261 -0.10217299 -0.27032131
-0.17334656 -0.10194176 -0.27461159
-0.15286367 -0.10185681 -0.27618879
-0.091559611 -0.10160047 -0.28094625
-0.071173489 -0.10151449 -0.28254086
-0.050812256 -0.1014294 -0.28412104
-0.030475184 -0.10134374 -0.28571159
0.0304242 -0.10133226 -0.28592277
0.050747205 -0.10141732 -0.28434485
0.071094841 -0.1015031 -0.28275245
0.091466658 -0.10158829 -0.28117067
0.11186291 -0.10167368 -0.27958697
0.13228363 -0.10175912 -0.27800137
0.15272886 -0.10184465 -0.27641398
0.17319942 -0.10193102 -0.27481192
0.19385214 -0.10213974 -0.27093691
0.21362722 -0.10169256 -0.27923757
-0.11239493 -0.081761688 -0.27015799
-0.091913462 -0.081688002 -0.27175301
-0.071456231 -0.081613854 -0.27335864
-0.051024053 -0.081540421 -0.27494979
-0.030616406 -0.081467018 -0.27653903
-0.010233239 -0.081393719 -0.27812624
0.010125489 -0.081383944 -0.27833861
0.030494798 -0.081457168 -0.27675158
0.050888572 -0.08153066 -0.27516252
0.071306862 -0.081604064 -0.27357161
0.09174969 -0.081677556 -0.27197897
0.11221761 -0.081751943 -0.27037156
-0.030956171 -0.43168041 -0.25447053
-0.010383382 -0.43094528 -0.25862217
0.010125489 -0.43084669 -0.25917989
0.030662011 -0.43158141 -0.25502992
-0.13366511 -0.41115457 -0.2543816
-0.11293183 -0.4104515 -0.25853342
0.1126513 -0.41035488 -0.25910366
0.13334875 -0.41105992 -0.25494099
-0.092262492 -0.40974844 -0.262685
-0.071657844 -0.40904966 -0.26681101
0.071450189 -0.40895581 -0.26736528
0.092018753 -0.40965426 -0.26324099
-0.21553436 -0.39004651 -0.25788665
-0.19465727 -0.38928521 -0.26259643
-0.17389309 -0.38861805 -0.2667228
0.17366344 -0.38852844 -0.26727712
0.19439146 -0.38919529 -0.26315248
0.21518494 -0.38986617 -0.25900251
-0.23567221 -0.36890414 -0.26196456
0.2353266 -0.368698 -0.26330405
0.25673649 -0.37025973 -0.25316024
-0.25622371 -0.34852085 -0.26128155
0.25586131 -0.34832302 -0.26263446
-0.27678573 -0.32812715 -0.26059824
0.2764076 -0.3279396 -0.2619518
-0.29735687 -0.30772144 -0.25992715
0.2969631 -0.30754405 -0.26128143
-0.31793997 -0.28730685 -0.25924313
-0.29642823 -0.28623191 -0.26796961
0.29612568 -0.28609866 -0.26905167
0.3175289 -0.28713831 -0.26061088
-0.3391735 -0.26744631 -0.25366926
-0.31763902 -0.2665205 -0.26168638
0.31728211 -0.26639798 -0.26274836
0.33874586 -0.26732296 -0.2547375
-0.33895051 -0.24671574 -0.25537306
-0.31743047 -0.24585278 -0.26337981
0.31708819 -0.2457398 -0.2644279
0.33853775 -0.24660207 -0.25642741
-0.33872947 -0.22601278 -0.2570622
-0.31722367 -0.22521247 -0.2650587
0.31689447 -0.22510777 -0.26610535
0.33832988 -0.22590737 -0.25811511
-0.33850709 -0.20533484 -0.25876153
-0.31701559 -0.20459715 -0.26674795
0.31670099 -0.20450176 -0.26778072
0.33812228 -0.20523897 -0.25980043
-0.33884245 -0.18504414 -0.25619882
-0.31752694 -0.18450229 -0.26259655
-0.2963149 -0.18396424 -0.26895112
0.31720188 -0.18443069 -0.26344311
0.33846426 -0.18497431 -0.25702399
-0.31807268 -0.16436514 -0.25816584
-0.29682261 -0.16387337 -0.26455402
0.29651931 -0.16380833 -0.26539928
0.3177132 -0.16429988 -0.25901502
-0.31861866 -0.1441599 -0.25373292
-0.29733205 -0.14371577 -0.26014239
-0.2761474 -0.14327388 -0.26652128
0.27586585 -0.14321543 -0.26736516
0.29699445 -0.14365698 -0.26099062
0.3182247 -0.14410084 -0.25458515
-0.29784462 -0.12349206 -0.25570351
-0.276768 -0.1231804 -0.26076275
-0.25578132 -0.12287635 -0.26570183
0.25552088 -0.12283826 -0.26631951
0.27646327 -0.1231415 -0.26139534
0.2974821 -0.12344515 -0.25646538
-0.25680101 -0.10297102 -0.25551271
-0.23581012 -0.10270378 -0.26047158
-0.21489714 -0.10243759 -0.26541185
0.23551394 -0.10267039 -0.26109177
0.25646049 -0.1029367 -0.25614798
-0.21576121 -0.082452238 -0.25520796
-0.19484423 -0.082223177 -0.26016766
-0.17400491 -0.081994906 -0.26510924
-0.15343186 -0.081909359 -0.26696223
-0.13290104 -0.081835493 -0.26856101
0.13270977 -0.081825569 -0.26877499
0.15322663 -0.081899449 -0.26717639
0.17376822 -0.081973389 -0.26557571
0.19455527 -0.082194552 -0.2607879
0.21542811 -0.082422897 -0.25584322
-0.17485306 -0.062007237 -0.25286746
-0.15417688 -0.061930325 -0.25486469
-0.13357884 -0.061887283 -0.25598282
-0.11299804 -0.061844338 -0.25710005
-0.092433989 -0.061800849 -0.25822908
-0.071887754 -0.061757881 -0.25934446
-0.051358707 -0.061714936 -0.26045889
-0.030846637 -0.061671648 -0.261585
-0.010352009 -0.061628725 -0.26269758
0.010125489 -0.061622929 -0.26284939
0.030610576 -0.061666746 -0.26171154
0.051113002 -0.061710116 -0.26058549
0.07163249 -0.061752979 -0.2594713
0.092169173 -0.061795954 -0.25835592
0.11272305 -0.061838891 -0.25723982
0.13329417 -0.061881911 -0.25612265
0.15388252 -0.061924953 -0.25500458
0.17452343 -0.061990004 -0.25331295
0.030630652 -0.0412619 -0.25910378
0.051153187 -0.041296739 -0.25797546
0.071693115 -0.041331451 -0.25684631
-0.010544376 -0.45531812 -0.23770845
0.010125489 -0.45519683 -0.23836493
-0.11389252 -0.43464369 -0.23773408
-0.093061045 -0.43389934 -0.24193788
-0.072295092 -0.43315974 -0.2461158
-0.051593173 -0.43241778 -0.25030601
0.051262625 -0.43231842 -0.25086701
0.071927629 -0.43305779 -0.24669135
0.092657723 -0.43380162 -0.2424897
0.11345252 -0.43454567 -0.23828769
-0.19625449 -0.41327733 -0.24184811
-0.17532614 -0.41256756 -0.24603891
-0.15446311 -0.41186002 -0.25021672
0.15411027 -0.41176489 -0.25077796
0.17493671 -0.41247228 -0.24660182
0.19582835 -0.41318163 -0.24241281
0.21683604 -0.4140045 -0.23755395
-0.23731841 -0.39226815 -0.24414384
0.23679619 -0.39197633 -0.24594939
-0.27914858 -0.37248999 -0.23867381
-0.25717151 -0.37046748 -0.25181043
0.27855569 -0.37221089 -0.24048662
-0.2995542 -0.35150233 -0.24089777
-0.27780563 -0.35000494 -0.25113487
0.27735493 -0.34980744 -0.25248539
0.2990132 -0.35130322 -0.24225879
-0.32028499 -0.33095312 -0.24020398
-0.29845163 -0.3295339 -0.25044644
0.29798517 -0.32934666 -0.25179768
0.31972805 -0.3307645 -0.24156559
-0.34102648 -0.31039321 -0.23950982
0.34045208 -0.3102133 -0.24088502
-0.31910831 -0.30905214 -0.24975753
0.31862459 -0.30887362 -0.25112212
-0.36177695 -0.28982127 -0.23882818
-0.33977559 -0.28855997 -0.24906838
0.33927599 -0.28839177 -0.25043368
0.36118829 -0.28965342 -0.24019122
-0.38263395 -0.26931459 -0.23748958
-0.36083809 -0.26837757 -0.24560392
0.36033928 -0.26825348 -0.24667871
0.38206357 -0.26918975 -0.23857081
-0.38238174 -0.24845715 -0.23921406
-0.36060056 -0.24758379 -0.24731803
0.36011684 -0.2474695 -0.24837852
0.38182658 -0.24834208 -0.24028111
-0.3821317 -0.22762786 -0.24092352
-0.36036509 -0.22681786 -0.24901724
0.35989463 -0.22671191 -0.25007641
0.38158989 -0.22752123 -0.24198925
-0.3818801 -0.20682384 -0.24264371
-0.36012816 -0.2060771 -0.25072706
0.35967273 -0.20598054 -0.25177217
0.3813535 -0.20672671 -0.24369514
-0.38178068 -0.18613437 -0.24332333
-0.36026075 -0.1855884 -0.24977028
0.35982621 -0.18551821 -0.25059938
0.38129136 -0.18606487 -0.24414384
-0.38244006 -0.16585481 -0.23881531
-0.36088416 -0.16535786 -0.24527097
-0.33942342 -0.16485834 -0.25175941
0.33900917 -0.1647936 -0.25260007
0.36040795 -0.16528979 -0.24615407
0.38191205 -0.16578937 -0.23966408
-0.36150259 -0.14505532 -0.24080789
-0.34000799 -0.14460613 -0.2472924
0.33955744 -0.14454679 -0.24814856
0.36099496 -0.14499567 -0.24166834
-0.36212486 -0.12468594 -0.23631704
-0.34059453 -0.124286 -0.24281049
-0.31916803 -0.12388809 -0.24927247
0.31873944 -0.12383543 -0.25012755
0.34010911 -0.12423316 -0.24366951
0.36158228 -0.12463278 -0.23718035
-0.32024541 -0.10377854 -0.24052536
-0.2990182 -0.10350837 -0.2455399
-0.27787021 -0.10323922 -0.25053549
0.27748626 -0.10320485 -0.25117314
0.29858926 -0.10347316 -0.24619257
0.31977254 -0.10374333 -0.2411803
0.34103376 -0.10401365 -0.23616242
-0.27898228 -0.083144575 -0.24021697
-0.25782979 -0.082912982 -0.24523258
-0.23675625 -0.082682148 -0.2502296
0.23637865 -0.082652137 -0.25087988
0.25740853 -0.082882836 -0.24588537
0.27851713 -0.083114326 -0.24087226
-0.23770849 -0.062505454 -0.23992121
-0.21663085 -0.06231242 -0.24493814
-0.1956692 -0.06213868 -0.24945116
0.19531065 -0.062121946 -0.2498852
0.21621834 -0.062287722 -0.24557829
0.23725221 -0.062480759 -0.24056375
-0.15516448 -0.041886266 -0.23882818
-0.13444155 -0.041851003 -0.23997271
-0.1137363 -0.041815769 -0.24111617
-0.093049191 -0.041781034 -0.24224603
-0.072379097 -0.041745972 -0.24338746
-0.051726907 -0.041711155 -0.24451542
-0.031092092 -0.041676495 -0.24564207
-0.010474536 -0.04164141 -0.24678087
0.010125489 -0.041637134 -0.24692154
0.092661276 -0.0417771 -0.2423743
0.11333821 -0.041811544 -0.24125731
0.13403298 -0.041846301 -0.24012697
0.15474589 -0.041881513 -0.23898244
0.17556214 -0.041959647 -0.2364459
0.072063796 -0.021179698 -0.24079502
-0.052183498 -0.45771322 -0.22474444
-0.031313799 -0.45651266 -0.23124206
0.03083856 -0.45635501 -0.23209572
0.051651608 -0.45755467 -0.22560215
-0.19787581 -0.43764427 -0.22078657
-0.17678076 -0.43689057 -0.22504342
-0.15575206 -0.43613923 -0.22928691
-0.13478941 -0.43539038 -0.23351717
0.13431263 -0.43529189 -0.23407257
0.15523832 -0.43604067 -0.22984397
0.17622997 -0.43679172 -0.22560227
0.19728781 -0.437545 -0.22134709
-0.23938577 -0.4166787 -0.22176397
-0.21740997 -0.41431221 -0.23573685
0.23868978 -0.41636986 -0.22358692
-0.25932962 -0.39451498 -0.23024535
0.25868475 -0.39421996 -0.23206973
-0.30142093 -0.37463662 -0.22473145
0.30070615 -0.37435657 -0.22655034
-0.3214685 -0.35300919 -0.23059499
0.32083949 -0.35281232 -0.23194051
0.34290028 -0.35441139 -0.22100806
-0.36445579 -0.3338227 -0.21949506
-0.34228462 -0.3323814 -0.22989571
0.34163818 -0.3321932 -0.23125494
0.36371747 -0.33363277 -0.22086477
-0.36311156 -0.31174302 -0.22919631
0.3624492 -0.31156504 -0.23055613
0.38461459 -0.31292543 -0.22016048
-0.38394934 -0.2910938 -0.22849631
0.38326919 -0.29092461 -0.22986996
0.40552068 -0.29220572 -0.21946895
-0.40479791 -0.27043393 -0.22779608
0.40409982 -0.2702736 -0.22918344
-0.40429527 -0.2493359 -0.23106086
0.40366817 -0.24922015 -0.23213446
-0.40413794 -0.2285126 -0.23208272
0.40341684 -0.22833548 -0.23385298
-0.40409416 -0.20777306 -0.23236704
0.40334317 -0.20758942 -0.2343564
-0.40404838 -0.18703701 -0.23266435
0.40329975 -0.18686856 -0.23465335
-0.4048059 -0.16670705 -0.22774422
0.40408847 -0.16659018 -0.22926104
-0.40580085 -0.14640814 -0.22128189
-0.3832849 -0.14559363 -0.23303926
0.38261712 -0.14548714 -0.23457599
0.4050326 -0.14630264 -0.22280586
-0.38422447 -0.12528345 -0.22661519
0.38350621 -0.12518832 -0.22815919
-0.38517046 -0.10487671 -0.22014737
-0.36294645 -0.10432486 -0.23038769
-0.34155229 -0.10404983 -0.23549187
0.36237636 -0.10428581 -0.2311126
0.38440141 -0.10479307 -0.22169876
-0.34291795 -0.083844885 -0.22505629
-0.3215259 -0.083610639 -0.23012888
-0.30021417 -0.083377197 -0.23518229
0.29970497 -0.083346814 -0.23584008
0.32097241 -0.083580136 -0.23078918
0.34232002 -0.083814248 -0.22571909
-0.32281637 -0.063285545 -0.21965158
-0.30141944 -0.063089699 -0.22474432
-0.280103 -0.062894374 -0.22981799
-0.25886527 -0.062699214 -0.23488569
0.25836506 -0.062674493 -0.23553061
0.27955726 -0.062868848 -0.23047853
0.30082932 -0.063064113 -0.22540712
0.32218167 -0.063259989 -0.22031701
-0.26014838 -0.042402584 -0.22206354
-0.23903601 -0.042295162 -0.22555017
-0.21797699 -0.042187717 -0.22904062
-0.1969724 -0.042080496 -0.23252225
-0.17602202 -0.04197352 -0.23599482
0.19648224 -0.042066593 -0.23297453
0.21745646 -0.042173717 -0.22949433
0.23848504 -0.04228111 -0.22600496
0.25956818 -0.042388905 -0.22250652
-0.15617605 -0.021604408 -0.22240222
-0.1353147 -0.021572802 -0.22376895
-0.11448468 -0.021546446 -0.22491336
-0.093671806 -0.021519713 -0.22606981
-0.072876766 -0.021493059 -0.22722518
-0.052099843 -0.021466702 -0.22836673
-0.031340308 -0.021440044 -0.2295202
-0.010598636 -0.021413736 -0.2306596
0.010125489 -0.021410104 -0.23081505
0.03085719 -0.021436438 -0.22967553
0.051606648 -0.021462996 -0.22852242
0.093158521 -0.021516085 -0.22622561
0.11396129 -0.021542791 -0.2250694
0.13478191 -0.021569446 -0.22391224
0.15562038 -0.021596279 -0.22275388
-0.11540036 -0.46134472 -0.20508838
-0.094226144 -0.46012908 -0.21166778
0.093580931 -0.45997399 -0.21250772
0.11469838 -0.46119118 -0.20591915
-0.073153801 -0.45891705 -0.21822846
0.072565354 -0.45876029 -0.21907723
-0.2193159 -0.4389824 -0.21322894
0.21856835 -0.43865994 -0.21505034
-0.26159132 -0.41906971 -0.20764494
0.26077205 -0.41876009 -0.20947373
-0.28156897 -0.39678302 -0.21621513
0.28080148 -0.39648712 -0.21804547
0.3031514 -0.39878017 -0.20386112
-0.32392749 -0.37680757 -0.21063042
0.32308796 -0.3765246 -0.21246815
-0.36646119 -0.3567495 -0.20502257
-0.34368843 -0.35468045 -0.21916854
0.36554918 -0.35647956 -0.20686805
-0.38679698 -0.33527327 -0.20902658
0.38596788 -0.33508375 -0.21039379
-0.40779701 -0.31447554 -0.20831633
-0.38536707 -0.31310305 -0.21880317
0.40695181 -0.31429642 -0.20968425
0.4288539 -0.29422408 -0.20308197
-0.40629107 -0.29237461 -0.21809769
-0.42840615 -0.27247822 -0.21009159
0.42736229 -0.27216887 -0.2127701
-0.4273634 -0.25090051 -0.21654224
0.42647165 -0.2506837 -0.21855497
-0.42731261 -0.23003636 -0.216856
0.42642543 -0.22983633 -0.21885538
0.44972837 -0.23137645 -0.20346498
0.44967929 -0.21041496 -0.20376861
-0.42726189 -0.20917691 -0.21717
0.42638117 -0.20899475 -0.21914256
-0.4272112 -0.1883224 -0.21748352
0.42633495 -0.18815659 -0.21944273
0.4496302 -0.18945803 -0.20407236
-0.42746067 -0.16761571 -0.21594024
0.42664063 -0.16749889 -0.21745741
0.44958538 -0.16850792 -0.20434952
-0.42851454 -0.14722994 -0.20942128
0.42764318 -0.14712426 -0.21094573
-0.42957351 -0.12674572 -0.20287037
0.42865059 -0.12665133 -0.20440233
-0.4068006 -0.12601174 -0.21478844
0.40597934 -0.12591659 -0.21633291
-0.40780511 -0.105517 -0.20826364
0.40693066 -0.10543275 -0.20982873
-0.38655668 -0.084509373 -0.21066976
-0.36467656 -0.084175333 -0.21790195
0.36395139 -0.084120974 -0.21907735
0.38600248 -0.084533617 -0.21014416
-0.38668737 -0.063665718 -0.20977616
-0.36455891 -0.063320339 -0.21875083
-0.34433025 -0.063492998 -0.21426439
0.34361473 -0.063456744 -0.21520734
0.36560088 -0.063792914 -0.20647275
-0.36675936 -0.042993549 -0.20287037
-0.32411531 -0.042801533 -0.20910561
0.32340032 -0.04278129 -0.20976305
0.345144 -0.042995933 -0.20279121
-0.3026326 -0.042643409 -0.21423829
-0.28131682 -0.04251055 -0.21855485
0.28070608 -0.042496849 -0.21899903
0.30196244 -0.042623196 -0.21489322
-0.26187754 -0.022011314 -0.20478487
-0.24062681 -0.021929357 -0.20832944
-0.21943143 -0.021847744 -0.21186459
-0.19829218 -0.021766532 -0.21537757
-0.17720675 -0.021685421 -0.21889448
0.1766149 -0.021674879 -0.21935153
0.19766966 -0.021755945 -0.21583569
0.21877925 -0.021837454 -0.21231067
0.23994276 -0.021918762 -0.20879006
0.26116255 -0.022000525 -0.20524669
-0.15723906 -0.0010824949 -0.20514119
-0.13620698 -0.0010506175 -0.20721042
-0.11527984 -0.0010431074 -0.20769763
-0.09436021 -0.0010355487 -0.20818472
-0.073448077 -0.0010280907 -0.20867169
-0.052543446 -0.0010206811 -0.20915806
-0.031646311 -0.0010130703 -0.20964479
-0.010756667 -0.0010056607 -0.21013105
0.010125489 -0.0010048635 -0.21018362
0.031010985 -0.0010122731 -0.20969737
0.051903762 -0.0010196343 -0.20922399
0.072804138 -0.0010271445 -0.20873725
0.093712017 -0.0010345057 -0.20825052
0.1146274 -0.0010420159 -0.20776355
0.13555028 -0.001049675 -0.20727623
0.1565453 -0.0010755323 -0.20558953
-0.01090265 -0.48494476 -0.19116724
0.010125489 -0.48478073 -0.19201982
-0.15806025 -0.46379858 -0.19180667
-0.13667831 -0.46256864 -0.1984638
0.13591875 -0.46241432 -0.19929862
0.15724279 -0.46364349 -0.19264555
-0.24227253 -0.44300413 -0.19051421
0.24123435 -0.44246882 -0.19353735
-0.28403169 -0.42148834 -0.19336426
0.28308779 -0.42117757 -0.19519901
-0.32675204 -0.40139318 -0.18769801
-0.30404136 -0.39907485 -0.20203793
0.32573542 -0.40109527 -0.18954051
-0.34666884 -0.37899929 -0.19639444
0.34570476 -0.37871537 -0.19823849
-0.3894735 -0.35884032 -0.19072747
0.38843822 -0.35857138 -0.1925658
-0.40931395 -0.33673683 -0.19846368
0.40839139 -0.33654583 -0.19984162
-0.43154734 -0.31678596 -0.19066083
0.43035614 -0.31643742 -0.19332433
-0.42997113 -0.29455301 -0.20041096
-0.45276684 -0.27484977 -0.18955374
0.45154414 -0.27454042 -0.19223297
-0.45111424 -0.25275755 -0.19931173
0.44996548 -0.25246796 -0.20199823
-0.45075333 -0.23157881 -0.20144284
0.4733004 -0.23293553 -0.18788505
-0.47440577 -0.21204026 -0.18617404
-0.45069957 -0.21060042 -0.20176041
0.47324613 -0.2118526 -0.1882056
-0.47434893 -0.1909465 -0.18649518
-0.4506458 -0.18962695 -0.20207763
0.47319636 -0.19077672 -0.18849933
-0.47429687 -0.16985971 -0.18678916
-0.45059881 -0.16866137 -0.20235515
0.47314662 -0.16970545 -0.18879318
-0.45142856 -0.14805892 -0.19745612
0.45045331 -0.14795324 -0.19898069
0.47346336 -0.14878866 -0.18692291
-0.45254776 -0.12748612 -0.19084728
0.45152044 -0.12739176 -0.19237936
-0.4306376 -0.10616234 -0.19628811
0.42966086 -0.10607861 -0.19784057
-0.43170682 -0.085479125 -0.18967378
-0.40908343 -0.085004106 -0.19996071
0.40820169 -0.084949583 -0.20113862
0.43067598 -0.085406482 -0.19124711
-0.4110496 -0.064535096 -0.18719018
0.38776061 -0.064139947 -0.19745612
0.41006988 -0.064489856 -0.18836582
-0.34598392 -0.043031793 -0.20162797
0.36726585 -0.043274436 -0.1937499
-0.34784359 -0.022412252 -0.18741751
-0.3260394 -0.022272158 -0.19348407
-0.30454439 -0.022175279 -0.19768143
-0.28318384 -0.022093322 -0.20123124
0.28243783 -0.022082578 -0.20169413
0.30376878 -0.022164885 -0.19813228
0.32519099 -0.022254456 -0.19425547
0.34694049 -0.022394154 -0.1882056
-0.26362762 -0.0013572164 -0.18729711
-0.24223804 -0.0013018139 -0.19088733
-0.22090566 -0.001246959 -0.19445491
-0.19962789 -0.0011920072 -0.19802618
-0.17840578 -0.0011372007 -0.20158827
0.17768033 -0.0011300407 -0.20205116
0.19887139 -0.0011849441 -0.19849026
0.22011799 -0.0012398474 -0.19492006
0.24142034 -0.0012949519 -0.19134057
0.26277745 -0.0013499558 -0.18776476
-0.074608363 -0.48882794 -0.17098999
-0.0532685 -0.48752457 -0.17776227
-0.032033626 -0.48623025 -0.18448782
0.031198658 -0.48607057 -0.18531787
0.052375305 -0.48736405 -0.17859638
0.073656209 -0.48866391 -0.17184186
-0.20114018 -0.46627891 -0.1783812
-0.17954692 -0.46503448 -0.18511713
0.17867127 -0.46487874 -0.18596017
0.20020498 -0.46611995 -0.17924166
0.26444453 -0.44668621 -0.16971827
-0.30721316 -0.42467132 -0.17456937
0.30598152 -0.42415795 -0.17760074
-0.34970161 -0.40373355 -0.1732198
0.3485586 -0.40343478 -0.17506826
-0.36965013 -0.3812142 -0.18200827
0.3685621 -0.38093144 -0.1838448
-0.41272914 -0.3609533 -0.17628121
0.41156763 -0.36068347 -0.17812562
-0.43425548 -0.34013936 -0.17390811
0.43274587 -0.3395997 -0.17780268
-0.45610544 -0.3195107 -0.1698401
0.45473132 -0.31916028 -0.17251742
-0.45442897 -0.29709908 -0.17973912
0.45313197 -0.29677013 -0.1824106
0.47609299 -0.2769464 -0.17139566
-0.47574267 -0.25498709 -0.17862332
0.47441384 -0.25469756 -0.18131053
-0.47446263 -0.2331389 -0.18585324
0.49746731 -0.23469539 -0.17030013
-0.4983851 -0.21349658 -0.17040849
0.49708667 -0.21330802 -0.17244971
-0.49832508 -0.19228119 -0.17073298
0.49703166 -0.19210947 -0.17276061
-0.49827012 -0.1710728 -0.17103064
0.49697664 -0.17091577 -0.17307103
-0.49820516 -0.14986528 -0.17138231
-0.47454554 -0.14889522 -0.18538487
0.4969241 -0.14972772 -0.17336822
-0.47572601 -0.12823321 -0.17871737
0.47459352 -0.12813872 -0.18024957
-0.47691226 -0.10747017 -0.17201746
-0.45367241 -0.10681333 -0.18420672
0.45259279 -0.10673046 -0.18574607
0.4757269 -0.10738726 -0.17355716
-0.45480251 -0.086039826 -0.17753339
0.45366818 -0.085967839 -0.17909396
-0.43358681 -0.064887017 -0.17804492
0.43252635 -0.064841509 -0.17922843
0.4551335 -0.06519568 -0.17002952
-0.41303426 -0.043873254 -0.17429936
-0.39053503 -0.043590974 -0.18346977
0.38953525 -0.043554623 -0.18464851
0.41195565 -0.043837104 -0.17547262
-0.3924256 -0.022802006 -0.17054379
-0.36996454 -0.02258965 -0.179739
0.36894649 -0.022562746 -0.18090761
0.39132667 -0.022774849 -0.17172003
-0.32843721 -0.0015615635 -0.17401612
-0.30657431 -0.0014679208 -0.18010175
-0.28507349 -0.0014126189 -0.18369746
0.28419191 -0.0014054067 -0.18416643
0.30566275 -0.0014608577 -0.18055868
0.32743922 -0.0015498288 -0.1747849
0.34889609 -0.0015875734 -0.17232823
0.36938629 -0.0015072562 -0.17754686
-0.26540035 0.019564392 -0.16958284
-0.24387011 0.019592341 -0.17321956
-0.22254387 0.019606913 -0.17510855
-0.20127799 0.019618252 -0.17659092
-0.18003412 0.01962984 -0.17808521
-0.15881336 0.019641327 -0.17957771
-0.13761999 0.019652119 -0.18098819
-0.11649056 0.019655999 -0.18148482
-0.09536878 0.019659778 -0.18198133
-0.074255057 0.019663557 -0.18246424
-0.053148463 0.019667387 -0.18296051
-0.032049511 0.019671068 -0.18345618
-0.010958194 0.019674946 -0.18395197
0.010125489 0.019675493 -0.18401897
0.031212471 0.019671714 -0.1835233
0.052307088 0.019667935 -0.18302751
0.073409349 0.019664055 -0.18253136
0.094519243 0.019660225 -0.18203509
0.11563679 0.019656446 -0.18153858
0.13676138 0.019652765 -0.18105531
0.15793829 0.019642521 -0.179739
0.17914547 0.019631231 -0.17826009
0.20037554 0.019619744 -0.17677939
0.22162959 0.019608205 -0.17528391
0.24291477 0.019595971 -0.17369199
0.2644133 0.019567972 -0.17005658
0.32801023 0.019566381 -0.1698401
-0.11768381 -0.49177998 -0.15565026
-0.096053265 -0.49013507 -0.16419804
0.095042132 -0.48997033 -0.16505384
0.11653437 -0.49128574 -0.15821874
-0.22392322 -0.4698931 -0.1588192
0.22266203 -0.46932906 -0.16187203
-0.26569194 -0.44722599 -0.16666913
0.32989684 -0.42823932 -0.15350163
-0.37291434 -0.40612119 -0.15845072
0.37162477 -0.40579927 -0.16044188
-0.39287725 -0.38345468 -0.16745579
0.39166033 -0.38316894 -0.16931212
0.41518122 -0.3856158 -0.15341926
-0.47926116 -0.2996842 -0.15875101
0.47777966 -0.29935348 -0.16143632
-0.47749677 -0.27725583 -0.16871619
-0.5007481 -0.25725096 -0.15761805
0.49923688 -0.25696135 -0.1603055
-0.49890557 -0.23496644 -0.16759157
-0.52264225 -0.21496986 -0.15445995
0.52120358 -0.21478038 -0.15651143
-0.52257907 -0.1936314 -0.15478837
0.52114552 -0.19345883 -0.15682578
-0.52251852 -0.17229901 -0.15510297
0.5210849 -0.17214108 -0.15715361
-0.52245796 -0.15097137 -0.15541768
0.52102941 -0.15083024 -0.15745413
-0.5227055 -0.12974724 -0.15413141
-0.49911103 -0.12898682 -0.16647935
0.49787009 -0.12889165 -0.16802514
0.52135509 -0.12965114 -0.15569127
-0.50035989 -0.10813282 -0.15971947
0.49906561 -0.10804923 -0.16127288
-0.50161749 -0.087177053 -0.1529125
-0.47810674 -0.086606279 -0.16527116
0.47686589 -0.086534157 -0.16683197
0.50026947 -0.087104961 -0.15447354
-0.47930226 -0.065638721 -0.15851903
-0.45627514 -0.065241486 -0.16883802
0.47800812 -0.065578297 -0.16008759
-0.45848775 -0.04444373 -0.15577328
-0.43568468 -0.044157576 -0.16506732
0.43452474 -0.044121217 -0.16624856
0.45724592 -0.044407133 -0.15696239
-0.41503775 -0.023015905 -0.16128647
0.41385731 -0.022988502 -0.16247082
0.43653998 -0.023203593 -0.15315914
-0.39463195 -0.0018473268 -0.15545869
-0.37246859 -0.0017516911 -0.16166782
-0.35040268 -0.0016563535 -0.16786253
0.39346814 -0.0018348917 -0.1562655
-0.33086953 0.019446528 -0.15426838
-0.30883977 0.019494319 -0.16048276
-0.28698763 0.019536342 -0.16593647
0.28596869 0.019540073 -0.16641152
0.30774269 0.019500287 -0.16125929
0.34992427 0.019521274 -0.16398048
-0.20210549 0.040758632 -0.16584134
-0.096396998 0.040758632 -0.15526724
-0.075076915 0.040758632 -0.15577316
0.052718062 0.040758632 -0.1563338
0.095341794 0.040758632 -0.15532184
0.11666482 0.04075858 -0.15482938
0.15851255 0.040758632 -0.16908193
-0.22432944 0.040758681 -0.15402186
-0.18077712 0.040758681 -0.1673609
-0.13908269 0.040758681 -0.15384388
-0.11772488 0.040758681 -0.15476108
-0.053764954 0.040758681 -0.1562655
-0.032460354 0.040758681 -0.15677106
-0.011163541 0.040758729 -0.15727663
0.010125489 0.040758729 -0.15734494
0.031417884 0.040758681 -0.15683937
0.074026033 0.040758681 -0.15582788
0.13801 0.040758681 -0.15402186
0.18045372 0.040758729 -0.15701699
0.24597992 -0.47383285 -0.13749444
-0.28952372 -0.45152208 -0.14240444
0.28806204 -0.45097524 -0.14549363
-0.33134392 -0.42876178 -0.15041649
0.39612287 -0.40957159 -0.13710654
-0.41685084 -0.38621759 -0.14951026
-0.43872207 -0.36534148 -0.14627862
0.43699607 -0.36476845 -0.15019679
-0.46064669 -0.34441853 -0.14302564
0.45886174 -0.34387246 -0.1469667
-0.48262027 -0.32344472 -0.13977873
0.48077849 -0.32292768 -0.14372921
-0.50464779 -0.3024236 -0.13651037
0.50280267 -0.30197331 -0.14016604
-0.50260663 -0.27969891 -0.14755833
0.50101453 -0.2793864 -0.15026557
-0.52613932 -0.25954962 -0.13628876
0.52443814 -0.25925705 -0.13900387
-0.52419025 -0.23708554 -0.14641631
0.52256811 -0.23681431 -0.14912558
0.54608899 -0.21650372 -0.13785481
-0.54711574 -0.19499728 -0.13865781
0.54554045 -0.19482394 -0.14070523
-0.54704922 -0.17353934 -0.13899004
0.54547656 -0.17338181 -0.14103687
-0.54698831 -0.15208845 -0.13929462
0.54541278 -0.15194473 -0.14136863
-0.54691631 -0.13063879 -0.1396544
0.54535162 -0.13051364 -0.14168632
-0.52401817 -0.10880159 -0.14731085
0.52261639 -0.1087178 -0.14886463
0.546377 -0.10939172 -0.13635802
-0.5253399 -0.087753013 -0.14044261
0.52388132 -0.08768031 -0.14201772
-0.50287873 -0.066117182 -0.14608574
0.50147676 -0.066056758 -0.14765465
-0.50455558 -0.045021471 -0.13700962
-0.48144504 -0.044731829 -0.14641619
0.48012298 -0.044695329 -0.1475997
0.50315303 -0.044985261 -0.13818705
-0.46072146 -0.023447674 -0.14258385
-0.43780252 -0.023231041 -0.15196681
0.45937845 -0.023420323 -0.14377046
-0.43994054 -0.002104789 -0.13874102
-0.41706026 -0.0019599199 -0.14814973
0.41577706 -0.0019414164 -0.1493454
0.43857661 -0.0020864867 -0.13993096
-0.37522966 0.019349998 -0.14174151
-0.35299861 0.019398386 -0.14802599
0.37396175 0.019356562 -0.14258385
0.39623812 0.019307973 -0.13627481
-0.2895014 0.040758632 -0.1426115
0.20226482 0.040758632 -0.14951015
0.26673576 0.040758632 -0.14491487
-0.31119052 0.040758681 -0.14012468
-0.26788968 0.040758681 -0.14470816
-0.24636263 0.040758729 -0.14623725
-0.16049179 0.040758681 -0.15232313
0.22373003 0.040758681 -0.14799845
0.24522093 0.040758681 -0.14645755
0.28831869 0.040758681 -0.14292896
0.30998614 0.040758681 -0.14044261
0.18150765 0.062181488 -0.13990319
-0.14020821 -0.49614733 -0.13295662
0.13885084 -0.49559695 -0.13581729
-0.2474547 -0.47440171 -0.13441551
0.31210038 -0.45534295 -0.12082481
-0.35590258 -0.43292472 -0.12583554
0.35423747 -0.43239522 -0.12896168
-0.39776871 -0.41007179 -0.1340127
-0.52810538 -0.28217986 -0.126073
0.52632183 -0.28186405 -0.12880814
-0.54986674 -0.2392375 -0.1249131
0.54805547 -0.23896484 -0.12763667
-0.54782039 -0.21675487 -0.13513732
-0.57194006 -0.19637911 -0.12233841
0.57022136 -0.19620492 -0.12439573
-0.57187021 -0.1747953 -0.12267435
0.57015413 -0.1746369 -0.12473142
-0.57229543 -0.15338163 -0.1206286
0.57027447 -0.15313907 -0.12413001
0.57087147 -0.13177846 -0.12114739
-0.54788989 -0.10947628 -0.1347903
-0.54995072 -0.088489681 -0.1244936
0.54817098 -0.088372186 -0.12703645
-0.52666557 -0.066599533 -0.1335541
0.5251525 -0.066538513 -0.13513732
-0.52874053 -0.045459855 -0.12277246
0.52697426 -0.045382719 -0.12527657
-0.50733083 -0.023923364 -0.12198806
-0.48379368 -0.023665551 -0.13315129
0.48236993 -0.023638297 -0.13433206
0.50570136 -0.023881685 -0.12379408
-0.46297657 -0.0022506006 -0.12926817
0.46152923 -0.002232153 -0.13046622
0.48465031 -0.0023799539 -0.12086689
-0.44252428 0.019203983 -0.12275839
-0.41999087 0.019252822 -0.12911487
-0.39755955 0.019301558 -0.1354425
0.41861579 0.019259237 -0.12993705
0.44109547 0.019210201 -0.12357032
-0.35563037 0.040758632 -0.12791562
0.33202538 0.04075858 -0.13506782
0.37660754 0.040758632 -0.12236619
-0.37802887 0.040758681 -0.12153983
-0.33333528 0.040758729 -0.13424873
0.35426494 0.040758729 -0.12873852
-0.22722363 0.062335908 -0.11984301
-0.20552661 0.062323868 -0.12139952
-0.18385369 0.062311932 -0.12295449
-0.16220479 0.062299952 -0.12450767
-0.14076078 0.062313825 -0.12270236
-0.11930399 0.062330186 -0.12057245
-0.097761557 0.062336005 -0.11981487
0.096437722 0.06233675 -0.11973059
0.11798716 0.062330984 -0.12047422
0.1394695 0.06231606 -0.12242234
0.16091071 0.062299401 -0.12457752
0.20419587 0.062322028 -0.1216377
0.22588013 0.062334113 -0.12006736
-0.1631034 -0.50058162 -0.10991597
0.16154635 -0.50003016 -0.11278176
-0.31377888 -0.45589459 -0.11770868
0.37901336 -0.4366256 -0.10398269
-0.44560537 -0.39327073 -0.10369897
0.44289336 -0.39200923 -0.11189294
-0.46542975 -0.36994809 -0.11478269
0.46342582 -0.36937022 -0.11873412
-0.48763505 -0.34879297 -0.11145532
0.48557106 -0.34824225 -0.11543036
-0.50989294 -0.32758775 -0.10812032
0.50776857 -0.32706445 -0.1121186
-0.53220373 -0.30633205 -0.10477734
0.53001851 -0.30583665 -0.10879934
0.55232102 -0.28455859 -0.10547209
-0.5519253 -0.26188412 -0.11462772
0.55003101 -0.26158842 -0.11737144
-0.57594401 -0.24142294 -0.10307443
0.57393515 -0.24114613 -0.10584044
-0.57378572 -0.21875744 -0.1134584
0.57186365 -0.21850516 -0.11619008
-0.572914 -0.13199377 -0.11765242
-0.57353681 -0.11056121 -0.11465585
0.57154006 -0.11039142 -0.11780703
-0.57571685 -0.089428514 -0.1041671
0.57375365 -0.089309305 -0.10674727
-0.5521481 -0.067370877 -0.11351466
0.5502854 -0.067273304 -0.11604941
0.55241656 -0.046007801 -0.1049757
-0.53167748 -0.024257664 -0.10751164
0.5299114 -0.024214592 -0.10937881
-0.51055253 -0.0026312508 -0.10455024
-0.48628667 -0.0024076067 -0.11907113
0.50877732 -0.0026022568 -0.10642147
0.52986705 -0.0025531203 -0.10961926
-0.46525097 0.019150671 -0.11583841
0.46370068 0.019159772 -0.11703384
0.48760352 0.019055037 -0.10342908
0.42159787 0.040758632 -0.10954845
-0.42312956 0.040758681 -0.10872865
-0.40052778 0.040758681 -0.11514878
0.39905035 0.040758681 -0.11597919
0.44424888 0.040758729 -0.1030885
-0.35850072 0.062442578 -0.10598218
-0.33650294 0.062423036 -0.10853052
-0.31454495 0.06240344 -0.11107433
-0.29262811 0.062383946 -0.11359942
-0.27074921 0.062364355 -0.11613381
-0.24894351 0.06234774 -0.11829877
-0.076207489 0.062341921 -0.11905706
-0.054641761 0.06234774 -0.11829877
-0.033064354 0.062353611 -0.11754
-0.011475277 0.062359478 -0.11678088
0.010125489 0.062360227 -0.11668241
0.031721167 0.062354356 -0.11744153
0.053305164 0.06234844 -0.11820042
0.074877165 0.062342569 -0.11897266
0.24758872 0.062346302 -0.11849546
0.26936457 0.062361915 -0.11645734
0.29122141 0.062381461 -0.11392331
0.31311774 0.062400956 -0.11138475
0.33505207 0.06242045 -0.10885572
0.35702765 0.062439993 -0.10630798
-0.18637989 -0.50508964 -0.086491585
0.18461929 -0.50453448 -0.08937645
-0.38089865 -0.43715978 -0.10082889
0.42469299 -0.41744751 -0.088386774
-0.55456764 -0.28502578 -0.10142624
-0.57811534 -0.26425514 -0.092627525
0.57602483 -0.26395634 -0.095399976
-0.60062438 -0.19917881 -0.089276195
0.59798306 -0.19873884 -0.094471693
-0.59929526 -0.17689155 -0.095442772
0.59704924 -0.17662051 -0.098964572
-0.59995449 -0.15533842 -0.092384219
0.59768039 -0.15509297 -0.095928073
-0.60061204 -0.13373774 -0.089333296
0.59831285 -0.13351911 -0.092884898
-0.60126799 -0.11208965 -0.086290479
0.59894675 -0.11189863 -0.089835167
0.59971035 -0.090260178 -0.086161137
-0.57803214 -0.068159431 -0.09302783
0.57598478 -0.068060413 -0.095599651
-0.55436283 -0.046085637 -0.1024493
-0.55660075 -0.024632741 -0.091267824
0.5545646 -0.024574053 -0.093814135
-0.53506827 -0.0028567836 -0.089892626
0.55435014 -0.0027793013 -0.094928622
-0.51381189 0.018927971 -0.08690834
-0.48938054 0.019041061 -0.10159671
0.51190442 0.018942194 -0.088759661
-0.44585791 0.040758632 -0.10213673
0.46742424 0.040758632 -0.093999982
-0.46914557 0.040758681 -0.092841864
-0.42639613 0.062584765 -0.087511301
-0.40353745 0.062530354 -0.09457159
-0.38086715 0.062480576 -0.10105646
0.37928841 0.062474161 -0.10188103
0.40190387 0.062524095 -0.095385551
0.42464894 0.062575713 -0.088688135
-0.273707 0.084425166 -0.086577773
-0.25164831 0.084387623 -0.089017987
0.25012127 0.084394291 -0.088587642
0.2720955 0.084420294 -0.086893916
-0.42755082 -0.41880146 -0.080011845
-0.51524341 -0.35326812 -0.079159856
0.51289427 -0.35271248 -0.083168983
-0.53779048 -0.33182427 -0.075747609
0.53537977 -0.33129641 -0.079780698
-0.56039166 -0.31032887 -0.072327137
0.55791891 -0.30982912 -0.076384544
0.58051211 -0.28831053 -0.072980046
0.60219389 -0.24431129 -0.074212432
-0.602808 -0.22192709 -0.079145432
0.60008097 -0.22144373 -0.084378004
-0.60192835 -0.090395749 -0.083226442
-0.60428703 -0.06895788 -0.072283626
0.60205835 -0.068858564 -0.074864268
-0.58035976 -0.046720613 -0.081829071
0.57823366 -0.046642583 -0.084363699
-0.58272094 -0.025113154 -0.070468545
0.58049756 -0.025053572 -0.073052526
-0.55984044 -0.003084857 -0.075081587
-0.538499 0.018813787 -0.072066069
0.53645939 0.018828159 -0.073936939
-0.49258718 0.040758681 -0.083485723
0.49078608 0.040758729 -0.084637165
0.51507086 0.040758681 -0.070875287
-0.49405721 0.062679604 -0.075182915
-0.47255352 0.062698603 -0.072718978
-0.4497405 0.062657073 -0.078119755
0.4479129 0.062648028 -0.079289794
0.47133169 0.062720835 -0.069828987
-0.40705216 0.08467219 -0.070541263
-0.38467112 0.084624946 -0.07360363
-0.36239678 0.08458481 -0.076210737
-0.34016317 0.084544823 -0.078813314
-0.31797183 0.084504947 -0.081396461
-0.29581922 0.084465057 -0.08398962
-0.2301001 0.084436059 -0.085873723
-0.20843193 0.084470183 -0.083658576
-0.18672991 0.084504291 -0.081439734
-0.16499303 0.084538363 -0.079232216
-0.14322315 0.084572524 -0.077006459
-0.12141916 0.084606893 -0.074777484
-0.099564791 0.084634893 -0.072965503
-0.077650413 0.084646627 -0.072196603
-0.055724204 0.084658459 -0.071427107
-0.033786159 0.084670305 -0.070657492
-0.011836263 0.084682286 -0.069887161
0.010125489 0.084683776 -0.069785595
0.032082096 0.08467184 -0.070555687
0.05402685 0.084660105 -0.07132566
0.075959422 0.084647968 -0.072109461
0.097880393 0.084636137 -0.07287848
0.11975662 0.084611073 -0.07450211
0.14157987 0.084576756 -0.076731682
0.163369 0.084542587 -0.078957796
0.18512493 0.084508523 -0.081165791
0.20684612 0.084474355 -0.083384991
0.22853342 0.084440187 -0.085600495
0.29418534 0.084460184 -0.084306121
0.31631389 0.084499918 -0.08172822
0.33848441 0.084539853 -0.079131126
0.36069548 0.08457984 -0.076529026
0.38294533 0.08461982 -0.073936939
0.40528604 0.084665373 -0.070976973
-0.49677429 -0.37798461 -0.059836864
0.49357718 -0.37676787 -0.0681566
-0.58304733 -0.28878182 -0.068898439
-0.60500729 -0.24483867 -0.06894207
-0.62962067 -0.17984344 -0.057096958
0.6266818 -0.17944007 -0.062337756
-0.62816697 -0.15733205 -0.063608646
0.62564105 -0.15708566 -0.067166448
-0.62886524 -0.13551465 -0.060480714
0.62631357 -0.13529505 -0.064046383
-0.62956834 -0.11365014 -0.057331443
0.62698436 -0.11345598 -0.060934305
-0.63026309 -0.091735482 -0.054219484
0.62765664 -0.091569334 -0.057815313
0.62852359 -0.069669545 -0.053793073
-0.60675222 -0.047366735 -0.060846329
0.60442817 -0.047286164 -0.063462496
-0.58509505 -0.0033317767 -0.059046149
0.58278257 -0.00329189 -0.061636209
-0.56344587 0.018698309 -0.057067513
0.56127262 0.018712729 -0.058958292
-0.54197317 0.040758681 -0.05401361
-0.51711237 0.040758729 -0.069043994
0.53980106 0.040758729 -0.055849791
0.49490437 0.062794037 -0.060319781
-0.47468066 0.084831931 -0.060158849
-0.45148996 0.084722072 -0.067297578
-0.43013245 0.084784433 -0.063243389
0.42819974 0.084766477 -0.064411402
0.45167324 0.08491344 -0.054865837
0.34213147 -0.46831715 -0.047546625
0.47552648 -0.4024803 -0.043880463
-0.56700814 -0.33659795 -0.039269686
0.56363362 -0.33562684 -0.046690106
0.58726209 -0.31440237 -0.039254785
-0.6112622 -0.26993513 -0.039922833
0.60729164 -0.26888302 -0.049685955
-0.63426751 -0.22588669 -0.036281705
0.63115191 -0.22539552 -0.041599154
-0.63193733 -0.2027825 -0.046719551
0.62891042 -0.20233534 -0.051998615
-0.63096261 -0.069773734 -0.051085711
-0.63352424 -0.048020605 -0.039611101
0.63101459 -0.047939744 -0.042236447
-0.60922462 -0.025600273 -0.04937613
0.60681707 -0.025540348 -0.051969171
-0.61172646 -0.0036592595 -0.037769079
0.60922521 -0.0036190264 -0.040382862
-0.58865666 0.018581588 -0.04191041
0.58634818 0.018596308 -0.043821335
-0.56709731 0.040758632 -0.038824081
0.56479037 0.040758632 -0.040679574
-0.52071059 0.062876791 -0.049567938
0.5186373 0.062867887 -0.050732136
0.54317719 0.062969141 -0.037575841
0.47530648 0.085061595 -0.045241475
-0.41174987 0.10737057 -0.038422823
-0.38904622 0.10728723 -0.042028904
-0.36639735 0.10720383 -0.045640826
-0.34389967 0.10713843 -0.048476338
-0.32146841 0.10707745 -0.051115274
-0.29934153 0.10707308 -0.051306605
-0.27758938 0.10715449 -0.047782898
-0.2557838 0.107236 -0.044250488
-0.23392452 0.10731781 -0.040709376
-0.21201256 0.10740012 -0.037144661
0.21007963 0.10741006 -0.036713362
0.2320234 0.10732806 -0.04026413
0.25391325 0.10724615 -0.043806314
0.27574798 0.10716438 -0.047354698
0.29753044 0.10708283 -0.050879478
0.31957662 0.10706955 -0.051453829
0.34198663 0.10713087 -0.048801064
0.36444351 0.10719334 -0.046099067
0.38706282 0.10727702 -0.042473555
0.40973717 0.10736057 -0.038853765
-0.34644759 -0.47181511 -0.02778995
-0.47886804 -0.40378091 -0.035433531
0.54586321 -0.36104456 -0.023037434
-0.59123397 -0.31560251 -0.02951026
-0.65927964 -0.16006286 -0.024193287
0.65603685 -0.15969656 -0.029480577
-0.65769285 -0.13732615 -0.031064272
0.6548841 -0.13710576 -0.034644127
-0.65843517 -0.11523888 -0.027849793
0.65559328 -0.11504388 -0.031467557
-0.65917569 -0.093101621 -0.024643302
0.65630728 -0.092934027 -0.028268933
-0.65992135 -0.070915833 -0.021414757
0.65702295 -0.07077539 -0.025063276
0.65800196 -0.048603613 -0.020677805
-0.6361264 -0.026095007 -0.027954817
0.63352567 -0.026034188 -0.030586362
-0.61424214 0.018459843 -0.026097655
0.61169952 0.018478146 -0.028478384
-0.59249198 0.040758729 -0.023457766
0.59004849 0.040758681 -0.025333166
-0.57079548 0.063101731 -0.02034688
-0.54549164 0.062983364 -0.035731077
0.56834745 0.063087553 -0.022196174
-0.52531546 0.085378781 -0.024643421
-0.50127959 0.085228637 -0.034390807
0.49909633 0.085210487 -0.035567403
0.52304935 0.08536078 -0.025812984
-0.4345127 0.10745442 -0.034793019
-0.18999058 0.10746397 -0.034375906
0.18802388 0.10747059 -0.034092665
0.43246856 0.10744438 -0.035224915
-0.45770979 0.10759228 -0.028822541
-0.16801736 0.10756224 -0.030123115
0.16608751 0.10759959 -0.028508425
0.45550105 0.10756503 -0.030003667
0.47935277 0.10779111 -0.020211339
0.43456987 0.1301153 -0.020858169
-0.54956347 -0.3622174 -0.014573336
0.61679852 -0.29628178 -0.0039460659
-0.64129603 -0.25125781 -0.0047978163
0.6369642 -0.25027359 -0.014633656
-0.66420513 -0.2064959 -0.0028654337
0.66078073 -0.20604151 -0.0082304478
-0.66173863 -0.1831961 -0.013545632
0.65840518 -0.18278603 -0.018871784
-0.66070342 -0.048685174 -0.018028021
-0.66343594 -0.026597504 -0.006196022
0.66064191 -0.026536081 -0.0088523626
-0.63875651 -0.0039917193 -0.016173482
0.63606042 -0.0039509386 -0.018826604
-0.64140129 0.018292198 -0.0043263435
0.63861585 0.018312588 -0.006970644
-0.61815548 0.040758681 -0.0079421997
0.6155771 0.040758729 -0.009822607
-0.5963704 0.063221484 -0.0047978163
0.59378755 0.063207261 -0.0066519976
-0.54951411 0.085529774 -0.014829874
0.5471648 0.085511968 -0.015992403
0.5719505 0.085704677 -0.0034741163
-0.50574225 0.10804583 -0.0091859102
-0.48164481 0.10781826 -0.019037366
-0.14647113 0.10787152 -0.01673162
-0.12472376 0.10818329 -0.003230691
0.14442644 0.10790913 -0.01510179
0.50336403 0.10801853 -0.010368109
-0.41655678 0.13058648 -0.0055578947
-0.39358661 0.13047248 -0.0092617273
-0.37067467 0.1303587 -0.012956142
-0.34816852 0.13033214 -0.013817906
-0.32629424 0.1304705 -0.0093224049
-0.30429652 0.13059352 -0.0053299665
0.30213445 0.1306076 -0.0048738718
0.32417607 0.13048746 -0.0087765455
0.34608895 0.13034891 -0.013273597
0.36847165 0.13034523 -0.013394475
0.39135158 0.13045895 -0.0097013712
0.4142918 0.13057339 -0.0059833527
0.5279792 -0.38703346 0.0020307302
-0.62112939 -0.29741365 0.0058552027
-0.68962759 -0.13982274 0.0094747543
0.68607408 -0.13949423 0.0041406155
-0.68789858 -0.11685964 0.0022293329
0.68479741 -0.1166648 -0.0013875961
-0.68868345 -0.094494611 0.0055180788
0.68555152 -0.094326526 0.0018780231
-0.68946636 -0.07207872 0.0087991953
0.68630737 -0.071938321 0.0051505566
-0.69071764 -0.049672704 0.014042497
0.68706489 -0.049499888 0.0084308386
-0.66687405 -0.0043746568 0.0086917877
0.66360742 -0.0043090098 0.0044312477
0.64251822 0.040758729 0.011134028
0.62047005 0.063364066 0.013719082
-0.57454133 0.085733026 -0.0016313791
-0.55461442 0.10852739 0.011672139
-0.53000373 0.10827491 0.00073266029
-0.10277399 0.10849839 0.01041162
0.1004962 0.10853669 0.012071967
0.12256377 0.10822164 -0.0015704632
0.5275414 0.1082477 -0.00044214725
0.55198902 0.10849158 0.010119796
-0.48595911 0.13095593 0.0064373016
-0.46267277 0.13081549 0.0018780231
-0.43958542 0.13070086 -0.0018446445
-0.28220338 0.13070603 -0.0016770363
-0.2600534 0.13081826 0.0019695759
-0.23801288 0.13099089 0.0075718164
0.23587476 0.13105842 0.0097664595
0.25782698 0.13083194 0.002412796
0.28000832 0.1307196 -0.0012351274
0.46034133 0.1308019 0.0014349222
0.48347014 0.13091958 0.0052579641
0.4163529 0.15359965 0.0088911057
0.43946508 0.15374288 0.012610555
0.66736972 -0.23120447 0.021284342
0.69110745 -0.18623526 0.02593565
-0.69222802 -0.1631504 0.020371437
0.68858147 -0.16277805 0.014997602
-0.6937449 -0.027357753 0.026727796
0.68969744 -0.027198512 0.019830108
-0.67175776 0.018029215 0.029838562
0.6683318 0.018061889 0.025594115
-0.64580125 0.040758681 0.015383124
-0.62340915 0.063384853 0.016431928
-0.60155028 0.086068019 0.020123959
0.59860539 0.086026341 0.017419577
-0.57988173 0.10883637 0.025050998
-0.080616191 0.10881494 0.024119973
0.078196436 0.10882956 0.024755955
0.57713574 0.10879992 0.023468852
-0.5353322 0.13166834 0.029573798
-0.51028341 0.13126451 0.016462684
-0.21685533 0.13155097 0.025765061
0.21456219 0.13161945 0.027986884
0.50770682 0.13122806 0.015275002
0.53257757 0.13161986 0.028002501
-0.42147219 0.15433693 0.028049111
-0.39823142 0.15419117 0.024259686
-0.3757785 0.15425985 0.026044369
-0.35364723 0.15443759 0.030664086
0.37339813 0.15428133 0.02660358
0.39573705 0.15417391 0.02380991
-0.65176821 -0.27877614 0.042111635
0.64706713 -0.2777122 0.032238245
-0.67207432 -0.23212115 0.03120935
-0.69484407 -0.18665093 0.031334162
0.71815819 -0.11911966 0.044169664
0.71700084 -0.096055895 0.039319754
-0.69797093 -0.0049249418 0.044436932
0.6943866 -0.0048586987 0.040134788
0.67311805 0.040758729 0.047033668
-0.65118688 0.063562497 0.039507866
0.64804012 0.06354136 0.036752105
-0.62918794 0.086423904 0.043242335
0.62604201 0.086382121 0.040526748
-0.60713685 0.10934329 0.047002316
0.60398453 0.10928088 0.04429543
-0.56066591 0.13208529 0.043116689
-0.19543347 0.13211821 0.0441854
0.19298311 0.13218749 0.046435118
0.55778944 0.13203596 0.041515231
-0.49171647 0.15481362 0.040432692
-0.46814865 0.15463348 0.035751343
-0.44477037 0.1544826 0.031832814
-0.33144656 0.15461607 0.03529799
-0.30917606 0.15479492 0.039946675
-0.28711745 0.15508291 0.047427535
0.3066763 0.15481664 0.040511012
0.3289867 0.15463766 0.035860658
0.35122722 0.15445927 0.031224966
0.46554047 0.15461235 0.035204291
0.48906767 0.15479253 0.03988409
0.51293069 0.15503259 0.046120286
0.69853938 -0.21165968 0.058116794
0.72265863 -0.16610576 0.063028574
0.72040123 -0.14253822 0.053569078
-0.72419429 -0.11987375 0.058164358
-0.72186786 -0.096490115 0.048720002
-0.72441721 -0.074013591 0.059069276
0.72008049 -0.073750257 0.052224994
0.69938701 0.01778329 0.061787009
-0.67671239 0.040758632 0.051292658
0.65390974 0.086743325 0.063984036
-0.63068151 0.10941654 0.050171614
-0.58622998 0.13250567 0.056768417
-0.17374323 0.13269302 0.062853336
0.58323318 0.1324559 0.055152059
-0.54121315 0.15562092 0.06140542
-0.51581603 0.1550938 0.047711015
0.28472063 0.15517333 0.049777031
0.53820747 0.15555909 0.05979991
-0.42660001 0.17867196 0.063108087
0.42378819 0.17864624 0.062551022
0.67809212 -0.25867462 0.069314837
-0.70362169 -0.21250643 0.068116069
-0.72887605 -0.16708548 0.077169776
-0.72653168 -0.14340565 0.067652822
-0.72763097 -0.051461015 0.072115541
0.72318715 -0.05124921 0.065243244
0.7263211 -0.028550524 0.078375816
-0.70314544 0.01774992 0.066120505
-0.68174326 0.063821003 0.073076725
0.67797077 0.063787833 0.068771243
-0.65726691 0.086785801 0.066742778
0.63171655 0.1098244 0.067828536
-0.63662905 0.13315225 0.07776475
-0.61283302 0.13304885 0.074407935
0.17113167 0.13276224 0.065099716
0.6094501 0.13296247 0.07160306
0.63411278 0.13320123 0.079357386
-0.56684542 0.15615284 0.075226307
-0.26607522 0.15584232 0.067158103
0.26350972 0.15593342 0.069522619
0.56371528 0.15608989 0.07359004
-0.49798438 0.17933409 0.077443242
-0.47411272 0.17911242 0.072644114
-0.45031968 0.17889217 0.067876577
-0.40412471 0.17884208 0.0667907
-0.38176572 0.17907333 0.071795106
-0.35930008 0.1792932 0.076559186
0.35652691 0.17931937 0.077121735
0.37903333 0.1790992 0.072355866
0.40144119 0.17886998 0.067397356
0.44746664 0.17886645 0.067317605
0.47122085 0.17908721 0.072099686
0.49504849 0.17930812 0.076880693
-0.73087698 -0.028710265 0.085292578
0.72948271 -0.0056514256 0.091624379
-0.70839232 0.040758632 0.088107228
0.70445728 0.040758681 0.083742142
-0.68684459 0.087223291 0.095166564
0.68289512 0.087156549 0.090829492
-0.66345978 0.11043988 0.094483376
0.65988851 0.11037618 0.091721773
-0.59271628 0.1566899 0.089176059
-0.24475157 0.15661192 0.087152243
0.24201517 0.15670347 0.089532375
0.58946633 0.15662684 0.087540507
-0.54722226 0.18009563 0.09393084
-0.5219298 0.17955568 0.082241297
