ply
format ascii 1.0
comment PCL generated
element vertex 1356
property float x
property float y
property float z
element camera 0
property float view_px
property float view_py
property float view_pz
property float x_axisx
property float x_axisy
property float x_axisz
property float y_axisx
property float y_axisy
property float y_axisz
property float z_axisx
property float z_axisy
property float z_axisz
property float focal
property float scalex
property float scaley
property float centerx
property float centery
property int viewportx
property int viewporty
property float k1
property float k2
end_header
0.20943493 -0.20831315 -0.16981602
0.21002561 -0.18429634 -0.16214287
0.23314446 -0.11032985 -0.17832792
0.72419083 -0.11081385 -0.16261005
0.23351839 -0.086067162 -0.17391193
0.72008544 -0.085930809 -0.17981339
0.23389333 -0.061736435 -0.16948402
0.23426935 -0.037337877 -0.16504347
0.23426795 0.036063053 -0.16506016
0.23389193 0.060427457 -0.16950059
0.23351699 0.084723867 -0.17392862
0.72008151 0.084542207 -0.17983007
0.23314306 0.10895251 -0.17834425
0.72419083 0.10955816 -0.16261005
0.21002175 0.18304114 -0.16219306
0.20943238 0.20699961 -0.16984928
0.20902021 0.23101753 -0.1752032
0.18555242 0.28102314 -0.16190934
0.18498392 0.30469319 -0.17011499
0.18441837 0.32824153 -0.17827809
0.6505574 0.35432154 -0.16342723
0.16066742 0.37820017 -0.1683042
0.16052322 0.40233558 -0.17064607
0.16035064 0.42637137 -0.1734482
0.16016717 0.45033786 -0.17642748
0.16006641 0.47446543 -0.17806351
0.13653593 0.47685495 -0.1625433
0.13651706 0.50128454 -0.16289353
0.16024053 0.49928924 -0.17523623
0.16041596 0.52416033 -0.17238772
0.50105911 0.52305651 -0.17890561
0.16059172 0.54907626 -0.16953373
0.47770965 0.54852378 -0.17265284
0.16094519 0.57456905 -0.16379392
0.18486783 0.57309157 -0.1717906
0.20867041 0.57162166 -0.17974746
0.45425996 0.57408291 -0.16642523
0.18546113 0.59915489 -0.16322708
0.20932633 0.59761518 -0.17122662
0.23316124 0.59628689 -0.17812967
0.4040758 0.59677345 -0.17560041
0.23444155 0.62367922 -0.16301024
0.25863951 0.62306231 -0.16609228
0.28278899 0.6224432 -0.16918492
0.30705774 0.62213433 -0.17072904
0.33189923 0.62285924 -0.16710722
0.35679337 0.62357897 -0.16351044
0.21137258 -0.6530965 -0.14464509
0.23573121 -0.6524691 -0.1477797
0.26004374 -0.65184623 -0.15089118
0.28471053 -0.65202796 -0.14998353
0.30968717 -0.65275896 -0.14633119
0.16200714 -0.6281057 -0.14655018
0.40792844 -0.62786585 -0.14779663
0.18605648 -0.62655008 -0.15463388
0.21019399 -0.62552589 -0.15995574
0.38173303 -0.62551939 -0.15998924
0.13736688 -0.60339051 -0.14712286
0.16147423 -0.60189754 -0.1552037
0.4307034 -0.60096097 -0.16027331
0.13698111 -0.57751799 -0.15428185
0.48182589 -0.57877362 -0.14719009
0.11287478 -0.55459458 -0.14467883
0.13682584 -0.55248016 -0.15716314
0.50535715 -0.55309588 -0.15352726
0.11274087 -0.52950203 -0.14757764
0.13667086 -0.52748746 -0.16003931
0.52981186 -0.5284481 -0.15409744
0.1126989 -0.50476068 -0.14848661
0.5543322 -0.50387102 -0.15426505
0.11283894 -0.48060966 -0.14545465
0.57884997 -0.47929645 -0.15443277
0.13669968 -0.45404497 -0.15950465
0.60336506 -0.45472446 -0.15460038
0.13686194 -0.42992926 -0.15649366
0.13703534 -0.4057928 -0.15327549
0.62669182 -0.4049063 -0.1604737
0.16115071 -0.35590366 -0.1604569
0.16165914 -0.33222744 -0.15220129
0.16217017 -0.30842814 -0.14390278
0.67692131 -0.30740431 -0.15498602
0.18612619 -0.25841996 -0.15362775
0.21098493 -0.16038249 -0.14968109
0.7283451 -0.13596961 -0.1452018
0.23464641 -0.012870685 -0.16059065
0.23464641 0.011630501 -0.16059053
0.72834915 0.13484876 -0.14518487
0.21098235 0.15922457 -0.14971447
0.18612388 0.25723037 -0.15366137
0.1621681 0.30731308 -0.14393663
0.67697746 0.30623239 -0.15473437
0.16165707 0.33104807 -0.15223491
0.16114865 0.35466051 -0.16049039
0.13703263 0.40460229 -0.15332568
0.62670565 0.40367582 -0.16040683
0.13686103 0.42871842 -0.15651035
0.13669787 0.45280814 -0.15953803
0.60339528 0.4535524 -0.15444958
0.11283739 0.47948065 -0.14548826
0.57886928 0.47811919 -0.15433204
0.11269735 0.50360823 -0.14852023
0.55436319 0.50270671 -0.15409744
0.11274166 0.5283649 -0.14756072
0.13667177 0.52625442 -0.1600225
0.52984458 0.52728915 -0.15391278
0.11287478 0.55347675 -0.14467883
0.13682584 0.55126643 -0.15716302
0.50537139 0.55192506 -0.15344322
0.13698111 0.57632655 -0.15428174
0.48184216 0.57765526 -0.14708924
0.16147524 0.60070217 -0.15518689
0.43072048 0.59974575 -0.16015625
0.13736778 0.60225725 -0.14710605
0.16200922 0.62698036 -0.14651656
0.18605882 0.62536252 -0.15460038
0.21019784 0.6243006 -0.15990579
0.38174614 0.62430394 -0.15988898
0.40795177 0.62675798 -0.14762819
0.21137649 0.65198952 -0.14459455
0.23573551 0.65133798 -0.14772904
0.26004684 0.65068781 -0.15085745
0.28471726 0.65088332 -0.14991641
0.30969623 0.65164614 -0.14624691
0.18803686 -0.68158561 -0.12604952
0.21256128 -0.68093002 -0.12920368
0.23703766 -0.68027568 -0.1323514
0.2620739 -0.68099016 -0.128914
0.13836184 -0.65629613 -0.12865841
0.16254401 -0.65445989 -0.13783276
0.18696494 -0.65372163 -0.14152133
0.334719 -0.65348834 -0.1426872
0.35995609 -0.65445989 -0.13783276
0.11361945 -0.63156867 -0.12855625
0.13783555 -0.62966937 -0.13842547
0.43484947 -0.63092011 -0.1319263
0.11314249 -0.60491288 -0.13888276
0.45819831 -0.60455036 -0.14084506
0.088859737 -0.58201855 -0.12886298
0.1130089 -0.57973254 -0.14177489
0.088735268 -0.55672538 -0.13209629
0.088648289 -0.53163946 -0.13435614
0.088766024 -0.50740719 -0.13129723
0.088884652 -0.48313105 -0.12821543
0.11297925 -0.45641273 -0.14241695
0.11311981 -0.43216977 -0.13937342
0.11353528 -0.40861306 -0.13037837
0.13758406 -0.38241112 -0.14309239
0.13806856 -0.35874394 -0.13410139
0.13851991 -0.33487701 -0.12572539
0.16280098 -0.28466573 -0.1336596
0.70502836 -0.25950289 -0.13955963
0.18711963 -0.23485838 -0.1392889
0.18799667 -0.21097285 -0.12662971
0.73254108 -0.16140157 -0.12761891
0.21195441 -0.13628191 -0.13708711
0.21282904 -0.11194962 -0.12572527
0.21282642 0.11097649 -0.1257596
0.21195048 0.13522048 -0.13713801
0.73254919 0.16041702 -0.1275847
0.18799432 0.20999163 -0.1266638
0.18711728 0.23377959 -0.13932264
0.70508307 0.25844449 -0.13932264
0.16279575 0.28362492 -0.13374472
0.13851807 0.33390135 -0.12575936
0.13806581 0.35770184 -0.13415229
0.13758132 0.38129929 -0.14314318
0.11353372 0.40760088 -0.13041234
0.11311904 0.43109038 -0.13939035
0.11297768 0.45530739 -0.14245069
0.08888334 0.48213479 -0.12824941
0.088765368 0.50638962 -0.13131416
0.088647649 0.53059834 -0.13437295
0.088735268 0.55570465 -0.13209641
0.088859737 0.58102268 -0.12886298
0.1130089 0.57863694 -0.14177501
0.11314249 0.60383999 -0.13888264
0.45821652 0.60348493 -0.1407268
0.11362101 0.63058203 -0.12852216
0.13783737 0.62860662 -0.13839138
0.4348743 0.62993449 -0.13175631
0.13836461 0.65531254 -0.12860739
0.1625461 0.65340197 -0.13779867
0.18696845 0.65263879 -0.14147067
0.33472875 0.65240347 -0.1426028
0.35997486 0.65342677 -0.13767993
0.18804158 0.68062603 -0.12598133
0.21256521 0.67994243 -0.12915242
0.23704198 0.67926395 -0.13230026
0.26208174 0.68001229 -0.12882888
0.1892219 -0.71003956 -0.10894489
0.2139377 -0.70952696 -0.11132312
0.13916616 -0.68414563 -0.11373246
0.16354854 -0.68252683 -0.12152076
0.28719112 -0.68176299 -0.1251961
0.31236285 -0.68253034 -0.12150383
0.33829087 -0.6845569 -0.11175382
0.11412324 -0.65849978 -0.1176486
0.38672245 -0.65765613 -0.12186313
0.089295328 -0.63368773 -0.1175456
0.064643651 -0.60994101 -0.11166775
0.088993639 -0.60740685 -0.12538385
0.064535603 -0.58444178 -0.11517656
0.064427793 -0.55899787 -0.1186775
0.064470053 -0.53439575 -0.1173054
0.064574763 -0.51008493 -0.1139046
0.06467016 -0.48567724 -0.11080647
0.089002833 -0.45880601 -0.12514484
0.089294672 -0.43502402 -0.11756277
0.63518304 -0.43475485 -0.1196202
0.11401239 -0.38507193 -0.12004828
0.1144926 -0.36137894 -0.10965192
0.1393034 -0.31145045 -0.11118567
0.16392973 -0.26136798 -0.11533093
0.18888068 -0.18689753 -0.11387026
0.21317905 -0.087284818 -0.12117863
0.21365432 -0.062575303 -0.11500454
0.213653 0.061685622 -0.11502171
0.21317773 0.086347565 -0.12119567
0.1888783 0.18601495 -0.11390436
0.16392548 0.26047024 -0.11539972
0.13929877 0.31058186 -0.11127162
0.11449021 0.36052489 -0.10970366
0.11401002 0.38413748 -0.12009978
0.08929269 0.43410784 -0.11761427
0.63524002 0.43386784 -0.1193459
0.089001507 0.45783368 -0.12517881
0.064669639 0.48481771 -0.11082375
0.064574242 0.50920123 -0.11392176
0.064469516 0.53348595 -0.1173228
0.064428329 0.55808359 -0.11866033
0.064535603 0.58355111 -0.11517644
0.064643651 0.60907745 -0.11166775
0.088993639 0.60643768 -0.12538385
0.089296654 0.63278586 -0.11751127
0.11412562 0.65760076 -0.1175971
0.38674259 0.65674621 -0.12170899
0.13917078 0.68328464 -0.11364651
0.16355276 0.68160218 -0.12145245
0.28719968 0.68081361 -0.12511075
0.31237391 0.68161321 -0.12140095
0.33831075 0.68372977 -0.11158156
0.18922789 0.70921618 -0.10885859
0.21394567 0.70868897 -0.11121988
0.14027306 -0.71343529 -0.09319067
0.1648075 -0.71173513 -0.10107827
0.23913658 -0.71033716 -0.10756445
0.2643941 -0.71114922 -0.10379696
0.28970879 -0.71195942 -0.10003805
0.090144321 -0.68793768 -0.095488071
0.11466558 -0.68577224 -0.10590649
0.36516729 -0.68793035 -0.095522761
0.065144524 -0.6629526 -0.095401049
0.089718044 -0.66071844 -0.10656309
0.41375685 -0.6608845 -0.10573363
0.040166695 -0.63816035 -0.094305038
0.064804018 -0.63582128 -0.10645938
0.46392885 -0.6363669 -0.10362387
0.040085193 -0.61249673 -0.097833991
0.48849696 -0.61100215 -0.10592389
0.040003467 -0.58688575 -0.10137296
0.51338398 -0.5860433 -0.10613108
0.039933104 -0.56141257 -0.10441995
0.53827697 -0.56109649 -0.10628664
0.040015075 -0.53705269 -0.10087037
0.56315482 -0.53614074 -0.10651124
0.040097628 -0.51264209 -0.097295523
0.040186796 -0.48821819 -0.093434453
0.064859897 -0.46164653 -0.10464466
0.06518364 -0.43809047 -0.094130874
0.089696109 -0.41147614 -0.10713291
0.090099499 -0.38777336 -0.096652746
0.66336185 -0.38692257 -0.10402203
0.11538091 -0.33841026 -0.090419292
0.14030498 -0.28814271 -0.092598319
0.1650736 -0.2378051 -0.096757174
0.18998085 -0.16277012 -0.097990394
0.21474637 -0.037832223 -0.10081816
0.21475038 0.037052929 -0.1007663
0.18997124 0.16200414 -0.098129272
0.16506933 0.23705097 -0.096826553
0.14030123 0.28741941 -0.092667937
0.11537609 0.33769897 -0.090523839
0.090097487 0.38701901 -0.096704841
0.66342157 0.38615188 -0.10374522
0.089694783 0.41064292 -0.1071676
0.06518203 0.43735456 -0.094183087
0.064858302 0.46082929 -0.10469651
0.040185187 0.48748407 -0.093504071
0.040097225 0.51188618 -0.097313046
0.040014673 0.53626925 -0.10088766
0.56319952 0.53535801 -0.10626936
0.039933104 0.56060481 -0.10441983
0.53832591 0.5603233 -0.10601008
0.04000387 0.58610475 -0.10135555
0.51341611 0.58525753 -0.10594094
0.040085595 0.61174303 -0.097816706
0.48853046 0.61022276 -0.10571647
0.040167097 0.63743395 -0.094287395
0.06480509 0.63500464 -0.10642469
0.46397415 0.63562417 -0.10332978
0.065146133 0.66222507 -0.095348716
0.089720041 0.65990496 -0.10651112
0.41377839 0.66009885 -0.10557818
0.090145662 0.68720603 -0.095453143
0.11466958 0.68497151 -0.10582006
0.36518872 0.68722868 -0.095348716
0.23914534 0.70952821 -0.10746098
0.14027683 0.71272939 -0.093121052
0.16481176 0.71096855 -0.10100889
0.2644037 0.71036935 -0.10369313
0.28971919 0.7112084 -0.099933982
0.14141507 -0.74318659 -0.071997762
0.16641925 -0.7425372 -0.074906468
0.19138022 -0.74189299 -0.077792287
0.21629581 -0.74124599 -0.080690622
0.24129337 -0.74093264 -0.082094073
0.26706454 -0.74254113 -0.074888945
0.090845048 -0.71686417 -0.077282429
0.11561899 -0.71514368 -0.085264683
0.31627217 -0.71515131 -0.085229516
0.040660266 -0.69262564 -0.072932601
0.065487906 -0.69027358 -0.084249258
0.39298275 -0.69239855 -0.074025512
0.01548579 -0.66747069 -0.072826743
0.040400941 -0.66520208 -0.084161878
0.015370663 -0.64085478 -0.080304265
0.015315861 -0.61507773 -0.083863974
-0.0096954778 -0.59184009 -0.073390841
0.015260905 -0.58935386 -0.087433338
0.015254717 -0.56422126 -0.087835312
0.015309658 -0.53973675 -0.084266663
0.015365258 -0.51520401 -0.080655456
0.015472759 -0.49110854 -0.07367301
0.040452745 -0.46479565 -0.081918716
0.065508947 -0.41437873 -0.083566189
0.090763882 -0.36464027 -0.07939136
0.14132005 -0.26456809 -0.073761225
0.21585616 -0.012870793 -0.08640182
0.21585888 0.012201832 -0.086366653
0.14131625 0.26399025 -0.073831677
0.090759829 0.36401299 -0.079496741
0.065507874 0.41372684 -0.083601356
0.04045153 0.46415329 -0.081971049
0.015471946 0.49052921 -0.073725939
0.015364718 0.51457345 -0.080690503
0.01530939 0.53908128 -0.084284306
0.015254449 0.56353807 -0.087852716
-0.0096953418 0.5912745 -0.073373437
0.015261177 0.58868009 -0.087415814
0.015315861 0.61442828 -0.083864093
0.015370663 0.64023256 -0.080304384
0.01548633 0.66691345 -0.072791338
0.040402155 0.66456109 -0.084109187
0.040661078 0.69206798 -0.072897434
0.065488994 0.6896286 -0.084214091
0.39300811 0.69186652 -0.073831439
0.09084776 0.71628118 -0.077211976
0.11562303 0.71450287 -0.085177183
0.31629103 0.71453029 -0.085054636
0.14142269 0.74266106 -0.071856499
0.16642791 0.74198914 -0.074765444
0.19138998 0.74132264 -0.07765162
0.21630663 0.74065334 -0.080550313
0.24130079 0.74031699 -0.082006097
0.26708081 0.74200135 -0.074712515
0.091653734 -0.74669707 -0.056272626
0.11658546 -0.74489599 -0.064340234
0.29388726 -0.74624795 -0.058284521
0.040930409 -0.72032315 -0.06123507
0.065948904 -0.71858943 -0.069278479
0.3432588 -0.7187075 -0.068730474
0.015659604 -0.69499421 -0.061536908
-0.0096034072 -0.6697517 -0.061430335
0.44521746 -0.66982996 -0.061039686
-0.0096401256 -0.64356911 -0.066200495
-0.034868058 -0.62030041 -0.055595517
-0.0096677635 -0.61767787 -0.06979084
-0.034868058 -0.59459358 -0.057839394
-0.034868058 -0.56991982 -0.054187179
-0.0096778236 -0.567056 -0.071097732
-0.0096500702 -0.54244858 -0.067492485
-0.0096219834 -0.51779222 -0.063843846
0.59736401 -0.51865637 -0.058230877
-0.0095436629 -0.49403423 -0.053669691
0.015652224 -0.46755335 -0.062016249
0.040719364 -0.44119942 -0.070373893
0.041026916 -0.41764393 -0.057056189
0.065979928 -0.39105067 -0.068270683
0.091603696 -0.34169737 -0.057572365
0.11634596 -0.3152988 -0.069525719
0.16707322 -0.2148121 -0.064286947
0.19249287 -0.13918242 -0.061732173
0.19247936 0.13869421 -0.061927438
0.1670645 0.21430326 -0.064428806
0.11634187 0.31475079 -0.069614053
0.091600269 0.34124056 -0.057661414
0.065977201 0.39051026 -0.068359017
0.04102486 0.41718903 -0.057145357
0.040718544 0.44064876 -0.07040906
0.015651405 0.46706414 -0.062069654
-0.0095440764 0.49360874 -0.053723335
-0.0096222572 0.51729107 -0.063879132
0.59757292 0.51837975 -0.057145119
-0.0096502081 0.54192203 -0.067510009
-0.034868058 0.56949544 -0.054204941
-0.0096779577 0.56650144 -0.071115375
-0.034868058 0.59414095 -0.057857156
-0.0096676275 0.61713994 -0.069773197
-0.034868058 0.61987185 -0.055577636
-0.0096399877 0.64305913 -0.066182613
-0.0096031316 0.66928226 -0.06139493
0.44527721 0.66944093 -0.060631037
0.015660152 0.69452417 -0.061501503
0.040932048 0.71986371 -0.061163902
0.065951079 0.71806806 -0.069207668
0.34327921 0.71821398 -0.068553567
0.091657147 0.74628061 -0.056183577
0.11658873 0.7444132 -0.064269185
0.29390505 0.74583638 -0.058106422
0.14338881 -0.77682871 -0.035369754
0.16867092 -0.77614182 -0.038343906
0.19390887 -0.77546048 -0.041294575
0.041420814 -0.75032985 -0.039999962
0.066599011 -0.74850702 -0.048165321
0.32098582 -0.74999666 -0.041492343
-0.0094276257 -0.72520286 -0.038596034
0.015834905 -0.72271222 -0.05015099
-0.034868058 -0.70015186 -0.036722302
-0.0095158909 -0.69737929 -0.050061822
-0.034868058 -0.67238164 -0.04829061
-0.060322911 -0.64924216 -0.036722302
-0.034868058 -0.64631039 -0.051955938
-0.060292006 -0.62304544 -0.040737271
-0.060289793 -0.59757072 -0.041024923
-0.060319446 -0.57280129 -0.037172914
-0.034868058 -0.54518831 -0.050544381
-0.034868058 -0.52065295 -0.045262694
-0.0094528273 -0.47034487 -0.041869879
0.015833251 -0.44383186 -0.050258517
0.066655815 -0.36820436 -0.046320438
0.11769806 -0.29257536 -0.040251732
0.11769058 0.29224649 -0.040413499
0.066653058 0.3678335 -0.046409965
0.015832424 0.44343361 -0.050312161
-0.0094531029 0.4700132 -0.041905642
-0.034868058 0.52028894 -0.045334339
-0.034868058 0.54479212 -0.050562382
-0.060319304 0.5725081 -0.037190914
-0.060289651 0.5972476 -0.041042924
-0.060292143 0.62273139 -0.04071939
-0.060323052 0.64895898 -0.036704421
-0.034868058 0.64590639 -0.051956058
-0.034868058 0.67200601 -0.048290491
-0.034868058 0.69987291 -0.036686301
-0.0095156133 0.6969977 -0.050026059
-0.009427486 0.72490573 -0.038577914
0.015835177 0.72232634 -0.050133228
0.041422475 0.75003451 -0.039927721
0.066601768 0.74815291 -0.048075795
0.32100329 0.74971068 -0.041330576
0.16867979 0.77587724 -0.038199902
0.19391881 0.77517283 -0.041150808
0.041917194 -0.78072321 -0.018506289
0.067268744 -0.77889669 -0.026415348
0.09268783 -0.77820611 -0.029405594
0.11806116 -0.7775169 -0.032390356
0.2197971 -0.7768662 -0.03520751
0.2459943 -0.77885902 -0.026578546
0.27233019 -0.78086632 -0.0178864
-0.0092833526 -0.75482714 -0.019854426
0.016117252 -0.75215775 -0.031811953
-0.034868058 -0.72848177 -0.023383379
0.3731325 -0.72687173 -0.03085351
-0.060441833 -0.70336264 -0.021274328
-0.060353894 -0.67550248 -0.032697678
-0.086019814 -0.65226763 -0.02100122
-0.085957408 -0.62594301 -0.025054336
-0.085957691 -0.60040146 -0.025036216
-0.086017847 -0.57551849 -0.021128535
-0.060348473 -0.54795945 -0.033402324
-0.060413852 -0.52378666 -0.024909139
-0.034868058 -0.49699858 -0.033402205
-0.034868058 -0.47317359 -0.021456003
-0.0093529746 -0.44662711 -0.028898597
0.016131453 -0.42086694 -0.03088963
0.041537333 -0.39489767 -0.034954786
0.06744498 -0.34538817 -0.020691633
0.092745706 -0.31914386 -0.027902007
0.1437102 -0.24247132 -0.029405594
0.14370434 0.24223275 -0.029514194
0.092738733 0.31890681 -0.028083324
0.067439362 0.34520531 -0.020873785
0.04153524 0.39461365 -0.035045028
0.016130339 0.42061561 -0.03096211
-0.0093536712 0.44638816 -0.028988957
-0.034868058 0.47299635 -0.02151072
-0.034868058 0.49672917 -0.033456206
-0.060413431 0.52358204 -0.024963498
-0.086077586 0.55043411 -0.017248154
-0.060348194 0.5476923 -0.033438325
-0.086017288 0.57534552 -0.021165013
-0.085957408 0.60020149 -0.025054336
-0.085957408 0.62574607 -0.025054455
-0.086019814 0.65210205 -0.02100122
-0.060354032 0.67525059 -0.032679558
-0.060442112 0.70320266 -0.021237612
0.37317035 0.72669894 -0.030545831
-0.034868058 0.728306 -0.023347139
-0.0092826523 0.75469142 -0.019763231
0.016118366 0.75192559 -0.031739593
0.041919295 0.78059858 -0.018414974
0.0672732 0.77872396 -0.02627027
0.092693403 0.77801043 -0.029260516
0.118067 0.77729368 -0.032263875
0.1433956 0.77658266 -0.035243511
0.21981794 0.77665585 -0.034936905
0.24601886 0.77871972 -0.02628839
0.27235544 0.78078997 -0.017613053
0.016477749 -0.78305781 -0.0083971024
-0.034868058 -0.75825787 -0.0044869184
-0.060545482 -0.73183858 -0.0078099966
-0.086255684 -0.70660365 -0.0056809187
-0.11205652 -0.68183756 -0.0010462999
-0.086082086 -0.67865306 -0.016956449
-0.1119618 -0.65531856 -0.0051481724
-0.11186729 -0.62886465 -0.0092401505
-0.11187534 -0.60325986 -0.0088919401
-0.11196646 -0.57825911 -0.0049461126
-0.11205781 -0.55319905 -0.00099098682
-0.086077869 -0.55057383 -0.017230034
-0.086224318 -0.52643323 -0.0077184439
-0.060506284 -0.4999972 -0.012901664
-0.06059939 -0.47603482 -0.00080704689
-0.034868058 -0.44989407 -0.0039353371
-0.0091760829 -0.42394239 -0.0059196949
0.016483963 -0.39801094 -0.0079935789
0.042054649 -0.37184337 -0.012554169
0.042052541 0.37173218 -0.012645483
0.016482551 0.39793417 -0.0080852509
-0.0091767907 0.42388073 -0.0060116053
-0.034868058 0.44984689 -0.0040271282
-0.060598962 0.47601646 -0.00086200237
-0.060505863 0.49988535 -0.012956381
-0.086223185 0.52635807 -0.0077917576
-0.11205696 0.55318123 -0.0010278225
-0.11196604 0.57821375 -0.0049645901
-0.11187491 0.60318404 -0.0089104176
-0.11186773 0.62879312 -0.0092217922
-0.11196221 0.65527874 -0.0051298141
-0.11205652 0.68182552 -0.0010461807
-0.086082369 0.67852247 -0.016937971
-0.086256251 0.70656401 -0.0056442022
-0.060545765 0.73178267 -0.0077735186
-0.034868058 0.75824487 -0.0043764114
0.016479164 0.7830112 -0.008305192
0.042743366 -0.81485546 0.017268062
0.068427846 -0.81341398 0.011227608
0.094134092 -0.81268412 0.0081692934
0.11979352 -0.81195563 0.0051164627
0.14594576 -0.81361777 0.012081385
-0.0090758931 -0.78663564 0.0070954561
-0.060690604 -0.76172453 0.011042118
0.35277885 -0.76232135 0.013715506
-0.086464927 -0.73522687 0.007909894
-0.112313 -0.70987517 0.010059237
-0.13828006 -0.68504876 0.014998078
-0.13815252 -0.65839875 0.010856748
-0.13802533 -0.6318143 0.0067254305
-0.13804641 -0.60614622 0.0074101686
-0.13816909 -0.58102649 0.011394739
-0.13829209 -0.55584681 0.015388608
-0.11228989 -0.52901626 0.0090583563
-0.086411104 -0.50252974 0.0044140816
-0.086601272 -0.47846958 0.016765475
-0.0089972969 -0.40093225 0.017305493
0.094531626 -0.29755008 0.018497467
0.11984476 -0.27072552 0.0062259436
0.11983536 0.27075216 0.0060224533
0.094523743 0.29766941 0.018292665
-0.008998014 0.40104991 0.017212272
-0.086599842 0.47858116 0.016672492
-0.086410254 0.50255126 0.0043586493
-0.11228818 0.52907008 0.0089843273
-0.13829093 0.55595505 0.015351415
-0.13816853 0.5811069 0.011376262
-0.13804583 0.60619599 0.007391572
-0.13802589 0.6318658 0.0067439079
-0.13815311 0.65848219 0.010875344
-0.13828006 0.68516016 0.014998317
-0.11231385 0.70995665 0.01009655
-0.086465783 0.73529631 0.0079656839
-0.060691461 0.76183122 0.01115346
0.35281745 0.76250035 0.014050126
-0.0090751816 0.78670853 0.0071880817
0.042747665 0.81503022 0.017454505
0.068431839 0.81352854 0.011357665
0.094139084 0.8127749 0.0082988739
0.11980034 0.81202739 0.0052642822
0.14596076 0.81377518 0.012359738
0.017111924 -0.81856048 0.03279388
0.17231956 -0.81572288 0.020902991
0.19883633 -0.81785268 0.029827476
-0.034868058 -0.7902469 0.022732735
-0.086754471 -0.76522374 0.026716232
-0.11262985 -0.7386474 0.023779035
-0.13861725 -0.7131778 0.025948763
-0.16475657 -0.68829089 0.03119719
-0.16459635 -0.6615122 0.027034521
-0.16443579 -0.6347959 0.022863507
-0.16447535 -0.60906434 0.023891211
-0.16463023 -0.58382428 0.027915001
-0.16478547 -0.55852395 0.031948447
-0.13861839 -0.53162247 0.025986195
-0.11257248 -0.50499874 0.021294951
-0.1128758 -0.48091722 0.03442955
-0.060769245 -0.45319089 0.02125752
-0.034868058 -0.42706007 0.019392252
0.016982052 -0.37582159 0.024358749
0.043114502 -0.35079527 0.033339024
0.068879396 -0.32411316 0.025892615
0.068873644 0.32428977 0.025705338
0.043110158 0.35102758 0.033150911
0.016979463 0.37598574 0.024190426
-0.034868058 0.42719549 0.019317746
-0.060768668 0.45334014 0.021182895
-0.11287364 0.48116457 0.034335732
-0.11257118 0.50515002 0.021238804
-0.13861667 0.53180951 0.025930166
-0.16478403 0.55875969 0.031911016
-0.16462879 0.58402872 0.027877569
-0.16447464 0.60924071 0.023872614
-0.16443652 0.63497144 0.022882223
-0.16459635 0.6617164 0.027034521
-0.16475657 0.68852705 0.031197429
-0.13861839 0.71338159 0.025986195
-0.11263114 0.73883897 0.023835063
-0.0867562 0.76545137 0.026828766
-0.034868058 0.79044473 0.022844911
0.17233682 0.81594872 0.021183014
0.19885711 0.81815225 0.030127764
0.017115109 0.81886005 0.033000588
-0.0087572932 -0.82230437 0.048482656
-0.087181441 -0.79757148 0.054448962
-0.0609021 -0.79389203 0.038516402
0.30449784 -0.79602277 0.047743082
-0.11306305 -0.76875567 0.042537451
-0.13904372 -0.74210048 0.039799094
-0.16517195 -0.71651185 0.041989446
-0.19149849 -0.69160259 0.047743201
-0.19129908 -0.66466671 0.043425918
-0.19110106 -0.63780278 0.039138675
-0.19116382 -0.61200458 0.040497422
-0.19134802 -0.58663064 0.04448545
-0.19153176 -0.5611937 0.048463821
-0.16521487 -0.53425801 0.043104649
-0.13899958 -0.50749558 0.038365602
-0.13942865 -0.48339343 0.0522995
-0.086943403 -0.45551118 0.038987875
-0.060940769 -0.43003416 0.043539405
-0.034868058 -0.40457818 0.048880935
0.17367868 -0.1953492 0.042972207
0.17362629 0.19562367 0.042121768
-0.034868058 0.40493193 0.0487293
-0.060940333 0.43035787 0.04348278
-0.08694195 0.4557943 0.038893461
-0.13942513 0.48377526 0.052185297
-0.13899727 0.50777525 0.038290024
-0.16521269 0.53457677 0.043047905
-0.19153002 0.56155646 0.048425794
-0.19134626 0.58696222 0.044447541
-0.19116294 0.61230868 0.040478349
-0.19110194 0.6381039 0.039157629
-0.19129908 0.66499692 0.043426156
-0.19149849 0.69196612 0.047743201
-0.1651734 0.71683931 0.042027116
-0.13904546 0.74241561 0.039855599
-0.11306567 0.76910537 0.042650819
-0.087183192 0.79801387 0.054562926
-0.060902972 0.79421163 0.038629532
0.3046326 0.79670775 0.04908967
-0.0087556876 0.82272506 0.048691392
0.096507072 -0.85367167 0.069821358
-0.034868058 -0.82608342 0.064317942
-0.11371 -0.80129021 0.070551276
-0.13961981 -0.77232087 0.058508039
-0.16571015 -0.74558651 0.055972219
-0.19205211 -0.72019905 0.059729457
-0.21856895 -0.69518834 0.065658689
-0.21833386 -0.66810578 0.061295748
-0.21809936 -0.64109236 0.056944132
-0.2451831 -0.61752653 0.071685553
-0.21804905 -0.61475116 0.056010246
-0.21826592 -0.58926404 0.060034871
-0.21848227 -0.56371343 0.064049959
-0.21894863 -0.53881526 0.072704673
-0.19202125 -0.53671473 0.059061408
-0.19256526 -0.5122453 0.070839524
-0.16569549 -0.51001501 0.055591226
-0.16626318 -0.4858931 0.070339918
-0.11339444 -0.45785362 0.056887031
-0.087290093 -0.43224704 0.061505914
-0.0086832047 -0.3794587 0.058107138
0.01764477 -0.35420424 0.067403197
0.017642107 0.35470039 0.067230344
-0.00868438 0.37988442 0.057954788
-0.087288916 0.43270653 0.06142962
-0.11339223 0.45827436 0.056791544
-0.16625947 0.48641658 0.070243835
-0.16569328 0.51043004 0.055534124
-0.19256172 0.51277477 0.070762753
-0.21894553 0.53936166 0.072647095
-0.19201861 0.53715628 0.059004068
-0.21848123 0.56419927 0.064030766
-0.21826386 0.5897153 0.059996843
-0.2451819 0.61807072 0.071666121
-0.21804905 0.61517835 0.056010246
-0.21810038 0.64153028 0.056963086
-0.21833386 0.66857368 0.061295867
-0.21856895 0.69568992 0.065658808
-0.19205387 0.72066307 0.059767723
-0.16571236 0.74602628 0.05602932
-0.13962393 0.77279824 0.058641553
-0.11371267 0.80185682 0.07066679
-0.034868058 0.8266263 0.064528465
0.096518174 0.85427845 0.070109367
0.070701361 -0.85742623 0.085062265
0.12320372 -0.85592031 0.07894969
-0.061223768 -0.8298977 0.080301762
-0.14049061 -0.80503982 0.086787581
-0.16642828 -0.77592003 0.074629664
-0.19276078 -0.74970347 0.075072765
-0.21939342 -0.72461146 0.080958962
-0.24611911 -0.69943672 0.086884856
-0.24565542 -0.67158139 0.07935524
-0.24538457 -0.64442027 0.074957132
-0.27265057 -0.62053722 0.088689923
-0.24543205 -0.59192175 0.07572794
-0.24568279 -0.56625938 0.079799414
-0.24609284 -0.54093271 0.086457968
-0.21958843 -0.51425451 0.084577799
-0.19313094 -0.48765936 0.083086729
-0.14012691 -0.46022093 0.074976444
-0.11392 -0.4344812 0.079644918
-0.061185442 -0.40763152 0.075323343
-0.061184403 0.40819076 0.075188398
-0.11391822 0.43508026 0.079567552
-0.14012395 0.46078059 0.074880242
-0.19312647 0.4882808 0.082989931
-0.21958426 0.51488984 0.084500432
-0.24608928 0.54158485 0.086399913
-0.24568041 0.56686324 0.07976079
-0.24543084 0.59249729 0.075708866
-0.27265191 0.62121952 0.088709354
-0.24538457 0.64499331 0.074957252
-0.24565542 0.67218822 0.079355121
-0.24612153 0.70010972 0.086923718
-0.21939655 0.72524315 0.081016898
-0.19276434 0.75029469 0.075149775
-0.16643347 0.77652168 0.074764729
-0.14049418 0.80573171 0.086904168
-0.061225399 0.8305642 0.080514312
0.070719257 0.85822451 0.085643649
0.12321711 0.85659772 0.079239249
0.044679943 -0.86138272 0.10112453
-0.087827876 -0.83374804 0.096436262
-0.16769396 -0.80982608 0.10751295
-0.19393696 -0.78170371 0.10053766
-0.22023162 -0.75432503 0.096514463
-0.24707921 -0.7290833 0.10247457
-0.27402133 -0.703758 0.10847521
-0.27326837 -0.67509383 0.097607136
-0.27295905 -0.64778018 0.093142629
-0.30048358 -0.62378651 0.10704184
-0.30052286 -0.59731132 0.10755205
-0.27284986 -0.59460407 0.091566324
-0.27313456 -0.5688259 0.095675468
-0.27345648 -0.54306728 0.1003226
-0.24682994 -0.51628029 0.098427176
-0.22023271 -0.48952276 0.096533656
-0.19407707 -0.46396297 0.10357118
-0.16708915 -0.46242243 0.091799736
-0.14083518 -0.43673921 0.097977996
-0.087802365 -0.40987799 0.094778895
-0.034868058 -0.38316742 0.09251976
0.044754092 -0.33135945 0.10433543
0.044745039 0.33211941 0.10394335
-0.034868058 0.38385528 0.092344642
-0.087799966 0.41058454 0.09462297
-0.14083277 0.43747917 0.097899914
-0.19407345 0.46474531 0.10349286
-0.16708541 0.46311164 0.09170258
-0.22022954 0.49025324 0.096475244
-0.24682514 0.51702189 0.098349094
-0.27345109 0.54382282 0.1002444
-0.27313185 0.56955183 0.095636725
-0.30052134 0.59813178 0.10753262
-0.27284852 0.59530145 0.091547012
-0.30048358 0.62460637 0.10704184
-0.27296039 0.64849687 0.093162179
-0.27326837 0.67584139 0.097607136
-0.27402407 0.70459718 0.10851443
-0.24708284 0.72988093 0.10253346
-0.2202348 0.75507712 0.096572757
-0.19394328 0.78250539 0.10067451
-0.16769925 0.81068248 0.1076504
-0.087831184 0.83453929 0.096650958
0.044693496 0.86230636 0.10171127
0.018413868 -0.86538154 0.11735737
-0.11468393 -0.8376348 0.11272347
-0.24821363 -0.75958025 0.1208955
-0.27511507 -0.73361182 0.12426221
-0.30117586 -0.67864037 0.1160351
-0.30083004 -0.65117961 0.11154234
-0.32861418 -0.62706715 0.12557125
-0.32845464 -0.60004401 0.12368739
-0.30084214 -0.57141632 0.1116997
-0.30116373 -0.54546201 0.11587715
-0.30197871 -0.52038097 0.12646401
-0.27429247 -0.51832229 0.11238861
-0.27513433 -0.49340329 0.12453973
-0.24757221 -0.49145505 0.11047995
-0.24861161 -0.46707582 0.12735748
-0.22125058 -0.46551403 0.11542344
-0.1950355 -0.4399839 0.1243217
-0.16788162 -0.4385142 0.11238873
-0.11472397 -0.41215035 0.11445725
-0.061477441 -0.38540214 0.11325526
-0.0081980322 -0.35958117 0.12113273
-0.0082010794 0.36046696 0.12073708
-0.061476231 0.38625181 0.11309779
-0.11472033 0.41300789 0.11429965
-0.19503091 0.44092384 0.12422252
-0.1678786 0.43936503 0.11230993
-0.24860671 0.46804121 0.12727821
-0.22124633 0.46638766 0.11534452
-0.24756858 0.49229303 0.11042106
-0.27513018 0.49434945 0.12448037
-0.30197415 0.52134138 0.12640452
-0.27428702 0.51917142 0.11231017
-0.30116069 0.5463438 0.11583769
-0.30084065 0.57226908 0.11168015
-0.32845297 0.60098869 0.1236676
-0.32861584 0.62803346 0.12559116
-0.30083004 0.65203416 0.11154234
-0.30117586 0.67952967 0.11603498
-0.27511922 0.73457718 0.12432194
-0.24822216 0.76053792 0.12103403
-0.11468938 0.83855671 0.11295974
0.018422987 0.86643147 0.11794996
-0.0081011038 -0.86941332 0.13372421
-0.14190643 -0.84241807 0.1327678
-0.19553886 -0.81622481 0.13521993
-0.22192256 -0.7878108 0.12789381
-0.30227703 -0.70813406 0.13033903
-0.32953259 -0.68256289 0.13641727
-0.32899937 -0.65461183 0.13012016
-0.35675424 -0.6029954 0.14111483
-0.35689113 -0.57641113 0.14259696
-0.32878056 -0.57397652 0.12753642
-0.32910383 -0.54784495 0.13135397
-0.32960868 -0.52196819 0.13731575
-0.30280638 -0.49515989 0.13721597
-0.27616209 -0.4686484 0.13937426
-0.22237648 -0.44146141 0.13631737
-0.16900039 -0.41526777 0.14145529
-0.14188434 -0.41418183 0.13205075
-0.088393062 -0.38754582 0.13314629
-0.088390917 0.3885507 0.13300693
-0.16899423 0.4163329 0.14129508
-0.14188066 0.41517973 0.13193119
-0.22237109 0.44249356 0.13621759
-0.27615654 0.46970624 0.13929451
-0.30280179 0.49620315 0.13715613
-0.32960361 0.52301198 0.13725591
-0.32910216 0.54884887 0.13133383
-0.35688928 0.5775016 0.14257693
-0.32877889 0.57495099 0.12751651
-0.35675609 0.60408139 0.14113498
-0.32900107 0.65561324 0.13014007
-0.32953596 0.683617 0.13645709
-0.30228007 0.70914167 0.13037884
-0.22193007 0.78882349 0.12803292
-0.1955536 0.81733793 0.13553917
-0.14191625 0.84351468 0.13308668
-0.0080965012 0.87059069 0.1343224
-0.034868058 -0.87348324 0.15024662
-0.25035509 -0.79401118 0.15566802
-0.27679968 -0.76554692 0.14857721
-0.30350778 -0.73819798 0.14632738
-0.33089119 -0.71256185 0.15246141
-0.35867763 -0.68747413 0.16193652
-0.35756618 -0.65826702 0.14990473
-0.35715967 -0.6305964 0.14550424
-0.38562125 -0.606453 0.16153145
-0.38524869 -0.5788703 0.1578089
-0.38563746 -0.55251586 0.16169322
-0.35724872 -0.55017179 0.14646769
-0.35760522 -0.52387124 0.15032721
-0.35841215 -0.49818701 0.15906239
-0.33052143 -0.49666715 0.14809489
-0.33144158 -0.47121155 0.15896118
-0.30363613 -0.46977651 0.1479944
-0.27741405 -0.44406372 0.15744519
-0.24990724 -0.44294915 0.14839637
-0.22367515 -0.41745734 0.16041768
-0.1962636 -0.41635966 0.15091097
-0.11563981 -0.38980553 0.15411437
-0.034868058 -0.36295432 0.15484059
-0.034868058 0.36411402 0.15457833
-0.11563329 0.39095548 0.1538322
-0.22366752 0.41867077 0.16027617
-0.19625616 0.41749749 0.1507498
-0.27740845 0.44526112 0.15736437
-0.24990231 0.44407693 0.14831614
-0.33143815 0.47242573 0.15892065
-0.30363303 0.47090605 0.14795411
-0.35840839 0.49940148 0.15902197
-0.33051804 0.49779728 0.14805484
-0.35760337 0.52502137 0.15030694
-0.38563541 0.55375338 0.16167307
-0.357245 0.55128896 0.14642763
-0.38524669 0.58007771 0.15778875
-0.38562325 0.60769612 0.16155171
-0.35716155 0.63171607 0.14552438
-0.35756618 0.65941697 0.14990485
-0.35868326 0.68872893 0.16199732
-0.33089632 0.7137441 0.15252197
-0.30351087 0.7393291 0.14636731
-0.27680942 0.76671809 0.14871812
-0.25036377 0.7952382 0.15580928
-0.034868058 0.87478948 0.15085042
-0.061890136 -0.87757719 0.16686583
-0.17030765 -0.85259628 0.17541862
-0.22461998 -0.82609326 0.17795169
-0.30584469 -0.77160531 0.17668486
-0.33233815 -0.74302477 0.16954947
-0.36020616 -0.71776998 0.17848325
-0.38684559 -0.66267544 0.17376602
-0.38606563 -0.63422036 0.16597247
-0.41434327 -0.5820834 0.17768586
-0.4142772 -0.55488384 0.177073
-0.41470045 -0.52835751 0.18100035
-0.38602909 -0.52610612 0.16560686
-0.3864786 -0.49971619 0.17009878
-0.38757983 -0.47410926 0.18110275
-0.35942224 -0.47265586 0.16999698
-0.3604368 -0.44696245 0.18097985
-0.33247259 -0.44575021 0.17113709
-0.30488881 -0.44490403 0.16426766
-0.27865791 -0.41918719 0.17539811
-0.25114605 -0.418392 0.16851211
-0.17025346 -0.39194986 0.17401087
-0.14288136 -0.3909173 0.1644299
-0.061975002 -0.36526108 0.1778903
-0.061972957 0.3665978 0.17762482
-0.17024718 0.3932665 0.17384756
-0.14287761 0.39216495 0.16430807
-0.27865225 0.42052323 0.17531657
-0.25114104 0.41967523 0.16843092
-0.36043301 0.4483462 0.18093896
-0.33246571 0.44705275 0.17105567
-0.30488414 0.44615656 0.16420674
-0.35941848 0.47395477 0.16995645
-0.38757369 0.47549081 0.18104136
-0.38647455 0.50101566 0.17005813
-0.38602501 0.52737069 0.16556633
-0.41469824 0.52974373 0.18097985
-0.41427499 0.55623955 0.1770525
-0.41434544 0.58345091 0.17770636
-0.38606563 0.63549405 0.16597235
-0.38684967 0.66401696 0.17380667
-0.36021185 0.71915287 0.17854476
-0.3323485 0.74435222 0.16967154
-0.30585572 0.77299345 0.17682767
-0.22463539 0.82752758 0.17823792
-0.17032021 0.8540231 0.17574525
-0.061894983 0.87901783 0.16749573
-0.089170843 -0.88171542 0.18366444
-0.27924764 -0.80031615 0.18391073
-0.38851273 -0.69295657 0.19042492
-0.41531053 -0.63788342 0.18666136
-0.41482851 -0.60995144 0.18218839
-0.443856 -0.58545399 0.19853461
-0.44333369 -0.5574916 0.19401085
-0.44362688 -0.53063196 0.19655013
-0.41512686 -0.50177503 0.18495703
-0.41591373 -0.47556913 0.19225824
-0.38868383 -0.44833633 0.1921345
-0.36184078 -0.4215866 0.19617832
-0.33400479 -0.42078447 0.18923128
-0.30627626 -0.41998306 0.18229079
-0.28013337 -0.39439464 0.19669485
-0.25275069 -0.39416546 0.19456792
-0.22539756 -0.39392978 0.19238186
-0.19777453 -0.39298591 0.18362343
-0.28012621 0.39589274 0.19659162
-0.25274307 0.39564496 0.19444418
-0.22539201 0.39539483 0.19227886
-0.19776694 0.39437646 0.1834594
-0.36183503 0.42308524 0.19611633
-0.33399779 0.42222714 0.18914902
-0.30626994 0.42137221 0.18220901
-0.38867968 0.44980597 0.19209349
-0.41590929 0.47703931 0.19221699
-0.41512465 0.50319183 0.18493652
-0.4436245 0.53213781 0.19652951
-0.44333604 0.55898434 0.19403148
-0.44385841 0.58698177 0.19855511
-0.41482851 0.61134988 0.18218839
-0.4153128 0.63932014 0.18668187
-0.38851684 0.69442683 0.19046628
-0.2792576 0.80176091 0.18405426
-0.089180633 0.88328677 0.18430066
-0.33537161 -0.77778894 0.20537305
-0.36302996 -0.75123501 0.20905161
-0.39074361 -0.72462177 0.21271718
-0.41700965 -0.66797066 0.20242703
-0.44570079 -0.64281434 0.21451104
-0.44437969 -0.61348784 0.20306981
-0.47318995 -0.56077307 0.21532524
-0.47271472 -0.53281367 0.21146667
-0.47313339 -0.50591922 0.2148658
-0.44405672 -0.50389713 0.2002728
-0.44444436 -0.47705722 0.20362961
-0.4452098 -0.45056859 0.21025872
-0.41693595 -0.44951981 0.20174325
-0.41791877 -0.4232823 0.21086264
-0.38970554 -0.42229861 0.20234406
-0.39109236 -0.39649695 0.21620214
-0.36341864 -0.3961798 0.21325922
-0.33555105 -0.39555815 0.20749187
-0.30767643 -0.39480248 0.20047975
-0.14439005 -0.36881727 0.21342611
-0.11688307 -0.36826912 0.20794928
-0.089441851 -0.36760047 0.20126677
-0.14438362 0.37043366 0.2132175
-0.11687827 0.36984363 0.2077415
-0.08943738 0.3691144 0.20097673
-0.39108819 0.39815235 0.21616042
-0.36341286 0.39781016 0.21319675
-0.33554399 0.39714178 0.20740879
-0.30767006 0.39633229 0.20039678
-0.4179143 0.4248963 0.21082091
-0.3897014 0.42384702 0.20230281
-0.445205 0.45217776 0.21021736
-0.41693151 0.45106328 0.20170188
-0.44444197 0.47861791 0.20360911
-0.47313082 0.50756621 0.21484506
-0.44405431 0.50543189 0.20025194
-0.47271472 0.53443754 0.21146679
-0.47319248 0.56242996 0.21534586
-0.44438207 0.61505085 0.20309055
-0.44570807 0.64447314 0.2145735
-0.41701412 0.66953301 0.20246851
-0.39075822 0.72628564 0.21286321
-0.3630434 0.75287163 0.2091974
-0.33538392 0.7793985 0.20551825
-0.25442314 -0.83620238 0.22172558
-0.30950725 -0.80932438 0.22426283
-0.41883448 -0.69852507 0.21935928
-0.44766936 -0.67335284 0.23155892
-0.47458822 -0.61748582 0.22667754
-0.47372031 -0.58886427 0.21963131
-0.50302958 -0.5361101 0.23400486
-0.5025028 -0.50801349 0.22997975
-0.50289714 -0.48089978 0.23299229
-0.47355026 -0.47897062 0.21825051
-0.47396797 -0.45197064 0.22164166
-0.47475389 -0.42526376 0.22802293
-0.4462679 -0.42427066 0.2194221
-0.44732904 -0.39783439 0.22861183
-0.41890442 -0.39690709 0.22000813
-0.42039466 -0.37085974 0.23383617
-0.3925575 -0.3705602 0.23084295
-0.3647669 -0.37026113 0.22785473
-0.33712763 -0.3700867 0.22611034
-0.3096123 -0.37003827 0.2256273
-0.28198811 -0.36982197 0.22346556
-0.25439605 -0.36960372 0.22128546
-0.22683662 -0.36938381 0.21908736
-0.19958861 -0.36976528 0.22289944
-0.17198363 -0.36937127 0.21896183
-0.42039013 0.37265128 0.23379397
-0.3925533 0.37232861 0.23080075
-0.36476302 0.37200662 0.22781265
-0.3371205 0.37181413 0.2260263
-0.30960423 0.37175977 0.2255224
-0.28198084 0.37152681 0.22336078
-0.25438958 0.37129188 0.2211808
-0.22683097 0.3710551 0.21898282
-0.19958182 0.37146136 0.22275269
-0.17197557 0.37103021 0.21875262
-0.4473266 0.39958778 0.22859073
-0.41890216 0.39859435 0.21998727
-0.47474873 0.42701003 0.22798085
-0.44626305 0.42595056 0.21938038
-0.47396538 0.45367011 0.2216208
-0.50289714 0.48268947 0.23299241
-0.4735477 0.48064366 0.21822977
-0.50250554 0.50978291 0.23000073
-0.50303233 0.53791076 0.23402607
-0.4737229 0.59055471 0.2196523
-0.47459596 0.61923814 0.2267406
-0.44767666 0.67514354 0.23162234
-0.41883898 0.70021814 0.21940124
-0.30953151 0.81111962 0.22457755
-0.25444251 0.83798045 0.22203994
-0.47670239 -0.64800751 0.24384284
-0.5042671 -0.59271657 0.24346089
-0.50356311 -0.5642767 0.23808157
-0.53318715 -0.51118982 0.25290322
-0.53262347 -0.48297322 0.24883533
-0.53296858 -0.4556269 0.25132608
-0.5033446 -0.45378986 0.23641181
-0.50379288 -0.42662799 0.23983765
-0.50459206 -0.39970234 0.24594438
-0.47589126 -0.39876607 0.237257
-0.4770371 -0.37213317 0.24656057
-0.44839811 -0.37126347 0.23787022
-0.44998631 -0.34496531 0.25162423
-0.42198592 -0.34468615 0.24860132
-0.39403266 -0.34440723 0.24558318
-0.3662301 -0.34423286 0.24369431
-0.3388809 -0.34452114 0.24681532
-0.31148076 -0.34480602 0.24989927
-0.28387111 -0.34487492 0.25064456
-0.25634322 -0.34508353 0.25290322
-0.44998384 0.34689611 0.25160301
-0.42198366 0.34659368 0.2485801
-0.3940284 0.34628955 0.24554086
-0.36622226 0.34609616 0.24360955
-0.33887368 0.34640861 0.24673033
-0.3114742 0.34671715 0.24981415
-0.28386372 0.34678957 0.25053799
-0.2563327 0.3470093 0.25273263
-0.47703451 0.37402496 0.24653912
-0.44839811 0.37309065 0.23787034
-0.50458652 0.40158665 0.24590194
-0.47588867 0.40058598 0.2372359
-0.50379014 0.42846769 0.23981655
-0.5033446 0.45560575 0.23641181
-0.5329656 0.45755467 0.25130463
-0.53262645 0.48488751 0.24885666
-0.53318715 0.51313269 0.25290334
-0.50356585 0.56610888 0.23810279
-0.50427544 0.59459758 0.24352467
-0.47671023 0.64989251 0.24390626
-0.3949146 -0.76065969 0.25439632
-0.42301801 -0.73372066 0.2581774
-0.45117557 -0.70671654 0.26192367
-0.47938651 -0.67964846 0.26563489
-0.50638616 -0.62307078 0.25965369
-0.53465986 -0.56819499 0.26353168
-0.533755 -0.53947371 0.25700188
-0.56306684 -0.45766968 0.26791239
-0.56332481 -0.4300735 0.26967633
-0.53344429 -0.42835099 0.25475919
-0.53390908 -0.40101385 0.2581135
-0.53437471 -0.37362558 0.26147377
-0.5057568 -0.37296212 0.25484455
-0.53533542 -0.34651572 0.26840699
-0.50666082 -0.34590095 0.26175225
-0.47809163 -0.34528846 0.25512218
-0.22891192 -0.34551743 0.25760031
-0.20140888 -0.34595239 0.26230943
-0.1738636 -0.34646016 0.26780498
-0.50756824 -0.3187356 0.26868665
-0.47921464 -0.31835908 0.26423955
-0.45143309 -0.31835186 0.26415372
-0.42359039 -0.31829539 0.26348865
-0.39562288 -0.31812489 0.26147366
-0.36816368 -0.31839183 0.26462591
-0.34065461 -0.31865731 0.26776195
-0.31309599 -0.31892151 0.27088213
-0.50756824 0.32079989 0.26868677
-0.47921199 0.32038713 0.26421821
-0.45143059 0.32037929 0.2641325
-0.42358577 0.3203159 0.26344597
-0.3956143 0.32012573 0.26138806
-0.36815575 0.3204169 0.26454008
-0.34064734 0.32070658 0.26767588
-0.31308937 0.3209947 0.27079594
-0.53533244 0.34857562 0.26838541
-0.50665802 0.34790993 0.26173091
-0.47809163 0.34724841 0.25512218
-0.22890384 0.34748134 0.25745046
-0.20140195 0.34795269 0.26215959
-0.17385367 0.3484917 0.26754701
-0.53437173 0.37563217 0.26145232
-0.50575399 0.37491769 0.25482333
-0.5339061 0.4029943 0.25809193
-0.56332165 0.43214276 0.26965499
-0.53344429 0.43030819 0.25475919
-0.56306684 0.459728 0.26791239
-0.533755 0.54144812 0.25700188
-0.53466582 0.57022661 0.26357448
-0.50639457 0.62507689 0.25971806
-0.47940764 0.68172234 0.26580667
-0.45119289 0.70875895 0.26207387
-0.42303413 0.73573536 0.25832725
-0.39492953 0.76264638 0.25454569
-0.36928558 -0.79317832 0.27677107
-0.50852442 -0.65370005 0.27599335
-0.53692883 -0.59860843 0.27990651
-0.56539154 -0.54339421 0.28380644
-0.56426769 -0.5144071 0.27612257
-0.56366497 -0.48600486 0.27200234
-0.59403938 -0.43224931 0.28851962
-0.5937416 -0.40408227 0.28658485
-0.56370914 -0.40254316 0.27230382
-0.59414995 -0.37640399 0.28923738
-0.56409401 -0.37497273 0.27493525
-0.56447941 -0.34736216 0.27757025
-0.1465078 -0.34778997 0.28220212
-0.11869858 -0.34819284 0.28656328
-0.56514102 -0.31987098 0.28209376
-0.5363028 -0.3193031 0.2753886
-0.28595394 -0.3197535 0.28070748
-0.5661667 -0.29250166 0.28910661
-0.53727096 -0.29198357 0.28237557
-0.50848204 -0.29146731 0.27566922
-0.48054528 -0.29141909 0.27504337
-0.4526805 -0.29141238 0.27495694
-0.42481703 -0.29140583 0.27487051
-0.39758667 -0.29188514 0.28109729
-0.37011793 -0.29224578 0.2857815
-0.34244913 -0.29248998 0.2889545
-0.53824282 -0.26455823 0.28938949
-0.50983095 -0.26432171 0.28597701
-0.48188394 -0.26431736 0.28591168
-0.45393544 -0.26431122 0.28582478
-0.42637005 -0.26455063 0.28928065
-0.53823984 0.26678026 0.28936779
-0.50982815 0.26651746 0.28595519
-0.48187861 0.2665109 0.28586817
-0.45393044 0.26650417 0.2857815
-0.42636302 0.2667684 0.28921568
-0.53726792 0.29415137 0.28235388
-0.50847924 0.29358351 0.27564788
-0.48053998 0.29352862 0.2750001
-0.45267552 0.2935214 0.27491367
-0.42481241 0.29351401 0.27482724
-0.39758015 0.29403934 0.28103244
-0.37010992 0.29443431 0.28569448
-0.56616354 0.29472122 0.28908479
-0.34244177 0.2947028 0.28886735
-0.56513786 0.32203642 0.28207219
-0.53629982 0.321417 0.27536702
-0.28594643 0.32190049 0.28059924
-0.56447941 0.34949487 0.27757049
-0.14649646 0.34992149 0.28183365
-0.11869106 0.3503623 0.28623748
-0.59414995 0.37862653 0.28923738
-0.56409085 0.37708282 0.27491391
-0.5937416 0.40628421 0.28658485
-0.56370598 0.40463293 0.27228248
-0.59403938 0.43446627 0.28851962
-0.56366497 0.48809472 0.2720021
-0.56426769 0.51652873 0.27612281
-0.56539786 0.54558176 0.28384984
-0.53693783 0.60077012 0.27997136
-0.50853288 0.65583253 0.2760582
-0.3693375 0.79543048 0.27733278
-0.53946072 -0.6295951 0.29817867
-0.56781685 -0.57386941 0.30038822
-0.59647059 -0.51831305 0.30431044
-0.59510946 -0.48907599 0.29546976
-0.59453875 -0.46060726 0.29176259
-0.62496591 -0.37816945 0.30687892
-0.62488073 -0.35002089 0.30635178
-0.59455884 -0.34868526 0.29189312
-0.090822384 -0.34859669 0.2909348
-0.59497172 -0.32092777 0.29457498
-0.25874168 -0.32069704 0.29184961
-0.23107852 -0.32120144 0.29780698
-0.59538525 -0.29312941 0.29726088
-0.3152495 -0.29325223 0.29885662
-0.59609938 -0.26542485 0.30189919
-0.56719959 -0.26502785 0.29616857
-0.39908618 -0.2650218 0.2960813
-0.37169793 -0.26549324 0.30288529
-0.59676456 -0.23762935 0.30621994
-0.56788725 -0.23729992 0.30086982
-0.53910053 -0.23697405 0.29557896
-0.51126474 -0.23705749 0.29693317
-0.48323065 -0.23705205 0.29684567
-0.4552837 -0.23709245 0.29750121
-0.42799222 -0.23751314 0.30433261
-0.5685221 -0.20948018 0.30521011
-0.5400157 -0.20931707 0.3021841
-0.51219577 -0.20941752 0.30404723
-0.48434472 -0.20951681 0.30589068
-0.56851888 0.21182431 0.3051883
-0.54001266 0.21163785 0.30216217
-0.5121929 0.21175262 0.30402529
-0.48434201 0.21186617 0.30586863
-0.59676456 0.23998262 0.30622017
-0.56788409 0.23961051 0.30084801
-0.53909743 0.23924388 0.29555726
-0.51125902 0.23933624 0.29688942
-0.48322529 0.23933019 0.29680216
-0.45527864 0.23937561 0.29745746
-0.42798513 0.23984735 0.30426669
-0.59609604 0.26774326 0.30187726
-0.56719321 0.26730031 0.29612505
-0.39907962 0.26729199 0.29601574
-0.37169185 0.26781571 0.30281961
-0.59538186 0.29541183 0.29723895
-0.3152411 0.29553947 0.29874742
-0.59497172 0.32319152 0.29457498
-0.25873497 0.32292962 0.29174078
-0.23106909 0.32347369 0.29763246
-0.62488073 0.35237518 0.30635178
-0.59455884 0.35092819 0.29189312
-0.090817019 0.35079738 0.29058659
-0.62496948 0.38053009 0.30690086
-0.59453875 0.46284929 0.29176283
-0.59510946 0.49134657 0.29546988
-0.59647739 0.52065808 0.30435455
-0.56782639 0.5761885 0.3004539
-0.53948498 0.63191736 0.29835391
-0.48469111 -0.7157194 0.30870306
-0.51443356 -0.68990451 0.3211472
-0.57095671 -0.60538983 0.32185578
-0.59905595 -0.54884923 0.32110286
-0.62656474 -0.46368733 0.31676877
-0.62603325 -0.4351317 0.31348097
-0.62550271 -0.40662718 0.31019926
-0.65620673 -0.32354015 0.32542503
-0.62531418 -0.32215211 0.30903304
-0.20377952 -0.32254183 0.31363535
-0.65625185 -0.29531804 0.32569134
-0.62575179 -0.29424396 0.31174004
-0.28798804 -0.29411519 0.31006694
-0.26062506 -0.29506704 0.32243156
-0.62602252 -0.26622266 0.31341481
-0.34469971 -0.2663694 0.31553257
-0.62629348 -0.23817575 0.31509101
-0.40059593 -0.23793413 0.31116772
-0.37332967 -0.23851186 0.32054949
-0.62656474 -0.21010301 0.316769
-0.59743476 -0.20976916 0.3105731
-0.456994 -0.20986295 0.31231284
-0.42962787 -0.21025068 0.31950974
-0.6271401 -0.1820913 0.32032812
-0.59810656 -0.18184234 0.31493664
-0.56915838 -0.18159404 0.30956089
-0.5409373 -0.18156053 0.30883515
-0.51306415 -0.18164591 0.31068325
-0.4851656 -0.18173222 0.31255519
-0.45803455 -0.18213736 0.32132435
-0.62784928 -0.15405685 0.32471502
-0.59878004 -0.1538488 0.31931055
-0.56979626 -0.15364137 0.31392193
-0.54185921 -0.1537016 0.31548834
-0.51393867 -0.1537739 0.31736529
