ply
format ascii 1.0
comment PCL generated
element vertex 1342
property float x
property float y
property float z
element camera 0
property float view_px
property float view_py
property float view_pz
property float x_axisx
property float x_axisy
property float x_axisz
property float y_axisx
property float y_axisy
property float y_axisz
property float z_axisx
property float z_axisy
property float z_axisz
property float focal
property float scalex
property float scaley
property float centerx
property float centery
property int viewportx
property int viewporty
property float k1
property float k2
end_header
-0.1283097 0.47602904 -0.17014599
-0.10528532 0.47702798 -0.16396654
-0.31586832 0.50092322 -0.16079092
-0.29190284 0.50000596 -0.16620672
-0.26830384 0.49956784 -0.16879344
-0.24474511 0.49913052 -0.17137575
-0.22122648 0.49869409 -0.17395353
-0.19781311 0.49840179 -0.1756798
-0.1747684 0.49894562 -0.17246807
-0.15185647 0.49999061 -0.16629815
-0.12885086 0.50103962 -0.16010308
-0.24585566 0.52455944 -0.15935373
-0.22250035 0.524638 -0.1589098
-0.19914764 0.52473837 -0.15834355
-0.27087688 -0.55439395 -0.1430819
-0.24741164 -0.55449533 -0.1425097
-0.22393885 -0.5545994 -0.14192188
-0.20045586 -0.55470079 -0.1413492
-0.17696407 -0.5548023 -0.14077628
-0.15346348 -0.55490375 -0.14020324
-0.31788284 -0.5308314 -0.14334476
-0.29323271 -0.52904928 -0.15386713
-0.26947066 -0.52849603 -0.15713406
-0.15245667 -0.52859467 -0.1565516
-0.12937823 -0.52965069 -0.15031648
-0.10620494 -0.530711 -0.1440556
-0.36530995 -0.50780302 -0.14032733
-0.34047204 -0.50609875 -0.1508702
-0.10573618 -0.50555968 -0.15420485
-0.082544014 -0.50656903 -0.14796019
-0.059256513 -0.50758284 -0.14168978
-0.38780233 -0.48310044 -0.14788294
-0.058959138 -0.4825671 -0.15134716
-0.4352279 -0.46005917 -0.14487445
-0.41018385 -0.45851946 -0.15540171
-0.05885319 -0.45860925 -0.15478802
-0.035691578 -0.46029651 -0.14325213
-0.45751441 -0.43551108 -0.15240788
-0.035611693 -0.43630037 -0.14671123
-0.48031607 -0.41156659 -0.15621436
-0.035531987 -0.41235855 -0.15016258
-0.50529283 -0.38923457 -0.14740515
-0.035452459 -0.38847071 -0.15360618
-0.035474803 -0.36514544 -0.15263832
-0.52769446 -0.3416329 -0.15326822
-0.035558652 -0.34209204 -0.14900792
-0.55283576 -0.31907797 -0.1444267
-0.035626654 -0.31891418 -0.14606321
-0.035694789 -0.29569146 -0.14311302
-0.57517087 -0.27156639 -0.1502856
-0.035763059 -0.27242392 -0.14015698
-0.60047805 -0.24878682 -0.14141107
-0.05882154 -0.24767789 -0.15581572
-0.59742045 -0.22423662 -0.15612233
-0.058911812 -0.22446093 -0.15288424
-0.059042554 -0.20127967 -0.14863825
-0.62392241 -0.17817205 -0.14181352
-0.059270333 -0.17820285 -0.14124095
-0.6229099 -0.15442722 -0.1465106
-0.62189728 -0.13075471 -0.15120864
-0.62089103 -0.10715529 -0.15587699
-0.082323164 -0.10722242 -0.15369821
-0.082438514 -0.08385516 -0.15070117
-0.64760226 -0.060543008 -0.14113247
-0.082539275 -0.0604361 -0.14808333
-0.64654976 -0.036973618 -0.14584708
-0.082639605 -0.036976404 -0.14547682
-0.082740709 -0.013476823 -0.14285004
-0.64550054 -0.013476769 -0.15054715
-0.64553493 0.0099851247 -0.15039349
-0.082737133 0.010042438 -0.14294279
-0.64658427 0.033519343 -0.14569283
-0.082636639 0.033521436 -0.14555383
-0.64763343 0.057125889 -0.14099324
-0.082535714 0.056960061 -0.14817595
-0.082435548 0.080358796 -0.15077806
-0.62092078 0.10362677 -0.15573895
-0.082314298 0.10369653 -0.15392864
-0.62193048 0.12726381 -0.15105498
-0.62293983 0.15097298 -0.14637196
-0.62395573 0.17475596 -0.14165878
-0.059262227 0.17476553 -0.14150405
-0.059034493 0.19778343 -0.14889991
-0.5975256 0.22073968 -0.15561628
-0.058908973 0.22094293 -0.15297639
-0.60058105 0.24540602 -0.14091575
-0.05881824 0.24413542 -0.15592313
-0.57527256 0.26812232 -0.14977765
-0.035760906 0.26900262 -0.14024973
-0.035692651 0.29224667 -0.14320552
-0.55293393 0.31568733 -0.14391673
-0.035624515 0.3154459 -0.14615583
-0.52778524 0.33817595 -0.1527766
-0.035556871 0.33860216 -0.14908469
-0.011998553 0.36138296 -0.15469599
-0.50537747 0.38582838 -0.14692724
-0.48039398 0.40809366 -0.15575433
-0.035534475 0.40888354 -0.15005481
-0.45760635 0.432087 -0.15183914
-0.035614181 0.43285283 -0.14660323
-0.43531352 0.45669574 -0.14431822
-0.41026688 0.45507658 -0.15483403
-0.058856491 0.45510021 -0.15468049
-0.035694432 0.45687887 -0.1431284
-0.38788137 0.47972029 -0.14731276
-0.36302236 0.47802362 -0.15780771
-0.082166761 0.4780311 -0.15776181
-0.05896293 0.47908789 -0.15122426
-0.34054026 0.50269711 -0.15031648
-0.10575107 0.50209302 -0.15388238
-0.082556486 0.50315088 -0.14763641
-0.059266519 0.50421309 -0.14136469
-0.29329392 0.52563149 -0.15329897
-0.26950902 0.5250203 -0.15675068
-0.17578624 0.52483851 -0.15777719
-0.15247558 0.52510977 -0.15624499
-0.12939481 0.52621406 -0.1500088
-0.31794888 0.52749509 -0.14277279
-0.10621922 0.52732277 -0.14374661
-0.27093261 0.55106151 -0.14252532
-0.24746308 0.55116713 -0.14195275
-0.22398472 0.55127293 -0.14138007
-0.20049877 0.55138153 -0.14079189
-0.1770027 0.55148751 -0.14021885
-0.24924091 -0.58167636 -0.12270725
-0.22543991 -0.58140153 -0.1241951
-0.20182098 -0.58150858 -0.12361586
-0.17819422 -0.58161837 -0.12302065
-0.15455736 -0.5817256 -0.12244105
-0.31998742 -0.55757451 -0.12511837
-0.29518345 -0.55568916 -0.13576663
-0.1299549 -0.55500793 -0.13961446
-0.10667613 -0.55602777 -0.13385427
-0.083330542 -0.55714828 -0.12752581
-0.36769992 -0.53443533 -0.12206459
-0.34270588 -0.5326283 -0.13273394
-0.082936272 -0.53177565 -0.13776922
-0.059571598 -0.53284472 -0.13145697
-0.036110353 -0.53391808 -0.12511849
-0.39032036 -0.50951916 -0.12971091
-0.035873059 -0.50860053 -0.1353935
-0.012461878 -0.51034516 -0.12460196
-0.43850571 -0.48684144 -0.12358439
-0.41282859 -0.48472679 -0.13731933
-0.035772 -0.48434943 -0.13976967
-0.01240797 -0.48614562 -0.12810361
-0.46140048 -0.46247339 -0.12836897
-0.012353942 -0.46199891 -0.1316129
-0.48422149 -0.43817899 -0.13315415
-0.012300279 -0.43790948 -0.13509822
0.011189358 -0.43952876 -0.12341237
-0.50791246 -0.41465557 -0.13260949
-0.012246501 -0.41387272 -0.13859141
0.011202492 -0.415636 -0.12511837
-0.533167 -0.39216071 -0.12364721
-0.01224101 -0.39027616 -0.13894796
-0.5304175 -0.3667745 -0.13852942
-0.012299325 -0.36716357 -0.13516057
-0.55568886 -0.34418347 -0.12960184
-0.01235754 -0.34399197 -0.13137913
-0.012416147 -0.32076466 -0.12757254
-0.57812667 -0.29639316 -0.13551795
-0.012465976 -0.29742613 -0.12433589
-0.60356545 -0.2735756 -0.12655687
-0.035831455 -0.24911125 -0.13719523
-0.62596333 -0.22588395 -0.13234472
-0.036060531 -0.22623517 -0.12727582
-0.62494129 -0.20199116 -0.13708639
-0.059498738 -0.15501332 -0.13382316
-0.65153378 -0.13182035 -0.1235218
-0.059728738 -0.13171141 -0.12635386
-0.64994323 -0.10793222 -0.13064647
-0.64865464 -0.084185049 -0.13641882
-0.64868927 0.080805726 -0.13626337
-0.64999193 0.10460089 -0.13042819
-0.65158617 0.12854637 -0.12328684
-0.059721034 0.12839314 -0.12660372
-0.059491072 0.15163571 -0.13407207
-0.62497473 0.19861257 -0.13693118
-0.62604052 0.22255877 -0.1319865
-0.036051873 0.22289251 -0.12765074
-0.035829302 0.24571349 -0.13728821
-0.60366946 0.27031374 -0.12605667
-0.57822925 0.2930674 -0.13500488
-0.012464531 0.29412574 -0.12442982
-0.012414459 0.31743675 -0.12768185
-0.55578494 0.34090954 -0.12910247
-0.012355864 0.34063402 -0.13148808
-0.53050917 0.36343527 -0.13803303
-0.53325671 0.38893855 -0.12316155
-0.012239341 0.3868584 -0.13905668
-0.50799519 0.4113656 -0.13214219
-0.012248412 0.41048917 -0.13846731
0.011203457 0.41232139 -0.12524343
-0.48436651 0.43494517 -0.13229799
-0.012301955 0.43455151 -0.13498926
0.011188392 0.43626311 -0.12328684
-0.46153682 0.459281 -0.12752569
-0.012355622 0.45866862 -0.1315037
-0.43863836 0.48369548 -0.12272298
-0.41291261 0.48142865 -0.13674486
-0.035774503 0.48095727 -0.13966095
-0.012409654 0.48284316 -0.1279943
-0.39040032 0.50628442 -0.12913358
-0.36538497 0.50448579 -0.13975406
-0.035880592 0.5052796 -0.13506711
-0.012463566 0.50707054 -0.12449253
-0.3427749 0.52937186 -0.1321733
-0.082948208 0.52843583 -0.13745892
-0.059581202 0.52955383 -0.13114536
-0.03611758 0.53067636 -0.12480557
-0.32005429 0.55438441 -0.12453938
-0.29524541 0.55241644 -0.13519144
-0.15349784 0.55159348 -0.13964546
-0.12998414 0.55169934 -0.13907194
-0.10669123 0.55272377 -0.13352752
-0.083343163 0.55389309 -0.12719762
-0.22548765 0.57822001 -0.1236316
-0.20186439 0.57833135 -0.12305188
-0.17823221 0.57844299 -0.12247205
-0.060393769 -0.65643245 -0.10475624
-0.059883978 -0.62930566 -0.12131202
-0.20320204 -0.60862923 -0.10567546
-0.17943765 -0.60874504 -0.10507345
-0.15566306 -0.60885793 -0.10448658
-0.06035864 -0.60858649 -0.10589707
-0.29810402 -0.58427048 -0.1086669
-0.27361682 -0.58297044 -0.11570299
-0.13091159 -0.58183277 -0.12186086
-0.1072576 -0.58194286 -0.12126505
-0.083728075 -0.58269435 -0.11719751
-0.060207669 -0.58387631 -0.11080003
-0.3449645 -0.55947292 -0.1143961
-0.059888329 -0.55827343 -0.12117088
-0.036348883 -0.55940324 -0.11478996
-0.01275425 -0.56102824 -0.10561204
-0.39286852 -0.5362547 -0.11132109
0.011071708 -0.53679532 -0.10812914
-0.012552407 -0.53500128 -0.11872232
-0.41554174 -0.51128811 -0.11876917
0.011104299 -0.5123238 -0.11236238
0.011135101 -0.48795301 -0.116364
-0.48887518 -0.46579257 -0.10567546
0.011162201 -0.46371436 -0.11988425
0.034858916 -0.46547994 -0.10781276
-0.51182145 -0.44131356 -0.11053157
0.034858916 -0.44122389 -0.11117876
-0.53594345 -0.41779512 -0.10861933
0.034858916 -0.41796485 -0.1073221
0.011173192 -0.39244831 -0.12131214
-0.55856967 -0.36953393 -0.11463237
0.011143697 -0.36920506 -0.11748075
-0.58412492 -0.34677565 -0.10554862
0.011114251 -0.34590209 -0.11365533
-0.58111113 -0.32146177 -0.1206063
0.011084611 -0.3225427 -0.10980487
-0.60668302 -0.29860651 -0.11155772
-0.012552164 -0.27423766 -0.11873806
-0.62954015 -0.25076222 -0.11575031
-0.012725729 -0.25139999 -0.10746467
-0.036319073 -0.20328481 -0.11608064
-0.65474057 -0.17993186 -0.10915697
-0.03654949 -0.18009634 -0.10610318
-0.65313166 -0.15581962 -0.116364
-0.059960339 -0.10829599 -0.11883211
-0.060130421 -0.084718831 -0.11330855
-0.060213018 -0.06101267 -0.11062622
-0.67859292 -0.037258472 -0.1088407
-0.060295265 -0.037265278 -0.1079551
-0.6769318 -0.013476769 -0.11603355
-0.060378145 -0.013476714 -0.10526347
-0.6769827 0.010251267 -0.11581326
-0.060375225 0.01033169 -0.10535848
-0.6786477 0.034090392 -0.1086036
-0.060292345 0.034098811 -0.10804999
-0.060210098 0.057824917 -0.11072099
-0.060127508 0.081509687 -0.1134032
-0.059952606 0.10503768 -0.11908352
-0.65318435 0.15260264 -0.11612797
-0.65479356 0.17677231 -0.10891986
-0.036542911 0.1769281 -0.10638821
-0.036309984 0.20002995 -0.11647415
-0.62971324 0.24760513 -0.1149472
-0.012719881 0.24820663 -0.10784435
-0.012546603 0.27095631 -0.11909902
-0.6067847 0.29546282 -0.11106825
-0.58121169 0.31825346 -0.12010419
0.011085581 0.31934994 -0.10993135
-0.58422321 0.34368601 -0.10505736
0.0111151 0.34268036 -0.11376572
-0.55866367 0.36637774 -0.11414397
0.011144666 0.36595118 -0.1176064
0.011174036 0.3891663 -0.12142181
-0.53603107 0.41469082 -0.10814476
0.034858916 0.41478735 -0.10744882
-0.51197529 0.43825579 -0.10966277
0.034858916 0.43801793 -0.11128926
-0.48902276 0.4627794 -0.10480368
0.011161355 0.4604744 -0.11977422
0.034858916 0.46233797 -0.10767043
0.011134254 0.48474121 -0.11625385
-0.41566816 0.50818616 -0.11790514
0.011103326 0.50914615 -0.11223626
-0.39294946 0.53316724 -0.11073673
-0.36777377 0.5312615 -0.12150025
-0.012558695 0.53182566 -0.11831379
0.011070613 0.53365415 -0.10798669
-0.3450363 0.55636609 -0.11381292
-0.05989847 0.55506748 -0.1208415
-0.03635652 0.55624664 -0.11445904
-0.012760594 0.55795735 -0.10519981
-0.27370507 0.57991534 -0.11482131
-0.24932343 0.57856965 -0.12181389
-0.15459213 0.57855773 -0.1218766
-0.130942 0.57866931 -0.12129641
-0.10728297 0.57878107 -0.12071609
-0.083740786 0.5795216 -0.11686742
-0.34602103 0.58164817 -0.10581791
-0.29819778 0.58126724 -0.10779691
-0.060217883 0.58075309 -0.11046839
-0.20324838 0.60560209 -0.10507309
-0.17947829 0.60571969 -0.10448682
-0.060925353 -0.68396676 -0.087492347
-0.1806957 -0.63619006 -0.086915255
-0.15678173 -0.63630885 -0.086321831
-0.27645603 -0.61215931 -0.087332129
-0.2518512 -0.6107896 -0.094449639
-0.22735742 -0.60942286 -0.10155082
-0.13188028 -0.60897392 -0.10388422
-0.10808751 -0.60908681 -0.10329723
-0.084285706 -0.60919994 -0.10270989
-0.03694636 -0.61185414 -0.088918328
-0.34741339 -0.58688527 -0.094513416
-0.32270145 -0.58557332 -0.10161424
-0.036640693 -0.5854736 -0.10215425
-0.012957823 -0.58727765 -0.092389703
-0.39636141 -0.56448054 -0.086113214
-0.37011856 -0.56138754 -0.10358274
0.010977333 -0.5627532 -0.095869422
0.034858916 -0.56448615 -0.086081147
-0.41959885 -0.53969097 -0.091030836
0.034858916 -0.53901744 -0.095008254
-0.44276291 -0.51497978 -0.095933199
0.034858916 -0.51443648 -0.099293351
0.058815725 -0.51656979 -0.086097121
-0.46585658 -0.49034867 -0.10080397
0.034858916 -0.48992577 -0.10355091
0.058782548 -0.49194938 -0.090406895
0.058749583 -0.46739948 -0.094689131
-0.53983486 -0.44449717 -0.087556481
0.058753394 -0.44357735 -0.094194293
0.058787353 -0.42026022 -0.089782953
-0.56147879 -0.39513296 -0.099516153
0.034858916 -0.39464578 -0.10347152
-0.58764905 -0.3726159 -0.08794117
0.034858916 -0.37127018 -0.099595666
0.034858916 -0.34783435 -0.095725775
-0.61114562 -0.32451606 -0.090086937
0.034858916 -0.32462171 -0.089030385
0.011021435 -0.29952648 -0.10159838
-0.63460982 -0.27648243 -0.092229962
0.010916302 -0.27684554 -0.087940931
-0.65804166 -0.22851492 -0.094369888
-0.012900323 -0.22839332 -0.096124411
-0.65635353 -0.20415606 -0.10193193
-0.036724765 -0.15664417 -0.098513603
-0.036901634 -0.13307767 -0.090855002
-0.68363053 -0.10927536 -0.08702755
-0.68194216 -0.085156806 -0.094338059
-0.68026543 -0.061151691 -0.1015985
-0.68032044 0.058041193 -0.1013602
-0.68199748 0.082104109 -0.094098568
-0.68368608 0.10628068 -0.086786747
-0.036895353 0.13003176 -0.091126919
-0.036718514 0.15353718 -0.098784208
-0.65641028 0.20105496 -0.10167778
-0.65822697 0.22551838 -0.093539715
-0.012894433 0.22528993 -0.096506834
-0.63478208 0.27351227 -0.091430664
0.010919632 0.27379465 -0.08837378
0.011024615 0.29636922 -0.10201132
-0.61130863 0.32157323 -0.08930254
0.034858916 0.32155585 -0.089462519
0.034858916 0.34474877 -0.095853329
-0.58780301 0.36969969 -0.087171674
0.034858916 0.36815387 -0.099722862
-0.56157368 0.3920975 -0.099022865
0.034858916 0.39149857 -0.10359871
0.05878612 0.41721296 -0.089942932
-0.53999478 0.44161573 -0.086690664
0.058752283 0.44049734 -0.09433794
0.058750566 0.46435609 -0.094561338
-0.4659954 0.48737749 -0.099945426
0.034858916 0.48681518 -0.10342395
0.058783658 0.48894283 -0.09026289
-0.44289795 0.51205558 -0.095056057
0.034858916 0.51136231 -0.099150181
0.058816716 0.51359481 -0.085968614
-0.4197275 0.53681201 -0.090150952
0.034858916 0.53597474 -0.094880342
-0.37019333 0.55836165 -0.10301137
0.010974143 0.55975777 -0.095454693
-0.32280418 0.58262855 -0.10072458
-0.036650222 0.58243269 -0.10174131
-0.012963973 0.58430934 -0.091989994
-0.27654588 0.6093328 -0.086434007
-0.25193378 0.6079073 -0.093555808
-0.22743544 0.60649174 -0.10062909
-0.15569919 0.60583711 -0.10389996
-0.13191105 0.60595465 -0.10331297
-0.1081139 0.60607213 -0.10272574
-0.0843077 0.60618967 -0.10213828
-0.060592856 0.60695952 -0.098290801
-0.036955979 0.60891891 -0.088501811
-0.18073791 0.6333136 -0.086305618
-0.061486382 -0.71198016 -0.069272637
-0.22978202 -0.63899171 -0.072917342
-0.20517075 -0.63755399 -0.080101013
-0.1328595 -0.63643098 -0.085712075
-0.10892716 -0.63654977 -0.085118055
-0.085134849 -0.63744432 -0.080648661
-0.037407171 -0.63978297 -0.068964481
-0.32600948 -0.61492419 -0.07296586
-0.30117565 -0.61353862 -0.080165386
-0.013162892 -0.61374944 -0.079070091
0.010771718 -0.61565679 -0.069159031
-0.37305036 -0.58934873 -0.081179857
0.034858916 -0.59091705 -0.072690845
0.010875029 -0.58909011 -0.082579613
0.058891799 -0.56623316 -0.076214671
0.058848873 -0.54125577 -0.081791401
0.083044305 -0.5435161 -0.068445206
-0.47039345 -0.51872909 -0.072739363
0.082977191 -0.51871872 -0.072804213
-0.49361309 -0.49390587 -0.077699423
0.082910523 -0.49399278 -0.077134728
-0.5167591 -0.46916124 -0.082643747
0.082843781 -0.46933302 -0.081469536
0.082905546 -0.44589648 -0.077457547
-0.56441659 -0.42098406 -0.084251046
0.082973957 -0.42245457 -0.073014498
0.058820914 -0.39686868 -0.085423112
0.0830428 -0.39894786 -0.0685426
0.058851101 -0.3733595 -0.081501722
0.058890805 -0.34992316 -0.076343775
-0.63975745 -0.30259812 -0.068347812
0.034858916 -0.30196092 -0.075245619
-0.66336578 -0.25424394 -0.070520878
0.010823671 -0.25382915 -0.075907946
-0.013076201 -0.20521723 -0.084700584
-0.01325338 -0.18186986 -0.073192358
-0.68702734 -0.15785402 -0.072318673
-0.68532306 -0.13350712 -0.079698443
-0.037089411 -0.1094079 -0.082724214
-0.71116745 -0.013476823 -0.071994781
-0.71122158 0.01059027 -0.071768165
-0.037073445 0.10641048 -0.083415508
-0.68538254 0.1305715 -0.079440594
-0.68708342 0.15497647 -0.072075844
-0.013246905 0.17894663 -0.073613048
-0.013070267 0.20220451 -0.085085869
-0.66355032 0.25143701 -0.069694161
0.01082653 0.25087935 -0.076279283
0.034858916 0.29900411 -0.075681806
0.058887325 0.3469494 -0.076795816
0.058849983 0.37038025 -0.081646562
0.058819927 0.39386037 -0.085551381
0.083040304 0.39606494 -0.068704844
-0.56450933 0.41806832 -0.083769083
0.082971707 0.41953832 -0.073160172
0.082903311 0.44294515 -0.077602625
-0.51691574 0.46632743 -0.081759095
0.082846008 0.46639413 -0.081324577
-0.49376336 0.49111715 -0.07681191
0.082912505 0.49108592 -0.077005863
-0.47053739 0.51598597 -0.071849108
0.082979441 0.51584888 -0.072658539
0.058849983 0.53831768 -0.081646442
0.083046302 0.54067814 -0.068315387
-0.39648372 0.5616467 -0.085230589
0.034858916 0.56156671 -0.085664034
0.058895029 0.56339014 -0.075794935
-0.3731662 0.58656031 -0.080294371
0.010871809 0.58620083 -0.082161307
0.034858916 0.58810437 -0.072270155
-0.32611412 0.6122098 -0.072059512
-0.3012729 0.6107679 -0.07926333
-0.013169345 0.61089057 -0.078650713
0.010768596 0.61287141 -0.068753481
-0.15681927 0.63343698 -0.085711956
-0.13289151 0.6335606 -0.085118055
-0.10895459 0.63368404 -0.084523916
-0.22986016 0.63628823 -0.071994781
-0.20524268 0.63479745 -0.079166651
-0.085166454 0.63466024 -0.079827309
-0.061340783 0.63587129 -0.074001193
-0.037425909 0.63708663 -0.068153024
-0.085798472 -0.71328968 -0.063406944
-0.20740572 -0.66759139 -0.051067948
-0.18267344 -0.6660738 -0.058368683
-0.15805568 -0.66456336 -0.065635562
-0.13385029 -0.66421235 -0.067325354
-0.1100082 -0.66537881 -0.061712861
-0.086091161 -0.66660714 -0.055802584
-0.3043063 -0.64335495 -0.051117182
-0.2793496 -0.64189386 -0.058417678
-0.25450844 -0.64043945 -0.065684438
-0.013409052 -0.6409604 -0.063081264
0.010667637 -0.64244998 -0.055638909
-0.35196188 -0.61788422 -0.057584524
0.034858916 -0.61757314 -0.059201479
-0.40029183 -0.59367782 -0.05774796
0.05899553 -0.59275562 -0.062739372
0.083286345 -0.59460592 -0.052724242
-0.42373443 -0.56861603 -0.062755704
0.083111599 -0.56838262 -0.064074159
0.10754929 -0.57076967 -0.050592065
-0.4471024 -0.54363424 -0.067747235
0.10744748 -0.54579312 -0.055000663
0.10734633 -0.52088869 -0.059380889
-0.52185345 -0.49757442 -0.053871155
0.10724509 -0.49605125 -0.06376493
0.13178903 -0.49812731 -0.050280094
-0.54621869 -0.47349662 -0.053002834
0.10721578 -0.47173688 -0.065033913
-0.57060063 -0.44940764 -0.052117586
0.10731921 -0.44823849 -0.060555458
0.10742331 -0.42467499 -0.056047916
-0.592439 -0.39950624 -0.06400907
0.1075277 -0.40104365 -0.051527262
0.083111852 -0.37537375 -0.064057946
-0.61611295 -0.3510178 -0.066188097
0.083304018 -0.35259241 -0.051576376
0.058997665 -0.32728043 -0.062462449
0.034858916 -0.2790955 -0.061370611
0.010734579 -0.23059586 -0.064334631
-0.69045645 -0.20689422 -0.057470083
0.010631695 -0.20729452 -0.050969481
-0.6887359 -0.1823156 -0.064920068
-0.01359275 -0.15883179 -0.051149964
-0.037583675 -0.085919306 -0.061321855
-0.71471167 -0.061836243 -0.057143211
-0.037835632 -0.06193988 -0.050411344
-0.71293342 -0.037599083 -0.064594746
-0.71299165 0.034771614 -0.064350724
-0.7147662 0.059067585 -0.05691433
-0.037829574 0.059211753 -0.050674081
-0.037567865 0.083092272 -0.062006235
-0.013579365 0.15605716 -0.052019119
-0.68879604 0.17949788 -0.064659715
-0.69051301 0.20413479 -0.057224989
0.010639017 0.20450236 -0.051920891
0.010737458 0.22773784 -0.06470871
0.034858916 0.27624992 -0.0617944
-0.63993239 0.29981911 -0.067536235
0.058994278 0.32441837 -0.062901974
-0.61627841 0.34826624 -0.06539166
0.083296686 0.34980646 -0.05205214
0.083109342 0.37252671 -0.064220548
-0.59259534 0.39678171 -0.063227773
0.1075239 0.3982915 -0.051691055
0.10741952 0.42188689 -0.056211233
-0.57089424 0.4468956 -0.050591946
0.10731581 0.44541687 -0.060702085
-0.54650038 0.47098953 -0.051478028
0.10721239 0.46887979 -0.065180421
-0.5221203 0.49506935 -0.052363515
0.1072481 0.49324736 -0.063634753
0.13179357 0.49543032 -0.050132394
0.10734934 0.51811963 -0.059250236
-0.4472374 0.54093397 -0.066870451
0.10745089 0.54306167 -0.054853439
-0.42386311 0.56596148 -0.061875939
0.083113603 0.56557941 -0.063943982
0.10755271 0.56807351 -0.050444245
-0.40041411 0.59106904 -0.056865335
0.058998793 0.59002012 -0.062315822
0.083292902 0.59194809 -0.05229795
-0.37486345 0.61315757 -0.067325234
-0.35214713 0.615408 -0.05608058
0.034858916 0.61486834 -0.058776855
-0.27944115 0.63930023 -0.057502866
-0.25459257 0.63778889 -0.064773679
-0.013421088 0.63830334 -0.062299371
0.010664493 0.63977259 -0.055229783
-0.20747901 0.66506916 -0.050115824
-0.18274023 0.66349834 -0.057404637
-0.15811677 0.66193795 -0.064643502
-0.13388355 0.66149294 -0.066707969
-0.11004734 0.66275251 -0.060865164
-0.086123288 0.66402352 -0.05496788
-0.11138275 -0.69593793 -0.031952739
-0.25721541 -0.67064399 -0.036380768
-0.23225328 -0.66911578 -0.043733239
-0.037985299 -0.66907477 -0.043931007
-0.013795674 -0.67031378 -0.037969708
0.010485431 -0.67156088 -0.031969309
0.034858916 -0.64446038 -0.045594692
0.059205458 -0.64648682 -0.03546977
-0.37886754 -0.621898 -0.036728501
0.059100039 -0.61950487 -0.04916358
0.083496697 -0.62144905 -0.039061308
-0.427946 -0.59807247 -0.033960938
0.10773245 -0.59646493 -0.042661309
-0.45152146 -0.57281429 -0.039044738
0.13221753 -0.57328892 -0.036364079
-0.47502127 -0.54763699 -0.044112086
0.13206631 -0.54811746 -0.041275024
-0.49844304 -0.52253777 -0.049180031
0.1319252 -0.52307469 -0.045858264
0.15657185 -0.50032848 -0.035983324
0.13185984 -0.47423118 -0.047980428
0.13199925 -0.45060834 -0.043452859
-0.59730655 -0.42681575 -0.039689422
0.13213956 -0.42691958 -0.038895845
0.13227978 -0.40316027 -0.034342289
-0.62116063 -0.37793201 -0.041902423
0.1076784 -0.37757409 -0.045001864
-0.64498127 -0.32911688 -0.044112086
0.083534144 -0.32986578 -0.036628962
0.059105478 -0.30443546 -0.048457026
-0.66877234 -0.28037137 -0.046302438
0.05921426 -0.28138554 -0.034325838
0.034858916 -0.25602588 -0.047371864
-0.69252658 -0.23169249 -0.04850626
-0.7206319 -0.13533011 -0.032334805
-0.71828961 -0.11065722 -0.042149901
-0.71649444 -0.086188398 -0.049672723
-0.038024906 -0.0377714 -0.042215943
-0.038215164 -0.013476823 -0.033977509
-0.038209032 0.01087909 -0.034242868
-0.038019191 0.035108633 -0.042463303
-0.71655321 0.083479635 -0.049426436
-0.71834868 0.10800835 -0.041902423
-0.69272399 0.22905082 -0.047651529
0.034858916 0.2532911 -0.047799349
-0.6689561 0.27775702 -0.045479536
0.059210815 0.27874598 -0.034773588
0.059102066 0.30168414 -0.048900485
-0.64515895 0.32653207 -0.043287992
0.083526745 0.32719806 -0.037109017
-0.62132531 0.37537315 -0.04110992
0.10766737 0.37483507 -0.045479536
0.13227467 0.40054035 -0.034508109
-0.597462 0.42428392 -0.038912416
0.13213448 0.4242633 -0.039061308
0.13199468 0.44791803 -0.043601155
0.13185529 0.47150514 -0.048128247
0.15657821 0.49774429 -0.035817385
-0.4985961 0.51997811 -0.048276305
0.13192976 0.52041286 -0.045710087
-0.47516522 0.54512101 -0.043221951
0.13207088 0.54549217 -0.04112649
-0.45165896 0.57034463 -0.038151741
0.13222212 0.57070249 -0.036214948
-0.42807704 0.59564942 -0.033064961
0.10774235 0.5938853 -0.042232394
0.059103202 0.61687469 -0.048752666
0.083503067 0.61889714 -0.03864789
-0.30443719 0.64087999 -0.049902439
0.034858916 0.6418609 -0.045182943
0.059208646 0.6439659 -0.035055399
-0.25730109 0.66822982 -0.035452962
-0.23233148 0.66664433 -0.042809725
-0.062108617 0.66529602 -0.049064755
-0.038003955 0.66657668 -0.043123007
-0.013808154 0.66786224 -0.037158847
-0.23476973 -0.69980413 -0.014015675
-0.20968272 -0.69819337 -0.021488905
-0.03857236 -0.69883537 -0.018510461
-0.18471435 -0.69659364 -0.028910518
-0.16016068 -0.69604534 -0.031454444
-0.1357698 -0.69599169 -0.031703591
-0.087062225 -0.69623512 -0.030573726
-0.28277776 -0.67318374 -0.024161339
0.034858916 -0.67280924 -0.025962949
0.059325181 -0.67406595 -0.019916773
-0.33091792 -0.64749014 -0.030457377
0.08370889 -0.64852643 -0.025279164
-0.40613291 -0.62596542 -0.015593529
0.10808653 -0.623707 -0.027329087
0.13244703 -0.59900546 -0.028910756
0.15741415 -0.60174191 -0.01409936
0.15714259 -0.5759818 -0.021154642
0.15695241 -0.55068821 -0.026096106
0.15676151 -0.52546769 -0.031055689
0.18184766 -0.52793735 -0.015778184
0.18164259 -0.5027557 -0.020217896
0.15675382 -0.47667745 -0.031255126
0.18186471 -0.47899508 -0.015408993
0.156937 -0.45295787 -0.026496172
0.15712138 -0.42916915 -0.021706223
-0.62628722 -0.40526709 -0.017237067
0.15731727 -0.40534347 -0.016616821
0.13261898 -0.38007694 -0.023326874
-0.65029025 -0.35605139 -0.01948154
0.10802503 -0.35491857 -0.029991984
0.108375 -0.33204639 -0.014838457
-0.67425954 -0.306905 -0.021723032
0.083766475 -0.30692208 -0.021539092
-0.69819885 -0.2578294 -0.023944616
0.059277482 -0.25766248 -0.026112795
0.034858916 -0.2332208 -0.026446223
0.010405654 -0.18464954 -0.021605968
-0.72416681 -0.16038494 -0.017521977
-0.013928998 -0.13544661 -0.029310107
-0.72074682 0.13276947 -0.03185308
-0.013917729 0.13285305 -0.030041695
-0.72428679 0.15794316 -0.017019272
0.010413243 0.18208843 -0.022591829
0.034858916 0.23060885 -0.027412295
-0.69858843 0.25545385 -0.022257686
0.05935007 0.25592598 -0.016683698
-0.67444617 0.30448762 -0.020887017
0.08375901 0.30437386 -0.022023678
0.10836375 0.32954583 -0.01532495
-0.6504671 0.35366219 -0.018661261
0.1080139 0.3522982 -0.030473948
0.13260408 0.37750378 -0.023810744
-0.62645102 0.4029035 -0.016448855
0.15729725 0.40281364 -0.017136574
0.15711494 0.42664483 -0.021873474
0.15693058 0.45039567 -0.026662827
0.15674743 0.47407731 -0.031421185
0.18185773 0.4765192 -0.015559912
0.18163565 0.50024188 -0.020368457
0.1567679 0.52292269 -0.030889511
0.18185464 0.52550751 -0.015627146
0.15695816 0.54817981 -0.02594614
0.15714903 0.57351577 -0.020987391
0.13246292 0.59654832 -0.028394818
-0.40634227 0.62381381 -0.014082551
0.10809807 0.62126261 -0.026829481
-0.33109269 0.64523613 -0.028944016
0.083715051 0.64608103 -0.02487886
0.010479294 0.66915274 -0.031172037
-0.28292984 0.67099118 -0.022641897
0.034858916 0.67044437 -0.025179029
0.059331112 0.67174453 -0.019146681
-0.20975609 0.6959067 -0.020535827
-0.18478124 0.69425267 -0.02794528
-0.16025075 0.69379568 -0.029991984
-0.13584949 0.69374388 -0.030224681
-0.11145106 0.69368809 -0.030473828
-0.087094873 0.69385511 -0.02972579
-0.062889323 0.69519788 -0.023710847
-0.038591314 0.69654214 -0.017689466
-0.26090392 -0.70359004 0.0035486221
-0.014188532 -0.70014107 -0.012452722
0.010288252 -0.70145541 -0.006354928
0.034858916 -0.70277107 -0.00025069714
-0.30950731 -0.67761165 -0.0028576851
0.083954558 -0.67626792 -0.0093225241
-0.35791659 -0.65173697 -0.0092382431
0.10846543 -0.65140003 -0.010922074
0.13295226 -0.62656015 -0.012503147
0.15805161 -0.62944025 0.0024621487
-0.45643488 -0.60302931 -0.0071310997
0.18261573 -0.60450411 0.00085091591
-0.48114416 -0.57862288 -0.0062367916
0.18230863 -0.57870078 -0.005797863
-0.5058701 -0.55420583 -0.0053251982
0.18207817 -0.55328077 -0.010787368
-0.5306102 -0.52977473 -0.0044128895
0.20717701 -0.53043115 -0.00035250187
-0.55536133 -0.50532705 -0.0035171509
0.20696642 -0.50521249 -0.0042607784
0.20722815 -0.48133612 0.00059652328
-0.58012956 -0.48086798 -0.0026038885
-0.60491198 -0.45639503 -0.0016901493
0.1820875 -0.45516253 -0.010585546
0.18231097 -0.43125755 -0.0057471991
0.18259068 -0.40742809 0.00030863285
0.15789504 -0.38258523 -0.0016055107
0.13308756 -0.35727704 -0.0081092119
0.10872832 -0.30895436 0.00046086311
0.084022865 -0.28387845 -0.0048860312
0.059389241 -0.23424971 -0.011595011
0.034858916 -0.21007529 -0.0058147907
-0.72773486 -0.1856754 -0.0025699139
-0.014269944 -0.11173455 -0.0071648359
-0.75192231 -0.013476769 -0.0042438507
-0.75203478 0.011113653 -0.0037875175
-0.014259297 0.10931884 -0.007856369
-0.72785598 0.18335281 -0.0020624399
0.084007785 0.28141648 -0.0058654547
0.10871696 0.30657482 -3.027916e-05
0.13307251 0.35482419 -0.00859797
0.15787615 0.38017839 -0.0020962954
0.18256719 0.40503013 -0.00019991398
0.18230316 0.42885596 -0.0059159994
0.18207973 0.45272243 -0.010753751
-0.60522377 0.45427594 -0.0001322031
-0.58043247 0.4787564 -0.0010298491
0.20721994 0.47898331 0.00044417381
-0.55565196 0.50322014 -0.0019440651
0.2069582 0.50282121 -0.0044130087
-0.53088558 0.52767009 -0.0028574467
0.20718524 0.52812022 -0.00019991398
-0.50613332 0.55210602 -0.0037708282
0.18208595 0.55089349 -0.010619164
-0.48139527 0.57652813 -0.0046832561
0.1823172 0.57635635 -0.0056120157
-0.45667395 0.60093921 -0.0055783987
0.15743548 0.59940612 -0.013545156
0.18264234 0.60228753 0.0014272928
0.13296831 0.62423432 -0.011981726
0.15807252 0.6272338 0.0030053854
-0.35810548 0.64965063 -0.0077046156
0.1084771 0.64908683 -0.010416985
-0.30967328 0.67558759 -0.0013175011
0.083962083 0.67396742 -0.008833766
-0.23484939 0.69757229 -0.013074636
-0.014201216 0.69789511 -0.011628747
0.010282012 0.69925338 -0.0055445433
0.034858916 0.70061308 0.00054574013
-0.2128583 -0.73185664 0.019762993
-0.18762285 -0.73036247 0.01306963
-0.16288687 -0.73030525 0.012813449
-0.13815483 -0.73024809 0.012557387
-0.11342676 -0.73019093 0.012301326
-0.039265785 -0.73001558 0.011515856
-0.014588051 -0.7304579 0.013496757
0.010087855 -0.73183757 0.019677281
0.05954523 -0.70469368 0.0086684227
0.2074962 -0.70402592 0.0055706501
-0.3365981 -0.6820994 0.018733978
0.10884947 -0.67939168 0.0057066679
0.13398015 -0.68254513 0.020878553
0.20770995 -0.68018794 0.0095374584
-0.38527939 -0.6560412 0.012267113
0.13346326 -0.65440506 0.0040920973
0.15869771 -0.65743858 0.019248486
0.208285 -0.65763092 0.020209312
-0.43466246 -0.63126802 0.011959791
0.18338789 -0.63234758 0.017568827
0.20805599 -0.60729533 0.015959382
0.20771913 -0.58144605 0.0097079277
0.20744765 -0.55589855 0.0046697855
0.23306438 -0.55854183 0.020277858
0.23275207 -0.53294647 0.015206575
0.23254581 -0.50769407 0.011857271
0.23284799 -0.48370081 0.016763806
0.20749162 -0.45738935 0.0054857731
0.23315211 -0.4596366 0.021702766
-0.63149452 -0.43303266 0.0078167915
0.20775495 -0.43336716 0.010372996
0.20812702 -0.40951818 0.017277598
-0.6563468 -0.38376555 0.0086171627
0.18328589 -0.38454422 0.015360355
0.15847372 -0.3595981 0.01342845
-0.68345201 -0.33547831 0.01945436
0.13356066 -0.33425739 0.0072548389
-0.73134077 -0.21120574 0.012540221
0.010175094 -0.16157973 0.0083447695
-0.014615688 -0.087688744 0.015292048
-0.75563639 -0.038179725 0.010833502
-0.75575411 0.035936601 0.011311173
-0.014604893 0.085450873 0.014590859
0.010182697 0.15925682 0.0073571205
-0.73145896 0.20900264 0.013035655
0.034858916 0.20840903 0.0044659376
0.059597142 0.23390548 0.015411973
-0.68385816 0.33349007 0.021273255
0.13354598 0.33192796 0.0067783594
0.1584553 0.35731241 0.012950182
-0.65672523 0.38171417 0.010372758
0.18326299 0.38226748 0.014864445
0.20810027 0.40725222 0.016781092
-0.63165736 0.43086755 0.0086001158
0.20774578 0.43108952 0.010202408
-0.63282788 0.45637688 0.014231801
0.20748244 0.45507282 0.0053157806
0.23314156 0.4574444 0.021530867
0.2328385 0.48147219 0.016609907
0.23253635 0.50542653 0.01170361
0.2327626 0.53075832 0.015377522
0.20745681 0.55363059 0.0048398972
0.23307601 0.55639732 0.020466566
0.20773014 0.57922465 0.0099124908
0.20808735 0.60519612 0.016541362
-0.43513986 0.62967944 0.015223742
0.183414 0.6302619 0.018134356
-0.38548055 0.65412116 0.013804555
0.13347895 0.65220845 0.0046018362
0.15871753 0.65535975 0.019763231
-0.33677834 0.680246 0.020295024
0.10886085 0.67720783 0.0062001944
0.13399601 0.68048269 0.021393657
-0.26104674 0.70162851 0.0050948858
0.059553232 0.70265847 0.0097079277
-0.18772113 0.72845668 0.014488339
-0.16297525 0.72840148 0.014248848
-0.13823311 0.72834617 0.014009595
-0.11349462 0.72829086 0.013770342
-0.088759169 0.72823167 0.013513923
-0.064027131 0.72816837 0.013240576
-0.039299306 0.72810543 0.01296711
-0.014600683 0.72841716 0.014317274
0.010081515 0.72984523 0.020501018
-0.23886889 -0.73512286 0.034393311
0.034858916 -0.73364961 0.027794242
-0.28772029 -0.70826268 0.025227308
0.084459208 -0.70788091 0.023455501
0.10960402 -0.7110976 0.03837955
0.15934996 -0.68572849 0.036194444
0.18417217 -0.66050094 0.034549117
0.20896913 -0.63529903 0.032905221
0.23352301 -0.63430214 0.027725101
0.23373665 -0.61010993 0.031193852
0.23337768 -0.58421826 0.025365114
0.25895602 -0.5612697 0.036385298
0.25858799 -0.53551137 0.031073093
0.25838232 -0.51019543 0.028104424
0.25871614 -0.4860642 0.032922626
0.25905094 -0.46186072 0.037754893
0.23345618 -0.43549594 0.026639342
0.23393579 -0.41163045 0.034427762
0.20894678 -0.38652226 0.032490253
0.1839869 -0.36144206 0.030537486
0.15905717 -0.33639222 0.028587341
0.13404308 -0.31102923 0.022922516
-0.71074104 -0.28686342 0.030364871
0.10928914 -0.28638759 0.024745345
0.084507167 -0.26171803 0.026570559
0.034858916 -0.18786426 0.038049936
-0.75938576 -0.063117087 0.026053667
0.0099908188 0.011391267 0.03228271
0.0099908188 0.036259413 0.03228271
-0.75950456 0.060994811 0.026535988
0.0099908188 0.061127558 0.03228271
0.0099908188 0.085995704 0.03228271
0.0099908188 0.11086374 0.03228271
0.034858916 0.18575913 0.037009358
0.084492847 0.25950977 0.025640607
-0.71116799 0.28493389 0.032213688
0.10926689 0.28415513 0.023782253
0.13402352 0.30880824 0.022286654
0.15903924 0.33422813 0.02812171
0.18396457 0.35928729 0.030054212
0.20891975 0.3843765 0.031988859
0.23390596 0.40949813 0.033943295
0.2334466 0.43334562 0.026484251
0.2590389 0.45979205 0.037581444
0.25870532 0.48395973 0.032766938
0.25837156 0.50805259 0.027949214
0.25859997 0.53344578 0.031245828
0.25896803 0.55924642 0.036558509
0.23339146 0.58212078 0.02558887
0.23377389 0.60813236 0.031798601
0.25796258 0.60625559 0.022046208
0.2089971 0.63332224 0.03342402
0.25863826 0.63299692 0.03179884
0.18419617 0.65854079 0.035068631
0.23424651 0.65945637 0.039473295
0.15936998 0.68378526 0.036714435
0.084475353 0.70596159 0.024504542
-0.28787711 0.70647287 0.026794672
0.10962847 0.70929551 0.039438486
-0.23910508 0.73369777 0.03718257
-0.21307109 0.73031312 0.022527218
0.034858916 0.73177248 0.028846264
-0.1155279 -0.7654109 0.057792068
-0.090453297 -0.7653501 0.057528734
-0.065382749 -0.76528919 0.057265401
-0.040316243 -0.76522845 0.057002068
-0.015253805 -0.76516753 0.056738734
-0.26554692 -0.73945743 0.053810477
0.059807658 -0.73699033 0.042758465
0.084988937 -0.74036211 0.057862401
-0.31490231 -0.71299922 0.047201633
0.13498285 -0.71434438 0.053442597
-0.36405748 -0.68664819 0.040619612
0.18496236 -0.68894231 0.051657081
-0.41607291 -0.66482276 0.056142211
-0.48938546 -0.61261332 0.044743419
0.25983119 -0.61340284 0.049017191
-0.51450884 -0.58781588 0.045684457
0.25932527 -0.58711308 0.041714787
-0.53964686 -0.56300414 0.046625972
0.28521731 -0.56426537 0.054073215
-0.56479621 -0.53817505 0.047550797
0.28480259 -0.53835851 0.048685312
0.28439051 -0.5125401 0.043332934
0.28473669 -0.48824453 0.047829747
0.28511217 -0.46393251 0.052707076
0.25938672 -0.43758491 0.042601943
0.28548875 -0.43954739 0.057598948
0.25987235 -0.41350055 0.049611211
0.23488267 -0.38852131 0.049803376
0.20977432 -0.3633076 0.047847509
0.18469536 -0.3381224 0.045876265
0.15982537 -0.3133963 0.048545837
0.13500822 -0.28888729 0.054266095
0.11001422 -0.26399437 0.056142092
-0.73821998 -0.23791906 0.041367054
0.084990829 -0.23907039 0.057985306
0.05985678 -0.21345973 0.049139619
-0.7669965 -0.11370863 0.056949377
-0.76317513 -0.088292435 0.041436553
-0.76329076 0.086291976 0.041906118
-0.76711756 0.11183191 0.057440996
0.0098182186 0.13676743 0.054704189
0.059849247 0.2114362 0.048161507
-0.73865587 0.23604411 0.04319346
0.08497677 0.2371126 0.057072282
0.10999154 0.26200947 0.055160165
0.13497801 0.28688058 0.053285003
0.15989327 0.28660581 0.050310373
0.15979244 0.31135035 0.047690272
0.18467362 0.3360908 0.045405626
0.20974797 0.36128551 0.047358632
0.23485254 0.38651061 0.04931426
0.25984088 0.41148916 0.049157023
0.25937468 0.43555483 0.042428017
0.28547657 0.43763509 0.057440996
0.28510001 0.46198136 0.052549601
0.28472462 0.48625463 0.047672868
0.28440392 0.51056767 0.04350698
-0.56509614 0.5364821 0.049174428
0.28481603 0.53642875 0.048860192
-0.53993112 0.56131315 0.048231483
0.28522947 0.56237531 0.054231048
-0.51478058 0.5861299 0.047288895
0.25933734 0.5851323 0.041888833
-0.48964474 0.61093217 0.046347022
0.23431925 0.63476938 0.04065454
0.20991834 0.6617524 0.050520182
-0.36425024 0.68496406 0.042184472
0.18498661 0.68711913 0.052182198
0.21025722 0.68811631 0.056809068
0.2349699 0.6869117 0.051219702
-0.31507349 0.7113831 0.048790336
0.13501631 0.71266431 0.054528952
-0.26569423 0.7379061 0.055405498
0.059815966 0.73523474 0.043837905
-0.14097174 -0.76703668 0.064832211
0.0097561292 -0.76656044 0.062769771
0.11040561 -0.74376148 0.073089957
0.16059904 -0.71762151 0.06864655
0.23587124 -0.66676682 0.065855503
-0.46896049 -0.64325106 0.074225187
0.26116788 -0.64211279 0.068310618
0.28650397 -0.61742496 0.070787191
0.2856321 -0.5902552 0.059461355
0.31176594 -0.56729084 0.071938157
0.31130615 -0.54123968 0.066508651
-0.59186435 -0.51485538 0.058371902
0.31084645 -0.51527226 0.061079741
0.31100002 -0.49044776 0.062893152
0.31141683 -0.46602604 0.067815661
0.31183496 -0.44153067 0.07275331
-0.66833436 -0.41530153 0.064232588
0.28586644 -0.41508877 0.062505484
0.26085359 -0.39013451 0.063774228
-0.69595647 -0.36628425 0.075467229
0.23582776 -0.36517221 0.065149665
0.21060976 -0.33987114 0.063351154
0.18568422 -0.31512734 0.067285657
0.0097901169 -0.13882078 0.058354259
0.16046037 0.26284644 0.065043807
0.18564343 0.31322306 0.066402793
0.21058317 0.33797175 0.062857866
0.23579955 0.36328676 0.064691186
0.26082185 0.38823512 0.063315988
-0.66872221 0.41369763 0.066032052
0.28585291 0.4132129 0.062329412
0.31181994 0.43973204 0.072576046
0.31140339 0.4641909 0.067656755
-0.6174435 0.48829421 0.060921311
0.31098658 0.48857358 0.062734604
-0.5928396 0.51379001 0.063439488
0.31086135 0.51343703 0.061255693
0.31131962 0.53944451 0.066667676
0.31177944 0.56553888 0.07209754
0.28564429 0.58840823 0.059619665
0.28655028 0.61575162 0.071389198
-0.41654015 0.66362172 0.059514046
0.16064124 0.71606064 0.069743037
0.085005701 0.73872513 0.058951735
0.11043142 0.74224806 0.074207187
-0.14112394 0.76587582 0.067656875
-0.11559445 0.76386571 0.05923295
-0.090509415 0.76380676 0.058986783
-0.065427631 0.76374394 0.05872333
-0.040349912 0.76368111 0.05845952
-0.01527597 0.76361394 0.058178663
0.0097393021 0.76523125 0.064955831
-0.16701575 -0.7705068 0.079858184
0.034858916 -0.76998907 0.077616692
0.060191471 -0.77345353 0.092617512
-0.29281908 -0.74445081 0.076177478
0.1360617 -0.74719691 0.088478565
-0.34403262 -0.72074103 0.083119154
0.18645591 -0.72092944 0.083993196
0.23707289 -0.69594902 0.085368037
0.26252177 -0.67116946 0.087852478
0.2880092 -0.64635253 0.090340614
0.31353828 -0.62150455 0.092868805
0.31222722 -0.59342873 0.077385783
0.33860946 -0.57035285 0.090018272
0.33810073 -0.54414988 0.084510803
0.33759528 -0.51803738 0.079039574
-0.62345731 -0.49455407 0.090968013
0.33750656 -0.4926689 0.078078985
0.36426294 -0.4949134 0.093425035
0.33796555 -0.4681367 0.083047628
0.3384259 -0.44352996 0.088031411
0.31225279 -0.41695881 0.077687979
0.33888769 -0.41884851 0.093030334
0.2869572 -0.39162424 0.076674938
0.3132681 -0.39312565 0.089678049
0.26184341 -0.36656386 0.078061342
0.28806573 -0.36796635 0.09107542
0.23670836 -0.3414821 0.079448819
0.26284197 -0.34278557 0.092473984
-0.72376943 -0.31692818 0.086779594
0.21184331 -0.31687862 0.086243391
0.16092037 -0.29081193 0.076994658
0.13599287 -0.26631165 0.086243391
0.11075315 -0.24115951 0.0881387
0.11073042 0.23942836 0.087154984
0.16106828 0.23894201 0.080837488
0.13596205 0.26455685 0.085243106
-0.72418255 0.31544113 0.088568211
0.21179518 0.31511912 0.085350156
0.23668098 0.3397119 0.079004049
0.26281092 0.34111533 0.092025518
-0.69636494 0.36474246 0.077296853
0.26181266 0.36477932 0.077616811
0.28803128 0.36628172 0.090627551
0.28692302 0.38982591 0.076230764
0.31323019 0.39142677 0.089230537
0.31223926 0.41520205 0.077528
0.33887276 0.41720957 0.092868567
0.33841103 0.44185147 0.087870479
0.33795071 0.46641856 0.082887292
0.33749342 0.49091402 0.077936769
0.36424676 0.49327388 0.093263388
0.3376101 0.51633769 0.079199672
0.33811554 0.54249364 0.084671617
0.33862272 0.56873709 0.090161562
0.31224075 0.59171993 0.077545881
0.31358844 0.61999935 0.093460798
-0.46948269 0.64216721 0.07761693
0.28805748 0.64483953 0.090967894
0.26256517 0.66964185 0.088478684
-0.34442845 0.71981215 0.086547256
0.18650703 0.71948904 0.085100055
-0.29298091 0.74307668 0.077794671
0.13609642 0.74580455 0.089606404
-0.1671913 0.76946777 0.082708836
0.034858916 0.76878327 0.079840541
-0.067042381 -0.80321181 0.1111635
-0.041399408 -0.80147946 0.10390425
-0.21983287 -0.77755219 0.11036539
-0.19330199 -0.77401316 0.095041156
0.085757382 -0.77695376 0.1077745
0.16196029 -0.75066477 0.10401273
-0.39696687 -0.69931769 0.10157573
0.28953394 -0.67563188 0.11014795
0.33911827 -0.59664059 0.095526338
0.36574969 -0.57344574 0.10828125
0.36519417 -0.5470953 0.10273063
0.36463878 -0.52083039 0.097180486
0.39153296 -0.49753439 0.11134493
0.3647522 -0.4702521 0.098314166
0.36520684 -0.44547024 0.10285699
0.36566451 -0.42062208 0.10743034
0.33973876 -0.39457664 0.10224342
0.31449723 -0.36938009 0.10419333
0.28918409 -0.34409949 0.1056031
0.23791897 -0.3180669 0.099106669
0.26405388 -0.31907001 0.10996652
0.18701433 -0.29242831 0.096083522
0.16203474 -0.26782835 0.10594678
0.085659444 -0.2166789 0.10141361
0.034858916 -0.16618718 0.1081003
0.034858916 0.16455381 0.10565758
0.06032921 0.19028556 0.11051071
0.085630581 0.21499582 0.099538803
0.13643777 0.2150756 0.10069215
0.1617465 0.21492082 0.09845829
0.18697283 0.2907511 0.095184922
0.23787129 0.31641841 0.098332286
0.26399991 0.31750479 0.10918713
0.28914928 0.34252965 0.10515118
0.314459 0.36779609 0.10374177
0.33970377 0.39298308 0.10186458
0.36610892 0.39421546 0.11187124
0.36565 0.41909626 0.10728562
0.36519238 0.44390807 0.10271263
0.36473781 0.46865386 0.09817028
0.39155057 0.49608281 0.11150837
0.36465678 0.51927352 0.097360373
0.36521044 0.54557967 0.10289299
0.36576599 0.57197404 0.10844445
0.33916146 0.59512806 0.095993638
0.28958282 0.67427766 0.11078238
-0.39742056 0.69851291 0.10504282
0.21261998 0.7229619 0.10065615
0.1620041 0.74939424 0.10515118
-0.19350134 0.77309746 0.097918153
0.060208745 0.77236795 0.094861507
0.085791968 0.77598554 0.11002111
-0.04145075 0.800493 0.10612762
-0.093112633 -0.80690044 0.12662029
-0.016214367 -0.80511278 0.11912906
0.11155947 -0.78048223 0.12305307
-0.32375175 -0.75631315 0.1293143
0.18810487 -0.75416559 0.11969423
0.23978607 -0.73072183 0.12942445
0.26432049 -0.7018615 0.11381435
-0.45048931 -0.67763758 0.12016857
0.31521502 -0.65064991 0.11267006
0.34094033 -0.62563968 0.11525071
0.36670578 -0.60059053 0.11783528
0.39327598 -0.57670355 0.12751782
0.39269242 -0.55022705 0.1221031
0.39211276 -0.52383929 0.11672437
-0.65568155 -0.47383711 0.12418652
0.39164057 -0.47219604 0.11234307
0.41876087 -0.47415918 0.12651038
0.39213628 -0.44731358 0.116943
0.39263338 -0.42236194 0.12155545
0.36612162 -0.39570296 0.11199844
0.39312989 -0.39733848 0.12616241
0.3409 -0.3705247 0.11481416
0.3673377 -0.37153083 0.1241498
0.31567863 -0.34535462 0.11814511
0.34207013 -0.34628892 0.1274811
0.29036012 -0.32007822 0.12088013
0.21329279 -0.29387289 0.11314225
0.23945785 -0.29480043 0.1240952
0.18836726 -0.269324 0.12537539
0.13702345 -0.24334699 0.11971259
0.060348071 -0.19190088 0.1129607
0.13697518 0.24181391 0.11814511
0.18832587 0.26787934 0.12447917
0.2132517 0.29233947 0.11237943
0.23940945 0.29334921 0.12330914
0.29029971 0.31859627 0.12009561
0.31564468 0.34388697 0.11774409
0.34203458 0.3448948 0.12709641
0.34086475 0.36903048 0.11443245
0.36729929 0.37010828 0.12376606
0.39311409 0.39595768 0.12601602
0.39261568 0.42094216 0.12139118
0.39212057 0.44585967 0.11679721
0.3916249 0.47070572 0.112198
0.41875663 0.47279364 0.12647378
0.39212844 0.52242738 0.11687016
0.39271012 0.54886097 0.12226772
0.39329374 0.57538038 0.12768269
0.36676228 0.59926802 0.1184001
0.34099579 0.62430829 0.11585104
0.31526884 0.64931041 0.11330581
-0.45099941 0.67695343 0.12365627
0.26441747 0.70070529 0.11521435
0.18815795 0.75301832 0.12084353
-0.22005641 0.77676064 0.11326945
0.11161225 0.77964103 0.12533903
-0.093225509 0.80626351 0.12955296
-0.067131832 0.80244911 0.11406898
-0.016249195 0.80425292 0.12139118
-0.11942841 -0.81062788 0.14224052
0.0092039891 -0.8087796 0.1344949
0.13760115 -0.78404355 0.13847387
0.21501732 -0.75984722 0.14514518
0.29215962 -0.70818883 0.14425659
0.31691518 -0.68015528 0.13274777
0.34279454 -0.65500945 0.13532305
0.36871764 -0.62983131 0.1379391
0.39503005 -0.60518658 0.14379406
0.42062202 -0.55354518 0.14262879
0.41999114 -0.52698642 0.13716495
0.41936228 -0.50051439 0.13171875
0.44686401 -0.47698256 0.14688671
0.41929656 -0.44917277 0.13114965
0.44668829 -0.45104545 0.14545989
0.4198316 -0.42411432 0.13578331
0.42036813 -0.39898595 0.14042997
0.42090619 -0.37378749 0.14508963
0.39392284 -0.37254068 0.13351977
0.3686125 -0.34723043 0.13688862
0.39530346 -0.34817532 0.14633083
0.31675339 -0.3209981 0.13083744
0.34324926 -0.32186708 0.14024544
0.26579532 -0.29573235 0.13510203
0.29208985 -0.29643077 0.14335012
0.21465085 -0.27032238 0.13834476
0.16340892 -0.24486685 0.14164913
0.11211415 -0.21949075 0.1470722
0.11206667 0.21814646 0.1450156
0.21460813 0.26898631 0.1375519
0.2657418 0.29436696 0.13432944
0.29204285 0.29514399 0.14273989
0.31817678 0.29559729 0.14764702
0.31671923 0.31963083 0.13043368
0.34321344 0.32057384 0.13985765
0.36857378 0.34590843 0.13650167
0.39526153 0.34692588 0.1459415
0.39388123 0.37118995 0.13313389
0.42089123 0.37255549 0.14496005
0.42035109 0.39771488 0.14028227
0.41981459 0.42280638 0.13563609
0.41927746 0.44782549 0.13098454
0.44666776 0.44980827 0.14529335
0.44688231 0.47580114 0.147035
0.41938138 0.49921998 0.13188422
0.4200103 0.52573502 0.13733077
0.42063913 0.55233425 0.14277661
0.39509591 0.60407227 0.14440465
0.36877668 0.62867278 0.13852906
0.34285235 0.65384233 0.13594902
0.31696966 0.67897695 0.13339138
0.29226655 0.70726442 0.14564526
0.23987195 0.7296955 0.1308192
-0.32413167 0.75578868 0.1328398
0.21509519 0.75896418 0.14659011
0.13767219 0.78332609 0.14078093
-0.11956428 0.81011361 0.14518225
0.0091864131 0.8080433 0.13677788
-0.14599162 -0.81438625 0.15798974
0.034858916 -0.81248498 0.15002227
0.060753878 -0.81622058 0.16567636
-0.24978423 -0.78977627 0.16329741
0.1638865 -0.78764242 0.15405715
-0.37731978 -0.73478955 0.14829612
0.2675311 -0.73734576 0.16015553
0.34499875 -0.6854465 0.15918434
0.37075219 -0.65942544 0.15826952
0.39734393 -0.63487959 0.16526389
-0.55949968 -0.60783541 0.15875483
0.4218514 -0.58106571 0.15327525
0.44889683 -0.55690145 0.16339087
0.44821545 -0.53017259 0.15785897
0.44753635 -0.50353116 0.1523453
0.47461501 -0.45323288 0.16217458
0.47487465 -0.42760921 0.1641587
0.44726622 -0.42588407 0.15015221
0.44784349 -0.40064985 0.15483904
