ply
format ascii 1.0
comment PCL generated
element vertex 1331
property float x
property float y
property float z
element camera 0
property float view_px
property float view_py
property float view_pz
property float x_axisx
property float x_axisy
property float x_axisz
property float y_axisx
property float y_axisy
property float y_axisz
property float z_axisx
property float z_axisy
property float z_axisz
property float focal
property float scalex
property float scaley
property float centerx
property float centery
property int viewportx
property int viewporty
property float k1
property float k2
end_header
-0.47698748 0.19083036 -0.33872151
-0.45471132 0.19094941 -0.33700466
-0.43245113 0.19108553 -0.33503795
-0.50029045 0.21369962 -0.33496499
-0.47718364 0.21349224 -0.33765948
-0.45489699 0.21362342 -0.3359561
-0.43261164 0.21376705 -0.33409011
-0.50073123 0.2365026 -0.33267438
-0.47737724 0.2361692 -0.33661139
-0.45508534 0.23631483 -0.33489215
-0.43282914 0.23649146 -0.33280587
-0.50164598 0.25956833 -0.32792151
-0.47804797 0.25910091 -0.33298111
-0.45604998 0.25942761 -0.32944417
-0.4358716 -0.26279324 -0.31484139
-0.41305268 -0.26276451 -0.31518102
-0.39113009 -0.26322573 -0.30973375
-0.45842618 -0.23993836 -0.31602323
-0.43419772 -0.23926853 -0.32472467
-0.41207063 -0.23953557 -0.32125604
-0.38980514 -0.23976006 -0.31833971
-0.36679012 -0.23961364 -0.3202405
-0.34540039 -0.24035411 -0.31062341
-0.50468421 -0.21745296 -0.31213427
-0.48096281 -0.21710172 -0.317204
-0.45667768 -0.21649934 -0.32589865
-0.34428215 -0.21699847 -0.31869364
-0.52735639 -0.1946336 -0.31269681
-0.50347865 -0.19428237 -0.31839883
-0.47913975 -0.19374831 -0.32707167
-0.34343827 -0.1938892 -0.32478344
-0.55057698 -0.1719673 -0.31057894
-0.52587306 -0.17145383 -0.32010794
-0.34318829 -0.17110464 -0.32658792
-0.55005378 -0.14905432 -0.31309628
-0.52525479 -0.14858784 -0.32319713
-0.54964811 -0.12620181 -0.31504822
-0.52486968 -0.12581423 -0.32512093
-0.34315979 -0.12574975 -0.32679319
-0.54923987 -0.10337907 -0.31701207
-0.52448517 -0.10307027 -0.32704222
-0.34403718 -0.10327286 -0.32046127
-0.54883224 -0.080586553 -0.31897366
-0.34434342 -0.080603264 -0.31825137
-0.57339287 -0.05798506 -0.31048989
-0.54842508 -0.057824299 -0.32093251
-0.34453559 -0.057886943 -0.31686461
-0.5729906 -0.035173304 -0.31235635
-0.54801846 -0.03509216 -0.32288861
-0.36603123 -0.035072662 -0.3254292
-0.34472787 -0.035149232 -0.31547678
-0.54761243 -0.012390293 -0.3248421
-0.3662352 -0.012390293 -0.32403457
-0.3449204 -0.012390346 -0.31408739
-0.57259202 -0.012390241 -0.31420565
-0.5721907 0.01036418 -0.31606746
-0.54721916 0.010282092 -0.32673454
-0.3664372 0.010313414 -0.32265329
-0.34511304 0.010390036 -0.31269681
-0.57178992 0.03309001 -0.31792688
-0.36663944 0.033038512 -0.32127082
-0.34541476 0.033204105 -0.3105197
-0.57176131 0.055827089 -0.31805956
-0.36692798 0.055798553 -0.31929779
-0.34536338 0.055992685 -0.3108902
-0.57221299 0.078630805 -0.31596398
-0.54726785 0.078306347 -0.32650006
-0.36722773 0.078591235 -0.31724834
-0.34547019 0.078810744 -0.31011927
-0.57270676 0.10147414 -0.31367338
-0.54770094 0.10106071 -0.32441628
-0.38875431 0.10103197 -0.32516503
-0.36753011 0.10141618 -0.31518126
-0.57332581 0.12437981 -0.31080127
-0.54813766 0.12384804 -0.32231522
-0.38906854 0.12381062 -0.32312369
-0.3678329 0.12427303 -0.31311107
-0.54861176 0.14667729 -0.32003438
-0.38938552 0.14662173 -0.32106483
-0.3681317 0.14716031 -0.31106782
-0.54920614 0.16957733 -0.31717467
-0.38970071 0.16946378 -0.31901789
-0.36824447 0.17000076 -0.31029725
-0.54980171 0.19252174 -0.31430924
-0.52462012 0.19168632 -0.32636786
-0.41115183 0.19164667 -0.32693982
-0.39001858 0.19233859 -0.31695318
-0.36835939 0.19285412 -0.3095113
-0.55039841 0.2155107 -0.31143832
-0.52519006 0.21458067 -0.32352042
-0.41148144 0.21447435 -0.32490075
-0.39033461 0.21524431 -0.3149004
-0.52576113 0.23751929 -0.32066751
-0.41177344 0.23731396 -0.32309425
-0.39058048 0.23814292 -0.31330335
-0.5263775 0.26052284 -0.31758773
-0.43399888 0.25975519 -0.32589865
-0.41200399 0.26014608 -0.32166815
-0.39080155 0.26105118 -0.31186771
-0.50417179 0.28354502 -0.31479692
-0.47949475 0.28250879 -0.32515049
-0.45733297 0.28280437 -0.32219756
-0.43522912 0.28316098 -0.31863451
-0.41223484 0.28300011 -0.3202405
-0.39102054 0.28398049 -0.31044543
-0.48192412 0.30661047 -0.31200111
-0.45862502 0.30629808 -0.31490028
-0.43646795 0.30668396 -0.31131983
-0.41325581 0.30640322 -0.31392479
-0.4397279 -0.33353907 -0.29207051
-0.41649294 -0.33334184 -0.29390049
-0.48537904 -0.31047672 -0.29330075
-0.46208054 -0.31026828 -0.29538357
-0.43886018 -0.31008708 -0.29719412
-0.41502416 -0.30950743 -0.30298579
-0.39301461 -0.31005704 -0.29749334
-0.37092566 -0.31061035 -0.2919656
-0.48438352 -0.28704923 -0.29868901
-0.46117538 -0.2868824 -0.30049586
-0.43755662 -0.28647625 -0.30489147
-0.41403639 -0.28608787 -0.3090961
-0.39207041 -0.28659308 -0.3036263
-0.37002313 -0.28710026 -0.29813623
-0.3476553 -0.28745002 -0.29435003
-0.50714815 -0.26410657 -0.29933131
-0.48344386 -0.26373029 -0.30377507
-0.46018648 -0.26353502 -0.3060813
-0.36842448 -0.26328218 -0.3090663
-0.34652472 -0.26383752 -0.30250907
-0.53034842 -0.2413453 -0.29774749
-0.50571758 -0.24065112 -0.30676484
-0.48250467 -0.2404899 -0.30885863
-0.32440251 -0.241412 -0.29688001
-0.55368859 -0.21859792 -0.29560804
-0.52885014 -0.21793103 -0.30523372
-0.32405049 -0.21832344 -0.29957032
-0.57705915 -0.19581705 -0.29348052
-0.5521273 -0.19522344 -0.30311978
-0.32381028 -0.19532901 -0.30140567
-0.57546026 -0.17248893 -0.30089855
-0.32357037 -0.1723628 -0.30323899
-0.57503283 -0.14952609 -0.30288136
-0.3232373 -0.14939213 -0.30578375
-0.57460928 -0.12659454 -0.30484676
-0.32370293 -0.12669533 -0.30222583
-0.60012478 -0.10412253 -0.29286587
-0.57419902 -0.10369497 -0.30675018
-0.32417554 -0.10394559 -0.29861438
-0.59956938 -0.081132099 -0.29535353
-0.57379568 -0.080825664 -0.30862117
-0.32464933 -0.081140354 -0.29499412
-0.59901828 -0.058180135 -0.29782212
-0.59846473 -0.035266165 -0.30030167
-0.59791213 -0.012390293 -0.30277729
-0.59736043 0.010447528 -0.3052485
-0.59692568 0.033255238 -0.30719566
-0.59690577 0.056075931 -0.30728495
-0.32487488 0.056399651 -0.29327071
-0.59792542 0.079038613 -0.30271757
-0.32456505 0.079256549 -0.29563808
-0.59896153 0.10207451 -0.29807627
-0.34557909 0.10164126 -0.30933356
-0.32425767 0.10207798 -0.29798675
-0.60000426 0.12518319 -0.29340565
-0.34568805 0.12448387 -0.30854702
-0.32394892 0.12486261 -0.30034661
-0.57394612 0.14732988 -0.30792356
-0.34579712 0.14733861 -0.30776012
-0.32364249 0.14761195 -0.30268764
-0.57472473 0.17036952 -0.30431104
-0.3459062 0.17020559 -0.3069731
-0.32351577 0.17040987 -0.30365598
-0.57572728 0.19353664 -0.29965997
-0.34601325 0.19308347 -0.30620003
-0.32361907 0.19331449 -0.30286646
-0.30198556 0.19400214 -0.29294086
-0.57676518 0.2167881 -0.29484427
-0.36847657 0.2157207 -0.30871022
-0.34612864 0.215978 -0.30536747
-0.3237322 0.21623713 -0.30200207
-0.30185628 0.21685378 -0.29399025
-0.55099624 0.23854427 -0.30856168
-0.36860681 0.2386073 -0.3078196
-0.34625441 0.2388918 -0.30445981
-0.32385123 0.23917691 -0.30109262
-0.30178428 0.23972882 -0.29457486
-0.55159837 0.26162428 -0.30566502
-0.3689307 0.26162976 -0.30560541
-0.34638023 0.26181948 -0.30355191
-0.32396841 0.26212925 -0.30019736
-0.30182308 0.26267785 -0.29426003
-0.52902287 0.28458834 -0.3043704
-0.36932474 0.28473449 -0.30291116
-0.34650409 0.28475982 -0.30265808
-0.32408762 0.28509724 -0.2992866
-0.30186182 0.2856316 -0.29394519
-0.50672024 0.30773628 -0.30155504
-0.39124197 0.30693316 -0.30900705
-0.36971951 0.307881 -0.30021226
-0.34683055 0.30787134 -0.30030167
-0.32420683 0.30807894 -0.29837537
-0.30189872 0.30858868 -0.2936455
-0.48437244 0.33092648 -0.29874873
-0.45992339 0.32990819 -0.30756712
-0.4377104 0.33032209 -0.30398369
-0.41458386 0.33012271 -0.30570948
-0.39146364 0.32990819 -0.30756712
-0.37008876 0.33104914 -0.29768777
-0.34720314 0.33105761 -0.29761302
-0.32432622 0.33107483 -0.29746342
-0.30193752 0.33155215 -0.29333079
-0.46198511 0.3541624 -0.29592252
-0.43896151 0.35407943 -0.29659593
-0.4159193 0.3539744 -0.2974484
-0.39226997 0.35337317 -0.30233014
-0.37030095 0.35412359 -0.29623675
-0.34757847 0.35428792 -0.29490447
-0.32464933 0.35427672 -0.29499424
-0.30197632 0.35452032 -0.29301572
-0.39354473 0.37731707 -0.29405034
-0.37051117 0.37721884 -0.29479945
-0.34795451 0.37756026 -0.29219055
-0.3250044 0.37754846 -0.29228079
-0.30206871 0.37755048 -0.29226565
-0.46556318 -0.38143206 -0.27571344
-0.44214118 -0.38117254 -0.27782094
-0.41902125 -0.38111842 -0.27826023
-0.39591044 -0.3810662 -0.27868438
-0.37331384 -0.38144135 -0.27563775
-0.48816055 -0.35807467 -0.27824521
-0.46390021 -0.3572824 -0.28510606
-0.44063431 -0.35709625 -0.28671837
-0.41758335 -0.35704571 -0.28715515
-0.39478719 -0.35718137 -0.28598034
-0.37254733 -0.35777062 -0.28087842
-0.35023129 -0.35836178 -0.27575898
-0.51148909 -0.33518732 -0.27677524
-0.48676771 -0.33421642 -0.28578436
-0.46298879 -0.33373481 -0.29025364
-0.39396507 -0.33361989 -0.29132009
-0.37178123 -0.33418071 -0.28611588
-0.3495031 -0.33473051 -0.28101444
-0.53489518 -0.31230503 -0.27503061
-0.32732946 -0.31235665 -0.27451432
-0.51003385 -0.31137377 -0.28433692
-0.34879208 -0.31119269 -0.28614604
-0.53337395 -0.28853267 -0.28263128
-0.50858879 -0.2876814 -0.29184568
-0.32655203 -0.2887336 -0.28045511
-0.55683184 -0.26570249 -0.28048515
-0.53185737 -0.26487917 -0.29020846
-0.32547432 -0.26500773 -0.28869021
-0.55525786 -0.24209106 -0.28805828
-0.30424011 -0.24312435 -0.27463579
-0.57911134 -0.21940491 -0.28395975
-0.30387396 -0.21984498 -0.27760899
-0.60403514 -0.19693354 -0.27534938
-0.30351037 -0.19661267 -0.28056061
-0.60179645 -0.17332536 -0.28537738
-0.30333161 -0.17350668 -0.28201199
-0.60123831 -0.15021908 -0.2878778
-0.30409992 -0.15077808 -0.27577412
-0.60068107 -0.12715155 -0.2903738
-0.62712759 -0.081596404 -0.27524316
-0.62656027 -0.058489881 -0.27769983
-0.32512623 -0.058279671 -0.29135013
-0.62599736 -0.035421301 -0.28013754
-0.32560229 -0.035363071 -0.2877121
-0.62543535 -0.012390293 -0.28257084
-0.32558656 -0.012390346 -0.2878325
-0.62487423 0.010603296 -0.28500044
-0.32538575 0.010569714 -0.28936684
-0.62431055 0.03355936 -0.28744113
-0.32518321 0.033505861 -0.29091465
-0.62438709 0.05654186 -0.28710985
-0.62547368 0.079664148 -0.28240478
-0.30404389 0.079854339 -0.27622938
-0.62656027 0.10285892 -0.27769983
-0.30362588 0.10278476 -0.27962291
-0.30321074 0.1256642 -0.28299379
-0.6010502 0.1483646 -0.28872025
-0.30279648 0.14849199 -0.28635693
-0.28116149 0.14912115 -0.27468145
-0.6021871 0.17164318 -0.28362763
-0.30238318 0.17126854 -0.28971267
-0.28077096 0.17198588 -0.2780633
-0.60338873 0.19502029 -0.27824509
-0.28050178 0.19487135 -0.28039432
-0.28037959 0.21781908 -0.28145266
-0.57791668 0.24015839 -0.28950214
-0.2802574 0.24075051 -0.2825104
-0.5790723 0.26361257 -0.28414083
-0.28013539 0.26366562 -0.28356731
-0.55482656 0.28601313 -0.29013348
-0.28005004 0.28659624 -0.28430688
-0.53165895 0.30885231 -0.29119992
-0.28008664 0.3096292 -0.28398979
-0.53479803 0.33360922 -0.27551615
-0.50927424 0.3321349 -0.28828406
-0.28012323 0.33266741 -0.28367281
-0.51181316 0.35672826 -0.27509141
-0.48684567 0.35546309 -0.28536224
-0.28015804 0.3557083 -0.28337121
-0.46435708 0.37882519 -0.28252554
-0.44021893 0.37795544 -0.28917158
-0.41725981 0.37795752 -0.28915644
-0.28056294 0.37917346 -0.27986491
-0.44182831 0.40223378 -0.27966833
-0.41861022 0.40207672 -0.28080285
-0.39482659 0.40139461 -0.28572404
-0.3711189 0.40071279 -0.29064429
-0.34833115 0.40087533 -0.2894721
-0.32565153 0.40117127 -0.28733599
-0.30346936 0.40206403 -0.28089345
-0.39611572 0.42560726 -0.27735126
-0.37260479 0.42514902 -0.28048515
-0.34979659 0.4253813 -0.27889621
-0.42192292 -0.42969662 -0.26031053
-0.39867324 -0.42963719 -0.26073968
-0.37542784 -0.42957556 -0.26118398
-0.35242712 -0.42975175 -0.25991201
-0.46797842 -0.40628242 -0.26207221
-0.44365698 -0.40539277 -0.26887023
-0.42046773 -0.40533495 -0.26931226
-0.39728773 -0.40527904 -0.26973879
-0.37411201 -0.40522134 -0.27018058
-0.35169333 -0.40587193 -0.26520789
-0.32922435 -0.40654892 -0.26003468
-0.5145427 -0.3832556 -0.26090837
-0.32853132 -0.38271093 -0.26532996
-0.30621994 -0.38354456 -0.25856209
-0.48999399 -0.38234258 -0.26832151
-0.3509621 -0.38207603 -0.27048528
-0.53844029 -0.36049104 -0.25731862
-0.51294881 -0.35912019 -0.26919031
-0.32783878 -0.35895485 -0.27062225
-0.30599511 -0.36013663 -0.2603873
-0.53642726 -0.33620048 -0.26737583
-0.32756805 -0.33562756 -0.27269113
-0.30576867 -0.33675551 -0.26222539
-0.56115896 -0.31384259 -0.25966656
-0.30554259 -0.31340283 -0.26406145
-0.55886608 -0.289635 -0.27069819
-0.30525088 -0.29002923 -0.26642966
-0.58383888 -0.2672655 -0.26202643
-0.30455643 -0.26641518 -0.27206767
-0.58146811 -0.24324824 -0.27302563
-0.60648686 -0.2207624 -0.26436722
-0.283099 -0.2212103 -0.25790203
-0.62943453 -0.17440966 -0.26525378
-0.62884933 -0.15114705 -0.26778769
-0.62826508 -0.12792355 -0.27031755
-0.30487144 -0.1279546 -0.26951015
-0.6276924 -0.10474051 -0.27279747
-0.30541831 -0.10497841 -0.26507044
-0.30564427 -0.081873834 -0.26323557
-0.30545217 -0.058688637 -0.2647953
-0.3052603 -0.035527457 -0.26635337
-0.6541478 -0.012390293 -0.25868487
-0.30506855 -0.012390241 -0.26790977
-0.6532371 0.010776563 -0.262501
-0.30487704 0.010722905 -0.26946461
-0.65232873 0.033884767 -0.26630735
-0.30467641 0.033811089 -0.27109385
-0.65256202 0.057044894 -0.26533008
-0.30438232 0.056856655 -0.27348161
-0.28300506 0.080393583 -0.25871551
-0.28205615 0.10327318 -0.26693332
-0.62780476 0.12615752 -0.27231109
-0.28155285 0.12620461 -0.27129185
-0.62905723 0.14954109 -0.26688755
-0.63081336 0.1731424 -0.25928319
-0.25994474 0.17325491 -0.25745654
-0.25915056 0.19595002 -0.26482582
-0.60459465 0.21848182 -0.27284312
-0.25891191 0.21892852 -0.26704001
-0.60580498 0.2420281 -0.26742148
-0.25867361 0.24187325 -0.26925123
-0.6070196 0.26565963 -0.26198065
-0.2584914 0.26483184 -0.27094162
-0.58231777 0.28811955 -0.26908362
-0.25837666 0.28782719 -0.27200687
-0.55853081 0.31088793 -0.27231097
-0.25826359 0.3108077 -0.27305603
-0.25816536 0.33378792 -0.27396762
-0.25831765 0.35704064 -0.27255428
-0.53840029 0.3588925 -0.25751817
-0.51456922 0.3816722 -0.26077032
-0.48928785 0.38018382 -0.27214384
-0.25918019 0.38117737 -0.26455069
-0.49175173 0.40512431 -0.25880754
-0.46671814 0.40368563 -0.26919043
-0.28152823 0.4033649 -0.27150476
-0.44410396 0.42723376 -0.26623118
-0.41996825 0.42633122 -0.27240229
-0.32762575 0.42635339 -0.27225018
-0.30533737 0.42730755 -0.26572704
-0.2829501 0.42826355 -0.25919116
-0.42193532 0.4512952 -0.26023388
-0.39863074 0.45117486 -0.26101565
-0.37534493 0.45106161 -0.2617507
-0.35207051 0.45094854 -0.26248562
-0.32942307 0.45155972 -0.25851595
-0.40146929 -0.47879392 -0.24257863
-0.37808335 -0.47872478 -0.2430284
-0.35470647 -0.4786579 -0.24346256
-0.33133429 -0.47858864 -0.24391198
-0.44821477 -0.4555645 -0.24195814
-0.42367381 -0.45446438 -0.24948013
-0.40006709 -0.45414168 -0.25168645
-0.3767516 -0.45407635 -0.25213349
-0.35344517 -0.45401317 -0.25256491
-0.33061969 -0.45448011 -0.24937212
-0.30799574 -0.45524466 -0.24414444
-0.49508548 -0.43240517 -0.24076283
-0.47041845 -0.43136197 -0.24829102
-0.44587362 -0.43032414 -0.25578177
-0.32992178 -0.43047333 -0.25470519
-0.30733657 -0.4311952 -0.24949574
-0.28467327 -0.43191946 -0.2442683
-0.51773614 -0.40860617 -0.24431479
-0.49252671 -0.40725851 -0.2546128
-0.30667794 -0.40722835 -0.25484359
-0.28445697 -0.40836704 -0.24614167
-0.54066485 -0.38506669 -0.24620366
-0.28424448 -0.3848477 -0.24798203
-0.28403044 -0.36135513 -0.24983537
-0.261913 -0.36258388 -0.23919368
-0.56346548 -0.33822721 -0.24856901
-0.2838167 -0.33789128 -0.25168645
-0.26193142 -0.33925611 -0.23902273
-0.58863646 -0.31583387 -0.23976874
-0.28360498 -0.31445777 -0.25352001
-0.58623052 -0.29146093 -0.25093091
-0.28382206 -0.29139537 -0.25164032
-0.61144793 -0.26894909 -0.24214423
-0.28379357 -0.26812416 -0.25188684
-0.60895997 -0.24476762 -0.25328898
-0.28344679 -0.24464436 -0.25488973
-0.63165396 -0.1981471 -0.25564349
-0.28338641 -0.19816132 -0.25541282
-0.28411961 -0.1752822 -0.24906349
-0.28479493 -0.15228204 -0.24321437
-0.65873235 -0.12911066 -0.23947358
-0.65781003 -0.10564756 -0.24333847
-0.65689003 -0.082244277 -0.24719346
-0.65597242 -0.058900371 -0.25103879
-0.2852664 -0.059083674 -0.23913157
-0.65506077 -0.035615955 -0.25485897
-0.28512108 -0.035727262 -0.2403903
-0.28504038 -0.012390241 -0.24108911
-0.28507268 0.010943575 -0.24080944
-0.28491676 0.034256577 -0.24215984
-0.28395915 0.05738838 -0.25045264
-0.65477455 0.08047536 -0.25605857
-0.65699708 0.10405034 -0.24674511
-0.2616753 0.12758528 -0.24139941
-0.26080769 0.15048079 -0.24944937
-0.63295966 0.1969779 -0.24998963
-0.63514781 0.22097051 -0.24051452
-0.23848744 0.24435137 -0.23998618
-0.23800312 0.26724434 -0.24482584
-0.61175287 0.29095221 -0.24077833
-0.23777856 0.29032266 -0.24706984
-0.58616734 0.31316066 -0.25122404
-0.23755433 0.31336683 -0.24931049
-0.56228292 0.33606368 -0.25425875
-0.23731656 0.33636087 -0.25168645
-0.23695596 0.35916698 -0.25528967
-0.54199326 0.38444704 -0.23956668
-0.23757596 0.38320005 -0.24909425
-0.51807022 0.40737301 -0.24257851
-0.26004577 0.40544128 -0.25651944
-0.23838951 0.40759671 -0.24096489
-0.49423754 0.4302876 -0.24535227
-0.46908402 0.42875546 -0.25582778
-0.26104087 0.43000466 -0.24728632
-0.47147107 0.45404929 -0.24234593
-0.44642365 0.45248079 -0.25253427
-0.30722255 0.45280588 -0.25042188
-0.28472692 0.45382494 -0.24380338
-0.40117335 0.47702277 -0.24450064
-0.37811959 0.47730094 -0.24278033
-0.35469788 0.47718054 -0.24352443
-0.33128762 0.47706038 -0.24426842
-0.38104665 -0.5287894 -0.22276795
-0.357252 -0.52839589 -0.22509181
-0.33393067 -0.52856857 -0.22407162
-0.31073123 -0.52893049 -0.2219348
-0.42818516 -0.50550985 -0.22157311
-0.40353197 -0.50427997 -0.22918129
-0.37942314 -0.50352234 -0.23386812
-0.35597539 -0.5034517 -0.23430479
-0.33253229 -0.50337851 -0.23475707
-0.30932289 -0.50360304 -0.23336899
-0.28674269 -0.50473815 -0.22634637
-0.45058012 -0.48103988 -0.22799146
-0.42592037 -0.47987103 -0.23558307
-0.30865908 -0.47938216 -0.23875844
-0.2859174 -0.48019266 -0.2334938
-0.26323169 -0.48119891 -0.2269578
-0.47287822 -0.45667028 -0.23439837
-0.28529334 -0.45601207 -0.2388984
-0.26271403 -0.45705605 -0.23176074
-0.52187073 -0.43488997 -0.22283077
-0.26251382 -0.43339515 -0.23361862
-0.24019952 -0.43488342 -0.22287798
-0.54477423 -0.41104591 -0.22567213
-0.26231217 -0.40976107 -0.23548961
-0.24001254 -0.41116697 -0.22474658
-0.56813329 -0.38754141 -0.22611129
-0.2621125 -0.38615805 -0.23734295
-0.2398587 -0.38752019 -0.22628379
-0.56578916 -0.36279213 -0.23738945
-0.24006124 -0.36430824 -0.22425997
-0.59107029 -0.34039271 -0.22847676
-0.24026559 -0.34106725 -0.22221792
-0.26214933 -0.31611085 -0.23700047
-0.61546499 -0.29393482 -0.22415018
-0.26236928 -0.29293627 -0.23495984
-0.26258785 -0.26972914 -0.23293185
-0.26238775 -0.24619189 -0.23478818
-0.63564318 -0.22256359 -0.23836958
-0.26299709 -0.22320339 -0.22913432
-0.26346833 -0.20004895 -0.2247622
-0.66058409 -0.176217 -0.23171401
-0.659657 -0.15263373 -0.23559868
-0.28529513 -0.12913346 -0.23888266
-0.28556103 -0.10585573 -0.2365799
-0.28541362 -0.082459904 -0.23785627
-0.68640071 0.011088936 -0.22191918
-0.68544137 0.034508254 -0.22581339
-0.68573129 0.057984643 -0.22463655
-0.26342434 0.081426457 -0.22517025
-0.26254749 0.10456757 -0.23330641
-0.65923709 0.12777194 -0.23735833
-0.66151345 0.15164636 -0.22781932
-0.24003609 0.19874305 -0.22451103
-0.23926057 0.22160599 -0.23226058
-0.63735706 0.24511658 -0.23094833
-0.21676107 0.31625456 -0.22251654
-0.59102643 0.33901727 -0.22868049
-0.21640296 0.3392815 -0.22639346
-0.56594121 0.36146188 -0.23665786
-0.21604429 0.36224794 -0.23027599
-0.2160645 0.38569158 -0.23005724
-0.54551905 0.41023129 -0.22195065
-0.2165087 0.40977442 -0.22524858
-0.5214718 0.4332785 -0.22490346
-0.23922308 0.43214756 -0.23263538
-0.49747396 0.45628333 -0.22783494
-0.26213092 0.45484579 -0.23717153
-0.24021997 0.45707798 -0.22267354
-0.47502649 0.48061752 -0.22226489
-0.45024616 0.47937286 -0.2299633
-0.42556298 0.47810692 -0.23779404
-0.30877018 0.47809702 -0.23785627
-0.28643525 0.47952718 -0.22900903
-0.26381367 0.48073179 -0.2215575
-0.40450001 0.50398743 -0.2228936
-0.38033766 0.50318772 -0.22761571
-0.35723674 0.50359666 -0.22520173
-0.33380127 0.50362045 -0.22506046
-0.3102535 0.50349301 -0.22581339
-0.38335216 -0.55505294 -0.20700502
-0.35914087 -0.55426431 -0.21145964
-0.33569723 -0.55442131 -0.21057296
-0.31239617 -0.55480295 -0.20841718
-0.28906405 -0.55518788 -0.2062428
-0.26572114 -0.55561006 -0.20385826
-0.43047357 -0.53138912 -0.20741749
-0.40569806 -0.53008598 -0.21511209
-0.28762645 -0.52947956 -0.21869266
-0.26488662 -0.53068036 -0.21160221
-0.24204086 -0.53188682 -0.2044785
-0.45296466 -0.50674844 -0.21391153
-0.24126618 -0.50702202 -0.21221924
-0.21847732 -0.5083608 -0.20393765
-0.26405787 -0.50587881 -0.21929121
-0.47593528 -0.48271167 -0.21713209
-0.24068142 -0.48256844 -0.21806252
-0.21823798 -0.48434424 -0.20652854
-0.49892443 -0.45877856 -0.21998405
-0.24042456 -0.45868415 -0.22062945
-0.21799906 -0.46036828 -0.20911515
-0.54912752 -0.43751007 -0.20392179
-0.21776052 -0.43643266 -0.2116971
-0.21778832 -0.4129141 -0.21139657
-0.21797709 -0.38960558 -0.20935285
-0.59510016 -0.36598021 -0.20978069
-0.21816759 -0.36626786 -0.20729065
-0.21835835 -0.34289849 -0.20522571
-0.61965072 -0.31927317 -0.20540071
-0.24047022 -0.3177948 -0.220173
-0.24067672 -0.29449278 -0.21810973
-0.24115695 -0.27139062 -0.21331072
-0.63992912 -0.24734469 -0.21981096
-0.24188019 -0.24840155 -0.20608389
-0.66446298 -0.20062192 -0.21545935
-0.26394254 -0.17682877 -0.22036183
-0.26441646 -0.15354063 -0.21596467
-0.26489168 -0.13018537 -0.21155465
-0.26534784 -0.10675664 -0.20732248
-0.26525033 -0.083144188 -0.2082268
-0.69058728 -0.059610359 -0.20492375
-0.26528281 -0.059564166 -0.20792544
-0.68833047 -0.035929851 -0.21408522
-0.26531363 -0.035979412 -0.20763981
-0.68736631 -0.012390293 -0.21799934
-0.26534438 -0.012390241 -0.20735431
-0.26541114 0.011205813 -0.20673501
-0.26519394 0.034770966 -0.20875025
-0.26430762 0.058161594 -0.21697438
-0.68871605 0.081815928 -0.21251976
-0.2416165 0.15267561 -0.20871854
-0.66381925 0.1756752 -0.21815693
-0.24081714 0.17576455 -0.21670628
-0.63958389 0.26941705 -0.22130585
-0.21817933 0.27072352 -0.20716369
-0.21747716 0.29355562 -0.21476448
-0.61789888 0.31725341 -0.2132473
-0.19480176 0.36540765 -0.20462167
-0.57013071 0.38746548 -0.21650112
-0.19446962 0.38850683 -0.20854414
-0.19482197 0.41266561 -0.20438302
-0.54908609 0.43631703 -0.20412874
-0.21727012 0.4344334 -0.21700597
-0.52489811 0.4594757 -0.20710027
-0.21812214 0.45937055 -0.20778263
-0.24122344 0.48217243 -0.21264648
-0.45384681 0.50639075 -0.20870292
-0.42924756 0.50532418 -0.21500146
-0.2878322 0.50500065 -0.2169112
-0.26528114 0.50651979 -0.20794129
-0.38322681 0.53012055 -0.20786202
-0.35926819 0.52964634 -0.21054125
-0.33602083 0.53007865 -0.20809996
-0.31264639 0.5303821 -0.20638549
-0.28924209 0.5306803 -0.20470119
-0.36214072 -0.58182377 -0.18981028
-0.33782268 -0.58098853 -0.19433117
-0.31407589 -0.58090574 -0.19477928
-0.29064113 -0.58131099 -0.19258535
-0.26717114 -0.58171409 -0.19040418
-0.24366789 -0.58211756 -0.18822014
-0.43337703 -0.55815995 -0.18945694
-0.40788424 -0.55613166 -0.20091236
-0.2428178 -0.55687487 -0.1967144
-0.21980907 -0.55814844 -0.18952131
-0.45661438 -0.533939 -0.192361
-0.21908848 -0.53309894 -0.19732165
-0.19606684 -0.53439265 -0.18968177
-0.47980791 -0.50976372 -0.19525921
-0.19584541 -0.51024264 -0.19229674
-0.50295794 -0.48563379 -0.19815242
-0.19562437 -0.48613346 -0.19490719
-0.5260644 -0.46154934 -0.20103979
-0.19540368 -0.46206522 -0.19751334
-0.19540234 -0.4383958 -0.19752944
-0.57359946 -0.41443014 -0.19981205
-0.19563518 -0.41508865 -0.1947794
-0.59917986 -0.39188415 -0.19085348
-0.19585218 -0.39171624 -0.19221652
-0.19602875 -0.36824918 -0.19013131
-0.62388819 -0.34492522 -0.18641913
-0.21860079 -0.31955349 -0.20260084
-0.21927606 -0.29660076 -0.19529128
-0.64427155 -0.27243251 -0.20100784
-0.21995597 -0.27353978 -0.1879307
-0.67061836 -0.22593784 -0.18966568
-0.24232598 -0.22510897 -0.20162928
-0.24277143 -0.20174779 -0.19717789
-0.2432182 -0.17831865 -0.1927135
-0.24386583 -0.15491351 -0.18624187
-0.69512582 -0.10739784 -0.18649936
-0.69286162 -0.08343365 -0.19569123
-0.69513375 0.10637039 -0.18646717
-0.24371935 0.10632267 -0.18770576
-0.242626 0.12956063 -0.19863117
-0.66765696 0.20029743 -0.20207536
-0.21959265 0.22471553 -0.19186401
-0.21888496 0.24777748 -0.19952488
-0.19596218 0.31965989 -0.19091761
-0.19518335 0.34231573 -0.20011497
-0.59700483 0.3658607 -0.20094395
-0.57592863 0.41485178 -0.18860567
-0.19523604 0.43699491 -0.19949293
-0.19581418 0.46169794 -0.19266546
-0.50196546 0.48364705 -0.20352399
-0.21905749 0.48459548 -0.19765711
-0.48049426 0.50932407 -0.19138277
-0.24259086 0.50803697 -0.19898236
-0.21999903 0.50998777 -0.18746448
-0.43258649 0.53251362 -0.19434714
-0.40803891 0.53152901 -0.19990766
-0.26660305 0.53227842 -0.19567525
-0.24383204 0.5338887 -0.18657994
-0.36174512 0.55651569 -0.19266546
-0.33796102 0.5564031 -0.19327426
-0.31456733 0.55686241 -0.19078934
-0.291134 0.55731922 -0.18831646
-0.34069204 -0.60889971 -0.17240548
-0.31626654 -0.60801673 -0.17699373
-0.29223228 -0.60766798 -0.17880571
-0.26865828 -0.60809159 -0.17660487
-0.2450508 -0.60851562 -0.17440128
-0.22140963 -0.6089403 -0.17219436
-0.41157675 -0.58420372 -0.17692876
-0.38653028 -0.58266139 -0.18527615
-0.22053479 -0.58332855 -0.18166506
-0.19736077 -0.58467072 -0.17440128
-0.46038193 -0.56158459 -0.1701144
-0.19669239 -0.55942804 -0.18229437
-0.17346707 -0.56071365 -0.17503345
-0.48373938 -0.53720868 -0.1730547
-0.17324394 -0.53638256 -0.17793226
-0.50711834 -0.51293653 -0.17563319
-0.17304111 -0.51213884 -0.18056715
-0.15006241 -0.51404953 -0.16874778
-0.53194404 -0.48989308 -0.17048824
-0.14997001 -0.48995554 -0.17008185
-0.17283861 -0.48793632 -0.1831975
-0.17278773 -0.46406233 -0.18385851
-0.17300008 -0.44067234 -0.18110001
-0.17321406 -0.41724259 -0.17832053
-0.1734284 -0.39377075 -0.17553592
-0.19651084 -0.34513879 -0.18443859
-0.19713716 -0.32211119 -0.17704213
-0.65094823 -0.29874325 -0.17209685
-0.19776647 -0.29897308 -0.16961014
-0.22063918 -0.25036821 -0.18053496
-0.22154473 -0.22724964 -0.17073202
-0.69737977 -0.13150187 -0.17734969
-0.24490319 -0.13155869 -0.17587614
-0.24482052 0.082918905 -0.17670226
-0.22070782 0.20184144 -0.17979169
-0.67402512 0.22598374 -0.17538989
-0.6478079 0.29646474 -0.18569458
-0.19706453 0.29724479 -0.17789984
-0.62426913 0.34409416 -0.18471241
-0.17376567 0.34565979 -0.17115462
-0.17329252 0.36877275 -0.17730105
-0.60304075 0.39316607 -0.17294109
-0.17289075 0.3919124 -0.18252027
-0.17283489 0.4155944 -0.1832459
-0.17321652 0.44009638 -0.17828822
-0.55468243 0.46423805 -0.17616761
-0.17359942 0.46467733 -0.17331421
-0.52923447 0.48671162 -0.18456745
-0.19667326 0.48704249 -0.18252027
-0.50768471 0.51251048 -0.17256773
-0.19774993 0.51297837 -0.16980541
-0.45884979 0.53520221 -0.17916131
-0.22112639 0.5358929 -0.17526042
-0.41112852 0.55888516 -0.17984021
-0.38650441 0.55784804 -0.18545318
-0.26793736 0.55824697 -0.18329418
-0.24532856 0.56040287 -0.17162585
-0.36476403 0.58441305 -0.17087841
-0.34004712 0.58317065 -0.17733347
-0.31641418 0.58346671 -0.17579532
-0.29292816 0.58404714 -0.17277873
-0.31899768 -0.63627988 -0.15481937
-0.29446614 -0.63535124 -0.15945959
-0.27015889 -0.63470632 -0.1626817
-0.24644779 -0.63515466 -0.16044176
-0.22270103 -0.63560027 -0.15821481
-0.19892024 -0.63604671 -0.15598464
-0.39069217 -0.6118989 -0.15682149
-0.36518556 -0.60977912 -0.16783619
-0.19803117 -0.61003941 -0.16648388
-0.1746899 -0.61145097 -0.15914857
-0.43806231 -0.58724368 -0.16047442
-0.17407756 -0.58601904 -0.16710317
-0.15068439 -0.58737373 -0.15977061
-0.15043065 -0.56276757 -0.16343319
-0.12724732 -0.56491262 -0.1513176
-0.15024635 -0.53838772 -0.16609287
-0.12707213 -0.54040825 -0.15416229
-0.12694879 -0.5160836 -0.15616524
-0.12712272 -0.49253303 -0.15334058
-0.55684578 -0.46676815 -0.16535878
-0.15016395 -0.46648681 -0.16728222
-0.58183008 -0.44356656 -0.16021264
-0.15035824 -0.44297564 -0.16447794
-0.1505529 -0.41942179 -0.16166818
-0.15115036 -0.39654094 -0.15304482
-0.63106722 -0.37239105 -0.15426075
-0.17414154 -0.3710041 -0.16627216
-0.17473277 -0.34792423 -0.15859163
-0.17531301 -0.32471192 -0.15105426
-0.19840021 -0.27572483 -0.16212618
-0.22251193 -0.20402113 -0.16026175
-0.7023316 -0.18022968 -0.15724778
-0.69964713 -0.15574926 -0.16814542
-0.24594592 -0.10804571 -0.16545677
-0.24641667 -0.084240496 -0.16075242
-0.24653788 -0.060309101 -0.15954137
-0.24681173 -0.036370821 -0.15680492
-0.24708603 -0.012390241 -0.1540637
-0.24736087 0.011632437 -0.15131748
-0.24704824 0.035607029 -0.15444136
-0.24593122 0.059347868 -0.16560352
-0.70175046 0.13136314 -0.15960693
-0.22224011 0.17905933 -0.16320431
-0.19926669 0.25181085 -0.1518935
-0.19799255 0.27443904 -0.16694021
-0.17478198 0.3232125 -0.15795255
-0.15107407 0.39562565 -0.15414572
-0.15066056 0.41879976 -0.16011429
-0.58179265 0.4427141 -0.16039252
-0.15095577 0.44337785 -0.15585351
-0.17427087 0.4899407 -0.16459191
-0.1753054 0.51613724 -0.15115285
-0.48598415 0.53852814 -0.16037631
-0.19865651 0.53875417 -0.15909934
-0.4370355 0.56128949 -0.16682625
-0.22257544 0.56262928 -0.15957403
-0.38946724 0.58550662 -0.1651957
-0.26963139 0.58504868 -0.16757548
-0.24647726 0.58647829 -0.16014707
-0.41504651 0.58758587 -0.15439212
-0.34281945 0.61123323 -0.15614879
-0.31837577 0.61048877 -0.15986872
-0.29511768 0.61169988 -0.15381718
-0.29705387 -0.66396916 -0.13704896
-0.27241552 -0.66299367 -0.14174235
-0.2478558 -0.66203141 -0.14637232
-0.22400256 -0.66249847 -0.14412522
-0.20031427 -0.66345519 -0.13952172
-0.36953211 -0.63995302 -0.13646758
-0.34359825 -0.63720489 -0.1501981
-0.17539795 -0.63725436 -0.14995086
-0.15205508 -0.63924879 -0.13998604
-0.41723639 -0.61510384 -0.14016855
-0.151351 -0.6131832 -0.15014851
-0.12793291 -0.61510056 -0.140185
-0.46595645 -0.59154385 -0.13719845
-0.12744719 -0.589535 -0.14807189
-0.10409915 -0.59193385 -0.13508797
-0.48948282 -0.56680745 -0.14061594
-0.1039228 -0.56720668 -0.1383605
-0.51456004 -0.54359341 -0.13535392
-0.10374682 -0.54253131 -0.14162636
-0.10387096 -0.51880628 -0.13932288
-0.1040266 -0.49513596 -0.13643432
-0.10418074 -0.47141707 -0.13357377
-0.127297 -0.46893984 -0.15051079
-0.12747158 -0.44530374 -0.14767587
-0.61143285 -0.42304176 -0.13400638
-0.12796354 -0.42229837 -0.13968766
-0.1518176 -0.37364352 -0.14341402
-0.15248781 -0.35060257 -0.13374031
-0.17628378 -0.30185205 -0.13844371
-0.68265581 -0.25354835 -0.13922334
-0.19977196 -0.25303239 -0.14592624
-0.22348569 -0.18063533 -0.14972007
-0.22446458 -0.15708973 -0.1391238
-0.22378887 0.15603168 -0.14643812
-0.20049839 0.22891209 -0.13734794
-0.17593427 0.30073905 -0.14298368
-0.1522091 0.3495155 -0.13776302
-0.15148917 0.37236285 -0.14815426
-0.15149489 0.46856368 -0.14807165
-0.56247211 0.49436122 -0.13724828
-0.15194145 0.4936533 -0.14162624
-0.17626078 0.54235852 -0.13874221
-0.46411496 0.56475431 -0.14807189
-0.19964476 0.56487328 -0.14742839
-0.17659843 0.56728852 -0.13435578
-0.44207215 0.59118879 -0.13566983
-0.22387891 0.58930397 -0.14546382
-0.39288068 0.61409348 -0.14185822
-0.36759764 0.61237818 -0.1504283
-0.27168006 0.61275083 -0.14856637
-0.24816342 0.61380535 -0.14329803
-0.22456728 0.61486316 -0.13801205
-0.32159805 0.63988322 -0.13370693
-0.29709798 0.63926804 -0.13666677
-0.27308613 0.63950634 -0.1355201
-0.27486026 -0.69197959 -0.11905813
-0.25011408 -0.69095635 -0.12380552
-0.22590901 -0.6910249 -0.12348723
-0.20191489 -0.69164288 -0.12061989
-0.34809595 -0.66837972 -0.11582911
-0.32176417 -0.66494417 -0.13235819
-0.15297554 -0.66612017 -0.12670064
-0.12919673 -0.66758287 -0.119663
-0.17669326 -0.66478497 -0.13312435
-0.39613688 -0.64332986 -0.11959565
-0.12856275 -0.64125597 -0.12995756
-0.10491949 -0.64327615 -0.11986434
-0.10436392 -0.6170271 -0.1301744
-0.080709741 -0.61924076 -0.11867177
-0.080556989 -0.59435588 -0.12197864
-0.08040379 -0.56952 -0.12529552
-0.08034198 -0.54507035 -0.12663364
-0.53971529 -0.52029604 -0.13010752
-0.080496594 -0.52139878 -0.12328613
-0.080651551 -0.49767679 -0.11993146
-0.10457635 -0.44827491 -0.1262325
-0.10510337 -0.42533916 -0.11645186
-0.12856069 -0.39938051 -0.1299907
-0.12916157 -0.37632018 -0.12023377
-0.17757575 -0.2791515 -0.12165999
-0.20118211 -0.23012194 -0.12927306
-0.22606538 -0.1336402 -0.12179422
-0.22575898 0.13295639 -0.12511134
-0.20174159 0.20579919 -0.122666
-0.17748412 0.27851188 -0.12285066
-0.1533387 0.32714552 -0.12145877
-0.12934268 0.37616384 -0.11729312
-0.12890655 0.39952177 -0.12437499
-0.12857303 0.42300135 -0.12979066
-0.12854324 0.447119 -0.1302743
-0.1290314 0.47252411 -0.12234747
-0.53986305 0.51983142 -0.12933993
-0.15258934 0.51933438 -0.13227475
-0.51713961 0.54543066 -0.12139165
-0.15353994 0.54593301 -0.11855388
-0.20099567 0.59199613 -0.13147497
-0.17777218 0.59437615 -0.11910856
-0.41985106 0.61783075 -0.12318563
-0.2014807 0.61731809 -0.1257472
-0.37102449 0.64154804 -0.12569714
-0.34614664 0.64050311 -0.13072455
-0.24982105 0.64133257 -0.12673402
-0.22635697 0.64301527 -0.11863804
-0.25088036 0.66782612 -0.11614883
-0.29995376 -0.6935147 -0.1119355
-0.17815299 -0.69303501 -0.11416149
-0.15429355 -0.69443274 -0.10767698
-0.13033691 -0.69583988 -0.10114861
-0.37475592 -0.67192566 -0.098767996
-0.1054778 -0.66969448 -0.10950339
-0.081605464 -0.67181975 -0.099278212
-0.057173654 -0.6473521 -0.099499464
-0.081123829 -0.64530927 -0.10970616
-0.44643885 -0.62116796 -0.10865796
-0.056944937 -0.62178701 -0.10544169
-0.05681593 -0.5967918 -0.1087935
-0.056687847 -0.57185256 -0.11212111
-0.056750879 -0.54780555 -0.11048353
-0.056881696 -0.52401781 -0.10708451
-0.057012804 -0.50017899 -0.10367835
-0.080959305 -0.47438699 -0.11326814
-0.081443787 -0.45152473 -0.10277891
-0.10563368 -0.40226012 -0.10661042
-0.13033168 -0.35410583 -0.10123348
-0.15385127 -0.32841396 -0.11406064
-0.17887776 -0.2562024 -0.1047467
-0.20325898 -0.20743999 -0.10474682
-0.22823022 0.10976167 -0.098359466
-0.17924896 0.25621146 -0.099924684
-0.15466462 0.3048082 -0.10232043
-0.13043113 0.3539201 -0.099618435
-0.61762273 0.42639637 -0.10528898
-0.10608289 0.42736828 -0.09827435
-0.10598388 0.45153069 -0.10011172
-0.59347475 0.47532004 -0.10418713
-0.12946498 0.49790817 -0.11530721
-0.12972981 0.52293611 -0.11100698
-0.1304521 0.54934585 -0.099278331
-0.49430096 0.57115954 -0.11340296
-0.15387814 0.57110977 -0.11367273
-0.47134322 0.5970161 -0.10539055
-0.15436506 0.59677488 -0.10664451
-0.17841662 0.62032241 -0.11073673
-0.39756352 0.64484358 -0.10984123
-0.2025388 0.644135 -0.11325145
-0.17879818 0.6456877 -0.10578036
-0.32430869 0.66878521 -0.1116991
-0.30008435 0.66897804 -0.11080432
-0.27549875 0.66847599 -0.11313319
-0.22714926 0.66913813 -0.11006105
-0.20356654 0.6710667 -0.10111451
-0.2787056 -0.72421598 -0.083377838
-0.2533024 -0.72230309 -0.091946244
-0.2289158 -0.72252828 -0.090937614
-0.20451377 -0.72275364 -0.089928269
-0.18009755 -0.72298294 -0.088901281
-0.15566437 -0.72320849 -0.087890625
-0.13152872 -0.72456896 -0.081796408
-0.32637572 -0.69718301 -0.094917178
-0.10628217 -0.69725662 -0.094576001
-0.082127497 -0.69867909 -0.087976336
-0.057578288 -0.67395878 -0.088986993
-0.033083655 -0.64950764 -0.088730097
-0.032979883 -0.62435442 -0.092100143
-0.032875806 -0.59925151 -0.095480084
-0.0087333173 -0.60173196 -0.082054377
-0.0087555647 -0.5773465 -0.081091046
-0.032811791 -0.57443076 -0.097559214
-0.032916784 -0.55057168 -0.09414947
-0.033023052 -0.52666682 -0.090698123
-0.5714708 -0.50193268 -0.092288136
-0.033213548 -0.5031299 -0.084511518
-0.057407178 -0.47728825 -0.093432546
-0.057835191 -0.45436084 -0.082312226
-0.08190152 -0.42842531 -0.092868924
-0.1066138 -0.3799935 -0.088421822
-0.13159758 -0.33175474 -0.080677986
-0.15503228 -0.30567914 -0.097014189
-0.22884791 -0.11031772 -0.091672778
-0.20465441 0.18367437 -0.088267446
-0.13154671 0.33145159 -0.081503868
-0.10696897 0.38053161 -0.08183074
-0.1063806 0.40366036 -0.092749357
-0.10619487 0.47655046 -0.096196175
-0.10660733 0.50223494 -0.088541508
-0.10684301 0.52748156 -0.084168077
-0.13085628 0.57498181 -0.092715025
-0.13113441 0.60032457 -0.088199019
-0.44827163 0.62300754 -0.097320557
-0.15513146 0.62335539 -0.095582366
-0.13162196 0.62641782 -0.080282092
-0.42508203 0.64913195 -0.089209318
-0.15547813 0.6488474 -0.090578318
-0.37706941 0.67517138 -0.082071424
-0.35045123 0.67177433 -0.097831607
-0.17984998 0.673006 -0.09211719
-0.15599726 0.67495263 -0.083085895
-0.30297965 0.69891012 -0.085730314
-0.27761644 0.6971792 -0.093483567
-0.2532391 0.6973815 -0.092578411
-0.22879107 0.69744623 -0.092288136
-0.20423584 0.69724029 -0.093210459
-0.1804619 0.69925886 -0.084168315
-0.30447954 -0.72659063 -0.072740793
-0.10732839 -0.72605044 -0.075160623
-0.083027199 -0.72753787 -0.068497181
-0.35357636 -0.70170206 -0.073951006
-0.057985596 -0.70074224 -0.078404427
-0.033722155 -0.70298618 -0.067994118
-0.033394173 -0.67610806 -0.078645587
-0.0090744495 -0.67846984 -0.067282796
-0.42656249 -0.65133625 -0.079593182
-0.0088905245 -0.65220618 -0.075247049
0.01553148 -0.62992662 -0.063146472
-0.0088116378 -0.62694061 -0.078662872
0.015605316 -0.60433924 -0.067942023
0.015551299 -0.5802958 -0.064433694
-0.0088355243 -0.55336964 -0.077628613
-0.0089160576 -0.52934343 -0.074141264
-0.0091430545 -0.50623995 -0.064311981
-0.033557892 -0.48022854 -0.073328853
-0.058403656 -0.43173963 -0.067543149
-0.082703471 -0.40609127 -0.075505972
-0.10773046 -0.35771996 -0.067699313
-0.15712701 -0.28379858 -0.066779375
-0.18192619 -0.23456481 -0.065146327
-0.20602192 -0.18481696 -0.072117925
-0.23022334 0.085995555 -0.076783299
-0.15663971 0.28304189 -0.073812842
-0.08313702 0.43182403 -0.066119313
-0.083001569 0.45607358 -0.069051981
-0.083125785 0.48114365 -0.0663625
-0.10707933 0.55279762 -0.079782844
-0.10752685 0.5789054 -0.071477413
-0.10775478 0.60435671 -0.067248106
-0.10780622 0.62921762 -0.06629312
-0.13193309 0.65203756 -0.075229645
-0.13215885 0.67743593 -0.071563959
-0.32936937 0.70228523 -0.070611596
-0.15662414 0.70152038 -0.074037552
-0.25514305 0.72624987 -0.073553681
-0.23038439 0.72590661 -0.075039625
-0.20585205 0.72611803 -0.074123979
-0.18130431 0.72632581 -0.073225021
-0.20763893 -0.75577211 -0.05302155
-0.18266022 -0.75517404 -0.055611372
-0.15797225 -0.75541234 -0.054579616
-0.13326734 -0.75564677 -0.053564548
-0.10854779 -0.75588542 -0.052531242
-0.083938777 -0.75675607 -0.048760772
-0.058625154 -0.72903556 -0.061788559
-0.034194514 -0.73107487 -0.052653909
-0.0094191656 -0.70635676 -0.052356124
-0.40631759 -0.68206429 -0.049989343
0.015311889 -0.68229401 -0.048883677
0.015447482 -0.65572011 -0.05769062
0.040125169 -0.60781157 -0.04914701
-0.53042531 -0.58294332 -0.049480438
0.040100954 -0.58355933 -0.046001792
0.015497163 -0.55619979 -0.060917497
0.015409544 -0.53240108 -0.055226564
-0.0094041973 -0.48320132 -0.053004146
-0.033904128 -0.45716363 -0.062084675
-0.059246995 -0.40977067 -0.045632362
-0.083669215 -0.38389927 -0.054596901
-0.18250553 0.23504962 -0.057620645
-0.13365945 0.31032467 -0.047197342
-0.10802831 0.358244 -0.062171578
-0.084005311 0.38478225 -0.047320366
-0.083374068 0.40781695 -0.060987234
-0.083355561 0.50662446 -0.061387897
-0.083564252 0.53210473 -0.056869626
-0.083645791 0.55716705 -0.055104017
-0.059246309 0.55884099 -0.045650005
-0.083574742 0.58164626 -0.056642532
-0.059211113 0.58350813 -0.04656446
-0.083547309 0.60628355 -0.057236433
-0.059187442 0.60821891 -0.047179699
-0.083636895 0.63141853 -0.055296659
-0.10801142 0.65468651 -0.062485099
-0.083897427 0.65735281 -0.049655914
-0.10822086 0.6802308 -0.058598161
-0.35733068 0.70794415 -0.045263052
-0.13300033 0.70512301 -0.057900071
-0.30751836 0.73251528 -0.046423912
-0.28132534 0.72959501 -0.059069276
-0.15768291 0.72966748 -0.058755159
-0.23293366 0.75710207 -0.047443271
-0.20727466 0.75474423 -0.057323813
-0.25937665 -0.76080036 -0.031248689
-0.23341979 -0.75827569 -0.042180777
-0.059400894 -0.75840199 -0.041634083
-0.33261943 -0.73295671 -0.044224381
-0.0098051056 -0.73487198 -0.035644531
0.015079428 -0.71035975 -0.033784866
0.039976858 -0.68624359 -0.029881477
0.04004056 -0.65962982 -0.038156152
0.040083207 -0.63366991 -0.043696046
0.064934388 -0.61132509 -0.030130148
0.040076695 -0.55925953 -0.042850494
0.040024087 -0.53550661 -0.036016107
0.015234463 -0.5093894 -0.043854594
0.015058137 -0.4862147 -0.032401919
-0.0097385272 -0.46042776 -0.03852725
-0.034519717 -0.43507034 -0.042092443
-0.10962197 -0.33656633 -0.032597065
-0.13385555 -0.31057513 -0.044013143
-0.10984972 0.33717799 -0.028370619
-0.05989977 0.41204584 -0.028672934
-0.059706427 0.43631661 -0.033696294
-0.059564024 0.46070355 -0.037395835
-0.059669599 0.48602563 -0.034653068
-0.059493951 0.51020873 -0.03921628
-0.03492856 0.51189017 -0.028815269
-0.059359498 0.5345028 -0.042709589
-0.034793541 0.53611338 -0.033199668
-0.034702465 0.56052166 -0.036157727
-0.034688301 0.58534575 -0.036617637
-0.034674682 0.61016637 -0.037059903
-0.059300505 0.63363111 -0.044242024
-0.034796819 0.63586259 -0.033093333
-0.059590563 0.66004449 -0.036706209
-0.40759128 0.68396336 -0.041281343
-0.08413367 0.68326062 -0.044541359
-0.059834801 0.68631727 -0.030360937
-0.10913786 0.70876598 -0.041581154
-0.13399988 0.73361325 -0.041669369
-0.25902885 0.76013744 -0.034723878
-0.18369816 0.75837052 -0.042127728
-0.1609906 -0.79057628 -0.011013031
-0.13536569 -0.788553 -0.019491792
-0.11038503 -0.78880483 -0.018436432
-0.08544524 -0.78935182 -0.016144991
-0.035041444 -0.762209 -0.025149107
0.014826871 -0.73894936 -0.017380595
0.039862424 -0.7144053 -0.01501596
0.064934388 -0.69023627 -0.010671616
0.064934388 -0.66358387 -0.018400788
0.064934388 -0.63729751 -0.024846196
0.090037994 -0.61487687 -0.010905266
0.064934388 -0.58693284 -0.026947737
0.064934388 -0.56215173 -0.025772691
0.064934388 -0.53840649 -0.018078566
0.039934397 -0.51239014 -0.024365187
0.039839357 -0.48919588 -0.012019277
0.01475345 -0.46401876 -0.012611866
-0.010253355 -0.43845415 -0.016234636
-0.035205185 -0.41294855 -0.0198313
-0.060306162 -0.38811195 -0.018114448
-0.085218862 -0.36274785 -0.021046281
-0.16023114 0.26281202 -0.021974802
-0.085138872 0.36279297 -0.022777915
-0.06062378 0.38939577 -0.0098625422
-0.035249792 0.46348459 -0.018382668
-0.035084248 0.48770279 -0.023758769
-0.010323338 0.48932785 -0.013204098
-0.010203749 0.51357669 -0.018382668
-0.010082468 0.53773338 -0.023634195
0.014769752 0.53942066 -0.013670802
-0.010013759 0.56221217 -0.02660954
0.014821079 0.56391275 -0.01700449
-0.010012113 0.58718175 -0.026680708
0.014816396 0.58902562 -0.016700268
-0.010008 0.61212963 -0.026858568
0.014815018 0.61410177 -0.016610622
-0.010122858 0.63810581 -0.021885395
0.014722195 0.64036834 -0.010581732
-0.035087541 0.66275781 -0.023652077
-0.010364398 0.6652987 -0.01142633
-0.0353209 0.6893968 -0.016073346
-0.085030988 0.71244246 -0.025113583
-0.11006461 0.73760545 -0.024382949
-0.1600569 0.76257974 -0.02448988
-0.18694986 -0.79323155 0.00011312962
-0.060972244 -0.79301131 -0.00080931187
-0.010432504 -0.76605928 -0.008477211
0.039738577 -0.74306875 0.0010724068
0.064934388 -0.71850961 0.0040262938
0.090134382 -0.66759008 0.0016156435
0.090070829 -0.64080119 -0.0066403151
0.090058349 -0.59024131 -0.0082612038
0.090051144 -0.56495899 -0.0091971159
0.11542572 -0.56779492 0.0075489283
0.090122394 -0.54133844 5.8889389e-05
0.064934388 -0.51517183 -0.0062977076
0.064934388 -0.49188524 0.0063678026
-0.035877854 0.41606176 0.0020141602
-0.035580866 0.43992841 -0.0076309443
-0.010787919 0.44194365 0.0069127083
-0.010519899 0.46548688 -0.0046929121
0.014598731 0.49096626 -0.0025626421
0.014680646 0.51527411 -0.0078830719
0.039726168 0.51698232 0.002684474
0.039771147 0.54120106 -0.0031585693
0.064934388 0.54299581 0.0074397326
0.039800309 0.56569356 -0.0069464445
0.064934388 0.56748223 0.0031559467
0.039798088 0.59088087 -0.0066580772
0.064934388 0.59275097 0.003464222
0.03979573 0.61607611 -0.0063517094
0.064934388 0.61802459 0.003772378
-0.48877925 0.64199859 -0.002436161
0.039740808 0.64264274 0.0007828474
0.014560044 0.6676634 -4.9471855e-05
-0.010590382 0.69250751 -0.0016411543
-0.060670868 0.71612006 -0.0086392164
-0.035996243 0.71935683 0.0058592558
-0.085870937 0.74163634 -0.0069283247
-0.28817809 0.76950157 0.0045161247
-0.1361549 0.76683068 -0.0066761971
-0.036267594 -0.79670566 0.014671206
0.039551556 -0.77387542 0.025367498
0.014430739 -0.76994503 0.0083485842
0.064934388 -0.74723947 0.019754291
0.090303928 -0.72273755 0.023641109
0.090189435 -0.69427651 0.0087670088
0.11562294 -0.6713416 0.020358682
0.11549045 -0.64434105 0.011752963
0.1154414 -0.61847442 0.0085670948
0.14108416 -0.59620523 0.025422573
0.11544028 -0.59320801 0.0084942579
0.14107101 -0.5707255 0.024852991
0.11558574 -0.54422951 0.017942429
0.090204567 -0.51779377 0.01073277
0.090314113 -0.49460506 0.02496326
0.039672479 -0.46710461 0.0096588135
0.014404409 -0.44189513 0.010059118
-0.010884978 -0.41676021 0.011115432
-0.036347479 -0.39219725 0.017265677
-0.061907679 -0.36754811 0.023494244
-0.087321892 0.34287429 0.024485707
-0.061844841 0.3679474 0.021861553
-0.011125103 0.41861361 0.021513224
0.014227211 0.44397438 0.021568179
0.014418978 0.46750611 0.0091127157
0.039569363 0.46954507 0.023053765
0.039684244 0.49261248 0.0081304312
0.064934388 0.49469841 0.02167809
0.064934388 0.51870167 0.013320923
0.090318635 0.52067888 0.025551081
0.090274155 0.54508442 0.01977253
0.090224907 0.56929183 0.01337564
0.11567405 0.57111561 0.023677826
0.09022744 0.59464276 0.013704062
0.11567885 0.59654331 0.023989916
0.090221398 0.61978507 0.012919664
0.11564466 0.62148815 0.021769881
0.064934388 0.64455402 0.010332227
0.090268515 0.64629704 0.019040227
0.039660849 0.66999537 0.01116991
0.064934388 0.67180246 0.019864202
0.014360365 0.69564617 0.012919664
0.039569788 0.69781834 0.022998929
-0.011101402 0.72262239 0.02048707
-0.061416492 0.74571508 0.010732889
-0.11199021 0.77113295 0.011352181
-0.21430014 -0.79932392 0.02564311
-0.011328012 -0.80043507 0.030299187
-0.29062939 -0.77431256 0.027261019
0.090422042 -0.75153232 0.038983941
0.11574735 -0.69836527 0.028438926
0.14143802 -0.67542183 0.040745139
0.14119849 -0.64792454 0.030373096
0.14110667 -0.62176859 0.026396751
0.14130718 -0.54699981 0.035079479
0.11573742 -0.52042079 0.027794719
0.064934388 -0.46968645 0.028291702
0.039503511 -0.44471514 0.031608343
-0.036711939 0.3941949 0.029101729
0.013908826 0.42132694 0.042247891
0.03946697 0.44602323 0.036355257
0.064934388 0.47159898 0.037095428
0.090402946 0.49698091 0.036503434
0.1159 0.52274859 0.038354397
0.11579785 0.54710764 0.031719089
0.14147231 0.54888767 0.042229414
0.14128286 0.57294804 0.034026384
0.14127944 0.59837019 0.033878565
0.16700381 0.60002619 0.04284215
0.1412053 0.62320054 0.03066802
0.1669044 0.62492239 0.039614201
0.11573714 0.64804548 0.027776361
0.14134178 0.64980704 0.036577225
0.090335906 0.67345077 0.027794719
0.11584105 0.67484957 0.034525037
0.14145043 0.67625433 0.041283011
0.064934388 0.6992135 0.029470086
0.090398818 0.70061386 0.035966873
0.11596338 0.70201552 0.042470694
0.014036544 0.72562844 0.033952355
0.03943532 0.72708273 0.040467024
-0.036696061 0.74983799 0.028586268
-0.087557226 0.77548289 0.029580712
-0.19005914 0.80358911 0.040503979
-0.13938989 -0.82968748 0.045853257
-0.11438124 -0.83211893 0.055723906
0.013849884 -0.80420005 0.046076536
0.064934388 -0.77818537 0.044031024
0.11621299 -0.75593001 0.058683634
0.11597911 -0.72701633 0.043492317
0.14176276 -0.70384586 0.054807186
0.16730835 -0.626634 0.052732229
0.1672543 -0.60072976 0.050977111
0.16711944 -0.57440811 0.0465976
0.16737281 -0.55019206 0.054826021
0.1415371 -0.52307504 0.045035005
