ply
format ascii 1.0
comment PCL generated
element vertex 1335
property float x
property float y
property float z
element camera 0
property float view_px
property float view_py
property float view_pz
property float x_axisx
property float x_axisy
property float x_axisz
property float y_axisx
property float y_axisy
property float y_axisz
property float z_axisx
property float z_axisy
property float z_axisz
property float focal
property float scalex
property float scaley
property float centerx
property float centery
property int viewportx
property int viewporty
property float k1
property float k2
end_header
-0.023644669 0.29243159 -0.16081226
0.053291794 0.2920084 -0.1653924
-0.023661166 0.31831509 -0.15866911
0.0020243223 0.31713891 -0.1704216
0.053271797 0.31751227 -0.1666913
-0.023684435 0.34432623 -0.15564644
0.0020243223 0.34305736 -0.16742027
0.053261943 0.34306696 -0.16733122
0.0020243223 0.36911938 -0.16357625
0.027615517 0.36827156 -0.17091823
0.053289872 0.36889532 -0.16551709
0.0020243223 0.39545289 -0.15800798
0.027647922 0.39438125 -0.16670895
0.053326339 0.39481974 -0.16314864
0.027697027 0.42083964 -0.1603303
0.053381 0.42093542 -0.15959811
0.053457279 0.44730023 -0.15464377
0.20898235 -0.32603335 -0.13473237
0.23441213 -0.32544684 -0.14108288
0.2336639 -0.29871133 -0.15188301
0.053714205 -0.22235595 -0.1379559
0.079488181 -0.22216663 -0.14102864
0.027884034 -0.19661433 -0.13603711
0.053563949 -0.19598505 -0.14771533
0.079416931 -0.19617917 -0.1441139
0.0020243223 -0.17079139 -0.13523984
0.027788185 -0.17017949 -0.14848852
0.079475254 -0.1704981 -0.14158857
-0.023841245 -0.14492416 -0.13527632
0.0020243223 -0.14446549 -0.14719343
0.079469003 -0.14467084 -0.14185917
-0.023775572 -0.11879588 -0.14380729
0.079457335 -0.11884026 -0.14236462
-0.049676426 -0.093147464 -0.13725019
-0.023726536 -0.092848875 -0.1501776
0.079444416 -0.093016371 -0.14292395
-0.049612131 -0.067232825 -0.14142597
0.079434 -0.067202836 -0.1433748
-0.049562424 -0.041389681 -0.14465475
0.079429835 -0.041398145 -0.14355516
-0.049530264 -0.015596393 -0.14674366
0.079428583 -0.015596338 -0.14360917
-0.075576156 0.010270544 -0.13511312
-0.049504232 0.010167954 -0.14843464
0.079429425 0.010205359 -0.14357316
-0.075551048 0.036120553 -0.13619995
-0.049489286 0.035917249 -0.149405
0.079429008 0.036006782 -0.14359105
-0.075531393 0.061959434 -0.13705111
-0.049476285 0.061654646 -0.15024936
0.079392798 0.061772179 -0.14515924
-0.075515509 0.087790124 -0.13773882
-0.049466059 0.087384455 -0.15091395
0.07938946 0.087557271 -0.14530325
-0.075505905 0.11362082 -0.13815486
-0.049459428 0.113113 -0.15134478
0.079429835 0.11341281 -0.14355516
-0.075496711 0.13944575 -0.13855278
-0.049453069 0.13883579 -0.15175748
0.079421513 0.13919802 -0.14391565
-0.075495042 0.1652822 -0.13862526
-0.049451966 0.16457081 -0.15182924
0.079409435 0.16496906 -0.14443851
-0.075497136 0.19112757 -0.13853467
-0.049453069 0.19031319 -0.15175736
0.079400279 0.1907395 -0.14483476
-0.075502977 0.21698554 -0.1382817
-0.049457215 0.21607062 -0.15148807
0.079387389 0.21649288 -0.14539349
-0.075518437 0.24287958 -0.1376121
-0.049467992 0.24186523 -0.15078795
0.079379067 0.24225284 -0.14575362
-0.075535156 0.26878855 -0.13688815
-0.049479328 0.26767376 -0.15005207
0.07937324 0.2680164 -0.14600551
-0.07557448 0.29479885 -0.1351856
-0.049506444 0.2935884 -0.14829063
0.079362854 0.29375783 -0.14645553
-0.049538855 0.31956428 -0.14618564
0.079357445 0.31951383 -0.14668965
-0.049585182 0.34567022 -0.14317644
0.079352878 0.34527013 -0.14688754
-0.049646348 0.3719337 -0.13920379
-0.023713959 0.37047786 -0.15181124
0.079353295 0.37104854 -0.14686978
-0.023755049 0.39687353 -0.14647365
0.079298474 0.39653257 -0.14924347
-0.023810035 0.42358777 -0.13933039
0.0020243223 0.42216361 -0.1502136
0.079348303 0.42257297 -0.14708555
0.027782787 0.44805604 -0.14918947
0.0020243223 0.44941464 -0.13938451
0.079407357 0.44870198 -0.14452839
0.027868148 0.47543624 -0.13810062
0.053576693 0.47415128 -0.14688754
0.079478174 0.47494471 -0.14146209
0.053739004 0.50155056 -0.13634491
0.079595089 0.50154221 -0.13639927
0.18384127 -0.32728252 -0.1212101
0.10601264 -0.30156413 -0.11819255
0.26108518 -0.30056322 -0.13001287
0.07987462 -0.27509734 -0.12429547
0.10583989 -0.27513519 -0.12380278
0.053918064 -0.24911809 -0.12471497
0.079643637 -0.24845435 -0.13429725
0.10578541 -0.24905872 -0.12557173
0.027967403 -0.22314104 -0.12520707
0.10582697 -0.22320156 -0.1242224
0.0020243223 -0.19725694 -0.12411296
0.10580563 -0.19721356 -0.12491548
-0.023936311 -0.17136018 -0.12292695
0.10579159 -0.17124729 -0.12537122
-0.049898911 -0.14540443 -0.12279928
0.10578037 -0.14529143 -0.12573552
-0.075977065 -0.11959814 -0.11775291
-0.049772181 -0.11918943 -0.13103056
0.10576915 -0.11934116 -0.12610018
-0.075835243 -0.093455903 -0.12389421
0.10575512 -0.093394428 -0.12655556
-0.075739719 -0.067439064 -0.12803042
0.10574839 -0.067458428 -0.12677407
-0.10199219 -0.041600399 -0.11727691
-0.07566414 -0.041492604 -0.13130295
0.10574896 -0.041527465 -0.12675583
-0.10192849 -0.015596393 -0.11934519
-0.075616345 -0.015596283 -0.13337255
0.10575008 -0.015596283 -0.12671959
-0.10187501 0.010378505 -0.12108231
0.10575176 0.010335564 -0.126665
-0.10184126 0.036336415 -0.12217808
0.10575344 0.036268186 -0.12661028
-0.10181428 0.062282648 -0.12305474
0.10569683 0.062157977 -0.12844884
-0.10179237 0.088220358 -0.12376642
0.10569346 0.088072777 -0.12855804
-0.10177944 0.11415841 -0.12418592
0.10575905 0.11407213 -0.12642813
-0.10176878 0.14009324 -0.12453258
0.10575008 0.13999231 -0.12671947
-0.10176709 0.16603869 -0.1245873
0.1057383 0.16590308 -0.1271019
-0.10176934 0.19199108 -0.12451422
0.10572821 0.19181146 -0.12742972
-0.1017772 0.217957 -0.124259
0.105717 0.21771209 -0.12779367
-0.10179855 0.24396078 -0.12356567
0.10570915 0.24361567 -0.12804842
-0.10182159 0.2699798 -0.1228174
0.10570243 0.26951846 -0.12826705
-0.10187332 0.29609674 -0.12113714
0.10569346 0.29541108 -0.12855792
-0.10193526 0.32227236 -0.11912572
-0.075622216 0.32087204 -0.13311827
0.10568618 0.3213048 -0.12879467
-0.10202604 0.34857997 -0.1161778
-0.075691842 0.34707913 -0.13010371
0.10567946 0.34719676 -0.12901282
-0.075785555 0.37345314 -0.12604547
0.1056817 0.37311888 -0.12893999
-0.075906932 0.40003708 -0.12078965
-0.04972747 0.39841801 -0.13393474
0.10569794 0.39909819 -0.1284126
-0.049833786 0.4251976 -0.12702906
0.1056358 0.42475235 -0.13043094
-0.049965609 0.45231307 -0.11846697
-0.023891842 0.45089471 -0.12870359
0.10569403 0.45091733 -0.1285398
-0.023983048 0.47854379 -0.1168555
0.0020243223 0.47686136 -0.12835777
0.10575961 0.4771463 -0.12640977
0.027962072 0.50315869 -0.12589967
0.10584382 0.50350118 -0.12367511
0.053952336 0.52964789 -0.12248862
0.079766937 0.52860188 -0.12895834
0.10596137 0.53007323 -0.11985731
0.080004998 0.5562619 -0.11865008
0.13270889 -0.35537615 -0.10002768
0.10632075 -0.32848564 -0.10818624
0.13252611 -0.32880059 -0.10477638
0.054302994 -0.30312896 -0.099712968
0.080197342 -0.30223066 -0.11032104
0.13245016 -0.30253315 -0.10674942
0.028161094 -0.27696398 -0.10004616
0.054111656 -0.27603289 -0.11214077
0.13249914 -0.27654588 -0.10547733
0.0020243223 -0.25080162 -0.10041618
0.02805979 -0.24991554 -0.11320591
0.13245016 -0.25036287 -0.10674918
-0.024117433 -0.22473033 -0.099398375
0.0020243223 -0.22392081 -0.11254489
0.13242251 -0.22423336 -0.10746813
-0.050279714 -0.19866042 -0.098065257
-0.024025852 -0.19794747 -0.11129546
0.132414 -0.19814187 -0.10768902
-0.050094709 -0.17195344 -0.11008191
0.13240974 -0.17205891 -0.10779965
-0.076162718 -0.14590804 -0.10971415
0.13240761 -0.14597958 -0.10785484
-0.10240155 -0.12002229 -0.10398269
0.13239485 -0.1198928 -0.10818636
-0.10221656 -0.093776964 -0.10999012
0.13237996 -0.093809724 -0.10857296
-0.12868161 -0.067878701 -0.099472523
-0.10209042 -0.067653656 -0.11408699
0.13237572 -0.067736879 -0.10868359
-0.12855706 -0.041712508 -0.10270858
0.13237715 -0.041666966 -0.10864651
-0.12847677 -0.015596283 -0.10479474
0.13237926 -0.015596283 -0.10859144
-0.12840933 0.010490282 -0.10654652
0.13237926 0.010474623 -0.1085912
-0.12836607 0.036559861 -0.10767066
0.13237926 0.036545642 -0.10859144
-0.12833205 0.062617481 -0.1085546
0.13229711 0.062567346 -0.1107254
-0.12830441 0.088666588 -0.10927236
0.13229287 0.088618606 -0.11083591
-0.12828954 0.11471757 -0.1096586
0.13238209 0.11476146 -0.10851765
-0.1282768 0.14076501 -0.10999
0.13237432 0.14082356 -0.1087203
-0.12827466 0.16682236 -0.11004519
0.13236439 0.16687991 -0.10897791
-0.1282768 0.19288541 -0.10999
0.1323566 0.19293536 -0.10918033
-0.12828812 0.21896611 -0.10969567
0.13234881 0.21898769 -0.10938275
-0.12831503 0.24508239 -0.10899639
0.13234243 0.2450399 -0.10954833
-0.1283455 0.27121738 -0.10820472
0.1323396 0.2710973 -0.109622
-0.12841003 0.29744616 -0.10652804
0.13233463 0.29714835 -0.10975087
-0.12848599 0.32373038 -0.10455477
0.13233393 0.32320875 -0.10976923
-0.12860045 0.35015312 -0.1015811
0.13233182 0.34926459 -0.10982454
-0.10215147 0.37506282 -0.11210394
0.13232119 0.37529433 -0.11010015
-0.10231238 0.40175048 -0.10687852
0.13234314 0.40142384 -0.10952997
-0.10251649 0.42870224 -0.10024977
-0.076063424 0.42690083 -0.11401355
0.13236226 0.42755273 -0.10903299
-0.076276325 0.45420748 -0.10479462
0.1322943 0.45337552 -0.11079907
-0.050175827 0.48030517 -0.1048131
0.13237502 0.47973648 -0.10870194
-0.024080724 0.50650448 -0.10416722
0.0020243223 0.5047006 -0.1158843
0.13244946 0.50610435 -0.10676777
0.0020243223 0.5328573 -0.10263455
0.028058801 0.53112763 -0.11333466
0.13255168 0.5326187 -0.10411167
0.028159954 0.55938762 -0.1001941
0.054154966 0.55784065 -0.10932767
0.10611759 0.55691671 -0.11478412
0.13268398 0.55930603 -0.10067511
0.080334768 0.58478379 -0.10437024
0.10632302 0.58412123 -0.10811245
0.10663012 0.61203837 -0.098139167
0.15976301 -0.40994307 -0.08016932
0.10718114 -0.38364512 -0.080244303
0.13308385 -0.38256308 -0.090285659
0.15952386 -0.38309529 -0.085346937
0.080800824 -0.35696125 -0.084189415
0.1067752 -0.35603663 -0.093427658
0.15941188 -0.35660264 -0.087771535
0.054510958 -0.33051619 -0.086205244
0.080498353 -0.32949242 -0.09728694
0.15936197 -0.33027166 -0.088852167
0.028261468 -0.30420497 -0.087007165
0.15943168 -0.30417642 -0.087342739
0.0020243223 -0.27796629 -0.087025881
0.1594007 -0.27789029 -0.088013768
-0.024214257 -0.2517435 -0.086820841
0.15937832 -0.25162733 -0.088498116
-0.050469778 -0.22557271 -0.085720181
0.15935768 -0.2253741 -0.08894527
-0.076746143 -0.19939406 -0.08445096
0.15934736 -0.1991398 -0.089168906
-0.10297997 -0.17310275 -0.085197687
-0.07646127 -0.17256755 -0.096786499
0.15934907 -0.17292115 -0.089131474
-0.12937489 -0.14699554 -0.081460595
-0.10264482 -0.14643285 -0.096081853
0.15934476 -0.14669673 -0.089224577
-0.1290696 -0.1204715 -0.089392185
0.15933703 -0.1204715 -0.089392185
-0.15571351 -0.094465286 -0.080188036
-0.12883781 -0.094113626 -0.095414042
0.15933014 -0.094249308 -0.089541197
-0.15552351 -0.068112329 -0.084301472
0.1593293 -0.068031371 -0.089559793
-0.155371 -0.041828878 -0.087603688
0.15933274 -0.041814435 -0.089485168
-0.15527377 -0.015596393 -0.089708686
0.15933616 -0.015596338 -0.089410782
-0.15519212 0.01060632 -0.091476083
0.15933789 0.01062259 -0.089373589
-0.15513888 0.036791332 -0.092628837
0.15922703 0.036804501 -0.091773748
-0.15509771 0.062964715 -0.093520641
0.15929404 0.063038588 -0.090322852
-0.1550651 0.089129858 -0.094226122
0.15922961 0.089207217 -0.091717839
-0.15504795 0.11529727 -0.094597459
0.1593353 0.1154962 -0.089429379
-0.15503168 0.1414597 -0.094950318
0.15933445 0.14171374 -0.089448214
-0.15503082 0.1676347 -0.094968796
0.15932757 0.16792426 -0.089596987
-0.15503424 0.19381505 -0.094894648
0.15932757 0.19414131 -0.089596987
-0.15504882 0.22001339 -0.094578862
0.15932328 0.22035222 -0.089690089
-0.15508141 0.24624644 -0.093873501
0.15932843 0.24657722 -0.089578271
-0.15512 0.27250156 -0.093037724
0.1593293 0.27279612 -0.089559674
-0.15519643 0.29884526 -0.091383219
0.15932672 0.29900852 -0.089615464
-0.15528838 0.32524785 -0.089392066
0.1593353 0.3252441 -0.089429617
-0.15542783 0.3517921 -0.086373091
0.15933616 0.35146469 -0.089410782
-0.15562968 0.37853882 -0.082002997
-0.12876146 0.37676096 -0.097398162
0.15929319 0.37757593 -0.090341568
-0.12896863 0.40358111 -0.092015266
0.15934907 0.40393636 -0.089131474
-0.12923104 0.4306719 -0.085197687
0.15935768 0.43018144 -0.08894527
-0.10280955 0.45615602 -0.090732098
0.15936455 0.4564243 -0.088796139
-0.076589487 0.48229107 -0.091234446
0.15935078 0.48260427 -0.089094281
-0.050380588 0.50845277 -0.091513276
0.15940328 0.50900024 -0.08795774
-0.024183145 0.53476048 -0.090862393
0.15951008 0.53560382 -0.085645556
0.0020243223 0.56138408 -0.088405013
0.15963343 0.56230366 -0.082975268
0.028272236 0.5881058 -0.085608363
0.054365464 0.5863269 -0.095655322
0.1328629 0.58626109 -0.096026182
0.15981232 0.58925754 -0.07910192
0.054579686 0.61506808 -0.081741214
0.080657892 0.61347222 -0.090378761
0.13308027 0.61347222 -0.090378761
0.10702115 0.640634 -0.085440278
0.13332713 0.64091778 -0.083965302
0.18710688 -0.49152291 -0.06060791
0.18690507 -0.46459237 -0.064352989
0.13419409 -0.43853962 -0.061440706
0.16019478 -0.43738419 -0.070821285
0.18676366 -0.43785772 -0.066977143
0.10759664 -0.41149256 -0.066750646
0.13366084 -0.41050592 -0.07529521
0.1867027 -0.41133571 -0.068108559
0.081132166 -0.38476628 -0.069842219
0.18646732 -0.38448232 -0.072476864
0.054732744 -0.35820109 -0.071799874
0.18652712 -0.35824433 -0.071367025
0.028365651 -0.33169219 -0.073473215
0.0020243223 -0.30535889 -0.073379159
0.18667121 -0.3057557 -0.068693161
-0.024319611 -0.27903566 -0.073135018
0.18665902 -0.27936023 -0.068919063
-0.050669622 -0.25271904 -0.072740078
0.18665192 -0.25297466 -0.069051027
-0.077046134 -0.22645094 -0.071461082
0.18664683 -0.22659348 -0.069145203
-0.10344642 -0.2001702 -0.070049405
0.18663974 -0.20021164 -0.069277167
-0.12977207 -0.17375201 -0.071141243
0.18663567 -0.17383468 -0.069352508
-0.15636902 -0.1475908 -0.065995812
0.18663161 -0.14745882 -0.069427729
-0.15599588 -0.12094307 -0.074074626
0.18662654 -0.12108335 -0.069522023
-0.1828717 -0.094837472 -0.06406951
0.18662553 -0.09471114 -0.069540858
-0.18264998 -0.068360455 -0.068184018
0.18662247 -0.068338595 -0.069597244
-0.18247138 -0.04195283 -0.071498871
0.18662348 -0.04196766 -0.069578528
-0.18235891 -0.015596393 -0.073585987
0.18662247 -0.015596338 -0.069597244
-0.18226376 0.010730551 -0.075351477
0.18662044 0.010774598 -0.069635034
0.21352394 0.010841 -0.0609864
-0.18220106 0.037039511 -0.076515079
0.1864967 0.037110008 -0.071931481
0.21349128 0.037270483 -0.061516523
-0.20951261 0.063730061 -0.060380578
-0.18215357 0.063337065 -0.07739675
0.18649569 0.063462846 -0.071950197
0.21345633 0.063690662 -0.062084198
-0.20946829 0.090149969 -0.061100125
-0.1821162 0.089626767 -0.078090072
0.1864967 0.089816459 -0.071931362
0.21343072 0.09010686 -0.062500119
-0.20944381 0.11657132 -0.06149745
-0.182097 0.1159189 -0.078446388
0.1864967 0.11616969 -0.071931601
0.21340509 0.11651669 -0.062916398
-0.20941934 0.1429864 -0.061894894
-0.1820758 0.14220369 -0.07883966
0.1864967 0.14252286 -0.071931601
0.21337947 0.14292 -0.063332319
-0.20941934 0.16941683 -0.061894774
-0.18207479 0.16850279 -0.078858614
0.1864967 0.1688761 -0.071931601
0.21335386 0.16931707 -0.063748121
-0.20942517 0.19585311 -0.061800241
-0.18207984 0.1948083 -0.078764796
0.1864967 0.1952292 -0.071931362
0.21333988 0.19571915 -0.063974977
-0.20944847 0.22231071 -0.061421752
-0.18209903 0.2211336 -0.078408957
0.18649772 0.22158377 -0.071912646
0.2133294 0.22212179 -0.064145088
-0.20949511 0.24880289 -0.060664535
-0.18213841 0.24749331 -0.077677846
0.18649873 0.24793838 -0.071893811
0.21332012 0.24852343 -0.064296246
-0.1821859 0.27387676 -0.076796412
0.18649569 0.27428731 -0.071950436
0.21330965 0.27492106 -0.064466357
-0.18227489 0.30034515 -0.075145006
0.18643489 0.30053607 -0.073078513
0.21330035 0.30131772 -0.064617515
-0.18238524 0.32687843 -0.073097348
0.18638325 0.32678452 -0.074036956
0.21329685 0.32772154 -0.064674139
-0.18254846 0.35354924 -0.070068359
0.18636198 0.35307905 -0.0744313
0.21329568 0.35412854 -0.064692855
-0.18278927 0.38043275 -0.065599442
0.18634883 0.3793847 -0.07467556
-0.15588835 0.40550417 -0.076402426
0.18635187 0.40572387 -0.074619174
-0.15621659 0.43275291 -0.069296002
0.18636097 0.43207848 -0.074450135
0.21332826 0.43342456 -0.064164042
-0.12960713 0.45827687 -0.075426579
0.1863711 0.45843819 -0.074262261
0.21334338 0.45987159 -0.063918352
-0.1032352 0.4843865 -0.076908946
0.18638426 0.48480928 -0.074018121
-0.13013744 0.48661834 -0.061648846
0.21337248 0.4863556 -0.063445687
-0.10366432 0.51284671 -0.062972903
-0.076896071 0.51053953 -0.077958941
0.18642679 0.5112679 -0.073228836
0.21342371 0.51290226 -0.062613726
-0.077232115 0.53919858 -0.063407898
-0.050597642 0.53693426 -0.077415228
0.18647237 0.53774774 -0.072382927
0.21347848 0.53947085 -0.061724782
-0.050831642 0.56581938 -0.06221664
-0.024296334 0.56345809 -0.076158762
0.18651699 0.56423783 -0.071555018
0.2135426 0.56607896 -0.060683608
-0.024415461 0.59251881 -0.06068337
0.0020243223 0.59019423 -0.073811531
0.18657175 0.59077364 -0.070538878
0.028388819 0.61715156 -0.070463538
0.15998207 0.61623472 -0.075426579
0.18663871 0.61736733 -0.069295764
0.054812804 0.64425969 -0.066599846
0.080994092 0.64248502 -0.075820923
0.16010007 0.64305252 -0.072871804
0.18675046 0.64413989 -0.067222238
0.10751769 0.67011058 -0.069314837
0.13367818 0.66900384 -0.074844718
0.1601661 0.66968471 -0.071442366
0.18686946 0.67097139 -0.065013885
0.081336677 0.67177737 -0.060986519
0.13401005 0.69712681 -0.06622231
0.16024087 0.69637817 -0.069823265
0.1869988 0.69787669 -0.062613845
0.13409874 0.72402042 -0.063918114
0.16037495 0.72337329 -0.0669204
0.13419046 0.75096732 -0.061535478
0.16050926 0.75041413 -0.064012766
0.1606639 0.77760172 -0.060664535
0.18793398 -0.57332534 -0.04525876
0.16150616 -0.54720247 -0.04242897
0.18763591 -0.54591519 -0.05079031
0.21461022 -0.54706115 -0.04334712
0.16120797 -0.51967788 -0.048884988
0.18735823 -0.51864547 -0.055943489
0.21437611 -0.51993173 -0.047149181
0.16108216 -0.49276987 -0.05160892
0.21420582 -0.49300471 -0.049914122
0.13472508 -0.46677881 -0.04764545
0.16080396 -0.46547192 -0.057632327
0.21407917 -0.46621287 -0.05197072
0.10804999 -0.43969902 -0.052027822
0.21400888 -0.43956533 -0.053112149
0.05518759 -0.41432077 -0.042256832
0.081469372 -0.41282159 -0.05524075
0.21395148 -0.41295987 -0.054043651
0.028598592 -0.3876361 -0.043213487
0.054952912 -0.38609633 -0.057499647
0.21395148 -0.38646892 -0.054043651
0.0020243223 -0.36097378 -0.044093132
0.028481171 -0.3595354 -0.058466792
0.21394329 -0.35996467 -0.054176688
-0.024540231 -0.334371 -0.044475317
0.0020243223 -0.33299801 -0.059338689
-0.05111273 -0.30785009 -0.04395926
-0.024427855 -0.30657035 -0.059073329
0.213893 -0.3069157 -0.054993987
-0.077693626 -0.28132296 -0.043423772
-0.050886746 -0.2801517 -0.058637381
0.21385205 -0.2803809 -0.055658698
-0.10428394 -0.25478983 -0.042850018
-0.077352352 -0.25372633 -0.058201432
0.21381111 -0.25385648 -0.056323051
-0.10385622 -0.22735745 -0.056740761
0.2137714 -0.2273434 -0.056968451
-0.13038702 -0.20097224 -0.055164814
0.21375035 -0.20085664 -0.057309866
-0.15685524 -0.17447585 -0.055468798
0.2137305 -0.17437609 -0.057632327
0.24125768 -0.17508516 -0.042276025
-0.18365194 -0.14822224 -0.049590111
0.21370947 -0.14789951 -0.057973862
0.24119803 -0.14847064 -0.043136835
-0.18320325 -0.12144071 -0.05791688
0.21368963 -0.12142897 -0.058295965
0.24113841 -0.12186923 -0.043997526
-0.21036743 -0.095243245 -0.046500206
0.21366975 -0.094963305 -0.058618426
0.24109472 -0.095286518 -0.044628143
-0.21010205 -0.068628006 -0.050809264
0.21364059 -0.0685004 -0.059092402
0.24105765 -0.068714879 -0.045163274
-0.20988762 -0.042085305 -0.054290771
0.21360092 -0.042043414 -0.05973649
0.24079849 -0.042126752 -0.048904061
-0.2097543 -0.015596393 -0.05645597
0.21356708 -0.015596338 -0.060285926
0.24077208 -0.015596338 -0.049285293
-0.20964098 0.010861808 -0.058296084
0.24074566 0.010928321 -0.049666524
-0.20956743 0.037301637 -0.059490323
0.24095577 0.037499461 -0.04663384
-0.23719579 0.064143695 -0.042467356
0.24095577 0.064047411 -0.04663372
-0.23714277 0.090700224 -0.043232441
0.24096768 0.090600789 -0.04646194
-0.23711361 0.11725803 -0.04365325
0.24098089 0.11715727 -0.046271086
-0.2370858 0.14381047 -0.044054747
0.2409928 0.14371607 -0.046099186
-0.2370858 0.17037818 -0.044054866
0.24101001 0.17028145 -0.045850992
-0.23709242 0.19695199 -0.043959141
0.24103515 0.19685785 -0.045488119
-0.23712026 0.22354823 -0.043557644
0.24106163 0.22344099 -0.045106053
-0.23717326 0.25017872 -0.042792559
0.2410894 0.25003162 -0.044704676
-0.20955344 0.27532306 -0.059717655
0.24111855 0.27662998 -0.044284105
-0.20965733 0.30192614 -0.058030605
0.24115299 0.30324203 -0.043787122
-0.20979522 0.32861045 -0.055791497
0.24119803 0.32987687 -0.043136835
-0.20999305 0.35543403 -0.052579522
0.24124444 0.35652393 -0.042467356
-0.21028163 0.38247728 -0.047893167
0.21399716 0.38185272 -0.053302288
-0.18310112 0.40754756 -0.059812188
0.21394682 0.40824854 -0.054119825
-0.18350317 0.43497044 -0.052351236
-0.1840729 0.46293947 -0.041778326
-0.15668613 0.4605349 -0.059130192
-0.15735506 0.48910499 -0.044647455
-0.13069333 0.51527423 -0.047206521
-0.10413041 0.5417161 -0.047836065
-0.077600539 0.56831944 -0.047454357
-0.051071849 0.59500968 -0.046614647
0.21362542 0.59275687 -0.05933857
-0.024541261 0.62197781 -0.044341683
0.0020243223 0.61935747 -0.058523774
0.21374334 0.6195606 -0.057423711
0.0020243223 0.64901817 -0.04187417
0.028510246 0.64655173 -0.054690003
0.21396907 0.64673096 -0.053758502
0.055060018 0.67386758 -0.050542831
0.21422106 0.67404318 -0.049666405
0.08169283 0.70142031 -0.045564532
0.10799142 0.69968164 -0.053929806
0.2145337 0.70162278 -0.044589996
0.10805351 0.72660804 -0.051913381
0.1872008 0.7251097 -0.058864832
0.10812739 0.75365102 -0.049513936
0.18741554 0.75245297 -0.054879785
0.10820784 0.78078002 -0.046900988
0.13429689 0.77803904 -0.058770061
0.18767902 0.78006673 -0.049990296
0.10830373 0.80806911 -0.043787122
0.13442178 0.80526793 -0.055525661
0.16086793 0.80509585 -0.056247234
0.18798341 0.80793691 -0.044341445
0.13457033 0.83269799 -0.051666141
0.16107249 0.83266062 -0.051818371
0.18897337 -0.65656447 -0.025970459
0.21576962 -0.6568324 -0.024520874
0.18860038 -0.62863195 -0.032891989
0.21541893 -0.62910581 -0.030215502
0.1621059 -0.60256201 -0.029444337
0.18825781 -0.60090154 -0.039249539
0.2151404 -0.60166562 -0.034738421
0.13560992 -0.57665586 -0.024656296
0.16180369 -0.57482415 -0.035987258
0.21485668 -0.57428128 -0.039345384
0.13534924 -0.54889601 -0.031429052
0.24233118 -0.54961169 -0.026781559
0.1350918 -0.52125281 -0.038117886
0.24208795 -0.52239722 -0.030292511
0.10886484 -0.49637863 -0.025564671
0.13504381 -0.49446657 -0.039364457
0.24193984 -0.49542731 -0.032430291
0.082199357 -0.46992159 -0.023631215
0.10852557 -0.46822658 -0.036582708
0.24185053 -0.46860141 -0.033719182
0.055442203 -0.44293937 -0.025719166
0.081826724 -0.44120908 -0.039767146
0.24179856 -0.44186169 -0.034469128
0.028717652 -0.41599625 -0.027746916
0.24174398 -0.41512901 -0.035257339
0.0020243223 -0.38924059 -0.028325677
0.24170937 -0.38843966 -0.035756707
-0.024661582 -0.36251307 -0.028711677
0.24166545 -0.36174455 -0.036390543
-0.051342435 -0.33579683 -0.029039502
-0.078040518 -0.30916741 -0.028402925
-0.10475019 -0.28253257 -0.027708173
0.24149527 -0.28167504 -0.03884685
-0.13147725 -0.25589913 -0.026839614
0.24144214 -0.25501409 -0.039613724
-0.1582811 -0.22933681 -0.024598241
-0.1309251 -0.22831543 -0.041184664
0.24138105 -0.22835785 -0.040495157
-0.15761766 -0.20184539 -0.038961887
0.24131869 -0.20171405 -0.041395307
-0.18423912 -0.17525083 -0.038693428
-0.21129437 -0.14892057 -0.031448364
-0.21076554 -0.12199124 -0.040035367
-0.23820494 -0.095672764 -0.027901173
-0.23788585 -0.06890972 -0.032507062
-0.23763543 -0.042225193 -0.036121726
-0.23747584 -0.015596338 -0.038424969
-0.23734303 0.01099998 -0.040341973
-0.23725945 0.037577815 -0.041548491
-0.26523176 0.064580575 -0.023553848
-0.26517072 0.091281749 -0.024346828
-0.26513797 0.11798486 -0.024772286
-0.26510376 0.14468051 -0.025216937
-0.26510376 0.17139326 -0.025216937
-0.26510969 0.19811082 -0.02513957
-0.26514393 0.2248551 -0.02469492
-0.26520199 0.25163001 -0.023940682
-0.23724617 0.27684543 -0.041739821
-0.23736827 0.30359378 -0.039977908
-0.23754233 0.33044428 -0.037465572
-0.23778589 0.35744172 -0.03395009
-0.23812075 0.38464552 -0.029116392
0.24138372 0.38333616 -0.040456891
-0.21066529 0.40978301 -0.041663408
0.24129482 0.40977362 -0.041739941
-0.21116044 0.4374212 -0.03362298
0.24130411 0.43637666 -0.04160583
-0.21178769 0.46548069 -0.023437619
0.24131604 0.4629871 -0.041433692
-0.18490079 0.4917717 -0.026414633
0.24136382 0.48967582 -0.040744185
-0.15804034 0.51795268 -0.029810548
0.24143019 0.51641667 -0.03978622
-0.13130505 0.54438692 -0.031313419
0.24152184 0.54323125 -0.038463473
-0.10462909 0.5709973 -0.031640768
0.24166678 0.57019639 -0.03637135
-0.077982195 0.59778708 -0.030928254
0.24189448 0.5974052 -0.033084631
-0.051331457 0.62467295 -0.02975297
0.2421948 0.6248582 -0.028750062
-0.024671236 0.65179253 -0.027457237
0.24253201 0.6524806 -0.023882508
0.0020243223 0.67905653 -0.024617553
0.028634863 0.67627776 -0.03850174
0.055320811 0.70390636 -0.033603907
0.055459458 0.73249567 -0.024598122
0.081846647 0.72941196 -0.038904428
0.2148921 0.72944081 -0.03876996
0.081905141 0.75658494 -0.03637135
0.21530864 0.75755918 -0.032006621
0.081967272 0.78383303 -0.033680797
0.21582918 0.78617197 -0.023553848
0.082042411 0.81125718 -0.030427217
0.10842457 0.83560562 -0.039862752
0.082139544 0.83896607 -0.026221395
0.18982251 -0.71313238 -0.010212064
0.21660042 -0.71296865 -0.011030674
0.16310412 -0.68676215 -0.0078320503
0.18938129 -0.68472838 -0.018400192
0.21616213 -0.6847769 -0.018147826
0.16274966 -0.65849763 -0.015506625
0.24361159 -0.6598289 -0.008300662
0.13614564 -0.63255441 -0.010738492
0.16242176 -0.63045329 -0.022605538
0.24320392 -0.63194418 -0.014184475
0.10945235 -0.6064505 -0.0064846277
0.13587686 -0.60454756 -0.017720699
0.242889 -0.60437667 -0.018729925
0.10925061 -0.57853431 -0.013036489
0.24258831 -0.57691228 -0.023070097
0.082635969 -0.5530073 -0.004725337
0.10906514 -0.5508005 -0.019059777
0.082603469 -0.52593076 -0.0061330795
0.10900068 -0.52373403 -0.021153331
0.2706967 -0.52607393 -0.0051555634
0.082510613 -0.49851409 -0.01015377
0.27064854 -0.49911991 -0.0057811737
0.055700164 -0.47184092 -0.0089640617
0.27068165 -0.47231373 -0.0053511858
0.028847534 -0.44476771 -0.010874748
0.27069369 -0.44546735 -0.005194664
0.0020243223 -0.41780284 -0.012102127
0.27061394 -0.41848072 -0.0062305927
-0.024786742 -0.39095128 -0.012452602
0.27054629 -0.39152706 -0.007109642
-0.051594511 -0.36411867 -0.012666702
0.27050871 -0.36462605 -0.0075978041
-0.078402579 -0.337304 -0.012724996
0.27047113 -0.33773246 -0.0080858469
-0.10523433 -0.3105576 -0.011985064
-0.13209398 -0.28383297 -0.010816216
0.27039903 -0.28397098 -0.0090225935
-0.15896267 -0.25707674 -0.0098415613
0.27036598 -0.25710392 -0.0094516277
-0.18598421 -0.23046328 -0.0063086748
0.27033296 -0.23024331 -0.0098805428
-0.18518011 -0.20280081 -0.021230698
0.27029994 -0.20338924 -0.010309577
-0.21217205 -0.17624366 -0.017196655
0.27026695 -0.17654182 -0.010738373
-0.23931439 -0.14967342 -0.011887908
0.27023095 -0.14969969 -0.011206031
-0.23867516 -0.12257387 -0.021114588
0.27019793 -0.12286582 -0.011634588
-0.26640147 -0.096124135 -0.0083590746
0.27019346 -0.096047111 -0.011693001
-0.26602489 -0.06920626 -0.013250589
0.27018443 -0.069228396 -0.011810064
-0.26573309 -0.042372055 -0.017041445
0.27017698 -0.042411618 -0.011907339
-0.26554784 -0.015596338 -0.019447684
0.27016947 -0.015596283 -0.012004733
-0.26539865 0.011145956 -0.021385789
0.27016047 0.011217338 -0.012121439
-0.26530477 0.037869547 -0.022605538
0.27015299 0.03802941 -0.012218833
0.27017394 0.064848505 -0.011946321
0.27021444 0.091679722 -0.011420488
-0.29354012 0.11875109 -0.0048623085
0.27025494 0.11851908 -0.010894299
-0.29350206 0.14559975 -0.0053119659
0.27029544 0.1453664 -0.010368109
-0.2935037 0.17246702 -0.0052924156
0.27033895 0.17222396 -0.0098026991
-0.29351199 0.19933932 -0.005194664
0.27039754 0.1991023 -0.0090420246
-0.29355338 0.22623987 -0.0047057867
0.27045462 0.22599098 -0.008300662
0.2705102 0.2528896 -0.0075781345
-0.26529133 0.27845088 -0.022779822
0.27056733 0.27980101 -0.0068360567
-0.26543742 0.30535778 -0.020882249
0.27064252 0.30674556 -0.0058592558
-0.26564938 0.33237958 -0.018128514
0.27072078 0.33370918 -0.0048427582
-0.26594701 0.35956356 -0.014262319
-0.26632935 0.38693431 -0.0092955828
-0.23858795 0.41215879 -0.022373438
-0.23919842 0.44004664 -0.013561964
-0.2128209 0.49466097 -0.006660223
-0.18574762 0.52089489 -0.010699272
-0.15878634 0.54724103 -0.01365912
-0.13196209 0.57394409 -0.014242768
-0.10515463 0.60068268 -0.014573455
-0.078387745 0.62770033 -0.013367414
-0.051606502 0.65478909 -0.011887908
-0.024806092 0.68199444 -0.0099389553
0.24289975 0.68026608 -0.018574715
0.028767217 0.70646191 -0.021308064
0.24336033 0.70841175 -0.011926651
0.0020243223 0.70953071 -0.0065430403
0.028856236 0.73569745 -0.0097441673
0.24381727 0.73664844 -0.0053312778
0.02887742 0.76314348 -0.0069922209
0.055499677 0.7597962 -0.021986127
0.055542938 0.78718281 -0.019176126
0.055594347 0.81473911 -0.015837073
0.21658121 0.81581163 -0.011342287
0.055662047 0.84260732 -0.0114398
0.19083537 -0.77084059 0.0085843801
0.21779141 -0.7707811 0.0083085299
0.16388786 -0.7439822 0.0091360807
0.19029856 -0.74179697 -0.0013781786
0.2170839 -0.74142236 -0.0031799078
0.24515058 -0.74497497 0.013912916
0.13704427 -0.7177 0.012608886
0.16348462 -0.7152577 0.00040590763
0.24452502 -0.71615386 0.0048835278
0.13672724 -0.68911088 0.0043723583
0.24403554 -0.68784958 -0.0021812916
0.10988238 -0.6627447 0.0074810982
0.13642979 -0.66074252 -0.0033559799
0.10965909 -0.63449633 0.00022935867
0.27165279 -0.63574183 0.0072646141
0.082921058 -0.60883898 0.0076191425
0.2713016 -0.60800642 0.0027022362
0.082774408 -0.58084691 0.0012689829
0.27107954 -0.58061236 -0.00018239021
0.056001607 -0.55536914 0.01061523
0.27089855 -0.55334473 -0.0025336742
0.055980656 -0.52818149 0.0092544556
0.055938501 -0.50082397 0.0065164566
0.028981565 -0.47386938 0.0065361261
0.0020243223 -0.44674981 0.0052179098
-0.024913842 -0.41966873 0.004057765
-0.051851701 -0.39272845 0.0040380955
-0.078788802 -0.36578649 0.0039989948
-0.10573015 -0.33885971 0.0041168928
-0.13271645 -0.31202593 0.0053554773
-0.15973276 -0.28519145 0.0068314075
-0.18680374 -0.25837529 0.0088996887
-0.21405868 -0.23167938 0.013438702
-0.21311849 -0.20384632 -0.0018286705
-0.24037966 -0.17719898 0.0034879446
-0.26773155 -0.15047422 0.0089193583
-0.26695696 -0.12318887 -0.0011430979
-0.2949928 -0.096600905 0.012292862
-0.29455367 -0.069519624 0.0071072578
-0.2942256 -0.042528268 0.0032325983
-0.29400948 -0.015596338 0.00068044662
-0.29383683 0.01130012 -0.0013585091
-0.29372734 0.038176659 -0.0026513338
-0.29364449 0.065040573 -0.0036298037
-0.29357657 0.091894977 -0.004431963
-0.2936213 0.25317243 -0.0039038658
-0.29373232 0.28016037 -0.0025926828
-0.29390153 0.30723184 -0.0005941391
-0.29416573 0.33444631 0.0025254488
-0.29452699 0.36183259 0.0067920685
0.27079907 0.36068836 -0.0038255453
-0.29498443 0.38941565 0.012194395
0.27083975 0.38762677 -0.0032972097
-0.26688907 0.41466516 -0.0020242929
0.27087742 0.41456878 -0.0028077364
-0.26764813 0.4428468 0.0078357458
0.27096185 0.44159749 -0.0017110109
-0.24009819 0.46864861 -0.00057446957
0.27088496 0.46835282 -0.0027099848
0.27077499 0.49502993 -0.0041384697
0.27076745 0.52188981 -0.0042363405
-0.21384227 0.52407014 0.0099248886
-0.18665516 0.5504421 0.0061426163
0.2708714 0.54898262 -0.0028861761
-0.15961464 0.57707995 0.0042740107
0.27105388 0.57626873 -0.00051558018
-0.1326438 0.60387707 0.0034683943
0.27135906 0.60387355 0.0034487247
-0.10571986 0.63086879 0.0037827492
0.27178019 0.63181782 0.0089195967
-0.078805149 0.65798265 0.0047067404
-0.051889855 0.68528801 0.0065164566
-0.02495005 0.71271181 0.0087617636
0.0020243223 0.73904526 0.0057883263
0.0020243223 0.7666254 0.0086040497
0.24447869 0.7656455 0.0042152405
0.0020243223 0.79429978 0.011641502
0.028900141 0.79067838 -0.0040407181
0.028927278 0.81839532 -0.00051569939
0.028962636 0.84642988 0.0040775537
0.19032811 0.84522092 -0.00082921982
0.16492786 -0.80296344 0.031652927
0.19162659 -0.80109149 0.023267269
0.21893434 -0.80189514 0.026867628
0.13775961 -0.77571392 0.031193852
0.16433613 -0.77305144 0.018841624
0.24635889 -0.77574831 0.031353474
0.11064329 -0.74877441 0.03219223
0.13738495 -0.74654371 0.021459937
0.11036847 -0.71983331 0.023267269
0.083408371 -0.69379675 0.028720498
0.11011574 -0.69116771 0.01505971
0.27299336 -0.69301891 0.024678826
0.083238408 -0.66530901 0.021360755
0.27220264 -0.66402423 0.014407277
0.056286491 -0.63961136 0.029119253
0.083074167 -0.63697845 0.014248967
0.056185998 -0.61137474 0.02259171
0.029180294 -0.5858717 0.032351971
0.05609075 -0.58329386 0.016405463
0.029135929 -0.55782855 0.026588917
0.029126126 -0.53053051 0.025315166
0.029112045 -0.50317532 0.023485899
0.0020243223 -0.4760251 0.023008943
-0.025052235 -0.44882119 0.022035718
-0.052117482 -0.42165986 0.02130115
-0.079188839 -0.39459109 0.021320939
-0.10626845 -0.36754793 0.021598935
-0.13334471 -0.340482 0.021678209
-0.16050567 -0.31356803 0.023565412
-0.18770546 -0.28663883 0.025633693
-0.21501701 -0.25976771 0.028999448
-0.24143104 -0.2049506 0.018663168
-0.26899523 -0.17820802 0.025335073
-0.29656965 -0.15132082 0.030914426
-0.29565647 -0.12384393 0.020130396
-0.32347873 -0.069846824 0.028361678
-0.32310727 -0.042690676 0.024340749
-0.32285586 -0.015596393 0.021618724
-0.32266521 0.011461147 0.019555211
-0.32254618 0.038498767 0.018266797
-0.32245469 0.065523379 0.017276406
-0.32237789 0.092537761 0.016444921
-0.32233584 0.1195538 0.015989542
-0.32229015 0.14656088 0.015495062
-0.32229745 0.1735913 0.015574217
-0.3223066 0.20062421 0.015673041
-0.32235959 0.22769167 0.016246915
-0.32243824 0.25478911 0.017098188
-0.32257733 0.28195521 0.018603802
-0.32278252 0.30921054 0.020825028
-0.32311279 0.33663544 0.024400353
-0.32354686 0.36423659 0.029099226
-0.29560104 0.41731337 0.019475937
-0.29655275 0.4458409 0.03071475
-0.26877183 0.47183666 0.022432804
-0.24117453 0.49782354 0.014960885
-0.24235865 0.52747709 0.032052398
-0.21493109 0.55391157 0.027604461
-0.18763578 0.58047819 0.024340749
-0.16047263 0.60730875 0.022850156
-0.13335922 0.63424474 0.022055626
-0.10630576 0.66146666 0.022810459
0.27222854 0.65991408 0.014743447
-0.079241596 0.68870825 0.023604989
0.27278838 0.68839025 0.022016048
-0.052186325 0.71624756 0.02577281
0.27337047 0.71703839 0.029577971
-0.025051013 0.74251294 0.021876931
-0.025073038 0.77022707 0.02473855
-0.025097558 0.79806012 0.027923346
0.24534245 0.79546404 0.016682506
-0.02512796 0.82612425 0.03187263
0.0020243223 0.82218295 0.015356541
0.0020243223 0.85037923 0.020110726
0.16574906 -0.83421993 0.049432039
0.19294201 -0.83381492 0.047678232
0.13817343 -0.80526114 0.041945457
0.11093496 -0.77797073 0.041664362
0.083809443 -0.75166243 0.046087503
0.27483678 -0.75219005 0.048625708
0.083601706 -0.7226004 0.03709209
0.2738426 -0.72232389 0.035710692
0.056506548 -0.69662404 0.043412089
0.30216071 -0.69772452 0.049129725
0.056393526 -0.6680268 0.036071062
0.30169189 -0.66941649 0.043593168
0.029276581 -0.64239818 0.044859886
0.02922681 -0.61405092 0.038394332
0.0020243223 -0.58853191 0.048807144
0.0020243223 -0.56036913 0.043090701
0.0020243223 -0.53291887 0.041644335
0.0020243223 -0.50557178 0.04078126
-0.025193138 -0.47829312 0.040339589
0.30116513 -0.4779048 0.037372589
-0.052398246 -0.45097685 0.039537311
0.30115837 -0.45070034 0.03729248
-0.079596095 -0.42369846 0.038955808
0.30116513 -0.42351553 0.037372589
-0.10681341 -0.39652839 0.039296627
0.30115667 -0.39631021 0.037272334
-0.13403518 -0.36935109 0.039617538
0.30112106 -0.36907437 0.036852002
-0.16128322 -0.3422114 0.04039979
0.30109051 -0.34185028 0.036491394
-0.1886299 -0.3151958 0.042789221
0.30106172 -0.3146337 0.036151171
-0.21605942 -0.28820106 0.045926332
0.3010363 -0.28742543 0.035850883
-0.24359213 -0.26121286 0.049855828
0.30101258 -0.26022312 0.03557086
-0.24250403 -0.23295482 0.034150481
0.30098885 -0.23302509 0.035290718
-0.27015182 -0.20611957 0.040359735
0.30096513 -0.20583138 0.035010576
-0.29800624 -0.17924933 0.047879934
0.30093974 -0.1786412 0.034710526
0.30091602 -0.15145616 0.034430504
-0.32480219 -0.1245384 0.042688608
0.30089229 -0.12427555 0.034150481
-0.32399133 -0.097100258 0.033910751
0.30090755 -0.097109832 0.034330487
-0.35282364 -0.070188306 0.050541639
0.30092448 -0.069941893 0.03453064
-0.35241413 -0.042860836 0.0464499
0.30094311 -0.042770803 0.034750581
0.30096003 -0.015596338 0.034950614
-0.35212827 -0.015596283 0.043593049
-0.35191917 0.011630031 0.041503668
0.30097699 0.011581114 0.035150647
-0.35179663 0.038837645 0.040279508
0.30099562 0.038762111 0.035370708
-0.35170031 0.066032358 0.039316654
0.30103797 0.065952837 0.03587091
-0.35162607 0.093219221 0.038574934
0.30111936 0.093165375 0.036831856
-0.35157591 0.12040381 0.038073897
0.30119905 0.12039213 0.037773132
-0.35152179 0.14757872 0.037532806
0.30127883 0.14763333 0.038715124
-0.3515318 0.17477991 0.037633061
0.3013671 0.17489445 0.039757848
-0.35154784 0.20198646 0.037793159
0.30146566 0.20217921 0.040921569
-0.35162002 0.22923437 0.038514733
0.301566 0.22948316 0.04210639
-0.35171434 0.25651038 0.039457202
0.30166635 0.25680566 0.043291569
-0.35190311 0.28388068 0.041343212
0.30177701 0.28415635 0.044598341
-0.35215238 0.31133598 0.043834329
0.3019031 0.31154409 0.046087623
-0.35254112 0.33896911 0.047718644
0.30202928 0.33895496 0.047577739
0.30209756 0.36631513 0.048383713
-0.32411695 0.39208025 0.035270572
0.30213341 0.39364338 0.048807144
-0.32491732 0.42032579 0.043934941
0.30214536 0.42094332 0.048948169
-0.29795676 0.47528175 0.04729569
-0.2700206 0.50128889 0.038655281
-0.24363825 0.55761635 0.050521493
-0.21608794 0.58421248 0.046389341
-0.18867214 0.61097771 0.043573022
-0.16136667 0.63796765 0.042206645
-0.13412015 0.66512609 0.041825056
-0.1069061 0.6924513 0.042307138
-0.079705052 0.71996802 0.043673515
-0.052380342 0.74606895 0.038374424
0.2740708 0.74613369 0.038675189
-0.052424815 0.77391613 0.041262865
0.27465844 0.77504271 0.046308875
-0.052476168 0.801911 0.044598341
-0.052539721 0.83014631 0.04872632
0.24710664 0.82857621 0.042146444
-0.025165981 0.85449344 0.036811948
0.11168575 -0.83805686 0.066047192
0.13881336 -0.83633065 0.058571577
0.22073086 -0.83574599 0.056039453
0.084268518 -0.81062353 0.065965772
0.11125307 -0.80750471 0.051995277
0.24778061 -0.80747771 0.051874161
0.084029928 -0.78098196 0.055634379
0.27591801 -0.78249872 0.062671304
0.056774609 -0.75472516 0.060823202
0.029448615 -0.72862798 0.067208052
0.056634963 -0.72553462 0.051753044
0.30297741 -0.72693992 0.058774352
0.029385097 -0.69961566 0.058956861
0.0020243223 -0.67390352 0.067880273
0.029329177 -0.67091286 0.051692367
0.0020243223 -0.64528573 0.061168313
0.0020243223 -0.61681658 0.054724097
-0.025388217 -0.5912596 0.065680981
-0.025344884 -0.56298041 0.060052037
-0.025332082 -0.53536808 0.058389187
-0.025330367 -0.50798076 0.058166265
-0.052685991 -0.48063409 0.058227062
-0.080029912 -0.45321891 0.05774045
-0.10736262 -0.42579734 0.057132721
-0.13473353 -0.39851832 0.057760835
-0.16211879 -0.37123972 0.058490515
-0.1895503 -0.34401003 0.059869528
-0.21708937 -0.31687772 0.062651038
-0.24477597 -0.28981885 0.066943288
-0.27130431 -0.23425925 0.055330992
-0.29927766 -0.20733401 0.062894821
-0.32586539 -0.15221713 0.054198384
-0.35442626 -0.12527353 0.066556454
-0.35344067 -0.097626723 0.056707501
-0.38198605 0.011832948 0.067860126
-0.3818675 0.039245356 0.066760182
-0.38176218 0.066643596 0.065782785
-0.38166788 0.094029941 0.06490767
-0.38158894 0.12140837 0.064175367
-0.38151884 0.14877939 0.063524723
-0.38152102 0.17617641 0.063545108
-0.38152981 0.20357743 0.063626409
-0.38161963 0.23103206 0.064460158
-0.3817271 0.25851181 0.065457225
-0.3820124 0.28614685 0.068104506
-0.35304996 0.36679134 0.052803397
-0.35377944 0.39494646 0.060092449
-0.32620761 0.44939888 0.057902694
0.30351055 0.4777447 0.06507051
-0.29942399 0.5050872 0.064622879
0.30336589 0.50490296 0.063362122
-0.2713947 0.53124177 0.056504965
0.30329192 0.53216296 0.062488437
0.30337623 0.55971181 0.063484073
0.30354846 0.58745188 0.065518141
-0.21730106 0.61496413 0.066087961
-0.18975274 0.64192504 0.063626409
0.30253512 0.64006358 0.053551197
-0.16229782 0.6690793 0.062366605
0.30293792 0.66829813 0.058308005
-0.13490453 0.69643384 0.062203884
0.30349159 0.69696283 0.064846754
-0.10753191 0.72390813 0.062630653
-0.079975203 0.74973261 0.055371523
-0.080044895 0.77773947 0.058389187
-0.080125958 0.80590636 0.061899304
0.27522218 0.80399716 0.05363214
-0.080225982 0.83432347 0.066230536
-0.052618671 0.85869169 0.053854585
0.1398266 -0.86997044 0.08489573
0.16735379 -0.86979872 0.084176064
0.084564336 -0.84099656 0.078775287
0.24946269 -0.84039068 0.076152682
0.057085428 -0.81398231 0.081011534
0.27666458 -0.81205297 0.072369218
0.029593332 -0.78752863 0.086007118
0.056922507 -0.78417087 0.070429564
0.029518576 -0.75794119 0.07629621
0.30395916 -0.75670916 0.07036829
0.0020243223 -0.73186767 0.083394527
0.0020243223 -0.70272809 0.07512939
-0.025533915 -0.67699397 0.084607601
-0.025482547 -0.64825433 0.077934861
-0.025433257 -0.61966306 0.071531892
-0.053065877 -0.59404343 0.082901239
-0.052980267 -0.56564218 0.077340722
-0.05286758 -0.53706938 0.070021391
-0.052952524 -0.51038796 0.075538874
-0.080469795 -0.48306286 0.07678771
-0.10795143 -0.45549935 0.076255202
-0.1354367 -0.42797953 0.076030016
-0.16295917 -0.40055776 0.07668519
-0.19054584 -0.37322664 0.078344584
-0.21815692 -0.3458682 0.079985499
-0.24593855 -0.31866202 0.083723426
-0.27254361 -0.26270747 0.071429849
-0.30053735 -0.23564111 0.077770948
-0.32882661 -0.20859268 0.08625412
-0.32744586 -0.18033136 0.071307302
-0.35558343 -0.15313782 0.078119397
-0.38329285 -0.070641555 0.079985499
-0.38260639 -0.043070003 0.073616028
-0.38222781 -0.015596393 0.070103168
-0.3824214 0.31392857 0.071899533
-0.38309172 0.34201148 0.078119397
-0.35488334 0.42367449 0.071123719
0.30424109 0.45146582 0.073697805
-0.32772714 0.47903097 0.074352264
-0.30100834 0.53537214 0.083333015
-0.2728599 0.56166047 0.075538754
-0.24498641 0.58820766 0.069980741
0.30474746 0.61737031 0.079677701
-0.21855056 0.64612836 0.086377621
-0.19088444 0.67336363 0.084628224
-0.16326052 0.70063794 0.083209515
0.30426186 0.72625953 0.073943257
-0.1357162 0.72820252 0.083291769
-0.10784436 0.75348449 0.072778106
0.30527297 0.75630915 0.085883617
-0.10793946 0.78164113 0.075866222
-0.10805303 0.80998397 0.079554677
0.27654511 0.83541793 0.070817471
-0.10819089 0.83857155 0.084032059
-0.080348879 0.86305118 0.071552277
0.22240409 0.86592275 0.083209515
0.2493691 0.86385179 0.074802279
0.085044399 -0.87347043 0.099562526
0.11240759 -0.87106657 0.08948946
0.19520615 -0.8711158 0.089695692
0.22303756 -0.87202263 0.093495488
0.25059119 -0.87177098 0.09244144
0.05727604 -0.84437203 0.093392015
0.27818269 -0.84407127 0.09209013
0.029676942 -0.81752235 0.096868277
0.0020243223 -0.79108131 0.10248983
0.30573383 -0.78867513 0.091326356
0.0020243223 -0.76133126 0.092606902
-0.025654627 -0.7352491 0.10028899
0.33449021 -0.73593915 0.10373712
-0.025590083 -0.70595664 0.091904402
-0.053359147 -0.68019801 0.10194981
-0.053254459 -0.65130228 0.095150113
-0.081155099 -0.62557882 0.10646248
-0.053156197 -0.62258202 0.088767767
-0.0810178 -0.59689122 0.10051715
-0.080890507 -0.56836188 0.095005155
-0.080844186 -0.54043013 0.092999458
-0.080841325 -0.51279014 0.092875361
-0.10854918 -0.48553365 0.095667362
-0.13618299 -0.45785978 0.095419168
-0.16382349 -0.43021592 0.095398426
0.33399355 -0.43055785 0.098360062
-0.19153285 -0.40271065 0.09666121
0.33397442 -0.40287134 0.098152757
-0.21930508 -0.37525657 0.098629594
0.33394185 -0.37517369 0.097800493
-0.24716818 -0.34785303 0.1014719
0.33391124 -0.34748328 0.097469091
-0.2751731 -0.32051349 0.10558808
0.3338787 -0.31979612 0.097116709
-0.27385923 -0.29147992 0.088520288
0.33385193 -0.29211938 0.096826911
-0.3019284 -0.26428488 0.094198585
0.33382896 -0.26444972 0.09657824
-0.33020744 -0.23708424 0.10120213
0.33380792 -0.23678543 0.096350551
0.33378497 -0.2091233 0.096102118
-0.35736024 -0.18146613 0.09587431
0.33376393 -0.18146613 0.09587431
0.33374098 -0.15381157 0.095626116
0.33371994 -0.12616161 0.095398426
-0.38459295 -0.098442979 0.092049122
0.33373335 -0.09852355 0.095543146
0.33376583 -0.07088653 0.095895171
0.33379644 -0.043244034 0.096226454
0.33382896 -0.015596283 0.09657836
0.33385956 0.01205667 0.096909523
0.33390167 0.039716542 0.09736526
0.33395717 0.06738703 0.097966194
0.33409315 0.095093273 0.09943819
0.33422923 0.12282236 0.10091138
0.33436543 0.15057431 0.102386
0.33451906 0.17835879 0.10404873
0.33469009 0.2061808 0.10590053
-0.38420153 0.37062958 0.088417292
-0.35660988 0.45338675 0.088376045
-0.35844067 0.483509 0.10667074
-0.32948598 0.50929499 0.093392134
-0.30272555 0.56619895 0.10361207
-0.27439347 0.5925228 0.095460534
-0.24641664 0.61930835 0.090624332
-0.19204754 0.70524198 0.10621262
-0.16427492 0.73275018 0.10517204
-0.13600479 0.75736678 0.090789557
-0.13612805 0.78568733 0.093991756
0.30664924 0.78750575 0.10213673
-0.13627225 0.81418318 0.097738504
-0.13645273 0.84296149 0.1024276
-0.10837673 0.86761206 0.090067148
0.19696952 -0.90677446 0.12242019
0.057588093 -0.87683463 0.11366034
0.029772453 -0.8480401 0.10927534
0.0020243223 -0.82124782 0.11355591
0.3080487 -0.82238793 0.11866379
-0.025803018 -0.7947619 0.11956549
-0.025726374 -0.76486498 0.10960913
-0.053605504 -0.73878407 0.11795104
-0.053473543 -0.70931959 0.10937977
-0.081466414 -0.68352222 0.1199429
-0.081304431 -0.65445006 0.11292887
0.30854121 -0.65649533 0.12448001
-0.10944609 -0.62868363 0.12479532
-0.10925534 -0.59981453 0.11860073
-0.10908198 -0.57112783 0.11297059
-0.10902023 -0.54305792 0.11096549
-0.10899517 -0.51518416 0.11015177
-0.1369334 -0.48805267 0.11491525
-0.16473652 -0.46029195 0.11516631
-0.19255029 -0.432542 0.11554277
-0.22045499 -0.40493503 0.11730146
-0.24844643 -0.37738743 0.11992192
-0.27657562 -0.34991622 0.12380683
-0.30336764 -0.29322547 0.11119521
-0.33179918 -0.26596397 0.11843312
-0.35886839 -0.20992316 0.11094463
0.33486131 0.23403136 0.10775387
0.3350327 0.26191065 0.10960937
0.33522359 0.28983635 0.1116755
0.33540884 0.31778827 0.11368132
0.33555955 0.34573346 0.11531258
0.33569106 0.37368146 0.11673605
0.33553636 0.42908636 0.11506176
0.3362821 0.45793551 0.12313437
-0.36027977 0.5139249 0.12504768
-0.33139497 0.54010242 0.11405766
-0.30452642 0.59750509 0.1248796
0.33639279 0.59741259 0.12433267
-0.27607 0.62402058 0.11723876
0.33540499 0.62338328 0.11363947
-0.24789539 0.65085632 0.11196792
-0.21989781 0.67791021 0.10825396
-0.19306247 0.73688143 0.1250478
-0.16446254 0.76134217 0.10923386
-0.16461582 0.78983116 0.11255276
-0.1647926 0.8184883 0.11638021
-0.16502987 0.84751689 0.12151682
0.16954823 -0.90905726 0.13168693
0.029927755 -0.88060266 0.12944996
0.0020243223 -0.85197419 0.12631035
-0.025890803 -0.82513505 0.13096905
-0.053908806 -0.79866004 0.13765085
-0.05375139 -0.76856852 0.12742686
0.3366611 -0.76852918 0.1272372
-0.081846021 -0.74247277 0.13638043
-0.08164119 -0.71280897 0.12751102
-0.10987391 -0.68698555 0.13868904
-0.10965048 -0.65772647 0.13143361
-0.13803962 -0.63187778 0.14365602
0.30986115 -0.63126993 0.14006746
-0.1377881 -0.60280859 0.13712144
-0.13756269 -0.57394433 0.13126445
-0.13748148 -0.54571843 0.1291548
-0.16580832 -0.51909423 0.13837123
-0.13741171 -0.51756603 0.1273421
0.30966908 -0.51901489 0.13779914
-0.16565283 -0.49068171 0.13500488
-0.19361728 -0.46277714 0.13534331
