ply
format ascii 1.0
comment PCL generated
element vertex 654
property float x
property float y
property float z
element camera 1
property float view_px
property float view_py
property float view_pz
property float x_axisx
property float x_axisy
property float x_axisz
property float y_axisx
property float y_axisy
property float y_axisz
property float z_axisx
property float z_axisy
property float z_axisz
property float focal
property float scalex
property float scaley
property float centerx
property float centery
property int viewportx
property int viewporty
property float k1
property float k2
end_header
0.13138334 -0.080358848 -0.41174614
0.14828208 -0.080314264 -0.41367674
0.13122606 -0.029216737 -0.41401649
0.13110916 -0.012199899 -0.41570371
0.13099381 0.0047913156 -0.41736835
0.13143192 0.021941409 -0.41104501
0.1152097 -0.080686532 -0.39755905
0.16644953 -0.080623835 -0.40027338
0.11500642 -0.063479081 -0.40086001
0.13182996 -0.063410684 -0.40529978
0.11510423 -0.046360109 -0.39927155
0.13207383 -0.046340771 -0.40177971
0.11508989 -0.029216781 -0.39950442
0.11512357 -0.012070995 -0.39895749
0.14967597 -0.012044847 -0.3955698
0.11543174 0.0051518418 -0.39395326
0.14967518 0.0051268451 -0.39557993
0.14880764 0.022038337 -0.4068495
0.16645639 0.02219202 -0.4001925
0.11609845 -0.098287359 -0.38312745
0.1328766 -0.098069876 -0.39019299
0.15094271 -0.098410994 -0.37911409
0.15005529 -0.063636474 -0.39064193
0.16779797 -0.06373325 -0.38434923
0.15005921 -0.046426974 -0.39059114
0.16812961 -0.046505131 -0.3804329
0.16757926 -0.029216781 -0.38693202
0.15005529 -0.029216737 -0.39064211
0.16775714 -0.011962319 -0.38483125
0.16779797 0.0052997991 -0.38434923
0.11585218 0.022493877 -0.38712651
0.11714122 -0.11620673 -0.36619508
0.13429253 -0.11606968 -0.36975586
0.099301465 -0.081221461 -0.37439287
0.09911821 -0.063834183 -0.37779373
0.18607067 -0.063902378 -0.37336755
0.20418447 -0.064020976 -0.36566299
0.099114314 -0.046524994 -0.37786597
0.18661673 -0.046605129 -0.36745614
0.099128217 -0.029216737 -0.377608
0.099206708 -0.011895364 -0.3761515
0.18572664 -0.011902653 -0.37709165
0.20380923 -0.011843486 -0.36941278
0.09953285 0.0055190846 -0.37009877
0.1858861 0.0054380819 -0.37536567
0.20410514 0.0055751875 -0.36645567
0.1707523 -0.11685086 -0.34946024
0.15259475 -0.1165356 -0.35765368
0.10018762 -0.099062763 -0.35794777
0.16970326 -0.098942645 -0.36184859
0.18777686 -0.099156715 -0.35489738
0.18803988 -0.081737474 -0.35205007
0.082880162 -0.064191103 -0.35461313
0.22242258 -0.064140409 -0.35790586
0.24085841 -0.064270318 -0.34947085
0.082877234 -0.046703473 -0.35467631
0.20488721 -0.046672933 -0.35864079
0.082898162 -0.029216846 -0.35422313
0.18721697 -0.029216802 -0.36095852
0.20567365 -0.029216716 -0.35078245
0.082931772 -0.011721019 -0.35349578
0.22201008 -0.011784449 -0.3617335
0.2403498 -0.011723891 -0.3538754
0.22244978 0.0057107918 -0.35765368
0.099957123 0.023068901 -0.36222541
0.18810038 0.023319013 -0.35139537
0.10117649 -0.11723056 -0.33959663
0.18902475 -0.11716165 -0.34138864
0.20598826 -0.099380173 -0.34763861
0.22450745 -0.099659652 -0.33856082
0.083181739 -0.081829071 -0.34808356
0.20656893 -0.081973404 -0.34183621
0.25925726 -0.06437932 -0.34239
0.2776868 -0.064479142 -0.33590788
0.22427048 -0.046810623 -0.34075963
0.22427391 -0.029216759 -0.34072775
0.25881726 -0.011663027 -0.34596264
0.27746415 -0.01159877 -0.33760941
0.083307661 0.0059000365 -0.3453573
0.24091706 0.005844567 -0.34896278
0.2595658 0.0059843063 -0.33988482
0.083690219 0.023649715 -0.33707458
0.20653588 0.023532186 -0.34216648
0.20749813 -0.11750176 -0.33255106
0.22609633 -0.11783794 -0.32381779
0.083989538 -0.099905021 -0.3305946
0.24316108 -0.099937864 -0.32952887
0.26196262 -0.10021815 -0.32042539
0.066487588 -0.082335018 -0.32617486
0.22521533 -0.082200676 -0.33199227
0.2440244 -0.082430206 -0.32205236
0.066289738 -0.064549819 -0.33131516
0.29624814 -0.064582445 -0.3291949
0.3143822 -0.064629883 -0.32610995
0.066295944 -0.046884537 -0.33115381
0.24303555 -0.046888649 -0.33061606
0.26196662 -0.046967439 -0.32039273
0.066315815 -0.029216846 -0.33063745
0.24303803 -0.029216759 -0.33059442
0.26196662 -0.029216759 -0.32039285
0.066338181 -0.011540517 -0.33005649
0.29630637 -0.011530772 -0.32877475
0.066675469 0.0062705465 -0.32129347
0.27833429 0.0061216727 -0.33096015
0.29723483 0.0062585808 -0.32207412
0.22511695 0.023746055 -0.33290541
0.2438443 0.02396062 -0.32361209
0.24488327 -0.1181922 -0.31461436
0.28091949 -0.10050206 -0.31120563
0.26299715 -0.082661808 -0.3120259
0.33340403 -0.06476149 -0.31756699
0.3527894 -0.064915106 -0.30758917
0.049158983 -0.047017291 -0.31391591
0.28105846 -0.047046266 -0.31014377
0.31726936 -0.047075331 -0.30637026
0.33456042 -0.047046967 -0.31005615
0.31660855 -0.029216802 -0.31088829
0.049386255 -0.029216759 -0.30653512
0.2810427 -0.029216759 -0.31026429
0.33416796 -0.029216759 -0.3126052
0.31543127 -0.011454944 -0.31893724
0.33467174 -0.011380985 -0.30933309
0.31632864 0.0064012781 -0.31280202
0.067060381 0.024245098 -0.31129307
0.26272401 0.02417697 -0.31424344
0.067625709 -0.11888534 -0.29660541
0.26383999 -0.11855511 -0.30518311
0.28228015 -0.1187235 -0.30080843
0.067356989 -0.10073666 -0.30358708
0.30128211 -0.10106675 -0.29286546
0.28215596 -0.0828989 -0.30175745
0.30066258 -0.08300101 -0.29733658
0.3734203 -0.065167956 -0.29116362
0.30027789 -0.047123492 -0.30011261
0.35427859 -0.047136933 -0.29837692
0.29985598 -0.029216846 -0.30315751
0.353791 -0.029216802 -0.30139321
0.049491614 -0.011333216 -0.30311346
0.35447365 -0.011287449 -0.29717052
0.049752444 0.0066808388 -0.29464263
0.33549365 0.0065368824 -0.3039946
0.28171629 0.024387795 -0.30511707
0.30084679 0.02459823 -0.29600704
0.05015108 -0.13750768 -0.28169662
0.068309829 -0.13763997 -0.2788316
0.050003827 -0.11927508 -0.28647876
0.086103089 -0.11933838 -0.28483474
0.30190709 -0.11920288 -0.28835487
0.32105058 -0.10144699 -0.28051764
0.32038808 -0.08328481 -0.28504741
0.03198804 -0.029216759 -0.28665769
0.37504831 -0.011167202 -0.28155082
0.35561574 0.0067507513 -0.29010558
0.050054796 0.02485643 -0.28482354
0.32005617 0.024798874 -0.28731686
0.08694341 -0.13820297 -0.26664126
0.32171568 -0.11967954 -0.27597052
0.34173524 -0.12016129 -0.26345426
0.34102771 -0.10183083 -0.26804996
0.34032461 -0.083571903 -0.27261639
0.39481196 -0.065465048 -0.27186978
0.032246053 -0.011120478 -0.27548563
0.39588061 -0.011046259 -0.26583391
0.032442428 0.0071067102 -0.2669822
0.37637186 0.0070026889 -0.27373552
0.33993331 0.025079612 -0.27515829
0.03275758 -0.15708432 -0.25333565
0.050889052 -0.15684754 -0.25773019
0.032637581 -0.13857758 -0.25853163
0.10577151 -0.13877192 -0.25432384
0.032736346 -0.12051538 -0.25425494
0.36197105 -0.12064868 -0.25079238
0.36122015 -0.10221926 -0.25543737
0.38087094 -0.10247385 -0.24716938
0.032660849 -0.102155 -0.25752395
0.36047217 -0.083861776 -0.26006418
0.41602924 -0.065722816 -0.25512755
0.38068318 -0.04752256 -0.2482782
0.014380326 -0.029216846 -0.26050997
0.38065189 -0.029216716 -0.24846303
0.01458518 -0.010902736 -0.24720418
0.41719654 -0.010915136 -0.24880916
0.39742494 0.0072586723 -0.25711155
0.032652654 0.02547868 -0.25787914
0.36128694 0.025544591 -0.25502408
0.069640271 -0.1575731 -0.24426568
0.051245563 -0.10250518 -0.24615222
0.051245205 -0.084182844 -0.24616373
0.38247225 -0.084377915 -0.23771453
0.051380068 -0.065928206 -0.24178421
0.43759301 -0.065987721 -0.23792404
0.40160918 -0.047636453 -0.23347908
0.40161332 -0.029216802 -0.23345566
0.014720527 0.0075464994 -0.23841304
0.41878417 0.0075187869 -0.24021608
0.38276637 0.025984466 -0.23597783
0.051302232 0.044128254 -0.24431187
0.014851103 -0.15834549 -0.22993219
0.088606447 -0.15830752 -0.23063534
0.38422948 -0.12155142 -0.22733843
0.40225378 -0.10300753 -0.22983831
0.014942115 -0.084694155 -0.22402078
0.40361363 -0.084737137 -0.2221579
0.014850562 -0.066110142 -0.2299673
0.45966598 -0.066271238 -0.21950012
0.01484208 -0.047659252 -0.23051816
0.42278636 -0.047751352 -0.2185536
0.42279071 -0.029216802 -0.21852988
-0.0036066771 -0.029216759 -0.23133814
-0.0035019722 -0.010675902 -0.21773678
0.43907019 -0.010772265 -0.23024857
0.44037533 0.0077766851 -0.22346693
0.0148576 0.02613382 -0.22951007
0.033534341 0.044886068 -0.21970111
0.4239988 -0.10355704 -0.21199107
0.033682458 -0.084942043 -0.21328741
0.42496821 -0.085093141 -0.20674396
0.033682458 -0.066366993 -0.21328741
0.033682458 -0.047791898 -0.21328735
0.44394127 -0.047856197 -0.20493782
0.44422933 -0.029216802 -0.2034409
0.46130949 -0.010626307 -0.21128881
-0.0034304969 0.0080078244 -0.20845175
0.46233159 0.0080428459 -0.20618206
0.40444046 0.026411466 -0.21748799
-0.0033704955 -0.1412507 -0.20065725
0.01540046 -0.14154661 -0.19425023
-0.0033557825 -0.12265188 -0.19874603
0.015487293 -0.12304199 -0.18861032
0.01548711 -0.1042766 -0.18862236
0.44602826 -0.1041082 -0.19409329
0.44647262 -0.085438654 -0.19178456
0.48198235 -0.066551931 -0.20126981
0.50189245 -0.066640764 -0.19550544
-0.0033045206 -0.047955085 -0.19208688
0.46409214 -0.047914278 -0.19738573
-0.022042809 -0.029216846 -0.20126975
0.48388344 -0.010478826 -0.19212317
0.48439181 0.0082969591 -0.18967742
-0.0033665188 0.026812062 -0.2001406
0.42649254 0.026850082 -0.19849324
0.015408831 0.045686379 -0.19370675
0.46826416 -0.085790694 -0.17654097
0.48529273 -0.085587397 -0.18534267
0.50452113 -0.085634336 -0.18330961
0.52483255 -0.085790128 -0.17656553
0.48591042 -0.048029825 -0.18237114
0.48573047 -0.029216802 -0.18323654
0.46589711 -0.029216716 -0.18836766
-0.022042809 -0.010441542 -0.18728721
0.50640297 -0.010343656 -0.17457926
-0.022042809 0.0084710643 -0.17836523
0.50640297 0.0085293613 -0.17457914
0.44922003 0.027334683 -0.17750841
0.50428754 0.027175762 -0.18439358
0.52274829 0.027140956 -0.18590206
0.20396788 0.04612013 -0.17962456
0.26108998 0.046285316 -0.17426008
-0.022042809 -0.12373302 -0.17065841
-0.022042809 -0.10483056 -0.17063385
0.46923962 -0.1047987 -0.17166758
-0.022042809 -0.086069599 -0.16446292
-0.022042809 -0.067154124 -0.16215956
0.52781349 -0.067137942 -0.16321266
-0.040958285 -0.048132237 -0.16906935
-0.022042809 -0.048132628 -0.16902012
0.5075826 -0.048132017 -0.16910625
0.50756931 -0.029216759 -0.169168
0.52830607 -0.010239201 -0.16100621
0.52830607 0.0087383166 -0.16100621
-0.022042809 0.027506832 -0.17005509
0.47155479 0.027736757 -0.16009998
0.48886478 0.027550686 -0.16815686
-0.0031125173 0.046504363 -0.16714489
0.072905138 0.04674159 -0.15944183
-0.0030360837 -0.10524372 -0.15721607
0.49127072 -0.10526321 -0.15658116
-0.0029688794 -0.086438566 -0.14848578
-0.041067466 -0.067266151 -0.15488648
-0.0029470492 -0.067408234 -0.14564991
0.5295164 -0.048236124 -0.15558445
-0.041041009 -0.029216802 -0.15832329
0.529055 -0.029216759 -0.15765154
-0.041057296 -0.010202264 -0.15620768
-0.041122433 0.0089424402 -0.14774609
0.092094764 0.046875022 -0.15511096
0.18688688 0.046757556 -0.15891981
0.2443454 0.046894208 -0.15448749
-0.041205045 -0.10586566 -0.13701475
-0.041176848 -0.086618856 -0.14067781
-0.04118792 0.028218485 -0.13923907
-0.022042809 0.047401346 -0.1380136
0.11188185 0.047311634 -0.14093006
0.1697384 0.047495708 -0.134951
-0.041326463 -0.12563509 -0.12124181
-0.060681447 -0.087174758 -0.11660862
-0.06052883 -0.067702815 -0.12652147
-0.060511552 -0.04845117 -0.1276437
-0.060524508 -0.029216846 -0.12680221
-0.060557529 -0.009959463 -0.12465775
-0.060684226 0.0094246492 -0.11642861
0.1320373 0.047823213 -0.12431276
-0.06083449 -0.1068001 -0.10666847
-0.060818732 0.028947018 -0.10769188
-0.041425392 0.048313551 -0.10839105
0.15234393 0.048288323 -0.10920608
0.2873866 0.048140578 -0.11400843
-0.061024986 -0.12667225 -0.094295502
-0.080535121 -0.06821169 -0.093470693
-0.080487974 -0.048698537 -0.095512152
-0.080507606 -0.029216759 -0.09466207
-0.08056356 -0.0097099207 -0.092239022
-0.080950283 -0.10776008 -0.075493336
-0.080759488 -0.087933436 -0.083755374
-0.080757044 0.0099260844 -0.083860874
-0.080953963 0.029694431 -0.075334072
-0.061275236 0.049248084 -0.078041315
0.4318004 -0.12787838 -0.062959313
-0.10106718 -0.068728998 -0.059870362
-0.10100471 -0.048957262 -0.061899185
-0.10102373 -0.029216846 -0.061281443
-0.10109203 -0.0094544161 -0.059063435
0.39467788 -0.14827982 -0.048471332
0.41460675 -0.14830309 -0.047969103
-0.081469879 -0.12826192 -0.05299437
0.45418933 -0.12843189 -0.048579812
-0.10138227 -0.088721395 -0.049637437
-0.1013564 0.010440007 -0.050477505
-0.081668474 0.050284147 -0.044395089
0.43716407 -0.14900991 -0.032665372
-0.10168601 -0.10886002 -0.039773226
-0.12204725 -0.049217682 -0.028070569
-0.10162885 0.030472778 -0.041629553
-0.10164776 0.050388083 -0.041015506
0.37893629 -0.14951052 -0.021826267
-0.10236548 -0.12962013 -0.01770699
-0.12254999 -0.089521065 -0.015009165
-0.12213857 -0.069255106 -0.025697947
-0.12207165 -0.029216846 -0.027436376
-0.12216249 -0.0091928206 -0.025076509
-0.12250072 0.010966372 -0.016289115
-0.12223538 0.050937332 -0.023182631
0.23883775 0.051054098 -0.019386768
-0.12209713 0.070837587 -0.026774406
-0.08220055 0.071046107 -0.021355271
-0.06213475 0.071013041 -0.022213936
-0.042107768 0.071108013 -0.019747376
-0.123021 -0.10999937 -0.0027714968
-0.12286441 0.031276181 -0.0068401098
-0.022042809 0.071508951 -0.0093311071
-0.001817923 0.071907677 0.0010278225
-0.082699895 0.09209732 0.0002669096
-0.062488459 0.092120074 0.00076007843
0.36269024 -0.15071142 0.0041739941
-0.14377868 -0.069795355 0.0093967915
-0.14365108 -0.049484845 0.0066343546
-0.14368181 -0.029216759 0.0072995424
-0.14379898 -0.0089240912 0.0098364353
0.018602958 0.072397582 0.013757825
-0.042328954 0.09250018 0.0089856386
0.34595078 -0.15188128 0.029503107
-0.12385092 -0.13102496 0.018790245
-0.14431818 -0.090354532 0.021077633
-0.14421518 0.011507355 0.018847466
-0.14467941 0.032101512 0.028898478
-0.10360072 0.072730616 0.022408962
0.039227009 0.072899587 0.026798844
-0.10352978 0.093013667 0.020105004
-0.022042809 0.092989825 0.019590497
-0.083246991 0.11359295 0.023956776
-0.062901303 0.11378802 0.027575016
-0.1449192 -0.1111344 0.034090042
-0.16584066 -0.049759362 0.042293191
-0.16587748 -0.029216802 0.042976737
0.06003169 0.073376358 0.039185762
-0.0015887395 0.093507573 0.030799627
0.019068493 0.09411712 0.043995261
-0.10394707 0.1141156 0.033656359
-0.042555071 0.11436903 0.038359165
-0.16668144 -0.09120483 0.057896256
-0.16602813 -0.07035543 0.045772314
-0.16602342 -0.0086481832 0.045684934
-0.16652387 0.012063522 0.05497241
0.081065953 0.073891886 0.052582264
0.039895952 0.09466067 0.055765033
-0.022042809 0.11489109 0.048048377
-0.10446671 0.13563102 0.050532818
-0.083849929 0.13560221 0.050064683
-0.063359976 0.13605198 0.057366848
-0.16747679 -0.11232187 0.072656155
-0.1671083 0.032954078 0.065818191
-0.14636005 0.053661302 0.065285563
0.10231271 0.07441286 0.066114068
-0.12568665 0.095155887 0.066484094
0.060929738 0.095242113 0.068350554
-0.12591277 0.11620118 0.072358847
-0.0013530534 0.11561149 0.061416149
0.019509757 0.11621716 0.072656035
-0.042777389 0.13665986 0.067239165
-0.10519834 0.15788314 0.074292898
-0.18888371 -0.070926994 0.082896233
-0.18864045 -0.050041445 0.078946352
-0.1886837 -0.029216802 0.079648733
-0.18885602 -0.0083651412 0.082446814
0.12379132 0.074950449 0.080082297
0.08219412 0.095867492 0.081892848
0.04055541 0.11684572 0.084320664
-0.12632759 0.13763887 0.083136201
-0.022042809 0.1373882 0.079065919
-0.084480718 0.15809697 0.077378511
-0.063812405 0.15874636 0.086752892
-0.18965501 -0.092071407 0.095420837
-0.18945128 0.01263535 0.092112899
-0.16910058 0.054816179 0.10279036
0.14550979 0.075503655 0.094453096
0.10365167 0.096477605 0.095103145
0.061830856 0.11756218 0.097615242
-0.0011348519 0.13804689 0.089761376
0.019937912 0.13870609 0.10046601
-0.12686799 0.1594685 0.097176075
-0.043006096 0.15945286 0.096948981
-0.19068857 -0.11353975 0.11220396
-0.21207528 -0.050331537 0.11662054
-0.21212424 -0.029216759 0.11732709
-0.19017911 0.033834353 0.10393107
0.16752683 0.076099671 0.10993993
0.12543237 0.097190522 0.11053634
0.083303668 0.11826832 0.1107198
0.041229777 0.1395101 0.11352146
-0.022042809 0.16015503 0.10708475
-0.00092383288 0.16085404 0.11717343
-0.085357539 0.18183222 0.11534595
-0.21238331 -0.071514748 0.12106645
-0.21231927 -0.008075051 0.12014222
-0.21302387 0.013223447 0.13031209
0.18974361 0.076676413 0.12492406
0.1474044 0.097868674 0.12521756
0.1050683 0.11907939 0.12577426
0.062720791 0.14031032 0.1265167
0.020386679 0.16171592 0.12961423
-0.064324573 0.18219197 0.12001896
-0.043252066 0.18287578 0.12890112
-0.21333715 -0.092981614 0.13483393
-0.21391253 0.034739777 0.14313889
-0.19245301 0.055988334 0.1408546
0.2121971 0.077255897 0.13997972
0.16982582 0.098695658 0.14312315
0.12710992 0.119936 0.14166772
0.084473193 0.14120877 0.14110482
-0.14959536 0.162112 0.13533199
0.041898936 0.16260844 0.14249706
-0.022042809 0.18368298 0.13938606
-0.21457763 -0.11478782 0.15273881
-0.23655456 -0.072119117 0.16032732
-0.23617086 -0.050629631 0.15534282
-0.23622802 -0.029216802 0.15608549
-0.2364448 -0.0077766515 0.15890133
0.23511672 0.077933051 0.15757179
0.19232015 0.099401049 0.15839469
0.14947389 0.12086039 0.1588223
0.1065304 0.14221418 0.15742934
0.063667297 0.16363096 0.15725529
-0.10753042 0.18450212 0.15002966
-0.00066024065 0.18460885 0.15141511
-0.23771526 -0.093918532 0.17540526
-0.23726472 0.013827644 0.16955233
0.25842121 0.078654014 0.17630291
0.21527833 0.10023112 0.17636704
0.12883039 0.14320967 0.17359555
-0.17298158 0.1648474 0.17481244
0.085682504 0.1646888 0.17252374
0.020940235 0.18569842 0.16556871
-0.1730403 0.20806497 0.17590201
-0.15135309 0.2078521 0.17338753
-0.23833755 0.035671651 0.18348885
-0.21648835 0.057203427 0.1803174
0.17217682 0.12184293 0.17705691
0.1080265 0.16588718 0.18982124
0.042909317 0.18729031 0.18624783
-0.1303542 0.2090683 0.18775046
-0.23918702 -0.11607443 0.19452417
-0.26145154 -0.072745681 0.20102048
-0.26095784 -0.050936472 0.19519043
-0.26102117 -0.029216846 0.19593811
-0.26125962 -0.0074698552 0.19875407
0.2386083 0.10110871 0.19536901
0.1951014 0.12278409 0.19452417
0.15166156 0.14448756 0.19434547
-0.10913924 0.21029836 0.20227754
-0.26282045 -0.094883427 0.21718669
-0.26218897 0.014446065 0.20972908
0.21852538 0.12387208 0.21471298
0.17466137 0.14563134 0.21291804
-0.19709694 0.16771913 0.2162627
0.13072971 0.16720504 0.20884252
0.065227993 0.18896028 0.20794046
-0.19673908 0.21099052 0.2104516
-0.087703735 0.21153986 0.21693921
-0.26354668 0.036647946 0.22576284
-0.24125354 0.058467411 0.22136891
-0.15370627 0.1024467 0.22433543
0.19816519 0.14694944 0.23432398
0.1538278 0.16863763 0.22952068
0.088063769 0.19099635 0.23439074
-0.066045091 0.21279579 0.23177004
-0.26445425 -0.11736639 0.23648059
-0.28703216 -0.073381722 0.24233174
-0.28644529 -0.051250316 0.23597872
-0.2865102 -0.029216759 0.23668146
-0.2867175 -0.0071605351 0.23892534
-0.2875998 0.015042648 0.24847662
-0.2428052 0.081164509 0.24152553
-0.044159316 0.21406466 0.24675679
-0.28814954 -0.095743559 0.25442779
-0.28870311 0.037448347 0.26042044
-0.26659527 0.059711434 0.26176512
-0.24357562 0.10370285 0.25153363
-0.22157356 0.14814389 0.25371635
-0.22221617 0.17095667 0.26299155
0.17732501 0.17015091 0.25136447
-0.022042809 0.2153458 0.26188433
-0.28948486 -0.11836417 0.26888311
-0.31213522 -0.051531531 0.27251542
-0.31225887 -0.029216671 0.27375114
-0.31233621 -0.0068865847 0.27452385
-0.24563275 0.12729624 0.27825665
0.00030783564 0.2166402 0.27717185
-0.31345448 -0.096465655 0.28569865
-0.312758 -0.073942184 0.27873886
-0.31319833 0.015576366 0.28313887
-0.26880968 0.082949944 0.28791618
-0.24665163 0.1504702 0.2914921
0.022896623 0.21795008 0.29263973
-0.31537446 -0.11947276 0.30488384
-0.31421527 0.038207635 0.29330087
-0.29187879 0.06072849 0.29479814
-0.26989055 0.10597294 0.3006804
-0.3393988 -0.09722168 0.31843448
-0.33858246 -0.074436799 0.3108598
-0.33839843 -0.051813707 0.30915236
-0.3386147 -0.029216802 0.31115913
-0.33874196 -0.0065954067 0.31233978
-0.3394236 0.01612331 0.31866479
-0.2709794 0.12919748 0.31353915
0.045822918 0.21962428 0.31241035
-0.34060338 0.039046146 0.32961202
-0.31752455 0.061700605 0.32636917
-0.2946243 0.084358722 0.32451916
-0.27280194 0.15315351 0.33506227
-0.24947765 0.17547461 0.32820344
0.069127999 0.2215029 0.33459687
-0.34150562 -0.120492 0.33798337
-0.3658641 -0.097981103 0.35131752
-0.36505714 -0.074952066 0.34432936
-0.36495939 -0.052077994 0.34348273
-0.36541948 -0.029216759 0.34746718
-0.36577424 -0.0063013136 0.35053957
-0.29583329 0.10767829 0.33760679
-0.2970781 0.13122046 0.35108232
-0.36635175 0.016691003 0.35554087
-0.34382093 0.062719755 0.35946679
-0.32096797 0.085754402 0.36077797
-0.36794999 0.039964624 0.36938202
-0.32231015 0.10936809 0.37418985
-0.3707501 -0.12220548 0.39363158
-0.39323518 -0.029216802 0.3874445
-0.39433232 -0.0059487503 0.39635241
-0.39465427 0.017359629 0.39896584
-0.37154305 0.063983262 0.40049875
-0.34799731 0.087195501 0.39821875
-0.30244696 0.15771934 0.40920198
-0.39723566 -0.14646466 0.41992426
-0.37397653 -0.14652804 0.42157328
-0.39639756 -0.12280536 0.41311967
-0.42107728 -0.029216759 0.42292035
-0.39658114 0.041009173 0.41461015
-0.35209355 -0.14709195 0.43622708
-0.39821354 -0.099748835 0.42786336
-0.39822993 -0.052728482 0.42799664
-0.32823324 0.13565496 0.43337679
-0.32999912 -0.14766157 0.45102239
-0.42381093 -0.0055834409 0.44380891
-0.42402253 0.018074892 0.44542623
-0.40009218 0.065295458 0.44311643
-0.42601877 -0.14803326 0.46068048
-0.42633986 -0.076781139 0.46313345
-0.42602137 -0.052980244 0.46069992
-0.42616907 0.04209958 0.46182859
-0.35424951 0.11315741 0.45623183
-0.45148984 -0.029216846 0.47300518
-0.38037559 0.090227395 0.47699094
-0.40645388 -0.07726831 0.49476683
-0.4542079 -0.0052075591 0.49262083
-0.45444465 0.018827789 0.49432933
-0.43058631 0.066911139 0.49558246
-0.23834984 0.13902202 0.49586105
-0.21366715 0.16240758 0.48532963
-0.45660689 -0.12578663 0.50993383
-0.45690203 0.043259725 0.51206386
-0.21516755 0.13976729 0.50969303
-0.19040717 0.16319957 0.498191
-0.16695595 0.16400066 0.51119947
-0.43298012 -0.12590796 0.51387453
-0.45792133 -0.1018633 0.51942039
-0.23987716 0.11600602 0.51790583
-0.19177239 0.14051279 0.52352667
-0.43601617 -0.10227099 0.53707409
-0.45924374 -0.077794716 0.52896404
-0.45961863 -0.05352658 0.53166962
-0.24142475 0.092662059 0.54024386
-0.21653852 0.11665503 0.53195465
-0.16816804 0.14126256 0.53744185
-0.48697683 -0.053686939 0.55251157
-0.48678985 -0.029216846 0.55123317
-0.48613355 -0.0047910437 0.54674613
-0.48659694 0.019683573 0.5499146
-0.21792781 0.093211219 0.55451393
-0.19298263 0.11730299 0.54598582
-0.48949772 0.044591844 0.56974745
-0.46352658 0.068890698 0.55987251
-0.19421138 0.093760684 0.56878841
-0.17027335 0.094308674 0.58302319
-0.49209857 -0.0786964 0.5875293
-0.51992863 -0.029216846 0.6076014
-0.51930487 -0.0043537319 0.60354948
-0.52015549 0.020594563 0.60907495
-0.52149487 -0.054189503 0.61777461
-0.52340746 0.045987912 0.63019717
-0.52595693 -0.079608262 0.64675617
-0.55427152 -0.029216846 0.66604924
-0.55368912 -0.0039003249 0.66244638
-0.55494493 0.021535747 0.67021501
-0.52900571 0.09752395 0.6665585
-0.55621755 -0.054653704 0.67808723
-0.55644107 0.09802077 0.6794697
-0.50576472 0.098078541 0.68096519
-0.55924714 0.04752668 0.69682789
-0.55896306 0.073053591 0.69507074
-0.58465278 0.098649152 0.69579136
-0.48232257 0.098638795 0.69552088
-0.58465278 0.12422227 0.6957916
-0.55895942 0.12418789 0.69504809
-0.56165969 -0.080608964 0.7117517
-0.45867023 0.099203147 0.71018291
-0.589836 -0.029216846 0.7263968
-0.58931178 -0.0034318641 0.72330189
-0.43520105 0.099895053 0.72816479
-0.51441479 -0.10695977 0.74010646
-0.59190714 -0.055119812 0.7386266
-0.59113699 0.022518959 0.73407876
-0.59409207 0.074792132 0.75152802
-0.62038314 0.12687197 0.75315905
-0.62513065 -0.029216759 0.77997303
-0.5489108 -0.10824699 0.7958461
0 0 0 1 0 0 0 1 0 0 0 1 0 0 0 0 0 654 1 0 0
