ply
format ascii 1.0
comment PCL generated
element vertex 1247
property float x
property float y
property float z
element camera 1
property float view_px
property float view_py
property float view_pz
property float x_axisx
property float x_axisy
property float x_axisz
property float y_axisx
property float y_axisy
property float y_axisz
property float z_axisx
property float z_axisy
property float z_axisz
property float focal
property float scalex
property float scaley
property float centerx
property float centery
property int viewportx
property int viewporty
property float k1
property float k2
end_header
-0.41973814 -0.12352414 -0.32172316
-0.41895553 -0.10425434 -0.32578963
-0.41861284 -0.085100003 -0.32757056
-0.43882817 -0.066086233 -0.3219955
-0.41861284 -0.066000432 -0.32757056
-0.41861284 -0.046900891 -0.3275705
-0.42052108 -0.14285643 -0.31765509
-0.40333563 -0.1433541 -0.30688149
-0.40257758 -0.12393738 -0.31098473
-0.44260743 -0.10495261 -0.30311328
-0.40181977 -0.10458391 -0.31508642
-0.38453561 -0.10491629 -0.30429065
-0.44070944 -0.085445762 -0.31259614
-0.40147474 -0.085345164 -0.3169539
-0.38418934 -0.085592411 -0.30624628
-0.40147474 -0.06616392 -0.31695396
-0.38418934 -0.066328757 -0.30624628
-0.40147474 -0.04698268 -0.31695396
-0.38419145 -0.047065165 -0.30623442
-0.4214763 -0.027801484 -0.31269139
-0.40147692 -0.027801437 -0.3169421
-0.38419145 -0.027801437 -0.3062343
-0.42256674 -0.0085436944 -0.30702531
-0.40147692 -0.0086201038 -0.3169421
-0.38419145 -0.0085377097 -0.3062343
-0.40189677 0.010596165 -0.31466979
-0.38460368 0.010761971 -0.3039062
-0.40273207 0.02989951 -0.31014848
-0.40357044 0.049272768 -0.3056106
-0.38600096 -0.14385605 -0.29601425
-0.44452468 -0.12460915 -0.29353404
-0.38526601 -0.12435385 -0.3001653
-0.3678059 -0.12477437 -0.28923953
-0.36710113 -0.10525166 -0.29340076
-0.36675477 -0.085841842 -0.29544616
-0.36675477 -0.066495068 -0.29544604
-0.44394365 -0.047140554 -0.29643726
-0.36675683 -0.047148302 -0.295434
-0.36675683 -0.027801344 -0.29543406
-0.36675683 -0.0084545743 -0.29543388
-0.42365986 0.010801407 -0.30134535
-0.36715859 0.010928938 -0.29306167
-0.42475799 0.030234514 -0.29563957
-0.38540894 0.030148687 -0.29935789
-0.36793557 0.030399995 -0.28847361
-0.42585406 0.049755208 -0.28994417
-0.38621721 0.049605913 -0.29479295
-0.40441185 0.068716638 -0.30105633
-0.38703057 0.069134548 -0.29019916
-0.40525633 0.088231444 -0.2964856
-0.38827452 -0.16389036 -0.28317326
-0.36922655 -0.16401561 -0.28085101
-0.44644448 -0.14441362 -0.28394234
-0.36851501 -0.1443624 -0.28505224
-0.35087582 -0.14487313 -0.27399409
-0.35019296 -0.12519856 -0.27821821
-0.33177143 -0.10593078 -0.27134693
-0.34951437 -0.10558991 -0.28241593
-0.34916902 -0.086093426 -0.28455234
-0.33143017 -0.086347245 -0.27356356
-0.46767923 -0.066805393 -0.27528501
-0.34916902 -0.066662781 -0.28455222
-0.33143017 -0.066831976 -0.27356362
-0.34917098 -0.047232181 -0.28454006
-0.33143207 -0.047316752 -0.27355123
-0.34916902 -0.027801391 -0.28455222
-0.33143017 -0.027801437 -0.27356344
-0.34917098 -0.0083706025 -0.28454018
-0.33143017 -0.0082861688 -0.27356362
-0.34955978 0.011097157 -0.28213477
-0.35030991 0.030653486 -0.27749461
-0.36871538 0.049942307 -0.28386903
-0.35106084 0.050281577 -0.27284974
-0.42695272 0.069364145 -0.28423506
-0.36950016 0.069556579 -0.27923524
-0.38784689 0.088734619 -0.28558856
-0.37028781 0.089242943 -0.27458429
-0.38866618 0.10840674 -0.28096116
-0.38994765 0.12831074 -0.27372348
-0.35156095 -0.16461349 -0.2697559
-0.33373967 -0.16521655 -0.2585631
-0.33308139 -0.14538836 -0.26283866
-0.3324253 -0.12562653 -0.26710004
-0.31450081 -0.12605822 -0.25588369
-0.31387416 -0.10627492 -0.26016819
-0.46971479 -0.086533606 -0.26549131
-0.31353435 -0.086602911 -0.26249129
-0.31353617 -0.067002609 -0.26247877
-0.31353801 -0.047402114 -0.26246649
-0.31353617 -0.027801484 -0.26247877
-0.44981787 -0.027801391 -0.2670877
-0.45098636 -0.0081914347 -0.26124942
-0.31353617 -0.0082008056 -0.26247895
-0.3318094 0.011266956 -0.27110046
-0.31390142 0.011438193 -0.25998163
-0.33252814 0.030909015 -0.26643199
-0.33325148 0.050623819 -0.26173389
-0.35181648 0.069982283 -0.26817542
-0.33397746 0.07041169 -0.25701851
-0.43149349 0.089887016 -0.26064056
-0.35257488 0.089755721 -0.26348382
-0.41066939 0.10914902 -0.26718658
-0.37107834 0.10900196 -0.26991653
-0.35333416 0.10960163 -0.25878727
-0.37186971 0.12883304 -0.26524359
-0.37266612 0.14873804 -0.26054114
-0.31576049 -0.1658251 -0.24727118
-0.31512958 -0.14590816 -0.25158465
-0.29701838 -0.14643259 -0.24023056
-0.47381261 -0.12644728 -0.2457757
-0.29641742 -0.12649371 -0.24456799
-0.47175834 -0.10641377 -0.25565904
-0.29581845 -0.10662224 -0.2488904
-0.29548329 -0.086861134 -0.25130928
-0.29548678 -0.067174956 -0.25128424
-0.47278741 -0.047492675 -0.25070798
-0.29548678 -0.047488175 -0.25128424
-0.29548502 -0.027801391 -0.25129676
-0.29548502 -0.0081147943 -0.25129676
-0.45215771 0.011508802 -0.25539702
-0.29583758 0.01161105 -0.24875236
-0.45333704 0.031300016 -0.24950504
-0.31459206 0.031167099 -0.25525975
-0.29649764 0.031427361 -0.24398863
-0.45452175 0.051182754 -0.24358582
-0.31528527 0.050969169 -0.25052011
-0.31597924 0.070844442 -0.2457757
-0.33470616 0.090272911 -0.25228554
-0.31667945 0.090794735 -0.24098825
-0.3354356 0.11020729 -0.24754751
-0.3540982 0.12952173 -0.25406092
-0.33616969 0.13021649 -0.24277937
-0.35486308 0.14951488 -0.24932945
-0.35563281 0.16958325 -0.24456799
-0.2976214 -0.16643897 -0.23587871
-0.2589013 -0.16682857 -0.22864807
-0.4758828 -0.14663658 -0.23581541
-0.27874562 -0.14696164 -0.2287755
-0.27817297 -0.12693316 -0.23315132
-0.27760226 -0.10697255 -0.23751247
-0.2592234 -0.10732606 -0.22603297
-0.27727297 -0.087121628 -0.24002862
-0.2589013 -0.087384447 -0.22864807
-0.49762937 -0.06755171 -0.22681153
-0.27727628 -0.067348607 -0.24000335
-0.25890443 -0.067523919 -0.22862244
-0.27727628 -0.047575112 -0.24000323
-0.25890601 -0.047662795 -0.22860968
-0.27727464 -0.027801437 -0.24001598
-0.25890288 -0.027801437 -0.22863519
-0.27727464 -0.0080279931 -0.24001598
-0.25890288 -0.0079402644 -0.22863531
-0.27761218 0.011785256 -0.23743641
-0.25922653 0.011961268 -0.22600746
-0.2782428 0.031689942 -0.23261774
-0.29715845 0.051317111 -0.23922002
-0.27887243 0.051668532 -0.22780669
-0.45570943 0.071157128 -0.23765171
-0.29782346 0.071281508 -0.23442066
-0.29849273 0.091321148 -0.22959065
-0.31737858 0.11081833 -0.2362082
-0.29915917 0.11143415 -0.2247808
-0.31808031 0.13091661 -0.23141026
-0.39767361 0.15084808 -0.23008716
-0.33690462 0.15029943 -0.238006
-0.31878656 0.15109086 -0.22658181
-0.37668407 0.17018004 -0.23681629
-0.33764419 0.17045817 -0.2332021
-0.35640341 0.18972541 -0.23980117
-0.33838463 0.19069131 -0.22839308
-0.24036759 -0.22729658 -0.21715319
-0.24036759 -0.20734705 -0.21715319
-0.28033727 -0.18743075 -0.21661305
-0.26007023 -0.1872741 -0.21915734
-0.24036759 -0.18739754 -0.21715319
-0.27932024 -0.16705838 -0.22438443
-0.24036759 -0.16744801 -0.21715307
-0.25942799 -0.14716515 -0.22437167
-0.24036759 -0.14749849 -0.21715307
-0.25976536 -0.1273766 -0.2216326
-0.2403661 -0.12754849 -0.21716595
-0.2403661 -0.10759909 -0.21716607
-0.49981651 -0.087661266 -0.21666455
-0.2403661 -0.087649629 -0.21716607
-0.24036905 -0.067700677 -0.21714032
-0.24037054 -0.047751218 -0.21712744
-0.4791877 -0.027801437 -0.21991456
-0.24036759 -0.027801437 -0.21715331
-0.48045203 -0.007826278 -0.21383178
-0.24036759 -0.0078519341 -0.21715331
-0.2406767 0.01213886 -0.21447611
-0.25982374 0.031954661 -0.2211585
-0.2412416 0.032221928 -0.20958376
-0.26042324 0.052023157 -0.21629155
-0.27950606 0.07172247 -0.22296453
-0.26102334 0.072166771 -0.21141899
-0.46131679 0.092242837 -0.20963562
-0.28014213 0.091851696 -0.21810436
-0.43998888 0.11188044 -0.2164973
-0.28077888 0.11205608 -0.21323872
-0.41877565 0.13141543 -0.22331011
-0.29982993 0.13162294 -0.2199403
-0.30050671 0.1518894 -0.2150557
-0.31949544 0.17134093 -0.22173524
-0.3011843 0.17223161 -0.21016574
-0.32020509 0.19166598 -0.21688306
-0.33912978 0.21100157 -0.2235533
-0.32091931 0.21206878 -0.21200001
-0.22166657 -0.24822703 -0.20556843
-0.20279893 -0.24921793 -0.19386661
-0.22166657 -0.22818834 -0.20556843
-0.20279893 -0.22908919 -0.19386661
-0.26169601 -0.20812264 -0.20595765
-0.22166657 -0.20814957 -0.20556855
-0.20279762 -0.2089594 -0.19387996
-0.22166798 -0.18811174 -0.20555544
-0.20280024 -0.18883233 -0.19385374
-0.22166798 -0.16807297 -0.20555544
-0.20279762 -0.16870205 -0.19387984
-0.22166798 -0.1480342 -0.20555556
-0.20279893 -0.14857405 -0.19386661
-0.50423717 -0.12835716 -0.19615543
-0.22166798 -0.12799539 -0.20555544
-0.20279893 -0.12844531 -0.19386673
-0.50201535 -0.10792866 -0.20646322
-0.22166657 -0.10795617 -0.20556855
-0.20279893 -0.1083165 -0.19386661
-0.22166657 -0.087917499 -0.20556843
-0.20279893 -0.088187732 -0.19386661
-0.22166798 -0.067878962 -0.20555556
-0.20279893 -0.068058968 -0.19386673
-0.50269234 -0.047857367 -0.20332229
-0.22166935 -0.047840342 -0.20554256
-0.20280024 -0.047930341 -0.19385362
-0.22166657 -0.027801437 -0.20556855
-0.20279762 -0.027801437 -0.19387972
-0.22166657 -0.0077627208 -0.20556855
-0.20279762 -0.0076728109 -0.19387984
-0.48171958 0.012242595 -0.20773304
-0.22195908 0.012317752 -0.20285439
-0.48299041 0.032405786 -0.20161891
-0.22249106 0.032491237 -0.19791818
-0.48426452 0.052663751 -0.19548881
-0.24180865 0.052380942 -0.20467305
-0.24237633 0.072615668 -0.19975686
-0.26162896 0.092387535 -0.20650208
-0.2429477 0.092927635 -0.19480872
-0.26223361 0.11268364 -0.2015928
-0.28141803 0.13233647 -0.20835459
-0.2628406 0.13305634 -0.19666493
-0.28206128 0.15269426 -0.20343924
-0.28270698 0.17312917 -0.19850528
-0.30186448 0.19265053 -0.20525718
-0.28335682 0.19364263 -0.19353938
-0.36303073 0.21328747 -0.19880521
-0.30254537 0.21314542 -0.20034301
-0.34188074 0.23268981 -0.20568526
-0.32177085 0.23264052 -0.20617807
-0.3034355 0.23386736 -0.19391906
-0.18375845 -0.25021547 -0.18208563
-0.1837609 -0.22999807 -0.18205917
-0.18375723 -0.20977563 -0.18209887
-0.18375966 -0.18955794 -0.1820724
-0.18375845 -0.16933766 -0.18208575
-0.50646806 -0.14894633 -0.18580496
-0.18375966 -0.14911887 -0.1820724
-0.18375966 -0.12889917 -0.1820724
-0.18375966 -0.10867961 -0.1820724
-0.1837609 -0.088460475 -0.18205917
-0.18375966 -0.068240501 -0.1820724
-0.1837609 -0.048021086 -0.18205929
-0.18375845 -0.027801391 -0.18208563
-0.18375845 -0.0075819269 -0.18208563
-0.20307431 0.012498403 -0.19111502
-0.18401738 0.012680633 -0.17928255
-0.20357275 0.032763518 -0.18613422
-0.22302505 0.052741505 -0.19296324
-0.20407313 0.053105637 -0.18113434
-0.48554739 0.073017478 -0.18931663
-0.22356111 0.073068649 -0.18798947
-0.22409919 0.093473218 -0.18299663
-0.24351969 0.11331606 -0.1898551
-0.2246379 0.11395504 -0.17799807
-0.24409536 0.13378286 -0.18486953
-0.26345146 0.15350725 -0.19170511
-0.24467173 0.15432663 -0.17987812
-0.40567493 0.17417681 -0.18489599
-0.26406467 0.17403592 -0.18672645
-0.38429508 0.19378363 -0.19187546
-0.26468021 0.19464281 -0.18172896
-0.28400743 0.21423323 -0.18856788
-0.28492662 0.23510568 -0.18154395
-0.30552962 0.25562444 -0.17880607
-0.16454901 -0.27153674 -0.17015803
-0.16454674 -0.25122327 -0.17018461
-0.26621214 -0.23098092 -0.16929138
-0.16454901 -0.23091428 -0.17015791
-0.2873348 -0.21108899 -0.1631422
-0.16454674 -0.21060103 -0.17018473
-0.16454674 -0.19029008 -0.17018461
-0.16454674 -0.16997899 -0.17018461
-0.16454674 -0.14966792 -0.17018461
-0.16454901 -0.1293578 -0.17015791
-0.16454788 -0.10904612 -0.17017138
-0.53108776 -0.08883208 -0.16596639
-0.16454901 -0.088735349 -0.17015791
-0.52874804 -0.068327166 -0.17644703
-0.16454788 -0.0684238 -0.17017138
-0.16454901 -0.048112713 -0.17015791
-0.50967133 -0.027801484 -0.17094398
-0.16454674 -0.027801437 -0.17018461
-0.51103258 -0.0074476209 -0.16462862
-0.16454674 -0.0074903946 -0.17018461
-0.16478851 0.012864674 -0.16732943
-0.1844829 0.03303802 -0.17424321
-0.18494897 0.053473257 -0.16919804
-0.20457536 0.07352557 -0.17611539
-0.18541558 0.073986292 -0.16414654
-0.20507821 0.094023153 -0.1710906
-0.47050169 0.11472306 -0.16374493
-0.20558435 0.11459984 -0.16603315
-0.4487761 0.13464691 -0.1708374
-0.22518006 0.13451581 -0.17296708
-0.42716917 0.15446517 -0.17787886
-0.22572434 0.15515535 -0.16791689
-0.24525335 0.17495084 -0.17484093
-0.22626927 0.17587312 -0.16286075
-0.24583566 0.19565305 -0.16979802
-0.2652981 0.21532847 -0.17671227
-0.24642023 0.21643485 -0.16473567
-0.26624006 0.23635466 -0.16906452
-0.28692147 0.25697219 -0.16630042
-0.24691555 -0.25204787 -0.16044617
-0.14516118 -0.25224125 -0.15816188
-0.14516118 -0.23183775 -0.15816188
-0.14516017 -0.21143313 -0.15817535
-0.14516017 -0.19102964 -0.15817535
-0.14516118 -0.17062686 -0.15816176
-0.14516017 -0.1502226 -0.15817523
-0.14516118 -0.12981956 -0.15816176
-0.53346121 -0.10950295 -0.15533435
-0.14515911 -0.10941508 -0.1581887
-0.14516222 -0.089012645 -0.15814841
-0.14516118 -0.068608724 -0.15816188
-0.5337261 -0.048235931 -0.15414774
-0.14516118 -0.048205033 -0.15816164
-0.14516017 -0.027801484 -0.15817523
-0.14516017 -0.0073978882 -0.15817523
-0.51239741 0.013003668 -0.15829623
-0.14538299 0.013050245 -0.15528047
-0.51377177 0.033553585 -0.15192008
-0.165218 0.033314802 -0.16225743
-0.14577805 0.033594504 -0.15014875
-0.16564912 0.053843699 -0.15716612
-0.16608192 0.074451707 -0.15205503
-0.49235567 0.094694227 -0.1565603
-0.18588398 0.094578102 -0.15907598
-0.16651523 0.095138714 -0.14693797
-0.18635546 0.11524966 -0.15397251
-0.20609242 0.13525544 -0.16095626
-0.18682873 0.13600102 -0.14884901
-0.20660242 0.1559906 -0.15585983
-0.20711306 0.17680474 -0.15075743
-0.22681773 0.19667152 -0.15777183
-0.22736976 0.2175512 -0.15264952
-0.37048781 0.23799469 -0.15267646
-0.24737978 0.23761939 -0.1564256
-0.26813719 0.25833431 -0.15366197
-0.12559724 -0.25326747 -0.14604259
-0.12559724 -0.23277064 -0.14604235
-0.10585351 -0.23371215 -0.13381183
-0.12559533 -0.21227179 -0.14606965
-0.10585268 -0.2131201 -0.13382554
-0.12559816 -0.19177766 -0.14602888
-0.10585268 -0.19252916 -0.13382542
-0.12559724 -0.17127986 -0.14604247
-0.10585268 -0.17193827 -0.1338253
-0.53826296 -0.15134719 -0.13382554
-0.12559724 -0.15078297 -0.14604235
-0.10585268 -0.15134719 -0.13382554
-0.53585696 -0.13034143 -0.14460289
-0.12559626 -0.13028552 -0.14605606
-0.10585268 -0.13075623 -0.13382554
-0.12559533 -0.10978826 -0.14606953
-0.10585351 -0.11016576 -0.13381183
-0.12559816 -0.089292482 -0.146029
-0.10585351 -0.089574642 -0.13381195
-0.12559724 -0.068795219 -0.14604247
-0.10585268 -0.068983346 -0.13382554
-0.12559724 -0.048298422 -0.14604235
-0.10585268 -0.048392367 -0.13382542
-0.12559626 -0.027801484 -0.14605594
-0.10585268 -0.027801437 -0.13382554
-0.12559626 -0.0073045921 -0.14605594
-0.10585268 -0.0072105546 -0.13382542
-0.12580056 0.013237579 -0.14310741
-0.12615843 0.033876382 -0.13794219
-0.51514697 0.054201759 -0.14554024
-0.14617358 0.054218002 -0.14501047
-0.12651864 0.054595776 -0.13274288
-0.51652873 0.074949265 -0.13912964
-0.14657064 0.074921474 -0.13985264
-0.14696713 0.095703915 -0.13470185
-0.16695136 0.11590625 -0.14178741
-0.1673892 0.13675429 -0.13661683
-0.18730381 0.15683264 -0.14370584
-0.16782872 0.15768354 -0.13142633
-0.18778077 0.1777451 -0.13854289
-0.41393754 0.19832624 -0.13822889
-0.207627 0.19770041 -0.14562166
-0.18825957 0.19873863 -0.13335967
-0.39215374 0.21821424 -0.14547229
-0.20814297 0.21867673 -0.14046597
-0.22833365 0.2388923 -0.14370584
-0.24917072 0.25970796 -0.14091575
-0.085927576 -0.21397632 -0.12146819
-0.085927576 -0.19329017 -0.12146831
-0.43760392 -0.17260785 -0.12139916
-0.085928336 -0.17260489 -0.12145436
-0.085927576 -0.15191801 -0.12146819
-0.085928336 -0.13123244 -0.12145436
-0.085928336 -0.11054628 -0.12145448
-0.085927576 -0.089859724 -0.12146842
-0.56110168 -0.069133282 -0.12409222
-0.085926846 -0.069173411 -0.12148201
-0.085926846 -0.04848738 -0.12148213
-0.54133034 -0.027801484 -0.120085
-0.085926101 -0.02780153 -0.12149584
-0.54040194 -0.0071367435 -0.12424409
-0.085926101 -0.0071155429 -0.12149608
-0.54056525 0.013539271 -0.12351286
-0.10603677 0.013426444 -0.13083601
-0.086090922 0.013617394 -0.11843741
-0.54073167 0.034226835 -0.12276709
-0.10635865 0.034161188 -0.12560916
-0.10668096 0.054976568 -0.12037575
-0.1268793 0.075395472 -0.12753725
-0.12723945 0.096274823 -0.12233889
-0.1473673 0.11656819 -0.12950373
-0.12760292 0.11723694 -0.11709261
-0.4800224 0.13801317 -0.11617684
-0.14776899 0.13751383 -0.12428546
-0.45788112 0.15823072 -0.12352645
-0.14817335 0.15854216 -0.11903298
-0.43585029 0.17833412 -0.13089108
-0.16826996 0.17869402 -0.12621546
-0.16871294 0.19978656 -0.1209842
-0.18874022 0.21981376 -0.1281563
-0.16915764 0.22096153 -0.11573279
-0.20910391 0.24017747 -0.13086355
-0.18968795 0.24147512 -0.11789668
-0.23002279 0.26109636 -0.12803257
-0.066209316 -0.13203852 -0.10051405
-0.56616449 -0.11114005 -0.10217011
-0.065986626 -0.11104263 -0.10533559
-0.065816261 -0.09014713 -0.10902417
-0.56360996 -0.090049982 -0.1132313
-0.06581562 -0.069364972 -0.10903811
-0.56595397 -0.048629109 -0.10308123
-0.06581562 -0.04858318 -0.10903811
-0.06581562 -0.027801391 -0.10903823
-0.065816261 -0.0070195552 -0.10902417
-0.06595885 0.013809832 -0.105937
-0.086374432 0.034448408 -0.11317563
-0.066204786 0.034738451 -0.1006124
-0.086659819 0.055361301 -0.10787964
-0.10700452 0.075873271 -0.11512172
-0.086945578 0.076356217 -0.10257649
-0.52467954 0.097246006 -0.10131431
-0.10732847 0.096851163 -0.10986114
-0.50228512 0.11768448 -0.10878694
-0.1076546 0.11791191 -0.10456586
-0.12796782 0.13828108 -0.1118257
-0.12833416 0.15940775 -0.10653818
-0.14857818 0.17965175 -0.11377382
-0.12870193 0.18061751 -0.10123014
-0.14898354 0.20084305 -0.10850787
-0.14939159 0.22211856 -0.10320723
-0.17008306 0.24278538 -0.10480392
-0.21068621 0.26249537 -0.11505222
-0.19116405 0.26391086 -0.10191739
-0.06665644 -0.17425489 -0.090833664
-0.066432804 -0.15310934 -0.095675588
-0.56874657 -0.13240506 -0.090989113
-0.045852236 -0.13252875 -0.087775588
-0.04566437 -0.11143302 -0.092656612
-0.045518346 -0.090437502 -0.09645021
-0.045518346 -0.069558889 -0.09645021
-0.045517802 -0.04868 -0.096464396
-0.045517802 -0.027801437 -0.096464396
-0.045518346 -0.0069228262 -0.09645021
-0.045639358 0.014004262 -0.093306065
-0.04584568 0.035031006 -0.087945819
-0.54722977 0.055799246 -0.093659043
-0.066451043 0.055749238 -0.095280766
-0.54872048 0.076956443 -0.086981773
-0.066698909 0.076843522 -0.089914083
-0.087232456 0.097433522 -0.097252846
-0.066945821 0.098019421 -0.08456862
-0.087519705 0.11859332 -0.091922045
-0.10798196 0.13905556 -0.099249959
-0.087808862 0.13983737 -0.086556196
-0.10831065 0.16028254 -0.09391284
-0.10864061 0.18159315 -0.088554859
-0.12907112 0.20191041 -0.095900893
-0.4225319 0.22336744 -0.089687586
-0.1294418 0.22328769 -0.09055078
-0.40032953 0.24354665 -0.097196341
-0.15028644 0.24410854 -0.091582894
-0.1714506 0.26534033 -0.088654041
-0.046228349 -0.17494623 -0.078003645
-0.046039686 -0.15369913 -0.082905531
-0.025454111 -0.15429513 -0.07000041
-0.025302731 -0.13302371 -0.074916601
-0.025151446 -0.11182806 -0.079829693
-0.025030464 -0.090730615 -0.083758712
-0.0043499395 -0.09102641 -0.070947766
-0.59476161 -0.069971509 -0.069641471
-0.025030464 -0.069754153 -0.083758593
-0.0043499395 -0.069951467 -0.070947647
-0.025030464 -0.048777841 -0.083758593
-0.0043499395 -0.048876382 -0.070947766
-0.025030024 -0.027801437 -0.083772779
-0.0043496117 -0.027801437 -0.070962071
-0.57327878 -0.006729601 -0.071363688
-0.025030464 -0.006825123 -0.083758593
-0.0043499395 -0.0067264475 -0.070947766
-0.57345772 0.014354018 -0.070588946
-0.025129065 0.014200645 -0.080556631
-0.57363343 0.035449326 -0.069827914
-0.025295682 0.03532657 -0.075145602
-0.046053372 0.05614125 -0.08254993
-0.025462955 0.056536563 -0.069713235
-0.046261333 0.077334963 -0.077146649
-0.04646901 0.098611444 -0.071751118
-0.067194998 0.11928035 -0.079173803
-0.067445159 0.14062558 -0.073757172
-0.088099152 0.16116543 -0.081169128
-0.46730766 0.18267159 -0.074544549
-0.088389814 0.18257695 -0.075774789
-0.44485763 0.20307598 -0.082137227
-0.10897188 0.20298812 -0.083175659
-0.088682413 0.20407464 -0.070344806
-0.10930447 0.22446783 -0.077775359
-0.13029625 0.24544601 -0.078217626
-0.15172261 0.26703528 -0.072926402
-0.025606483 -0.1756442 -0.065051913
-0.0046726838 -0.15489699 -0.056972504
-0.004558064 -0.13352327 -0.061935663
-0.0044435263 -0.11222629 -0.066895247
0.016461633 -0.11262833 -0.053837895
-0.59746337 -0.091318034 -0.058319807
0.016525954 -0.091325089 -0.058015823
0.016525954 -0.070150487 -0.058015823
0.016525954 -0.048975989 -0.058015823
-0.57423103 -0.027801437 -0.067240596
0.016525954 -0.027801391 -0.058015823
0.016525954 -0.0066268872 -0.058015823
-0.0044252574 0.014398789 -0.067686677
0.016474824 0.014598785 -0.054694772
-0.0045510679 0.03562469 -0.062239051
-0.0046780407 0.056936003 -0.056740403
-0.025631338 0.077831507 -0.064244628
-0.025799058 0.099209711 -0.058797717
-0.046678625 0.11997373 -0.066305041
-0.51258504 0.14152004 -0.059231997
-0.046889089 0.14142108 -0.060837388
-0.4898831 0.16215327 -0.066909671
-0.067696333 0.16205567 -0.068319201
-0.047100373 0.16295439 -0.0553478
-0.067948505 0.18357125 -0.062859654
-0.068201676 0.20517255 -0.057378292
-0.088976189 0.22565781 -0.064893484
-0.11010844 0.24679668 -0.064720511
-0.13199139 0.26910198 -0.053750515
-0.0047900751 -0.17635341 -0.051889539
0.016224094 -0.17707983 -0.038409114
0.016307399 -0.15550441 -0.043820024
0.016384542 -0.13402773 -0.048830628
-0.60021889 -0.11284577 -0.046773195
0.037566863 -0.11303422 -0.040655255
0.037600011 -0.091626637 -0.044960976
0.037600011 -0.070351511 -0.044961095
-0.59945309 -0.049037874 -0.04998219
0.037600011 -0.049076475 -0.044961095
0.037600011 -0.027801437 -0.044961095
0.037600011 -0.0065264944 -0.044961095
0.03757409 0.014800502 -0.041593671
0.016390156 0.035925917 -0.04919517
-0.58057737 0.057458803 -0.039760232
0.016304921 0.057338789 -0.043658972
-0.0048051998 0.078332312 -0.051234603
0.016219117 0.078838408 -0.038085938
-0.55837226 0.099904999 -0.043746948
-0.0049325228 0.0998137 -0.045721292
-0.53541434 0.12077081 -0.051511168
-0.02596835 0.12067451 -0.053300142
-0.0050606951 0.12138194 -0.040171146
-0.026138306 0.1422253 -0.047780514
-0.026308954 0.16386262 -0.042238593
-0.047312513 0.18457374 -0.049836397
-0.047525503 0.20627986 -0.044302821
-0.068455875 0.22686048 -0.051874876
-0.047739334 0.22807325 -0.038747072
-0.089719251 0.24815942 -0.051103592
0.037444897 -0.17781256 -0.024811268
-0.58213365 -0.15600318 -0.033021331
0.037489004 -0.15611771 -0.030541301
-0.60299766 -0.134555 -0.035128951
0.037527949 -0.134537 -0.035600185
0.058875054 -0.13505052 -0.022256851
0.058875054 -0.11344396 -0.027346015
0.058875054 -0.091930978 -0.031781912
0.058875054 -0.070554428 -0.031781912
0.058875054 -0.049177982 -0.031781912
0.058875054 -0.027801437 -0.031781912
0.058875054 -0.006424848 -0.031767011
0.058875054 0.015004398 -0.028352737
0.037531234 0.03623002 -0.036027074
0.058875054 0.036537051 -0.022732496
0.037488211 0.057745934 -0.030437708
-0.58218467 0.079041846 -0.032800198
0.037445009 0.07934878 -0.02482605
0.01613342 0.10042335 -0.032519817
0.016047381 0.12209547 -0.026931167
-0.005189389 0.14303698 -0.034598589
-0.005318597 0.16477956 -0.029003739
-0.026480287 0.18558687 -0.03667438
-0.0054483265 0.18660977 -0.023386121
-0.47710165 0.2080283 -0.023653269
-0.026652306 0.2073988 -0.031087875
-0.45420727 0.22873966 -0.031530738
-0.026825026 0.22929876 -0.025478601
-0.069127381 0.24953716 -0.03733623
-0.048327722 0.25092575 -0.023460507
0.058875054 -0.17855173 -0.011094093
0.058875054 -0.15673701 -0.01713419
0.080428697 -0.13556974 -0.0087696314
0.080389142 -0.11385778 -0.013908029
0.080353975 -0.092238232 -0.018476248
-0.62982643 -0.070845313 -0.012890816
0.080353975 -0.070759349 -0.018476367
0.080353975 -0.049280368 -0.018476367
0.080353975 -0.027801484 -0.018476486
-0.60845447 -0.027801437 -0.012262225
0.080354095 -0.0063224118 -0.018461466
0.080380857 0.01521015 -0.014984369
0.08042454 0.036847003 -0.0093100071
0.058875054 0.058156878 -0.017089486
0.058875054 0.079864107 -0.011438608
0.037401751 0.10103838 -0.019206285
0.037358202 0.12281644 -0.013549209
0.01596076 0.14385571 -0.021305323
0.037314475 0.14468314 -0.007868886
-0.52327621 0.16624901 -0.0077939034
0.015873794 0.16570416 -0.015656471
-0.50012338 0.187198 -0.015746117
0.015786473 0.1876415 -0.0099848509
-0.005578585 0.20852847 -0.017745852
-0.0057093725 0.23053624 -0.012082696
-0.027318731 0.25232834 -0.009444952
0.08051756 -0.17929898 0.002773881
0.080468521 -0.15736215 -0.0035972595
0.10219201 -0.13609384 0.0048487186
0.10211213 -0.1142756 -0.00033986568
-0.63273597 -0.092639998 -0.0010793209
0.10203972 -0.09254846 -0.0050426722
0.12393565 -0.092861988 0.0085361004
0.10203972 -0.070966117 -0.0050426722
0.1239353 -0.071174935 0.0085209608
-0.63429332 -0.049462922 0.0052428246
0.10203949 -0.04938364 -0.0050576925
0.12393495 -0.049488116 0.008505702
0.1239353 -0.027801484 0.0085209608
0.10203972 -0.027801391 -0.0050427914
-0.61014867 -0.0062199775 -0.0051631927
0.10203996 -0.0062190033 -0.005027771
0.12393565 -0.0061145741 0.0085359812
-0.61185133 0.0154712 0.0019721985
0.10209447 0.015417987 -0.0014867783
0.10218269 0.037160009 0.0042426586
0.080468282 0.058571443 -0.0036275387
0.080512322 0.08038491 0.0020931959
0.058875054 0.10165985 -0.0057498217
0.080556542 0.1022875 0.0078374147
-0.56996942 0.12398866 0.0082017183
0.058875054 0.12354459 -3.7789345e-05
-0.54655802 0.14517948 0.00018882751
0.058875054 0.14551862 0.0056974888
0.037270572 0.16663888 -0.002165556
0.037226483 0.18868414 0.0035612583
0.015698798 0.20966792 -0.0042901039
0.015608434 0.23179831 0.0015791655
-0.43876067 0.25347093 0.0019721985
-0.0060972348 0.25374511 0.0047123432
0.10237572 -0.18005374 0.016780376
0.10227242 -0.1579936 0.010071635
0.12428987 -0.15863109 0.023874283
-0.63868248 -0.13679479 0.023060441
0.12416808 -0.13662308 0.018600106
-0.63570023 -0.11462335 0.010954022
0.12404708 -0.11469749 0.013360977
0.14604422 -0.093178339 0.022231817
0.14604376 -0.071385786 0.022216439
0.14604329 -0.049593519 0.022201061
0.14604376 -0.027801437 0.02221632
0.14604422 -0.0060091224 0.022231817
0.12401892 0.015627822 0.012141585
-0.61355925 0.037272789 0.0091289282
0.12415253 0.037475944 0.017926931
-0.61527574 0.059185773 0.016322017
0.10227102 0.058990464 0.0099803209
0.12428597 0.059413098 0.023705482
0.10235972 0.080910213 0.015741467
-0.61721742 0.081245817 0.02445817
-0.59352195 0.10267794 0.016291142
0.10244901 0.10292049 0.021541476
0.08060094 0.12427981 0.013604999
0.080645405 0.14636134 0.019380927
0.058875054 0.16758266 0.01145637
0.058875054 0.1897372 0.017238855
0.037182219 0.21081971 0.0093113184
0.058875054 0.21198268 0.023045182
0.037131663 0.23311923 0.015878916
0.015339542 0.25517935 0.019044161
0.12445275 -0.18081607 0.030926824
0.14652401 -0.15927488 0.037812829
0.14636001 -0.13715757 0.032486796
0.1461971 -0.11512356 0.02719605
0.16836882 -0.093497656 0.036061168
0.16836822 -0.071598634 0.036045671
0.16836822 -0.049700037 0.036045551
0.16836882 -0.027801437 0.036061049
0.16836882 -0.0059026517 0.036061287
0.14615682 0.015839418 0.025887966
0.16851214 0.016053384 0.039784193
0.14623836 0.037720993 0.028536201
0.14651732 0.059840888 0.037595868
0.12442067 0.081441276 0.029538155
0.12455593 0.10356028 0.035395145
0.10253868 0.12502126 0.027365446
0.10262872 0.14721325 0.033213496
0.080690168 0.16853449 0.025195956
0.10271912 0.16949682 0.039085388
0.080735117 0.19079918 0.031034946
-0.51074696 0.21319237 0.037332177
0.080780253 0.21315572 0.036898017
-0.48725834 0.23434262 0.029121876
0.058875054 0.23445229 0.030309558
0.036995843 0.25662833 0.033522487
0.14675148 -0.18158507 0.045200109
0.16897805 -0.15992507 0.0518893
0.16877103 -0.13769744 0.046510577
0.16856536 -0.11555367 0.041167498
0.19115512 -0.11598809 0.055277228
0.1909126 -0.093820222 0.050026417
-0.66637099 -0.071755767 0.046245217
0.19091189 -0.071813762 0.05001092
0.19091189 -0.04980753 0.050010681
0.1909126 -0.027801484 0.050026536
-0.64407873 -0.027801391 0.04496634
-0.64589608 -0.005777346 0.052343726
0.19091332 -0.0057950206 0.050042033
0.19108771 0.016269432 0.053817511
0.16861627 0.038043283 0.042489648
0.1689672 0.060272194 0.05160737
0.14669821 0.081977524 0.043470383
0.14688033 0.1042064 0.049385071
0.12469175 0.12577088 0.041276217
0.14706323 0.12652782 0.055324435
0.12482814 0.14807338 0.047181845
-0.55813086 0.17052181 0.053880215
0.12496508 0.1704686 0.053111792
-0.53436863 0.19191845 0.045574546
0.10280991 0.19187279 0.044981956
0.10290106 0.21434152 0.050902843
0.080841877 0.23580049 0.044903994
0.058875054 0.25809205 0.048150182
-0.49408063 -0.18262905 0.064571857
0.16927612 -0.18236294 0.059633493
0.19165528 -0.16058162 0.066105843
0.1914051 -0.13824312 0.060689211
-0.67269254 -0.11647628 0.071129918
0.21396969 -0.11642696 0.069527388
-0.66951203 -0.094018459 0.058610082
0.21367882 -0.094145902 0.064129591
0.21367797 -0.072030835 0.064113736
-0.67055702 -0.049905419 0.062723875
0.21367797 -0.049916133 0.064113617
0.21367882 -0.027801484 0.064129472
0.21367966 -0.0056864619 0.064145207
-0.64772666 0.016361197 0.059775233
0.21388684 0.016487664 0.067989826
-0.64956295 0.038614653 0.067229748
0.19136287 0.038442448 0.059775352
0.1916392 0.060707964 0.065757751
0.16919555 0.082519114 0.057540178
0.16942485 0.1048584 0.063497543
-0.60605443 0.12734874 0.070558548
0.16965571 0.12729153 0.069495678
-0.58202481 0.14899857 0.06220305
0.14724638 0.14894125 0.061272621
0.14743078 0.17144898 0.067261219
0.12510261 0.19295695 0.059066534
0.12524033 0.21553789 0.065030456
0.10303572 0.23716258 0.059649229
0.080980636 0.25957111 0.062929153
0.19202976 -0.18314859 0.074213505
0.21455903 -0.16124481 0.080464125
-0.67589271 -0.13912982 0.083727837
0.21426423 -0.13879371 0.074993372
0.23701243 -0.11687011 0.083920002
0.23667471 -0.094476268 0.078436017
0.23666979 -0.07225018 0.078356385
0.23666979 -0.050025806 0.078356385
0.23667078 -0.027801437 0.07837224
0.23667175 -0.0055768359 0.078388214
0.23691185 0.01670775 0.082287073
0.21421021 0.038770765 0.073990703
0.23709238 0.039029963 0.085218191
-0.65141273 0.060984462 0.074738741
0.21453579 0.061147578 0.080032825
0.19191594 0.083065994 0.07174933
0.21486273 0.083618432 0.08610034
-0.63023198 0.1055741 0.078994751
0.19219458 0.1055181 0.077782154
0.19247438 0.12806448 0.083839893
0.16988754 0.14981852 0.075518847
0.17012036 0.17244011 0.081567407
0.14761595 0.19405094 0.073275089
0.14780191 0.21674745 0.079313993
0.12546012 0.23853882 0.074547648
0.10331613 0.26106542 0.077861786
0.2150159 -0.18394233 0.088942528
0.23769273 -0.16191466 0.09496665
0.23735242 -0.13934986 0.089440942
0.26028675 -0.1173178 0.098457456
0.25990301 -0.094810709 0.092918277
0.25989187 -0.072471887 0.092756987
0.25989074 -0.050136499 0.092740893
0.25989187 -0.027801437 0.092757225
0.25989294 -0.0054661892 0.092773199
0.26016802 0.016930344 0.096743226
0.26037425 0.039364964 0.09972012
0.23766093 0.061591558 0.094450474
-0.65455937 0.08367262 0.087512612
0.23803832 0.084175654 0.10057855
0.21519019 0.10618296 0.092177033
0.21551989 0.12884332 0.098295569
0.19275537 0.15070559 0.089923382
0.19303752 0.17344214 0.0960325
0.17035413 0.19515671 0.08764112
0.19332014 0.19627361 0.10215116
-0.54589522 0.21858649 0.10103226
0.17058891 0.2179691 0.093740582
-0.52177882 0.24019273 0.092451096
0.1481182 0.23992805 0.089585543
0.12588513 0.26257551 0.092950463
0.23823811 -0.18474413 0.10382271
0.26105982 -0.1625912 0.10961568
0.26067311 -0.13991153 0.10403407
0.28379625 -0.11776994 0.11314166
0.28336552 -0.095148683 0.10754657
-0.70449483 -0.072705567 0.10793734
0.28334546 -0.072695546 0.10728598
0.28334421 -0.050248351 0.10726964
-0.68118739 -0.027801484 0.10456991
0.28334546 -0.027801484 0.10728598
-0.68314493 -0.0053160619 0.1122756
0.28334671 -0.0053541977 0.10730219
0.28365669 0.017154885 0.11132848
0.28389066 0.039703257 0.11436796
0.26101917 0.062040456 0.10902882
0.26144803 0.084739052 0.11521864
0.2384173 0.10685532 0.10673261
0.23879792 0.12963104 0.11291289
0.21585101 0.15159968 0.10444009
0.2161835 0.17445229 0.1106106
-0.57015479 0.19685218 0.10966456
0.2165174 0.19740202 0.1168071
0.19360469 0.21920291 0.10831201
0.17101449 0.24133311 0.10479748
0.26169893 -0.18555336 0.11884046
0.2846652 -0.16327551 0.12442958
0.28422987 -0.14047883 0.11877453
0.30754441 -0.11822668 0.12797475
-0.70787704 -0.095456123 0.12085986
0.30706578 -0.095489897 0.12232292
0.30703521 -0.072921433 0.121961
-0.70832455 -0.050366051 0.12256956
0.30703521 -0.050361458 0.12196112
0.30703521 -0.027801437 0.12196112
0.30703658 -0.005241232 0.12197757
-0.68510854 0.017288404 0.12000561
0.30738372 0.017381975 0.12607765
-0.68708277 0.040012792 0.12777674
0.30791265 0.040117964 0.1323235
0.28461194 0.062493294 0.12373817
0.28509328 0.085307688 0.12999058
0.2618787 0.10753427 0.12143505
0.26231006 0.13042574 0.12766123
-0.61908925 0.152989 0.12700105
0.23918013 0.15250355 0.11911929
-0.59454775 0.17498493 0.11829901
0.23956297 0.17547242 0.12533557
0.23994844 0.19854026 0.13159513
0.21685185 0.22044787 0.12301385
0.19415164 0.24275164 0.12015355
0.28540421 -0.18637197 0.1340301
0.30851001 -0.16396593 0.13937783
-0.71472788 -0.1415666 0.14703488
0.30802625 -0.14105205 0.13366544
0.332066 -0.14163104 0.14870846
-0.71128941 -0.11840909 0.13389742
0.33153647 -0.11868861 0.14297628
0.33100748 -0.095834598 0.13724971
0.33096454 -0.073149778 0.13678467
0.33096454 -0.050475631 0.13678467
0.33096454 -0.02780153 0.13678467
0.33096606 -0.0051272903 0.13680124
0.33135173 0.017611342 0.14097619
0.33193457 0.040463448 0.1472857
-0.68907154 0.062858731 0.13560569
0.30844522 0.062951237 0.13861275
0.30898005 0.085882582 0.14492905
-0.66860855 0.10860178 0.14454508
0.28557664 0.10821955 0.13626993
-0.6437732 0.13086107 0.13573861
0.28606209 0.13122952 0.1425761
0.26274443 0.15341572 0.13393068
0.28654963 0.15433824 0.14890933
0.26318064 0.17650415 0.14022684
0.26361874 0.19969155 0.14654994
0.24033558 0.22170678 0.13788116
0.21753487 0.24418689 0.1356889
0.30935681 -0.18719901 0.1493783
0.3325991 -0.16466357 0.15447962
0.35635281 -0.14221595 0.16390598
0.35577324 -0.11915471 0.15811479
0.35519597 -0.096183233 0.15234625
0.35513887 -0.073380537 0.15177572
0.3551372 -0.050590869 0.15175891
0.3551372 -0.027801391 0.15175879
0.35513887 -0.0050118659 0.1517756
0.3555626 0.017842701 0.15601003
0.35620221 0.040812507 0.16240108
0.33251995 0.063413396 0.15362263
-0.69361424 0.086212158 0.15348816
0.33311093 0.086463466 0.16002011
0.3095172 0.10891242 0.15127242
0.31005666 0.13204136 0.15764308
0.31059843 0.15527013 0.16404116
0.28703928 0.17754637 0.15526998
0.28753102 0.20085447 0.16165781
0.26405752 0.22297724 0.15288353
-0.55787528 0.24630983 0.1586709
0.24116644 0.24563555 0.15137303
0.33355901 -0.18803376 0.16487038
-0.65081394 -0.16516063 0.16524291
0.35693631 -0.16536814 0.16973662
0.38089049 -0.14280695 0.17926037
0.38025993 -0.11962574 0.17340946
0.37963182 -0.096535079 0.16758144
0.37955871 -0.073613428 0.16690326
0.37955871 -0.050707452 0.16690314
-0.71992373 -0.027801577 0.16688633
0.37955689 -0.027801577 0.16688633
0.37955871 -0.0048953742 0.16690314
0.38002339 0.018076984 0.17121494
0.38071743 0.041164763 0.17765462
0.35684285 0.063880943 0.16880298
0.35748798 0.087049685 0.17524946
0.33370292 0.10961244 0.16642845
0.33429748 0.13286163 0.17286491
0.33489302 0.15621047 0.17931175
0.31114256 0.17859925 0.17046714
-0.60757744 0.20200969 0.17666483
0.31168762 0.20202798 0.17690372
-0.58265305 0.22422741 0.16764915
0.28802359 0.22426184 0.16805625
0.26505232 0.24710153 0.16724217
0.35801774 -0.18887828 0.18054295
0.3815254 -0.16608013 0.1851517
0.40568498 -0.14340477 0.19479191
0.40500036 -0.12010159 0.1888628
0.40432039 -0.096890494 0.18297398
0.4042294 -0.073848732 0.18218613
0.4042294 -0.050825153 0.18218613
0.4042294 -0.027801344 0.18218601
0.4042294 -0.0047778618 0.18218601
0.40473637 0.018313309 0.18657649
0.40548769 0.04152111 0.19308317
0.38141632 0.064353131 0.18413949
0.38211825 0.087642536 0.19065273
0.35813591 0.11031905 0.18172383
0.49790004 0.11083795 0.19296229
0.35878661 0.13368936 0.18822622
0.35944021 0.15716161 0.19475722
0.33549273 0.17966163 0.18580389
0.33609346 0.20321381 0.19230711
0.31223503 0.22555853 0.18336809
0.28919438 0.24858178 0.18326545
-0.49700209 -0.21309388 0.20010293
0.38273564 -0.18973176 0.19638133
0.40637034 -0.16679959 0.20072711
0.43073645 -0.1440081 0.21046793
0.42999855 -0.12058231 0.20447671
0.42926568 -0.097249664 0.19852662
0.42915696 -0.07408677 0.19764411
0.42915481 -0.050944012 0.19762671
0.42915481 -0.027801391 0.19762671
0.42915481 -0.0046590026 0.19762659
0.42970333 0.018552138 0.20208013
0.43051305 0.041880652 0.20865417
0.40624225 0.064829908 0.19961786
0.40700415 0.088241562 0.20621586
0.4756965 0.087982222 0.19947922
0.38282323 0.11103354 0.19719422
0.38353133 0.13452667 0.2037642
0.3842425 0.15812276 0.21036315
0.36009663 0.1807366 0.20131671
0.36075595 0.20441468 0.20790482
0.33669841 0.22686999 0.19885576
-0.45507821 -0.26141658 0.22607923
-0.50167751 -0.23800869 0.22540951
-0.47613028 -0.23715131 0.21303523
-0.45507821 -0.23805508 0.22607923
-0.45508125 -0.21469468 0.22609699
-0.52391338 -0.21429378 0.21958709
-0.47613028 -0.21389034 0.21303535
0.40771693 -0.19059436 0.21238863
0.43147513 -0.16752647 0.21646535
0.45605081 -0.1446178 0.22630858
0.45526078 -0.12106864 0.22027206
0.45447171 -0.097612552 0.21424186
0.45434123 -0.074326806 0.21324515
0.45433891 -0.051064029 0.21322751
0.45433891 -0.027801437 0.21322763
0.45434123 -0.0045387987 0.21324515
0.45493239 0.018793473 0.21776235
0.45580173 0.042244375 0.22440529
0.43132848 0.065311976 0.21527445
0.43214962 0.088846847 0.22194147
0.40776736 0.11175546 0.21282566
0.47759429 0.1117716 0.21317506
0.40853393 0.13537268 0.21946418
0.40930387 0.15909383 0.22613227
0.3849549 0.18182132 0.21697366
0.38567045 0.20562382 0.22361302
-0.4338437 -0.26242939 0.23923635
-0.43384659 -0.23896781 0.23925412
-0.43384659 -0.21550499 0.23925424
0.43296355 -0.19146517 0.22854972
0.45684394 -0.16826105 0.23236918
0.48163214 -0.14523399 0.24231637
0.48078689 -0.12155966 0.23621595
0.479945 -0.097979747 0.23014009
0.47978824 -0.074569531 0.22900903
0.47978824 -0.051185485 0.22900903
0.47978824 -0.02780153 0.22900903
0.47978824 -0.0044173896 0.22900891
0.48042566 0.019037498 0.23360896
0.48135579 0.042611986 0.24032164
0.45667484 0.065798491 0.23107719
0.45755649 0.089457832 0.23781419
0.43297225 0.11248489 0.22862041
0.43379635 0.13622662 0.23531091
0.4346306 0.16007641 0.24208474
0.41007519 0.18291868 0.23281181
-0.41242421 -0.26345107 0.25250804
-0.41242695 -0.23988742 0.25252593
-0.41242695 -0.21632229 0.25252604
0.45848411 -0.19234641 0.24490249
0.48248085 -0.16900343 0.2484411
0.50658309 -0.12205584 0.25232875
0.50568497 -0.098350428 0.2461884
0.50550473 -0.074815087 0.24495602
0.50550216 -0.051308054 0.24493825
0.50550216 -0.027801437 0.24493825
0.50550216 -0.0042946804 0.24493825
0.50618464 0.019283799 0.24960458
0.50717688 0.04298313 0.25638795
0.48229498 0.066291787 0.24709976
0.45843971 0.11322133 0.24456346
0.45932919 0.13709138 0.25136042
-0.39082 -0.24081489 0.26591384
-0.39082 -0.21714674 0.26591384
-0.55513823 -0.19311272 0.25912428
0.48428094 -0.19323705 0.26143217
0.50839019 -0.1697536 0.26468372
0.50748479 -0.14585666 0.25849366
0.53265095 -0.12255664 0.26859462
0.53169835 -0.098724954 0.26240695
0.53148997 -0.075063013 0.2610532
0.53148717 -0.051432014 0.26103544
0.53148717 -0.027801344 0.26103532
0.53148717 -0.0041708127 0.26103544
0.53221881 0.01953288 0.26578712
0.53327429 0.043358445 0.27264273
0.50817871 0.066788703 0.26323783
0.50918239 0.090700507 0.27010012
0.48512775 0.13796334 0.26754355
-0.36902323 -0.24175063 0.2794193
-0.36902323 -0.21797851 0.27941954
0.51035595 -0.19413656 0.27812386
0.5345735 -0.17051105 0.2810818
0.53361028 -0.14648528 0.27482569
0.55900037 -0.12306339 0.2850529
0.55798644 -0.099103145 0.27878058
0.5577476 -0.075313069 0.2773031
0.5577476 -0.051557325 0.2773031
0.5577476 -0.027801437 0.2773031
0.5577476 -0.0040456448 0.2773031
0.55852985 0.019784791 0.28214216
0.55965292 0.043738306 0.2890892
0.53433728 0.067291036 0.27954745
0.53540504 0.091331035 0.28648269
0.58428776 -0.21886063 0.29374433
0.53671885 -0.1950468 0.29501617
0.56162679 -0.19538541 0.30129921
0.58428776 -0.19497828 0.29374433
0.56003928 -0.17099126 0.29147935
0.58429098 -0.17109671 0.29376268
0.56001854 -0.14712134 0.2913506
0.58428776 -0.14721343 0.29374421
0.58429098 -0.12333164 0.29376268
0.58429098 -0.099449143 0.29376268
0.58429098 -0.075566508 0.29376268
0.58428776 -0.05168388 0.29374421
0.58428776 -0.027801577 0.29374409
0.58428776 -0.0039190389 0.29374433
0.58511925 0.020038793 0.29865348
0.56077802 0.067799129 0.29604924
0.56191123 0.091969214 0.3030591
0.61111236 -0.24389434 0.31036162
0.56393921 -0.2202068 0.31560373
0.61111236 -0.21988399 0.31036139
0.61111236 -0.19587374 0.31036139
0.61111569 -0.17186427 0.31037998
0.61111569 -0.14785369 0.31037998
0.61111236 -0.12384274 0.31036139
0.61111236 -0.099832438 0.31036139
0.61111569 -0.075822413 0.31037998
0.61111236 -0.051811833 0.31036139
0.61111236 -0.027801484 0.31036139
0.61111236 -0.0037911814 0.31036139
0.61199749 0.020296039 0.3153609
0.58630836 0.04412128 0.30567503
0.58750296 0.068312652 0.31272852
0.58900774 -0.24467392 0.32161391
0.63822579 -0.24505806 0.32715762
0.63822579 -0.22091843 0.32715762
0.63822579 -0.19677873 0.32715762
0.63821888 -0.1726374 0.32711995
0.63821542 -0.14849734 0.32710123
0.63822234 -0.12435947 0.3271389
0.63822234 -0.10021996 0.3271389
0.63822579 -0.076080635 0.32715762
0.63822579 -0.051941082 0.32715762
0.63822579 -0.027801484 0.32715762
0.63822579 -0.0036617462 0.32715762
0.6391629 0.020555841 0.33222997
0.61325419 0.044508889 0.32245803
0.61451316 0.06883128 0.3295691
0.66563284 -0.24623425 0.34413564
0.54519713 -0.22233033 0.3500843
0.66563284 -0.22196393 0.34413564
0.66562927 -0.19769266 0.34411669
0.66562557 -0.17342153 0.34409738
0.66562557 -0.14915152 0.34409761
0.66563284 -0.12488277 0.34413564
0.66562927 -0.10061188 0.34411657
0.66563284 -0.076342106 0.34413564
0.66563284 -0.052071676 0.34413564
0.66563284 -0.027801437 0.34413564
0.66563284 -0.0035311971 0.34413564
0.66662693 0.020818701 0.34930134
0.64048839 0.044900216 0.33940434
0.57050335 -0.24707067 0.35620868
0.69333446 -0.24742208 0.36127925
0.69333446 -0.22301976 0.36127925
0.69333827 -0.19861846 0.36129856
0.69333446 -0.17421512 0.36127925
0.69333446 -0.14981285 0.36127925
0.69333827 -0.12541118 0.36129856
0.69333446 -0.10100831 0.36127949
0.69333446 -0.07660608 0.36127949
0.69333827 -0.052203991 0.36129868
0.69333827 -0.027801484 0.36129856
0.69333827 -0.0033990704 0.36129856
0.69438732 0.021084065 0.36653996
0.66802275 0.045296222 0.35655391
0.72134292 -0.22408834 0.37862992
0.72133899 -0.19955128 0.37861049
0.72134292 -0.17501648 0.37862992
0.72134292 -0.15048067 0.37862992
0.72134292 -0.12594484 0.37863016
0.72134292 -0.101409 0.37862992
0.72134292 -0.076873116 0.37862992
0.72134697 -0.052337371 0.37864935
0.72134697 -0.027801484 0.37864935
0.72134697 -0.0032655057 0.37864935
0.6958549 0.045696266 0.37387204
0.74965978 -0.077143215 0.39617157
0.74966836 -0.052472651 0.39621091
0.74966407 -0.027801437 0.39619124
0.74966407 -0.003130503 0.39619124
0.72245646 0.021352632 0.38398755
0.75311005 -0.15177202 0.41217852
0.75164056 -0.12676793 0.40536106
0.75018156 -0.1018701 0.398592
0.7508316 0.021623937 0.40160787
0.75481367 -0.1769311 0.42008233
0.7803911 -0.12732103 0.42331874
0.77886307 -0.10228304 0.4164741
0.77829444 -0.077416651 0.4139272
0.77829897 -0.052609138 0.41394699
0.77829444 -0.027801391 0.41392732
0.77829444 -0.0029938761 0.41392732
0.75848079 -0.20270284 0.43709588
0.7837956 -0.17778505 0.43856895
0.78193021 -0.15246604 0.43021286
0.80946481 -0.12788016 0.44147849
0.80786622 -0.10270052 0.43455672
0.80724359 -0.077692643 0.43186057
0.80724823 -0.052747201 0.43188059
0.80724359 -0.027801437 0.43186057
0.80724359 -0.00285572 0.43186057
0.78763747 -0.20370969 0.45577836
0.81311131 -0.1786487 0.45726836
0.81107485 -0.15316802 0.44845021
0.83886707 -0.12844554 0.45984328
0.83719647 -0.10312293 0.45284295
0.83651662 -0.077971831 0.44999444
0.83652151 -0.052886888 0.45001495
0.83651185 -0.027801344 0.44997406
0.81713164 -0.20472802 0.47467685
0.84054959 -0.15387793 0.46689427
0.86685932 -0.10354984 0.47133696
0.84276164 -0.17952143 0.47616363
0.86860335 -0.12901752 0.47841692
0.35853177 -0.24573368 0.73010707
0.332127 -0.24640317 0.74097681
0.38742715 -0.24683629 0.74801028
0.41661635 -0.24795005 0.76609576
0.30788842 -0.24914664 0.78552783
0.44610393 -0.24907516 0.78436577
0 0 0 1 0 0 0 1 0 0 0 1 0 0 0 0 0 1247 1 0 0
