ply
format ascii 1.0
comment PCL generated
element vertex 1293
property float x
property float y
property float z
element camera 1
property float view_px
property float view_py
property float view_pz
property float x_axisx
property float x_axisy
property float x_axisz
property float y_axisx
property float y_axisy
property float y_axisz
property float z_axisx
property float z_axisy
property float z_axisz
property float focal
property float scalex
property float scaley
property float centerx
property float centery
property int viewportx
property int viewporty
property float k1
property float k2
end_header
-0.38558879 0.040780272 -0.30742919
-0.40329459 0.05946485 -0.31348348
-0.38558683 0.059557855 -0.307441
-0.40250447 0.078092903 -0.31794602
-0.3855828 0.078334987 -0.30746442
-0.40356827 0.096974678 -0.31193751
-0.40469787 0.11596321 -0.30555761
-0.36851645 -0.072291978 -0.29688019
-0.36851832 -0.053433381 -0.29686832
-0.36851645 -0.034574028 -0.2968803
-0.36851645 -0.015715122 -0.29688019
-0.36851832 0.0031436495 -0.29686844
-0.36851832 0.022002645 -0.29686832
-0.40672633 0.040882893 -0.29410088
-0.36852026 0.040861733 -0.29685646
-0.36851832 0.059720591 -0.29686832
-0.42620501 0.078718334 -0.29086214
-0.36851645 0.078579366 -0.29688019
-0.38662124 0.097301185 -0.30133307
-0.36952591 0.097630568 -0.2906357
-0.38771117 0.11637346 -0.29489726
-0.40583339 0.13505149 -0.29914415
-0.40697494 0.15424046 -0.29269689
-0.35293156 -0.11115561 -0.2756148
-0.37133849 -0.091957115 -0.27942336
-0.35202307 -0.09186051 -0.28151548
-0.35129943 -0.072702438 -0.2862156
-0.33393189 -0.073116489 -0.2754578
-0.35130128 -0.05376178 -0.28620374
-0.33393365 -0.054092981 -0.27544576
-0.35129943 -0.034820382 -0.2862156
-0.33393365 -0.035069026 -0.27544576
-0.39022583 -0.015974324 -0.28004885
-0.35130128 -0.015879568 -0.28620368
-0.33393365 -0.016045317 -0.27544564
-0.38930714 0.0030559003 -0.28547341
-0.35129943 0.0030616969 -0.2862156
-0.33393189 0.0029787999 -0.27545786
-0.33393365 0.0220026 -0.27544564
-0.38930714 0.022002645 -0.28547341
-0.35130128 0.022002645 -0.28620356
-0.3513031 0.040943816 -0.2861917
-0.33393541 0.041026577 -0.2754336
-0.35130128 0.059884813 -0.28620374
-0.33393365 0.060050469 -0.27544564
-0.35129943 0.078825668 -0.2862156
-0.33393189 0.079074048 -0.2754578
-0.4266592 0.097699225 -0.28840375
-0.35228035 0.097962834 -0.27984434
-0.42722934 0.11674221 -0.28531772
-0.37057543 0.11678741 -0.28414345
-0.42780092 0.135833 -0.28222394
-0.38880885 0.13554698 -0.28841567
-0.37163246 0.13604632 -0.27760482
-0.42837393 0.15497187 -0.27912241
-0.38991031 0.15482157 -0.28191173
-0.40807161 0.17351303 -0.2865029
-0.39093181 0.17416716 -0.27588034
-0.39093181 0.19318774 -0.27588034
-0.35508081 -0.13103795 -0.26165485
-0.33551741 -0.11174826 -0.26461762
-0.33464667 -0.092366003 -0.27057087
-0.31711525 -0.092876025 -0.25952882
-0.39322937 -0.073622338 -0.2623139
-0.31641179 -0.073534139 -0.26460558
-0.39222136 -0.054314062 -0.26826596
-0.31641349 -0.054427199 -0.2645933
-0.39122224 -0.035098724 -0.27416539
-0.31641349 -0.035319783 -0.26459336
-0.31641349 -0.016212322 -0.2645933
-0.31641179 0.0028952733 -0.26460558
-0.31641519 0.0220026 -0.26458108
-0.31641519 0.041110151 -0.26458114
-0.42985538 0.060117327 -0.27110416
-0.31641349 0.060217611 -0.26459336
-0.31641179 0.079324663 -0.26460558
-0.33488259 0.098298058 -0.26895791
-0.35328871 0.11720499 -0.27329504
-0.33584902 0.11762626 -0.26235044
-0.35430428 0.13655013 -0.26669848
-0.37269312 0.15540725 -0.2710436
-0.35532343 0.15599802 -0.26007897
-0.42973676 0.17442173 -0.27174592
-0.37364334 0.17482707 -0.26516563
-0.41229388 0.19410399 -0.26265544
-0.37364334 0.19393006 -0.26516563
-0.33727148 -0.15079364 -0.25262505
-0.33639231 -0.13122395 -0.2586357
-0.31878385 -0.13191047 -0.24748677
-0.37643343 -0.11264879 -0.24790645
-0.31794754 -0.11234616 -0.2535224
-0.29943001 -0.093391784 -0.24836314
-0.29873717 -0.073955588 -0.25365752
-0.29873878 -0.054764353 -0.25364512
-0.29873878 -0.035572603 -0.25364512
-0.29873878 -0.016380809 -0.25364524
-0.29873717 0.0028109401 -0.25365752
-0.29874039 0.0220026 -0.25363278
-0.29874039 0.041194439 -0.25363278
-0.29873878 0.060386099 -0.25364512
-0.45349351 0.079724371 -0.24730152
-0.29874682 0.079579242 -0.25358367
-0.45410743 0.099063039 -0.24411136
-0.31733057 0.098636292 -0.25797486
-0.2996223 0.098977447 -0.24689388
-0.31825429 0.11805125 -0.25130856
-0.33682239 0.13705835 -0.25569528
-0.31918466 0.13757104 -0.2445941
-0.33780101 0.15659484 -0.24900454
-0.3562043 0.17549261 -0.25435764
-0.35620239 0.19467804 -0.25436985
-0.32131553 -0.19117504 -0.2292161
-0.33858913 -0.17068684 -0.24361598
-0.32046869 -0.17132482 -0.2353276
-0.36000758 -0.15238506 -0.22965443
-0.31962422 -0.1515699 -0.24142194
-0.30181772 -0.15235305 -0.23011768
-0.3010169 -0.13260332 -0.23623741
-0.30021992 -0.11294942 -0.24232727
-0.28233236 -0.11355809 -0.2310313
-0.39801729 -0.094053179 -0.23404264
-0.28158221 -0.093910992 -0.23712158
-0.28090593 -0.074380741 -0.24261242
-0.26291743 -0.074810006 -0.23145664
-0.28090745 -0.055104434 -0.24260008
-0.26291743 -0.055447564 -0.23145652
-0.41790414 -0.036096223 -0.23096883
-0.28090593 -0.035827357 -0.24261242
-0.26291743 -0.036084991 -0.23145664
-0.41682357 -0.016636014 -0.23707175
-0.28090745 -0.016550872 -0.24260002
-0.26291743 -0.016722459 -0.23145652
-0.41579211 0.0027281344 -0.24289745
-0.28090745 0.0027257968 -0.24260002
-0.26291743 0.0026400704 -0.23145664
-0.28090897 0.0220026 -0.24258763
-0.41579211 0.022002645 -0.24289751
-0.26291886 0.022002645 -0.23144412
-0.28090897 0.041279405 -0.24258763
-0.26291886 0.041365311 -0.23144412
-0.28090745 0.060556117 -0.24260002
-0.26291743 0.06072766 -0.23145652
-0.28092426 0.079836018 -0.24246359
-0.26294199 0.080095083 -0.23124397
-0.2817556 0.099321611 -0.23571384
-0.45471817 0.11845042 -0.24093795
-0.30050248 0.11847998 -0.24016821
-0.45533043 0.1378869 -0.23775637
-0.30138904 0.13808841 -0.23339355
-0.45593953 0.1573714 -0.2345916
-0.32012007 0.15719628 -0.23784351
-0.33861086 0.17616323 -0.24346733
-0.32086474 0.17684057 -0.23246908
-0.45642975 0.19622484 -0.23204422
-0.33861086 0.19543332 -0.24346733
-0.32086474 0.19619536 -0.2324692
-0.32216823 -0.21112332 -0.22306192
-0.30342954 -0.19214162 -0.21780109
-0.3026225 -0.17219928 -0.22396815
-0.28385139 -0.15314418 -0.2186985
-0.38165817 -0.13387507 -0.21558678
-0.28309077 -0.1333032 -0.22487354
-0.2642827 -0.11417229 -0.21963298
-0.26357162 -0.094434343 -0.2257911
-0.2454004 -0.094963625 -0.21433234
-0.4200722 -0.075300239 -0.21872365
-0.24476793 -0.075243354 -0.2202009
-0.41898778 -0.055651054 -0.22484851
-0.24476659 -0.05579371 -0.22021353
-0.24476659 -0.03634464 -0.22021353
-0.24476659 -0.016895622 -0.22021341
-0.24476659 0.0025535338 -0.22021353
-0.24476793 0.0220026 -0.2202009
-0.24476793 0.041451804 -0.2202009
-0.24476659 0.060900778 -0.22021353
-0.24479786 0.080356583 -0.21992314
-0.26372981 0.099669464 -0.22442102
-0.28259143 0.1189127 -0.22892773
-0.26451904 0.11934915 -0.21758628
-0.28343338 0.13861036 -0.22209215
-0.3022804 0.15780306 -0.22658241
-0.28427988 0.15841541 -0.2152195
-0.4579356 0.17734858 -0.22421968
-0.30296201 0.17752391 -0.2213738
-0.30506057 -0.23232421 -0.205338
-0.30424389 -0.21218422 -0.21157837
-0.28615409 -0.2132535 -0.20000267
-0.34334192 -0.19270733 -0.21112108
-0.28538221 -0.19311816 -0.2062695
-0.2846157 -0.17308268 -0.2124927
-0.26644284 -0.17397311 -0.20092547
-0.26571977 -0.1539416 -0.20718777
-0.26500019 -0.13400856 -0.2134192
-0.24674451 -0.1347203 -0.20186031
-0.40356728 -0.11516178 -0.2012713
-0.24607012 -0.1147928 -0.20811808
-0.22706321 -0.095497705 -0.20276904
-0.22645527 -0.07568039 -0.20884407
-0.22645274 -0.056143127 -0.20886934
-0.22645274 -0.036606677 -0.20886934
-0.22645402 -0.017070446 -0.20885658
-0.22645402 0.0024660993 -0.2088567
-0.22645402 0.022002555 -0.2088567
-0.22645402 0.041539192 -0.20885682
-0.22645274 0.061075509 -0.20886946
-0.48189056 0.080780767 -0.20155299
-0.22648969 0.080620363 -0.20850027
-0.24553984 0.10001992 -0.21303868
-0.24628308 0.1197897 -0.20614195
-0.2074444 0.11990467 -0.20315278
-0.26531547 0.13913709 -0.21068871
-0.22661209 0.13929465 -0.20727706
-0.20736761 0.13944674 -0.20398366
-0.2661148 0.15903252 -0.20376635
-0.22619814 0.15862045 -0.21141315
-0.20736761 0.15902081 -0.2039839
-0.28490055 0.17821327 -0.21018004
-0.26667678 0.17890793 -0.19889951
-0.22603804 0.17803884 -0.21301317
-0.20736526 0.17859322 -0.20400941
-0.22620198 0.19765672 -0.21137512
-0.20736645 0.19816801 -0.20399666
-0.22669888 0.21755618 -0.20640993
-0.20736761 0.21774295 -0.20398378
-0.20760164 0.23753142 -0.20145071
-0.30760109 -0.25398001 -0.18592489
-0.32642543 -0.23362508 -0.19233847
-0.28692818 -0.23348719 -0.19371784
-0.26789832 -0.21433261 -0.18832076
-0.26716805 -0.19410247 -0.19464517
-0.36505502 -0.1742852 -0.19687057
-0.24810335 -0.17487174 -0.18925202
-0.24742225 -0.15474644 -0.19557166
-0.22895661 -0.15555865 -0.1838491
-0.22832152 -0.13543868 -0.19019568
-0.22768953 -0.11541828 -0.19651055
-0.20914246 -0.11605094 -0.18477058
-0.42572102 -0.096234389 -0.18681908
-0.20855783 -0.096036695 -0.19109952
-0.20797604 -0.07612098 -0.19739747
-0.18934146 -0.076571092 -0.18570447
-0.20797488 -0.05649592 -0.19741023
-0.18932828 -0.056851499 -0.18586004
-0.44553253 -0.037129033 -0.1862489
-0.20797369 -0.036870956 -0.19742298
-0.18932718 -0.037137751 -0.18587291
-0.44435742 -0.017320529 -0.19260931
-0.20797488 -0.01724666 -0.19741035
-0.18932828 -0.017424539 -0.18585992
-0.44321898 0.0023885053 -0.19877136
-0.20797488 0.0023779925 -0.19741023
-0.18932939 0.0022889394 -0.18584716
-0.44321898 0.022002555 -0.19877136
-0.20797488 0.0220026 -0.19741023
-0.18932828 0.0220026 -0.18586004
-0.44321898 0.041616827 -0.19877136
-0.20797488 0.041627251 -0.19741023
-0.18932828 0.04171617 -0.18586004
-0.20797369 0.061251681 -0.1974231
-0.18932718 0.061429426 -0.18587303
-0.20801641 0.080886893 -0.19696057
-0.48253977 0.10047345 -0.1983093
-0.20875716 0.10076185 -0.1889416
-0.18876988 0.10065375 -0.19245458
-0.48320103 0.12021833 -0.19500566
-0.22843921 0.12044878 -0.18901932
-0.18876879 0.12031606 -0.19246733
-0.48386651 0.14001502 -0.19168055
-0.48453379 0.15986338 -0.18834662
-0.24850944 0.16001764 -0.18548393
-0.24807549 0.17948616 -0.18951058
-0.24862969 0.19952789 -0.18436837
-0.18876769 0.19896585 -0.19248021
-0.18876988 0.21863046 -0.19245446
-0.18876769 0.23829105 -0.19248044
-0.18901041 0.25821835 -0.18961406
-0.32854155 -0.2549347 -0.17706645
-0.26863071 -0.23466197 -0.18197799
-0.25016418 -0.23584765 -0.1701299
-0.34820828 -0.2152999 -0.17784953
-0.24947432 -0.21542165 -0.1765312
-0.24878642 -0.19509581 -0.1829139
-0.23023504 -0.19609845 -0.17107427
-0.22959489 -0.1757786 -0.17747104
-0.38703457 -0.155664 -0.18232894
-0.21032049 -0.15637833 -0.17201805
-0.20972882 -0.13616371 -0.1784234
-0.19042163 -0.11668796 -0.17294812
-0.18988074 -0.096579991 -0.17933571
-0.44812536 -0.077090263 -0.17221487
-0.17053713 -0.077026278 -0.17387772
-0.44670868 -0.05703567 -0.17988265
-0.17051198 -0.057210498 -0.17420459
-0.17051096 -0.037406839 -0.1742177
-0.17051198 -0.0176039 -0.17420483
-0.17051296 0.002199214 -0.17419159
-0.17051198 0.0220026 -0.17420471
-0.17051198 0.041805893 -0.17420471
-0.17050995 0.081411764 -0.17423081
-0.17000069 0.10101113 -0.18084621
-0.15106107 0.10137228 -0.16911888
-0.17000069 0.12076338 -0.18084633
-0.24976873 0.14084093 -0.17379904
-0.18962507 0.14044577 -0.18235505
-0.1700017 0.14051609 -0.18083322
-0.19019566 0.16054937 -0.17561674
-0.15106288 0.16090086 -0.16909254
-0.19019677 0.18034264 -0.17560375
-0.1700017 0.1800206 -0.18083322
-0.15106288 0.18074358 -0.16909254
-0.15106197 0.20058534 -0.16910577
-0.15106197 0.22042772 -0.16910577
-0.2294983 0.23948023 -0.1784364
-0.1699997 0.23927504 -0.18085933
-0.15106197 0.24027032 -0.16910577
-0.21061258 0.26013595 -0.16885614
-0.1699997 0.25902709 -0.18085933
-0.15106107 0.26011163 -0.16911888
-0.29001948 -0.25584501 -0.16861975
-0.23152629 -0.23704439 -0.15817153
-0.23087969 -0.21652088 -0.16463244
-0.37025189 -0.19677231 -0.16311598
-0.21151152 -0.19711024 -0.15912485
-0.21091512 -0.17669392 -0.16558099
-0.1915115 -0.15720558 -0.16007757
-0.40925729 -0.1368258 -0.16767335
-0.19096521 -0.13689625 -0.16652882
-0.17202701 -0.13763562 -0.15452385
-0.17152722 -0.11733092 -0.16101623
-0.17103094 -0.097128406 -0.16746294
-0.152006 -0.097681902 -0.15547991
-0.15155743 -0.077485196 -0.16195428
-0.1515236 -0.057572588 -0.1624428
-0.1515236 -0.03767889 -0.16244268
-0.1515236 -0.017785016 -0.1624428
-0.1515245 0.0021087248 -0.16242957
-0.1515236 0.0220026 -0.1624428
-0.1515236 0.041896477 -0.1624428
-0.51134646 0.081876755 -0.15409887
-0.1918907 0.08184211 -0.15559936
-0.15123776 0.081588745 -0.16656828
-0.13214773 0.081878275 -0.15403247
-0.23194981 0.10183973 -0.15393937
-0.13194914 0.10173751 -0.1572572
-0.13194914 0.14160497 -0.1572572
-0.17130466 0.16118044 -0.16390729
-0.13194993 0.16153949 -0.15724409
-0.48938829 0.18105152 -0.16409183
-0.13194667 0.18147001 -0.15729702
-0.17130567 0.20094648 -0.16389418
-0.25050408 0.22059169 -0.16697633
-0.17130567 0.22082898 -0.1638943
-0.13208556 0.24146125 -0.15504169
-0.13194831 0.26120609 -0.15727043
-0.35194659 -0.25760496 -0.15229034
-0.27231711 -0.25784603 -0.15005314
-0.35321584 -0.2385014 -0.14361262
-0.21271579 -0.23825362 -0.14608836
-0.21211213 -0.21763021 -0.15262306
-0.19316918 -0.21874997 -0.1405015
-0.19261457 -0.19813263 -0.14705074
-0.39254549 -0.17802882 -0.14823925
-0.19206166 -0.17761767 -0.15358043
-0.17303208 -0.17855009 -0.14146781
-0.17252724 -0.15804052 -0.14802563
-0.15291078 -0.13838094 -0.14241993
-0.4317379 -0.11777181 -0.15283585
-0.15245773 -0.11798056 -0.14895976
-0.13280426 -0.098241061 -0.14337158
-0.13240099 -0.077948473 -0.14991987
-0.13236076 -0.057938188 -0.15057278
-0.11302111 -0.05830697 -0.13859332
-0.47414541 -0.038197253 -0.13999104
-0.13236076 -0.037952967 -0.1505729
-0.11302111 -0.038229603 -0.13859344
-0.47288191 -0.018029571 -0.14655626
-0.13236076 -0.017967701 -0.15057278
-0.11302184 -0.018152367 -0.13857985
-0.47163758 0.0020362064 -0.15302205
-0.13236159 0.0020172913 -0.15055954
-0.11302184 0.0019250941 -0.13857985
-0.47162738 0.0220026 -0.15307522
-0.13236076 0.0220026 -0.15057266
-0.11302111 0.0220026 -0.1385932
-0.47162738 0.041968543 -0.1530751
-0.13236076 0.041987773 -0.15057278
-0.11302111 0.04208006 -0.13859332
-0.47162738 0.061934531 -0.15307522
-0.11302184 0.062157702 -0.13857985
-0.51205164 0.10193925 -0.15070593
-0.11265903 0.10210531 -0.14531267
-0.51276696 0.12205589 -0.14726436
-0.15223987 0.12186961 -0.15210402
-0.13286947 0.12224644 -0.14231277
-0.1126583 0.12213048 -0.14532614
-0.51348144 0.14222528 -0.14382708
-0.15224172 0.14184423 -0.15207744
-0.11265903 0.14215663 -0.14531267
-0.51419777 0.16244814 -0.14038038
-0.1126583 0.18220723 -0.14532614
-0.1330017 0.20259029 -0.14016557
-0.1330017 0.22265562 -0.14016569
-0.11265903 0.24228504 -0.14531267
-0.11265903 0.26231068 -0.14531267
-0.25435644 -0.25987458 -0.13123071
-0.1937277 -0.23947281 -0.13390541
-0.37558192 -0.219859 -0.12849629
-0.17404835 -0.21988022 -0.12826586
-0.17353944 -0.19916353 -0.13487673
-0.15382385 -0.17949128 -0.12924147
-0.41509953 -0.1590693 -0.13317645
-0.13402466 -0.15973595 -0.12355435
-0.15336618 -0.15888429 -0.13584733
-0.13361526 -0.13913336 -0.13020253
-0.13320874 -0.11863569 -0.13680363
-0.11377875 -0.11929684 -0.12453341
-0.11342149 -0.098805025 -0.13116312
-0.45447865 -0.098497257 -0.13782656
-0.11306605 -0.078416511 -0.13775933
-0.093548551 -0.078888416 -0.12549806
-0.47542572 -0.058468856 -0.13333857
-0.093502142 -0.058679312 -0.12650275
-0.093502142 -0.038508844 -0.12650275
-0.093502767 -0.018338602 -0.12648916
-0.093502767 0.001831999 -0.12648916
-0.093502142 0.022002645 -0.12650275
-0.093502767 0.042173199 -0.12648928
-0.093502767 0.062343802 -0.12648916
-0.093317509 0.10256144 -0.1305002
-0.093190156 0.12259501 -0.13325751
-0.093190156 0.14271346 -0.13325751
-0.11358418 0.16310754 -0.12814391
-0.093470186 0.16315866 -0.12719464
-0.093535379 0.18341076 -0.12578321
-0.11358418 0.20342326 -0.12814391
-0.093190156 0.20306888 -0.13325751
-0.11320903 0.22304517 -0.13510585
-0.093190774 0.22318846 -0.13324404
-0.09318953 0.24330479 -0.13327098
-0.27545074 -0.28096882 -0.12291491
-0.37668443 -0.260941 -0.12133539
-0.23613486 -0.26193416 -0.11211967
-0.17455983 -0.24070215 -0.12162137
-0.15521277 -0.24194577 -0.10919392
-0.15474808 -0.2210224 -0.11590135
-0.3982071 -0.20099765 -0.11321688
-0.15428478 -0.20020413 -0.12258816
-0.13484809 -0.20125455 -0.1101836
-0.13443452 -0.18044147 -0.11689961
-0.11449944 -0.16059476 -0.11115885
-0.43791667 -0.1398887 -0.11793816
-0.11413855 -0.13989365 -0.11785638
-0.094165839 -0.11996504 -0.11213338
-0.093856089 -0.09937416 -0.11883962
-0.47748411 -0.078998365 -0.12264264
-0.073846735 -0.079364859 -0.11312091
-0.073801368 -0.05905506 -0.11429954
-0.073801368 -0.038790602 -0.11429954
-0.07380189 -0.018526413 -0.11428583
-0.07380189 0.0017381404 -0.11428583
-0.07380189 0.022002555 -0.11428583
-0.07380189 0.042267106 -0.11428583
-0.07380189 0.06253165 -0.11428583
-0.073842511 0.082820557 -0.11323059
-0.073911682 0.12343498 -0.11143339
-0.073540002 0.14327544 -0.12108994
-0.073540002 0.16348758 -0.12109005
-0.073540002 0.18369985 -0.12109005
-0.073540002 0.20391184 -0.12108994
-0.073591426 0.22422692 -0.11975396
-0.13568169 -0.24320126 -0.096647978
-0.13526382 -0.22217414 -0.10343313
-0.11522678 -0.20231494 -0.097661018
-0.4211002 -0.18191603 -0.097744346
-0.11486218 -0.18140158 -0.1044271
-0.094788812 -0.16146168 -0.098645687
-0.094476521 -0.14066038 -0.10540664
-0.46100137 -0.12048299 -0.1025213
-0.074366018 -0.12063881 -0.099629521
-0.074105978 -0.099949449 -0.10638559
-0.054167345 -0.10052945 -0.093826771
-0.053958401 -0.079846241 -0.10061264
-0.053916231 -0.059434317 -0.10198212
-0.053916231 -0.039075144 -0.101982
-0.50246227 -0.018765304 -0.09877038
-0.053916655 -0.018716153 -0.10196829
-0.50112027 0.0016702954 -0.10547578
-0.053916655 0.0016433373 -0.10196841
-0.053916655 0.0220026 -0.10196841
-0.053916655 0.042361908 -0.10196829
-0.50107056 0.062663436 -0.10572386
-0.17623039 0.062752888 -0.099920392
-0.053916655 0.062721305 -0.10196841
-0.54192168 0.083014339 -0.10484123
-0.053952001 0.083107129 -0.10082018
-0.542687 0.10346091 -0.10129058
-0.074414022 0.1035504 -0.098382235
-0.54345733 0.12396301 -0.097716451
-0.54422677 0.14452001 -0.094146848
-0.52120334 0.18458757 -0.10667479
-0.40202644 -0.26436216 -0.089590788
-0.21766178 -0.26404363 -0.092546344
-0.38105461 -0.24357143 -0.092949986
-0.11596312 -0.24446741 -0.083996415
-0.11559401 -0.22333688 -0.090846181
-0.095418192 -0.20338541 -0.085018992
-0.09510269 -0.1823698 -0.091849804
-0.075154737 -0.18334836 -0.07913816
-0.44426394 -0.1626088 -0.082088828
-0.074890114 -0.16233695 -0.086013079
-0.074627399 -0.14143443 -0.092838764
-0.054588467 -0.14221579 -0.080150485
-0.054377362 -0.12131902 -0.087006211
-0.48435575 -0.10084774 -0.086936355
-0.034037806 -0.10111444 -0.081162214
-0.0338796 -0.080331221 -0.088012695
-0.50520056 -0.059954479 -0.085089087
-0.033844449 -0.059817664 -0.089534879
-0.50381953 -0.039305907 -0.091989279
-0.033844449 -0.039362565 -0.089534998
-0.033844769 -0.018907733 -0.089520931
-0.033844449 0.0015475899 -0.089535117
-0.50437498 0.022002555 -0.089213848
-0.033844449 0.022002645 -0.089534998
-0.50437498 0.042460173 -0.089213967
-0.033844449 0.04245761 -0.089534879
-0.1566938 0.062939219 -0.087817073
-0.033844449 0.062912755 -0.089534998
-0.033873148 0.083396524 -0.088292241
-0.054184049 0.10370735 -0.093284011
-0.034048833 0.10409537 -0.080684543
-0.054417424 0.12442529 -0.085705161
-0.54499233 0.16513082 -0.090595245
-0.054646507 0.18633708 -0.078265548
-0.034032293 0.18614402 -0.081400752
-0.096056044 -0.24574709 -0.071209073
-0.4040325 -0.22459921 -0.077181458
-0.095735975 -0.22451079 -0.078138947
-0.075686999 -0.22569594 -0.065309405
-0.075420178 -0.20446739 -0.072241545
-0.055014394 -0.18433514 -0.066318274
-0.054801099 -0.16322154 -0.073245287
-0.46770048 -0.14307112 -0.066261411
-0.034356683 -0.14300376 -0.06735456
-0.034196831 -0.12200505 -0.074276209
-0.013715154 -0.10170505 -0.068375945
-0.5079928 -0.080980822 -0.071138263
-0.013608454 -0.080820374 -0.075306416
-0.013583058 -0.06020496 -0.076956034
0.006871298 -0.060595006 -0.064285755
-0.013582842 -0.039652724 -0.0769701
0.006871406 -0.039945312 -0.06430006
-0.013582842 -0.01910089 -0.0769701
0.006871406 -0.01929602 -0.064299941
-0.013582842 0.0014508553 -0.0769701
0.006871406 0.0013533123 -0.06430006
-0.013582842 0.022002555 -0.0769701
0.006871406 0.0220026 -0.06430006
-0.013582842 0.042554345 -0.0769701
0.006871406 0.042651892 -0.064299941
-0.013582842 0.063106179 -0.0769701
0.006871406 0.063301221 -0.064299941
-0.013603242 0.083688617 -0.07564497
-0.013721487 0.10448711 -0.067964792
-0.034225211 0.12491256 -0.0730474
-0.054652572 0.14526261 -0.078068495
-0.034403585 0.14585115 -0.065323591
-0.054888636 0.166219 -0.070402265
-0.013708388 0.18691912 -0.068815589
-0.0759563 -0.24703765 -0.058312654
-0.055444755 -0.2268939 -0.0523417
-0.42727062 -0.20539299 -0.061309695
-0.055228792 -0.20555857 -0.059355259
-0.034679204 -0.18533048 -0.053388834
-0.034517355 -0.16411161 -0.060397029
-0.013930006 -0.14380032 -0.054420948
-0.49141985 -0.1233008 -0.050230503
-0.013822408 -0.12269842 -0.061409473
0.0067491494 -0.12339834 -0.048418164
0.0068031866 -0.10230258 -0.055437922
0.0068570524 -0.081315778 -0.062435389
0.027520722 -0.081815399 -0.049454093
0.027520722 -0.060988456 -0.051509261
0.027520722 -0.040240727 -0.051509142
-0.53315324 -0.019528806 -0.049180865
0.027520722 -0.01949295 -0.051509142
-0.53170401 0.001290543 -0.056153536
0.027520722 0.0012547802 -0.051509142
0.027520722 0.0220026 -0.051509142
0.027520722 0.042750418 -0.051509142
-0.53160882 0.06341961 -0.056611419
0.027520722 0.06349811 -0.051509023
-0.57368445 0.084196277 -0.053661466
0.0068604518 0.083983444 -0.06287694
0.027520722 0.084281102 -0.049986124
-0.57451451 0.10504191 -0.04994297
0.0068007596 0.10488246 -0.055122852
-0.013840416 0.12540545 -0.060240149
-0.013960248 0.14644554 -0.052456498
-0.034582987 0.16691118 -0.057555318
0.0068083666 0.18770143 -0.056110501
-0.41000319 -0.24884561 -0.04024744
-0.05566185 -0.24834079 -0.045291424
-0.035004772 -0.22809938 -0.039291382
-0.034841567 -0.20665908 -0.046358585
-0.014256401 -0.20777154 -0.033220887
-0.4507893 -0.18595824 -0.045233727
-0.014147108 -0.18633655 -0.04031992
-0.014038382 -0.16501334 -0.047381639
0.006640112 -0.16592285 -0.034253955
0.0066947192 -0.14460543 -0.041347384
0.027520722 -0.12410613 -0.035286188
-0.51542461 -0.10329258 -0.034006596
0.027520722 -0.10290532 -0.042388797
0.048385222 -0.082319878 -0.036346555
-0.53609556 -0.061496168 -0.035024524
0.048368022 -0.061386541 -0.038581133
-0.53460401 -0.040455718 -0.042200685
0.04836791 -0.040538929 -0.038595676
0.04836791 -0.019691724 -0.038595676
0.04836791 0.0011554379 -0.038595676
-0.53510934 0.0220026 -0.039769411
0.04836791 0.022002645 -0.038595676
-0.53510934 0.04284073 -0.039769411
0.04836791 0.042849809 -0.038595676
0.04836791 0.063696921 -0.038595557
0.048380416 0.084581688 -0.036971092
0.027520722 0.1052813 -0.042171836
-0.57534045 0.12594417 -0.046243191
0.0067407247 0.12590265 -0.047324061
0.027520722 0.12640455 -0.034283042
-0.57616222 0.14690253 -0.042562127
0.0066801179 0.14704618 -0.039450765
-0.57698947 0.16791889 -0.038856626
-0.014081007 0.16760859 -0.044613242
-0.55446821 0.18828514 -0.046632409
0.027520722 0.18849218 -0.04327035
-0.035193741 -0.24976009 -0.031108737
-0.43360323 -0.22951952 -0.023917556
-0.014366494 -0.22932068 -0.026070118
0.0065299235 -0.20889616 -0.019940138
0.0065851063 -0.18735355 -0.02710855
-0.4745912 -0.16628933 -0.028964043
0.027520722 -0.16684228 -0.020983338
0.027520722 -0.14541754 -0.028160691
0.048495352 -0.12481976 -0.022040367
0.048440143 -0.1035139 -0.029212236
0.069453716 -0.08282993 -0.023096442
0.069416054 -0.061787993 -0.025543332
0.06941583 -0.040840097 -0.025557756
0.06941583 -0.019892517 -0.025557756
0.06941583 0.001055019 -0.025557876
0.06941583 0.022002555 -0.025557756
0.06941583 0.042950135 -0.025557756
0.06941583 0.063897714 -0.025557876
0.069442436 0.08488515 -0.023829579
0.048441153 0.10568437 -0.029080987
0.048502471 0.12691128 -0.021115422
0.027520722 0.14765218 -0.026333451
0.0066192672 0.16831279 -0.031546116
0.027520722 0.16902378 -0.018351793
0.048431605 0.18928972 -0.03032124
-0.098887391 -0.27294976 -0.0099086761
-0.43697086 -0.25246969 -0.0040328503
-0.014606202 -0.25182238 -0.010500908
0.0064744502 -0.23055267 -0.012733698
-0.45749241 -0.20996013 -0.0073744059
0.027520722 -0.21003056 -0.0065435171
0.027520722 -0.18837932 -0.01378262
0.048606537 -0.16776976 -0.0075969696
-0.49868155 -0.14638212 -0.012497425
0.048550855 -0.14623839 -0.01483047
0.069675915 -0.12554052 -0.0086644888
0.06956441 -0.10412841 -0.01590693
-0.53972 -0.083041906 -0.01758647
0.090728886 -0.083344378 -0.0097309351
0.090667382 -0.062192991 -0.012393951
0.090667725 -0.041144408 -0.012379169
0.090667725 -0.020095423 -0.012379169
-0.56344849 0.00089659542 -0.0049693584
0.090667725 0.00095361099 -0.012379289
-0.5633108 0.0220026 -0.005608201
0.090667725 0.022002511 -0.01237905
-0.5633108 0.04310371 -0.0056079626
0.090667382 0.043051541 -0.012393951
-0.56330442 0.06420441 -0.0056377649
0.090667382 0.064100355 -0.012393951
0.090709738 0.085191667 -0.010560155
0.069565095 0.10609131 -0.015862703
0.069688924 0.12742317 -0.0078194141
0.048564263 0.14826378 -0.013088346
0.048626304 0.16974166 -0.0050287247
0.069543771 0.19009483 -0.017247796
0.090860479 0.19090861 -0.0040328503
-0.078174472 -0.27394387 -0.00068295002
-0.057431094 -0.27532873 0.0121665
0.0062960777 -0.25391769 0.010437131
0.027520722 -0.23179808 0.00074875355
0.048718907 -0.21117744 0.0070003271
-0.48167366 -0.19016171 0.0093706846
0.048662633 -0.18941641 -0.00031030178
0.069900714 -0.16870734 0.0059366226
0.069788016 -0.14706662 -0.0013834238
0.09123528 -0.14790285 0.012196541
-0.52306867 -0.12623304 0.0041850805
0.091065817 -0.12626931 0.0048584938
0.090896897 -0.10474979 -0.0024555922
0.11244012 -0.10537649 0.011113644
0.11221434 -0.083864398 0.0037813187
0.11212556 -0.062602222 0.00089800358
-0.56657499 -0.041650504 0.0095359087
0.11212602 -0.041451417 0.00091290474
-0.56501245 -0.020321198 0.0022865534
0.11212602 -0.020300079 0.00091302395
0.11212602 0.00085130706 0.00091278553
0.11212556 0.0220026 0.00089812279
0.1121251 0.04315367 0.00088322163
0.11212556 0.064305052 0.00089800358
-0.606709 0.085425571 -0.00042963028
-0.099217199 0.085371524 -0.0027681589
0.11218534 0.085501097 0.0028393269
-0.60759854 0.10668524 0.0034222603
0.090895526 0.10650223 -0.0025151968
0.11243595 0.10691775 0.01097846
-0.60848022 0.12800282 0.0072401762
0.091083445 0.12794051 0.0056219101
-0.60936785 0.14938024 0.011083603
0.069813721 0.14888164 0.00028634071
0.069939032 0.17046672 0.0084252357
0.11238415 0.19172952 0.009295702
-0.036492676 -0.27672669 0.025136828
-0.46207637 -0.23343933 0.018515468
0.048775598 -0.23305595 0.014365196
0.07012745 -0.21233439 0.020663619
0.070013776 -0.19046274 0.013280392
0.091577642 -0.19152054 0.027021527
-0.50615233 -0.1701197 0.026322007
0.091406003 -0.16965324 0.019589067
0.11289625 -0.1487484 0.025926828
0.11266758 -0.12700441 0.018500447
-0.54775196 -0.10583576 0.021057129
0.13419802 -0.10601013 0.024833083
0.1339124 -0.084389098 0.017412543
-0.56817186 -0.063096315 0.016944289
0.13379337 -0.063015491 0.014319777
0.13379395 -0.041761391 0.014334917
0.13379279 -0.020506218 0.014304757
0.13379395 0.00074796565 0.014334917
0.13379279 0.0220026 0.014304757
0.13379279 0.043257009 0.014304638
0.13379337 0.064511642 0.014319658
0.13387232 0.085813634 0.016370893
0.13418868 0.107337 0.024590135
0.11268853 0.12846231 0.019180775
0.091272138 0.14950538 0.013792396
-0.61025792 0.17081758 0.014937878
0.091461599 0.17119798 0.021996498
-0.58929157 0.19215766 0.016250134
0.1341186 0.1925593 0.02276969
-0.015356457 -0.27813765 0.038229704
-0.46421593 -0.25593558 0.030600071
0.027520722 -0.25604236 0.031667829
0.070241965 -0.23432487 0.028101563
0.091922998 -0.23560649 0.041975737
0.091749854 -0.2135042 0.034478426
0.11335683 -0.19258761 0.040884614
0.11312568 -0.17060852 0.033377886
0.1347733 -0.14960155 0.039778948
0.13448459 -0.12774682 0.032278299
0.1561728 -0.10664945 0.038674474
-0.57274324 -0.085187331 0.038152933
0.15582661 -0.084918961 0.031179547
0.15567391 -0.063432842 0.027873278
0.17777033 -0.063854292 0.041560531
0.15567462 -0.04207433 0.027888417
0.17777115 -0.042390414 0.041576028
0.15567462 -0.020715371 0.027888656
0.17777115 -0.020926092 0.041576028
0.15567462 0.00064363703 0.027888536
0.1777695 0.00053854473 0.041545272
0.15567321 0.0220026 0.027858019
0.1777695 0.0220026 0.041545272
0.15567321 0.043361336 0.027858138
0.1777695 0.043466747 0.041545272
0.15567391 0.064720348 0.027873397
0.1777695 0.064930752 0.041545272
-0.12234396 0.086230405 0.034417391
0.1557738 0.086129092 0.030035973
0.1561572 0.10776038 0.038336873
0.13450752 0.12898953 0.032873869
0.1129426 0.15013543 0.027432084
0.13482827 0.15077165 0.041207194
0.11319773 0.17193738 0.035717487
0.15606591 0.19339624 0.036360383
0.0059803892 -0.27956206 0.051446676
0.049074646 -0.25819847 0.053212285
0.1138224 -0.23690242 0.056004524
-0.48893309 -0.21470532 0.048663497
0.11358923 -0.21468574 0.048431873
0.1353554 -0.19366676 0.054902554
0.13506356 -0.17157456 0.047320247
-0.53093404 -0.14982966 0.043483019
0.15687075 -0.15046418 0.05378592
0.15652083 -0.12849748 0.046209574
0.17836897 -0.10729591 0.052670002
0.17796104 -0.085454755 0.045099854
0.20008583 -0.064279914 0.055383563
0.20008583 -0.042709239 0.055383563
-0.59809369 -0.021143243 0.055678606
0.20008583 -0.021138702 0.055383682
-0.59642076 0.00048737042 0.048184752
0.20008487 0.00043210573 0.055368066
0.20008487 0.0220026 0.055368066
-0.59622431 0.022002645 0.047304749
-0.59622085 0.04351091 0.047289491
0.20008487 0.043573186 0.055367947
-0.59621739 0.065018997 0.047273993
0.20008487 0.06514363 0.055368066
-0.64106172 0.086704239 0.054933548
0.177893 0.086447783 0.043836951
0.17834477 0.10818784 0.052220821
0.15654363 0.12952164 0.0467031
0.15693237 0.15141416 0.055119753
0.13515034 0.17268407 0.04957521
0.17822969 0.19424152 0.050085306
-0.49217242 -0.25949782 0.066196799
0.13594265 -0.23821002 0.070159793
0.13564824 -0.21587795 0.06251049
-0.51381129 -0.19453019 0.066118717
0.15757562 -0.19475558 0.069046497
0.15722187 -0.17254916 0.061387658
0.17919065 -0.15133446 0.06791842
-0.55602437 -0.12928683 0.060857773
0.17877828 -0.129255 0.060265779
0.20078836 -0.10794816 0.066791415
0.20031747 -0.085995398 0.059144855
-0.6015051 -0.0647595 0.070959926
0.22262371 -0.064709857 0.069344282
-0.5997895 -0.042891614 0.06327498
0.2226226 -0.043031394 0.069328666
0.22262153 -0.021353066 0.06931293
0.22262153 0.00032472238 0.069313049
0.2226226 0.022002645 0.069328547
0.2226226 0.043680567 0.069328785
0.2226226 0.065358579 0.069328666
0.20023318 0.086769752 0.057775974
0.22279763 0.087094866 0.071854711
-0.64201468 0.10839425 0.058926821
0.20075466 0.10861967 0.066243768
-0.64296293 0.13014519 0.062900543
0.17880093 0.1300599 0.06068635
-0.64391756 0.15195844 0.066900849
0.1792582 0.1520634 0.069171906
-0.64487499 0.17383385 0.070912838
0.15732275 0.17343831 0.063571692
0.20061412 0.19509596 0.063961864
0.070965216 -0.26038659 0.075077891
0.15828747 -0.23953089 0.084458351
0.1579313 -0.21708351 0.076747298
0.18002133 -0.19585544 0.083334088
-0.53900522 -0.17410249 0.083809018
0.17960529 -0.17353466 0.075613022
0.20173694 -0.15221363 0.082194567
0.20126185 -0.13002095 0.074479818
-0.58142227 -0.10848521 0.078418732
0.2234351 -0.10860697 0.081055999
0.22290103 -0.086542025 0.07334733
0.24538727 -0.065143973 0.083444834
0.24538603 -0.043357 0.083429098
0.24538603 -0.021570481 0.083428979
0.24538603 0.00021608174 0.083428979
0.24538603 0.0220026 0.083428979
0.24538603 0.043789119 0.083429098
-0.64829659 0.065603673 0.085250974
0.24538603 0.065575771 0.083428979
0.24558857 0.087422945 0.08605969
0.22339131 0.10905626 0.080423951
0.20128123 0.13060299 0.074794531
0.20180908 0.15271887 0.083365679
0.17971481 0.17419669 0.077645898
-0.62577558 0.19621491 0.082131267
0.22322069 0.19595808 0.077961326
0.093202956 -0.26262048 0.097399592
-0.49644655 -0.239981 0.089331388
0.18086116 -0.24086672 0.098919272
0.18044053 -0.21829996 0.09111321
0.20269698 -0.19696775 0.097783327
0.20221564 -0.17452914 0.089967608
-0.56451476 -0.15341529 0.10170734
0.22451316 -0.1531018 0.096616149
0.22397321 -0.13079378 0.088822603
0.24631266 -0.10927258 0.095465899
-0.6071471 -0.087422922 0.096232772
0.24571197 -0.087093093 0.087662935
0.26875705 -0.087650225 0.10214043
0.2683813 -0.065583073 0.097703338
0.2683813 -0.043686703 0.097703338
0.2683813 -0.021790281 0.097703338
0.26837996 0.00010636076 0.097687244
-0.63043725 0.022002555 0.10231698
0.26837996 0.022002555 0.097687244
-0.63042986 0.043934334 0.10228491
0.26837862 0.04389884 0.09767127
-0.62916869 0.065781869 0.096823812
0.26837862 0.065794945 0.09767127
0.26861176 0.087754712 0.10042477
0.24625735 0.10949734 0.094747543
0.22398752 0.13115081 0.089029193
0.22458737 0.1533803 0.097687244
0.20231956 0.17495155 0.09165442
0.24605359 0.19682884 0.09210062
-0.52085483 -0.26315269 0.10271811
0.20366564 -0.24221477 0.1135124
-0.52172107 -0.2196638 0.10721922
0.20317997 -0.21952885 0.10562611
0.22560312 -0.19808903 0.11234856
0.22505607 -0.17553276 0.10445249
0.2475215 -0.15399799 0.11116934
0.24691543 -0.13157368 0.10329592
0.26942319 -0.10994423 0.11000752
0.29203871 -0.088213161 0.11676657
0.29160672 -0.066026084 0.11208999
0.29160672 -0.044018872 0.11208999
-0.63250029 -0.021998759 0.11125004
0.29160371 -0.02201125 0.11205757
-0.63068932 6.2240288e-05 0.10340846
0.29160371 -4.3474138e-06 0.11205757
0.29160371 0.0220026 0.11205757
-0.65542316 0.044033136 0.11511433
0.29160371 0.044009592 0.11205757
0.29160371 0.066016451 0.11205757
-0.67682797 0.0880353 0.11257482
0.29186961 0.088089801 0.11493635
-0.67784864 0.11017376 0.11671805
0.26935491 0.10994219 0.10920107
0.24692655 0.13170548 0.1034404
0.24759859 0.1540494 0.1121707
0.22514851 0.17571312 0.10578692
0.26911622 0.19770849 0.10638225
0.22670634 -0.2435782 0.12827229
0.22615208 -0.22076902 0.12027192
-0.5473327 -0.19909492 0.1254158
0.24874631 -0.19922301 0.12707996
0.2481322 -0.17654768 0.11910248
0.27076802 -0.15490454 0.12588871
-0.59034896 -0.13246477 0.11983323
0.27009439 -0.1323624 0.11793411
0.29351273 -0.13315946 0.13272345
0.29277292 -0.11062349 0.12471461
0.3155607 -0.088781975 0.13154376
-0.63617486 -0.066490173 0.12716162
0.31506822 -0.066473596 0.12662292
-0.63433623 -0.044183001 0.11919999
0.31506822 -0.044354543 0.12662292
0.31506822 -0.022235498 0.12662292
0.31506497 -0.00011622347 0.12659037
0.31506497 0.022002555 0.12659037
0.31506497 0.044121467 0.12659025
-0.68091226 0.066279739 0.1291548
0.31506497 0.066240206 0.12659037
0.31536579 0.0884284 0.12959635
0.29268864 0.11039194 0.12380242
-0.67886823 0.13237579 0.12085712
0.27009854 0.13226531 0.11798286
0.2935082 0.13283062 0.13267422
-0.6798948 0.15464303 0.12502432
0.27084538 0.15472516 0.12680244
0.24820721 0.17648324 0.12007701
0.24998482 -0.24495435 0.14316857
0.24936257 -0.2220234 0.13508546
0.27212924 -0.20036879 0.14196396
-0.57328677 -0.17826658 0.14391196
0.2714467 -0.17757317 0.13390386
0.29425669 -0.15582129 0.14077675
0.31717411 -0.13396466 0.14766622
-0.61652875 -0.11124896 0.13825727
0.31636599 -0.11131052 0.13959062
0.33932671 -0.089356683 0.14647436
0.33877131 -0.066926174 0.14132094
0.33876953 -0.044693634 0.14130449
0.33876953 -0.022461452 0.14130437
0.33876598 -0.0002292674 0.14127147
0.33876598 0.0220026 0.14127147
0.33876598 0.044234425 0.14127147
0.33876774 0.066466466 0.1412878
0.33910573 0.08877077 0.14442396
0.31626055 0.11084569 0.13853717
0.31715921 0.13340214 0.1475172
0.29433131 0.15540788 0.14158452
0.27149811 0.17726088 0.13451111
-0.52987182 -0.2455458 0.1495719
0.27350578 -0.2463448 0.15822041
0.27281418 -0.22329083 0.15005279
0.29575559 -0.2015264 0.15700305
0.29500329 -0.17860931 0.1488589
-0.59954846 -0.15716004 0.16251385
0.31798846 -0.1567468 0.15580356
0.34108418 -0.13477913 0.16278148
0.34020296 -0.11200402 0.15460503
-0.64300102 -0.08975108 0.1567198
0.36334249 -0.089937985 0.16157722
0.36271426 -0.067382395 0.15613675
0.36271426 -0.045036137 0.15613663
0.36271042 -0.022689339 0.15610337
-0.66632748 -0.00037956052 0.16080832
0.36271042 -0.00034343638 0.15610337
0.36271235 0.022002555 0.15612006
-0.66599661 0.022002645 0.15942192
-0.68758756 0.044349849 0.15625322
0.36271235 0.044348769 0.15611994
0.36271235 0.066694856 0.15611994
0.36308977 0.089116372 0.15938842
0.34007749 0.11130452 0.15344059
0.3410553 0.13397926 0.16251385
0.31805846 0.15609697 0.15650308
0.29502317 0.17804566 0.14907432
0.29727459 -0.2477513 0.17344642
-0.55591875 -0.22483715 0.1683141
0.29651371 -0.22457427 0.16520989
0.31963098 -0.20269758 0.17221642
0.31880739 -0.17965746 0.16398692
0.34196854 -0.15768182 0.17098725
0.36524332 -0.13560128 0.1780386
0.36428922 -0.11270479 0.1697762
0.38760823 -0.090524822 0.17682159
0.38690624 -0.067843832 0.17112195
0.38690624 -0.045382142 0.17112207
-0.66829908 -0.022888962 0.16907024
0.38690209 -0.022920009 0.17108834
0.38690415 -0.00045886263 0.17110515
0.38690415 0.02200269 0.17110527
0.38690415 0.044464108 0.17110527
0.38690415 0.066925615 0.17110527
0.38732338 0.089465655 0.17450881
0.36414173 0.11176811 0.16849911
0.36520034 0.13456251 0.17766666
0.34203565 0.15679482 0.17161024
0.31878895 0.17883939 0.16380274
0.32157198 -0.2494294 0.19161224
0.32045582 -0.2258656 0.18045878
0.34375599 -0.20387971 0.18757284
0.34285972 -0.18071529 0.17925668
0.3662008 -0.15862674 0.18633103
0.38862872 -0.11341294 0.18510711
0.41212973 -0.09111768 0.19222689
0.54563761 -0.090631574 0.17959523
0.41134924 -0.068309985 0.18626285
0.54564059 -0.068105236 0.17961216
0.41134703 -0.045731477 0.18624604
0.41134703 -0.023153421 0.18624604
0.41134703 -0.00057541206 0.18624604
0.41134703 0.022002555 0.18624604
0.41134703 0.044580653 0.18624604
0.41134703 0.06715858 0.18624604
0.41181046 0.089818358 0.18978727
0.38845721 0.11223665 0.18371439
0.38959613 0.13515115 0.1929611
0.36626169 0.15749902 0.1868583
0.34279591 0.17964017 0.17866457
0.34465551 -0.22717479 0.19591951
0.3681362 -0.20507443 0.20309198
0.36716774 -0.18178561 0.19470477
0.39069143 -0.15958276 0.20185399
0.38965714 -0.13643202 0.19345677
0.41322774 -0.11412931 0.20061707
0.43691099 -0.091716871 0.20779514
0.43604729 -0.068781123 0.20156193
0.52788371 -0.068972439 0.20777798
0.43604729 -0.046085127 0.20156181
0.4360449 -0.023388993 0.20154476
0.4360449 -0.00069312938 0.20154464
0.4360449 0.022002645 0.20154464
0.4360449 0.044698417 0.20154452
0.43495736 0.067273468 0.19369602
0.43655506 0.090174973 0.2052263
0.41302782 0.11271007 0.19908953
0.39074436 0.15821153 0.20228374
0.36705124 0.18045017 0.19369602
0.36911419 -0.22849929 0.21156168
0.39277995 -0.2062844 0.21881068
0.39173162 -0.18286601 0.21029937
0.41544265 -0.16054896 0.21754217
0.41432974 -0.13727173 0.20903814
0.43808594 -0.11485247 0.21627474
0.46100432 -0.069257163 0.21702123
0.46100178 -0.046441823 0.21700394
0.46100178 -0.023626987 0.2170037
0.46100178 -0.00081210397 0.21700382
0.46100178 0.0220026 0.21700382
0.46100178 0.044817351 0.21700382
0.45980638 0.067506343 0.20883095
0.46156123 0.090535358 0.22082877
0.43785763 0.11318868 0.21462703
0.41425067 0.13574673 0.20843387
0.41548353 0.15893063 0.21785486
0.39155713 0.18126851 0.20888257
0.41655737 -0.18395799 0.22606027
0.44045863 -0.16152534 0.23339808
0.43926525 -0.13812032 0.22478569
0.46320972 -0.11558344 0.23209965
0.4619562 -0.092322618 0.22352946
0.48622444 -0.069738135 0.23264349
0.48622176 -0.046802573 0.23262596
0.48622176 -0.023867454 0.23262596
0.48622176 -0.00093246996 0.23262596
0.48622176 0.02200269 0.23262596
0.48622176 0.044937626 0.23262596
-0.15584628 0.067844301 0.23078454
0.48497435 0.067747928 0.22452366
0.48683313 0.09089943 0.23659682
0.46295074 0.11367208 0.23032904
0.43916613 0.13634858 0.22407031
0.44048783 0.15965831 0.23360884
0.41631749 0.18209535 0.22422707
-0.47781825 0.25170222 0.23715997
-0.45377806 0.25119242 0.2305392
0.4417055 -0.18508974 0.24239635
0.46576712 -0.16252223 0.24958444
0.46447307 -0.13897985 0.24073708
0.48860329 -0.11632218 0.24809444
0.48727235 -0.092935331 0.23944974
0.51170903 -0.070223697 0.24841356
0.51170903 -0.047167048 0.24841356
0.51170903 -0.024110619 0.24841356
0.51170903 -0.0010539182 0.24841356
0.5117119 0.022002645 0.24843132
0.5117119 0.045059301 0.24843132
0.51040244 0.067991406 0.24033141
0.51237792 0.091267906 0.2525512
0.48831141 0.11416074 0.24619842
0.46434665 0.13695675 0.23987281
0.46575671 0.16039294 0.24951339
0.44133383 0.18292993 0.23971415
-0.43285596 0.25219086 0.24350941
-0.4339416 0.2758069 0.25056088
0.48994747 -0.13984674 0.25682497
0.51427394 -0.11706973 0.26427984
0.51285845 -0.09355402 0.2555238
0.53747386 -0.047536507 0.26440525
0.53747386 -0.02435679 0.26440537
0.53747088 -0.0011768937 0.26438749
0.53747088 0.022002511 0.26438749
0.53747088 0.045182183 0.26438737
0.53747088 0.068361767 0.26438737
0.51394391 0.11465462 0.26223814
0.48979923 0.13757226 0.25586247
0.49129945 0.16113621 0.26560676
0.6077832 0.16126567 0.26840746
0.46661493 0.18377417 0.25538123
0.60747898 0.18439096 0.26682687
-0.41174555 0.25319541 0.25655758
-0.41236186 0.2766715 0.26077127
0.54040766 -0.11787564 0.28172874
0.53872758 -0.094180711 0.27180779
0.56350893 -0.047908932 0.2805326
0.56350893 -0.024605077 0.2805326
0.56350893 -0.001301216 0.2805326
0.56350577 0.02200269 0.28051436
0.56350577 0.04530628 0.28051436
0.56350255 0.068609647 0.28049624
0.5381943 0.091639839 0.26865911
0.5398556 0.11515433 0.27846861
0.51552582 0.13819423 0.2720238
0.60918379 0.13833517 0.27568507
0.51710641 0.16188413 0.28180122
0.58706391 0.1618883 0.28189182
0.4921627 0.18462729 0.27121365
0.58680278 0.18512651 0.28047812
0.60826427 0.20784062 0.27090764
-0.36897194 0.23191047 0.28303468
0.61041665 0.23184514 0.28209126
-0.39045262 0.25421 0.26973796
-0.36897433 0.25523493 0.28305256
-0.39161223 0.27813944 0.27810705
0.59003085 -0.071749128 0.29795074
0.58982438 -0.048285455 0.29683328
0.58982438 -0.024856146 0.29683328
0.58982438 -0.0014267955 0.29683328
0.58982784 0.022002645 0.29685175
0.58982104 0.04543177 0.29681516
0.58982104 0.068860985 0.29681492
0.56428951 0.092015989 0.28494096
0.56604517 0.11565912 0.29485703
0.61196679 0.11551391 0.29014599
0.63496172 0.11545509 0.28823328
0.54152471 0.13882172 0.28832424
0.58839029 0.13885042 0.28907108
0.63494349 0.13881463 0.28814209
0.54320776 0.16264454 0.29826224
0.56663185 0.16264024 0.2981708
0.6349144 0.16217041 0.28799641
0.51798135 0.18548954 0.28721392
0.56624275 0.18596154 0.29597294
0.63493621 0.18553755 0.28810561
0.58760047 0.20869592 0.28479576
0.63492894 0.20889747 0.28806937
-0.3473033 0.23284104 0.29646695
0.58974665 0.23283738 0.29641223
0.6349144 0.23225436 0.28799641
0.61642838 -0.048666373 0.31332934
0.6164248 -0.025109731 0.31331086
0.6164248 -0.0015536342 0.31331062
0.6164248 0.022002645 0.31331086
0.61642838 0.045558967 0.3133291
0.6164248 0.069114886 0.31331062
0.6385653 0.09250766 0.30623794
0.59105515 0.11592507 0.30349505
0.5690046 0.13971646 0.31157184
0.56782544 0.20993468 0.30491173
0.61486506 0.25694036 0.30520618
0.63706076 0.25644106 0.29872048
0.61719525 -0.072345309 0.31731415
0.61705601 0.09274669 0.31659055
0.59417802 0.25810975 0.32039797
0.64331853 -0.049050972 0.32998621
0.64331478 -0.025366105 0.32996738
0.64331478 -0.0016817302 0.32996738
0.64331478 0.0220026 0.32996738
0.64331102 0.045686886 0.32994866
0.59594947 0.093056262 0.32998621
0.6691885 0.093298934 0.34050107
0.6692003 0.16459802 0.34055746
0.66920811 0.188366 0.34059525
0.66920418 0.21213102 0.34057629
0.66919243 0.23589322 0.34051991
0.6692003 0.25966161 0.34055746
0.67102247 -0.049497671 0.34932482
0.67049915 -0.025625441 0.34680653
0.67049915 -0.0018114429 0.34680676
0.67049915 0.0220026 0.34680653
0.67049515 0.045816418 0.34678745
0.69798261 -0.025887609 0.36383104
0.69798261 -0.0019424595 0.3638308
0.69798261 0.022002645 0.36383116
0.69798261 0.045947749 0.36383104
0.67313647 0.1176494 0.3594954
0.6737991 0.14168373 0.36268377
0.72599059 -0.026167795 0.38203049
0.72577035 -0.0020750053 0.38104379
0.72577035 0.02200269 0.38104379
0.72577035 0.046080202 0.38104379
0.72577465 0.07015799 0.38106322
0.75386274 -0.0022088066 0.39842856
0.75386727 0.022002645 0.39844811
0.75386727 0.046214141 0.39844811
0.75386727 0.070425726 0.39844835
0.7551657 0.094767071 0.40407038
0.70470738 0.11874363 0.3950299
0.70469475 0.14292654 0.39497149
0.70606011 0.16740391 0.40130568
0.70468634 0.19129395 0.39493251
0.70471156 0.21548575 0.39504945
0.70468211 0.2396616 0.39491284
0.78227395 -0.0023442712 0.41602755
0.78228343 0.0220026 0.41606736
0.78228343 0.046349742 0.41606712
0.78227866 0.070696659 0.41604733
0.75763035 0.1193505 0.41474271
0.81100976 0.02200269 0.43384457
0.81101471 0.046486825 0.43386459
0.81101471 0.070970953 0.43386471
0.78366387 0.095177785 0.42185175
0.78624427 0.11990238 0.43266523
0.7601164 0.14410198 0.42550766
0.81248546 0.095592983 0.43983507
0.78883767 0.1447956 0.44353271
0.76262867 0.16902417 0.43638635
0.73907876 0.19375795 0.44065821
0.76327688 0.19367895 0.43919277
0.8400712 0.071248129 0.45186341
0.84164125 0.096013531 0.45804393
0.81517959 0.12045997 0.45077169
0.81789225 0.14549804 0.46178389
0.79145855 0.16986147 0.45451486
0.79205358 0.19463903 0.45700872
0.84445149 0.12102447 0.46910608
0.82061863 0.17070848 0.47285151
0.82115406 0.19560987 0.47502506
0.77404082 0.17645493 0.59726846
0.75158209 0.073721364 0.6125015
0.77679956 0.099514231 0.60962665
0.7769438 0.12537125 0.61027241
0.77553898 0.15097126 0.60397983
0.75838149 0.10030913 0.64404643
0.73274255 0.074241117 0.64627552
0.71352029 0.074771747 0.68073535
0.34658083 0.23470929 0.70720232
0.37405404 0.23525384 0.71604478
0.37511522 0.2626448 0.72664869
0.3493827 0.26339909 0.73753369
0.40599287 0.23827228 0.76505935
0.40599287 0.26530612 0.76505911
0.43883723 0.24137121 0.81538093
0 0 0 1 0 0 0 1 0 0 0 1 0 0 0 0 0 1293 1 0 0
