ply
format ascii 1.0
comment PCL generated
element vertex 1239
property float x
property float y
property float z
element camera 1
property float view_px
property float view_py
property float view_pz
property float x_axisx
property float x_axisy
property float x_axisz
property float y_axisx
property float y_axisy
property float y_axisz
property float z_axisx
property float z_axisy
property float z_axisz
property float focal
property float scalex
property float scaley
property float centerx
property float centery
property int viewportx
property int viewporty
property float k1
property float k2
end_header
-0.80242199 -0.030819181 -0.18374348
-0.77720964 -0.030819073 -0.18376112
-0.75199753 -0.030818965 -0.18377864
-0.72678995 -0.030818965 -0.18377864
-0.70159048 -0.030819181 -0.18374348
-0.78121501 -0.056269579 -0.16799414
-0.7558859 -0.056269579 -0.16799414
-0.85722709 -0.0056112111 -0.16790497
-0.83189732 -0.0056112111 -0.16790497
-0.80656749 -0.0056112111 -0.16790497
-0.78123766 -0.0056112111 -0.16790497
-0.75590777 -0.0056112111 -0.16790497
-0.73057377 -0.0056112651 -0.16792274
-0.705244 -0.0056112651 -0.16792274
0.029348262 0.14617786 -0.17201197
0.054646466 0.14619601 -0.17162144
0.07995069 0.14621399 -0.17123044
-0.8361432 -0.031062476 -0.1521461
-0.68343234 -0.031062368 -0.15216422
-0.65797746 -0.031062206 -0.1521821
-0.78668618 0.019883646 -0.14645708
-0.76210302 0.019912221 -0.14275587
-0.098486558 0.070955254 -0.14291835
-0.047462251 0.070970215 -0.14226758
0.20780954 0.070970215 -0.14226758
-0.07300961 0.096513629 -0.1417433
-0.047448892 0.096484087 -0.14270163
-0.021924216 0.096482947 -0.14273763
0.0036001801 0.096481279 -0.14279199
0.029124297 0.09647733 -0.14291835
0.054646466 0.09647733 -0.14291835
0.080168635 0.09647733 -0.14291835
0.10569081 0.09647733 -0.14291835
0.1312134 0.096477821 -0.14290023
0.1567613 0.096503474 -0.14206886
-0.51003647 -0.10828098 -0.12405145
-0.48421839 -0.10825224 -0.12498343
-0.45840636 -0.10822183 -0.12596965
-0.43274304 -0.10821962 -0.12604272
-0.40710109 -0.10822183 -0.12596965
-0.3814556 -0.10822356 -0.12591481
-0.35581151 -0.10822583 -0.12584186
-0.33018744 -0.10823371 -0.12558615
-0.30460271 -0.10825402 -0.12492847
-0.27900788 -0.10827417 -0.1242708
-0.25337595 -0.1082854 -0.12390506
-0.68976134 -0.082619049 -0.12381375
-0.66384006 -0.082592092 -0.12498331
-0.63795578 -0.082567193 -0.12606096
-0.61208832 -0.082542285 -0.12713766
-0.58624113 -0.082517818 -0.12819576
-0.560417 -0.082494214 -0.12921655
-0.53461522 -0.082471527 -0.13020027
-0.50882858 -0.08244884 -0.13118339
-0.48306021 -0.082426585 -0.13214791
-0.45730391 -0.082403839 -0.13313007
-0.43170378 -0.082403407 -0.13314807
-0.40611899 -0.082405567 -0.13305712
-0.38053042 -0.082407244 -0.13298452
-0.35494298 -0.082409292 -0.13289356
-0.32937303 -0.082415238 -0.13263893
-0.30380115 -0.082421452 -0.1323663
-0.27822503 -0.082427822 -0.13209331
-0.25264478 -0.082434088 -0.13182044
-0.22710031 -0.082451321 -0.13107431
-0.20165524 -0.082501829 -0.12888849
-0.17617796 -0.082552709 -0.12668169
-0.15068379 -0.08261013 -0.1241976
-0.81486106 -0.056758873 -0.13621759
-0.73813546 -0.056758597 -0.13623571
-0.61265856 -0.056942478 -0.12428892
-0.58671516 -0.056920275 -0.12573218
-0.56080443 -0.056898884 -0.12711954
-0.53495395 -0.056880951 -0.12828672
-0.5091185 -0.05686269 -0.12947166
-0.48328969 -0.056843303 -0.13072848
-0.45748034 -0.056823961 -0.13198423
-0.43177024 -0.056813054 -0.13269353
-0.40610388 -0.05680576 -0.13316643
-0.38051614 -0.05680684 -0.1330936
-0.3549273 -0.056807972 -0.13302088
-0.32939613 -0.056816995 -0.1324389
-0.30394232 -0.056838274 -0.13105619
-0.2784546 -0.056857668 -0.1297996
-0.2529341 -0.056874737 -0.12868786
-0.22740895 -0.056894183 -0.1274296
-0.20196572 -0.056933671 -0.12485564
-0.27905911 -0.031281032 -0.12375879
-0.25332865 -0.03127579 -0.12441707
-0.22760993 -0.031271037 -0.12505639
-0.68841285 -0.0056113191 -0.1298542
-0.27879035 -0.0056113731 -0.12644422
-0.25300485 -0.0056114271 -0.12792218
-0.30463225 -0.0056112651 -0.12465453
-0.22724223 -0.0056112111 -0.12939882
-0.20154867 -0.0056112651 -0.13027322
-0.27885249 0.020042457 -0.12582362
-0.25292569 0.020019608 -0.12877905
-0.22709262 0.020001404 -0.13116539
-0.20129797 0.0199832 -0.1335299
-0.17558898 0.019970398 -0.1351831
-0.15046902 0.020028088 -0.12768519
-0.12492104 0.020041214 -0.12598789
-0.099351227 0.020054989 -0.1241976
-0.047868606 0.020017393 -0.12907076
0.20840897 0.020015772 -0.12928939
0.25966537 0.020016043 -0.12925291
0.285624 0.020052774 -0.12447178
-0.25313801 0.045686133 -0.12648082
-0.2271435 0.04562331 -0.13056457
-0.20127419 0.045572855 -0.13383889
-0.17545947 0.045523323 -0.13705206
-0.14974816 0.045487404 -0.13939035
-0.1245352 0.045583442 -0.13314807
-0.099036127 0.045616284 -0.13101971
-0.073504388 0.045649022 -0.12888837
-0.047665302 0.045544609 -0.13567305
0.20811076 0.045543469 -0.13574576
0.23368619 0.045542985 -0.13578212
0.25967771 0.045646593 -0.12905252
-0.25323078 0.071357951 -0.12547672
-0.22734407 0.071295179 -0.12819576
-0.20149541 0.071231224 -0.13096511
-0.17567331 0.07116203 -0.13396597
-0.14986199 0.07107944 -0.13754189
-0.12410226 0.070995227 -0.14118242
-0.07324326 0.071122542 -0.13567317
0.23380168 0.071169429 -0.13363886
-0.25328138 0.09703128 -0.12492836
-0.2274352 0.096963756 -0.12711966
-0.20162439 0.096897103 -0.12928939
-0.17583203 0.096823581 -0.131675
-0.15005872 0.096741259 -0.13434768
-0.12434731 0.096670821 -0.13663507
-0.09866792 0.096598275 -0.13899195
0.18232203 0.096529298 -0.14123666
0.20800856 0.096630149 -0.13795865
0.029021624 0.17376265 -0.12958097
0.054646466 0.17376055 -0.12961733
0.080285057 0.17385881 -0.1277945
-0.71968883 -0.13466723 -0.10537517
-0.69369197 -0.13463525 -0.10620689
-0.66770405 -0.13460247 -0.1070565
-0.64172548 -0.13456914 -0.1079241
-0.61576033 -0.13453566 -0.10879147
-0.58980864 -0.13450232 -0.10965824
-0.56386697 -0.13446835 -0.11054289
-0.53794879 -0.13443637 -0.11137199
-0.51204342 -0.13440455 -0.11220074
-0.48615095 -0.13437268 -0.11302876
-0.46027127 -0.13434076 -0.11385691
-0.43450114 -0.13433439 -0.11402225
-0.40875655 -0.13433439 -0.11402225
-0.38301191 -0.13433439 -0.11402225
-0.35726732 -0.13433439 -0.11402225
-0.3315227 -0.13433439 -0.11402225
-0.30577213 -0.13433239 -0.11407733
-0.28003535 -0.13433509 -0.1140039
-0.25429907 -0.1343386 -0.11391187
-0.22858787 -0.13435426 -0.11350727
-0.2029824 -0.13442573 -0.11164832
-0.17733951 -0.13449238 -0.10991645
-0.15166666 -0.13455693 -0.10823786
-0.12600289 -0.13464665 -0.10591114
-0.84666765 -0.10861869 -0.11308408
-0.82085323 -0.10861119 -0.11332333
-0.79505181 -0.10860508 -0.11352551
-0.76913571 -0.10858407 -0.11420631
-0.74317765 -0.10855641 -0.11510694
-0.71718252 -0.10852195 -0.11622763
-0.69121307 -0.10848846 -0.11731088
-0.66529208 -0.10845972 -0.11824667
-0.63938946 -0.10843141 -0.11916363
-0.61349726 -0.10840262 -0.12009835
-0.58759856 -0.10837059 -0.12114227
-0.56171596 -0.10833829 -0.12218583
-0.535869 -0.10830966 -0.12311888
-0.2277616 -0.10830513 -0.12326515
-0.20226848 -0.10837729 -0.12092268
-0.17671789 -0.10843995 -0.11888838
-0.15113731 -0.10850315 -0.11683357
-0.12554005 -0.10857505 -0.1145004
-0.099897683 -0.10864073 -0.11236656
-0.074221864 -0.10870604 -0.11024809
-0.048489075 -0.10874693 -0.10892045
-0.022706043 -0.10874801 -0.10888362
0.0030775629 -0.10874909 -0.10884666
0.028862014 -0.10874909 -0.10884666
0.054646466 -0.10874801 -0.10888362
0.080430351 -0.10874693 -0.10892045
0.10621367 -0.10874575 -0.10895741
0.13199684 -0.10874515 -0.10897577
0.15777916 -0.10874407 -0.10901272
0.18356092 -0.10874294 -0.10904968
0.20934296 -0.10874234 -0.10906816
0.23512371 -0.10874121 -0.10910487
0.26090506 -0.10874067 -0.10912335
0.28668737 -0.10874067 -0.10912335
0.31246969 -0.10874067 -0.10912335
0.33825201 -0.10874067 -0.10912335
0.36403263 -0.10874002 -0.10914183
0.38981482 -0.10874002 -0.10914183
0.41559103 -0.1087384 -0.10919726
0.44137704 -0.10873948 -0.1091603
0.46717045 -0.10874234 -0.10906816
0.49296525 -0.10874515 -0.10897577
0.51876152 -0.10874801 -0.10888362
0.5445565 -0.10875028 -0.10880983
0.57035542 -0.10875314 -0.10871756
0.59615576 -0.10875601 -0.10862529
0.62192631 -0.10875314 -0.10871756
0.64768893 -0.10874909 -0.10884666
0.67349041 -0.10875195 -0.10875452
0.69933593 -0.10876168 -0.10844088
0.72518629 -0.10877129 -0.108127
0.75104147 -0.10878085 -0.10781348
0.77704483 -0.1088111 -0.10683501
0.8029272 -0.10882234 -0.10646546
0.82879823 -0.10883158 -0.10616994
0.85471803 -0.10884638 -0.10568929
0.88054949 -0.10884913 -0.10559714
-0.81982881 -0.082770832 -0.11723745
-0.79388988 -0.082750902 -0.11809981
-0.76788753 -0.082723893 -0.11927354
-0.74180728 -0.08268743 -0.12084949
-0.71574742 -0.082650751 -0.12244201
-0.12516932 -0.082675278 -0.12138045
-0.099609986 -0.082739562 -0.11859512
-0.074024245 -0.082813777 -0.11538255
-0.048355769 -0.082862936 -0.1132499
-0.022601809 -0.082859583 -0.11339688
0.0031495951 -0.082856722 -0.11352563
0.028899165 -0.082853265 -0.11367285
0.054646466 -0.082849756 -0.11382008
0.080391504 -0.082846403 -0.11396706
0.10613427 -0.082842998 -0.11411428
0.1318752 -0.082840033 -0.11424315
0.15761359 -0.08283668 -0.11439002
0.1833497 -0.082833275 -0.11453712
0.20908526 -0.08283063 -0.11464739
0.23482208 -0.082829446 -0.1147027
0.26055807 -0.082828201 -0.11475766
0.28629321 -0.082826905 -0.11481273
0.31202745 -0.082825556 -0.11486804
0.3377609 -0.082824312 -0.11492324
0.3634935 -0.082823016 -0.11497843
0.38922706 -0.082822151 -0.11501515
0.41500363 -0.08283063 -0.11464739
0.44078588 -0.082839273 -0.11427963
0.4665761 -0.082848184 -0.11389351
0.49237227 -0.082857043 -0.11350715
0.51822537 -0.082874492 -0.11275303
0.54406589 -0.082888 -0.11216402
0.56991553 -0.082901664 -0.11157465
0.59577429 -0.082915276 -0.11098528
0.62170148 -0.082936995 -0.11004543
0.64768565 -0.082964219 -0.10886538
0.67360967 -0.082981661 -0.10810864
0.69954908 -0.082999595 -0.10733342
0.72550035 -0.083017536 -0.10655785
0.75147909 -0.083037138 -0.10570788
-0.71649182 -0.05702053 -0.11921859
-0.69049674 -0.057000548 -0.12051964
-0.66453379 -0.05698137 -0.1217649
-0.63859016 -0.056962192 -0.12300909
-0.17648184 -0.056973107 -0.12229586
-0.15096107 -0.057013184 -0.11969507
-0.12541927 -0.057058722 -0.11674178
-0.099832252 -0.057104208 -0.11378324
-0.074191362 -0.057146393 -0.11104047
-0.048465218 -0.057167135 -0.10969508
-0.022691134 -0.057169676 -0.10952926
0.0030886345 -0.057169184 -0.10956609
0.028867407 -0.057169348 -0.1095475
0.054646466 -0.057169676 -0.10952926
0.080425665 -0.057169676 -0.10952926
0.10620515 -0.057169996 -0.10951054
0.13198449 -0.057169996 -0.10951054
0.15776439 -0.057170324 -0.1094923
0.18354459 -0.05717048 -0.10947382
0.20932166 -0.057169676 -0.10952926
0.23509887 -0.057169184 -0.10956609
0.26087552 -0.057168536 -0.10960305
0.28665289 -0.057168268 -0.10962141
0.3124271 -0.057167403 -0.10967672
0.33820048 -0.057166539 -0.10973203
0.36398321 -0.057167403 -0.10967672
0.38980743 -0.057174481 -0.10921562
0.41572025 -0.057193279 -0.10799789
0.44164982 -0.057211697 -0.10679805
0.46759796 -0.057230175 -0.10559702
-0.4873912 -0.031422608 -0.10535657
-0.46095458 -0.031391334 -0.10941851
-0.43470293 -0.031366542 -0.11264253
-0.4085426 -0.031344015 -0.11556637
-0.38243029 -0.031321812 -0.11846673
-0.35636103 -0.031299341 -0.12138045
-0.33055258 -0.031291291 -0.12242377
-0.30479971 -0.031286053 -0.1231004
-0.20255354 -0.031331375 -0.11721909
-0.1770232 -0.031352386 -0.11448193
-0.15135686 -0.031361677 -0.11326826
-0.1256987 -0.031374913 -0.11155617
-0.1000151 -0.031388309 -0.10982406
-0.074304208 -0.031401433 -0.10810876
-0.048278775 -0.031342663 -0.11574996
0.23523808 -0.031410076 -0.10698259
0.26104143 -0.031410672 -0.10690868
0.28684464 -0.031411104 -0.10685337
0.31192565 -0.031339262 -0.11619091
0.33793688 -0.031364974 -0.11284506
-0.40973201 -0.0056113191 -0.10698259
-0.38332742 -0.0056113731 -0.11161137
-0.35699797 -0.0056113731 -0.11620915
-0.33075976 -0.0056113731 -0.12062955
-0.17648819 -0.0056113191 -0.12220418
-0.12530953 -0.0056113731 -0.11877847
-0.074031308 -0.0056113731 -0.11519873
-0.048073281 -0.0056113191 -0.12242365
0.23485675 -0.0056113191 -0.11405897
0.2606045 -0.0056113731 -0.1140039
0.28574437 -0.0056113191 -0.1227349
0.31169823 -0.0056113191 -0.11914515
-0.15091255 -0.0056112651 -0.12048304
-0.099680334 -0.0056112651 -0.11707222
-0.8221311 0.020176204 -0.10844088
-0.38395736 0.020188952 -0.10679805
-0.35736701 0.020139581 -0.11321294
-0.33112815 0.020107061 -0.11743927
-0.30495748 0.020074651 -0.12163675
-0.073767304 0.020071518 -0.1220578
0.23447606 0.020078592 -0.12112403
-0.7969768 0.046002239 -0.10594809
-0.35793206 0.045961022 -0.10862541
-0.33149296 0.045874007 -0.11427987
-0.30519834 0.045795083 -0.11940181
-0.27915794 0.045743123 -0.12277126
-0.30533865 0.071528375 -0.11809993
-0.27925315 0.071442433 -0.12181973
0.26099369 0.071768917 -0.10768414
-0.28009421 0.097385794 -0.11341536
0.23512271 0.097517975 -0.10912347
-0.22865486 0.12316214 -0.1127162
-0.20264968 0.1230367 -0.11597037
-0.17676109 0.12294861 -0.11826503
-0.15094301 0.12288206 -0.11998844
-0.12517917 0.12283543 -0.12119734
-0.099448368 0.12280109 -0.12209427
-0.073744759 0.12277996 -0.12264335
-0.04805075 0.12276014 -0.12315547
-0.022373062 0.12275452 -0.12330163
0.0032998286 0.12275522 -0.12328351
0.028971458 0.12276386 -0.12306404
0.054646466 0.12278693 -0.12246025
0.080325842 0.12278553 -0.12249696
0.10600437 0.12278337 -0.1225518
0.13168247 0.12278212 -0.1225884
0.15739664 0.12282636 -0.12143528
0.18312508 0.12286737 -0.12037313
0.20928675 0.12325548 -0.11028492
-0.28202176 -0.1868941 -0.094154239
-0.85286224 -0.16118437 -0.09009254
-0.82691878 -0.16118167 -0.090148568
-0.74986881 -0.16132401 -0.087068081
-0.7237398 -0.16128851 -0.087834001
-0.69761848 -0.16125228 -0.088618398
-0.67149329 -0.16121273 -0.089476824
-0.64538133 -0.16117309 -0.090334892
-0.61927891 -0.16113257 -0.091211438
-0.59318656 -0.1610913 -0.092105865
-0.56711155 -0.16105084 -0.092981458
-0.54107308 -0.16101643 -0.093726277
-0.5148446 -0.16092715 -0.095660925
-0.48882946 -0.16089019 -0.096460223
-0.46265224 -0.16080101 -0.098391652
-0.43631268 -0.16065112 -0.10163701
-0.41026229 -0.16058095 -0.10315549
-0.38444856 -0.16058597 -0.10304451
-0.35864908 -0.1605971 -0.10280371
-0.33292717 -0.16064075 -0.10185933
-0.30730265 -0.16073236 -0.099876046
-0.28148258 -0.16074786 -0.099542141
-0.25565735 -0.1607632 -0.099208355
-0.22985053 -0.1607915 -0.098595858
-0.20415157 -0.16089019 -0.096460223
-0.17841864 -0.16098812 -0.094340444
-0.15262915 -0.16106802 -0.092608929
-0.12681107 -0.16114634 -0.090913057
-0.1009618 -0.1612196 -0.089327693
-0.075086012 -0.1612903 -0.087796569
0.41796386 -0.16131872 -0.087180018
0.4439151 -0.16131872 -0.087180018
0.46986634 -0.16131872 -0.087180018
0.4958176 -0.16131872 -0.087180018
0.52167308 -0.16128685 -0.087871313
0.54720408 -0.1611558 -0.090708137
0.57255751 -0.16098472 -0.094414711
0.59811634 -0.16088852 -0.096497297
0.62389839 -0.16086178 -0.097073317
0.64980632 -0.16087048 -0.096887469
0.67590952 -0.16092715 -0.095660925
0.70234334 -0.16105852 -0.092813849
0.72904986 -0.16124287 -0.088823557
0.7551825 -0.16128603 -0.087890029
-0.84924304 -0.13473843 -0.10352564
-0.8234176 -0.13473843 -0.10352564
-0.79758751 -0.13473763 -0.10354412
-0.77171665 -0.13473055 -0.10372925
-0.74569416 -0.13469847 -0.10456157
-0.10030432 -0.13473697 -0.10356283
-0.074568272 -0.13482605 -0.10124791
-0.048763569 -0.13487379 -0.10000587
-0.022911925 -0.13487525 -0.099968672
0.0029405914 -0.13487601 -0.099950314
0.028793242 -0.13487741 -0.09991312
0.054646466 -0.13487883 -0.099876046
0.08050026 -0.13488027 -0.099838972
0.10635462 -0.13488173 -0.099802136
0.13220955 -0.13488315 -0.099764705
0.1580645 -0.13488396 -0.099746227
0.1839183 -0.13488315 -0.099764705
0.20977093 -0.13488173 -0.099802136
0.23562403 -0.13488103 -0.099820495
0.26147681 -0.13488027 -0.099838972
0.28732935 -0.13487953 -0.099857688
0.31318155 -0.13487883 -0.099876046
0.33903348 -0.13487817 -0.099894524
0.36488515 -0.13487741 -0.09991312
0.39073837 -0.13487741 -0.09991312
0.4165836 -0.13487461 -0.099987268
0.44242984 -0.1348725 -0.10004306
0.46827292 -0.13486959 -0.10011709
0.49412212 -0.13486889 -0.10013568
0.51998395 -0.13487169 -0.10006154
0.54583871 -0.1348725 -0.10004306
0.5716539 -0.13486321 -0.1002841
0.59746224 -0.13485317 -0.10054362
0.6232698 -0.13484393 -0.10078454
0.64909667 -0.13483955 -0.10089588
0.67495602 -0.13484247 -0.10082173
0.70081651 -0.13484533 -0.10074747
0.72668183 -0.13484895 -0.10065472
0.7525602 -0.13485451 -0.10050654
0.77864069 -0.13489605 -0.099430799
0.8048954 -0.13496456 -0.097649217
0.8311522 -0.13502888 -0.095977068
0.85723984 -0.13506183 -0.095121622
0.88354248 -0.13512634 -0.093446851
0.77748698 -0.083058476 -0.10478354
0.80357939 -0.083087109 -0.10354424
0.82978094 -0.083124757 -0.10191488
0.85639304 -0.083199568 -0.098670244
0.88313454 -0.083282001 -0.095103145
0.9105441 -0.08342012 -0.089122295
0.49356714 -0.057248972 -0.10437667
0.51960397 -0.057273276 -0.10280359
0.54578453 -0.057310008 -0.10041392
0.57199097 -0.05734577 -0.098094821
0.59823358 -0.057381473 -0.095772386
0.62451249 -0.057417288 -0.093447089
0.65095657 -0.057464391 -0.090390921
-0.59399796 -0.031557169 -0.087890029
-0.56713217 -0.031518817 -0.092869759
-0.5404377 -0.031484567 -0.097314835
-0.51388896 -0.031453777 -0.10130358
0.3654429 -0.031510986 -0.093875051
-0.46392712 -0.0056113731 -0.090111136
-0.4366869 -0.0056113731 -0.099078417
0.33924881 -0.0056113191 -0.097351909
-0.7474767 0.020263551 -0.097091675
-0.7224822 0.020292936 -0.093279243
-0.6974268 0.020322267 -0.089476824
-0.43748334 0.020290235 -0.093633056
-0.41071415 0.02024205 -0.099894524
0.31301036 0.020225143 -0.10210025
-0.77209967 0.046060309 -0.10217416
-0.74793357 0.046168074 -0.095177531
-0.3843081 0.046030387 -0.10411763
0.28698036 0.046018444 -0.1048944
-0.25587514 0.12377275 -0.096850276
-0.1528933 0.1500435 -0.08831954
-0.1268151 0.14992715 -0.090838432
-0.10083434 0.14986941 -0.092087388
-0.074881434 0.14982209 -0.093111753
-0.048952918 0.14978774 -0.093856335
-0.023042332 0.14976628 -0.094321847
0.0028608069 0.14974566 -0.094768167
0.10647254 0.14986692 -0.092143178
0.13239978 0.14989528 -0.091528296
0.15835658 0.14995378 -0.090260506
0.18433511 0.15001504 -0.088935494
-0.25777113 -0.21388973 -0.076325774
-0.23231238 -0.21430863 -0.069522858
-0.5975073 -0.18821441 -0.069655061
-0.57127112 -0.18817066 -0.070466757
-0.54508764 -0.18813911 -0.071051836
-0.51736838 -0.18761605 -0.080758333
-0.49297962 -0.1881533 -0.070787549
-0.44077784 -0.18813603 -0.071108222
-0.41463754 -0.18811069 -0.071579814
-0.3886748 -0.18815537 -0.070749998
-0.36249954 -0.18811263 -0.071542144
-0.33647361 -0.18813406 -0.071146131
-0.25687551 -0.18733247 -0.086021185
-0.23097077 -0.18736768 -0.085366607
-0.20524341 -0.18753421 -0.082277179
-0.17945193 -0.18768784 -0.07942605
-0.15357287 -0.18780324 -0.077284813
-0.12764986 -0.18790764 -0.075347543
-0.10169534 -0.18801017 -0.073445916
-0.075702935 -0.18810049 -0.071768403
-0.049660351 -0.18814823 -0.070881844
-0.023583647 -0.18814823 -0.070881844
0.0024930574 -0.18814823 -0.070881844
0.028569762 -0.18814823 -0.070881844
0.054646466 -0.18814823 -0.070881844
0.080723166 -0.18814823 -0.070881844
0.10679987 -0.18814823 -0.070881844
0.13287657 -0.18814823 -0.070881844
0.15895328 -0.18814823 -0.070881844
0.18502998 -0.18814823 -0.070881844
0.21110757 -0.18814936 -0.070863008
0.23718441 -0.18814936 -0.070863008
0.26326129 -0.18814936 -0.070863008
0.2893368 -0.18814823 -0.070881844
0.3154135 -0.18814823 -0.070881844
0.34149021 -0.18814823 -0.070881844
0.36756691 -0.18814823 -0.070881844
0.39360586 -0.18812786 -0.07125926
0.41967967 -0.18812786 -0.07125926
0.44575566 -0.18812901 -0.071240425
0.47182962 -0.18812901 -0.071240425
0.49790356 -0.18812901 -0.071240425
0.52289009 -0.1877061 -0.079088211
0.73091942 -0.18768482 -0.079482436
0.75849801 -0.18809129 -0.071938157
0.78505057 -0.18821235 -0.069692969
-0.80195814 -0.16135755 -0.086338997
-0.77601433 -0.1613602 -0.086282849
-0.04916599 -0.16133 -0.08693707
-0.023212876 -0.16133 -0.08693707
0.0027402379 -0.16133 -0.08693707
0.028693352 -0.16133 -0.08693707
0.054646466 -0.16133 -0.08693707
0.080599725 -0.16133086 -0.086918354
0.10655298 -0.16133086 -0.086918354
0.13250624 -0.16133086 -0.086918354
0.15846007 -0.16133168 -0.086899757
0.18441348 -0.16133168 -0.086899757
0.21036687 -0.16133168 -0.086899757
0.23632026 -0.16133168 -0.086899757
0.26227367 -0.16133168 -0.086899757
0.28822708 -0.16133168 -0.086899757
0.31418049 -0.16133168 -0.086899757
0.34013388 -0.16133168 -0.086899757
0.36608729 -0.16133168 -0.086899757
0.39204067 -0.16133168 -0.086899757
0.78155529 -0.16137753 -0.085908771
0.80789638 -0.16145614 -0.084206343
0.83423817 -0.16152965 -0.082614422
0.8608197 -0.16164476 -0.080120683
0.88737565 -0.16174799 -0.077886224
0.67761445 -0.057525322 -0.086432457
0.70433503 -0.057586417 -0.082464457
0.73112237 -0.057647891 -0.078468323
0.75796938 -0.057709254 -0.074481845
-0.64796484 -0.031633873 -0.07790494
-0.62094337 -0.031595521 -0.082895517
0.054646466 -0.031686917 -0.071032882
0.3931666 -0.031651318 -0.075648785
0.41954556 -0.031675465 -0.072503924
0.44597796 -0.031700045 -0.069315195
-0.49125257 -0.0056112651 -0.081471205
-0.67515576 0.020453043 -0.072484851
0.028557263 0.046567097 -0.069258451
0.26329613 0.098713547 -0.070297003
0.23710616 0.12471697 -0.072315216
-0.23217013 0.15083405 -0.071202755
-0.20547733 0.15046296 -0.079238415
-0.17907408 0.15020236 -0.084880114
0.21101612 0.15075831 -0.072842836
0.028669881 0.20220135 -0.083888054
0.054646466 0.2022002 -0.08390677
0.080654509 0.202453 -0.079801679
-0.49569246 -0.21526431 -0.054006219
-0.36453736 -0.21520321 -0.054996967
-0.28603953 -0.21526431 -0.054006219
-0.20654976 -0.2145683 -0.065306783
-0.1806546 -0.21476778 -0.062066793
-0.15471932 -0.2149771 -0.058668494
-0.12882243 -0.21529008 -0.05358696
-0.83340091 -0.18844457 -0.0653826
-0.80797476 -0.18859166 -0.062654614
-0.78183472 -0.18859166 -0.062654614
-0.75545949 -0.18853845 -0.063640475
-0.72911268 -0.18848838 -0.064568639
-0.70280141 -0.1884436 -0.065401435
-0.67639709 -0.1883723 -0.066725969
-0.65002114 -0.18830293 -0.068011761
-0.62375975 -0.18825912 -0.068824172
0.57837427 -0.18891598 -0.056633949
0.60460061 -0.18892936 -0.05638659
0.63083076 -0.18894273 -0.056139231
0.65684921 -0.18889038 -0.057109594
0.81154549 -0.18831114 -0.067860484
0.83806908 -0.18840994 -0.066026092
0.86485654 -0.18856207 -0.063204408
0.78566146 -0.057826795 -0.066858411
0.81339389 -0.057938717 -0.059580564
0.84095055 -0.058031626 -0.053548813
0.02847779 -0.031779934 -0.058934569
0.47246018 -0.031724729 -0.066120625
0.49899238 -0.031749308 -0.062920094
0.52552998 -0.031771451 -0.060036421
0.55212104 -0.031794198 -0.057090402
0.57877588 -0.031817857 -0.054025292
0.60544169 -0.031839676 -0.05118382
-0.54805839 -0.0056113191 -0.054273009
-0.52094537 -0.0056113731 -0.059637308
0.36806619 -0.0056113191 -0.065477252
0.028513722 -0.0056112651 -0.063602448
0.028488608 0.020546546 -0.060340285
0.34189981 0.020502687 -0.066045165
-0.8328315 0.046593189 -0.067558169
-0.7320143 0.046832755 -0.052004337
0.31574363 0.046607994 -0.066593647
-0.80751264 0.072766781 -0.064473867
-0.78412479 0.07302352 -0.053358197
-0.75712693 0.072947301 -0.056653023
0.28951603 0.072678514 -0.068295002
-0.28566426 0.12527744 -0.057756305
-0.12888922 0.17792436 -0.05234766
-0.10255979 0.17779592 -0.054730415
-0.076281816 0.17768832 -0.056729078
-0.050069209 0.17764108 -0.057604194
-0.0238938 0.17764941 -0.057451963
0.0022874549 0.17764509 -0.057528138
0.10705265 0.17781043 -0.054463625
0.13328215 0.17787185 -0.053320169
0.15955514 0.17797881 -0.051336408
-0.47275677 -0.24294272 -0.032760739
-0.41963446 -0.24275176 -0.035517573
-0.34069666 -0.24281712 -0.034573555
-0.28773755 -0.24264632 -0.037038803
-0.23434451 -0.24205856 -0.045524478
-0.20825112 -0.24221915 -0.0432055
-0.18221673 -0.24247444 -0.039519787
-0.15628633 -0.24291085 -0.033223629
-0.41832751 -0.21582194 -0.044949889
-0.10280916 -0.21555212 -0.049331188
-0.076668859 -0.21571584 -0.04667294
-0.050450016 -0.21580426 -0.045237184
-0.024168815 -0.21578535 -0.045543551
0.0021076612 -0.21576662 -0.045849919
0.028379569 -0.2157466 -0.046175361
0.054646466 -0.21572763 -0.046481729
0.080909386 -0.21571471 -0.046692252
0.1071723 -0.21571471 -0.046692252
0.13343522 -0.21571471 -0.046692252
0.15969814 -0.21571471 -0.046692252
0.18596178 -0.21571584 -0.04667294
0.21222486 -0.21571584 -0.04667294
0.23847966 -0.21570644 -0.046826243
0.2647239 -0.21568868 -0.04711318
0.29096368 -0.215671 -0.047400236
0.31722113 -0.215671 -0.047400236
0.34348023 -0.21567236 -0.047381043
0.36973786 -0.21567236 -0.047381043
0.3959572 -0.21564868 -0.047763705
0.42220566 -0.21564513 -0.047820926
0.44845325 -0.21564162 -0.047878385
0.47467878 -0.21562748 -0.048107862
0.52840751 -0.2161717 -0.039270043
0.60725898 -0.21613038 -0.039942384
0.63359982 -0.21613988 -0.039788723
0.71368527 -0.21650378 -0.033879399
0.76327223 -0.21557455 -0.048968077
0.79034245 -0.21581027 -0.04514122
0.81657887 -0.21579951 -0.045313835
0.84292758 -0.21581955 -0.044988036
0.86976177 -0.21596362 -0.042649269
0.71322173 -0.19001237 -0.036287904
0.89760387 -0.19000828 -0.036364913
0.87122011 -0.058293507 -0.036538243
0.63214236 -0.031861179 -0.048394561
0.65908349 -0.0318911 -0.04448998
0.68617517 -0.031925023 -0.040096164
0.71333665 -0.031958893 -0.035691023
-0.65699118 -0.0056113191 -0.034476876
-0.62962884 -0.0056113731 -0.039500356
-0.6023466 -0.0056113191 -0.044509172
0.39726946 -0.0056113191 -0.034650445
-0.57514066 -0.0056112651 -0.0495224
-0.70665783 0.046892397 -0.048126936
-0.68124771 0.04695262 -0.044221759
-0.31442147 0.099836618 -0.033821583
-0.26017654 0.15180004 -0.050286293
0.23910254 0.15249395 -0.035267234
-0.20875993 0.17877319 -0.03659606
-0.18192549 0.17838907 -0.043723345
-0.15534145 0.17812812 -0.04856658
0.18591246 0.17816101 -0.047954917
0.21284248 0.17895074 -0.033300877
0.028308345 0.23143177 -0.036923289
0.054646466 0.23143177 -0.036923289
-0.44826463 -0.27030143 -0.019920588
-0.31592381 -0.27030435 -0.019881725
-0.50022388 -0.24341282 -0.025974989
-0.44804582 -0.24372873 -0.021416783
-0.13028842 -0.24338485 -0.026381612
-0.10418464 -0.24385794 -0.019551277
0.39920717 -0.24415341 -0.015287638
0.42558584 -0.24407227 -0.016456842
0.45205903 -0.24405882 -0.01665163
0.47856519 -0.24406557 -0.016554236
0.53075749 -0.24366677 -0.022310019
0.58369166 -0.24368167 -0.022096515
0.66314471 -0.24371926 -0.021552563
0.71591556 -0.24366811 -0.022290468
-0.71379322 -0.21759468 -0.01616466
-0.68651921 -0.21737297 -0.019765019
-0.65934259 -0.21716362 -0.023163795
-0.63233203 -0.21698931 -0.02599442
-0.60545903 -0.2168451 -0.028336525
-0.57861906 -0.21669982 -0.030694962
-0.55203468 -0.21663095 -0.031814933
0.50368792 -0.21692491 -0.027040005
0.74113297 -0.216838 -0.028452635
-0.47419551 -0.19070601 -0.023416162
-0.31554082 -0.19070493 -0.023435593
0.55721098 -0.19076662 -0.022290587
0.68946838 -0.19076769 -0.022271156
0.74052566 -0.031991303 -0.03148675
0.76777762 -0.032023497 -0.027291656
0.79534733 -0.03206493 -0.021921635
0.82299483 -0.032106094 -0.016573668
0.47755525 -0.0056113191 -0.024754167
0.5044111 -0.0056113191 -0.02151382
0.5312826 -0.0056113191 -0.018520355
0.55815256 -0.0056113191 -0.015852809
-0.68442571 -0.0056112651 -0.029477596
0.42398477 -0.0056112651 -0.031313062
0.45074773 -0.0056112651 -0.028007627
-0.52853549 0.020896904 -0.014819741
-0.50144786 0.020869408 -0.018403649
-0.47494325 0.020868167 -0.018559337
0.37190506 0.020826843 -0.023920417
0.3454701 0.047265597 -0.023881674
0.31903461 0.073705114 -0.023842692
-0.79284567 0.10032532 -0.017956018
0.29259714 0.10014441 -0.02382338
0.26581711 0.12637028 -0.029361606
-0.23604587 0.17937478 -0.025432467
-0.051339816 0.20636122 -0.016340017
-0.024849992 0.2063792 -0.016047835
0.0016455278 0.2063925 -0.015833378
0.081034914 0.23188476 -0.030385852
-0.39759451 -0.29823783 -0.0025908947
-0.37099209 -0.29823783 -0.0025908947
-0.42340374 -0.27119479 -0.0083149672
-0.39787477 -0.27180037 -0.00044941902
-0.37108886 -0.27169579 -0.0018054247
-0.34306318 -0.27075115 -0.014078617
0.55972493 -0.27144209 -0.0051025152
0.58661306 -0.27159467 -0.0031211376
0.61429238 -0.27210939 0.0035660267
0.64064205 -0.27197289 0.0017933846
0.66606766 -0.27144662 -0.0050436258
0.6926403 -0.27144209 -0.0051025152
-0.31832981 -0.24538176 0.0024430752
-0.077966988 -0.24431556 -0.012947083
-0.051581498 -0.24462427 -0.0084912777
-0.02502225 -0.24461742 -0.0085891485
0.0015357994 -0.24460931 -0.0087065697
0.028092941 -0.24459299 -0.008941412
0.054646466 -0.24455924 -0.0094301701
0.081192613 -0.24452667 -0.0098996162
0.10773124 -0.2444928 -0.010388374
0.13426279 -0.24446017 -0.010857463
0.16078652 -0.24442646 -0.011345983
0.18730348 -0.24439394 -0.011814833
0.21381234 -0.24436013 -0.012302876
0.24031895 -0.24433312 -0.012693405
0.26682916 -0.2443168 -0.012927651
0.29333577 -0.24430066 -0.013161778
0.31983879 -0.24428439 -0.013396144
0.34633818 -0.24426819 -0.013630271
0.37279978 -0.24422628 -0.0142349
0.69199258 -0.24461612 -0.0086086988
-0.52948797 -0.21802379 -0.0091955662
-0.47820708 -0.2187528 0.0026401281
-0.45024565 -0.21819745 -0.0063763857
-0.39709398 -0.21819514 -0.0064156055
-0.34394804 -0.21819514 -0.0064156055
-0.31737718 -0.21819627 -0.0063960552
0.55970198 -0.21826617 -0.0052595139
0.58628684 -0.21826747 -0.0052397251
0.66603297 -0.21826747 -0.0052397251
0.69261134 -0.21826617 -0.0052595139
0.85071945 -0.032147091 -0.011248112
0.58506119 -0.0056113191 -0.013200998
0.6389997 -0.0056113731 -0.0079039335
0.69370711 -0.0056113731 0.00067174435
0.61201131 -0.0056112651 -0.010544896
0.66631424 -0.0056112651 -0.0036509037
-0.61085242 0.021008503 -0.00031173229
-0.58328933 0.020969449 -0.0054162741
-0.55584568 0.020931907 -0.010290742
0.40024802 0.0209735 -0.0048868656
-0.74177861 0.074031271 -0.0097236633
-0.71612263 0.074123368 -0.0057299137
-0.69040722 0.074215956 -0.0017268658
-0.34358865 0.074035645 -0.0095282793
0.028057203 0.074156374 -0.0042984486
-0.76732862 0.10044999 -0.013903379
-0.29164726 0.15421662 0.0020297766
-0.26484385 0.18075795 0.00023877621
-0.18507217 0.20747194 0.0016947985
-0.1580423 0.20707749 -0.0047103167
-0.13119973 0.20678428 -0.0094695091
-0.10451131 0.20659906 -0.012478709
-0.077905402 0.2064717 -0.014546871
0.10770627 0.20662796 -0.012010098
0.13426685 0.20670968 -0.010681629
0.16087924 0.20685418 -0.0083347559
0.18761772 0.20714264 -0.0036509037
-0.39934349 -0.24595894 0.010773659
-0.37264061 -0.24596034 0.010793328
0.56307942 -0.24644801 0.017832398
0.6156528 -0.24604261 0.01198101
0.64236403 -0.24604121 0.011961222
0.88258606 -0.032319084 0.011090159
0.72117239 -0.0056113731 0.00502491
0.77633148 -0.0056113731 0.013863206
0.74870688 -0.0056112651 0.0093889236
0.80426317 -0.0056112111 0.019442439
-0.66621542 0.021087261 0.0099029541
-0.63849306 0.021047937 0.0047882795
0.42860585 0.021100063 0.011565328
0.45570624 0.021125993 0.014934063
0.48285195 0.021151595 0.01824975
0.51002347 0.02117558 0.021372676
-0.82931554 0.10153557 0.021352649
0.32244328 0.10150748 0.020437121
0.29543358 0.12815939 0.0171175
0.26844731 0.15473929 0.013347864
0.24139495 0.1811371 0.0072746277
-0.2123836 0.20801274 0.010476828
0.21489467 0.20805299 0.011129975
0.027935538 0.26149797 0.011505723
0.054646466 0.26149347 0.011446595
0.83228028 -0.0056113731 0.025020003
0.86103964 -0.0056113731 0.033439398
0.53719687 0.021197079 0.024162173
0.56441385 0.021218685 0.026955962
0.59165615 0.021239158 0.029634595
0.6189338 0.021259576 0.032277107
0.64633095 0.021283343 0.035385013
-0.59142131 0.048227653 0.038599133
-0.56368053 0.048156291 0.0339607
-0.53611833 0.048094608 0.029954791
-0.50855476 0.048027031 0.025558472
-0.48172954 0.048026167 0.025518656
-0.45488736 0.048023842 0.025359035
-0.42804486 0.048021033 0.025179386
0.37654763 0.048038855 0.026337028
0.3497124 0.074861087 0.026217222
-0.75179297 0.10191408 0.033639908
-0.72582579 0.1020401 0.037734866
-0.80275941 0.12835833 0.02228868
-0.32085758 0.12849732 0.025897861
-0.24024883 0.20885792 0.024202108
-0.133764 0.23663078 0.038116574
-0.10667107 0.23636502 0.034281611
-0.079700723 0.23621351 0.032096744
-0.052776407 0.23609008 0.030314803
-0.025929932 0.236118 0.030714869
0.00092393532 0.23614004 0.031035304
0.10843103 0.23641904 0.035063982
0.13535622 0.23651783 0.036489367
0.16233806 0.23669457 0.039041638
0.67401201 0.021317484 0.039826155
0.70177472 0.021352379 0.044338942
0.72955078 0.021384789 0.048560143
0.75731677 0.021414498 0.05240643
0.78533798 0.021451393 0.057195783
-0.67547524 0.048471861 0.054454446
-0.64729851 0.048384354 0.048782706
-0.61932123 0.048306085 0.043693304
0.40580523 0.048413202 0.050644279
0.43338561 0.048494279 0.055915833
-0.69979334 0.1021659 0.041819334
-0.67571992 0.10259108 0.055631638
-0.35049701 0.10242697 0.050300002
-0.26968911 0.2106123 0.052690268
-0.18847749 0.23751272 0.050846577
-0.16100457 0.23699622 0.043391109
0.18948892 0.23710506 0.044964433
0.89526981 -0.0056113191 0.064240932
0.81361586 0.021494769 0.062833667
0.84197998 0.021538144 0.068469167
0.054646466 0.048713319 0.070146918
0.46080688 0.04854349 0.059106946
0.48825034 0.048589244 0.062079549
0.51561213 0.048620082 0.064077616
0.54275602 0.048623003 0.064281583
0.5700404 0.048640721 0.0654248
0.59734243 0.048658274 0.066568375
0.62465894 0.048675619 0.067692399
0.65207261 0.048700191 0.069287419
0.6795944 0.048731953 0.071355224
-0.54375142 0.075988375 0.075025797
-0.51591837 0.075897947 0.071109533
-0.48858157 0.075872995 0.070024252
-0.46142015 0.075872995 0.070024252
-0.43425876 0.075872995 0.070024252
-0.40707326 0.075868726 0.069840074
-0.37989062 0.075864457 0.069655895
0.35386455 0.10319521 0.075251818
0.32635507 0.13024294 0.071252823
0.29883701 0.15718228 0.066241503
-0.29777095 0.18415187 0.063220859
0.27148354 0.18412107 0.062650204
0.2441847 0.21100375 0.059045792
-0.24463248 0.23925322 0.075970531
-0.21619764 0.23814824 0.060022712
0.21726581 0.23831774 0.062466741
0.027552653 0.29242069 0.061244249
0.054646466 0.29241714 0.06120348
0.054646466 -0.005611157 0.083173633
0.054646466 0.021627598 0.080083013
0.87187332 0.021629542 0.080350637
0.70956349 0.048965096 0.086496949
0.73773557 0.049035966 0.091089725
-0.62802827 0.076309673 0.088936567
-0.59966034 0.076177061 0.083194375
-0.57147878 0.076057352 0.078004956
0.3813262 0.076058544 0.078066826
-0.78972304 0.13057727 0.079939008
-0.73840338 0.13112143 0.094075322
-0.71010536 0.13095155 0.089661121
-0.68300796 0.13099131 0.090696096
-0.32751766 0.15817323 0.087695837
-0.13653257 0.26750162 0.089495301
-0.10903223 0.26718646 0.08540225
-0.081658736 0.26699904 0.08296752
-0.054327894 0.26682466 0.080700755
-0.027094293 0.26685777 0.081133246
0.00014755502 0.26688322 0.081462979
0.081918143 0.26710555 0.084349632
0.1092108 0.26721036 0.085712194
0.13653162 0.26733914 0.087385654
0.16390884 0.26754457 0.090054274
0.082022592 -0.032987438 0.097917914
0.76596415 0.049105376 0.095611215
0.79442489 0.049187049 0.10091484
0.82305622 0.0492751 0.1066314
0.85175157 0.049361527 0.11224055
-0.68520546 0.07659445 0.10126913
-0.65656728 0.076451845 0.095092177
0.41034061 0.076472044 0.095964432
0.43816119 0.076570302 0.10022771
0.46576679 0.076612815 0.10206103
0.49339569 0.076654084 0.10385442
0.5209623 0.07667958 0.10496056
0.54837239 0.076676339 0.10481441
0.57575887 0.076669641 0.10452211
0.60313123 0.076661266 0.10416734
0.63049811 0.076653168 0.10381258
0.65834749 0.076711617 0.1063391
0.68607706 0.076749213 0.10796928
-0.76676702 0.13129094 0.098479509
-0.27480137 0.24147458 0.10803199
-0.22018835 0.26922348 0.11186326
-0.19205606 0.26850256 0.10249889
-0.1641783 0.2679196 0.094926
0.1915087 0.26811299 0.097439766
-7.0277601e-05 0.29533067 0.095611215
0.88287997 0.049604177 0.12801087
0.71644884 0.077113934 0.12376511
0.74515462 0.077249624 0.12963998
-0.57966292 0.10470331 0.12422919
-0.5513882 0.10457681 0.12011886
-0.52335817 0.10448476 0.11713147
-0.49560454 0.10443885 0.11563957
-0.46809199 0.10443885 0.11563957
-0.44057944 0.10443885 0.11563957
-0.41306686 0.10443885 0.11563957
-0.38555434 0.10443885 0.11563957
-0.3576856 0.13183278 0.11255515
-0.82561028 0.15943681 0.11505175
-0.7991206 0.15963396 0.11931896
0.33072427 0.16003548 0.12801075
0.3029452 0.18750991 0.12553811
-0.30412775 0.21517287 0.12674248
0.2751888 0.21493098 0.12281585
0.24745752 0.24228868 0.11978185
-0.24920756 0.2706196 0.12999976
0.21998993 0.26996115 0.12144578
-0.00045083836 0.3249726 0.12032938
0.027158791 0.32424077 0.11240828
0.054646466 0.32423884 0.1123873
0.77345341 0.0773279 0.1330297
0.803195 0.077560656 0.14311016
-0.66623348 0.1052933 0.14338768
-0.63727397 0.10509586 0.13697875
-0.60841733 0.10489929 0.1305927
0.38625857 0.10492614 0.13146126
0.41503099 0.10527633 0.14283299
0.44318768 0.10540052 0.14686763
0.35854173 0.13252291 0.13048685
-0.77683276 0.1606845 0.14206576
-0.74899793 0.16065997 0.14153278
-0.72068024 0.16053012 0.13872242
-0.69255692 0.16043396 0.13663864
-0.8033247 0.18812403 0.13693619
-0.77565801 0.18812652 0.13697875
-0.74798602 0.18812755 0.1370002
-0.13968635 0.29976881 0.14802206
-0.11174889 0.29944685 0.14421976
-0.083921939 0.29923916 0.14176726
-0.056152504 0.29908586 0.13995671
-0.028456692 0.2991001 0.14012718
0.082363591 0.29927701 0.14221478
0.11010534 0.29941243 0.14381421
0.13787964 0.29957703 0.1457566
0.16569905 0.29978326 0.148193
0.8331086 0.0777952 0.15326893
0.86234981 0.077944346 0.15971434
0.47116777 0.10546113 0.14883471
0.49917313 0.10552038 0.15076149
0.52705139 0.1055428 0.15148962
0.55482209 0.10553886 0.15136123
0.58257204 0.10553087 0.15110397
0.61029822 0.10551903 0.15071845
0.63801503 0.1055065 0.15031171
0.66648066 0.10563134 0.15436316
0.69465244 0.10569405 0.15640283
-0.5029276 0.13378227 0.16320455
-0.47504899 0.13378227 0.16320455
-0.44717023 0.13378227 0.16320455
-0.4192746 0.13377725 0.16307533
-0.39137033 0.13376893 0.16285956
-0.33454996 0.18898684 0.15294719
-0.28009334 0.27333862 0.16531932
-0.19604844 0.30079356 0.16012347
-0.16773432 0.3001622 0.15266871
0.19382119 0.30057323 0.15752029
0.72720766 0.10648233 0.18199861
-0.61776572 0.1344745 0.18119252
-0.58871675 0.13425028 0.17536509
-0.55990726 0.13405998 0.17042184
-0.53142053 0.13392828 0.16700399
-0.36542264 0.16241635 0.17955983
-0.72943091 0.19040799 0.17932045
-0.70235181 0.19064745 0.18376458
-0.81078893 0.21772692 0.16821492
-0.78390676 0.21800284 0.17269659
-0.75695312 0.21827815 0.17716777
-0.22459286 0.30155185 0.16908002
0.89938784 0.078862801 0.1994921
0.75623047 0.10664205 0.18719184
0.78548539 0.10682534 0.19314516
0.81502348 0.10703713 0.20001996
-0.67627579 0.13495056 0.19356203
-0.64690804 0.13469949 0.1870389
0.39120504 0.13462132 0.18500805
0.41990584 0.13487305 0.19154561
0.44858429 0.1350807 0.19694173
0.47713149 0.13521698 0.20048225
0.36369166 0.16295885 0.19130468
-0.67632401 0.1911884 0.19380319
0.33566579 0.1911021 0.19220293
0.30762765 0.2192608 0.19312322
-0.31077957 0.24737594 0.19321108
0.27957401 0.24743205 0.19402242
0.25163549 0.27580145 0.19731557
-0.25417638 0.30321136 0.18867838
0.22358964 0.3041178 0.19938207
0.84464449 0.10724548 0.20678854
0.50573677 0.1353544 0.20405173
0.53435749 0.13548015 0.20731878
0.56299859 0.13559763 0.21037006
0.59168744 0.13571523 0.21342659
0.62042069 0.13583213 0.21646607
0.64933103 0.13598029 0.2203114
-0.53953493 0.16415474 0.21719897
-0.51044828 0.16391701 0.21205282
-0.48218063 0.16391295 0.21196425
-0.45389584 0.16390274 0.21174252
-0.42561743 0.16389351 0.21154332
-0.39733934 0.1638833 0.21132183
-0.34171399 0.22088039 0.21942163
0.87674779 0.10778204 0.22420931
0.67851728 0.13617747 0.22543621
0.70779288 0.13637711 0.23062015
0.73712194 0.13657114 0.23566127
-0.62752646 0.16493183 0.23402405
-0.5980525 0.16465791 0.22809339
-0.56867313 0.16438486 0.22218132
0.3962099 0.16517048 0.23918724
-0.73983771 0.22138411 0.22760165
-0.71240687 0.22166365 0.23214209
-0.68490851 0.22194394 0.23669386
-0.79514444 0.24932602 0.22135758
-0.76858133 0.24987304 0.22925568
-0.2856158 0.30629566 0.22510123
0.76644039 0.13674751 0.24024403
0.79624254 0.13700333 0.24689126
0.82618022 0.13726543 0.25369811
-0.68671018 0.16547093 0.24569523
-0.6570738 0.16520143 0.23986185
0.42507437 0.16535528 0.24319279
0.45398685 0.16553456 0.24707186
0.4829548 0.16571195 0.25091362
0.51196891 0.16588464 0.25465012
-0.37341645 0.19415131 0.24878836
0.36804542 0.19382438 0.24271977
-0.3166877 0.28003034 0.25224864
0.083374158 0.051844165 0.2734915
0.054646466 0.080214694 0.25803065
0.85666472 0.13760616 0.26255512
0.54098207 0.16603659 0.25793993
0.57004672 0.16618887 0.26123548
0.5991596 0.16634007 0.26451409
0.62833446 0.16649504 0.26786709
0.65780592 0.16672002 0.27273619
-0.57746363 0.19551453 0.27408707
-0.54783654 0.19521646 0.26855195
-0.51822716 0.19489454 0.26257813
-0.48936382 0.19481349 0.26107621
-0.46070334 0.19480237 0.26087153
-0.432046 0.19479151 0.26066673
-0.40340862 0.19478774 0.26059842
0.34069303 0.22322594 0.2575084
-0.83344889 0.2522229 0.26316988
0.31250903 0.25225127 0.26357973
-0.80671918 0.28151047 0.27147758
-0.3461493 0.28067142 0.26057577
-0.031762484 -0.034414418 0.28327191
-0.0029644631 -0.034416795 0.28359425
0.19903179 -0.0056113731 0.2928952
0.11228257 0.023206795 0.28522956
0.1410076 0.023175627 0.28120136
0.16971327 0.023155317 0.27855897
0.6874634 0.16697504 0.27826047
0.71721292 0.16723216 0.28382444
0.74704689 0.16748863 0.28938198
-0.66713768 0.19648814 0.29215515
-0.63714856 0.19616219 0.28610528
-0.60726017 0.19583848 0.28009784
0.40101099 0.19643466 0.29116082
-0.75051939 0.2531921 0.27715886
-0.72273278 0.25351495 0.28182209
-0.6948812 0.25384057 0.28652036
-0.43503439 0.25363147 0.28350222
-0.40607372 0.25354379 0.28223634
-0.37713265 0.25345618 0.28097117
-0.34794638 0.25319842 0.27725053
-0.7790705 0.28187737 0.27624118
-0.75132632 0.2822361 0.2809025
0.1126022 -0.0056113731 0.30599034
0.14150374 -0.0056114271 0.30268466
0.17035313 -0.0056112111 0.29933846
0.083534047 0.023276208 0.29426074
0.77710783 0.16777936 0.29567385
0.80747932 0.1681194 0.30303359
0.83796048 0.16845836 0.31037569
0.43029621 0.19666153 0.29537272
0.45964476 0.19688793 0.29957068
0.48906174 0.19711572 0.30380154
0.51851922 0.19733292 0.30783188
0.5479939 0.1975318 0.31152022
-0.49591264 0.22620299 0.30585039
-0.46673897 0.22611549 0.30442989
-0.43758428 0.22602668 0.30298722
-0.40845487 0.22593945 0.30156875
-0.3793554 0.22585648 0.30022085
0.083711766 -0.0056113191 0.31734776
0.5775038 0.19772206 0.31505227
0.60703123 0.19789875 0.31833243
0.63661003 0.19807588 0.32161868
0.66653728 0.19835217 0.3267473
-0.58641779 0.22750299 0.32695925
-0.55625951 0.22711465 0.32065582
-0.5261727 0.22671643 0.31418586
-0.84887391 0.31499273 0.32780755
-0.81972808 0.31499273 0.32780755
-0.79057175 0.31498861 0.32776022
-0.7614364 0.31499273 0.32780755
-0.73228574 0.31499061 0.32778394
-0.70314479 0.31499273 0.32780755
-0.032871079 -0.0056113731 0.33127546
-0.0037091039 -0.0056112111 0.33196044
0.87159908 0.16944979 0.33184218
0.69655782 0.19863316 0.3319602
0.72666538 0.19891606 0.33721173
0.75660199 0.19912571 0.34110034
0.78663212 0.19934458 0.34516335
-0.67663485 0.22839876 0.34150398
-0.64662558 0.2281459 0.33740127
-0.61665177 0.22788376 0.33314168
0.37593451 0.22805272 0.33588552
-0.85298163 0.28717205 0.34502077
-0.73334038 0.2862356 0.3328582
-0.70512182 0.2866073 0.33768559
-0.67698222 0.28704014 0.34330904
0.11335732 -0.034966853 0.3550365
0.1427238 -0.034970365 0.355515
0.17209984 -0.034974575 0.35606503
0.20148346 -0.034978736 0.35659122
0.23087516 -0.034982681 0.35711813
0.20133348 0.023726065 0.35269487
0.81662637 0.19953693 0.34873474
0.84689534 0.19978656 0.35336363
0.87751174 0.20010488 0.35927343
0.40650126 0.22895864 0.3505944
0.43614027 0.22915408 0.35376954
0.46564823 0.22924682 0.35527587
0.4951795 0.22933967 0.35678291
0.52481681 0.22947396 0.35896206
-0.68065459 0.25909704 0.36239123
-0.03400569 0.023939487 0.38040566
-0.0044661649 0.02394505 0.3811326
0.90852916 0.20049828 0.36657238
0.20310377 0.053771563 0.39868855
0.08431986 0.083408907 0.3963418
0.23307472 -0.0056114811 0.40473986
0.11420995 0.053952143 0.41041636
0.14391446 0.053900503 0.40707254
0.17356314 0.053847075 0.40358686
-0.034819979 0.083855093 0.41566539
-0.0050050505 0.083865948 0.41613436
0.11413993 0.083628915 0.40586901
0.14396214 0.083704382 0.40913701
0.17383409 0.083779357 0.41238594
0.20383228 0.083900191 0.41761565
-0.035281677 0.054340579 0.43565702
-0.0053129233 0.054348037 0.436131
0 0 0 1 0 0 0 1 0 0 0 1 0 0 0 0 0 1239 1 0 0
