ply
format ascii 1.0
comment PCL generated
element vertex 790
property float x
property float y
property float z
element camera 1
property float view_px
property float view_py
property float view_pz
property float x_axisx
property float x_axisy
property float x_axisz
property float y_axisx
property float y_axisy
property float y_axisz
property float z_axisx
property float z_axisy
property float z_axisz
property float focal
property float scalex
property float scaley
property float centerx
property float centery
property int viewportx
property int viewporty
property float k1
property float k2
end_header
0.35468578 0.008304311 -0.37436366
0.37546432 0.008304311 -0.3752892
0.39623436 0.0083044125 -0.3761754
0.41749519 0.0083044125 -0.37378502
0.35404927 0.029173732 -0.37922776
0.37450722 0.029150803 -0.38219649
0.39521912 0.029143769 -0.3831166
0.41591892 0.029136792 -0.38402319
0.43803245 0.029197782 -0.37609828
0.35397553 0.050034393 -0.37979126
0.37440628 0.049986087 -0.38292503
0.39515373 0.049976304 -0.38356358
0.41589338 0.049966671 -0.38418919
0.43803036 0.050091054 -0.37611127
0.35397553 0.070899375 -0.37979126
0.37524372 0.070966534 -0.37688148
0.39603728 0.070951708 -0.37752306
0.41722208 0.070997059 -0.37555897
0.3540979 0.091793157 -0.37885618
0.37553734 0.091919214 -0.3747623
0.3963621 0.091902532 -0.37530196
0.41778848 0.09200798 -0.37188017
0.35441512 0.11275852 -0.37643218
0.37523305 0.11273832 -0.37695837
0.39604291 0.11271802 -0.37748432
0.41725966 0.11280155 -0.37531483
0.33592412 -0.033777304 -0.35694778
0.35672483 -0.033749025 -0.35878265
0.37760746 -0.033733051 -0.35982251
0.39886767 -0.033758402 -0.35817122
0.33521032 -0.012691786 -0.36274338
0.35559499 -0.012655861 -0.36741638
0.37643531 -0.012649187 -0.36828172
0.39726049 -0.012642409 -0.36915994
0.41921118 -0.012692549 -0.36263967
0.4398081 0.008304311 -0.36511409
0.33488005 0.0083044125 -0.36542487
0.462264 0.0083044637 -0.35638773
0.31489682 0.02934606 -0.35683048
0.33455357 0.029259488 -0.36807513
0.4604575 0.029267386 -0.36705434
0.48303249 0.029337499 -0.35794997
0.31465042 0.050354999 -0.35896468
0.3343882 0.050194032 -0.36941779
0.46045533 0.050230313 -0.36706746
0.48303249 0.050370641 -0.35794997
0.31474954 0.071400158 -0.35810626
0.33440888 0.071142837 -0.36925018
0.43957806 0.071205363 -0.36653733
0.46045533 0.071193181 -0.36706746
0.48303249 0.071403727 -0.35794997
0.31491941 0.092477322 -0.35663521
0.33458859 0.09213379 -0.36779094
0.44020608 0.092292055 -0.36265254
0.46112832 0.092278443 -0.36309326
0.31507438 0.11357217 -0.35529292
0.33477008 0.11314789 -0.36631751
0.43965337 0.11315742 -0.3660717
0.46219781 0.11351515 -0.3567785
0.31609842 -0.033939291 -0.34642458
0.42122531 -0.033891037 -0.34955728
0.44372219 -0.034024283 -0.34090209
0.29565695 -0.012866099 -0.34011126
0.31551459 -0.012778561 -0.35148048
0.44162357 -0.012760065 -0.3538841
0.46418256 -0.012827936 -0.34505916
0.3152009 0.0083043613 -0.35419726
0.29536176 0.0083044125 -0.34285057
0.48510098 0.0083044125 -0.3462671
0.29507703 0.029433448 -0.34549272
0.50648606 0.029438291 -0.34484887
0.29477021 0.050518561 -0.34833908
0.5064885 0.050572522 -0.34483588
0.29492992 0.071659923 -0.34685767
0.29508832 0.092823714 -0.34538734
0.48382172 0.092574038 -0.3534925
0.29521295 0.11399805 -0.34423137
0.48513356 0.11392676 -0.34608328
0.31876171 -0.0555938 -0.32335961
0.33966711 -0.05551986 -0.32655859
0.3605729 -0.055454817 -0.32937813
0.38270983 -0.05560213 -0.32299948
0.29638332 -0.034140307 -0.3333714
0.46654364 -0.034174956 -0.33111751
0.27569899 -0.012959347 -0.32799566
0.48945239 -0.013007856 -0.32169068
0.27535871 0.0083043613 -0.3313961
0.51074243 0.0083043613 -0.32181072
0.27520877 0.029530417 -0.33289444
0.53024989 0.029543512 -0.33118379
0.27503115 0.050729055 -0.33466911
0.53024989 0.05078271 -0.33118391
0.27514908 0.071968555 -0.33349061
0.50857478 0.071967334 -0.33354354
0.27529365 0.093234457 -0.33204591
0.50955307 0.093351454 -0.32824826
0.27533346 0.11448237 -0.33164811
0.50882941 0.1144624 -0.33216536
0.27758977 -0.055923041 -0.30910182
0.29780355 -0.055666942 -0.32019341
0.40493557 -0.055747908 -0.31668496
0.42726296 -0.055894453 -0.31034172
0.25654355 -0.034574442 -0.30517292
0.27652797 -0.034350544 -0.31971192
0.49014643 -0.034380406 -0.3177706
0.51398122 -0.034588095 -0.3042804
0.25568715 -0.013063652 -0.31444395
0.51326483 -0.01311201 -0.3081578
0.19224504 0.0083043613 -0.30488908
0.25549126 0.0083043613 -0.3165642
0.53476959 0.008304311 -0.30769897
0.2132026 0.029697597 -0.31117654
0.23507211 0.029740859 -0.30555141
0.25537118 0.029646032 -0.3178643
0.55513543 0.02968384 -0.31296575
0.21271665 0.050993513 -0.31748915
0.23457754 0.051087473 -0.31139195
0.25531799 0.050978888 -0.31844032
0.55513543 0.051063165 -0.31296575
0.21312803 0.072461493 -0.31214535
0.23423839 0.072386436 -0.31539714
0.25530559 0.072313115 -0.31857407
0.53243709 0.072284326 -0.31981897
0.2341532 0.093716137 -0.31640327
0.2553823 0.093674809 -0.31774378
0.53351545 0.09378355 -0.31421554
0.21306382 0.093821608 -0.3129791
0.213185 0.11526147 -0.31140542
0.23427592 0.11512476 -0.31495404
0.25542068 0.1150335 -0.31732833
0.53276938 0.11500405 -0.31809211
0.21356593 0.13688137 -0.3064568
0.23429523 0.13649955 -0.31472588
0.25545907 0.13639861 -0.31691289
0.25752017 -0.056258019 -0.29460073
0.45028853 -0.056126755 -0.30028355
0.47376847 -0.056399878 -0.28845716
0.23620375 -0.034774285 -0.29218757
0.17169666 -0.013248873 -0.29038489
0.19331524 -0.01325616 -0.28944182
0.21506222 -0.013274758 -0.28701973
0.23557562 -0.013177841 -0.29960513
0.53875721 -0.013275064 -0.28697836
0.21396284 0.0083044125 -0.301301
0.23541713 0.0083044125 -0.30147707
0.19276829 0.029804096 -0.29733634
0.55853856 0.072835296 -0.29596257
0.56030381 0.094617166 -0.28714287
0.55915755 0.11597484 -0.29286969
0.19276829 0.15880243 -0.29733634
0.21493471 0.15926918 -0.28867602
0.23727047 -0.056604613 -0.27958989
0.4974654 -0.056677524 -0.27643311
0.19470055 -0.035124496 -0.26944649
0.21570942 -0.034983352 -0.2786119
0.53993016 -0.034948345 -0.28088367
0.17244463 0.0083043613 -0.27823985
0.56202227 0.0083043613 -0.27855682
0.58259737 0.029909112 -0.28370106
0.17287518 0.051705502 -0.27124846
0.19379102 0.051531032 -0.28257465
0.58259737 0.051513758 -0.28370106
0.19357421 0.094661444 -0.28570402
0.19385862 0.13802958 -0.28159893
0.17244376 0.18147734 -0.27825344
0.19361791 0.18105736 -0.28507316
0.26133981 -0.079051949 -0.25325191
0.28292221 -0.078972973 -0.25581682
0.1957594 -0.057191815 -0.25416362
0.21660624 -0.056896273 -0.26696169
0.130225 -0.035346966 -0.25499046
0.15175229 -0.035261717 -0.26052833
0.17308785 -0.035149924 -0.26779509
0.15183884 -0.013490959 -0.25892234
0.56625706 -0.013502832 -0.25739837
0.17314687 0.030038893 -0.26683664
0.61064428 0.030139171 -0.25381303
0.15199485 0.051939793 -0.25602686
0.61064428 0.051973931 -0.25381291
0.15185767 0.073698677 -0.25857294
0.58617187 0.073515594 -0.2665031
0.15184034 0.095486961 -0.25889421
0.58811659 0.095540717 -0.25714672
0.15187272 0.11730577 -0.25829351
0.58693546 0.1171311 -0.26282918
0.15217842 0.139368 -0.25262046
0.1732796 0.13881096 -0.26468134
0.17321365 0.16050433 -0.26575243
0.23873222 0.16068888 -0.26232755
0.21731874 0.18274274 -0.25770605
0.15189005 0.20452915 -0.25797188
0.17353794 0.20435484 -0.26048636
0.19689265 -0.079527617 -0.23780656
0.21827461 -0.079297148 -0.24528921
0.2397707 -0.079150192 -0.2500639
0.30539644 -0.079160124 -0.24974024
0.32825449 -0.079424687 -0.24114966
0.17477497 -0.057509672 -0.2403996
0.52522421 -0.057439808 -0.24342585
0.10910603 -0.035629712 -0.23662901
0.56758159 -0.035411779 -0.2507807
0.13094996 -0.013642141 -0.23929489
0.58984894 0.0083043613 -0.24881184
0.13095976 0.05220063 -0.23908234
0.13094732 0.07414259 -0.23935163
0.19610192 0.073914722 -0.24921989
0.61439401 0.074210413 -0.2364161
0.13093752 0.11802658 -0.23956406
0.19610289 0.11765548 -0.24920583
0.13099119 0.14002481 -0.23840213
0.15267159 0.18361957 -0.24346828
0.13094929 0.20582211 -0.23930907
0.17573746 -0.079928935 -0.22477067
0.35124248 -0.079688579 -0.23257792
0.37459803 -0.080007911 -0.22220671
0.13177168 -0.057946045 -0.22150373
0.15341198 -0.057756085 -0.22972846
0.59583205 -0.035885353 -0.22002566
0.10976831 -0.013795159 -0.21942234
0.59434348 -0.013735338 -0.2271874
0.1314386 0.0083043613 -0.22871542
0.61827683 0.0083043613 -0.21840203
0.13174121 0.030382734 -0.22216356
0.63929814 0.030374225 -0.2232672
0.10978767 0.052511197 -0.21891952
0.63929814 0.052444089 -0.22326708
0.10975947 0.074597567 -0.2196523
0.1754383 0.074367151 -0.22962844
0.10977606 0.096708551 -0.21922112
0.13118266 0.096245527 -0.23425674
0.17542863 0.096383356 -0.22978556
0.61652797 0.096483998 -0.22651577
0.10975725 0.1187909 -0.21970975
0.17542775 0.11840237 -0.22979963
0.61531645 0.11831249 -0.23213673
0.13120303 0.16222532 -0.23381591
0.13159105 0.18473142 -0.22541463
0.2414854 0.18446048 -0.22981393
0.10976776 0.20719898 -0.21943676
0.1976551 0.20668866 -0.22680151
0.15438725 -0.080333516 -0.21162951
0.39802763 -0.080308288 -0.21245253
0.42170432 -0.080628946 -0.20203614
0.55388707 -0.058249582 -0.20836163
0.0880647 -0.036092535 -0.2065655
0.15446746 0.03047527 -0.21014106
0.64322406 0.074920163 -0.20568097
0.15446746 0.16350107 -0.21014106
0.11040618 0.18612099 -0.20284998
0.11104693 -0.081116535 -0.18620276
0.13284099 -0.080742478 -0.19835269
0.1105333 -0.058453199 -0.19954753
0.62469798 -0.036369015 -0.18861151
0.088289768 -0.013950366 -0.1992563
0.62303859 -0.013973041 -0.1963104
0.64731658 0.0083043613 -0.18734884
0.088665009 0.0083044125 -0.18707001
0.088597655 0.030636083 -0.18925726
0.66857928 0.030614734 -0.19204175
0.088419147 0.052878581 -0.19505465
0.66857928 0.052924898 -0.19204175
0.088322073 0.097355731 -0.1982069
0.64556372 0.097448207 -0.19520068
0.088358 0.11966339 -0.1970402
0.6443333 0.11952205 -0.20071232
0.088728838 0.16485602 -0.18499708
0.088321626 0.18640609 -0.19822156
-0.023122182 -0.10366048 -0.18129945
-0.00072920747 -0.10401136 -0.1721853
0.089046158 -0.081470922 -0.17469156
0.088861309 -0.058888506 -0.1806947
0.58333904 -0.059088144 -0.17205179
0.06640546 -0.014073881 -0.18321562
0.044207349 0.0083043613 -0.17151737
0.066506982 0.0083044125 -0.17881954
0.066676311 0.030772895 -0.17148745
0.089227647 0.07577192 -0.16879737
0.066769369 0.098302469 -0.16745794
0.089031108 0.14294487 -0.17518044
0.066508345 0.16519201 -0.17876053
0.021851769 -0.10460054 -0.15687752
-0.00072920747 -0.082048595 -0.15593231
0.066957302 -0.081944346 -0.15932
0.45053959 -0.08194939 -0.15915549
0.066895805 -0.059320647 -0.16198289
0.066963181 -0.036823835 -0.1590656
0.65334326 -0.014249879 -0.16035295
0.11208568 0.0083044125 -0.15921545
0.044413127 0.053446677 -0.15815175
0.066902027 0.0533919 -0.16171396
0.044413354 0.076018237 -0.15813684
0.066860966 0.07589452 -0.16349185
0.67564529 0.075941853 -0.16144478
0.044413354 0.098589495 -0.15813673
0.044413585 0.12116136 -0.15812171
0.066842005 0.1209231 -0.16431272
0.044511393 0.14402618 -0.15176916
0.066868208 0.14349915 -0.16317821
0.11201368 0.14359587 -0.16108596
0.021909297 -0.082249612 -0.14940441
0.044641294 -0.082436569 -0.14333165
0.044643156 -0.059754122 -0.14321065
0.61355537 -0.059949484 -0.1347543
0.044683281 -0.037108164 -0.1406045
0.65760297 -0.037097819 -0.14127171
0.044726282 -0.014423379 -0.13781166
0.044597287 0.030967593 -0.14618993
0.021993743 0.099196158 -0.13843441
0.68099439 0.099200897 -0.13828242
0.02201926 0.12204675 -0.1351198
0.67845023 0.12150092 -0.14929879
0.11296101 0.16747069 -0.13647389
0.044919621 -0.10581775 -0.1252538
0.06768287 -0.10571579 -0.12790239
0.090558544 -0.10580532 -0.12557554
0.11347077 -0.10589561 -0.12322974
0.13624135 -0.10583778 -0.12473273
0.15918219 -0.10591808 -0.12264657
0.18239518 -0.1061483 -0.11666322
0.022116106 -0.060231615 -0.12253904
0.022133727 -0.037421484 -0.12024999
0.022151258 -0.014576142 -0.11797273
0.022168934 0.0083043613 -0.11567664
0.68533635 0.008304311 -0.11948097
0.11366422 0.03118303 -0.11820364
-0.00072920747 0.099898778 -0.11561477
0.022044713 0.1449479 -0.13181293
0.20563439 -0.10634208 -0.11163032
0.22908747 -0.10660398 -0.10482585
0.48033628 -0.083327152 -0.11441135
-0.00072920747 -0.060728934 -0.10099936
-0.00072920747 -0.037758704 -0.098349214
0.688416 -0.014667095 -0.10614586
0.022187589 0.031221196 -0.11325324
0.022206156 0.054175071 -0.11084139
0.02222487 0.077166602 -0.10841024
-0.00072920747 0.12287528 -0.1135931
-0.00072920747 0.14594437 -0.11023784
0.25290194 -0.10698257 -0.094990849
0.27701354 -0.10742176 -0.083578944
-0.023890093 -0.084339164 -0.081544757
-0.00072920747 -0.014745922 -0.095913053
0.16132307 0.0083043613 -0.082916737
-0.00072920747 0.0083044125 -0.093473196
-0.00072920747 0.031392403 -0.091013551
0.71561658 0.031412225 -0.088424206
-0.00072920747 0.054517947 -0.088565588
0.71557915 0.054517742 -0.088581204
-0.00072920747 0.077681854 -0.086097836
-0.02380912 0.10062406 -0.092063665
-0.023810808 0.12371247 -0.09184432
-0.023837619 0.1469548 -0.088361502
-0.00072920747 -0.13109888 -0.072063684
0.02250821 -0.13112013 -0.071603298
0.51111066 -0.08475735 -0.067961574
-0.023906503 -0.061227527 -0.079413295
-0.02392781 -0.038092915 -0.076645494
-0.023949152 -0.014915652 -0.073872685
-0.02397066 0.0083043613 -0.071079016
-0.023990981 0.031566057 -0.068439126
-0.024010111 0.054866172 -0.065954208
-0.047241241 0.10132846 -0.069187045
-0.047231689 0.1245606 -0.06980741
-0.047287576 0.14797945 -0.066177368
-0.024137951 -0.13214813 -0.049347162
0.045953922 -0.13174509 -0.058073997
-0.047378067 -0.08499337 -0.060299993
-0.047421217 -0.061733562 -0.057497025
-0.047464453 -0.038430847 -0.054688931
-0.047507767 -0.015084923 -0.051875472
-0.047551163 0.0083044125 -0.049057007
-0.024029393 0.078204907 -0.063449025
-0.071002379 0.12542632 -0.047314882
-0.024263943 -0.15643881 -0.032980204
-0.00072920747 -0.15655738 -0.030779362
0.069598414 -0.13235094 -0.044956684
0.093377143 -0.13285509 -0.034038901
-0.047641683 -0.10897679 -0.043177485
0.30411768 -0.10894443 -0.044018865
-0.071214728 -0.085676372 -0.038119793
-0.071280405 -0.062246773 -0.035275698
-0.071346216 -0.038773719 -0.032426238
-0.04759464 0.031737112 -0.046233177
-0.047638446 0.055213582 -0.043388009
-0.04768208 0.07873366 -0.04055357
-0.071024381 0.10203123 -0.046362281
-0.07108634 0.14901868 -0.043679118
0.022912744 -0.15718926 -0.019052625
-0.047901999 -0.13321401 -0.026269555
0.11732571 -0.13336147 -0.023075461
-0.071632296 -0.10986743 -0.020038724
-0.095400907 -0.086367264 -0.015678644
-0.095490292 -0.062766515 -0.012775898
-0.071412146 -0.01525654 -0.029571533
-0.071478195 0.0083043613 -0.026711345
-0.071544372 0.03190944 -0.023845911
-0.071611054 0.055558849 -0.020958662
-0.071677469 0.07925269 -0.01808238
-0.095167592 0.10274281 -0.023255706
-0.095131256 0.12630688 -0.024435759
-0.09524288 0.15007491 -0.020810723
-0.048157066 -0.15769321 -0.0097023249
0.046731781 -0.15780908 -0.0075507164
0.070726819 -0.1584263 0.0039045811
-0.072029501 -0.13429624 -0.0028390884
0.14175253 -0.1341774 -0.005412221
-0.095979773 -0.11075888 0.0031204224
-0.095579326 -0.03912067 -0.0098843575
-0.095669046 -0.0154306 -0.006970644
-0.09575893 0.0083043613 -0.0040515661
-0.095848985 0.032084368 -0.0011268854
-0.095938697 0.055909064 0.0017867088
-0.11968273 0.10346723 0.00027096272
-0.11962382 0.12719893 -0.001259923
-0.11976609 0.15114868 0.0024367571
-0.048415426 -0.18244049 0.0070784092
-0.024634004 -0.18293403 0.015092015
-0.072418772 -0.15897131 0.014016867
0.094956271 -0.15914527 0.017245054
-0.096528858 -0.13539512 0.020952463
0.16665059 -0.13516404 0.015949488
0.33429158 -0.11134588 0.018373132
-0.11994541 -0.087068558 0.0070952177
-0.12005877 -0.06329339 0.010041118
-0.12017238 -0.039472871 0.012992382
-0.12028555 -0.015606903 0.015932918
-0.12039959 0.0083043613 0.018895507
-0.096029103 0.079779305 0.0047223568
-0.072812311 -0.18391727 0.031057715
-0.00072920747 -0.18351752 0.024567246
0.023335284 -0.18421152 0.035836935
-0.097055934 -0.16026744 0.038069725
-0.1206954 -0.11166185 0.02658093
-0.1448562 -0.087780289 0.030208945
-0.1449943 -0.063828208 0.033198833
-0.14513347 -0.039830368 0.03621161
-0.12051449 0.032261435 0.021880746
-0.12062896 0.056264319 0.02485466
-0.12074366 0.080313005 0.027834415
-0.14457688 0.10420277 0.024161339
-0.14449026 0.12810533 0.022285938
-0.14466205 0.15223728 0.026005387
-0.097588845 -0.18541487 0.05537653
0.047580618 -0.18493488 0.047582984
0.11973963 -0.16035198 0.03963995
-0.12140939 -0.13651189 0.04513073
0.19223675 -0.13642007 0.043144226
-0.14580627 -0.1125932 0.05077827
-0.17014253 -0.088503286 0.053687334
-0.14527209 -0.015786059 0.039213061
-0.14541179 0.0083043613 0.04223752
-0.14555095 0.032441255 0.045250654
-0.1456904 0.056624722 0.048269629
-0.14583088 0.08085537 0.051311493
-0.16985059 0.10494513 0.04826951
-0.16973963 0.12902603 0.046210527
-0.16994038 0.15334263 0.049935937
-0.07348603 -0.20996608 0.060230613
-0.049330637 -0.21040204 0.066523075
0.072229534 -0.18625231 0.068974257
-0.12207855 -0.16158468 0.062515974
0.14497086 -0.16167909 0.064266801
-0.14667885 -0.13764533 0.06967032
-0.17030701 -0.064371794 0.056739688
-0.17047088 -0.040193219 0.059780717
-0.170636 -0.015968069 0.06284523
-0.17080145 0.0083044125 0.065915346
-0.17096628 0.032623928 0.068974257
-0.17113237 0.056991033 0.072056532
-0.19537698 0.12995932 0.070453644
-0.098127149 -0.21084097 0.072858453
-0.025111357 -0.21113503 0.077102065
-0.00072920747 -0.21191795 0.088403344
-0.12275381 -0.18693505 0.080059886
-0.14749448 -0.16292183 0.087329388
0.21861812 -0.13792716 0.075773478
-0.17128184 -0.11351895 0.074830294
0.3661454 -0.11398717 0.086995125
-0.19581226 -0.089237139 0.077521682
-0.19600201 -0.064922974 0.080603004
-0.19619323 -0.04056162 0.083708048
-0.19638482 -0.016152579 0.086819172
-0.17129783 0.081405118 0.075127244
-0.19552937 0.10570451 0.072928309
-0.19561103 0.15446573 0.074254274
-0.12343868 -0.21257266 0.097853422
-0.14831847 -0.18848132 0.10516942
0.097322859 -0.18779981 0.094102025
0.17103639 -0.16346128 0.097339749
-0.17234604 -0.13879584 0.094579339
-0.19717026 -0.11447134 0.099572897
-0.22187538 -0.089982912 0.1017381
-0.22209091 -0.065482914 0.10484886
-0.19657679 0.0083044125 0.089936256
-0.19676806 0.032809149 0.093041897
-0.19696075 0.057362292 0.09617126
-0.19715387 0.081963636 0.099306941
-0.22161485 0.10647576 0.0979774
-0.22141618 0.13090819 0.095109701
-0.22168116 0.15560569 0.098934531
0.56302011 0.15536942 0.093819261
-0.14915177 -0.21432944 0.12321067
0.023905227 -0.21340558 0.10987473
-0.17331176 -0.16427819 0.11250091
-0.19842 -0.13996378 0.11986625
0.24556433 -0.13947171 0.10921454
-0.22230934 -0.040935677 0.10800171
-0.2225282 -0.016339939 0.1111604
-0.22274749 0.0083043613 0.11432576
-0.22296596 0.032997273 0.11747909
-0.22318611 0.057739306 0.12065673
-0.2234067 0.082530148 0.12384069
-0.24810155 0.10725337 0.12322855
-0.24786621 0.13187286 0.12017167
-0.24816114 0.15676358 0.12400293
0.59303427 0.15674524 0.12360668
0.54121327 0.18074064 0.10978568
0.048959844 -0.21529634 0.13716626
-0.17428841 -0.19004905 0.13062537
0.12311859 -0.1898521 0.12742782
-0.19954133 -0.16565619 0.13807428
0.19765314 -0.16528012 0.13109541
-0.22348033 -0.1154462 0.12490332
-0.2484123 -0.090768836 0.12726557
-0.24864449 -0.066070266 0.13028193
-0.24887712 -0.041325226 0.13330388
-0.24911159 -0.016533822 0.13634956
-0.24934509 0.0083043613 0.13938272
0.56864816 0.18159325 0.12560618
0.52043706 0.20684387 0.13364804
-0.10062432 -0.24143332 0.15395653
-0.075467117 -0.24082196 0.14601409
-0.050705872 -0.24157895 0.15584731
-0.17527618 -0.21611315 0.14895606
-0.20067546 -0.1916419 0.15649021
-0.22491132 -0.1411504 0.145558
0.27310744 -0.14106108 0.14362454
-0.25020459 -0.11643335 0.1505481
-0.27537552 -0.091567092 0.15318632
-0.27563506 -0.066669852 0.15625131
-0.24957903 0.033189371 0.14242196
-0.24981764 0.058122128 0.14552152
-0.25006658 0.083105475 0.14875484
-0.27502352 0.10804776 0.14902925
-0.27473113 0.13285084 0.14557624
-0.27506223 0.15794049 0.14948666
0.49817082 0.20786434 0.15021849
-0.15154667 -0.24305812 0.17506158
-0.12592517 -0.24208748 0.16245425
-0.20182373 -0.21792699 0.17513597
0.074640483 -0.21780474 0.17337132
0.14951873 -0.1920263 0.16273105
-0.22619443 -0.16705751 0.164078
0.22486782 -0.16716003 0.16598046
-0.25183296 -0.14235789 0.17170131
-0.27589509 -0.041725781 0.15932226
-0.2761572 -0.016734533 0.16241741
-0.27641824 0.008304311 0.16550004
-0.27667034 0.03338993 0.16847718
-0.27691349 0.058519728 0.17134893
-0.27715552 0.083693445 0.17420697
-0.30237272 0.10885213 0.17515469
-0.30202803 0.13384548 0.17142296
-0.30239162 0.15913554 0.17535913
0.60000706 0.18351914 0.16134834
0.47623777 0.20913255 0.1708113
0.550358 0.20869975 0.1637826
-0.17758279 -0.24434376 0.19176149
-0.2274936 -0.19326399 0.18282998
-0.25328329 -0.1684835 0.19054139
0.30169925 -0.14290987 0.1836518
-0.2773554 -0.11743487 0.17656767
-0.302775 -0.092377581 0.17950952
-0.30306101 -0.067278557 0.18260574
-0.30332687 -0.042128578 0.18548357
-0.30359319 -0.016934376 0.18836665
-0.30385998 0.0083042597 0.1912545
0.52932215 0.1597476 0.18860996
-0.22880521 -0.21977165 0.20176136
-0.25474897 -0.19491145 0.20958138
0.17652492 -0.19427171 0.19919431
0.25267985 -0.169082 0.201648
-0.27919635 -0.14358686 0.19830835
-0.3049545 -0.11845615 0.20310318
-0.33061907 -0.093200296 0.20622551
-0.33090365 -0.06788981 0.20906913
-0.30412719 0.033587582 0.19414759
-0.30439666 0.058915544 0.19706464
-0.30466488 0.084288187 0.19996774
-0.33017042 0.10967092 0.20174241
-0.32976639 0.13485713 0.19770503
-0.33016098 0.16034979 0.20164812
0.50726652 0.160703 0.20929682
0.45473024 0.21073085 0.19676316
-0.20498829 -0.24701947 0.22652185
0.10095181 -0.22047783 0.21195567
-0.28081307 -0.16993086 0.21740055
-0.30699921 -0.14483061 0.22523773
-0.33119059 -0.042535808 0.21193671
-0.33147618 -0.017137788 0.21479011
-0.33176413 0.0083044125 0.21766758
-0.33205068 0.033790637 0.22053111
-0.33233964 0.059321348 0.22341847
-0.33262336 0.084895261 0.22625351
-0.35795337 0.13588437 0.22439492
0.43151963 0.18628915 0.21275413
0.45656687 0.18614171 0.21001816
0.53297633 0.18620618 0.21121454
-0.25622883 -0.22164531 0.22880542
-0.28244868 -0.19658259 0.23671615
0.20415053 -0.19657539 0.23660028
-0.33299217 -0.11948916 0.22993863
-0.35892603 -0.094037533 0.23342013
-0.35923967 -0.068519354 0.23633027
-0.35955173 -0.042956084 0.2392261
-0.35986647 -0.017348334 0.24214637
-0.35843283 0.11050536 0.22884381
-0.35838318 0.16158466 0.22838318
0.43377349 0.16165824 0.22997713
0.48491395 0.18722554 0.23013091
0.5106132 0.18727414 0.23103428
-0.28410512 -0.22354873 0.25627792
0.12790771 -0.22324207 0.25185263
-0.30879375 -0.17139998 0.24466443
0.28255087 -0.17196476 0.25514603
-0.33527091 -0.14609949 0.25270939
0.33430642 -0.14632745 0.25764489
-0.36151153 -0.12054651 0.25741053
-0.36017129 0.0083044125 0.24497473
-0.36045152 0.033998888 0.24757493
-0.36073428 0.05973357 0.2501986
-0.36101538 0.085508451 0.25280678
-0.38713965 0.11134718 0.25618029
-0.38660169 0.13692854 0.25152159
-0.38706753 0.16283958 0.25555587
0.46284702 0.16282974 0.25534105
0.48921844 0.16302454 0.25956059
-0.31061128 -0.19828364 0.26433969
-0.33724943 -0.17289887 0.27248001
-0.38770849 -0.094890103 0.26110649
-0.38803425 -0.069156542 0.26392794
-0.38833791 -0.043376919 0.26655781
-0.38864207 -0.017556429 0.26919162
-0.38894898 0.008304311 0.27184939
-0.3892723 0.034207143 0.27464974
-0.38959387 0.060152877 0.27743471
-0.31244856 -0.22548521 0.28422892
0.15552936 -0.22608356 0.29286492
-0.33924952 -0.2000159 0.29246616
0.23318689 -0.1996211 0.2860558
-0.36401504 -0.14738956 0.28064013
-0.39049533 -0.12161768 0.28524148
-0.41708234 -0.095783949 0.29013419
-0.41742855 -0.069826752 0.29294491
-0.38997546 0.086153589 0.28073907
-0.41634524 0.11220831 0.28414953
-0.41571552 0.13798754 0.27903664
-0.36617944 -0.17442077 0.30072367
-0.39323655 -0.14869848 0.30898118
-0.41777778 -0.043826796 0.29578018
-0.41818184 -0.017786391 0.29906082
-0.4186435 0.0083042597 0.30280936
-0.41910625 0.034452949 0.306566
-0.41918552 0.060611367 0.30720961
-0.41904926 0.086739413 0.30610347
-0.44561565 0.11298344 0.30932355
-0.44532853 0.1390689 0.30712926
-0.34127554 -0.22745848 0.31271136
-0.36836985 -0.20177597 0.32104778
-0.42004469 -0.12273166 0.31418526
-0.44707301 -0.0967177 0.32045937
-0.44770542 -0.070573747 0.32529211
-0.44819826 -0.044339098 0.32905817
-0.47440708 0.034619823 0.32824326
-0.44765222 0.060883414 0.32488549
-0.44734383 0.087118775 0.32252896
-0.37058663 -0.22946115 0.34161687
-0.39559722 -0.17596731 0.32942498
-0.42296118 -0.15003273 0.33786428
-0.45010787 -0.12386581 0.34365034
-0.44869485 -0.018046465 0.33285284
-0.47573164 0.008304311 0.33780277
-0.44918987 0.0083043613 0.33663571
-0.44838771 0.034637198 0.33050561
-0.47530061 0.061034497 0.33469188
-0.47488451 0.087330185 0.331689
-0.47498071 0.11369365 0.33238316
-0.47559547 0.14021155 0.33681989
0.18457749 -0.22994715 0.34863162
-0.39798167 -0.20356368 0.35007513
-0.42551467 -0.1775393 0.35859573
-0.47754937 -0.097655669 0.35092092
-0.47830567 -0.071291596 0.35637879
-0.47909021 -0.044846963 0.36204064
-0.50444126 -0.018206768 0.35366845
-0.47757512 -0.018186998 0.35110688
-0.50505883 0.0083042597 0.3578912
-0.50499517 0.16754627 0.35745573
-0.47800741 0.16739702 0.35422695
-0.42810437 -0.20538326 0.37962174
-0.45318708 -0.15138665 0.36717963
-0.48061201 -0.12499634 0.37302363
-0.50785071 -0.045076869 0.37697935
-0.50727826 0.034964789 0.37306547
-0.50617373 0.088111423 0.36551356
-0.45490322 0.16860098 0.38029325
-0.50618893 0.19452639 0.36561775
-0.45595244 -0.17914046 0.38831067
-0.48393148 -0.15276304 0.39697969
-0.50882417 -0.098662943 0.38363469
-0.50963765 -0.072049655 0.38919687
-0.53612685 -0.045235492 0.3872776
-0.53630543 -0.018474482 0.38843727
-0.53717065 0.061948523 0.39405692
-0.50902116 0.061808702 0.38498127
-0.53600031 0.088595033 0.38645554
-0.53616256 0.115391 0.38750935
-0.53651661 0.14225127 0.38980877
-0.50878417 0.14200297 0.38336134
-0.53601331 0.19565381 0.38653994
-0.48316026 0.19591631 0.39141405
-0.51189458 -0.12621288 0.4046272
-0.56696045 -0.045622442 0.4124155
-0.5398522 0.008304311 0.4114747
-0.53985554 0.03526058 0.41149616
-0.45985532 -0.20775504 0.41813445
-0.48691329 -0.1807673 0.41849911
-0.51521677 -0.15416546 0.42734098
-0.54062665 -0.099675208 0.41650462
-0.54119492 -0.072765566 0.42019534
-0.5675661 -0.018687882 0.41616178
-0.56818694 0.035326209 0.4200021
-0.56750721 0.06228314 0.41579735
-0.56857604 0.08942534 0.42240894
-0.56754529 0.1162694 0.41603315
-0.51367885 0.11629377 0.41682613
-0.5681175 0.14339674 0.41957247
-0.56909108 0.17069338 0.42559493
-0.56915027 0.19777791 0.42596138
-0.45999575 0.19741414 0.41920757
-0.54361981 -0.12741841 0.43594599
-0.57247579 0.0083043613 0.44653237
-0.59965378 0.19887128 0.44624913
-0.54705834 -0.15559433 0.45827973
-0.57301557 -0.10070251 0.44987154
-0.57313567 -0.073467977 0.45061421
-0.60195154 -0.019023824 0.45981693
-0.60094136 0.0083043613 0.45385194
-0.60197759 0.035633925 0.45997059
-0.60251015 0.14507279 0.4631151
-0.57577974 -0.12861244 0.46697056
-0.60583824 -0.046705585 0.48276651
-0.63190448 0.008304311 0.47464049
-0.63230085 0.03576396 0.47687912
-0.63339049 0.063318439 0.48303354
-0.63230479 0.14560328 0.47690141
-0.60303611 0.17256989 0.46622086
-0.60736835 -0.1019936 0.49180162
-0.60671759 -0.074330434 0.48795855
-0.63419533 0.090930387 0.48757946
-0.60597014 0.09083724 0.48354542
-0.63379264 0.11840232 0.48530483
-0.61015368 -0.1302011 0.50824797
-0.60971439 0.063666664 0.5056541
-0.6102072 0.11911849 0.50856388
-0.64192891 -0.075330369 0.53125823
-0.64080966 -0.04735475 0.52493727
-0.63995171 -0.019488022 0.52009118
-0.55664134 0.17507799 0.52052295
-0.64269072 -0.1033412 0.53556132
-0.67627621 -0.019843481 0.56627309
-0.67539471 0.008304311 0.56150186
-0.6750685 0.03640176 0.55973625
-0.67454547 0.064455748 0.55690539
-0.67474687 0.092556559 0.55799544
-0.67889112 -0.10472269 0.58042717
-0.67805046 -0.076360829 0.57587659
-0.67737156 -0.048082534 0.57220221
-0.7113902 0.036730725 0.60247052
-0.71134448 0.065153569 0.60223293
-0.71373069 -0.020215556 0.61463237
-0.71274215 0.0083042085 0.60949576
-0.71215945 0.093675978 0.60646808
-0.65820211 -0.13462444 0.62316942
-0.71667588 -0.1062471 0.62993598
-0.71620262 -0.077552505 0.62747693
-0.71516097 -0.048850372 0.62206435
-0.75114816 0.037166592 0.65908647
-0.18026695 0.21776499 0.79687381
-0.15094651 0.21860839 0.81252789
0 0 0 1 0 0 0 1 0 0 0 1 0 0 0 0 0 790 1 0 0
