ply
format ascii 1.0
comment PCL generated
element vertex 803
property float x
property float y
property float z
element camera 1
property float view_px
property float view_py
property float view_pz
property float x_axisx
property float x_axisy
property float x_axisz
property float y_axisx
property float y_axisy
property float y_axisz
property float z_axisx
property float z_axisy
property float z_axisz
property float focal
property float scalex
property float scaley
property float centerx
property float centery
property int viewportx
property int viewporty
property float k1
property float k2
end_header
0.53788227 0.057118885 -0.36577559
0.55949318 0.057057187 -0.36844897
0.58205783 0.057110302 -0.36615193
0.53839773 0.079330362 -0.36298549
0.55999428 0.079242289 -0.36584532
0.58242619 0.079289459 -0.36431134
0.51964825 -0.0092574283 -0.34379673
0.4969154 0.013017324 -0.34638405
0.51851076 0.012987844 -0.3502214
0.54086524 0.01299237 -0.34962928
0.47507495 0.035333451 -0.34369767
0.49618444 0.035225533 -0.35070026
0.51734102 0.03513125 -0.35682797
0.53883153 0.035072658 -0.36063755
0.56105036 0.035077028 -0.36035776
0.58605105 0.035294812 -0.34620035
0.47465438 0.057568721 -0.34629941
0.49564123 0.057393 -0.3539077
0.51667148 0.057238333 -0.36060953
0.60742706 0.057470962 -0.35053122
0.49623692 0.079718076 -0.35039032
0.51721442 0.079497866 -0.35754299
0.60759985 0.079739399 -0.34969985
0.4970901 0.10215597 -0.34535253
0.51813686 0.10188733 -0.35233307
0.53939289 0.1016845 -0.3575989
0.56106919 0.10158216 -0.36025965
0.58375007 0.10168082 -0.35769701
0.51977354 0.12454322 -0.34308898
0.54115969 0.12431464 -0.34803581
0.56320459 0.12426257 -0.34916437
0.47797784 -0.031690948 -0.32574093
0.49971116 -0.031659313 -0.32987583
0.52259916 -0.031680316 -0.32712996
0.49785739 -0.0092574283 -0.34082174
0.54282808 -0.0092574283 -0.33900559
0.45529726 -0.0092573222 -0.32734478
0.47650924 -0.0092573753 -0.33482528
0.454602 0.013129137 -0.33186042
0.47571644 0.013068545 -0.33972967
0.56605726 0.013109975 -0.33434105
0.43302256 0.035600562 -0.32634246
0.45407763 0.035463214 -0.33526659
0.43284458 0.058001548 -0.32755935
0.45379725 0.057781503 -0.33708763
0.63502258 0.058044456 -0.32569778
0.45434073 0.08023645 -0.33355749
0.47524661 0.079956919 -0.34263575
0.45496035 0.10276484 -0.32953274
0.47600567 0.10244124 -0.33794034
0.60945398 0.102332 -0.34077919
0.47744566 0.1251924 -0.32903254
0.49859819 0.12484986 -0.3364476
0.58713609 0.12464993 -0.3407793
0.43515101 -0.031798501 -0.31178999
0.45652136 -0.031739801 -0.31939399
0.54850376 -0.031825349 -0.308285
0.4129149 -0.0092573753 -0.30958962
0.43415466 -0.0092573753 -0.31860209
0.56921375 -0.0092573753 -0.31793964
0.41227955 0.013265324 -0.31417501
0.43353221 0.013198416 -0.32285786
0.41193962 0.035750121 -0.3166281
0.61364472 0.035688739 -0.3206166
0.41177586 0.058226652 -0.31780982
0.41231358 0.080840893 -0.31392956
0.43337691 0.080533147 -0.32391989
0.63532847 0.08052209 -0.32427847
0.41275841 0.10348894 -0.31071913
0.43390632 0.10312018 -0.32030022
0.63781142 0.10341039 -0.3127588
0.4352124 0.12600817 -0.31137061
0.45631763 0.1255765 -0.32071722
0.61480653 0.12583928 -0.31502688
0.39244238 -0.031938002 -0.29365385
0.4138566 -0.031867776 -0.3027935
0.37009397 -0.0092573222 -0.29095662
0.39157039 -0.0092573222 -0.30031717
0.39106354 0.013342182 -0.30419028
0.59386909 0.013319441 -0.30713916
0.34703714 0.036097985 -0.2940346
0.36963734 0.036088351 -0.29466403
0.34729433 0.058827095 -0.29180729
0.36854285 0.058555983 -0.30355012
0.66487175 0.05881162 -0.2924819
0.3474417 0.081561312 -0.29053092
0.36814728 0.081061572 -0.30676174
0.39144832 0.081231244 -0.3012501
0.66499943 0.081518829 -0.29190993
0.36821881 0.10366361 -0.30618095
0.39067382 0.1036256 -0.30716813
0.36819378 0.12623848 -0.30638433
0.39106926 0.12634176 -0.30414653
0.3473824 0.14964762 -0.29104459
0.36826888 0.14885399 -0.30577445
0.34715217 0.17222555 -0.29303861
0.36897516 0.1717944 -0.30004013
0.39470184 -0.054884531 -0.27638853
0.41718715 -0.054847997 -0.27875733
0.44087797 -0.054942388 -0.27263486
0.34921512 -0.032080192 -0.27517307
0.37089267 -0.032008704 -0.28447175
0.57635319 -0.032036606 -0.28084195
0.59781367 -0.0092574283 -0.287431
0.34837636 -0.00925727 -0.28243673
0.32596284 0.013534804 -0.27915692
0.34861508 0.013525485 -0.28036916
0.62347549 0.013579813 -0.27331805
0.32603142 0.036336876 -0.2785207
0.64285576 0.036170106 -0.28935659
0.39410743 0.05907841 -0.28093076
0.32652172 0.1049034 -0.27397108
0.34853664 0.10463092 -0.28104866
0.66801155 0.10473221 -0.27841711
0.34840706 0.12735677 -0.28217101
0.64425498 0.12732476 -0.28286457
0.39307976 0.14976954 -0.28878343
0.32613668 0.17317981 -0.27754378
0.32583222 0.19578874 -0.28036916
0.34767237 0.19522309 -0.28853369
0.35070625 -0.055102054 -0.26225924
0.37274078 -0.054990977 -0.26946747
0.46543992 -0.055114266 -0.26146626
0.305603 -0.032236699 -0.25485098
0.32747629 -0.032157786 -0.26511371
0.62687355 -0.00925727 -0.25696933
0.30438781 0.013628508 -0.26699388
0.30476883 0.036572929 -0.26318645
0.30524838 0.059598736 -0.25839472
0.3270424 0.059350632 -0.26913965
0.30490655 0.10537156 -0.26181054
0.30507886 0.12837672 -0.26008868
0.42031023 0.12855555 -0.25621843
0.30560449 0.17457834 -0.25483584
0.39709783 0.1743786 -0.25807977
0.30449679 0.19679092 -0.26590502
0.37447253 0.19751815 -0.25540698
0.30499041 0.22006482 -0.26097238
0.30670688 -0.05538585 -0.24382055
0.32877043 -0.055242926 -0.253106
0.49037039 -0.055304885 -0.24908161
0.2836678 -0.032323718 -0.2435478
0.60473496 -0.03225207 -0.25285017
0.6301862 -0.032343142 -0.24103105
0.26088008 0.013834394 -0.24025714
0.28278208 0.013735163 -0.25313616
0.2610808 0.036962487 -0.23788702
0.28369859 0.036880467 -0.24321461
0.39833266 0.036796872 -0.24864411
0.69745523 0.059801042 -0.24964011
0.26105893 0.083174348 -0.23814535
0.28335193 0.082902759 -0.24696755
0.30576709 0.082710408 -0.25321126
0.69727761 0.082796738 -0.25040925
0.2830312 0.10580912 -0.25043952
0.28322491 0.12891936 -0.24834216
0.67609698 0.12920296 -0.24219906
0.28315243 0.15190649 -0.24912715
0.42271975 0.15246134 -0.23882937
0.28388906 0.17542098 -0.24115252
0.2609354 0.19861303 -0.23960412
0.28285995 0.19773398 -0.25229311
0.28321657 0.22103007 -0.24843264
0.33026153 0.22173554 -0.23927009
0.26234242 -0.055706657 -0.22298813
0.28460714 -0.055546727 -0.23337936
0.51616973 -0.055557203 -0.23269296
0.54077154 -0.055683441 -0.22449243
0.26160723 -0.032415159 -0.23167026
0.23902208 -0.0092574283 -0.2242316
0.65646666 -0.0092574283 -0.22620952
0.23915327 0.013970687 -0.22252738
0.37709364 0.013881509 -0.23412657
0.6545434 0.013873772 -0.2351321
0.23893587 0.037155475 -0.22535133
0.23918401 0.06043639 -0.22212791
0.26171586 0.10658097 -0.23038721
0.70160168 0.10653096 -0.2316854
0.26117483 0.12945354 -0.23677659
0.26166025 0.15288085 -0.23104405
0.23897131 0.1764224 -0.22489119
0.26141858 0.17586765 -0.23389781
0.23892289 0.19958892 -0.2255199
0.2399983 -0.055882696 -0.21155035
0.56655294 -0.055897541 -0.2105906
0.21702921 -0.0326082 -0.20659065
0.23940305 -0.032510497 -0.21928263
0.661057 -0.032621045 -0.20491326
0.21676819 -0.0092573753 -0.2103585
0.21676712 0.037386104 -0.21037388
0.68448669 0.037474651 -0.20461798
0.21664166 0.060665965 -0.21218455
0.7316159 0.060879171 -0.20295382
0.21673387 0.084014788 -0.2108537
0.23968425 0.083867654 -0.2156297
0.21677141 0.10735366 -0.21031189
0.23959517 0.10710441 -0.21678674
0.21674459 0.13065796 -0.21069896
0.23964387 0.13040605 -0.21615422
0.21665239 0.15390544 -0.21202993
0.23948246 0.15357022 -0.21825075
0.21661809 0.17718399 -0.21252477
0.26545924 -0.079781376 -0.18617988
0.19483754 -0.056248877 -0.18776834
0.21749054 -0.056061573 -0.19993174
0.5944559 -0.056264199 -0.18677759
0.19446851 -0.032707065 -0.1937604
0.19427395 -0.0092573222 -0.19691968
0.264714 -0.0092573753 -0.19498098
0.1715088 0.014262223 -0.18466878
0.19422874 0.014162307 -0.19765377
0.68723923 0.014203527 -0.19228804
0.19436926 0.084491365 -0.1953721
0.73231465 0.084348232 -0.20002544
0.19424126 0.10784861 -0.19745064
0.19435577 0.13135579 -0.19559085
0.71062779 0.13149382 -0.19260144
0.19607687 -0.080209307 -0.16764402
0.2192256 -0.080042064 -0.17488873
0.28958482 -0.07993567 -0.17949438
0.31341809 -0.079998896 -0.17675793
0.33727694 -0.080058537 -0.17417526
0.36121455 -0.080126077 -0.17125475
0.38494897 -0.080146872 -0.17034888
0.242348 -0.079900295 -0.18102622
0.17202727 -0.056444712 -0.1750474
0.14876673 -0.032906476 -0.16783524
0.17171359 -0.032806296 -0.18086827
0.14863519 -0.0092573222 -0.17068267
0.17155039 -0.0092573753 -0.18389678
0.68998593 -0.0092573753 -0.17998397
0.14859997 0.014364035 -0.17144537
0.21885069 0.014295862 -0.1803
0.14866896 0.038008343 -0.16995132
0.17159286 0.037805878 -0.18310881
0.19513516 0.037808564 -0.18293536
0.17172295 0.061393231 -0.18069482
0.14879982 0.061706714 -0.16711831
0.26663703 0.061587691 -0.17227125
0.1718379 0.085009113 -0.17856145
0.17242534 0.10899528 -0.16765976
0.73823762 0.1087048 -0.17520559
0.17306022 -0.080481105 -0.15587807
0.40923941 -0.080263481 -0.1653012
0.43411598 -0.080464788 -0.15658414
0.14903568 -0.056645386 -0.16201198
0.62478679 -0.056789313 -0.15266514
0.12562841 -0.033008762 -0.15456164
0.69499862 -0.032985967 -0.15753007
0.12552711 -0.0092574283 -0.15719342
0.29152051 -0.0092574283 -0.15853965
0.33885673 -0.0092573753 -0.15951657
0.12550181 0.014468742 -0.15785074
0.12556168 0.038218651 -0.15629506
0.72019619 0.038297564 -0.15116906
0.12567975 0.062027521 -0.15322804
0.19667108 0.061917447 -0.15799499
0.12576829 0.085859977 -0.15092754
0.14891174 0.08543615 -0.16469491
0.34001157 0.085925519 -0.14880097
0.14939909 0.10951556 -0.15414405
0.17317012 0.13328415 -0.15383875
0.14989649 -0.0807698 -0.1433748
0.46075839 -0.080923729 -0.13671136
0.10247324 -0.057058159 -0.13519979
0.1258582 -0.056852113 -0.1485914
0.10228681 -0.033111203 -0.14125395
0.10220657 -0.0092573753 -0.1438601
0.31639019 -0.0092573222 -0.14705896
0.10218366 0.01457071 -0.14460385
0.72371519 0.014637462 -0.13593125
0.10222649 0.038420115 -0.14321303
0.10231225 0.062323168 -0.14042759
0.77062482 0.062344484 -0.13950348
0.10238818 0.086259224 -0.13796198
0.77215403 0.086402938 -0.13329554
0.1261768 0.11004782 -0.1403141
0.15007454 0.13394566 -0.13951969
0.10302527 -0.081372559 -0.11727202
0.12655862 -0.081069604 -0.13039446
0.48811671 -0.081444204 -0.11417603
0.078885913 -0.057266939 -0.12164223
0.054997597 -0.033320408 -0.11407733
0.078745626 -0.033215385 -0.12771678
0.054959558 -0.0092573753 -0.11654806
0.078686804 -0.0092573753 -0.13026392
0.72743595 -0.0092573222 -0.11982
0.054948412 0.01478102 -0.11727202
0.078669854 0.014675313 -0.13099802
0.054972231 0.038843311 -0.11572492
0.078704134 0.038631003 -0.12951326
0.078770921 0.062642023 -0.12662148
0.29433611 0.062608756 -0.12805998
0.078828372 0.086685106 -0.12413371
0.10274594 0.11058563 -0.12634349
0.12675042 0.13459733 -0.1254108
0.34242129 0.13454963 -0.1264416
0.75073421 0.13471603 -0.12283933
-0.017261589 -0.12992314 -0.10496712
0.0068715592 -0.1296894 -0.11104083
0.031029113 -0.13004516 -0.10179698
-0.017262993 -0.10579567 -0.10478473
0.0068715592 -0.10570423 -0.10775042
0.031046264 -0.10595612 -0.099568963
0.10364678 -0.10603251 -0.09708786
0.079298586 -0.081684366 -0.103773
0.055091947 -0.057477828 -0.10794902
0.031040756 -0.033426534 -0.10028422
0.031022463 -0.0092573222 -0.10266066
0.03101684 0.014887831 -0.10339105
0.031028984 0.039057516 -0.10181344
0.031052798 0.063286319 -0.098720074
0.055018418 0.06296283 -0.11272478
0.031072162 0.08754503 -0.096204281
0.05505757 0.087114565 -0.11018157
0.055253521 0.11169755 -0.097454309
0.079109766 0.11113969 -0.11194909
0.07947877 0.13595699 -0.095970631
0.10321408 0.13525636 -0.11113989
0.055376709 -0.10626767 -0.08945334
0.079630062 -0.10626867 -0.089419723
0.0553682 -0.082002327 -0.090005875
0.0068715592 -0.057904761 -0.080215812
0.031087834 -0.057689928 -0.094168663
0.66183382 -0.057773154 -0.088766575
0.0068715592 -0.033533663 -0.086369038
0.0068715592 -0.0092574283 -0.088682771
0.0068715592 0.014995593 -0.089403152
0.0068715592 0.039273299 -0.087794662
0.0068715592 0.063613445 -0.084555864
0.0068715592 0.087980755 -0.0820508
0.031174384 0.11225672 -0.082925558
0.78161973 0.11179694 -0.094869614
0.055512443 0.1366653 -0.080636859
0.055786733 -0.13154532 -0.062821388
0.080112018 -0.13132475 -0.068550348
0.0068715592 -0.082644679 -0.06219089
0.031226924 -0.082323499 -0.076100469
0.5191409 -0.082438633 -0.071110606
-0.017560489 -0.058121491 -0.066138864
-0.017512701 -0.03364158 -0.072346807
0.73775876 -0.033620261 -0.075120687
-0.017495252 -0.0092573222 -0.074613571
-0.042069852 0.015213271 -0.061117291
-0.017489787 0.015104036 -0.075323462
-0.017502671 0.039491136 -0.073649764
0.76391244 0.039584052 -0.067616701
-0.017528871 0.063943833 -0.0702461
-0.0175482 0.088421583 -0.067735553
0.0068715592 0.11282379 -0.068193913
0.031311329 0.13738109 -0.065135717
0.12952769 -0.10738233 -0.053255558
-0.017698372 -0.08296717 -0.048227668
-0.042210948 -0.058339909 -0.051952839
-0.066938393 -0.033860788 -0.043890476
-0.042080615 -0.0092574283 -0.060418129
-0.066888675 -0.0092573753 -0.046043396
-0.066872381 0.015323927 -0.046748877
0.76963198 0.015347826 -0.043649197
-0.066914916 0.0399336 -0.044907093
-0.042097162 0.039711393 -0.059343338
0.7930966 0.039881643 -0.048279166
-0.042151354 0.064276956 -0.055823445
0.81895185 0.064568073 -0.043218255
-0.042190365 0.088866472 -0.05328989
-0.017659666 0.11339871 -0.053255677
0.0068715592 0.13810341 -0.049498916
0.031562485 -0.15740296 -0.032510161
0.056134243 -0.15704551 -0.040249944
0.10574708 -0.13285181 -0.02887845
0.15503715 -0.10803447 -0.032076001
-0.042493992 -0.083305717 -0.033568501
-0.067082755 -0.058560323 -0.037639499
-0.09199968 -0.033975232 -0.029017687
-0.091938116 -0.0092573222 -0.031016827
-0.091916189 0.015439532 -0.031728983
-0.091975577 0.040166125 -0.029800177
-0.092090815 0.064964317 -0.026057839
-0.066998936 0.064613082 -0.041268706
-0.067057982 0.089315355 -0.038711905
0.82289082 0.089654006 -0.027712464
-0.042422794 0.11397841 -0.038193107
-0.017810149 0.13883288 -0.033707142
0.031753004 -0.18342751 -0.0077604055
0.0068715592 -0.15821061 -0.015023708
-0.042861499 -0.10872351 -0.0096981525
-0.067528129 -0.083657056 -0.018354058
-0.11751872 -0.059013475 -0.0082012415
-0.11730205 -0.034092046 -0.013830066
-0.11723382 -0.0092573222 -0.015602708
-0.1172102 0.015558976 -0.016216397
-0.11728853 0.040406652 -0.014181256
-0.11744009 0.065329604 -0.010243893
-0.11753906 0.090271138 -0.0076723099
-0.092165455 0.089779563 -0.023633718
-0.06742233 0.1145658 -0.022935271
-0.042736862 0.13956782 -0.017793655
0.0068715592 -0.18381681 -0.00053536892
-0.018073004 -0.15892465 0.00043857098
0.081630044 -0.15877436 -0.0028178692
-0.043032844 -0.13401844 0.0014308691
0.13130933 -0.13369521 -0.0069670677
-0.068088353 -0.10920393 0.0059043169
0.18113862 -0.10883859 -0.0059615374
-0.092791185 -0.084004499 -0.0033127069
-0.14300722 -0.059216991 0.0050157309
-0.14284819 -0.034210756 0.0015729666
-0.14276962 -0.0092574805 -0.00012803078
-0.14274919 0.015679423 -0.00057077408
-0.14284985 0.040649701 0.0016082525
-0.14303841 0.065697685 0.0056908131
-0.14317314 0.090772562 0.008608222
-0.1181945 0.11580855 0.0093562603
-0.092679195 0.11518109 -0.0069493055
-0.06791307 0.14031188 -0.0016856194
-0.018209437 -0.18482445 0.018162012
-0.043259572 -0.15965076 0.016157269
0.10725459 -0.1598319 0.020079374
-0.068348274 -0.13462378 0.017159104
0.15746599 -0.13475271 0.020509601
-0.09356229 -0.1096912 0.021729827
0.20798053 -0.1098118 0.025647402
-0.14403665 -0.084711492 0.027303576
-0.11829124 -0.084355049 0.011869788
-0.16869831 -0.059420194 0.018215537
-0.16865778 -0.034333047 0.017463565
-0.16855751 -0.0092573222 0.015602827
0.78578687 -0.0092573753 0.024046779
-0.16853921 0.015801292 0.015263081
-0.16866164 0.040894914 0.01753521
-0.16889153 0.066069655 0.02180171
-0.16908035 0.091286674 0.02530551
-0.14396597 0.11644052 0.025773287
-0.093366474 0.14109963 0.01537025
-0.018328013 -0.2108539 0.033565044
-0.043537885 -0.18569037 0.034234166
0.057246216 -0.18556872 0.031974912
-0.068690427 -0.16038144 0.031974792
-0.093911134 -0.1352357 0.033058882
-0.11928444 -0.11018214 0.037674189
-0.17002466 -0.085070044 0.042829871
-0.19494681 -0.059711993 0.037166834
-0.19471721 -0.034456018 0.033438563
-0.19459258 -0.0092573753 0.031414986
-0.19457702 0.015923686 0.031162262
-0.19472499 0.041141756 0.033565044
-0.19500485 0.066446371 0.038109303
-0.19525191 0.091804363 0.042121053
-0.17000116 0.11708029 0.042393565
-0.11909429 0.14190164 0.032733798
-0.043874275 -0.21224067 0.056083202
0.0068715592 -0.21189481 0.050465822
-0.069106489 -0.18653949 0.049990892
0.08300554 -0.18690337 0.056743264
-0.094369568 -0.16111907 0.047946811
0.13350798 -0.16122115 0.050155163
-0.1197241 -0.13585305 0.049096227
0.18440102 -0.1360642 0.054581046
-0.14525764 -0.11067683 0.053738713
0.23569351 -0.1109561 0.062805295
-0.19626085 -0.085432015 0.058504462
-0.22157615 -0.060023483 0.057403445
-0.22114865 -0.034592945 0.051233053
-0.22097404 -0.0092573753 0.048713207
-0.22092098 0.016052872 0.047947049
-0.22110942 0.041405022 0.050666928
-0.22143896 0.06684614 0.055423498
-0.22175547 0.09235464 0.059991956
-0.1962993 0.11772454 0.059128761
-0.14509128 0.1427055 0.050137043
-0.0696228 -0.21324231 0.07234776
0.032350313 -0.21308742 0.069832087
-0.094921812 -0.1873958 0.06588161
-0.14649855 -0.16262746 0.080605388
-0.12029568 -0.16185808 0.063946843
-0.17206326 -0.13706794 0.080661178
-0.14580232 -0.13648565 0.065531492
-0.17142595 -0.11114161 0.068834424
-0.22273339 -0.085792407 0.074107051
-0.24822794 -0.060277328 0.073884845
-0.24774678 -0.034719288 0.067634344
-0.24754374 -0.0092574805 0.064996958
-0.24749412 0.016179267 0.064351916
-0.24771838 0.041660603 0.067265034
-0.2481025 0.067234755 0.072255135
-0.2484792 0.092883021 0.077148914
-0.22295186 0.11842237 0.077260256
-0.17135929 0.14351183 0.06759727
-0.070177384 -0.24040417 0.096361876
-0.044283051 -0.23945318 0.08263433
-0.095616341 -0.21423316 0.08843708
0.058212668 -0.21462183 0.094747543
-0.1209949 -0.18827033 0.082112789
0.10933299 -0.18856494 0.087577462
-0.17284454 -0.16329981 0.095160365
0.16051368 -0.16289946 0.086494446
-0.19858071 -0.13766502 0.096174121
0.21217363 -0.1375712 0.09373486
-0.19791219 -0.11164919 0.085318446
-0.24951662 -0.086173914 0.090625167
-0.27514753 -0.060533538 0.090531588
-0.27461135 -0.03484679 0.084199667
-0.30148563 -0.0092574283 0.098109484
-0.27438104 -0.0092573753 0.081479788
-0.30144918 0.016436007 0.097714663
-0.27433378 0.016306821 0.080921531
-0.2745924 0.041917872 0.083975911
-0.27503982 0.067627363 0.089259624
-0.27547756 0.093414977 0.094428658
-0.24981953 0.1190882 0.094560027
-0.19791333 0.14433128 0.085337043
-0.096360095 -0.24152857 0.11259115
-0.018927746 -0.24145113 0.11147261
-0.12188181 -0.2152627 0.10515511
-0.1738513 -0.18998036 0.11384308
-0.14733742 -0.18916795 0.0987674
-0.19954154 -0.16406718 0.11177599
-0.22483477 -0.11223795 0.10443783
0.26424319 -0.112206 0.10340035
-0.27657622 -0.086561255 0.10740328
-0.30233717 -0.060792174 0.10732758
-0.3017481 -0.034975711 0.1009506
-0.3288877 -0.0092573222 0.11515296
-0.32886869 0.016568825 0.11496305
-0.30174112 0.042177979 0.10087514
-0.30225515 0.06802424 0.10643959
-0.30276036 0.0939532 0.11190856
-0.27696249 0.11975819 0.11196542
-0.22476289 0.14516571 0.10340035
-0.12284227 -0.24274236 0.13010907
0.0068715592 -0.24286318 0.1318537
-0.14841948 -0.21631214 0.12219477
0.084630445 -0.21661431 0.12710321
-0.20076856 -0.19094256 0.13170028
0.13635129 -0.19052894 0.12402666
-0.22680067 -0.16503891 0.13281298
0.18834609 -0.16480698 0.12779212
-0.22569564 -0.13846135 0.11686301
-0.25189844 -0.11276544 0.1215657
-0.30391681 -0.086954445 0.12442768
-0.3298445 -0.061059862 0.12471426
-0.32918444 -0.035107844 0.11811852
-0.35660827 -0.0092573222 0.13271701
-0.35661653 0.01670596 0.1327939
-0.32918638 0.042443775 0.11813748
-0.32975852 0.068426535 0.12385488
-0.33036909 0.094508946 0.12995589
-0.3043921 0.12043574 0.12957275
-0.25190285 0.14600727 0.12162256
-0.14961161 -0.24398215 0.14800477
-0.17509095 -0.21721444 0.13684821
-0.2541008 -0.16584083 0.15017509
-0.25286919 -0.1391277 0.13417625
0.24083671 -0.13923804 0.13704062
-0.2792407 -0.11329819 0.1388694
-0.33162388 -0.0873717 0.14249444
-0.35767445 -0.061335448 0.14261055
-0.35693532 -0.035243612 0.13575208
-0.38462952 -0.0092573222 0.15054357
-0.38464743 0.016843937 0.15069866
-0.35693741 0.042715251 0.13577139
-0.35756838 0.068836994 0.14162612
-0.35830384 0.095078491 0.14845026
-0.33218694 0.12114964 0.148121
-0.27933532 0.14685555 0.13998699
-0.17666571 -0.24523379 0.16607201
0.033106849 -0.24537504 0.1681087
-0.20234908 -0.21847802 0.15736485
0.11176626 -0.21904683 0.16660058
-0.22812182 -0.19203006 0.15188241
0.16418199 -0.19278622 0.16591537
-0.2816934 -0.16665642 0.1678344
-0.2803196 -0.13979879 0.15161049
-0.30686951 -0.11383777 0.15639138
0.29522428 -0.11411299 0.1653285
-0.35962591 -0.087792523 0.16071737
-0.3857908 -0.061612405 0.16060054
-0.38500836 -0.035382748 0.15382445
-0.41294858 -0.0092573222 0.16855943
-0.41298479 0.016983546 0.16885352
-0.38498366 0.042989995 0.15361071
-0.38566914 0.069250815 0.15954709
-0.38654467 0.095653616 0.16712928
-0.36029157 0.12187217 0.16689432
-0.30707458 0.14771569 0.15861142
0.63441122 0.17377494 0.15670276
-0.20408545 -0.24658409 0.18555975
-0.22989267 -0.21971449 0.17744243
-0.25559151 -0.19298151 0.16953981
-0.3096298 -0.16750814 0.18627274
0.21750963 -0.16723603 0.1803807
-0.3080678 -0.1404821 0.16936326
-0.33478636 -0.11438289 0.17409611
-0.38793582 -0.088218935 0.17917728
-0.41371286 -0.061830398 0.17476463
-0.41339085 -0.035523776 0.17215037
-0.44154167 0.01711984 0.1865499
-0.41338116 0.043274269 0.1720717
-0.41421017 0.069695495 0.17880249
-0.38870713 0.12260227 0.18585682
-0.33512715 0.14858814 0.17750144
0.61105794 0.17462544 0.17248428
0.66409534 0.1747652 0.17507935
0.58714759 0.20175199 0.18641126
0.61081105 0.20080851 0.17109001
0.63862902 0.20132835 0.17953229
-0.15168065 -0.27351111 0.19280112
-0.12505203 -0.27310458 0.18752086
-0.25762266 -0.22085287 0.19592535
-0.28338557 -0.19396654 0.18781841
-0.33612588 -0.14117952 0.18748128
-0.36305365 -0.11495022 0.19252276
-0.41655973 -0.088650763 0.19787836
-0.44217509 -0.062086347 0.19139004
-0.44203737 -0.035663754 0.1903379
-0.47008893 -0.0092574283 0.20221066
-0.44162464 -0.0092574283 0.18718386
-0.4432461 0.070175178 0.19957411
-0.44299024 0.096592344 0.1976192
-0.4429929 0.12305564 0.19763911
-0.4432095 0.14959477 0.19929457
0.56319952 0.20267707 0.20143127
-0.17894544 -0.27471021 0.20837879
-0.2319985 -0.24812748 0.20783734
-0.28568488 -0.22202568 0.21497166
0.13998134 -0.222233 0.21833813
-0.31153852 -0.1949966 0.20693493
-0.33788621 -0.16837637 0.20507181
-0.36454424 -0.14190587 0.20635366
0.27246505 -0.14205413 0.21020544
-0.39166716 -0.1155344 0.21149123
-0.44549844 -0.08908733 0.21678519
-0.47205257 -0.062471166 0.21638203
-0.4709214 -0.035801414 0.20821834
-0.47263974 0.017382108 0.2206198
-0.47186834 0.043935992 0.21505225
-0.44412017 0.043800488 0.20625353
-0.47230685 0.070605688 0.21821725
-0.41784811 0.096922472 0.20833874
-0.41785306 0.12346914 0.20837879
-0.47224537 0.15044822 0.21777332
-0.41913193 0.15049386 0.21876204
-0.47187391 0.17692135 0.21509242
-0.44408613 0.17643109 0.20599306
-0.47262859 0.20385379 0.22053909
0.5389443 0.20357174 0.21595871
-0.0998061 -0.27595162 0.22450352
0.060378965 -0.25004065 0.23545265
-0.31406751 -0.22321679 0.23431194
-0.33972147 -0.19588441 0.22341025
0.19388321 -0.19626908 0.2305485
-0.36645442 -0.16925414 0.22407818
-0.3932679 -0.14263719 0.22535408
-0.42053109 -0.116108 0.23012185
-0.47475159 -0.089527845 0.23586035
-0.50148451 -0.062768497 0.23569727
-0.50029194 -0.035950184 0.22754359
-0.50075525 0.017459862 0.23071098
-0.50205755 0.097885519 0.23961484
-0.47333229 0.097454481 0.22561741
-0.47333229 0.12413254 0.22561765
0.51462626 0.17781001 0.23158503
0.54073727 0.17759557 0.22760439
-0.50074035 0.20447402 0.23060954
0.51441813 0.20444649 0.23016238
-0.34248137 -0.22424385 0.25098908
-0.39696053 -0.19771239 0.25733328
-0.36877719 -0.19708173 0.24563086
-0.42341805 -0.17061591 0.2535609
-0.39532542 -0.17013618 0.24317276
-0.45045939 -0.14376654 0.25469387
-0.42227727 -0.14336646 0.24429893
-0.44918755 -0.11656541 0.24497509
0.32976383 -0.11688817 0.25545645
-0.50438356 -0.089981891 0.2555182
-0.53139651 -0.063084245 0.25619864
-0.52977264 -0.036089689 0.24565148
-0.53021169 0.017596837 0.24850297
-0.5025869 0.044369821 0.24323416
-0.53039193 0.07133206 0.2496736
-0.5307337 0.098263755 0.251894
-0.53079081 0.1251583 0.25226426
-0.50305438 0.12493356 0.24643052
-0.53051531 0.1519587 0.25047505
-0.50213522 0.15148149 0.24014604
-0.50221592 0.17830124 0.24069798
-0.42208058 0.1784092 0.24270225
-0.53016108 0.20555569 0.24817455
-0.44986159 0.20567581 0.25012577
-0.074101262 -0.27916679 0.26627064
-0.37109548 -0.22523853 0.26714194
0.24970526 -0.17114645 0.26504719
-0.47791857 -0.11698855 0.25871634
-0.55994821 -0.036248881 0.26633298
-0.55960637 0.017717652 0.26421857
-0.56026691 0.044755902 0.26830435
-0.5321309 0.044642881 0.26096892
-0.56134653 0.071916655 0.27498281
-0.56005549 0.098728701 0.26699674
-0.55999511 0.12571083 0.26662338
-0.39712977 0.15234311 0.25879896
-0.56004208 0.1797138 0.26691377
-0.53214049 0.17939684 0.26103091
0.57472265 0.18002634 0.27271223
0.60081279 0.17972386 0.26710045
-0.55953604 0.206517 0.26378334
-0.26410061 -0.25313234 0.28007638
-0.40092838 -0.22675064 0.29169583
-0.42657834 -0.1988917 0.27921927
-0.45324552 -0.1716516 0.27598369
-0.48056567 -0.14465652 0.27781987
-0.50835794 -0.11772677 0.28269136
-0.53459036 -0.090476684 0.27694345
-0.56176805 -0.063413471 0.27759039
-0.59086812 -0.036427394 0.28952968
-0.58902293 -0.0092573753 0.27863431
-0.56370836 -0.0092573753 0.28959286
-0.5895682 0.044964474 0.28185415
-0.58999383 0.07213328 0.28436685
-0.59070444 0.099392794 0.28856337
-0.5905444 0.12651885 0.28761816
-0.5898909 0.15349609 0.28375947
-0.56143075 0.15311454 0.27550399
-0.58949733 0.18049634 0.28143561
-0.047776587 -0.28249815 0.30954611
-0.45740417 -0.20042966 0.30776143
-0.48421773 -0.17295383 0.30417633
-0.51185089 -0.14576334 0.30657256
-0.56536788 -0.091005795 0.29985833
-0.59274626 -0.063768134 0.30061948
-0.62142783 -0.0092574805 0.30867469
-0.62028635 0.018010296 0.30222762
-0.62104434 0.072644763 0.30650902
-0.61949277 0.099675484 0.29774559
-0.61957878 0.12692736 0.29823148
0.17094964 -0.22802819 0.31243908
-0.53983903 -0.11859948 0.31103456
-0.59672683 -0.091566287 0.32412374
-0.624277 -0.064139843 0.32476699
-0.62247157 -0.036620222 0.31456971
-0.54102731 -0.0092573753 0.31875265
-0.65199167 0.018195279 0.32624674
-0.65450662 -0.036814846 0.33985937
-0.65366882 -0.0092573222 0.33532465
-0.59855443 0.018261876 0.33491492
-0.65252328 0.045692053 0.32912445
-0.62517029 0.045702845 0.32981217
-0.65304387 0.073232152 0.33194208
0.39350682 -0.14734142 0.34757304
0.39387926 -0.11983096 0.35102892
-0.62873042 -0.092161991 0.3499198
-0.65643764 -0.064533085 0.35031104
-0.68608606 -0.0092574283 0.36075854
-0.51796848 -0.0092573222 0.34839845
-0.68411314 0.018381953 0.3505069
-0.68436021 0.046041127 0.35179079
-0.68540895 0.073816225 0.3572402
-0.65578336 0.10118502 0.34676969
0.3130134 -0.14841281 0.37540781
-0.66157991 -0.09281382 0.3781445
-0.68916011 -0.064939909 0.37673175
-0.68709785 -0.037016045 0.36601591
-0.71676296 0.018574625 0.37554026
-0.71720022 0.046440531 0.37772501
-0.52137113 0.074149348 0.37166286
-0.68786293 0.10190007 0.36999106
-0.66086656 0.12985478 0.37428367
0.23068744 -0.20509629 0.39436162
-0.72033828 -0.037226986 0.39340401
-0.71918553 -0.0092574805 0.38764441
-0.71828014 0.074413933 0.38312066
-0.72060138 0.10266139 0.39471829
-0.69536477 -0.093525812 0.40897191
-0.7225247 -0.065364793 0.40432799
-0.75012231 0.01877946 0.40213346
-0.75045735 0.046841037 0.40374553
-0.75157636 0.075014696 0.40912926
-0.69368708 0.13085437 0.40025425
-0.75438368 -0.03745193 0.42263615
-0.75327522 -0.0092573753 0.41730261
-0.78433847 0.019000087 0.43080211
-0.78429925 0.04725476 0.43061996
-0.75449193 0.10353711 0.42315686
-0.73021549 -0.094305769 0.44275308
-0.75704139 -0.065843575 0.43542266
-0.78838199 -0.0092574283 0.4495616
-0.78586531 0.075678729 0.437886
-0.79008853 -0.037720144 0.457479
-0.81994921 0.019253667 0.46374035
-0.81923163 0.04771528 0.46052623
-0.82112885 0.076397724 0.46902442
-0.78941792 0.10449826 0.45436788
-0.79324305 -0.066408545 0.47211397
-0.77073556 -0.095658116 0.50130892
-0.82626933 0.10565861 0.49205112
-0.85904938 0.048470654 0.50959253
-0.20413618 0.20175034 0.67586064
-0.053675577 -0.039530955 0.69269681
-0.174367 0.2021876 0.68397474
-0.2354311 0.2027574 0.69455028
-0.26695681 0.20372026 0.71241713
-0.11511872 -0.070252635 0.72179556
-0.29869646 0.20464012 0.7294898
0 0 0 1 0 0 0 1 0 0 0 1 0 0 0 0 0 803 1 0 0
