ply
format ascii 1.0
comment PCL generated
element vertex 1341
property float x
property float y
property float z
element camera 0
property float view_px
property float view_py
property float view_pz
property float x_axisx
property float x_axisy
property float x_axisz
property float y_axisx
property float y_axisy
property float y_axisz
property float z_axisx
property float z_axisy
property float z_axisz
property float focal
property float scalex
property float scaley
property float centerx
property float centery
property int viewportx
property int viewporty
property float k1
property float k2
end_header
0.54457426 -0.17240529 -0.21997249
0.56733263 -0.17242238 -0.21965563
0.59123611 -0.17272446 -0.21404958
0.52244234 -0.14984718 -0.21705937
0.54452592 -0.14970157 -0.22021365
0.56699425 -0.14965212 -0.22128367
0.58980346 -0.1496792 -0.22069621
0.50025821 -0.1272428 -0.21418583
0.52214301 -0.12707247 -0.2186147
0.54402244 -0.12691405 -0.22272933
0.56622183 -0.12682658 -0.22500014
0.58929056 -0.1269007 -0.22307563
0.61335635 -0.12714151 -0.2168175
0.50005406 -0.10447178 -0.21529031
0.52176273 -0.10430851 -0.22059059
0.54359204 -0.1041764 -0.22487998
0.56557906 -0.10407747 -0.22809291
0.58806372 -0.10405669 -0.2287674
0.61199623 -0.10423711 -0.22290993
0.49985296 -0.081717953 -0.21637905
0.52155393 -0.081595577 -0.2216754
0.54317719 -0.08147376 -0.22695267
0.56506211 -0.081389971 -0.23057997
0.63605577 -0.081706032 -0.21689308
0.52272743 -0.05901004 -0.21557784
0.54335749 -0.058848761 -0.22605193
0.63389897 -0.058845997 -0.22623217
0.54323125 -0.036198117 -0.22668242
0.6335178 -0.036188908 -0.22788274
0.65947229 -0.013557202 -0.21395862
0.54332143 -0.013557151 -0.22623193
0.54334545 0.0090882182 -0.22611201
0.65946507 0.0091814231 -0.2139889
0.54322827 0.031724427 -0.22669756
0.6335178 0.031706207 -0.22788286
0.52272451 0.054621667 -0.21559286
0.54335749 0.054380082 -0.22605193
0.63387471 0.054373585 -0.22633708
0.49984735 0.077322781 -0.21640944
0.52155107 0.077160217 -0.22169042
0.54317421 0.076997712 -0.22696757
0.56504965 0.076884598 -0.23063993
0.63593709 0.077292122 -0.21740663
0.50005126 0.10008536 -0.21530545
0.52175987 0.099881291 -0.22060573
0.54358298 0.099715099 -0.22492504
0.56556344 0.099590264 -0.22816777
0.58804107 0.099563189 -0.22887242
0.61187869 0.099772424 -0.22343659
0.5002526 0.12286422 -0.21421599
0.52213424 0.12265886 -0.21865988
0.54401344 0.12246898 -0.22277451
0.56620622 0.12236261 -0.22507548
0.58924842 0.122446 -0.22327101
0.61337656 0.12274812 -0.21672678
0.52243942 0.14544699 -0.21707428
0.54451394 0.14527465 -0.22027409
0.5670256 0.14522828 -0.22113311
0.58978397 0.14524706 -0.22078633
0.52238125 0.16814338 -0.21737647
0.54455918 0.16797882 -0.22004783
0.56728876 0.16798998 -0.21986687
0.59119689 0.16833706 -0.21423113
0.54570514 0.19106765 -0.21432209
0.48060006 -0.24226724 -0.19679582
0.50276726 -0.24197398 -0.20060492
0.52530921 -0.24185413 -0.20216238
0.47966605 -0.21903069 -0.20207107
0.50175023 -0.2187508 -0.20611
0.5242157 -0.2186307 -0.20784426
0.54720867 -0.21870236 -0.20681012
0.45739979 -0.19640554 -0.19873977
0.47909379 -0.19600125 -0.20530307
0.50092185 -0.19567548 -0.21059346
0.52330428 -0.19555314 -0.2125802
0.56978446 -0.19584383 -0.2078594
0.45746201 -0.17356919 -0.19837272
0.47905064 -0.17318265 -0.20554674
0.50059402 -0.17281505 -0.21236801
0.45735055 -0.15067993 -0.19903052
0.47890508 -0.15034109 -0.2063688
0.50048482 -0.15003666 -0.21295905
0.61439699 -0.15007377 -0.2121557
0.45722628 -0.12779789 -0.19976449
0.4787758 -0.12751555 -0.20709908
0.63801908 -0.12746596 -0.20839143
0.45706838 -0.10492107 -0.20069659
0.4786008 -0.10469351 -0.20808756
0.63734585 -0.10459436 -0.21130657
0.66302383 -0.10497102 -0.19907641
0.45690286 -0.082057506 -0.20167398
0.4784205 -0.081885837 -0.20910561
0.66123271 -0.081944183 -0.20658195
0.50249928 -0.059218254 -0.20205545
0.66104394 -0.059136309 -0.20737302
0.50328714 -0.036420509 -0.19779122
0.52321976 -0.0363033 -0.21301961
0.66110563 -0.036348753 -0.20711422
0.52423918 -0.013557202 -0.20772266
0.52426255 0.00923061 -0.20760107
0.50330693 0.032171104 -0.19768405
0.52324307 0.031936835 -0.21289837
0.66105479 0.032022621 -0.20732737
0.50251615 0.054936446 -0.2019639
0.66104394 0.05481156 -0.2073729
0.45689511 0.07777524 -0.20171988
0.47841513 0.077546805 -0.20913601
0.66118908 0.077619895 -0.20676446
0.4570632 0.10064648 -0.20072711
0.47859538 0.10036206 -0.20811796
0.63735288 0.10024044 -0.21127617
0.66293252 0.10069536 -0.1994586
0.45722365 0.12353098 -0.19977963
0.47877038 0.12319158 -0.2071296
0.63798749 0.12312683 -0.20852816
0.45735055 0.14641942 -0.1990304
0.47890508 0.14602397 -0.2063688
0.50048202 0.145668 -0.21297419
0.61434966 0.14570069 -0.21236801
0.45745939 0.16931278 -0.19838786
0.47904789 0.168871 -0.20556188
0.50061923 0.16846021 -0.21223152
0.45739204 0.19214389 -0.1987859
0.47908568 0.19168916 -0.20534885
0.50090504 0.19131957 -0.21068478
0.52328676 0.1911819 -0.21267104
0.56972128 0.19149421 -0.2081635
0.47964442 0.2147374 -0.20219302
0.5017277 0.21442637 -0.20623171
0.52419233 0.21429293 -0.20796597
0.54715085 0.21435967 -0.20709932
0.48057836 0.2380134 -0.19691825
0.50274187 0.23768966 -0.20074248
0.52524751 0.23754226 -0.20248294
0.43752474 -0.2665351 -0.18029988
0.45976317 -0.26615518 -0.18478453
0.48194861 -0.26578313 -0.18917894
0.50437242 -0.26555127 -0.19191682
0.52823782 -0.26597238 -0.18694484
0.43642807 -0.24301484 -0.1870836
0.45851886 -0.24262621 -0.192132
0.54986978 -0.24251983 -0.19351423
0.41440514 -0.22048439 -0.18108952
0.43594256 -0.21986094 -0.1900872
0.59826702 -0.22046085 -0.18142998
0.45783544 -0.21943973 -0.19616759
0.57245356 -0.21951938 -0.19501781
0.41405985 -0.19735436 -0.18333244
0.43562686 -0.19681811 -0.19203997
0.59587085 -0.19678679 -0.19254684
0.62042814 -0.19724308 -0.18513966
0.41455296 -0.17455232 -0.18012941
0.43581572 -0.17397343 -0.19087148
0.61888778 -0.17391042 -0.19203985
0.64251649 -0.17407867 -0.18891728
0.41445521 -0.15152374 -0.18076432
0.43573618 -0.15103407 -0.19136357
0.64112532 -0.15086885 -0.19494116
0.41393614 -0.12839949 -0.18413603
0.43558463 -0.12808523 -0.19230092
0.6672644 -0.12850842 -0.18130624
0.41379586 -0.10540291 -0.18504703
0.43543568 -0.10515124 -0.19322252
0.41365331 -0.082420088 -0.18597305
0.43528435 -0.082231119 -0.19415891
0.46003532 -0.059508871 -0.18317783
0.48125714 -0.059356295 -0.19308436
0.46047288 -0.036552817 -0.18059409
0.48178238 -0.036479577 -0.19011784
0.48254627 -0.013557202 -0.18580329
0.50407732 -0.013557202 -0.19351423
0.68979359 -0.013557202 -0.18317783
0.48256266 0.009399157 -0.18571091
0.50409716 0.0093399379 -0.19340682
0.68976313 0.0094176847 -0.18330157
0.46048337 0.032435209 -0.18053234
0.48180145 0.032289285 -0.19001007
0.46004575 0.055371761 -0.18311596
0.48126805 0.055142917 -0.19302297
0.41364855 0.078259073 -0.18600392
0.43527937 0.078006998 -0.19418943
0.41379586 0.10124998 -0.18504703
0.43543071 0.10093403 -0.19325328
0.41393375 0.12425271 -0.18415129
0.43558463 0.12387641 -0.19230103
0.66716099 0.12436429 -0.18173957
0.41445521 0.14740372 -0.18076444
0.43573618 0.14683251 -0.19136357
0.64108634 0.1466306 -0.19510984
0.4145506 0.17043625 -0.18014491
0.43581572 0.16977566 -0.19087136
0.61883968 0.16969045 -0.19225502
0.64248449 0.16988745 -0.18905568
0.4140527 0.19321136 -0.18337882
0.43561944 0.19260801 -0.19208586
0.59581786 0.19255914 -0.19279277
0.62039369 0.19307859 -0.18529403
0.41440037 0.21635941 -0.18112063
0.43593758 0.21566685 -0.19011772
0.45782501 0.21519637 -0.19622898
0.57239932 0.21526961 -0.19527864
0.59822363 0.21632025 -0.18163121
0.43641314 0.23883854 -0.18717611
0.45849806 0.23840834 -0.1922549
0.54980838 0.23827578 -0.19382131
0.4374947 0.26240152 -0.18048573
0.45973182 0.26198733 -0.18497002
0.48191589 0.26158142 -0.1893636
0.50430995 0.26131415 -0.1922549
0.52816367 0.26176912 -0.18733048
0.43999851 -0.29094666 -0.16499734
0.46241039 -0.29056269 -0.16915357
0.48509389 -0.29035383 -0.17141449
0.50877982 -0.2906636 -0.16806102
0.39368227 -0.26778173 -0.16557622
0.41545379 -0.2670449 -0.17427838
0.55415589 -0.26722932 -0.17209995
0.39308828 -0.24435787 -0.1696372
0.41476771 -0.2436575 -0.17873478
0.57602811 -0.24372798 -0.17781973
0.6004594 -0.24423301 -0.17125881
0.37097228 -0.22175981 -0.16267991
0.39274177 -0.22111364 -0.17200637
0.62223893 -0.22076569 -0.17702854
0.37074223 -0.19852385 -0.1643399
0.3924686 -0.19793677 -0.17387414
0.39316589 -0.17514619 -0.16910684
0.39303353 -0.15202026 -0.17001164
0.37031105 -0.1290417 -0.16745186
0.39216623 -0.12871489 -0.17594159
0.37018555 -0.10591689 -0.16835761
0.39203453 -0.10565565 -0.17684197
0.37005794 -0.082805596 -0.1692785
0.39190283 -0.082610235 -0.17774212
0.4170225 -0.059802767 -0.16408944
0.43853083 -0.059648961 -0.1740762
0.6935674 -0.059744723 -0.167858
0.41712856 -0.036685385 -0.16340053
0.43893087 -0.036622122 -0.17160141
0.6910944 -0.036573753 -0.17789721
0.43933415 -0.013557202 -0.16910684
0.46091115 -0.013557202 -0.17800593
0.43934423 0.0095273703 -0.16904438
0.4609217 0.0094588902 -0.17794383
0.41713583 0.032699674 -0.16335356
0.43894097 0.032573711 -0.17153919
0.69106376 0.032473903 -0.17802143
0.41702491 0.055811428 -0.16407394
0.43853837 0.05558151 -0.17402959
0.69349051 0.055716887 -0.16817033
0.37005794 0.078774184 -0.1692785
0.39190057 0.078513093 -0.17775774
0.37018338 0.10189177 -0.16837335
0.39203453 0.10156583 -0.17684209
0.37030888 0.12502338 -0.16746759
0.39216396 0.12463127 -0.17595696
0.39302897 0.14798142 -0.17004287
0.39316359 0.17111509 -0.16912246
0.3707509 0.1945346 -0.16427732
0.39247999 0.19387519 -0.17379618
0.37096792 0.21777667 -0.16271114
0.39273721 0.21705872 -0.17203748
0.6221835 0.21665528 -0.17727685
0.39308143 0.24031951 -0.16968405
0.41475815 0.23954792 -0.17879677
0.57592171 0.23958735 -0.17833161
0.6004023 0.24016388 -0.17152357
0.39366168 0.26376581 -0.16571701
0.41543224 0.26296186 -0.17441857
0.55403119 0.26311857 -0.17272258
0.57923681 0.26407379 -0.16238213
0.43990746 0.28689176 -0.1655606
0.46231788 0.28647745 -0.16969967
0.48498356 0.28624344 -0.17203772
0.50858951 0.28653824 -0.16909122
0.39552236 -0.29205519 -0.15299547
0.41752681 -0.29133302 -0.16081369
0.53447109 -0.29191113 -0.1545558
0.34990439 -0.2693637 -0.14689481
0.37178817 -0.26852566 -0.15679169
0.57931823 -0.26808548 -0.16199017
0.3494097 -0.24581756 -0.15067506
0.37127218 -0.24506003 -0.16051555
0.34912255 -0.22243945 -0.15286911
0.34893686 -0.19914301 -0.15428793
0.64904296 -0.19875067 -0.16065693
0.37168354 -0.17576919 -0.15754652
0.3500495 -0.15313923 -0.14578605
0.37155724 -0.15255386 -0.15845835
0.6730094 -0.15261056 -0.15723205
0.32652447 -0.12979388 -0.14790809
0.34848776 -0.1294162 -0.15771961
0.32639 -0.10651297 -0.14899945
0.3483541 -0.10621303 -0.15874112
0.32626927 -0.083251305 -0.14997971
0.34823281 -0.083027579 -0.15966797
0.39540473 -0.059961125 -0.15379941
0.39550394 -0.036764413 -0.15312159
0.39560083 -0.013557253 -0.15245891
0.41751474 -0.013557202 -0.16089225
0.39560312 0.009655226 -0.15244329
0.41752201 0.0095904805 -0.16084516
0.39550623 0.03285747 -0.15310562
0.39540705 0.056049168 -0.1537838
0.32626927 0.07936842 -0.14997983
0.34823281 0.079069972 -0.15966797
0.32639 0.10263745 -0.14899969
0.3483541 0.10226249 -0.15874112
0.32652247 0.12592609 -0.14792395
0.34848574 0.12547292 -0.15773535
0.35004532 0.14928675 -0.14581764
0.37155506 0.14860474 -0.15847409
0.67281801 0.14862859 -0.15803397
0.37168136 0.17182699 -0.15756226
0.34893271 0.19522455 -0.15431964
0.64882559 0.1947204 -0.16159821
0.34911221 0.21852814 -0.15294802
0.34940141 0.24192391 -0.15073824
0.37126347 0.24109058 -0.16057849
0.34988779 0.2654928 -0.14702153
0.37176856 0.26457721 -0.15693319
0.39545321 0.28810173 -0.15346837
0.41744232 0.28731161 -0.16136277
0.53430134 0.28790462 -0.15543807
0.35141885 -0.29368794 -0.13532209
0.37349111 -0.29283983 -0.14450181
0.56205714 -0.29393721 -0.13262296
0.32792139 -0.27023834 -0.13656604
0.60935616 -0.27079576 -0.12998271
0.30525267 -0.24734756 -0.13079929
0.32740366 -0.24658006 -0.1407696
0.63200939 -0.24715795 -0.13326216
0.3049646 -0.22379568 -0.13329399
0.32711405 -0.22311491 -0.143121
0.30485022 -0.20037493 -0.13428438
0.32696745 -0.19975743 -0.14431131
0.32851148 -0.17715791 -0.13177514
0.35018644 -0.1764593 -0.14473963
0.32836184 -0.1537302 -0.13299048
0.30441746 -0.13017392 -0.13803244
0.28210494 -0.1071394 -0.12865293
0.30429056 -0.10681679 -0.13913107
0.28198406 -0.08371789 -0.12977469
0.30416563 -0.083476864 -0.14021313
0.28188226 -0.06031644 -0.1307193
0.35170099 -0.06027877 -0.13316631
0.37359223 -0.060115546 -0.14377201
0.28183222 -0.036933266 -0.13118339
0.35169262 -0.0369175 -0.13323009
0.37368461 -0.036841594 -0.14310539
0.28180638 -0.013557151 -0.13142323
0.35178047 -0.013557151 -0.13255882
0.37377703 -0.013557151 -0.14243841
0.28180638 0.0098170172 -0.13142323
0.35178256 0.0098084696 -0.13254285
0.37377921 0.0097324122 -0.14242256
0.28183222 0.033194974 -0.13118327
0.3516947 0.033163752 -0.13321424
0.37368682 0.033011686 -0.14308941
0.28188398 0.05658219 -0.13070333
0.35170099 0.056525275 -0.13316619
0.37359443 0.05628062 -0.14375603
0.28198406 0.079990499 -0.12977457
0.30416563 0.079669066 -0.14021313
0.28210318 0.10341994 -0.12866914
0.30429056 0.10301729 -0.13913107
0.30441561 0.12638225 -0.13804841
0.32835788 0.14997634 -0.13302231
0.32850754 0.17341296 -0.13180721
0.35018227 0.17261462 -0.14477146
0.30484655 0.1966106 -0.13431633
0.32696158 0.19591466 -0.14435911
0.30495721 0.22003621 -0.13335788
0.32710621 0.21927977 -0.14318466
0.3052471 0.24360819 -0.13084722
0.32739583 0.24276255 -0.14083338
0.63167423 0.24327652 -0.13476336
0.32790568 0.26644665 -0.13669372
0.6089043 0.26687306 -0.13207924
0.35135415 0.28986824 -0.13581669
0.37342519 0.28895146 -0.14497757
0.56117851 0.28974855 -0.1370126
0.37780991 -0.31923252 -0.11333358
0.40052444 -0.31868589 -0.11879611
0.42345506 -0.31833446 -0.12230873
0.44725877 -0.31855685 -0.12008607
0.47202569 -0.31932819 -0.11237812
0.30711058 -0.29559207 -0.11470902
0.32933679 -0.29463452 -0.12507474
0.28353971 -0.27203572 -0.11533988
0.30578756 -0.27111888 -0.1261667
0.28300214 -0.2481537 -0.12032783
0.26037535 -0.22527063 -0.11200547
0.28273144 -0.22451992 -0.12283993
0.26026839 -0.20168108 -0.11307442
0.28263089 -0.20102221 -0.12377274
0.26011449 -0.17808284 -0.11461198
0.28245768 -0.17750251 -0.12537992
0.30664986 -0.1778625 -0.11869919
0.25998989 -0.15452154 -0.11585712
0.28232965 -0.15402691 -0.12656796
0.30650833 -0.15433365 -0.1199249
0.25987187 -0.1309821 -0.11703658
0.28220689 -0.13057141 -0.127707
0.259783 -0.10746979 -0.11792469
0.25969258 -0.083970733 -0.11882818
0.70483541 -0.083894879 -0.12211573
0.18986288 -0.060616374 -0.11124361
0.2133238 -0.060603887 -0.11205399
0.23686364 -0.060606547 -0.11187577
0.2596038 -0.060485907 -0.11971533
0.30739474 -0.060600866 -0.11224854
0.32965964 -0.060443733 -0.12245357
0.18982044 -0.037082568 -0.11179483
0.21327579 -0.037076116 -0.11262107
0.23674092 -0.037071612 -0.11320412
0.25953445 -0.037016232 -0.1204083
0.30739474 -0.037079085 -0.11224854
0.3296299 -0.036998626 -0.12269485
0.25946349 -0.013557202 -0.12111735
0.30739287 -0.013557253 -0.11226463
0.32963783 -0.013557202 -0.12263072
0.1897805 -0.013557151 -0.11231315
0.21320724 -0.013557151 -0.11343086
0.23661983 -0.013557151 -0.11451495
0.18977928 0.0099640153 -0.11232948
0.2132045 0.0099553149 -0.11346316
0.23661682 0.0099469703 -0.11454737
0.25946188 0.0098963007 -0.12113345
0.30739287 0.0099644754 -0.11226463
0.32963979 0.0098848343 -0.12261438
0.18981797 0.033493012 -0.11182725
0.21327442 0.033480577 -0.11263728
0.23673794 0.033471208 -0.11323631
0.25953284 0.0333606 -0.12042451
0.30739287 0.033486206 -0.11226463
0.3296299 0.033325642 -0.12269497
0.18986163 0.057031222 -0.11125982
0.21332246 0.057012439 -0.1120702
0.23686063 0.057016127 -0.1119082
0.25960219 0.056835502 -0.11973131
0.30739474 0.057008393 -0.11224842
0.32965964 0.056772649 -0.12245345
0.25969097 0.080327079 -0.11884439
0.70478386 0.08021985 -0.12232482
0.25977975 0.10383233 -0.117957
0.25987026 0.12735206 -0.11705279
0.28220513 0.12685922 -0.12772298
0.25998667 0.15089954 -0.11588943
0.28232616 0.15032235 -0.12660015
0.30650461 0.15068038 -0.11995721
0.26011127 0.17446999 -0.11464441
0.28245249 0.17380598 -0.12542796
0.30664614 0.17421833 -0.1187315
0.6837365 0.17461561 -0.11228108
0.26026514 0.19807982 -0.11310697
0.28262571 0.1973376 -0.12382078
0.26036888 0.22167499 -0.11207032
0.2827245 0.22084101 -0.12290418
0.28299347 0.24449207 -0.12040854
0.28352576 0.26840734 -0.1154691
0.3057746 0.26740885 -0.12627888
0.30704898 0.29192716 -0.11524284
0.3292715 0.2908901 -0.12560463
0.37776953 0.3156004 -0.11362493
0.40047726 0.31500828 -0.11911845
0.42339811 0.31462455 -0.122679
0.44720143 0.31486571 -0.1204406
0.47196257 0.31569445 -0.11275065
0.35687232 -0.34486747 -0.093650103
0.37955791 -0.3441056 -0.10071838
0.40257245 -0.34366632 -0.10479391
0.42575595 -0.34338945 -0.10736418
0.44968614 -0.34363663 -0.10507059
0.47472012 -0.34456372 -0.09646821
0.33305588 -0.32107943 -0.094879508
0.35519037 -0.31991619 -0.10650229
0.49811429 -0.32077962 -0.097875357
0.28481847 -0.29662979 -0.10347462
0.26115897 -0.27298117 -0.10417509
0.23810557 -0.24983922 -0.09843123
0.26063341 -0.24899288 -0.10942674
0.23788074 -0.22604248 -0.10086524
0.2377466 -0.2023436 -0.10231721
0.16745681 -0.17913808 -0.09502697
0.19100407 -0.17906305 -0.096419096
0.21458954 -0.17902593 -0.097106576
0.2376096 -0.17866535 -0.10380042
0.68422782 -0.17831941 -0.11022186
0.12015416 -0.15548891 -0.094912291
0.14368641 -0.15539677 -0.096910119
0.16720283 -0.15531431 -0.098692775
0.19069573 -0.15523437 -0.10042453
0.21425605 -0.15520565 -0.10104477
0.23745015 -0.15499878 -0.10552633
0.07285177 -0.13184184 -0.094699383
0.096430026 -0.13177626 -0.096402764
0.11996631 -0.13169953 -0.098398447
0.14347202 -0.13162282 -0.10039175
0.16694948 -0.13154742 -0.10234988
0.1903882 -0.13146773 -0.10441947
0.21393308 -0.13145083 -0.10485911
0.23729092 -0.13135876 -0.10725033
0.049162544 -0.10815268 -0.095747709
0.07272952 -0.10808711 -0.097875357
0.096269913 -0.1080258 -0.099869132
0.11979205 -0.10797139 -0.10163212
0.14328718 -0.10791734 -0.10339308
0.16675195 -0.1078616 -0.10520077
0.19017902 -0.10780202 -0.10713649
0.21370858 -0.10779046 -0.10751033
0.23718283 -0.10776246 -0.10842013
0.70916253 -0.10788161 -0.10454965
0.025520109 -0.084510259 -0.095469236
0.049116172 -0.084469058 -0.09725368
0.072679818 -0.084424779 -0.099166632
0.096198283 -0.084372833 -0.10142004
0.11968926 -0.084323794 -0.10353971
0.14317086 -0.084283672 -0.10528219
0.16662124 -0.084241904 -0.10708773
0.19002023 -0.084193021 -0.10919964
0.21350643 -0.084177054 -0.10989749
0.23704037 -0.084175624 -0.10996234
0.0018938296 -0.060883909 -0.093863249
0.025501952 -0.060847159 -0.096255302
0.049092501 -0.060819827 -0.09802258
0.072638325 -0.060785636 -0.10024476
0.096147813 -0.060750835 -0.10251284
0.11962519 -0.060716644 -0.10472882
0.14306766 -0.060682297 -0.10695767
0.16648504 -0.060650054 -0.10905349
0.0018829741 -0.037215181 -0.094568133
0.025484197 -0.037196241 -0.09702456
0.049061291 -0.037180837 -0.099035978
0.07259623 -0.037163027 -0.10133839
0.096097372 -0.037145521 -0.10360491
0.11956643 -0.037128583 -0.10581923
0.1430116 -0.037112817 -0.10786772
0.16643554 -0.03709802 -0.10976768
0.025466055 -0.013557202 -0.097809792
0.049028091 -0.013557202 -0.10011423
0.072554156 -0.013557202 -0.1024313
0.11952349 -0.013557202 -0.10661626
0.1429756 -0.013557202 -0.10845256
0.001872126 -0.013557151 -0.095272779
0.096046962 -0.013557151 -0.10469627
0.1663951 -0.013557151 -0.11035168
0.0018718727 0.01009525 -0.09528923
0.025465302 0.010075595 -0.097842693
0.049027085 0.010057835 -0.10014689
0.072553523 0.010040075 -0.10244775
0.096046217 0.010022722 -0.10471249
0.11952261 0.010007879 -0.10663247
0.14297459 0.0099937525 -0.10846889
0.16639397 0.0099791661 -0.11036801
0.0018827207 0.03375845 -0.094584584
0.025483817 0.033720624 -0.097041011
0.049060792 0.033689607 -0.09905231
0.07259497 0.033653986 -0.10137105
0.096096613 0.033619333 -0.10362113
0.11956467 0.03358499 -0.10585177
0.14301062 0.033553615 -0.10788393
0.16643444 0.033524439 -0.10978389
0.0018935762 0.057432555 -0.09387958
0.025501579 0.057377219 -0.096271753
0.049092002 0.057336532 -0.098038912
0.072637059 0.057284735 -0.10027742
0.096147053 0.057232782 -0.10252905
0.11962343 0.057181239 -0.10476124
0.14306563 0.057129748 -0.1069901
0.16648167 0.057080977 -0.10910213
0.025519736 0.081046358 -0.095485687
0.049115673 0.08099144 -0.097270131
0.072679184 0.08093258 -0.099183083
0.096197538 0.080863178 -0.10143638
0.11968751 0.080797352 -0.10357225
0.14316782 0.080743201 -0.10533094
0.16661784 0.080687664 -0.10713649
0.19001648 0.080622613 -0.10924828
0.21350092 0.080600709 -0.10996246
0.23703438 0.080598608 -0.11002719
0.025561742 0.10476729 -0.093666553
0.049160533 0.10468458 -0.095813274
0.072726369 0.10460213 -0.097957134
0.096267648 0.10452663 -0.099918246
0.11978943 0.10445882 -0.10168123
0.14328417 0.10439105 -0.10344183
0.16674858 0.10432149 -0.10524952
0.19017529 0.10424697 -0.10718524
0.2137017 0.10423125 -0.10759163
0.23717833 0.10419747 -0.10846877
0.70905828 0.10433208 -0.10497296
0.072849236 0.12838151 -0.094764948
0.096426241 0.12830202 -0.096484542
0.1199619 0.1282098 -0.098480225
0.14346698 0.12811767 -0.10047352
0.16694495 0.12802809 -0.10241497
0.19038194 0.12793161 -0.10450077
0.2139248 0.12791063 -0.10495663
0.23728642 0.12780252 -0.10729909
0.12014975 0.15202546 -0.094994187
0.14368138 0.15191787 -0.096992016
0.1671983 0.15182269 -0.098758101
0.19068944 0.1517285 -0.10050607
0.21424916 0.15169498 -0.10112631
0.23744565 0.15145524 -0.1055752
0.23760507 0.17513481 -0.10384917
0.16745228 0.17567408 -0.095092416
0.19099775 0.17558736 -0.096500874
0.21458262 0.17554505 -0.097188354
0.23774359 0.1988252 -0.10234988
0.23788524 0.22254136 -0.10081625
0.23809651 0.24634476 -0.09852922
0.26062366 0.24541368 -0.10952413
0.26114595 0.26943862 -0.10430551
0.28475875 0.2930494 -0.10402846
0.33302358 0.3175922 -0.095141649
0.35515207 0.31633627 -0.10679495
0.49802458 0.3172431 -0.098382235
0.35683155 0.34138197 -0.093961716
0.37951493 0.34056604 -0.10102832
0.40252244 0.34009171 -0.1051358
0.42570338 0.33979505 -0.10770547
0.44962564 0.34005606 -0.10544503
0.4746536 0.34104729 -0.096861005
0.33466518 -0.34614295 -0.081813693
0.31097773 -0.32244641 -0.081218481
0.5246501 -0.32235217 -0.082160711
0.23993865 -0.29892874 -0.078587651
0.26246682 -0.29777229 -0.091106176
0.21589431 -0.27488446 -0.081697941
0.23861086 -0.27393067 -0.092961192
0.14492911 -0.25150973 -0.07673192
0.1685499 -0.25131583 -0.079249978
0.19215131 -0.25114137 -0.081516266
0.21541518 -0.25069183 -0.087356329
0.097239874 -0.22756636 -0.078869224
0.12089296 -0.22740477 -0.08120203
0.14450425 -0.22723642 -0.083630443
0.16808867 -0.22707884 -0.085906625
0.1916675 -0.22694761 -0.087800741
0.21511433 -0.22673228 -0.090908885
0.66569728 -0.22689632 -0.088541389
0.0021611564 -0.20393355 -0.076499581
0.02591189 -0.20380999 -0.078504801
0.049615018 -0.20365313 -0.081053138
0.073279716 -0.20349747 -0.083580852
0.09691558 -0.20335513 -0.085890174
0.12051875 -0.20321622 -0.088146448
0.14412585 -0.20311591 -0.089775085
0.16770911 -0.20301686 -0.091385365
0.19131953 -0.20295914 -0.092321277
0.21491972 -0.20290463 -0.093207121
0.6918323 -0.20381922 -0.078355789
-0.045432918 -0.18006143 -0.077891946
-0.021666732 -0.17992052 -0.080507398
0.0020661168 -0.17980382 -0.082672715
0.025773697 -0.1797059 -0.084488511
0.0494534 -0.1796083 -0.086302042
0.073101453 -0.17950538 -0.088212371
0.096733876 -0.17941846 -0.089824319
0.12034244 -0.17933258 -0.091418147
0.14390537 -0.17922816 -0.09335494
-0.069220893 -0.15628511 -0.077676654
-0.045432918 -0.15612608 -0.081119418
-0.021686196 -0.15603754 -0.083036065
0.0020219125 -0.15592161 -0.08554399
0.025704049 -0.15583117 -0.087504506
0.04935912 -0.15574533 -0.089363813
0.072975531 -0.15564732 -0.091483831
0.096583687 -0.15557377 -0.093075991
0.71503615 -0.15614513 -0.080705881
-0.06920585 -0.13242188 -0.079630613
-0.045432918 -0.13227423 -0.083465338
-0.021704108 -0.13220128 -0.085362554
0.0019780435 -0.13208455 -0.08839345
0.025634535 -0.13200289 -0.09051466
0.049260981 -0.1319246 -0.092550874
0.71427506 -0.13226157 -0.083795428
-0.093006834 -0.1087051 -0.077809095
-0.06919007 -0.10858579 -0.08168149
-0.045432918 -0.10846285 -0.085675716
-0.021725791 -0.10838566 -0.088179469
0.0019342527 -0.10829154 -0.091237545
0.025563262 -0.1082188 -0.093600869
-0.092977002 -0.084873252 -0.079746485
-0.069174305 -0.084781274 -0.083729506
-0.045432918 -0.084691852 -0.087603211
-0.021743642 -0.084624961 -0.090498209
0.0019039288 -0.084562518 -0.09320724
-0.09296681 -0.061091099 -0.080408216
-0.06916973 -0.061030805 -0.084323525
-0.045432918 -0.060972456 -0.088113666
-0.021748319 -0.060926393 -0.091106057
-0.09295994 -0.037320722 -0.080854774
-0.069165535 -0.037289806 -0.084867954
-0.045432918 -0.037260991 -0.088623762
-0.021752872 -0.03723719 -0.091697335
-0.092953324 -0.013557253 -0.081284523
-0.069161601 -0.013557151 -0.085379004
-0.045432918 -0.013557151 -0.089150071
-0.021758053 -0.0135571 -0.092370391
-0.092953071 0.010202836 -0.081301093
-0.069161475 0.010171359 -0.085395455
-0.045432918 0.010142287 -0.089166641
-0.021758178 0.010117566 -0.092386842
-0.09295994 0.033969786 -0.080854774
-0.069165409 0.0339077 -0.084884286
-0.045432918 0.033849709 -0.088656664
-0.021753125 0.033802416 -0.091730237
-0.09296681 0.057743646 -0.080408216
-0.069169603 0.057652794 -0.084339976
-0.045432918 0.057564914 -0.088146448
-0.021748446 0.057496227 -0.091122508
-0.092976496 0.081529938 -0.079779625
-0.069173917 0.081406794 -0.083778977
-0.045432918 0.081288561 -0.087619662
-0.021743894 0.081198834 -0.090530992
0.0019036755 0.081116021 -0.093223572
-0.09300632 0.10537622 -0.077842236
-0.06918969 0.10522667 -0.081730843
-0.045432918 0.10507219 -0.085741639
-0.021726424 0.1049752 -0.088261604
0.0019332431 0.1048583 -0.09130311
-0.069205597 0.12907898 -0.079663754
-0.045432918 0.12890036 -0.08353138
-0.021704614 0.12881263 -0.085428476
0.0019770302 0.12867264 -0.088459134
0.025633015 0.12857468 -0.090580344
0.049258456 0.12847988 -0.092633009
0.71413684 0.12886223 -0.084356427
-0.06922064 0.15295684 -0.077709794
-0.045432918 0.15277049 -0.081169009
-0.021686578 0.15266711 -0.083085537
0.0020208955 0.1525311 -0.085609794
0.025702529 0.15242562 -0.087570429
0.049357094 0.15232541 -0.089429736
0.072972372 0.15221024 -0.091565967
0.096579902 0.1521244 -0.093158126
0.71490175 0.15276599 -0.081251621
-0.045432918 0.17672415 -0.078040957
-0.021667751 0.1765642 -0.08063972
0.0020650998 0.17643487 -0.082738638
0.025772177 0.17632309 -0.084554434
0.049451366 0.17621134 -0.086367846
0.07309828 0.17609271 -0.088294744
0.096730836 0.17599438 -0.089890003
0.12033802 0.17589526 -0.091500282
0.14390033 0.17577605 -0.093436837
0.0021588616 0.20060571 -0.076648831
0.02590806 0.20046572 -0.078670382
0.049609929 0.20028929 -0.081218481
0.073273368 0.20011404 -0.083745956
0.096907966 0.19995414 -0.086054921
0.12051431 0.19980352 -0.088228822
0.14412078 0.19969074 -0.089857221
0.16770458 0.19958025 -0.091451049
0.19131321 0.19951439 -0.092403293
0.21491554 0.19945514 -0.093256474
0.69168609 0.20044515 -0.078968763
0.07355164 0.22441196 -0.076516032
0.097232215 0.22421809 -0.079034686
0.12088405 0.22403842 -0.081367135
0.14449409 0.2238515 -0.083795547
0.16807956 0.22367886 -0.08603847
0.19166118 0.22353683 -0.087883115
0.21510598 0.22329642 -0.091007471
0.66573149 0.22349763 -0.088393211
0.14491889 0.24817665 -0.076897621
0.16853955 0.24796467 -0.079399109
0.19213349 0.24776576 -0.081747532
0.21540681 0.24728258 -0.087455153
0.21588314 0.27151471 -0.081830025
0.23859724 0.27047294 -0.093108773
0.23988053 0.29553246 -0.079216957
0.26240438 0.29428011 -0.091730237
0.31094339 0.31906068 -0.081516266
0.52457994 0.3189503 -0.082540631
0.33463463 0.34275615 -0.08206141
0.3126213 -0.34774113 -0.06698525
0.50203401 -0.34679794 -0.075736761
0.52776223 -0.34792107 -0.065315723
0.28901196 -0.32411313 -0.06456387
0.55124378 -0.32382905 -0.067402244
0.21728435 -0.3001579 -0.065282464
0.16987693 -0.27671361 -0.060095549
0.19310817 -0.2759524 -0.069086075
0.026327357 -0.25275815 -0.06051445
0.050186604 -0.25260609 -0.062490225
0.074004598 -0.25243223 -0.06474781
0.09777952 -0.25224459 -0.067185402
0.12136555 -0.25184074 -0.072431445
-0.069352753 -0.2288357 -0.060548067
-0.045432918 -0.22860722 -0.063845277
-0.02155981 -0.22841513 -0.066618085
0.0022699125 -0.22821997 -0.069435954
0.026065201 -0.22805157 -0.071866155
0.04983598 -0.22791225 -0.073877335
0.07355801 -0.22774084 -0.076350451
-0.11720054 -0.20493752 -0.060196161
-0.093214363 -0.20468293 -0.064329982
-0.069293059 -0.20443833 -0.068302631
-0.045432918 -0.20423323 -0.07163322
-0.021616077 -0.20409198 -0.073927164
-0.11708154 -0.18073735 -0.065349102
-0.093131647 -0.18050279 -0.069702506
-0.069247968 -0.18026263 -0.074159741
-0.14108801 -0.15703991 -0.061335206
-0.11697562 -0.15664257 -0.069935679
-0.093066603 -0.15645826 -0.073927164
-0.14105347 -0.13308287 -0.062456846
-0.11694487 -0.13274378 -0.071267128
-0.093036696 -0.13256663 -0.075869441
-0.14101896 -0.10914323 -0.063577652
-0.11691644 -0.10886852 -0.072498083
-0.14098963 -0.085224777 -0.064530492
-0.11689035 -0.085014567 -0.073628306
-0.14097573 -0.06132859 -0.06498158
-0.11687922 -0.061188042 -0.074109912
-0.14096597 -0.037440442 -0.065299034
-0.11687155 -0.037370063 -0.07444191
-0.14095517 -0.013557202 -0.065649629
-0.11686388 -0.013557253 -0.074773908
0.74423242 -0.0135571 -0.059324622
-0.14095517 0.010323374 -0.065649748
-0.1168635 0.010252945 -0.074790716
0.74423242 0.010371998 -0.059324503
-0.14096545 0.034209069 -0.065315723
-0.11687155 0.03406857 -0.07444191
-0.14097522 0.058099523 -0.064998269
-0.11687922 0.057889156 -0.074109912
-0.14098911 0.081999034 -0.0645473
-0.11688996 0.081718802 -0.073644757
-0.14101845 0.1059247 -0.063594341
-0.11691606 0.10558137 -0.072514772
-0.14105296 0.12987295 -0.062473536
-0.11694448 0.12946594 -0.071283937
-0.09303619 0.12925266 -0.075902462
-0.14108801 0.15383914 -0.061335206
-0.11697485 0.1533739 -0.06996882
-0.093066089 0.15315902 -0.073960543
-0.11707884 0.17749867 -0.065466166
-0.09312959 0.17722943 -0.069835544
-0.069246948 0.176955 -0.074292541
-0.11719745 0.20173639 -0.060330391
-0.093212299 0.20144998 -0.064463615
-0.069292158 0.20117599 -0.068419337
-0.045432918 0.20094284 -0.071782947
-0.021617357 0.20078297 -0.074093342
-0.069351077 0.2256244 -0.060765743
-0.045432918 0.22537068 -0.064062476
-0.021561738 0.22515453 -0.066868305
0.0022660643 0.22493762 -0.069685698
0.026061743 0.22475842 -0.072015762
0.049831375 0.22460349 -0.074026823
0.026320398 0.24953823 -0.06081605
0.050179906 0.24937819 -0.062707782
0.073992394 0.24917845 -0.065065145
0.097757183 0.24895798 -0.067669153
0.12133869 0.24851243 -0.072930098
0.16983861 0.27347147 -0.060648561
0.19309407 0.27267504 -0.0692693
0.21723628 0.29687005 -0.065850139
0.28897592 0.32085174 -0.064898014
0.5509454 0.32041466 -0.068952799
0.31258273 0.34445852 -0.067318797
0.50194299 0.343427 -0.076250911
0.52768821 0.34464335 -0.065716505
0.36109245 0.36905503 -0.061402202
0.3843084 0.36843503 -0.066434383
0.40827328 0.3685112 -0.065816641
0.43266985 0.36892509 -0.062456846
0.33837086 -0.37337327 -0.051727176
0.29081178 -0.34980184 -0.047863722
0.26730222 -0.32629228 -0.042788029
0.19441852 -0.30137897 -0.052063942
0.12260482 -0.2776165 -0.049433708
0.14633417 -0.27723688 -0.053915977
-0.045432918 -0.25378919 -0.047120452
-0.021465009 -0.25323623 -0.05430305
0.0024405643 -0.25292462 -0.058351636
-0.14167634 -0.23010489 -0.042228699
-0.11740352 -0.22946909 -0.05140686
-0.093343109 -0.22915314 -0.055967331
-0.16560227 -0.20582816 -0.045734048
-0.14131698 -0.20532534 -0.053899169
-0.16543975 -0.18156677 -0.049956799
-0.14119124 -0.18113428 -0.057982564
-0.18970805 -0.15783228 -0.044177055
-0.16532947 -0.157433 -0.052821994
-0.18972918 -0.13380408 -0.043719769
-0.1653055 -0.13342974 -0.053444862
-0.18968618 -0.109726 -0.044651031
-0.16526857 -0.10942571 -0.054403782
-0.1896424 -0.085661881 -0.045598626
-0.16523167 -0.085436419 -0.055362225
0.74429202 -0.085350432 -0.059089661
-0.18961975 -0.061619516 -0.046089053
-0.16521356 -0.061469495 -0.055832863
0.74430484 -0.061420053 -0.059039474
-0.18960646 -0.037586108 -0.046376467
-0.16520193 -0.037511021 -0.056135297
0.74428356 -0.037487939 -0.059123278
-0.16518964 -0.013557253 -0.056454539
-0.1895932 -0.0135571 -0.046664
-0.18959242 0.010469399 -0.046680927
-0.16518964 0.01039421 -0.056454778
-0.18960646 0.034500659 -0.046376705
-0.16520128 0.034350127 -0.056151986
0.74428356 0.034304421 -0.059123278
-0.18961975 0.058536269 -0.046089053
-0.16521293 0.058310807 -0.055849791
0.74430484 0.05823715 -0.059039474
-0.18964162 0.08258196 -0.045615435
-0.16523039 0.082280897 -0.055395961
0.74429202 0.082167067 -0.05908978
-0.18968537 0.10665324 -0.044667959
-0.16526729 0.1062771 -0.054437518
-0.18972841 0.13073839 -0.043736815
-0.1653042 0.13028839 -0.05347836
-0.18972057 0.15477847 -0.043906093
-0.16533983 0.15431243 -0.052552462
-0.16543715 0.1784496 -0.050024152
-0.14118867 0.17795435 -0.058066368
-0.16559318 0.2027314 -0.045970798
-0.14131284 0.20217268 -0.054033637
-0.11739847 0.22632791 -0.051625848
-0.093340263 0.2259796 -0.056152225
-0.14165965 0.22700961 -0.042770982
-0.045432918 0.25051785 -0.049248219
-0.021470189 0.25003284 -0.05497551
0.0024359152 0.24972148 -0.058653712
0.098919682 0.27514815 -0.0424999
0.12255482 0.27442181 -0.050361633
0.1462886 0.27402508 -0.054656029
0.65025657 0.2743144 -0.051524878
0.19437572 0.29819399 -0.052619934
0.26725984 0.32318884 -0.043211579
0.29076809 0.34665805 -0.048269153
0.33803496 0.36991066 -0.054454327
0.4578687 0.36991066 -0.054454327
0.38538659 0.39332789 -0.058653712
0.40944371 0.39343774 -0.057814717
0.43452427 0.39440638 -0.050412297
0.0029230006 -0.32787061 -0.027016521
0.02701804 -0.32751143 -0.030607104
0.02682136 -0.30257428 -0.039123297
0.17135817 -0.30261195 -0.038715482
0.60748231 -0.30374169 -0.026485682
0.051260479 -0.27946401 -0.027615309
0.098993309 -0.27833861 -0.040905952
0.65545291 -0.27941042 -0.02824831
0.67752993 -0.25454485 -0.037304759
-0.16614902 -0.23084623 -0.03152895
-0.21478385 -0.20710118 -0.025063872
-0.19007105 -0.20640801 -0.036318183
-0.21448976 -0.18261404 -0.030521631
-0.18984428 -0.18203714 -0.041228175
-0.21430865 -0.15830788 -0.033882856
-0.21435916 -0.13421878 -0.032945156
-0.2143068 -0.11005659 -0.033916831
-0.21425262 -0.085908584 -0.034922004
-0.21422508 -0.061783556 -0.035432816
-0.23897895 -0.037750404 -0.025029421
-0.21420768 -0.037667897 -0.03575635
-0.23895893 -0.013557202 -0.025355101
-0.21419209 -0.013557202 -0.03604579
-0.23895893 0.010633441 -0.025355101
-0.21419117 0.010551088 -0.036062837
-0.23897895 0.034829255 -0.025029421
-0.21420768 0.03466424 -0.035756469
-0.21422508 0.058782257 -0.035432816
-0.21425173 0.082910761 -0.034939289
-0.21430588 0.10706635 -0.033933997
-0.21435732 0.13123514 -0.032979131
-0.21432427 0.1553341 -0.033593059
-0.21448606 0.17964652 -0.030590057
-0.18984112 0.17898701 -0.041296005
-0.21477094 0.20416299 -0.025303721
-0.19006085 0.20338465 -0.036539435
-0.16612801 0.22783305 -0.032075167
0.67748278 0.25151199 -0.037508845
0.051262587 0.27652925 -0.027546883
0.075462811 0.27659261 -0.026862264
0.02682136 0.29954475 -0.039123297
0.1480709 0.30088651 -0.025714993
0.17131817 0.2995277 -0.039293051
0.60734355 0.30074251 -0.027153373
0.0029230006 0.32493412 -0.027016521
0.02701173 0.32451773 -0.030880332
0.48497033 0.37219065 -0.035943627
0.46074557 0.39620626 -0.036658406
0.31754309 -0.37653327 -0.024360895
0.26955351 -0.35277343 -0.020291805
0.58677059 -0.32965899 -0.0091469288
0.1247384 -0.30527943 -0.0098394156
0.14812261 -0.30389047 -0.024875402
0.027252287 -0.28006965 -0.020463705
0.07555975 -0.27974117 -0.024343729
-0.069736317 -0.25659114 -0.010721684
-0.19082478 -0.23164499 -0.019999623
-0.23968238 -0.20780665 -0.013607383
-0.23931202 -0.18320146 -0.019621253
-0.26418266 -0.15939045 -0.01044488
-0.23907083 -0.15878561 -0.023537755
-0.26429898 -0.13514939 -0.0087660551
-0.23915645 -0.13463438 -0.022147536
-0.26422223 -0.11079685 -0.0098739862
-0.23909411 -0.1103878 -0.023159981
-0.26414672 -0.086461723 -0.010963917
-0.23903173 -0.086156771 -0.024172187
-0.26410601 -0.062151209 -0.011551619
-0.23900008 -0.061949033 -0.024686575
-0.26407963 -0.037851289 -0.011931896
-0.26405329 -0.013557253 -0.012312055
-0.26405329 0.010733914 -0.012312055
-0.26407963 0.035031021 -0.011931896
-0.26410601 0.059333853 -0.011551619
-0.23899901 0.059030034 -0.02470386
-0.26414552 0.083648309 -0.010981202
-0.23903072 0.083241664 -0.024189353
-0.26422101 0.10799179 -0.0098911524
-0.23909304 0.10748037 -0.023177266
-0.26429778 0.13235277 -0.0087833405
-0.23915434 0.13173386 -0.022181749
-0.26418746 0.15658519 -0.010375619
-0.23908561 0.15588883 -0.023297548
-0.23930672 0.18031655 -0.019707084
-0.23966751 0.2049567 -0.01384902
-0.21565089 0.22961131 -0.0089737177
-0.19080174 0.22872426 -0.020498157
-0.069718748 0.25358689 -0.013003111
0.027256258 0.27719951 -0.020291805
0.12466849 0.30234551 -0.01113677
0.58635157 0.32663453 -0.011240363
0.26947954 0.34980333 -0.021030903
0.56267172 0.35130554 -0.0080211163
0.31977227 -0.40310943 -0.005055666
0.56286848 -0.35420603 -0.0069986582
0.2466687 -0.3300007 -0.0057325363
0.10113018 -0.30668342 0.005358696
-0.094308272 -0.25793394 0.0067220926
-0.21571809 -0.23249525 -0.0077265501
-0.26491982 -0.20865665 0.0001950264
-0.289873 -0.18466531 0.0075441599
-0.26449472 -0.18393861 -0.0059407949
-0.28956226 -0.16003479 0.0035076141
-0.28968456 -0.13568297 0.0050964355
-0.2895999 -0.11122393 0.003996253
-0.2895166 -0.086782284 0.0029144287
-0.2894696 -0.062364489 0.0023037195
-0.28944007 -0.037957851 0.0019203424
-0.28941053 -0.013557151 0.0015366077
-0.28941053 0.01084053 0.001536727
-0.28944007 0.035244301 0.0019203424
-0.2894696 0.059653856 0.0023037195
-0.28951526 0.084075689 0.0028969049
-0.2895999 0.1085263 0.0039964914
-0.28968325 0.13299292 0.0050791502
-0.28955421 0.15732774 0.00340271
-0.28986627 0.18198958 0.0074566603
-0.26448873 0.18115897 -0.0060274601
-0.26490295 0.2059128 -4.8756599e-05
-0.24106258 0.2309799 0.0088045597
-0.094273567 0.25506628 0.0044677258
0.10107049 0.30386704 0.0040661097
0.24659982 0.3271476 -0.0064784288
0.48982239 0.40004921 -0.0072934628
0.077292942 -0.30809915 0.020685911
-0.11915369 -0.25929308 0.024377227
-0.24117914 -0.23377165 0.01069665
-0.29038996 -0.20952272 0.014259577
-0.31552249 -0.18543239 0.021780133
-0.31519249 -0.16069874 0.017883301
-0.31532976 -0.13623759 0.019504428
-0.31523278 -0.11166625 0.018358827
-0.31513736 -0.087112978 0.017231703
-0.3150807 -0.062584065 0.016563058
-0.31504646 -0.038067486 0.016158342
-0.3150107 -0.013557151 0.015736222
-0.3150107 0.010949908 0.015736341
-0.31504646 0.035463415 0.016158342
-0.31508219 0.059983477 0.01658082
-0.31513584 0.084516585 0.017214298
-0.31523278 0.10907917 0.018358946
-0.3153283 0.13365845 0.019486547
-0.31518504 0.15810323 0.017795324
-0.31551501 0.1828661 0.021691918
-0.29037374 0.20688953 0.014048815
-0.11910186 0.25656223 0.022133112
0.077244073 0.30540299 0.019416213
0.51989746 0.3797161 0.025155663
0.30000567 -0.38366991 0.037445068
0.053224318 -0.30952889 0.0361619
0.0038337931 -0.28452408 0.032141089
-0.14427644 -0.26066601 0.042212009
-0.26793125 -0.23605561 0.043661237
-0.31617883 -0.21046332 0.02953124
-0.34158903 -0.186315 0.038158298
-0.34120893 -0.16144526 0.03404367
-0.34134868 -0.13685542 0.035556555
-0.34124178 -0.11216022 0.03439939
-0.34113663 -0.087483138 0.033261061
-0.34107423 -0.062830769 0.032585621
-0.34103483 -0.038190734 0.03215909
-0.34099543 -0.013557202 0.031732559
-0.34099543 0.011073055 0.031732559
-0.34103483 0.035709813 0.03215909
-0.34107423 0.060353123 0.032585382
-0.341135 0.085010096 0.033243179
-0.34124014 0.10969584 0.034381747
-0.34134704 0.1343998 0.035538673
-0.34120071 0.15897405 0.03395462
-0.34158081 0.18387482 0.038069129
-0.31615931 0.2079463 0.02930069
-0.26688719 0.23250301 0.028591514
-0.14420822 0.25807476 0.039996505
0.0038283207 0.28201026 0.031785965
0.053186476 0.3069557 0.034933329
-0.020687161 -0.28576052 0.046742439
-0.16968289 -0.26205713 0.060283542
-0.3423323 -0.21149009 0.046204567
-0.36796975 -0.18723093 0.055156231
-0.36752841 -0.16221663 0.050746083
-0.3676706 -0.13749471 0.0521667
-0.36755002 -0.11267016 0.050961852
-0.36742949 -0.087864093 0.049757838
-0.36735043 -0.063082896 0.048967481
-0.36730552 -0.038316645 0.048518538
-0.36726061 -0.013557151 0.048069835
-0.36726061 0.011198709 0.048069835
-0.36730552 0.035961684 0.048518658
-0.36735043 0.060731418 0.048967481
-0.36742771 0.085518137 0.049739838
-0.36754641 0.11033256 0.050925851
-0.36766699 0.13516611 0.052130818
-0.36751944 0.15987401 0.050656438
-0.36796072 0.18492137 0.055066228
-0.34231243 0.20910248 0.045989633
-0.29393148 0.23494148 0.060265541
-0.16959736 0.25960451 0.058061004
-0.02069144 0.28334057 0.046186686
0.0043809228 -0.31244022 0.067678213
-0.070416845 -0.28838038 0.077682018
-0.045432918 -0.2870512 0.061984301
-0.31948599 -0.23778243 0.068586707
-0.29407495 -0.23733498 0.06212914
-0.36885062 -0.21258348 0.063958526
-0.39474365 -0.1882126 0.073374152
-0.39423358 -0.16304325 0.068641305
-0.39440608 -0.13819045 0.07024169
-0.39427277 -0.11322571 0.069005013
-0.39411217 -0.088274226 0.067514777
-0.39401826 -0.063355036 0.066643119
-0.39396542 -0.038452435 0.066153169
-0.39391652 -0.013557253 0.065699458
-0.39391652 0.011334447 0.065699577
-0.39396542 0.036233056 0.066153169
-0.3940163 0.061139241 0.066624999
-0.39410827 0.086064368 0.067478418
-0.39426884 0.11102706 0.068968415
-0.39440215 0.13600101 0.070205331
-0.39422381 0.16083816 0.068550467
-0.39473188 0.18604222 0.073264837
-0.36883068 0.2103337 0.063759327
-0.31933215 0.23544216 0.066770315
-0.19527572 0.26115471 0.076366544
-0.07040967 0.28616387 0.076750278
-0.045432918 0.28472805 0.061206222
0.0043610707 0.3101036 0.066389084
0.35629639 -0.41528654 0.093809962
-0.020394841 -0.31401414 0.084716201
-0.095644817 -0.28972262 0.093533158
-0.19537535 -0.26346117 0.078523159
-0.34625319 -0.23917237 0.088649392
-0.39579394 -0.21376351 0.083119631
-0.42183259 -0.18921033 0.091891289
-0.42124164 -0.16388066 0.086773396
-0.42143276 -0.13889043 0.088428497
-0.42125863 -0.11377741 0.0869205
-0.42108467 -0.088687576 0.085413933
-0.42098075 -0.063630149 0.084514141
-0.42092356 -0.038589962 0.084018707
-0.42086846 -0.013557202 0.083541751
-0.42086637 0.01147172 0.083523154
-0.42092356 0.036508169 0.084018707
-0.42098075 0.061552346 0.08451426
-0.42108041 0.086615406 0.085377097
-0.42125651 0.11171737 0.086902261
-0.42143065 0.13684195 0.08841002
-0.4212268 0.16181329 0.086644888
-0.42181984 0.18718243 0.091780663
-0.39575049 0.2116469 0.082716346
-0.34608161 0.23698349 0.086791754
-0.22124422 0.26271766 0.094825745
-0.095630616 0.28762895 0.092610717
-0.020407552 0.31177247 0.083064795
-0.045432918 -0.31560463 0.10193419
-0.12112043 -0.29107815 0.10953999
-0.22135979 -0.26488119 0.096969724
-0.42314443 -0.21500336 0.10325205
-0.44880602 -0.16482207 0.1071558
-0.44897571 -0.13966432 0.10853374
-0.44877392 -0.11439243 0.10689533
-0.4485769 -0.089146748 0.1052959
-0.44845101 -0.063934483 0.10427356
-0.44838011 -0.038741365 0.10369778
-0.44831148 -0.013557202 0.10314059
-0.44830918 0.011622557 0.10312212
-0.44837779 0.036810968 0.10367918
-0.44844875 0.06200818 0.10425508
-0.44857234 0.087227657 0.10525846
-0.44877163 0.11248629 0.10687673
-0.44897115 0.1377697 0.10849655
-0.44879225 0.16291246 0.10704422
-0.44945353 0.18845317 0.11241293
-0.42308441 0.21303377 0.1027323
-0.12109935 0.28910851 0.10862696
-0.045432918 0.31349391 0.1002655
-0.070737496 -0.31721216 0.11933577
-0.14684734 -0.29244685 0.12570441
-0.27338609 -0.26683849 0.12239492
-0.24764004 -0.266316 0.11560869
-0.37487918 -0.24163535 0.12419939
-0.45095158 -0.21631648 0.1245755
-0.4494673 -0.19032225 0.11252475
-0.47681156 -0.16580847 0.12851143
-0.47695723 -0.14047603 0.12962425
-0.47674251 -0.11504179 0.12798369
-0.47653046 -0.089633241 0.12636352
-0.47639498 -0.064258628 0.12532818
-0.47631371 -0.03890305 0.12470722
-0.47623494 -0.013557151 0.12410533
-0.47623494 0.011784144 0.12410533
-0.47631124 0.037134446 0.12468851
-0.47639 0.062493965 0.12529039
-0.47652555 0.087876409 0.12632596
-0.47673756 0.11329703 0.1279459
-0.47695225 0.13874367 0.12958658
-0.47679678 0.1640633 0.12839842
-0.45087978 0.21450678 0.12399256
-0.37465537 0.23969077 0.1219629
-0.2732079 0.2648344 0.11982334
-0.24750876 0.26429713 0.11347747
-0.14681953 0.29060268 0.12480128
-0.070724517 0.31523341 0.11764908
0.38609383 -0.39431614 0.1296432
0.41274139 -0.39536911 0.13876283
-0.096314028 -0.3188439 0.13699937
-0.1728344 -0.29384041 0.14216244
-0.30047029 -0.26859462 0.14520705
-0.47914854 -0.21765876 0.14636946
-0.47751594 -0.19147375 0.13389409
-0.47750357 0.1897701 0.13379943
-0.47904131 0.2160001 0.14554989
-0.30030617 0.26680338 0.14307535
-0.17279491 0.29211158 0.14113605
-0.09628661 0.31699193 0.13521874
-0.12218195 -0.32055342 0.15550518
-0.19908428 -0.29525137 0.15882397
-0.40299502 -0.24341857 0.14993739
-0.50631517 -0.19278917 0.15830564
-0.50547343 -0.16690411 0.15223122
-0.50552118 -0.14135951 0.15257549
-0.50527745 -0.11574479 0.15081632
-0.50504977 -0.09016002 0.14917362
-0.50493604 -0.064613074 0.14835286
-0.50484353 -0.039079994 0.14768493
-0.50475109 -0.0135571 0.14701748
-0.5047484 0.011960316 0.14699841
-0.50484091 0.037488073 0.14766586
-0.50493073 0.06302581 0.14831448
-0.50504452 0.088578589 0.14913547
-0.50527209 0.1141759 0.15077806
-0.50551587 0.13980372 0.15253723
-0.50545752 0.16534126 0.1521163
-0.5062992 0.19127229 0.15819061
-0.40276667 0.24168105 0.14781857
-0.19902933 0.29363555 0.1576339
-0.12213109 0.31880152 0.15330255
-0.14822081 -0.32192087 0.17030895
-0.22555378 -0.29660428 0.17480099
-0.43159658 -0.2452554 0.17644978
-0.50819284 -0.21922834 0.17185652
-0.53494573 -0.16814017 0.17899406
-0.53476667 -0.14232923 0.17777014
-0.53457355 -0.11653424 0.17644978
-0.53440046 -0.090762548 0.17526639
-0.53427565 -0.0650144 0.17441332
-0.53419626 -0.039281655 0.17387044
-0.53411412 -0.013557202 0.17330885
-0.53411132 0.012162747 0.17328942
-0.53419626 0.0378916 0.17387044
-0.53427285 0.063628033 0.17439389
-0.53439474 0.089382067 0.17522764
-0.53457069 0.11516333 0.17643046
-0.53476101 0.14096753 0.17773128
-0.53493148 0.16678432 0.17889702
-0.50806683 0.21775967 0.17094719
-0.43136141 0.24372838 0.17441344
-0.32890913 0.26991898 0.17986929
-0.22552454 0.29517126 0.17425823
-0.14821902 0.32049763 0.17025101
-0.1749123 -0.32430768 0.1961472
-0.25233662 -0.29804981 0.191872
-0.32911843 -0.27145308 0.18234062
-0.53587133 -0.19424504 0.18532312
-0.53585142 0.19293489 0.18518662
-0.53776777 0.21965396 0.19828939
-0.25230166 0.29674596 0.19130409
-0.17479298 0.322779 0.19304764
-0.27941501 -0.29953533 0.20941508
-0.35701647 -0.27321017 0.20516527
-0.46067107 -0.2471287 0.20348799
-0.53782827 -0.22088157 0.19870222
-0.56511909 -0.16946296 0.20763481
-0.56462336 -0.14335479 0.2044152
-0.56444716 -0.11736014 0.20327115
-0.56428027 -0.091384374 0.20218694
-0.56417716 -0.065431699 0.20151675
-0.5641377 -0.03949248 0.20126081
-0.56406796 -0.013557151 0.20080781
-0.56406498 0.012374338 0.20078814
-0.5641377 0.038313199 0.20126092
-0.56417716 0.064254358 0.20151687
-0.56427723 0.090211593 0.20216703
-0.56444418 0.11619559 0.20325124
-0.56461728 0.14219813 0.20437574
-0.56509161 0.16832325 0.20745683
-0.46043557 0.24581937 0.20157599
-0.35678867 0.2718522 0.20269918
-0.27937526 0.29836589 0.20884144
-0.20190239 -0.32649612 0.21983814
-0.30677769 -0.30103648 0.22714257
-0.38529724 -0.27499121 0.22830284
-0.56645268 -0.19591416 0.21629703
-0.59511507 -0.013557202 0.23245096
-0.59511507 0.012618175 0.23245108
-0.56640679 0.19483224 0.21599901
-0.49030608 0.24813284 0.23162854
-0.38505107 0.27381194 0.22584295
