ply
format ascii 1.0
comment PCL generated
element vertex 855
property float x
property float y
property float z
element camera 1
property float view_px
property float view_py
property float view_pz
property float x_axisx
property float x_axisy
property float x_axisz
property float y_axisx
property float y_axisy
property float y_axisz
property float z_axisx
property float z_axisy
property float z_axisz
property float focal
property float scalex
property float scaley
property float centerx
property float centery
property int viewportx
property int viewporty
property float k1
property float k2
end_header
0.18531081 0.083961733 -0.4742431
0.16892493 0.067189939 -0.46867299
0.18705916 0.067517817 -0.45802015
0.16911167 0.084247932 -0.46680677
0.20357387 0.084401578 -0.46281368
0.18577963 0.10110589 -0.46989292
0.20419015 0.10167941 -0.45747662
0.18622643 0.11830612 -0.46574712
0.18667595 0.13557176 -0.46157616
0.15439181 -0.035136152 -0.44211769
0.15415835 -0.017926063 -0.44464469
0.15392633 -0.00075484597 -0.44715649
0.15369394 0.016377587 -0.44967216
0.15346298 0.033471532 -0.4521724
0.17170364 0.033645067 -0.44090629
0.1533846 0.050565179 -0.45302099
0.17145047 0.050786454 -0.44343603
0.15390371 0.067844823 -0.4474014
0.20536937 0.0678491 -0.44726419
0.22202761 0.084846087 -0.45126474
0.17026909 0.10178264 -0.45524126
0.22269063 0.10221495 -0.44588172
0.17108797 0.11931314 -0.44705838
0.20468213 0.11898144 -0.4532159
0.22321247 0.11960492 -0.44164515
0.20506649 0.1362915 -0.44988716
0.13832904 -0.035341136 -0.4287982
0.1727231 -0.035311621 -0.4307192
0.13832821 -0.01804797 -0.42880815
0.17246662 -0.018013461 -0.43328214
0.13832736 -0.00075486844 -0.42881811
0.17221172 -0.00075486844 -0.43582928
0.13832736 0.016538166 -0.42881817
0.1719574 0.016464602 -0.43837059
0.19040728 0.016552428 -0.42695367
0.13832653 0.03383093 -0.42882812
0.19013014 0.033820268 -0.42952526
0.13832736 0.0511241 -0.42881811
0.18985578 0.051048893 -0.43207097
0.22385685 0.068183281 -0.43641323
0.15466587 0.085312389 -0.43915057
0.24067502 0.085295379 -0.43959475
0.25951919 0.085749216 -0.42780161
0.15543371 0.10290975 -0.43083858
0.24138691 0.10275657 -0.43415499
0.24193938 0.12023599 -0.42993331
0.17191292 0.13697343 -0.438815
0.22362916 0.13700753 -0.43826199
0.24238677 0.1377309 -0.42651457
0.19124141 -0.035488736 -0.41921383
0.19096237 -0.018101895 -0.42180306
0.19068612 -0.00075491343 -0.4243663
0.20934831 -0.00075493596 -0.41280568
0.2090476 0.016641334 -0.41540962
0.20874764 0.033997517 -0.41800755
0.20845066 0.051314373 -0.42057949
0.1388357 0.068601891 -0.42281502
0.24252661 0.068520904 -0.42544597
0.2613802 0.068861969 -0.41437083
0.1395499 0.08626575 -0.41438091
0.2785632 0.086207964 -0.41588342
0.26028094 0.10330397 -0.42230427
0.15620729 0.12063842 -0.42246449
0.26086235 0.12087321 -0.41810811
0.15698665 0.13849998 -0.41402769
0.26134247 0.13846196 -0.41464311
0.12294088 -0.0357222 -0.4040519
0.20995055 -0.035667669 -0.40759003
0.22885476 -0.035848651 -0.39583534
0.12294009 -0.018238446 -0.40406203
0.20965083 -0.018191248 -0.41018564
0.2285292 -0.018281436 -0.39847851
0.22820316 -0.00075489096 -0.40112555
0.12294009 -0.00075484597 -0.40406215
0.12294245 0.016728956 -0.40403157
0.22788034 0.016731115 -0.40374649
0.12294324 0.034212872 -0.40402126
0.22755708 0.034176767 -0.40637124
0.12293932 0.051695615 -0.40407223
0.22723703 0.051582549 -0.40896976
0.24621786 0.051853381 -0.39723974
0.12343138 0.06937585 -0.39768004
0.28041884 0.069206074 -0.40319622
0.29781026 0.086671539 -0.40383798
0.14026946 0.10406243 -0.40588337
0.27937579 0.10385713 -0.41032743
0.29867479 0.10441614 -0.39822268
0.14099444 0.12199328 -0.39732164
0.27998567 0.1215171 -0.40615773
0.28049785 0.13920023 -0.40265602
0.24795459 -0.036031365 -0.38396871
0.24760376 -0.018372478 -0.38664973
0.24725507 -0.00075493596 -0.38931406
0.24690853 0.016821865 -0.39196205
0.24656145 0.034357656 -0.39461416
0.26576671 0.034540981 -0.38271403
0.26539624 0.052127138 -0.3853876
0.29964817 0.069553889 -0.39190042
0.12409525 0.087240472 -0.38905627
0.31726363 0.087140135 -0.39166355
0.31818119 0.10498127 -0.3859877
0.1070089 0.1228375 -0.38165528
0.29931414 0.1221685 -0.39406985
0.31884801 0.12282632 -0.38186294
0.14172579 0.14006062 -0.38868469
0.29985747 0.13994631 -0.39054102
0.10720918 -0.036111429 -0.37876469
0.26725292 -0.03621579 -0.37198818
0.10720918 -0.018433172 -0.37876469
0.26687753 -0.018464398 -0.37469739
0.10720918 -0.00075486844 -0.37876469
0.26650736 -0.00075491343 -0.37736875
0.10721135 0.016923616 -0.37873334
0.26613662 0.016913604 -0.38004452
0.2855649 0.017006267 -0.36801237
0.10721135 0.034602191 -0.37873334
0.28517035 0.034725785 -0.37070996
0.10720846 0.052279752 -0.37877512
0.28477368 0.052403394 -0.37342203
0.1076794 0.070167311 -0.37197775
0.31906968 0.069905162 -0.38049155
0.33868447 0.070259593 -0.36897862
0.10768956 0.087903455 -0.37183118
0.33692491 0.087613367 -0.37936831
0.35680091 0.088092156 -0.36692953
0.1073485 0.10540784 -0.37675363
0.12476417 0.10524096 -0.38036686
0.33789656 0.10555211 -0.37363124
0.12543899 0.12337921 -0.37160063
0.33859199 0.1234911 -0.3695246
0.1071789 0.14064461 -0.37920183
0.12575324 0.14136411 -0.36751825
0.10752937 0.15867004 -0.37414342
0.091123894 -0.036509726 -0.35289735
0.28675565 -0.036402285 -0.35987127
0.091123894 -0.018632287 -0.35289735
0.2863552 -0.018557532 -0.36260885
0.30603871 -0.01865159 -0.3503927
0.28596035 -0.00075489096 -0.36530852
0.30561864 -0.00075489096 -0.35312104
0.091123894 -0.00075484597 -0.35289735
0.091125861 0.017122775 -0.35286558
0.30519795 0.017099762 -0.35585332
0.091125205 0.035000309 -0.35287613
0.30477664 0.03491237 -0.35859007
0.091122583 0.052876916 -0.35291874
0.30435467 0.052682638 -0.36133075
0.090800732 0.07059335 -0.358145
0.35849893 0.070618115 -0.35733926
0.090802699 0.08843153 -0.35811311
0.37689349 0.08857616 -0.35435504
0.090802044 0.1062683 -0.35812378
0.35782775 0.10612941 -0.36112982
0.090801388 0.12410495 -0.35813439
0.3585515 0.12416376 -0.35704207
0.090802699 0.1419434 -0.35811323
0.090802699 0.15978067 -0.35811311
0.12614661 0.15948308 -0.36240822
0.14495473 0.16030438 -0.3505528
0.090801388 0.17761627 -0.35813439
0.10828023 0.17721818 -0.36330545
0.12703624 0.17817685 -0.35085142
0.090879098 0.19556032 -0.35687244
0.306463 -0.036590692 -0.34763682
0.3263815 -0.036781255 -0.33526158
0.32593122 -0.01874668 -0.33804685
0.32548374 -0.0007548235 -0.34081495
0.32503733 0.017194312 -0.34357625
0.32459024 0.035100933 -0.34634203
0.32414421 0.052965079 -0.34910113
0.34414402 0.05325051 -0.33674133
0.37851241 0.070979811 -0.34559226
0.39720616 0.089065433 -0.34164292
0.37797669 0.10671316 -0.34849203
0.39834484 0.10730277 -0.33572626
0.3787283 0.12484378 -0.34442389
0.14599727 0.17914768 -0.33824098
0.10959433 0.19662163 -0.34433806
0.074671522 -0.036916886 -0.32645166
0.34651288 -0.036973778 -0.32275403
0.074672103 -0.0188359 -0.32644081
0.34603614 -0.018842718 -0.32556921
0.074672103 -0.00075491343 -0.32644069
0.34556049 -0.00075489096 -0.3283776
0.074673876 0.0173265 -0.32640821
0.34508783 0.017289855 -0.33116865
0.074672684 0.035407513 -0.32642978
0.34461448 0.0352915 -0.33396369
0.3648546 0.035484269 -0.32144231
0.074386373 0.053365916 -0.3317433
0.36435756 0.053538982 -0.32424963
0.074386954 0.071406588 -0.33173251
0.39873189 0.071345486 -0.33371478
0.41915861 0.07171499 -0.32171565
0.074389294 0.089448541 -0.33168906
0.41774258 0.089560144 -0.32879084
0.074388131 0.10748825 -0.33171082
0.41893986 0.10789943 -0.32280856
0.074388131 0.12552878 -0.33171082
0.39912382 0.12553054 -0.33167815
0.074387535 0.14356868 -0.33172172
0.074388131 0.16160993 -0.33171082
0.074386954 0.17964876 -0.33173263
0.074386954 0.19768903 -0.33173245
0.12851471 0.19769643 -0.33164579
0.074598789 0.21609262 -0.32780135
0.36686069 -0.037168551 -0.310112
0.36635491 -0.018939586 -0.31296861
0.36585429 -0.00075480097 -0.31579626
0.3653529 0.017386295 -0.31862813
0.38583797 0.017484063 -0.30594176
0.38531244 0.035679109 -0.30878609
0.38478816 0.053830553 -0.31162387
0.43979347 0.072087973 -0.30960399
0.43850642 0.090060331 -0.31579626
0.43976358 0.10850269 -0.30974758
0.41974586 0.1262255 -0.31878161
0.44059613 0.12692821 -0.3057422
0.093595773 0.21748216 -0.31275928
0.057840642 -0.037333608 -0.29938555
0.38742834 -0.037365191 -0.29733336
0.057841163 -0.019044284 -0.29937428
0.38689488 -0.019037759 -0.30022097
0.38636681 -0.00075489096 -0.30307925
0.40709952 -0.00075489096 -0.29023564
0.057841163 -0.00075484597 -0.2993744
0.057842199 0.017534725 -0.29935211
0.4065448 0.017582823 -0.29311794
0.057594161 0.035741717 -0.30472219
0.40599144 0.035876039 -0.29599321
0.057594161 0.053989984 -0.30472213
0.40543938 0.054125253 -0.29886168
0.057595704 0.07223931 -0.30468881
0.46064422 0.072465099 -0.29735577
0.05759519 0.090487398 -0.3046999
0.45950153 0.090566091 -0.30265707
0.057594683 0.1087354 -0.30471104
0.46081987 0.10911272 -0.29654068
0.057593141 0.12698191 -0.30474424
0.46167597 0.12763801 -0.29256886
0.057594161 0.14523141 -0.30472213
0.05759519 0.16348127 -0.3046999
0.057595704 0.18173049 -0.30468875
0.057594161 0.19997631 -0.30472219
0.057593141 0.21822253 -0.30474436
0.11283776 0.21888952 -0.2975232
0.40821731 -0.037563946 -0.28442734
0.40765557 -0.019136922 -0.28734618
0.4280602 -0.00075489096 -0.27724069
0.427477 0.017682526 -0.28015453
0.4268952 0.036075179 -0.28306121
0.040410195 0.05462854 -0.27707034
0.4263126 0.054422971 -0.28597224
0.040410195 0.073089689 -0.27707034
0.48171195 0.072846189 -0.28498012
0.040410195 0.091550857 -0.27707034
0.48072925 0.091076978 -0.28938174
0.50219852 0.091594189 -0.27594602
0.040408883 0.11001048 -0.27710456
0.48211005 0.10972907 -0.28319681
0.040408444 0.1284707 -0.27711588
0.48299405 0.12835641 -0.27923685
0.040408883 0.1469322 -0.2771045
0.040411498 0.16539778 -0.27703637
0.040409755 0.18385565 -0.27708173
0.040410195 0.2023177 -0.27707034
0.04061735 -0.037760001 -0.2716884
0.4292354 -0.037764903 -0.27136892
0.04061735 -0.019257413 -0.2716884
0.42864484 -0.019237211 -0.27431983
0.44985953 -0.019338354 -0.26117355
0.040617783 -0.00075489096 -0.27167696
0.44924816 -0.00075493596 -0.26411486
0.040618662 0.0177479 -0.27165419
0.44863591 0.017783262 -0.2670607
0.040617783 0.036250513 -0.27167702
0.44802511 0.036276292 -0.26999938
0.44741586 0.054724149 -0.2729308
0.46875069 0.055028614 -0.25974613
0.50299752 0.073230803 -0.27248639
0.52451223 0.073620349 -0.25983828
0.523911 0.092117071 -0.26235777
0.50364304 0.11035285 -0.26969099
0.50455201 0.12908287 -0.26575488
0.45048437 -0.037968203 -0.25816715
0.47196558 -0.038173549 -0.2448312
0.47131541 -0.019441027 -0.2478475
0.47067186 -0.00075484597 -0.25083309
0.47003242 0.017885396 -0.25379992
0.46939448 0.03648011 -0.25675941
0.022820238 0.055281878 -0.24877757
0.49031845 0.055336226 -0.2464276
0.022819523 0.073960222 -0.24880099
0.54625183 0.074013539 -0.24706787
0.022820596 0.092640243 -0.24876595
0.54586792 0.092645682 -0.24862659
0.022820953 0.11131994 -0.24875444
0.52540404 0.11098056 -0.25610101
0.022820953 0.12999892 -0.24875438
0.52635401 0.12981756 -0.25212044
0.022820953 0.14867808 -0.24875444
0.022820238 0.16735557 -0.24877769
0.022819523 0.18603282 -0.24880087
0.022987742 -0.038196538 -0.24333775
0.022987742 -0.019475671 -0.24333781
0.49300942 -0.019544734 -0.23437363
0.0229881 -0.00075489096 -0.24332613
0.49233291 -0.00075493596 -0.23740411
0.022988465 0.017966159 -0.24331439
0.49166062 0.01798843 -0.24041557
0.022987742 0.036686715 -0.24333775
0.49099264 0.036685679 -0.24340773
0.51283324 0.036893725 -0.22989631
0.51212811 0.055647485 -0.23294961
0.56822246 0.07441096 -0.23416197
0.5469982 0.11153766 -0.24403799
0.54823673 0.13052411 -0.23901045
0.49565831 -0.038517199 -0.22250801
0.51494563 -0.01964961 -0.22074926
0.5142352 -0.00075498095 -0.22382557
0.51353198 0.018092722 -0.2268706
0.53490937 0.037103526 -0.21626943
0.53418684 0.0559627 -0.21929741
0.0049372837 -0.038643405 -0.21431041
0.0049372837 -0.019699194 -0.21431041
0.53712529 -0.019755615 -0.20698398
0.0049375594 -0.00075489096 -0.21429843
0.53637999 -0.00075493596 -0.21010685
0.0049375594 0.018189501 -0.21429849
0.53564239 0.018197915 -0.21319801
0.0049372837 0.037133671 -0.21431029
0.0049364492 0.056077164 -0.21434617
0.0051592961 0.075318232 -0.20469683
-0.013549291 -0.039101113 -0.18458164
0.52021807 -0.038895857 -0.19791889
-0.013549291 -0.019928025 -0.18458164
-0.013549291 -0.00075480097 -0.1845817
-0.013549291 0.018418243 -0.1845817
-0.013549477 0.037591152 -0.18459392
-0.013549853 0.056763612 -0.18461841
0.0053956695 0.094730459 -0.19446135
-0.013392165 0.076251872 -0.17437595
0.0056320392 0.11430029 -0.18422645
0.0058703646 0.13403219 -0.1739068
-0.032487966 -0.039570022 -0.15412581
-0.032487966 -0.020162527 -0.15412593
-0.032487966 -0.00075489096 -0.15412593
-0.032487966 0.018652743 -0.15412593
-0.03248816 0.038059931 -0.15415096
-0.013231445 0.095905386 -0.16393697
0.45220968 0.15435442 -0.15658271
0.47204641 0.15448715 -0.15442705
0.45221469 0.17374478 -0.1565578
-0.032371756 -0.059326306 -0.13902974
-0.032486804 0.057471342 -0.15397537
-0.03240503 0.077207193 -0.14335227
-0.013069957 0.11572182 -0.1534481
-0.012907118 0.13570464 -0.14287138
0.49449959 0.15535803 -0.14028621
0.47406164 0.17456409 -0.14473093
-0.032322958 0.097107992 -0.13269043
0.43740189 0.15582034 -0.13277984
0.43740681 0.17539394 -0.13275421
0.49677572 0.17560375 -0.12972629
0.43739942 0.19496314 -0.13279259
0.45612982 0.19463946 -0.13699651
-0.05189554 -0.059698977 -0.12289035
-0.012444049 -0.059932083 -0.11279428
-0.05189554 -0.040050723 -0.12290323
-0.05189554 -0.020402741 -0.1229161
-0.05189554 -0.00075489096 -0.12291622
-0.05189554 0.018892823 -0.1229291
-0.05189554 0.038540315 -0.12294185
-0.05189554 0.058199592 -0.12244022
-0.05189554 0.078185283 -0.11158812
-0.032240089 0.11717783 -0.12192559
-0.032156512 0.13741831 -0.11106908
0.478807 0.19580162 -0.12189972
-0.05189554 0.098341502 -0.1006434
0.42231393 0.15731493 -0.10850966
0.42231637 0.17707458 -0.10849667
0.42231154 0.19683145 -0.10852265
0.42231154 0.21659012 -0.10852253
0.44286236 0.2169385 -0.10440636
-0.05189554 -0.080581293 -0.082803488
-0.071789742 -0.060437486 -0.090910673
0.0079002492 -0.060550731 -0.086010098
-0.071789742 -0.040543254 -0.090910792
-0.071789742 -0.020649029 -0.090910673
-0.071789742 -0.00075489096 -0.090910673
-0.071789742 0.019139381 -0.090910792
-0.071789742 0.039033566 -0.090910792
-0.071796551 0.058948088 -0.090027213
-0.071882024 0.079191141 -0.078923702
-0.05189554 0.11867068 -0.089604974
0.4069328 0.15883756 -0.083784819
0.40693519 0.1787875 -0.083771706
0.40693519 0.19873679 -0.083771586
0.4069258 0.21868141 -0.083824635
0.466279 0.21847278 -0.086287975
-0.071903042 -0.08078488 -0.076193094
-0.031839363 -0.080979563 -0.069870234
-0.071968235 0.099608541 -0.067724466
-0.05189554 0.13917482 -0.078471065
-0.072024286 -0.10139858 -0.060443044
-0.05189554 -0.10149064 -0.058051944
-0.011581659 -0.081382602 -0.056780219
-0.092189014 -0.061195068 -0.058106184
0.028669756 -0.06117887 -0.058808923
-0.092188805 -0.041048117 -0.058119535
-0.092188805 -0.020901483 -0.058119535
-0.092189223 -0.00075484597 -0.058092594
-0.092189223 0.019391924 -0.058092594
-0.092189223 0.039538786 -0.058092356
-0.092207961 0.05971377 -0.05687499
-0.072055295 0.12020361 -0.056414843
0.39125249 0.1603899 -0.058579206
0.39125478 0.18053392 -0.058565617
0.39125708 0.20067821 -0.058552146
-0.072147004 -0.12226361 -0.044501305
-0.031646706 -0.1019991 -0.04484272
-0.092431732 -0.081827313 -0.042340755
0.0088806339 -0.081789874 -0.043558002
0.049448628 -0.061561394 -0.04224503
-0.092383333 0.080220655 -0.045484424
-0.092560232 0.1009068 -0.033994317
-0.072143324 0.14097965 -0.044979215
-0.07233081 -0.14380182 -0.020623803
-0.05189554 -0.12280496 -0.032781839
-0.031450197 -0.12342694 -0.0193156
-0.09268038 -0.10271704 -0.026190519
-0.011192434 -0.10251264 -0.031499386
0.029550631 -0.082201108 -0.030201793
-0.11312595 -0.061985314 -0.023888946
0.070334345 -0.061869819 -0.02888906
-0.11311217 -0.041565936 -0.024485588
-0.11311217 -0.021160414 -0.024485588
-0.11311314 -0.00075489096 -0.024443746
-0.11311346 0.019651126 -0.024430037
-0.11311281 0.04005665 -0.024457693
-0.11314967 0.060499202 -0.022861719
-0.09273912 0.12177587 -0.022375584
0.37526414 0.16197267 -0.03287828
0.37526861 0.18231544 -0.032850862
-0.05189554 -0.14453417 -0.0070331097
-0.092932105 -0.12386458 -0.0098408461
-0.010795403 -0.12405526 -0.0057113171
0.0094704144 -0.10303154 -0.018019915
0.030345041 -0.10355566 -0.0044023991
-0.11350322 -0.082898401 -0.0075529814
0.050431509 -0.082616523 -0.016709089
0.091433018 -0.062181436 -0.015396953
-0.11341962 0.081277259 -0.011172533
-0.072530754 -0.16583657 0.0053492785
-0.093186945 -0.14527479 0.0067117214
-0.031249948 -0.14527406 0.0066975355
0.010072082 -0.12469015 0.008032918
-0.11388648 -0.10407307 0.0090423822
0.051435281 -0.10408576 0.0093696117
0.071526513 -0.083036259 -0.0030781031
0.092838928 -0.083460264 0.010693312
-0.13462245 -0.062800132 0.011391401
0.11274795 -0.062496204 -0.0017665625
-0.13457991 -0.042097069 0.010010004
-0.13458079 -0.021426184 0.010038495
-0.13458079 -0.00075484597 0.010038376
-0.13458079 0.019916402 0.010038376
-0.13458079 0.040587742 0.010038614
-0.11369262 0.10224023 0.00064826012
-0.093444973 -0.16695265 0.023471236
-0.05189554 -0.16669098 0.019222498
-0.010390766 -0.14602162 0.020570397
-0.1142742 -0.12551215 0.025831223
0.031155553 -0.12533151 0.021919489
0.072743475 -0.10462076 0.02327013
0.11437218 -0.083888732 0.024607658
0.13428344 -0.062814571 0.012018561
0.15604107 -0.063135862 0.025932074
-0.13464263 0.061305467 0.012046933
-0.13501257 0.08236216 0.024060965
-0.11396804 0.12339003 0.012574553
-0.031045849 -0.16755249 0.033210993
0.010685321 -0.14677685 0.034587264
0.052458372 -0.12597963 0.035950541
0.094273478 -0.10516126 0.037315249
-0.13513944 -0.08399874 0.028180957
0.13613069 -0.084322095 0.038681269
0.17802516 -0.063460529 0.039990425
-0.13538672 0.10360904 0.036211848
-0.0099783167 -0.16842385 0.047360063
-0.11466679 -0.14722116 0.042831421
0.031981733 -0.1475402 0.048750877
0.073983997 -0.1266344 0.05012846
-0.13566381 -0.10546527 0.0452106
0.11602877 -0.1057076 0.051507354
0.1581161 -0.084759608 0.052887797
-0.15669818 -0.063636497 0.047608733
0.20023929 -0.06378857 0.054195881
-0.15661487 -0.042642605 0.045444369
-0.1566143 -0.021698615 0.045429826
-0.1566143 -0.00075484597 0.045429826
-0.1566143 0.020188786 0.045429826
-0.1566143 0.041132554 0.045429826
-0.15670945 0.062133465 0.047901511
-0.13576379 0.12504755 0.048457861
-0.11506437 -0.16920511 0.060046792
0.011310149 -0.16930337 0.061642885
0.053501364 -0.14831051 0.063048244
-0.13619484 -0.12720379 0.062456369
0.095735937 -0.12729619 0.064455152
0.1380129 -0.10625957 0.065848827
-0.15736257 -0.085128501 0.064870238
0.1803329 -0.085201569 0.067243695
0.22268857 -0.06412039 0.068565726
-0.15718545 0.083476983 0.060268402
0.032823604 -0.17019314 0.076091409
-0.13673265 -0.14921986 0.079922199
0.075248793 -0.14908992 0.077511668
0.11771779 -0.12796488 0.078933597
-0.1580366 -0.10689594 0.082381845
0.16022953 -0.10681743 0.080341816
0.20278476 -0.085648298 0.081751347
-0.17937793 -0.064496078 0.08483088
0.24537386 -0.064455494 0.083072662
-0.17923917 -0.043202762 0.081826568
-0.17923917 -0.021978872 0.081826568
-0.17923917 -0.00075489096 0.081826568
-0.17923917 0.02046909 0.081826568
-0.17923917 0.041693028 0.081826568
-0.17937514 0.062984899 0.084770679
-0.15766522 0.10501483 0.072733283
-0.15814939 0.12674975 0.085312366
-0.13727736 -0.17151853 0.097612262
0.054564845 -0.17109145 0.090678096
0.097226337 -0.1498767 0.092113495
-0.15871871 -0.12894265 0.1001035
0.13993214 -0.12864004 0.093550444
0.18268232 -0.10738119 0.094988823
-0.18019792 -0.086289801 0.10258424
0.22547542 -0.086099796 0.096413732
0.26830208 -0.064794421 0.097748756
-0.17996196 0.084622718 0.097475648
0.076537833 -0.17199944 0.10542047
0.11943924 -0.1506729 0.10688651
0.16238473 -0.12932307 0.10833871
0.20537366 -0.10795038 0.10977721
0.24840872 -0.086556062 0.11123264
0.29147556 -0.065136999 0.11258209
-0.18055138 0.10645828 0.11023664
0.098747134 -0.17291793 0.12033606
-0.15940964 -0.15127462 0.11805451
0.1418895 -0.15147659 0.12180245
0.18507713 -0.13001275 0.12327039
-0.18102853 -0.10836571 0.12056756
0.22831015 -0.10852633 0.12473989
0.27158856 -0.087017283 0.12621081
-0.20268552 -0.065379143 0.12306941
0.31489828 -0.065483257 0.1275748
-0.20247756 -0.043778349 0.11921036
-0.20247756 -0.022266598 0.11921024
-0.20247839 -0.00075489096 0.11922574
-0.20247839 0.020756906 0.11922574
-0.20247756 0.042268571 0.11921024
-0.20266135 0.063858964 0.12262118
-0.18114838 0.12849802 0.12316203
-0.16010956 -0.17389739 0.13623929
0.12119503 -0.17384548 0.13539708
0.16458298 -0.15228982 0.13689482
-0.18186997 -0.1307293 0.138785
0.20801575 -0.13071059 0.13837874
0.25149441 -0.1091084 0.13986397
-0.2036698 -0.087483086 0.14133549
0.29501706 -0.087483086 0.14133549
-0.20336492 0.085798956 0.1356777
0.14388721 -0.17478403 0.15063703
-0.18272243 -0.15338625 0.15724158
0.18752135 -0.15311112 0.15213525
0.23120181 -0.13141517 0.15363526
-0.20466615 -0.10987678 0.15982556
0.27492866 -0.10969637 0.15513682
-0.22664994 -0.066287771 0.16241407
-0.22635384 -0.044369414 0.15760577
-0.22635384 -0.022562245 0.15760601
-0.22634895 -0.00075484597 0.15752661
-0.22634993 0.021051921 0.15754259
-0.22635384 0.042859726 0.15760601
-0.22659416 0.064757153 0.1615082
-0.20407169 0.10794236 0.14879358
-0.20478766 0.13029547 0.16208029
-0.1835869 -0.17634338 0.1759578
0.16682558 -0.17573181 0.16602695
0.2107112 -0.15394209 0.1675576
0.25464243 -0.1321283 0.16907406
-0.22741981 0.087007187 0.17491508
-0.14016123 -0.22141917 0.19126892
0.19001517 -0.17668992 0.18158567
0.2341554 -0.15478233 0.18314934
-0.20567568 -0.13256644 0.1785599
-0.22780679 -0.088710524 0.18119907
-0.22825329 0.10946864 0.18844926
-0.16270924 -0.22238225 0.20378053
-0.11840606 -0.22245662 0.20474625
0.21346162 -0.17765965 0.19733191
-0.20669864 -0.15555799 0.19754386
0.25784943 -0.15562737 0.19883132
-0.22897807 -0.11143154 0.20021796
-0.25129673 -0.067221992 0.20286465
-0.25089535 -0.044977039 0.19707143
-0.25089309 -0.022865675 0.19703877
-0.25089309 -0.00075484597 0.19703865
-0.25089309 0.021355983 0.19703877
-0.25089425 0.043467034 0.19705498
-0.25120047 0.065680169 0.20147526
-0.22909373 0.13214381 0.20209634
-0.096445352 -0.22350386 0.21835101
-0.20773707 -0.17885944 0.21681476
0.23716469 -0.17863813 0.21321988
-0.23016503 -0.13445698 0.21949196
-0.25263453 -0.089972161 0.22217417
-0.25215575 0.088249698 0.21526349
-0.074276164 -0.2245611 0.23208487
-0.27613035 -0.045601804 0.23765194
-0.27613035 -0.023178371 0.23765171
-0.27613035 -0.00075489096 0.23765194
-0.27613035 0.021668497 0.23765194
-0.27613035 0.044092115 0.23765194
-0.25312138 0.11103716 0.22920108
-0.05189554 -0.22562845 0.24594975
-0.096908152 -0.2033117 0.24841142
-0.23136905 -0.15779421 0.23904288
-0.25399157 -0.11303049 0.24176145
-0.27665636 -0.068183169 0.24448502
-0.27651265 0.066630185 0.2426182
-0.2540952 0.13404483 0.24325705
-0.029300297 -0.22670741 0.25996459
-0.21044165 -0.20459987 0.26700532
-0.074468158 -0.20390847 0.25702524
-0.05189554 -0.20391202 0.25707626
-0.029300297 -0.20411207 0.25996459
-0.23258944 -0.18144877 0.25885952
-0.25536591 -0.13640182 0.26159811
-0.27818626 -0.091271229 0.264359
-0.2776047 0.089528829 0.25680459
-0.18846644 -0.20561117 0.28160298
-0.0064874664 -0.20509124 0.2740972
-0.25675908 -0.1600932 0.28170669
-0.30208859 -0.046244521 0.2793957
-0.30208859 -0.023499662 0.27939558
-0.30209005 -0.00075480097 0.27941287
-0.30208859 0.021990014 0.27939558
-0.30208859 0.044734787 0.27939558
-0.27870744 0.11265113 0.27112973
-0.21159647 -0.22889905 0.28843594
-0.23457333 -0.20626743 0.29107392
-0.16627142 -0.20663145 0.2963289
0.016546112 -0.20607986 0.28836679
-0.27973714 -0.11467563 0.28450537
-0.30276164 -0.069172911 0.2873441
-0.30255789 0.067607515 0.28493786
-0.27982238 0.13600118 0.2856127
-0.18946536 -0.23003797 0.30323017
-0.14385422 -0.20766193 0.31120193
0.03980365 -0.20707805 0.30277503
-0.25817385 -0.18411335 0.30212736
-0.28130943 -0.13840318 0.30492985
-0.30449301 -0.092608586 0.30779052
-0.30379584 0.090845175 0.29955721
-0.21306363 -0.25401896 0.3156631
-0.19047982 -0.25482607 0.32519376
-0.23674463 -0.23181631 0.3263315
-0.1212119 -0.20870399 0.32624269
0.063289121 -0.20808728 0.31734157
-0.28290352 -0.16246046 0.32563818
-0.30624992 -0.11637054 0.32853866
-0.32880002 -0.046905641 0.32233536
-0.32880002 -0.023830222 0.32233524
-0.3288033 -0.00075489096 0.32237077
-0.32880166 0.022320664 0.32235312
-0.3288033 0.045396402 0.32237077
-0.32937142 0.068614088 0.32852077
-0.30504456 0.1143128 0.31430411
-0.16796611 -0.25611016 0.34035802
-0.2605952 -0.20945455 0.33707654
0.087003827 -0.20910397 0.33201587
-0.32964149 -0.070191406 0.33144462
-0.33076039 0.092200033 0.343557
-0.30630726 0.13801518 0.32921565
-0.14522368 -0.25740725 0.35567653
0.11095224 -0.21013062 0.34683454
-0.28461716 -0.18693228 0.34789872
-0.30802992 -0.14046454 0.34955943
-0.33159044 -0.093986526 0.35254264
-0.33216333 0.11602341 0.35874438
-0.23896933 -0.25798139 0.36245573
-0.12224944 -0.25871918 0.37116957
-0.26311475 -0.23544292 0.37344313
-0.30983812 -0.1649002 0.37091303
-0.33356014 -0.11811513 0.37386513
-0.35630113 -0.047586557 0.36655974
-0.35630113 -0.02417068 0.36655974
-0.35630661 -0.00075493596 0.3666147
-0.35630479 0.022661213 0.36659646
-0.35630295 0.046076957 0.3665781
-0.35698444 0.069650128 0.37338781
-0.33358216 0.14008844 0.37410355
-0.099039122 -0.26004452 0.38682187
-0.2874369 -0.21274215 0.38452852
-0.35733554 -0.071241081 0.37689638
-0.35853642 0.093596153 0.38889623
-0.075588927 -0.26138204 0.4026171
-0.31193659 -0.18987568 0.39569497
-0.33555606 -0.14258517 0.39547145
-0.35951141 -0.095405988 0.39863908
-0.26569715 -0.26206806 0.41071701
-0.05189554 -0.26273501 0.41859508
-0.33759964 -0.16741565 0.41759408
-0.3846238 -0.048287403 0.41209006
-0.3846238 -0.02452117 0.41209006
-0.38463193 -0.00075502595 0.41216528
-0.38462991 0.023011794 0.41214657
-0.38462788 0.046778254 0.41212761
-0.36010239 0.11778608 0.40454459
-0.027955022 -0.26410055 0.43472064
-0.29032731 -0.2391867 0.42207587
-0.0041303374 -0.23958093 0.42719746
-0.3151378 -0.21613491 0.43349946
-0.36170909 -0.11991406 0.42059934
-0.3858797 -0.072323009 0.42374301
-0.38543692 0.070718244 0.4196347
-0.38702986 0.11893599 0.43441522
-0.38705251 0.14288378 0.43462527
-0.36168635 0.14222544 0.42037225
0.020126756 -0.2408292 0.44341326
-0.34013376 -0.19291371 0.44502664
-0.36394218 -0.14477645 0.44291413
-0.38829362 -0.096868649 0.44614172
-0.38715747 0.095034197 0.43559945
-0.38771012 0.16715235 0.44072759
-0.29328951 -0.26628816 0.46055591
-0.0037633367 -0.26548204 0.45103455
-0.41380951 -0.049010161 0.45902324
-0.41380951 -0.02488246 0.45902324
-0.41381848 -0.00075498095 0.45910084
-0.41381621 0.023373127 0.45908153
-0.41381174 0.047500517 0.45904267
-0.4129985 0.071465664 0.45199955
-0.41299626 0.095538653 0.45198035
-0.41300294 0.11961417 0.45203829
-0.4129985 0.14368622 0.45199955
-0.41299626 0.16775876 0.45198047
-0.36514148 0.16791597 0.45489824
-0.4129985 0.19183338 0.45199978
-0.38974461 0.19230179 0.45960534
-0.31842044 -0.24305038 0.47226584
-0.36622334 -0.17000832 0.46570837
-0.39073643 -0.12176955 0.46880805
-0.41531378 -0.07343851 0.47205055
-0.36709693 0.19321518 0.47443807
-0.34373981 -0.2196382 0.48406315
-0.39322135 -0.14703746 0.49186528
-0.41687158 0.21823077 0.4855417
-0.36925167 -0.19605099 0.4959693
-0.41798171 -0.098377787 0.49515569
-0.44389376 -0.049754564 0.50738549
-0.44389623 -0.025254998 0.50740552
-0.4439061 -0.00075480097 0.50748551
-0.44390363 0.023745621 0.5074656
-0.44301409 0.048134867 0.50024319
-0.44301409 0.072579719 0.50024319
-0.44300917 0.097023539 0.50020325
-0.44301656 0.12147033 0.50026321
-0.44302389 0.14591829 0.50032294
-0.44301656 0.17036058 0.50026321
-0.44301164 0.19480319 0.5002234
-0.44302389 0.21925475 0.50032294
-0.39433894 0.2193872 0.50223505
-0.32178602 -0.27064538 0.51201105
-0.34743908 -0.24704121 0.52410901
-0.39575383 -0.17268406 0.51536369
-0.42068446 -0.12368452 0.51856196
-0.44568002 -0.07458955 0.52188778
-0.37328762 -0.22325721 0.53629923
-0.3993361 -0.19929224 0.54860294
-0.42342976 -0.1493686 0.54233706
-0.44861448 -0.09993457 0.54571259
-0.47397301 0.073729366 0.55001915
-0.47397569 0.098558053 0.55003977
-0.47398373 0.12338859 0.55010128
-0.47397834 0.14821556 0.55006027
-0.47397301 0.17304178 0.55001926
-0.47397301 0.19786984 0.55001926
-0.42623061 -0.17544462 0.56659341
-0.45159554 -0.12566108 0.56991589
-0.47492373 -0.050522808 0.55728424
-0.47492912 -0.025639234 0.55732548
-0.47493723 -0.00075493596 0.55738747
-0.47493452 0.024129676 0.55736673
-0.47492641 0.049013302 0.55730486
-0.37743175 -0.25116733 0.57770979
-0.47702619 -0.075778075 0.57334983
-0.40383121 -0.22699928 0.5903126
-0.45461917 -0.15177628 0.59446478
-0.48024556 -0.10154323 0.5979507
-0.43043604 -0.20264314 0.60301316
-0.50693923 -0.051315218 0.6087513
-0.50694805 -0.026035571 0.60881507
-0.50695693 -0.00075502595 0.60887909
-0.50695401 0.02452606 0.60885775
-0.50694513 0.049806248 0.60879385
-0.45770469 -0.17829646 0.61951649
-0.48351696 -0.12770244 0.62294841
-0.50939494 -0.077004835 0.62647402
-0.50842792 0.075333796 0.6194948
-0.40844417 -0.25543243 0.63311517
-0.5109418 0.10125539 0.63763726
-0.43541729 -0.23086804 0.64615202
-0.46260375 -0.20610896 0.65929163
-0.48683298 -0.15426233 0.64828753
-0.51291358 -0.10320341 0.65186727
-0.51348048 0.12746306 0.65595865
-0.49022058 -0.18124181 0.67417383
-0.53999394 -0.052133631 0.66190565
-0.5400036 -0.026444914 0.66197181
-0.54001319 -0.00075502595 0.66203797
-0.54000998 0.024935402 0.66201556
-0.53999716 0.05062421 0.66192782
-0.54169762 0.076582156 0.67355382
-0.44053391 -0.25984713 0.69046342
-0.5164867 -0.12980813 0.67765439
-0.54283351 -0.078271374 0.68131983
-0.05189554 0.20576425 0.67820907
-0.46810511 -0.23487286 0.70395708
-0.52013129 -0.15683366 0.70395684
-0.5444392 0.10293856 0.69229805
-0.07784494 0.20684038 0.69568205
-0.02594856 0.20682095 0.69536793
-0.49589822 -0.20969743 0.71755898
-0.54667252 -0.10491844 0.70756745
-0.57413626 -0.052978948 0.71680927
-0.57414675 -0.026867393 0.71687722
-0.57415372 -0.00075493596 0.71692264
-0.5741502 0.02535779 0.71689987
-0.57413626 0.05146917 0.71680927
-0.54720831 0.12959057 0.71123087
-0.52391607 -0.18431857 0.73127091
-0.55058879 -0.13198982 0.73434317
-0.57607728 0.077872366 0.72941625
-0.47375581 -0.26441762 0.74983478
-0.5774017 -0.079580836 0.73801887
-0.57906407 0.10467879 0.74881613
-0.10445395 0.18319954 0.73852515
-0.10445359 0.20947731 0.73850203
-0.58207428 0.1317898 0.76836801
-0.61162335 0.079206213 0.78717422
-0.13174695 0.18556498 0.78242409
0 0 0 1 0 0 0 1 0 0 0 1 0 0 0 0 0 855 1 0 0
