ply
format ascii 1.0
comment PCL generated
element vertex 1334
property float x
property float y
property float z
element camera 0
property float view_px
property float view_py
property float view_pz
property float x_axisx
property float x_axisy
property float x_axisz
property float y_axisx
property float y_axisy
property float y_axisz
property float z_axisx
property float z_axisy
property float z_axisz
property float focal
property float scalex
property float scaley
property float centerx
property float centery
property int viewportx
property int viewporty
property float k1
property float k2
end_header
0.11239588 0.40741631 -0.17420089
0.11248361 0.54662961 -0.17040181
0.14059708 0.57626683 -0.15875852
0.16907349 -0.70774251 -0.14234233
0.22443262 -0.70566112 -0.153157
0.11281485 -0.67723721 -0.15605915
0.2242741 -0.67722994 -0.15609884
0.22448623 -0.62216663 -0.15216208
0.22484082 -0.59533501 -0.14558148
0.22432867 -0.56592578 -0.1550858
0.22503263 -0.53996354 -0.14202225
0.22435117 -0.51023793 -0.15466821
0.14086521 -0.48296607 -0.150051
0.19721282 -0.344457 -0.13869643
0.19720358 -0.31644112 -0.13889694
0.19719523 -0.28842971 -0.13907743
0.19718689 -0.26042104 -0.13925791
0.19717857 -0.23241524 -0.13943839
0.19717023 -0.20441231 -0.13961875
0.19716191 -0.17641202 -0.139799
0.19715357 -0.1484146 -0.13997936
0.19714618 -0.12042052 -0.14013958
0.19714895 -0.092434108 -0.14007962
0.19716004 -0.0644494 -0.13983917
0.19717392 -0.036461528 -0.13953853
0.19718412 -0.0084689688 -0.13931799
0.19719246 0.019526636 -0.13913763
0.19719985 0.047524646 -0.13897729
0.19721377 0.07552851 -0.1386764
0.19673812 0.35448948 -0.14897454
0.22440153 0.35401323 -0.15373373
0.2250337 0.4111343 -0.14200222
0.2246612 0.43825665 -0.14891458
0.22483328 0.46659479 -0.14572144
0.22498086 0.49491921 -0.14298272
0.22514594 0.52333325 -0.13991928
0.22456884 0.57758117 -0.15062881
0.16995794 -0.88105166 -0.11936355
0.16989714 -0.85253882 -0.12094367
0.16986361 -0.82420886 -0.12181437
0.19793183 -0.82391536 -0.12312925
0.16985351 -0.79602313 -0.12207735
0.19765487 -0.79450387 -0.12912607
0.16982624 -0.76774913 -0.12278533
0.19744748 -0.76549804 -0.13361609
0.22623289 -0.45878673 -0.11974859
0.16982237 -0.43027964 -0.12288654
0.19730181 -0.4286764 -0.13677037
0.22598749 -0.43011621 -0.12430203
0.16967613 -0.40174949 -0.1266855
0.22594395 -0.40191919 -0.12511015
0.19728419 -0.40062159 -0.13715172
0.16965204 -0.37359536 -0.12731111
0.19724435 -0.3725242 -0.13801467
0.22590041 -0.37373474 -0.12591827
0.16964042 -0.34548074 -0.12761366
0.22585908 -0.34556648 -0.1266855
0.16962332 -0.31735894 -0.1280576
0.22583514 -0.31743756 -0.12712955
0.16960624 -0.28924379 -0.12850118
0.22581121 -0.28931528 -0.12757325
0.16958916 -0.2611357 -0.12894475
0.22578621 -0.26119843 -0.12803733
0.16958141 -0.23304917 -0.12914646
0.22575796 -0.23308514 -0.12856174
0.16956744 -0.20495705 -0.12950933
0.22573298 -0.20498319 -0.12902534
0.16954961 -0.17686594 -0.1299727
0.22570908 -0.17688926 -0.1294688
0.16953254 -0.14878275 -0.13041592
0.22568518 -0.14880219 -0.12991226
0.16951859 -0.12070885 -0.13077843
0.22566131 -0.12072186 -0.1303556
0.16952324 -0.092651546 -0.13065779
0.22566131 -0.092658639 -0.13035548
0.16953486 -0.064595357 -0.13035548
0.22566998 -0.064597875 -0.13019431
0.16954342 -0.036533892 -0.13013399
0.22567868 -0.036534712 -0.13003314
0.22568411 -0.0084690275 -0.1299324
0.16954419 -0.0084689688 -0.13011372
0.16954419 0.01959613 -0.13011372
0.22569171 0.019598531 -0.12979126
0.16954494 0.047661521 -0.13009357
0.2256982 0.047668025 -0.1296705
0.16954494 0.075726733 -0.13009357
0.2257373 0.075753219 -0.12894475
0.16954729 0.10379382 -0.13003314
0.19722858 0.10353765 -0.13835549
0.22575143 0.10383537 -0.12868285
0.16954884 0.13186097 -0.12999284
0.19724247 0.13155065 -0.13805473
0.22576556 0.13192162 -0.12842047
0.16955426 0.15993357 -0.1298517
0.19725358 0.15956584 -0.13781393
0.22577968 0.16001174 -0.12815845
0.16955814 0.18800604 -0.12975097
0.19726378 0.18758348 -0.13759327
0.22579274 0.18810496 -0.12791634
0.16956666 0.21608761 -0.12952936
0.19727769 0.21560961 -0.13729215
0.22583076 0.21623053 -0.12721014
0.16957599 0.24417393 -0.12928736
0.19729254 0.24364154 -0.13697112
0.2258732 0.24437226 -0.12642312
0.16958451 0.27226242 -0.12906575
0.19730735 0.27167866 -0.13664997
0.22591236 0.27252167 -0.12569606
0.16959462 0.30035773 -0.12880361
0.19732311 0.29972234 -0.13630879
0.22595376 0.30068591 -0.12492824
0.14158529 0.35672209 -0.12666523
0.16924316 0.3555944 -0.13793421
0.2257688 0.55310243 -0.12835991
0.1977331 0.63750249 -0.12743223
0.19785529 0.66607672 -0.12478697
0.19797015 0.69466156 -0.12230003
0.19810483 0.72337043 -0.11938393
0.14241746 -0.91405815 -0.099639893
0.17058006 -0.91318101 -0.10320091
0.1423582 -0.88529921 -0.10156453
0.19878906 -0.88458192 -0.10457027
0.14230341 -0.85660344 -0.10334396
0.19831008 -0.85392547 -0.11494005
0.14227635 -0.82813621 -0.10422289
0.22729439 -0.82906783 -0.1000495
0.14225809 -0.79974395 -0.10481536
0.22688466 -0.79913235 -0.10765278
0.14223167 -0.7713058 -0.10567319
0.22653577 -0.76954877 -0.1141274
0.19870132 -0.74289328 -0.10646915
0.22663328 -0.7417227 -0.11231756
0.25522569 -0.6864897 -0.10597944
0.25518045 -0.48863736 -0.10671413
0.1704244 -0.46032682 -0.10724473
0.19837674 -0.45955691 -0.11349714
0.25522944 -0.43223894 -0.10591805
0.14210482 -0.40356997 -0.10979307
0.25510129 -0.40376338 -0.10799932
0.14209227 -0.37530765 -0.11020052
0.25505233 -0.37544844 -0.10879445
0.1420885 -0.34707806 -0.11032271
0.25498456 -0.3471176 -0.10989499
0.14207472 -0.31882259 -0.1107707
0.25494817 -0.31884673 -0.11048567
0.14206092 -0.29057422 -0.11121857
0.25491306 -0.29058683 -0.11105573
0.14205652 -0.2623539 -0.11136091
0.2548767 -0.26233411 -0.11164606
0.14205527 -0.23414192 -0.1114018
0.25484163 -0.23409177 -0.11221588
0.14204463 -0.20591407 -0.11174774
0.25481531 -0.20586585 -0.112643
0.14203021 -0.17768608 -0.112216
0.25478899 -0.17764664 -0.11307025
0.14202145 -0.14947227 -0.11250079
0.25476271 -0.14943394 -0.11349714
0.14201957 -0.12126971 -0.1125617
0.25473642 -0.12122776 -0.11392403
0.14202332 -0.09307237 -0.11243951
0.25473768 -0.093038559 -0.11390364
0.14203271 -0.064875841 -0.11213446
0.25474393 -0.064850293 -0.11380208
0.14203146 -0.036672227 -0.11217499
0.25475019 -0.036660396 -0.11370051
0.1420321 -0.0084689688 -0.11215472
0.25476897 -0.0084689688 -0.11339545
0.14203084 0.019734116 -0.11219537
0.25478649 0.019726967 -0.1131109
0.14202958 0.047936499 -0.11223614
0.25480655 0.047928005 -0.11278546
0.14202958 0.076138996 -0.11223626
0.25485042 0.076142862 -0.11207342
0.14203084 0.10434319 -0.11219549
0.25486791 0.10435556 -0.11178851
0.14203084 0.13254605 -0.11219549
0.25488546 0.13257265 -0.11150348
0.14203523 0.16075563 -0.11205316
0.25490305 0.16079424 -0.11121869
0.14203461 0.18895867 -0.11207354
0.2549206 0.18902001 -0.11093354
0.1420415 0.21717645 -0.11184955
0.25496072 0.21727277 -0.11028194
0.14204338 0.24538623 -0.11178851
0.25500587 0.24554144 -0.10954857
0.14205027 0.27360958 -0.11156476
0.25504857 0.27381825 -0.10885561
0.14205214 0.30182257 -0.1115036
0.25509 0.30210406 -0.10818291
0.25483659 0.3581599 -0.11229718
0.25492182 0.38651147 -0.11091316
0.25527975 0.44365293 -0.10510123
0.25553164 0.58560205 -0.10101187
0.1700204 0.63921839 -0.11774158
0.22652701 0.63982922 -0.11428976
0.17014307 0.66796738 -0.11455393
0.2266289 0.66836548 -0.11239886
0.17023543 0.69661397 -0.11215472
0.22675174 0.69700581 -0.11011887
0.17034122 0.72536743 -0.10940588
0.22688136 0.72570616 -0.1077137
0.17042989 0.75407082 -0.10710192
0.1982435 0.75214195 -0.11638188
0.22703865 0.7545504 -0.1047951
0.17053679 0.78291154 -0.10432506
0.19841433 0.78110999 -0.11268365
0.22722265 0.78354645 -0.10138023
0.17062414 0.81168187 -0.10205531
0.19858453 0.81013191 -0.10899806
0.1707108 0.84048319 -0.099803567
0.19879282 0.83940119 -0.10448849
0.11451612 -0.91830689 -0.082391977
0.19961596 -0.91725361 -0.086667657
0.11447793 -0.88947988 -0.084045768
0.11444455 -0.86072624 -0.0854913
0.22789103 -0.85992128 -0.08897686
0.11442167 -0.83209652 -0.086481929
0.11440213 -0.80351335 -0.087327838
0.11437833 -0.77490467 -0.088358402
0.11442357 -0.74691015 -0.086399436
0.14262791 -0.74562806 -0.092805386
0.17073527 -0.74435443 -0.099168539
0.25658664 -0.74741447 -0.083880424
0.25624359 -0.66116518 -0.089450479
0.25610921 -0.60405618 -0.091632962
0.2561675 -0.57584065 -0.090686083
0.25610793 -0.54733068 -0.091653466
0.25646201 -0.51976615 -0.085904241
0.11427849 -0.40541407 -0.092681766
0.11427658 -0.37705272 -0.092764139
0.11427421 -0.34869057 -0.092866898
0.11426377 -0.32030037 -0.093319297
0.11426234 -0.29194736 -0.093380928
0.11426139 -0.26359674 -0.093421817
0.11426044 -0.2352466 -0.093463182
0.11425237 -0.20688075 -0.093812585
0.11424715 -0.1785256 -0.094038606
0.1142462 -0.15018131 -0.094079614
0.11424478 -0.12183689 -0.094141364
0.11424763 -0.093497694 -0.094018102
0.11424857 -0.065155447 -0.093976974
0.11424715 -0.036811799 -0.094038486
0.1142462 -0.0084689688 -0.094079614
0.11424526 0.019873159 -0.094120622
0.11424336 0.048214056 -0.094202995
0.11424336 0.076555476 -0.094203115
0.1142424 0.10489579 -0.094244242
0.11424288 0.13323773 -0.094223499
0.11424336 0.16158016 -0.094202995
0.11424288 0.18992053 -0.094223619
0.11424574 0.21826951 -0.094100356
0.11424478 0.24660902 -0.094141245
0.1142481 0.27496198 -0.093997359
0.11424715 0.30330154 -0.094038725
0.2568261 0.33294186 -0.079991817
0.25612569 0.41698134 -0.091365218
0.25626898 0.4740127 -0.08903861
0.25589272 0.50154722 -0.095147848
0.25661844 0.53160518 -0.083363652
0.25577265 0.55791569 -0.097097754
0.11455912 0.64580661 -0.080530167
0.14243007 0.64249569 -0.099230051
0.25580549 0.64296764 -0.096564054
0.14251027 0.67127967 -0.096625686
0.25597245 0.67179191 -0.093853831
0.14257665 0.70001733 -0.094470024
0.25628799 0.70112222 -0.088729501
0.14263994 0.72876835 -0.092414498
0.25678021 0.73110563 -0.080737114
0.14271346 0.75761974 -0.090027332
0.14276737 0.78637105 -0.088276029
0.14283532 0.81525064 -0.086069226
0.22741917 0.81264669 -0.097733498
0.14289635 0.84411269 -0.084087014
0.22775456 0.84239852 -0.091509342
0.14297275 0.87312406 -0.08160615
0.17081261 0.86941236 -0.097159266
0.19904897 0.86898673 -0.098942995
0.22818905 0.87268484 -0.083446383
0.17098019 0.89880383 -0.092805266
0.19935715 0.8989355 -0.092270613
0.17136428 0.92969108 -0.082826257
0.19989273 0.93023747 -0.080675006
0.08634755 -0.92252886 -0.065253139
0.086329892 -0.89369053 -0.066400647
0.22864223 -0.89162982 -0.075036526
0.086313188 -0.86488479 -0.067485094
0.086295865 -0.83608627 -0.06861043
0.25798467 -0.83774531 -0.061178923
0.086279511 -0.80731881 -0.069672585
0.2570993 -0.80605072 -0.075555682
0.086262532 -0.77855915 -0.070775867
0.25694093 -0.77703106 -0.078127384
0.08624652 -0.74982905 -0.071815848
0.086239792 -0.72123128 -0.072252631
0.11500312 -0.72333819 -0.061304569
0.086235628 -0.6926707 -0.072522998
0.08623115 -0.66411078 -0.072814107
0.22879446 -0.66421765 -0.072211027
0.086226985 -0.6355589 -0.073084235
0.086222827 -0.6070112 -0.073354244
0.08621867 -0.57846761 -0.073624372
0.086214513 -0.54992813 -0.073894501
0.086210355 -0.52139288 -0.074164391
0.086205877 -0.49285904 -0.074455261
0.11497608 -0.49442685 -0.062475204
0.086201727 -0.46433222 -0.074725151
0.11498042 -0.46586421 -0.062287211
0.08619757 -0.43580952 -0.07499516
0.11498477 -0.4372988 -0.06209898
0.14359143 -0.43736631 -0.061513543
0.28641677 -0.43713215 -0.063541174
0.086195648 -0.40730688 -0.075119615
0.2862938 -0.40836346 -0.065315723
0.086194694 -0.37881228 -0.075181961
0.28622296 -0.37969729 -0.066338301
0.086193413 -0.35031658 -0.075264931
0.2860598 -0.35092369 -0.068693638
0.086192772 -0.32182574 -0.075306416
0.28596166 -0.32226583 -0.070109844
0.086192131 -0.29333568 -0.07534802
0.28586507 -0.29363158 -0.071503758
0.086191498 -0.26484606 -0.075389624
0.28576857 -0.26501873 -0.072897077
0.086190857 -0.23635712 -0.075431108
0.28566924 -0.23642485 -0.074330688
0.086190216 -0.20786886 -0.075472593
0.28557432 -0.20785661 -0.07570076
0.086189583 -0.1793813 -0.075513959
0.28548089 -0.17931035 -0.077049375
0.086188614 -0.15089351 -0.075576305
0.28540045 -0.15079209 -0.078210473
0.086187981 -0.1224073 -0.075617909
0.28531864 -0.12229111 -0.079391122
0.08618734 -0.093921795 -0.075659275
0.28531003 -0.093832791 -0.079515457
0.086186379 -0.065436579 -0.075721502
0.28531721 -0.065379687 -0.079411864
0.086185426 -0.036952365 -0.075783849
0.28532439 -0.036925118 -0.07930851
0.086184144 -0.0084690275 -0.075866818
0.28533301 -0.0084689688 -0.079184055
0.08618319 0.020013256 -0.075929165
0.28534731 0.019989759 -0.078976989
0.086181596 0.04849378 -0.076032996
0.28565773 0.04851751 -0.074496746
0.086180627 0.076973833 -0.076095104
0.28541338 0.076929249 -0.078023672
0.086179994 0.1054533 -0.076136708
0.28543779 0.10540602 -0.077671289
0.086179674 0.13393313 -0.076157331
0.28546509 0.13389006 -0.077277422
0.086179033 0.16241154 -0.076198936
0.28548664 0.16237621 -0.076966405
0.086178392 0.19088955 -0.076240301
0.28550819 0.19086723 -0.076655269
0.086177751 0.21936685 -0.076281905
0.28554988 0.21938092 -0.076053619
0.086177118 0.24784334 -0.07632339
0.28560019 0.24791236 -0.075327396
0.086176477 0.27631935 -0.076364875
0.28564766 0.27645192 -0.074642062
0.086175844 0.30479473 -0.076406479
0.28569946 0.30500737 -0.073894501
0.08618255 0.33331347 -0.075970531
0.11489121 0.33422056 -0.066150308
0.28585643 0.33371449 -0.071628571
0.086200766 0.36191356 -0.074787498
0.11490903 0.36285517 -0.065378547
0.086219311 0.39053455 -0.07358253
0.11492687 0.39150205 -0.064606071
0.28635022 0.39151317 -0.064501762
0.08623755 0.41917145 -0.072398067
0.086255804 0.44782689 -0.07121253
0.086274065 0.47650072 -0.070026398
0.086292341 0.5051927 -0.068839431
0.086310625 0.5339033 -0.067651749
0.086328924 0.56263208 -0.066463351
0.08634723 0.59137934 -0.065274
0.11503018 0.59221053 -0.060132861
0.086365551 0.62014514 -0.064084172
0.25751033 0.61933255 -0.068881154
0.28662536 0.62074697 -0.060530543
0.086387098 0.64896637 -0.062684178
0.086410284 0.67782855 -0.061178923
0.11459499 0.6745404 -0.078977108
0.11464237 0.703394 -0.07692492
0.11467543 0.73215508 -0.075493217
0.114721 0.76105046 -0.073520422
0.25714406 0.76077861 -0.074828982
0.11475844 0.78990078 -0.071899056
0.2574552 0.79035819 -0.069776654
0.114794 0.81875783 -0.070359468
0.25785208 0.82032657 -0.063331962
0.11483487 0.84769154 -0.068589449
0.11488494 0.87674761 -0.066421509
0.11490373 0.90550333 -0.065607905
0.14304605 0.90214884 -0.079225421
0.22871721 0.90352362 -0.073645115
0.11496208 0.93470681 -0.063081264
0.14347759 0.93416578 -0.065211415
0.11547959 -0.9573375 -0.040672541
0.14418371 -0.95692939 -0.042279243
0.057916511 -0.92679524 -0.047933459
0.057908408 -0.89784628 -0.048986554
0.057901438 -0.86894774 -0.049891591
0.057893343 -0.84003025 -0.050943255
0.057885736 -0.81114274 -0.051931858
0.057878613 -0.78228354 -0.052856445
0.057871178 -0.75343049 -0.053822637
0.057866491 -0.72466081 -0.054431558
0.25856709 -0.72518235 -0.051721573
0.057862937 -0.69592786 -0.054893374
0.057859868 -0.66721308 -0.05529201
0.28682557 -0.66679728 -0.057640672
0.057857767 -0.6385259 -0.055564761
0.25836015 -0.63860768 -0.055082202
0.28710026 -0.63884586 -0.053675771
0.057855666 -0.60984278 -0.055837512
0.28719488 -0.61041301 -0.052310109
0.057853568 -0.58116394 -0.056110263
0.28726915 -0.58191419 -0.051237822
0.057851307 -0.55248636 -0.056403756
0.28720653 -0.55310977 -0.052141786
0.05784921 -0.52381605 -0.056676507
0.28697371 -0.52397889 -0.055501819
0.057847112 -0.49515006 -0.056948781
0.057845011 -0.46648809 -0.057221532
0.14408296 -0.46792543 -0.045551419
0.28755212 -0.46772814 -0.047153711
0.057842914 -0.43783045 -0.057493925
0.057841785 -0.40919054 -0.057640553
0.057841301 -0.38056129 -0.057703495
0.057840656 -0.35193107 -0.057787299
0.057840332 -0.3233057 -0.05782938
0.057840012 -0.29468092 -0.057871222
0.057839688 -0.26605684 -0.057913184
0.057839364 -0.23743336 -0.057955027
0.029218815 -0.20976125 -0.040355444
0.057839043 -0.20881055 -0.057996988
0.029218815 -0.18100323 -0.040397406
0.057838723 -0.18018837 -0.058038712
0.029218815 -0.15224597 -0.040439844
0.057838399 -0.15156686 -0.058080792
0.029218815 -0.12348917 -0.040482163
0.057837915 -0.12294537 -0.058143616
0.029218815 -0.094733141 -0.040524483
0.057837591 -0.094325386 -0.058185339
0.029218815 -0.065977462 -0.040587902
0.057837106 -0.065705582 -0.058248162
0.029218815 -0.037222773 -0.040651441
0.057836786 -0.037086956 -0.058290243
0.029218815 -0.0084690275 -0.040735841
0.057836141 -0.0084689101 -0.058374047
0.029218815 0.020283606 -0.04079926
0.057835497 0.020147845 -0.058457732
0.029218815 0.049034543 -0.040905118
0.057834849 0.048763134 -0.058541656
0.029218815 0.077784829 -0.040968537
0.057834368 0.077377722 -0.05860436
0.029218815 0.10653488 -0.041010976
0.057834044 0.10599195 -0.058646441
0.029218815 0.13528429 -0.041053295
0.057833724 0.13460554 -0.058688164
0.029218815 0.16403411 -0.041074157
0.0578334 0.16321856 -0.058730006
0.029218815 0.19278118 -0.041137695
0.057833076 0.19183087 -0.058771968
0.029218815 0.22152835 -0.041180015
0.057832755 0.22044246 -0.058813691
0.029218815 0.2502768 -0.041201115
0.057832431 0.24905364 -0.058855653
0.029218815 0.27902293 -0.041243434
0.057832107 0.27766398 -0.058897614
0.029218815 0.30776682 -0.041306734
0.057831787 0.3062737 -0.058939576
0.029218815 0.33656445 -0.040778279
0.057835497 0.33493116 -0.058457732
0.14392857 0.33566019 -0.050564766
0.22964174 0.33511329 -0.05648756
0.057844691 0.3636674 -0.057263374
0.057854049 0.39242432 -0.05604744
0.057863258 0.4211978 -0.054851294
0.28679651 0.42082709 -0.058059812
0.05787247 0.44998962 -0.053654552
0.28703046 0.44986278 -0.054683328
0.057881691 0.47879991 -0.052457094
0.28727934 0.47897869 -0.051090598
0.057890914 0.50762868 -0.051258922
0.28734785 0.50778908 -0.050101995
0.057900142 0.53647614 -0.050059915
0.28728229 0.53633165 -0.051048517
0.057909377 0.56534231 -0.048860073
0.057919592 0.59424728 -0.047533154
0.057929814 0.62317312 -0.046205163
0.11504371 0.62091339 -0.059546709
0.14405502 0.62313032 -0.046458125
0.20145658 0.62306947 -0.046816707
0.2295751 0.62122226 -0.057724476
0.057940535 0.6521306 -0.044812799
0.28677765 0.64973688 -0.058331966
0.057952233 0.68113285 -0.043292999
0.28739306 0.67999572 -0.049449563
0.057963293 0.71014291 -0.041856408
0.086432829 0.70670623 -0.059714198
0.28778303 0.70976472 -0.043820977
0.086455405 0.73560667 -0.058248162
0.057974525 0.73917925 -0.040397525
0.086477987 0.76452976 -0.056781292
0.086500593 0.79347581 -0.055312991
0.08652322 0.8224448 -0.053843617
0.086546183 0.85144156 -0.052352071
0.25831494 0.85064143 -0.055816412
0.08656916 0.88046139 -0.050859213
0.25874332 0.88093835 -0.048860073
0.08659184 0.90949935 -0.049386263
0.086696059 0.93990552 -0.042617202
0.22998926 0.93802017 -0.050038815
0.08693251 -0.96074516 -0.027258873
0.029218815 -0.93108088 -0.030536294
0.029218815 -0.90204126 -0.031407952
0.029218815 -0.87301522 -0.032279015
0.029218815 -0.84398842 -0.033213615
0.029218815 -0.81500816 -0.033998966
0.029218815 -0.78602219 -0.034868956
0.029218815 -0.75706685 -0.03565383
0.029218815 -0.72814 -0.036353469
0.14431465 -0.72781789 -0.038027167
0.28845468 -0.72856873 -0.034126282
0.029218815 -0.69926709 -0.036819577
0.28869015 -0.70039254 -0.030727625
0.029218815 -0.67040133 -0.037285686
0.029218815 -0.64154261 -0.037751913
0.029218815 -0.61269808 -0.038175344
0.029218815 -0.58388293 -0.038450599
0.00031285547 -0.55768216 -0.020879269
0.029218815 -0.55507195 -0.038725853
0.00031499378 -0.52873784 -0.021156907
0.029218815 -0.52626526 -0.039001226
0.00031729415 -0.49979475 -0.021456242
0.029218815 -0.49746281 -0.039276242
0.00031943433 -0.47085902 -0.021733999
0.029218815 -0.46866459 -0.039551258
0.26016545 -0.47036231 -0.025767207
0.00032157078 -0.44192758 -0.022011638
0.029218815 -0.43986818 -0.039847493
0.00032288767 -0.413012 -0.022182345
0.029218815 -0.41109219 -0.03999567
0.00032338127 -0.38410962 -0.022246599
0.029218815 -0.38232708 -0.04005909
0.00032387488 -0.35520819 -0.022310734
0.029218815 -0.35356295 -0.040122509
0.0003242027 -0.32630974 -0.022353411
0.029218815 -0.32480142 -0.040165067
0.00032453239 -0.2974118 -0.022396088
0.029218815 -0.29604068 -0.040207148
0.3181518 -0.29740193 -0.022524238
0.00032486022 -0.26851454 -0.022438645
0.029218815 -0.26728067 -0.040249467
0.31799409 -0.26836666 -0.024572968
0.0003251899 -0.23961796 -0.022481441
0.029218815 -0.2385212 -0.040291786
0.31783652 -0.23936313 -0.026619673
0.00032551773 -0.21072207 -0.022524118
0.31767422 -0.21038772 -0.028728247
0.00032601133 -0.18182582 -0.022588372
0.31754321 -0.18146372 -0.03042984
0.00032633916 -0.15293133 -0.022631049
0.31740576 -0.15256248 -0.032215238
0.00032666884 -0.12403761 -0.022673607
0.31727991 -0.12369337 -0.033850312
0.00032699667 -0.095144466 -0.022716284
0.31725866 -0.094881028 -0.034126282
0.00032749213 -0.066251613 -0.022780418
0.31724072 -0.066073313 -0.034359932
0.00032798387 -0.037359826 -0.022844553
0.3172276 -0.037269823 -0.034529567
0.00032864138 -0.0084689688 -0.022929907
0.31719986 -0.0084689101 -0.034890175
0.00032913126 0.020420538 -0.022993922
0.31718028 0.020327082 -0.035144687
0.00032995641 0.049308643 -0.023100495
0.31724232 0.04913573 -0.034338593
0.00033028424 0.078196742 -0.023143411
0.31724072 0.07793764 -0.034359694
0.00033061393 0.10708378 -0.023185968
0.31724232 0.10674049 -0.034338593
0.00033094175 0.13597049 -0.023228765
0.3172456 0.13554439 -0.034296155
0.00033127144 0.1648563 -0.023271561
0.3172456 0.16434707 -0.034296274
0.0003315974 0.19374147 -0.023314238
0.31724232 0.19314744 -0.034338593
0.000332091 0.22262472 -0.023378253
0.31731912 0.22201125 -0.033340812
0.00033225492 0.25151002 -0.023399591
0.31738943 0.25088465 -0.032427669
0.0003325846 0.2803933 -0.023442268
0.31746301 0.2797752 -0.03147161
0.00033307821 0.30927426 -0.023506284
0.31753829 0.30868247 -0.030493617
0.00032864138 0.33821312 -0.022929907
0.17359084 0.3380239 -0.024978161
0.2020888 0.33727103 -0.0331285
0.31766605 0.3376677 -0.028834462
0.00031927042 0.36722514 -0.021712303
0.029218815 0.36543787 -0.039572477
0.28870487 0.3663443 -0.030514836
0.31757432 0.36639309 -0.03002584
0.029218815 0.39432994 -0.038366079
0.31797436 0.39578879 -0.024828911
0.029218815 0.42324311 -0.037137389
0.029218815 0.4521727 -0.035929203
0.029218815 0.48112091 -0.034720302
0.029218815 0.51008785 -0.033510685
0.029218815 0.5390892 -0.032194018
0.029218815 0.56811762 -0.03083396
0.029218815 0.59716344 -0.029494166
0.28825635 0.59595186 -0.036989093
0.029218815 0.62623376 -0.028132081
0.17306006 0.6244325 -0.038768172
0.029218815 0.65532517 -0.026768804
0.029218815 0.68446928 -0.025234103
0.029218815 0.71361274 -0.023826241
0.029218815 0.74278677 -0.022374749
0.28830335 0.73999727 -0.036310792
0.029218815 0.77197856 -0.020943284
0.05798576 0.76823866 -0.038937449
0.28872257 0.77004224 -0.030259967
0.057996683 0.79731143 -0.03751874
0.058008268 0.82642514 -0.036014199
0.058019534 0.85555261 -0.034550667
0.05803097 0.88470769 -0.033064842
0.058041926 0.91387039 -0.031641483
0.26016545 0.91531765 -0.025767207
0.058110796 0.94496638 -0.022694826
0.058207273 -0.96508825 -0.010162234
0.0002516862 -0.93541718 -0.012933016
0.00025746785 -0.90627074 -0.013684154
0.00026390702 -0.8771162 -0.014520764
0.00026935339 -0.84800327 -0.015228271
0.00027446821 -0.81891072 -0.015892744
0.00028122962 -0.78978378 -0.016771197
0.29061034 -0.79264355 -0.0030124187
0.00028617494 -0.76071757 -0.017413616
0.28939912 -0.76010102 -0.020494461
0.00029144995 -0.73165309 -0.018098831
0.00029507466 -0.70263875 -0.01856935
0.0002986975 -0.67363173 -0.019040346
-0.028897762 -0.64775145 -0.0010910034
0.00030232221 -0.64463186 -0.019510746
-0.02889045 -0.61861622 -0.0015661716
0.00030594319 -0.61563933 -0.019981265
-0.028883137 -0.58948857 -0.0020411015
0.00030972809 -0.58665067 -0.020473123
-0.028875496 -0.5603649 -0.0025376081
0.31946129 -0.55992973 -0.0055135489
-0.028868187 -0.53125197 -0.0030122995
0.31940821 -0.53080994 -0.0062029362
-0.028861541 -0.50215209 -0.003443718
0.28984419 -0.50076133 -0.014070272
0.31917626 -0.50139666 -0.0092160702
-0.028857224 -0.47307736 -0.0037242174
0.31909019 -0.47226319 -0.010334134
-0.028852906 -0.44400701 -0.0040044785
0.31893969 -0.44305021 -0.012289166
-0.028849918 -0.41495022 -0.0041986704
0.31877616 -0.41384923 -0.014413476
-0.028848924 -0.38590935 -0.0042632818
0.31864086 -0.38471752 -0.016171336
-0.028848261 -0.35687143 -0.0043063164
0.3184661 -0.35556564 -0.0184412
-0.028847262 -0.32783252 -0.004371047
0.31830806 -0.32646716 -0.020494461
-0.028846603 -0.298796 -0.0044142008
-0.02884594 -0.26976037 -0.0044574738
-0.028845273 -0.24072526 -0.0045005083
-0.02884461 -0.21169102 -0.0045435429
-0.028843947 -0.18265726 -0.0045868158
-0.02884328 -0.15362427 -0.0046297312
-0.028842617 -0.12459184 -0.0046728849
-0.028841954 -0.095560245 -0.0047160387
-0.028840959 -0.066528767 -0.0047806501
-0.028839629 -0.037498161 -0.0048669577
-0.028838303 -0.0084690275 -0.0049532652
-0.028837308 0.020558994 -0.0050177574
-0.028835982 0.04958573 -0.0051040649
-0.028834984 0.078611813 -0.0051686764
-0.028834321 0.1076372 -0.0052117109
-0.028833654 0.13666207 -0.0052548647
-0.028832994 0.16568644 -0.0052980185
-0.028832331 0.19470996 -0.005341053
-0.028831668 0.22373295 -0.005384326
-0.028831333 0.25275666 -0.0054057837
-0.028830338 0.28177682 -0.0054702759
-0.028829675 0.31079757 -0.0055135489
-0.028838966 0.33987781 -0.0049099922
-0.028857887 0.36902952 -0.0036810637
-0.028876826 0.39820057 -0.0024513006
0.00030989386 0.39625585 -0.02049458
-0.028897762 0.42740548 -0.0010910034
0.00030034594 0.42530802 -0.019254088
0.31895623 0.4261373 -0.012074232
0.00029095635 0.45437676 -0.018034339
0.31932864 0.45570683 -0.0072365999
0.00028073601 0.48347831 -0.016706705
0.31932202 0.48470643 -0.0073227882
0.00027034245 0.51260358 -0.015356779
0.31909019 0.51329941 -0.010334253
0.00025977939 0.5417527 -0.013984442
0.31859961 0.54135442 -0.016706824
0.00024937093 0.57091999 -0.012632608
0.28988433 0.57078761 -0.013491035
0.3185617 0.57021689 -0.017199516
0.00023879111 0.6001116 -0.011258125
0.00022836961 0.6293208 -0.0099041462
0.00021777488 0.65855491 -0.0085278749
0.00020617805 0.68783426 -0.0070211887
0.00019539893 0.71711642 -0.0056210756
0.00018427894 0.74642885 -0.0041769743
0.00017332099 0.77575928 -0.002753377
0.00016235374 0.80511189 -0.0013283491
0.029218815 0.80119282 -0.019510627
0.029218815 0.83043903 -0.018034458
0.029218815 0.85970306 -0.016578317
0.029218815 0.88898975 -0.015121102
0.029218815 0.91828883 -0.013705611
0.029218815 0.95018023 -0.0021704435
-0.028989356 -0.93979973 0.0048581362
-0.028978352 -0.91052514 0.0041433573
-0.028967682 -0.88126647 0.0034502745
-0.028959349 -0.85205245 0.0029089451
-0.028950356 -0.82283753 0.0023248196
-0.028939027 -0.79359978 0.0015890598
-0.028929375 -0.76439553 0.00096201897
-0.028919723 -0.73520082 0.00033521652
-0.058407806 -0.70948201 0.018470407
-0.028912403 -0.70604366 -0.00014030933
-0.058396727 -0.68018824 0.01799047
-0.028905082 -0.67689371 -0.00061571598
-0.058385633 -0.65090162 0.017510414
-0.058374554 -0.62162262 0.017030597
-0.058363482 -0.59235096 0.016551018
0.31983164 -0.58969462 -0.00070214272
-0.058352403 -0.56308681 0.01607132
-0.058341332 -0.53382993 0.015591979
-0.058329761 -0.50457752 0.015090823
-0.058318689 -0.47533572 0.014611721
-0.058308132 -0.44610372 0.014154315
-0.058303602 -0.41690701 0.013958454
-0.058302604 -0.38772839 0.013914824
-0.058301091 -0.35854849 0.013849497
-0.058300085 -0.32937154 0.013805985
-0.05829908 -0.30019528 0.013762474
-0.058298074 -0.27101964 0.013718843
-0.058297068 -0.24184468 0.013675451
-0.058295563 -0.21266924 0.013610125
-0.058294557 -0.18349579 0.013566494
-0.058293551 -0.15432292 0.013522983
-0.058292545 -0.12515076 0.013479471
-0.05829154 -0.095979303 0.01343596
-0.058290035 -0.066808194 0.013370633
-0.058288522 -0.037638143 0.013305306
-0.058286518 -0.0084690275 0.013218284
-0.058285005 0.020699032 0.013152957
-0.058282495 0.049865104 0.013044238
-0.05828099 0.07903064 0.012978911
-0.058279984 0.10819606 0.0129354
-0.05827897 0.13736068 0.012891889
-0.058277972 0.16652457 0.012848377
-0.058276966 0.19568777 0.012804866
-0.05827596 0.22485039 0.012761474
-0.058275461 0.25401396 0.012739658
-0.058274455 0.28317526 0.012696028
-0.058272943 0.31233418 0.012630939
-0.058288023 0.34155831 0.01328361
-0.058319196 0.37086242 0.014633417
-0.058351398 0.40019211 0.016027927
-0.058383115 0.42954081 0.017401338
-0.028918721 0.45663136 0.00027048588
-0.028940029 0.48588124 0.0016540289
-0.028961014 0.51514947 0.0030174255
-0.028982017 0.5444389 0.0043814182
-0.029003371 0.57375288 0.0057684183
-0.029024407 0.60308474 0.0071345568
0.31985328 0.60186332 -0.00042140484
-0.02904579 0.63244158 0.0085234642
0.3207894 0.63298625 0.011739016
-0.029067189 0.66181993 0.0099133253
-0.029089607 0.69123214 0.011369467
-0.029111039 0.72065401 0.012761235
-0.029133152 0.75010663 0.014197946
-0.029154617 0.77957231 0.015592098
-0.029176433 0.80906445 0.017008901
0.29128325 0.80684263 0.0067007542
0.00015104376 0.8344962 0.00014066696
-0.029198598 0.83858365 0.01844883
0.00014005974 0.86389369 0.0015677214
0.00012906641 0.89331323 0.0029957294
0.00011839904 0.92274439 0.0043816566
0.029218815 -0.97314978 0.021571875
-0.058502659 -0.94416475 0.022577643
-0.058490537 -0.91479892 0.022053003
-0.058478929 -0.88544637 0.021550059
-0.058467321 -0.85610175 0.021047354
-0.05845622 -0.82676929 0.020566821
-0.058443606 -0.79743069 0.020020485
-0.088214435 -0.77178502 0.037882686
-0.058432005 -0.76810944 0.019518256
-0.088194065 -0.74229944 0.037221551
-0.058419399 -0.73878753 0.018972397
-0.088179141 -0.71285677 0.036736846
-0.08816421 -0.68342131 0.036252022
-0.088149294 -0.65399367 0.035767436
-0.088134378 -0.62457323 0.035283089
0.32142186 -0.62209535 0.01995492
-0.08812014 -0.59516382 0.034820676
-0.088105232 -0.56575823 0.034336567
-0.088090323 -0.5363602 0.033852696
-0.088075429 -0.50696951 0.033368587
-0.088060528 -0.47758636 0.032884836
-0.088049017 -0.44822338 0.032510996
-0.088042252 -0.41888267 0.032291174
-0.088040896 -0.38956302 0.032247186
-0.088038862 -0.36024204 0.032181263
-0.088037513 -0.33092386 0.032137394
-0.088036157 -0.30160633 0.032093287
-0.088034801 -0.27228954 0.032049298
-0.088033453 -0.24297349 0.03200531
-0.088032097 -0.21365812 0.031961322
-0.08803007 -0.18434241 0.031895518
-0.088028714 -0.15502845 0.031851411
-0.088028036 -0.12571596 0.031829596
-0.088026688 -0.096403174 0.031785727
-0.088024646 -0.067090675 0.031719685
-0.088021949 -0.037779119 0.031631827
0.3509402 -0.0084691448 0.023474693
-0.088019237 -0.0084689688 0.03154397
-0.08801721 0.02084001 0.031478047
0.35101062 0.020784756 0.024306297
-0.088014506 0.050147697 0.03139019
-0.088012472 0.079454564 0.031324148
-0.088010438 0.10876032 0.031258106
-0.088009089 0.13806584 0.031214476
-0.088007741 0.1673709 0.031170249
-0.088006385 0.19667506 0.031126499
-0.088005029 0.22597878 0.031082511
-0.088005029 0.25528467 0.031082511
-0.088003002 0.28458557 0.031016469
-0.088000968 0.31388545 0.030950785
-0.088023975 0.34325939 0.031697512
-0.088063911 0.37269998 0.032994747
-0.088106588 0.40216991 0.034380555
-0.088149294 0.43166149 0.035767317
-0.088192031 0.46117449 0.03715539
-0.058415368 0.45891342 0.018797994
-0.058447137 0.48830459 0.02017343
-0.058479428 0.51772052 0.021571755
-0.058511242 0.54715466 0.022949457
-0.058543086 0.57661045 0.024328232
-0.058575451 0.6060909 0.025729656
-0.058607846 0.63559306 0.027132034
-0.058640257 0.66511726 0.028535724
0.32157829 0.66395772 0.021987438
-0.058672689 0.69466311 0.029940486
0.32281891 0.69617128 0.038103342
-0.058705665 0.72423488 0.031368136
-0.058737643 0.75382036 0.032752752
-0.058769651 0.783427 0.03413856
-0.058802187 0.81306028 0.035547376
-0.058834739 0.84271538 0.036957026
0.29273829 0.84064937 0.027702332
-0.029220447 0.86811996 0.019867659
-0.029242646 0.89768368 0.021309495
-0.029263854 0.92725372 0.022686958
4.0587038e-06 0.95561796 0.019234419
-0.088319063 -0.94877207 0.041281104
-0.088300712 -0.91924536 0.040684819
-0.08828304 -0.88973284 0.040110946
-0.088266045 -0.86023432 0.039559245
-0.11833275 -0.8347578 0.057628751
-0.08824838 -0.8307395 0.03898561
-0.1183036 -0.80509001 0.056871414
-0.088230051 -0.80124879 0.03839004
-0.11828048 -0.77546531 0.056270123
-0.11824878 -0.74580699 0.055446863
-0.11822907 -0.71621895 0.054935217
-0.11821025 -0.68664259 0.054445624
-0.11819228 -0.65707779 0.05397892
-0.11817346 -0.62751651 0.053489804
-0.11815464 -0.5979628 0.053000689
-0.1181358 -0.56841654 0.05251193
-0.118117 -0.53887802 0.052023172
-0.11810247 -0.50936133 0.051645637
-0.11809137 -0.4798615 0.05135715
-0.11808025 -0.45036617 0.051068306
-0.11807086 -0.42088011 0.050824285
-0.1180683 -0.39141545 0.050757647
-0.11806659 -0.36195388 0.050713301
-0.11806402 -0.33249116 0.050646663
-0.11806231 -0.30303124 0.050602317
-0.1180606 -0.27357191 0.050557971
-0.11805888 -0.24411331 0.050513506
-0.11805718 -0.2146554 0.050469041
-0.11805547 -0.18519817 0.050424814
-0.11805376 -0.15574159 0.050380468
-0.11805206 -0.12628566 0.050335884
-0.11805034 -0.096830435 0.050291657
-0.11804778 -0.067375615 0.050224781
-0.11804437 -0.037921559 0.050136209
-0.11804181 -0.0084689101 0.050069571
-0.11803924 0.020982686 0.050003171
-0.11803498 0.050432578 0.049892187
0.35270631 0.050346918 0.044331431
-0.11803242 0.079881832 0.049825549
0.35280561 0.079781927 0.045504212
-0.1180307 0.10933061 0.049781442
0.35280001 0.10919696 0.045438051
-0.11802901 0.13877869 0.049736977
0.3527925 0.13861001 0.04534936
-0.11802729 0.16822624 0.049692392
0.35278311 0.16802052 0.045238853
-0.11802473 0.19767198 0.049626112
0.35281125 0.19745336 0.045570731
-0.11802388 0.2271193 0.049603701
0.35305887 0.22705097 0.048494935
-0.11802303 0.25656629 0.049581647
-0.11802047 0.28600955 0.049515247
-0.1180179 0.31545183 0.04944849
-0.11805119 0.34497908 0.05031383
-0.11809991 0.37455967 0.051579118
-0.11814951 0.40416244 0.052867532
-0.11819998 0.43378755 0.054179072
-0.11825392 0.46344388 0.055580378
-0.1183079 0.49312189 0.056982636
-0.088234805 0.49070898 0.038544416
-0.088277593 0.52026492 0.039934516
-0.088320427 0.54984248 0.041325569
-0.08836329 0.57944167 0.042717338
-0.08840619 0.60906231 0.044110417
-0.088449106 0.63870454 0.045504332
-0.088492744 0.66837251 0.04692173
-0.088537782 0.69807065 0.04838419
-0.088581488 0.72778291 0.049803376
-0.088625222 0.75751734 0.051223874
-0.088670366 0.78728288 0.052689672
-0.08871416 0.8170619 0.054112315
-0.088758685 0.84686792 0.055558085
-0.058866814 0.87238717 0.038345933
-0.088803239 0.87669647 0.057004929
-0.058899924 0.9020915 0.039779902
-0.058931537 0.93180144 0.041148782
-0.02958994 0.96187544 0.043867111
-0.11909807 -0.95769709 0.077512383
-0.11841168 -0.92377812 0.059679151
-0.11838593 -0.89409751 0.059010267
-0.14875212 -0.8686617 0.077309728
-0.1183602 -0.86442727 0.058341622
-0.14871156 -0.8388108 0.076432109
-0.14867002 -0.80896884 0.075532794
-0.14863679 -0.77917659 0.074813247
-0.14859423 -0.74935669 0.073891878
-0.1485683 -0.71961737 0.073330402
-0.14854547 -0.68989873 0.07283628
-0.14852268 -0.66018778 0.072342634
-0.14849988 -0.6304844 0.071848631
-0.14847708 -0.60078865 0.071355104
-0.14845842 -0.57111353 0.070951104
-0.14844495 -0.54146028 0.070659757
-0.14843148 -0.51181155 0.070368171
-0.14841801 -0.48216724 0.070076704
-0.14840457 -0.45252737 0.069785118
-0.14839315 -0.42289689 0.069538593
-0.14839005 -0.39328828 0.069471359
-0.14838696 -0.36368051 0.069404244
-0.1483849 -0.33407578 0.069359303
-0.14838281 -0.30447164 0.06931448
-0.14838076 -0.27486837 0.069269657
-0.14837763 -0.24526438 0.069202423
0.35517329 -0.24552675 0.073465228
0.38407254 -0.24503821 0.065530777
-0.14837557 -0.21566232 0.0691576
0.41358772 -0.21543691 0.064971566
-0.14837348 -0.18606125 0.069112659
-0.14837143 -0.15646088 0.069067955
-0.14837041 -0.12686175 0.069045663
-0.14836833 -0.097262681 0.06900084
-0.14836419 -0.067663252 0.068911076
-0.14836004 -0.038065523 0.06882143
-0.14835694 -0.0084688514 0.068754315
-0.14835384 0.021126414 0.068687081
-0.14834866 0.050720096 0.068575025
-0.14834556 0.080313139 0.068507791
-0.1483435 0.10990582 0.068462968
-0.14834142 0.13949792 0.068418384
-0.14833936 0.16908921 0.068373442
-0.14833623 0.19867867 0.068306327
-0.14833522 0.22826967 0.068283796
-0.14833418 0.25786054 0.068261385
-0.14833212 0.28744918 0.068216681
-0.14832798 0.3170335 0.068126917
-0.14837453 0.34671766 0.069135189
-0.14843354 0.37644446 0.070413113
-0.1484926 0.40619108 0.071691751
-0.1485517 0.43595743 0.072971225
-0.14861083 0.46574342 0.074251533
-0.1486721 0.49555525 0.075577855
-0.14873755 0.52539998 0.076994777
-0.11836191 0.52282149 0.058386207
-0.11841597 0.55254316 0.05979073
-0.11847007 0.58228648 0.061196208
-0.11852422 0.61205161 0.06260252
-0.11857838 0.64183861 0.064010143
-0.11863346 0.67165148 0.06544137
-0.11869115 0.70149881 0.066940308
-0.11874891 0.73136967 0.068440676
-0.1188041 0.76125014 0.069874883
-0.1188628 0.79117173 0.071399927
-0.11891896 0.82110262 0.072859049
-0.11897602 0.85106093 0.074341416
-0.11903486 0.88105297 0.075870156
-0.11909115 0.91105282 0.077332377
-0.088848509 0.90655267 0.058475256
-0.08889176 0.93641555 0.059880018
-0.14882904 -0.92838299 0.078975677
-0.14878747 -0.89850032 0.078075051
-0.17944622 -0.87293839 0.09646666
-0.17938989 -0.84290379 0.095421076
-0.17933726 -0.81289965 0.094444752
-0.17928955 -0.78292871 0.093559384
-0.17923331 -0.75294077 0.092515588
-0.1791991 -0.72304463 0.091880679
-0.17917222 -0.69318241 0.091381907
-0.17914534 -0.66332781 0.090883017
-0.32735196 -0.63246793 0.084118485
-0.17912337 -0.63349563 0.090475202
-0.35822234 -0.6045323 0.095671177
-0.32709345 -0.60232276 0.081319809
-0.17910749 -0.60368693 0.090180635
-0.35817006 -0.57465273 0.095148683
-0.32708928 -0.57262337 0.081274748
-0.1790916 -0.57388294 0.089886189
-0.32739997 -0.54339719 0.08463788
-0.17907575 -0.54408354 0.089591742
-0.17905864 -0.51428562 0.089274526
-0.17904279 -0.48449555 0.088980317
-0.17902696 -0.4547098 0.088685989
-0.1790123 -0.42493126 0.088414311
-0.17900863 -0.39517716 0.088346362
-0.179005 -0.3654241 0.088278532
-0.17900252 -0.33567402 0.088233232
-0.17900011 -0.30592459 0.088187933
-0.17899767 -0.27617598 0.088142872
-0.17899525 -0.24642791 0.088097572
-0.17899156 -0.21667932 0.088029504
-0.17899033 -0.18693405 0.088007092
-0.17898789 -0.15718809 0.087961555
-0.17898548 -0.127443 0.087916493
-0.17898303 -0.097698323 0.087871194
-0.17897815 -0.067953877 0.087780595
-0.17897326 -0.03821072 0.087690234
-0.17897084 -0.0084689101 0.087644815
-0.17896718 0.021271961 0.087576985
-0.17896107 0.051011011 0.087463856
-0.17895743 0.080749422 0.087395906
-0.17895377 0.11048689 0.087328076
-0.17895135 0.14022391 0.087283015
-0.17894891 0.16996038 0.087237716
-0.17894524 0.1996949 0.087169766
-0.17894524 0.22943269 0.087169766
-0.17894402 0.25916898 0.087147236
-0.17894036 0.2889013 0.087079287
-0.1789355 0.31863052 0.086988807
-0.17899644 0.3484714 0.088120103
-0.17906597 0.37834558 0.089410543
-0.17913556 0.40823984 0.090701818
-0.3272498 0.43711677 0.083012223
-0.17920521 0.43815386 0.091994166
-0.35809734 0.46822783 0.094421864
-0.32702264 0.46651959 0.080553293
-0.17927611 0.46809086 0.09330976
-0.35828146 0.49826214 0.096262097
-0.3272039 0.49646321 0.082515597
-0.17934582 0.498045 0.094603658
-0.32751477 0.52663141 0.085880995
-0.17941558 0.52801949 0.095898509
-0.17948663 0.55801725 0.097216964
-0.14880306 0.55526692 0.07841301
-0.14886859 0.58515561 0.079831958
-0.14893422 0.61506647 0.081252337
-0.14899984 0.64499927 0.08267343
-0.14906973 0.67497045 0.084186196
-0.1491386 0.70496053 0.085677505
-0.14921275 0.73499566 0.087283015
-0.14928067 0.76502877 0.088754177
-0.14935288 0.79510355 0.090316534
-0.149423 0.82519293 0.091835499
-0.14949319 0.85530561 0.093355179
-0.1495645 0.88544762 0.094898939
-0.14963377 0.91560251 0.096398473
-0.11928111 0.94193035 0.082267404
-0.17956755 -0.93309426 0.098718047
-0.17950255 -0.90298933 0.097512603
-0.21045408 -0.87728333 0.1159296
-0.21038058 -0.84706694 0.11473596
-0.21030858 -0.81687397 0.1135664
-0.21024221 -0.78671736 0.11248887
-0.21017167 -0.75656432 0.11134326
-0.21012652 -0.72650498 0.11061049
-0.21010116 -0.69651389 0.11019838
-0.32940412 -0.66594446 0.10633349
-0.21008143 -0.66654474 0.10987806
-0.35917509 -0.63587457 0.10519171
-0.2100631 -0.63658398 0.1095804
-0.39021128 -0.60765475 0.11595249
-0.21004477 -0.60662794 0.10928297
-0.39003813 -0.57746077 0.11434627
-0.21002647 -0.57667655 0.10898554
-0.35897183 -0.54596376 0.10316062
-0.21000814 -0.54672974 0.10868824
-0.32902256 -0.51597756 0.10220301
-0.20998985 -0.51678735 0.10839081
-0.20997012 -0.48684692 0.10807073
-0.20995179 -0.45691386 0.1077733
-0.20993492 -0.42698795 0.10749912
-0.20993069 -0.39708695 0.10743046
-0.20992646 -0.36718693 0.10736215
-0.20992225 -0.33728799 0.10729325
0.35836327 -0.3376134 0.11113703
-0.20991942 -0.30739182 0.10724759
-0.20991662 -0.27749628 0.10720193
-0.20991382 -0.24760166 0.10715628
-0.20991099 -0.21770746 0.1071105
-0.20990819 -0.18781431 0.10706484
-0.20990536 -0.15792163 0.10701907
-0.20990396 -0.12803039 0.1069963
-0.20990115 -0.098139003 0.10695052
-0.20989552 -0.068247542 0.10685933
-0.20988989 -0.038357671 0.10676777
-0.20988566 -0.0084689688 0.10669923
-0.20988142 0.021418562 0.1066308
-0.20987442 0.051304393 0.10651636
-0.20987019 0.081189521 0.10644782
-0.20986736 0.11107418 0.10640228
-0.20986316 0.14095725 0.10633385
-0.20986035 0.17084044 0.10628784
-0.20985749 0.20072287 0.1062423
-0.20985612 0.23060602 0.10621917
-0.20985469 0.26048869 0.10619676
-0.20985049 0.2903676 0.10612822
-0.20984346 0.32024154 0.10601389
-0.20992225 0.35024264 0.10729361
-0.21000251 0.38026586 0.10859668
-0.36029565 0.41100809 0.11638892
-0.32874897 0.40916011 0.099241376
-0.21008283 0.41030896 0.10990095
-0.35877794 0.43921962 0.10122287
-0.21016461 0.44037491 0.11122894
-0.38994175 0.4705717 0.11345148
-0.21024501 0.4704586 0.11253488
-0.39029047 0.50093496 0.11668754
-0.21032551 0.50056279 0.11384141
-0.3593694 0.5295763 0.10713327
-0.21040604 0.53068697 0.11514926
-0.32976323 0.55991936 0.11022127
-0.21048665 0.56083161 0.11645782
-0.17956385 0.58805281 0.098649859
-0.17964113 0.61811078 0.10008395
-0.17971846 0.64819115 0.10151923
-0.17980447 0.6783219 0.10311508
-0.17988807 0.70846885 0.10466671
-0.1799742 0.73864889 0.10626519
-0.18005919 0.76884919 0.10784221
-0.18014303 0.79906946 0.10939753
-0.18022934 0.82932353 0.1109997
-0.18031451 0.85959774 0.11258054
-0.18039978 0.88989633 0.11416268
-0.18048385 0.92021418 0.11572301
-0.15012327 0.94802213 0.10699642
-0.21116886 -0.93997115 0.12753534
-0.21052906 -0.90752351 0.11714685
-0.2417576 -0.8816154 0.13533413
-0.24165323 -0.85118204 0.13382769
-0.24157459 -0.8208493 0.13269269
-0.24150401 -0.79055732 0.13167393
-0.24142388 -0.7602542 0.13051689
-0.30199817 -0.70101374 0.13561249
-0.36158916 -0.6698364 0.12931466
-0.30114219 -0.66919112 0.1255039
-0.39132768 -0.63928878 0.12631166
-0.30132788 -0.63951266 0.12769699
-0.39084318 -0.54854882 0.12181592
-0.36062685 -0.5182671 0.11969852
-0.30121645 -0.51914167 0.12638092
-0.33155903 -0.48950607 0.12966132
-0.30101916 -0.48881525 0.12405109
-0.2411485 -0.3989996 0.12654257
-0.24114531 -0.36895445 0.12649643
-0.24112931 -0.33889449 0.12626565
-0.24111813 -0.30884331 0.12610412
-0.24111491 -0.27880272 0.12605774
-0.2411117 -0.24876276 0.12601161
-0.24110052 -0.21871738 0.12585008
-0.24108773 -0.18867335 0.12566531
-0.24108613 -0.15863839 0.1256423
-0.24108294 -0.12860315 0.12559628
-0.24108613 -0.098570541 0.1256423
-0.24108294 -0.068535879 0.12559628
-0.24107656 -0.038501754 0.12550402
-0.24107337 -0.0084690275 0.12545788
-0.24107015 0.02156317 0.12541163
-0.24106216 0.051593378 0.12529647
-0.24106055 0.081624225 0.12527335
-0.24105737 0.11165361 0.12522721
-0.24105737 0.14168446 0.12522733
-0.2410526 0.17171185 0.12515807
-0.24105579 0.20174469 0.12520397
-0.24105579 0.23177497 0.12520397
-0.24106055 0.26181051 0.12527335
-0.24105579 0.29183626 0.12520409
-0.24104616 0.32185486 0.12506568
-0.33122617 0.38201299 0.12605774
-0.30052209 0.38122475 0.11818075
-0.39211774 0.41286752 0.1336422
-0.30088645 0.41166499 0.12248409
-0.39060506 0.44134229 0.11960638
-0.39157161 0.5325473 0.12857497
-0.30159804 0.53286761 0.13088727
-0.36219621 0.56359911 0.13538074
-0.30157059 0.56289452 0.13056338
-0.2105687 0.59099972 0.11779022
-0.2106508 0.62118882 0.11912358
-0.21074289 0.65142572 0.12061894
-0.21084213 0.68170631 0.12223041
-0.21094289 0.71201605 0.12386656
-0.21104231 0.742347 0.12548077
-0.21114466 0.77271229 0.12714291
-0.21124423 0.80309391 0.12875986
-0.21134248 0.83349556 0.13035512
-0.21144506 0.86393756 0.13202107
-0.2115435 0.89438963 0.13361919
-0.21164483 0.92487758 0.13526464
-0.18141699 0.95443755 0.13304007
-0.24187011 -0.91209882 0.13695812
-0.27336583 -0.88596457 0.15481627
-0.27321446 -0.85528225 0.15285003
-0.27313882 -0.82483459 0.15186751
-0.27308124 -0.79444909 0.15111935
-0.27300745 -0.76403475 0.15016115
-0.39253011 -0.52059269 0.1374687
-0.36334127 -0.49162 0.14682281
-0.24194247 -0.4302755 0.13800263
-0.2726751 -0.40093103 0.14584339
-0.27265894 -0.37072229 0.1456337
-0.27264282 -0.34051672 0.14542389
-0.27260154 -0.31028935 0.14488792
-0.27258003 -0.28008792 0.14460826
-0.27257463 -0.24990381 0.1445384
-0.27256387 -0.21971692 0.14439857
-0.27252442 -0.18951486 0.14388609
-0.27250114 -0.15932898 0.14358354
-0.27249932 -0.12915632 0.14356029
-0.27250114 -0.098984919 0.14358342
-0.2725262 -0.06881801 0.14390945
-0.27251905 -0.038642786 0.14381623
-0.27251723 -0.0084690861 0.14379311
-0.27251545 0.021704379 0.14376962
-0.27251011 0.051876791 0.14369977
-0.27251187 0.082050316 0.14372337
-0.27251011 0.11222255 0.1437
-0.27251366 0.14239724 0.1437465
-0.27251723 0.17257258 0.14379311
-0.27252084 0.20274863 0.14383972
-0.27253518 0.23293421 0.14402592
-0.27254596 0.26311925 0.14416564
-0.27255493 0.29330474 0.14428198
-0.27257463 0.32350379 0.1445384
-0.36290061 0.38365057 0.14241946
-0.30268693 0.59499598 0.1437465
-0.24206963 0.65468049 0.13983798
-0.24218237 0.68511182 0.14146554
-0.24234363 0.71569759 0.14379311
-0.24249378 0.74628812 0.14596009
-0.24262953 0.77687073 0.14791942
-0.24278161 0.80753219 0.15011466
-0.24291766 0.83817774 0.15207779
-0.24307978 0.86893755 0.15441823
-0.27353176 -0.91672075 0.15697193
-0.30508831 -0.85943264 0.17210543
-0.30501232 -0.82885468 0.17120802
-0.30497432 -0.79838014 0.1707592
-0.30490434 -0.76783979 0.16993308
-0.33507001 -0.70668924 0.1676687
-0.27436247 -0.70670599 0.16776299
-0.27459857 -0.67686725 0.17083001
-0.27456221 -0.49451867 0.17035794
-0.30466869 -0.46377018 0.16715014
-0.2743189 -0.46377563 0.16719747
-0.30454901 -0.40292186 0.16573679
-0.30449119 -0.37251624 0.16505384
-0.30446926 -0.34215704 0.1647948
-0.30442342 -0.31178012 0.16425371
-0.30437759 -0.28141144 0.1637125
-0.30433974 -0.25105709 0.16326559
-0.30432782 -0.22072598 0.16312444
-0.30428398 -0.19037953 0.16260695
-0.30424216 -0.16004224 0.16211343
-0.30420634 -0.12971449 0.16169012
-0.30420834 -0.099403627 0.1617136
-0.3042382 -0.069097444 0.16206622
-0.30425811 -0.038785052 0.1623013
-0.30425611 -0.0084690861 0.16227794
-0.30425414 0.021846704 0.16225421
-0.30425414 0.052162491 0.16225421
-0.30425811 0.082479276 0.1623013
-0.3042641 0.11279753 0.16237187
-0.30426806 0.14311583 0.16241896
-0.30428001 0.17343947 0.16256011
-0.30428797 0.20376253 0.16265404
-0.30431786 0.23410311 0.16300678
-0.30433378 0.26443762 0.16319478
-0.30436164 0.29478598 0.16352427
-0.30442342 0.32517341 0.16425371
-0.33564582 0.35639554 0.17390192
-0.30418846 0.35524803 0.16147876
-0.27376115 0.35510719 0.15995204
-0.2741394 0.3858968 0.16486561
-0.27490786 0.59978449 0.17484808
-0.27367443 0.65789622 0.15882516
-0.27383891 0.68856364 0.16096187
-0.27408326 0.71945578 0.16413605
-0.27425542 0.75021654 0.16637266
-0.27447686 0.78113967 0.16924894
-0.27468404 0.81206882 0.17194021
