ply
format ascii 1.0
comment PCL generated
element vertex 1141
property float x
property float y
property float z
element camera 1
property float view_px
property float view_py
property float view_pz
property float x_axisx
property float x_axisy
property float x_axisz
property float y_axisx
property float y_axisy
property float y_axisz
property float z_axisx
property float z_axisy
property float z_axisz
property float focal
property float scalex
property float scaley
property float centerx
property float centery
property int viewportx
property int viewporty
property float k1
property float k2
end_header
-0.25652137 0.21761692 -0.23346305
-0.23881435 0.21761692 -0.23346305
-0.22110733 0.21761692 -0.23346305
-0.20340031 0.21761692 -0.23346305
-0.18569331 0.21761692 -0.23346305
-0.16798629 0.21761692 -0.23346305
-0.15028 0.21761855 -0.2334522
-0.1325729 0.21761855 -0.2334522
-0.1148658 0.21761855 -0.2334522
-0.097158708 0.21761855 -0.2334522
-0.079451591 0.21761855 -0.2334522
-0.061744489 0.21761855 -0.2334522
-0.044037391 0.21761855 -0.2334522
-0.026330281 0.21761855 -0.2334522
-0.0086231781 0.21761855 -0.2334522
0.0090839257 0.21761855 -0.2334522
0.026791029 0.21761855 -0.2334522
0.044498134 0.21761855 -0.2334522
0.062205244 0.21761855 -0.2334522
0.079912342 0.21761855 -0.2334522
0.097619444 0.21761855 -0.2334522
0.11532656 0.21761855 -0.2334522
0.13303307 0.21761692 -0.23346305
0.15074009 0.21761692 -0.23346305
0.16844711 0.21761692 -0.23346305
0.18615414 0.21761692 -0.23346305
0.20386116 0.21761692 -0.23346305
0.22156817 0.21761692 -0.23346305
0.23927519 0.21761692 -0.23346305
0.25698221 0.21761692 -0.23346305
-0.25622123 0.2349236 -0.23606259
-0.23853421 0.2349236 -0.23606259
-0.22084719 0.2349236 -0.23606259
-0.2031602 0.2349236 -0.23606259
-0.18547317 0.2349236 -0.23606259
-0.16778533 0.23492205 -0.23607349
-0.15009841 0.23492205 -0.23607349
-0.13241148 0.23492205 -0.23607349
-0.11472514 0.2349236 -0.23606259
-0.097038135 0.2349236 -0.23606259
-0.07935112 0.2349236 -0.23606259
-0.061664112 0.2349236 -0.23606259
-0.043977104 0.2349236 -0.23606259
-0.026290093 0.2349236 -0.23606259
-0.0086030839 0.2349236 -0.23606259
0.0090839257 0.2349236 -0.23606259
0.026770934 0.2349236 -0.23606259
0.044457946 0.2349236 -0.23606259
0.062144957 0.2349236 -0.23606259
0.079831965 0.2349236 -0.23606259
0.097518973 0.2349236 -0.23606259
0.11520599 0.2349236 -0.23606259
0.1328924 0.23492205 -0.23607349
0.15057933 0.23492205 -0.23607349
0.16826627 0.23492205 -0.23607349
0.18595402 0.2349236 -0.23606259
0.20364103 0.2349236 -0.23606259
0.22132805 0.2349236 -0.23606259
0.23901504 0.2349236 -0.23606259
0.25670207 0.2349236 -0.23606259
-0.25636807 0.25281641 -0.23479074
-0.23867127 0.25281641 -0.23479074
-0.22097448 0.25281641 -0.23479074
-0.20327766 0.25281641 -0.23479074
-0.18558088 0.25281641 -0.23479074
-0.16788407 0.25281641 -0.23479074
-0.15018728 0.25281641 -0.23479074
-0.1324898 0.25281459 -0.23480159
-0.11479367 0.25281641 -0.23479074
-0.097096868 0.25281641 -0.23479074
-0.079400077 0.25281641 -0.23479074
-0.061703272 0.25281641 -0.23479074
-0.044006471 0.25281641 -0.23479074
-0.026309673 0.25281641 -0.23479074
-0.008612874 0.25281641 -0.23479074
0.0090839257 0.25281641 -0.23479074
0.026780725 0.25281641 -0.23479074
0.044477526 0.25281641 -0.23479074
0.062174324 0.25281641 -0.23479074
0.079871126 0.25281641 -0.23479074
0.097567931 0.25281641 -0.23479074
0.11526472 0.25281641 -0.23479074
0.13296153 0.25281641 -0.23479074
0.15065832 0.25281641 -0.23479074
0.16835514 0.25281641 -0.23479074
0.18605192 0.25281641 -0.23479074
0.20374873 0.25281641 -0.23479074
0.22144552 0.25281641 -0.23479074
0.23914233 0.25281641 -0.23479074
0.25683913 0.25281641 -0.23479074
-0.25651509 0.27072877 -0.23351741
-0.23880848 0.27072877 -0.23351741
-0.22110189 0.27072877 -0.23351741
-0.20339529 0.27072877 -0.23351741
-0.18568869 0.27072877 -0.23351741
-0.1679821 0.27072877 -0.23351741
-0.15027548 0.27072877 -0.23351741
-0.13256888 0.27072877 -0.23351741
-0.11486228 0.27072877 -0.23351741
-0.097155683 0.27072877 -0.23351741
-0.07944908 0.27072877 -0.23351741
-0.061742477 0.27072877 -0.23351741
-0.044035878 0.27072877 -0.23351741
-0.026329275 0.27072877 -0.23351741
-0.0086226752 0.27072877 -0.23351741
0.0090839257 0.27072877 -0.23351741
0.026790526 0.27072877 -0.23351741
0.044497129 0.27072877 -0.23351741
0.062203731 0.27072877 -0.23351741
0.07991033 0.27072877 -0.23351741
0.097616933 0.27072877 -0.23351741
0.11532354 0.27072877 -0.23351741
0.13303013 0.27072877 -0.23351741
0.15073673 0.27072877 -0.23351741
0.16844334 0.27072877 -0.23351741
0.18614995 0.27072877 -0.23351741
0.20385654 0.27072877 -0.23351741
0.22156315 0.27072877 -0.23351741
0.23926975 0.27072877 -0.23351741
0.25697634 0.27072877 -0.23351741
-0.25665095 0.28864366 -0.23234099
-0.23893528 0.28864366 -0.23234099
-0.22121963 0.28864366 -0.23234099
-0.20350398 0.28864366 -0.23234099
-0.18578832 0.28864366 -0.23234099
-0.16807266 0.28864366 -0.23234099
-0.15035701 0.28864366 -0.23234099
-0.13264135 0.28864366 -0.23234099
-0.11492568 0.28864366 -0.23234099
-0.097210027 0.28864366 -0.23234099
-0.079494365 0.28864366 -0.23234099
-0.061778709 0.28864366 -0.23234099
-0.04406305 0.28864366 -0.23234099
-0.026347391 0.28864366 -0.23234099
-0.0086317332 0.28864366 -0.23234099
0.0090839257 0.28864366 -0.23234099
0.026799586 0.28864366 -0.23234099
0.044515245 0.28864366 -0.23234099
0.062230904 0.28864366 -0.23234099
0.079946563 0.28864366 -0.23234099
0.097662218 0.28864366 -0.23234099
0.11537788 0.28864366 -0.23234099
0.13309352 0.28864366 -0.23234099
0.1508092 0.28864366 -0.23234099
0.16852486 0.28864366 -0.23234099
0.18624051 0.28864366 -0.23234099
0.20395617 0.28864366 -0.23234099
0.22167183 0.28864366 -0.23234099
0.23938748 0.28864366 -0.23234099
0.25710312 0.28864366 -0.23234099
-0.25539458 0.30434912 -0.24322152
-0.23776267 0.30434912 -0.24322152
-0.22013079 0.30434912 -0.24322152
-0.20249888 0.30434912 -0.24322152
-0.18486698 0.30434912 -0.24322152
-0.16723508 0.30434912 -0.24322152
-0.14960317 0.30434912 -0.24322152
-0.13197127 0.30434912 -0.24322152
-0.11433937 0.30434912 -0.24322152
-0.096707478 0.30434912 -0.24322152
-0.079075575 0.30434912 -0.24322152
-0.061443672 0.30434912 -0.24322152
-0.043811776 0.30434912 -0.24322152
-0.026179872 0.30434912 -0.24322152
-0.0085479738 0.30434912 -0.24322152
0.0090839257 0.30434912 -0.24322152
0.026715826 0.30434912 -0.24322152
0.044347726 0.30434912 -0.24322152
0.061979629 0.30434912 -0.24322152
0.079611525 0.30434912 -0.24322152
0.097243428 0.30434912 -0.24322152
0.11487533 0.30434912 -0.24322152
0.13250722 0.30434912 -0.24322152
0.15013912 0.30434912 -0.24322152
0.16777103 0.30434912 -0.24322152
0.18540293 0.30434912 -0.24322152
0.20303483 0.30434912 -0.24322152
0.22066674 0.30434912 -0.24322152
0.23829864 0.30434912 -0.24322152
0.25593051 0.30434912 -0.24322152
-0.25672522 0.32419878 -0.23169762
-0.23900461 0.32419878 -0.23169762
-0.221284 0.32419878 -0.23169762
-0.20356339 0.32419878 -0.23169762
-0.18584278 0.32419878 -0.23169762
-0.16812217 0.32419878 -0.23169762
-0.15040156 0.32419878 -0.23169762
-0.13268095 0.32419878 -0.23169762
-0.11496034 0.32419878 -0.23169762
-0.097239733 0.32419878 -0.23169762
-0.079519123 0.32419878 -0.23169762
-0.061798513 0.32419878 -0.23169762
-0.044077903 0.32419878 -0.23169762
-0.026357293 0.32419878 -0.23169762
-0.0086366842 0.32419878 -0.23169762
0.0090839257 0.32419878 -0.23169762
0.026804537 0.32419878 -0.23169762
0.044525146 0.32419878 -0.23169762
0.062245756 0.32419878 -0.23169762
0.079966366 0.32419878 -0.23169762
0.097686976 0.32419878 -0.23169762
0.11540759 0.32419878 -0.23169762
0.1331282 0.32419878 -0.23169762
0.15084881 0.32419878 -0.23169762
0.16856942 0.32419878 -0.23169762
0.18629003 0.32419878 -0.23169762
0.20401064 0.32419878 -0.23169762
0.22173125 0.32419878 -0.23169762
0.23945186 0.32419878 -0.23169762
0.25717247 0.32419878 -0.23169762
-0.25749052 0.20107281 -0.22506994
-0.2397189 0.20107281 -0.22506994
-0.22194728 0.20107281 -0.22506994
-0.20417565 0.20107281 -0.22506994
-0.186404 0.20107281 -0.22506994
-0.16863324 0.20107436 -0.22505897
-0.15086152 0.20107436 -0.22505897
-0.1330898 0.20107436 -0.22505897
-0.11531808 0.20107436 -0.22505897
-0.097546361 0.20107436 -0.22505897
-0.079774648 0.20107436 -0.22505897
-0.062002935 0.20107436 -0.22505897
-0.044231217 0.20107436 -0.22505897
-0.026459504 0.20107436 -0.22505897
-0.0086877896 0.20107436 -0.22505897
0.0090839257 0.20107436 -0.22505897
0.02685564 0.20107436 -0.22505897
0.044627357 0.20107436 -0.22505897
0.062399071 0.20107436 -0.22505897
0.080170788 0.20107436 -0.22505897
0.097942501 0.20107436 -0.22505897
0.11571421 0.20107436 -0.22505897
0.13348593 0.20107436 -0.22505897
0.15125765 0.20107436 -0.22505897
0.16902937 0.20107436 -0.22505897
0.18680023 0.20107281 -0.22506994
0.20457186 0.20107281 -0.22506994
0.2223435 0.20107281 -0.22506994
0.24011514 0.20107281 -0.22506994
0.25788674 0.20107281 -0.22506994
-0.25806805 0.34424683 -0.2200684
-0.24025793 0.34424683 -0.2200684
-0.22244778 0.34424683 -0.2200684
-0.20463768 0.34424683 -0.2200684
-0.18682753 0.34424683 -0.2200684
-0.16901739 0.34424683 -0.2200684
-0.15120727 0.34424683 -0.2200684
-0.13339713 0.34424683 -0.2200684
-0.115587 0.34424683 -0.2200684
-0.097776875 0.34424683 -0.2200684
-0.079966731 0.34424683 -0.2200684
-0.062156603 0.34424683 -0.2200684
-0.044346474 0.34424683 -0.2200684
-0.026536338 0.34424683 -0.2200684
-0.0087262066 0.34424683 -0.2200684
0.0090839257 0.34424683 -0.2200684
0.026894059 0.34424683 -0.2200684
0.044704191 0.34424683 -0.2200684
0.062514327 0.34424683 -0.2200684
0.080324456 0.34424683 -0.2200684
0.098134585 0.34424683 -0.2200684
0.11594473 0.34424683 -0.2200684
0.13375485 0.34424683 -0.2200684
0.15156499 0.34424683 -0.2200684
0.16937512 0.34424683 -0.2200684
0.18718524 0.34424683 -0.2200684
0.20499538 0.34424683 -0.2200684
0.22280553 0.34424683 -0.2200684
0.24061564 0.34424683 -0.2200684
0.25842577 0.34424683 -0.2200684
-0.25934359 0.18540138 -0.20902199
-0.24144843 0.18540138 -0.20902199
-0.22355326 0.18540138 -0.20902199
-0.20565809 0.18540138 -0.20902199
-0.18776293 0.18540138 -0.20902199
-0.16986775 0.18540138 -0.20902199
-0.15197259 0.18540138 -0.20902199
-0.13407741 0.18540138 -0.20902199
-0.11618225 0.18540138 -0.20902199
-0.098287083 0.18540138 -0.20902199
-0.080391914 0.18540138 -0.20902199
-0.062496744 0.18540138 -0.20902199
-0.044601578 0.18540138 -0.20902199
-0.026706409 0.18540138 -0.20902199
-0.0088112419 0.18540138 -0.20902199
0.0090839257 0.18540138 -0.20902199
0.026979093 0.18540138 -0.20902199
0.044874262 0.18540138 -0.20902199
0.062769428 0.18540138 -0.20902199
0.080664597 0.18540138 -0.20902199
0.098559767 0.18540138 -0.20902199
0.11645494 0.18540138 -0.20902199
0.13435011 0.18540138 -0.20902199
0.15224527 0.18540138 -0.20902199
0.17014045 0.18540138 -0.20902199
0.18803561 0.18540138 -0.20902199
0.20593078 0.18540138 -0.20902199
0.22382595 0.18540138 -0.20902199
0.24172111 0.18540138 -0.20902199
0.25961629 0.18540138 -0.20902199
-0.26136851 0.16966611 -0.19148546
-0.24333835 0.16966611 -0.19148546
-0.22530819 0.16966611 -0.19148546
-0.20727803 0.16966611 -0.19148546
-0.18924786 0.16966611 -0.19148546
-0.17121771 0.16966611 -0.19148546
-0.15318754 0.16966611 -0.19148546
-0.13515738 0.16966611 -0.19148546
-0.11712721 0.16966611 -0.19148546
-0.099097051 0.16966611 -0.19148546
-0.081066892 0.16966611 -0.19148546
-0.063036725 0.16966611 -0.19148546
-0.045006562 0.16966611 -0.19148546
-0.026976399 0.16966611 -0.19148546
-0.0089462372 0.16966611 -0.19148546
0.0090839257 0.16966611 -0.19148546
0.02711409 0.16966611 -0.19148546
0.045144252 0.16966611 -0.19148546
0.063174412 0.16966611 -0.19148546
0.081204578 0.16966611 -0.19148546
0.099234745 0.16966611 -0.19148546
0.1172649 0.16966611 -0.19148546
0.13529506 0.16966611 -0.19148546
0.15332523 0.16966611 -0.19148546
0.1713554 0.16966611 -0.19148546
0.18938556 0.16966611 -0.19148546
0.20741571 0.16966611 -0.19148546
0.22544588 0.16966611 -0.19148546
0.24347605 0.16966611 -0.19148546
0.2615062 0.16966611 -0.19148546
-0.24525824 0.15369299 -0.17367119
-0.22709097 0.15369299 -0.17367119
-0.20892365 0.15369299 -0.17367119
-0.19075635 0.15369299 -0.17367119
-0.17258906 0.15369299 -0.17367119
-0.15442176 0.15369299 -0.17367119
-0.13625446 0.15369299 -0.17367119
-0.11808716 0.15369299 -0.17367119
-0.099919863 0.15369299 -0.17367119
-0.081752568 0.15369299 -0.17367119
-0.063585266 0.15369299 -0.17367119
-0.045417968 0.15369299 -0.17367119
-0.02725067 0.15369299 -0.17367119
-0.0090833725 0.15369299 -0.17367119
0.0090839257 0.15369299 -0.17367119
0.027251225 0.15369299 -0.17367119
0.045418523 0.15369299 -0.17367119
0.063585818 0.15369299 -0.17367119
0.08175312 0.15369299 -0.17367119
0.099920422 0.15369299 -0.17367119
0.11808772 0.15369299 -0.17367119
0.13625501 0.15369299 -0.17367119
0.15442231 0.15369299 -0.17367119
0.17258961 0.15369299 -0.17367119
0.19075692 0.15369299 -0.17367119
0.2089242 0.15369299 -0.17367119
0.22709151 0.15369299 -0.17367119
0.24525882 0.15369299 -0.17367119
-0.22725971 0.37205103 -0.17198497
-0.20907941 0.37205103 -0.17198497
-0.19089817 0.37204859 -0.17199636
-0.17271797 0.37204859 -0.17199636
-0.15453699 0.3720462 -0.17200804
-0.13635689 0.3720462 -0.17200804
-0.11817679 0.3720462 -0.17200804
-0.099996686 0.3720462 -0.17200804
-0.081816584 0.3720462 -0.17200804
-0.063636482 0.3720462 -0.17200804
-0.04545638 0.3720462 -0.17200804
-0.027276278 0.3720462 -0.17200804
-0.0090961764 0.3720462 -0.17200804
0.0090839257 0.3720462 -0.17200804
0.027264029 0.3720462 -0.17200804
0.045444131 0.3720462 -0.17200804
0.063624233 0.3720462 -0.17200804
0.081804335 0.3720462 -0.17200804
0.099984437 0.3720462 -0.17200804
0.11816454 0.3720462 -0.17200804
0.13634464 0.3720462 -0.17200804
0.15452474 0.3720462 -0.17200804
0.17270564 0.37204859 -0.17199636
0.19088583 0.37204859 -0.17199636
0.20906699 0.37205103 -0.17198497
0.22724834 0.37205341 -0.17197359
0.24542984 0.37205586 -0.17196214
-0.24720508 0.13747251 -0.15560687
-0.22889872 0.13747251 -0.15560687
-0.21059236 0.13747251 -0.15560687
-0.192286 0.13747251 -0.15560687
-0.17397964 0.13747251 -0.15560687
-0.15567331 0.13747251 -0.15560687
-0.13736694 0.13747251 -0.15560687
-0.11906058 0.13747251 -0.15560687
-0.10075422 0.13747251 -0.15560687
-0.082447857 0.13747251 -0.15560687
-0.064141504 0.13747251 -0.15560687
-0.045835145 0.13747251 -0.15560687
-0.027528789 0.13747251 -0.15560687
-0.009222432 0.13747251 -0.15560687
0.0090839257 0.13747251 -0.15560687
0.027390283 0.13747251 -0.15560687
0.045696642 0.13747251 -0.15560687
0.064002998 0.13747251 -0.15560687
0.082309358 0.13747251 -0.15560687
0.10061571 0.13747251 -0.15560687
0.11892207 0.13747251 -0.15560687
0.13722843 0.13747251 -0.15560687
0.15553479 0.13747251 -0.15560687
0.17384116 0.13747251 -0.15560687
0.19214749 0.13747251 -0.15560687
0.21045385 0.13747251 -0.15560687
0.22876021 0.13747251 -0.15560687
0.24706657 0.13747251 -0.15560687
0.26602432 0.15647686 -0.1495629
-0.24918193 0.12100172 -0.13726395
-0.23073436 0.12100172 -0.13726395
-0.2122868 0.12100172 -0.13726395
-0.19383924 0.12100172 -0.13726395
-0.17539169 0.12100172 -0.13726395
-0.15694413 0.12100172 -0.13726395
-0.13849656 0.12100172 -0.13726395
-0.120049 0.12100172 -0.13726395
-0.10160144 0.12100172 -0.13726395
-0.083153881 0.12100172 -0.13726395
-0.064706318 0.12100172 -0.13726395
-0.046258755 0.12100172 -0.13726395
-0.027811196 0.12100172 -0.13726395
-0.0093636354 0.12100172 -0.13726395
0.0090839257 0.12100172 -0.13726395
0.027531486 0.12100172 -0.13726395
0.045979049 0.12100172 -0.13726395
0.064426608 0.12100172 -0.13726395
0.082874171 0.12100172 -0.13726395
0.10132173 0.12100172 -0.13726395
0.11976929 0.12100172 -0.13726395
0.13821685 0.12100172 -0.13726395
0.15666442 0.12100172 -0.13726395
0.17511198 0.12100172 -0.13726395
0.19355954 0.12100172 -0.13726395
0.21200709 0.12100172 -0.13726395
0.23045465 0.12100172 -0.13726395
0.24890222 0.12100172 -0.13726395
-0.26761857 0.15788606 -0.13735855
-0.25118822 0.10427384 -0.11864799
-0.23259737 0.10427384 -0.11864799
-0.2140065 0.10427384 -0.11864799
-0.19541562 0.10427384 -0.11864799
-0.17682475 0.10427384 -0.11864799
-0.15823387 0.10427384 -0.11864799
-0.13964301 0.10427384 -0.11864799
-0.12105215 0.10427384 -0.11864799
-0.10246129 0.10427384 -0.11864799
-0.083870411 0.10427384 -0.11864799
-0.065279543 0.10427384 -0.11864799
-0.04668868 0.10427384 -0.11864799
-0.028097808 0.10427384 -0.11864799
-0.0095069418 0.10427384 -0.11864799
0.0090839257 0.10427384 -0.11864799
0.027674794 0.10427384 -0.11864799
0.046265662 0.10427384 -0.11864799
0.064856529 0.10427384 -0.11864799
0.083447397 0.10427384 -0.11864799
0.10203826 0.10427384 -0.11864799
0.12062914 0.10427384 -0.11864799
0.13922 0.10427384 -0.11864799
0.15781087 0.10427384 -0.11864799
0.17640172 0.10427384 -0.11864799
0.1949926 0.10427384 -0.11864799
0.21358347 0.10427384 -0.11864799
0.23217435 0.10427384 -0.11864799
0.2507652 0.10427384 -0.11864799
-0.25322723 0.087285176 -0.099728227
-0.23449074 0.087285176 -0.099728227
-0.21575421 0.087285176 -0.099728227
-0.19701771 0.087285176 -0.099728227
-0.17828119 0.087285176 -0.099728227
-0.15954469 0.087285176 -0.099728227
-0.14080817 0.087285176 -0.099728227
-0.12207165 0.087285176 -0.099728227
-0.10333514 0.087285176 -0.099728227
-0.084598631 0.087285176 -0.099728227
-0.065862119 0.087285176 -0.099728227
-0.047125608 0.087285176 -0.099728227
-0.028389096 0.087285176 -0.099728227
-0.0096525857 0.087285176 -0.099728227
0.0090839257 0.087285176 -0.099728227
0.027820438 0.087285176 -0.099728227
0.04655695 0.087285176 -0.099728227
0.065293461 0.087285176 -0.099728227
0.084029973 0.087285176 -0.099728227
0.10276648 0.087285176 -0.099728227
0.121503 0.087285176 -0.099728227
0.14023951 0.087285176 -0.099728227
0.15897602 0.087285176 -0.099728227
0.17771254 0.087285176 -0.099728227
0.19644904 0.087285176 -0.099728227
0.21518557 0.087285176 -0.099728227
0.23392206 0.087285176 -0.099728227
0.25265858 0.087285176 -0.099728227
-0.23641276 0.070027113 -0.080521941
-0.21752842 0.070027113 -0.080521941
-0.19864406 0.070027113 -0.080521941
-0.17975968 0.070027113 -0.080521941
-0.16087532 0.070027113 -0.080521941
-0.14199094 0.070027113 -0.080521941
-0.1231066 0.070027113 -0.080521941
-0.10422225 0.070027113 -0.080521941
-0.085337877 0.070027113 -0.080521941
-0.066453516 0.070027113 -0.080521941
-0.047569159 0.070027113 -0.080521941
-0.028684795 0.070027113 -0.080521941
-0.009800435 0.070027113 -0.080521941
0.0090839257 0.070027113 -0.080521941
0.027968287 0.070027113 -0.080521941
0.046852648 0.070027113 -0.080521941
0.065737009 0.070027113 -0.080521941
0.08462137 0.070027113 -0.080521941
0.10350573 0.070027113 -0.080521941
0.1223901 0.070027113 -0.080521941
0.14127445 0.070027113 -0.080521941
0.1601588 0.070027113 -0.080521941
0.17904317 0.070027113 -0.080521941
0.19792753 0.070027113 -0.080521941
0.21681191 0.070027113 -0.080521941
0.23569627 0.070027113 -0.080521941
-0.23836663 0.05249548 -0.060997725
-0.21933198 0.05249548 -0.060997725
-0.20029733 0.05249548 -0.060997725
-0.18126266 0.05249548 -0.060997725
-0.162228 0.05249548 -0.060997725
-0.14319335 0.05249548 -0.060997725
-0.12415868 0.05249548 -0.060997725
-0.10512403 0.05249548 -0.060997725
-0.086089365 0.05249548 -0.060997725
-0.067054711 0.05249548 -0.060997725
-0.04802005 0.05249548 -0.060997725
-0.028985392 0.05249548 -0.060997725
-0.0099507337 0.05249548 -0.060997725
0.0090839257 0.05249548 -0.060997725
0.028118584 0.05249548 -0.060997725
0.047153246 0.05249548 -0.060997725
0.066187903 0.05249548 -0.060997725
0.085222565 0.05249548 -0.060997725
0.10425722 0.05249548 -0.060997725
0.12329188 0.05249548 -0.060997725
0.14232653 0.05249548 -0.060997725
0.1613612 0.05249548 -0.060997725
0.18039586 0.05249548 -0.060997725
0.19943051 0.05249548 -0.060997725
0.21846518 0.05249548 -0.060997725
0.23749983 0.05249548 -0.060997725
-0.2570208 0.071258292 -0.064528584
0.25549123 0.070727587 -0.071422696
-0.24035059 0.034681693 -0.0411731
-0.22116332 0.034681693 -0.0411731
-0.20197605 0.034681693 -0.0411731
-0.18278876 0.034681693 -0.0411731
-0.1636015 0.034681693 -0.0411731
-0.14441423 0.034681693 -0.0411731
-0.12522696 0.034681693 -0.0411731
-0.1060397 0.034681693 -0.0411731
-0.086852416 0.034681693 -0.0411731
-0.067665152 0.034681693 -0.0411731
-0.048477884 0.034681693 -0.0411731
-0.029290613 0.034681693 -0.0411731
-0.010103344 0.034681693 -0.0411731
0.0090839257 0.034681693 -0.0411731
0.028271195 0.034681693 -0.0411731
0.047458466 0.034681693 -0.0411731
0.066645734 0.034681693 -0.0411731
0.085833006 0.034681693 -0.0411731
0.10502027 0.034681693 -0.0411731
0.12420755 0.034681693 -0.0411731
0.14339481 0.034681693 -0.0411731
0.16258208 0.034681693 -0.0411731
0.18176936 0.034681693 -0.0411731
0.20095661 0.034681693 -0.0411731
0.2201439 0.034681693 -0.0411731
0.23933117 0.034681693 -0.0411731
-0.24236789 0.016580567 -0.02101481
-0.22302544 0.016580567 -0.02101481
-0.203683 0.016580567 -0.02101481
-0.18434055 0.016580567 -0.02101481
-0.16499811 0.016580567 -0.02101481
-0.14565566 0.016580567 -0.02101481
-0.12631321 0.016580567 -0.02101481
-0.10697076 0.016580567 -0.02101481
-0.087628312 0.016580567 -0.02101481
-0.068285868 0.016580567 -0.02101481
-0.048943415 0.016580567 -0.02101481
-0.02960097 0.016580567 -0.02101481
-0.010258523 0.016580567 -0.02101481
0.0090839257 0.016580567 -0.02101481
0.028426375 0.016580567 -0.02101481
0.047768824 0.016580567 -0.02101481
0.067111269 0.016580567 -0.02101481
0.086453721 0.016580567 -0.02101481
0.10579617 0.016580567 -0.02101481
0.12513861 0.016580567 -0.02101481
0.14448106 0.016580567 -0.02101481
0.16382352 0.016580567 -0.02101481
0.18316597 0.016580567 -0.02101481
0.2025084 0.016580567 -0.02101481
0.22185086 0.016580567 -0.02101481
0.24119329 0.016580567 -0.02101481
0.2610217 0.055601984 -0.016159058
-0.24441677 -0.0018161386 -0.00054109097
-0.22491673 -0.0018161386 -0.00054109097
-0.20541666 -0.0018161386 -0.00054109097
-0.18591662 -0.0018161386 -0.00054109097
-0.16641656 -0.0018161386 -0.00054109097
-0.14691651 -0.0018161386 -0.00054109097
-0.12741645 -0.0018161386 -0.00054109097
-0.1079164 -0.0018161386 -0.00054109097
-0.088416345 -0.0018161386 -0.00054109097
-0.068916291 -0.0018161386 -0.00054109097
-0.049416237 -0.0018161386 -0.00054109097
-0.029916182 -0.0018161386 -0.00054109097
-0.010416129 -0.0018161386 -0.00054109097
0.0090839257 -0.0018161386 -0.00054109097
0.028583981 -0.0018161386 -0.00054109097
0.048084036 -0.0018161386 -0.00054109097
0.06758409 -0.0018161386 -0.00054109097
0.087084144 -0.0018161386 -0.00054109097
0.1065842 -0.0018161386 -0.00054109097
0.12608425 -0.0018161386 -0.00054109097
0.1455843 -0.0018161386 -0.00054109097
0.16508436 -0.0018161386 -0.00054109097
0.18458441 -0.0018161386 -0.00054109097
0.20408447 -0.0018161386 -0.00054109097
0.22358452 -0.0018161386 -0.00054109097
0.24308458 -0.0018161386 -0.00054109097
-0.26364669 0.056510314 -0.0030477047
-0.22683908 -0.020515248 0.020268917
-0.20717883 -0.020515248 0.020268917
-0.18751858 -0.020515248 0.020268917
-0.16785833 -0.020515248 0.020268917
-0.14819808 -0.020515248 0.020268917
-0.12853783 -0.020515248 0.020268917
-0.10887758 -0.020515248 0.020268917
-0.089217328 -0.020515248 0.020268917
-0.069557078 -0.020515248 0.020268917
-0.049896825 -0.020515248 0.020268917
-0.030236576 -0.020515248 0.020268917
-0.010576325 -0.020515248 0.020268917
0.0090839257 -0.020515248 0.020268917
0.028744176 -0.020515248 0.020268917
0.048404429 -0.020515248 0.020268917
0.068064675 -0.020515248 0.020268917
0.087724932 -0.020515248 0.020268917
0.10738518 -0.020515248 0.020268917
0.12704542 -0.020515248 0.020268917
0.14670569 -0.020515248 0.020268917
0.16636594 -0.020515248 0.020268917
0.18602619 -0.020515248 0.020268917
0.20568644 -0.020515248 0.020268917
0.22534668 -0.020515248 0.020268917
0.24561238 -0.020262994 0.026822925
-0.22891183 -0.059317525 0.042707205
-0.20907888 -0.059317525 0.042707205
-0.18924588 -0.059317525 0.042707205
-0.16941291 -0.059317525 0.042707205
-0.14957991 -0.059317525 0.042707205
-0.12974694 -0.059317525 0.042707205
-0.10991395 -0.059317525 0.042707205
-0.090080976 -0.059317525 0.042707205
-0.070247993 -0.059317525 0.042707205
-0.050415013 -0.059317525 0.042707205
-0.030582033 -0.059317525 0.042707205
-0.010749054 -0.059317525 0.042707205
0.0090839257 -0.059317525 0.042707205
0.028916907 -0.059317525 0.042707205
0.048749886 -0.059317525 0.042707205
0.068582863 -0.059317525 0.042707205
0.088415846 -0.059317525 0.042707205
0.10824883 -0.059317525 0.042707205
0.1280818 -0.059317525 0.042707205
0.1479148 -0.059317525 0.042707205
0.16774777 -0.059317525 0.042707205
0.18758076 -0.059317525 0.042707205
0.20741373 -0.059317525 0.042707205
0.22724673 -0.059317525 0.042707205
-0.22800799 -0.039785922 0.032922745
-0.20825033 -0.039785922 0.032922745
-0.18849267 -0.039785922 0.032922745
-0.168735 -0.039785922 0.032922745
-0.14897735 -0.039785922 0.032922745
-0.12921968 -0.039785922 0.032922745
-0.10946203 -0.039785922 0.032922745
-0.089704372 -0.039785922 0.032922745
-0.069946706 -0.039785922 0.032922745
-0.050189052 -0.039785922 0.032922745
-0.03043139 -0.039785922 0.032922745
-0.010673732 -0.039785922 0.032922745
0.0090839257 -0.039785922 0.032922745
0.028841585 -0.039785922 0.032922745
0.048599243 -0.039785922 0.032922745
0.068356901 -0.039785922 0.032922745
0.08811456 -0.039785922 0.032922745
0.10787223 -0.039785922 0.032922745
0.12762988 -0.039785922 0.032922745
0.14738753 -0.039785922 0.032922745
0.16714521 -0.039785922 0.032922745
0.18690285 -0.039785922 0.032922745
0.20666052 -0.039785922 0.032922745
0.22641818 -0.039785922 0.032922745
-0.24786744 -0.019989036 0.033939719
-0.22982389 -0.078998536 0.052580476
-0.20991491 -0.078998536 0.052580476
-0.19000591 -0.078998536 0.052580476
-0.17009695 -0.078998536 0.052580476
-0.15018797 -0.078998536 0.052580476
-0.13027897 -0.078998536 0.052580476
-0.11036998 -0.078998536 0.052580476
-0.090460993 -0.078998536 0.052580476
-0.070552014 -0.078998536 0.052580476
-0.050643027 -0.078998536 0.052580476
-0.030734044 -0.078998536 0.052580476
-0.010825059 -0.078998536 0.052580476
0.0090839257 -0.078998536 0.052580476
0.02899291 -0.078998536 0.052580476
0.048901897 -0.078998536 0.052580476
0.06881088 -0.078998536 0.052580476
0.088719867 -0.078998536 0.052580476
0.10862885 -0.078998536 0.052580476
0.12853783 -0.078998536 0.052580476
0.14844683 -0.078998536 0.052580476
0.16835582 -0.078998536 0.052580476
0.1882648 -0.078998536 0.052580476
0.20817377 -0.078998536 0.052580476
0.22808276 -0.078998536 0.052580476
-0.21160637 -0.11881651 0.07255578
-0.19154362 -0.11881651 0.07255578
-0.17148086 -0.11881651 0.07255578
-0.1514181 -0.11881651 0.07255578
-0.13135536 -0.11881651 0.07255578
-0.1112926 -0.11881651 0.07255578
-0.091229849 -0.11881651 0.07255578
-0.071167089 -0.11881651 0.07255578
-0.051104337 -0.11881651 0.07255578
-0.031041581 -0.11881651 0.07255578
-0.01097883 -0.11881651 0.07255578
0.0090839257 -0.11881651 0.07255578
0.029146682 -0.11881651 0.07255578
0.049209435 -0.11881651 0.07255578
0.06927219 -0.11881651 0.07255578
0.089334942 -0.11881651 0.07255578
0.1093977 -0.11881651 0.07255578
0.12946045 -0.11881651 0.07255578
0.14952321 -0.11881651 0.07255578
0.16958596 -0.11881651 0.07255578
0.18964872 -0.11881651 0.07255578
0.20971148 -0.11881651 0.07255578
-0.21075739 -0.098830983 0.062529802
-0.19077182 -0.098830983 0.062529802
-0.17078625 -0.098830983 0.062529802
-0.15080066 -0.098830983 0.062529802
-0.13081509 -0.098830983 0.062529802
-0.11082952 -0.098830983 0.062529802
-0.090843946 -0.098830983 0.062529802
-0.070858367 -0.098830983 0.062529802
-0.050872795 -0.098830983 0.062529802
-0.03088722 -0.098830983 0.062529802
-0.010901648 -0.098830983 0.062529802
0.0090839257 -0.098830983 0.062529802
0.029069498 -0.098830983 0.062529802
0.049055073 -0.098830983 0.062529802
0.069040649 -0.098830983 0.062529802
0.08902622 -0.098830983 0.062529802
0.1090118 -0.098830983 0.062529802
0.12899737 -0.098830983 0.062529802
0.14898294 -0.098830983 0.062529802
0.16896851 -0.098830983 0.062529802
0.1889541 -0.098830983 0.062529802
0.20893967 -0.098830983 0.062529802
0.22972216 -0.098758437 0.071940899
0.26925224 0.041287109 0.066085696
-0.21246074 -0.13895692 0.082645535
-0.19232033 -0.13895692 0.082645535
-0.17217989 -0.13895692 0.082645535
-0.15203948 -0.13895692 0.082645535
-0.13189906 -0.13895692 0.082645535
-0.11175863 -0.13895692 0.082645535
-0.091618203 -0.13895692 0.082645535
-0.071477778 -0.13895692 0.082645535
-0.05133735 -0.13895692 0.082645535
-0.031196926 -0.13895692 0.082645535
-0.0110565 -0.13895692 0.082645535
0.0090839257 -0.13895692 0.082645535
0.029224351 -0.13895692 0.082645535
0.049364779 -0.13895692 0.082645535
0.0695052 -0.13895692 0.082645535
0.089645632 -0.13895692 0.082645535
0.10978606 -0.13895692 0.082645535
0.12992647 -0.13895692 0.082645535
0.15006691 -0.13895692 0.082645535
0.17020734 -0.13895692 0.082645535
0.19034775 -0.13895692 0.082645535
0.21048819 -0.13895692 0.082645535
-0.23231003 -0.098700345 0.079493761
0.25107393 -0.038153216 0.085946083
-0.21333379 -0.15925616 0.092955589
-0.19311401 -0.15925616 0.092955589
-0.17289421 -0.15925616 0.092955589
-0.15267441 -0.15925616 0.092955589
-0.13245462 -0.15925616 0.092955589
-0.11223483 -0.15925616 0.092955589
-0.092015043 -0.15925616 0.092955589
-0.07179524 -0.15925616 0.092955589
-0.051575452 -0.15925616 0.092955589
-0.031355657 -0.15925616 0.092955589
-0.011135866 -0.15925616 0.092955589
0.0090839257 -0.15925616 0.092955589
0.029303718 -0.15925616 0.092955589
0.04952351 -0.15925616 0.092955589
0.069743305 -0.15925616 0.092955589
0.089963093 -0.15925616 0.092955589
0.1101829 -0.15925616 0.092955589
0.13040268 -0.15925616 0.092955589
0.15062247 -0.15925616 0.092955589
0.17084226 -0.15925616 0.092955589
0.19106206 -0.15925616 0.092955589
0.21128187 -0.15925616 0.092955589
-0.29480433 -0.098557279 0.098077178
-0.27351961 -0.098630518 0.088561416
-0.25381458 -0.098593578 0.093367457
0.25179753 -0.098590299 0.093779325
0.27158791 -0.098623872 0.089424849
0.29285592 -0.098547012 0.099403262
-0.25375631 -0.037942611 0.09278512
-0.19410361 -0.17977276 0.105811
-0.17378487 -0.17977276 0.105811
-0.15346612 -0.17977276 0.105811
-0.13314736 -0.17977276 0.105811
-0.1128286 -0.17977276 0.105811
-0.092509843 -0.17977276 0.105811
-0.072191097 -0.17977276 0.105811
-0.051872339 -0.17977276 0.105811
-0.031553585 -0.17977276 0.105811
-0.01123483 -0.17977276 0.105811
0.0090839257 -0.17977276 0.105811
0.029402681 -0.17977276 0.105811
0.049721438 -0.17977276 0.105811
0.070040189 -0.17977276 0.105811
0.09035895 -0.17977276 0.105811
0.1106777 -0.17977276 0.105811
0.13099645 -0.17977276 0.105811
0.15131521 -0.17977276 0.105811
0.17163397 -0.17977276 0.105811
0.19195272 -0.17977276 0.105811
-0.19510408 -0.2004917 0.11880744
-0.17468527 -0.2004917 0.11880744
-0.15426648 -0.2004917 0.11880744
-0.13384768 -0.2004917 0.11880744
-0.11342888 -0.2004917 0.11880744
-0.093010075 -0.2004917 0.11880744
-0.072591275 -0.2004917 0.11880744
-0.052172478 -0.2004917 0.11880744
-0.031753674 -0.2004917 0.11880744
-0.011334875 -0.2004917 0.11880744
0.0090839257 -0.2004917 0.11880744
0.029502727 -0.2004917 0.11880744
0.049921528 -0.2004917 0.11880744
0.070340328 -0.2004917 0.11880744
0.090759128 -0.2004917 0.11880744
0.11117793 -0.2004917 0.11880744
0.13159673 -0.2004917 0.11880744
0.15201554 -0.2004917 0.11880744
0.17243433 -0.2004917 0.11880744
0.19285312 -0.2004917 0.11880744
-0.21618569 -0.18025367 0.12663496
0.21328643 -0.1800772 0.11899579
-0.19617751 -0.22144717 0.1327517
-0.17565136 -0.22144717 0.1327517
-0.15512522 -0.22144717 0.1327517
-0.13459909 -0.22144717 0.1327517
-0.11407293 -0.22144717 0.1327517
-0.093546793 -0.22144717 0.1327517
-0.073020644 -0.22144717 0.1327517
-0.052494504 -0.22144717 0.1327517
-0.031968359 -0.22144717 0.1327517
-0.011442217 -0.22144717 0.1327517
0.0090839257 -0.22144717 0.1327517
0.029610068 -0.22144717 0.1327517
0.050136212 -0.22144717 0.1327517
0.070662357 -0.22144717 0.1327517
0.091188498 -0.22144717 0.1327517
0.11171465 -0.22144717 0.1327517
0.13224079 -0.22144717 0.1327517
0.15276694 -0.22144717 0.1327517
0.17329307 -0.22144717 0.1327517
0.19381921 -0.22144717 0.1327517
-0.23796459 -0.11881651 0.14070582
0.23490496 -0.11881655 0.13314688
-0.19747193 -0.24275002 0.14956689
-0.17681636 -0.24275002 0.14956689
-0.15616077 -0.24275002 0.14956689
-0.13550518 -0.24275002 0.14956689
-0.11484959 -0.24275002 0.14956689
-0.094194002 -0.24275002 0.14956689
-0.073538423 -0.24275002 0.14956689
-0.052882832 -0.24275002 0.14956689
-0.032227248 -0.24275002 0.14956689
-0.011571662 -0.24275002 0.14956689
0.0090839257 -0.24275002 0.14956689
0.029739514 -0.24275002 0.14956689
0.050395101 -0.24275002 0.14956689
0.071050681 -0.24275002 0.14956689
0.091706276 -0.24275002 0.14956689
0.11236186 -0.24275002 0.14956689
0.13301744 -0.24275002 0.14956689
0.15367304 -0.24275002 0.14956689
0.17432863 -0.24275002 0.14956689
0.19498421 -0.24275002 0.14956689
-0.25995123 -0.05673144 0.15468872
0.25676361 -0.056896601 0.14753854
-0.17828456 -0.26454759 0.17075849
-0.15746583 -0.26454759 0.17075849
-0.13664711 -0.26454759 0.17075849
-0.11582839 -0.26454759 0.17075849
-0.095009677 -0.26454759 0.17075849
-0.074190952 -0.26454759 0.17075849
-0.05337223 -0.26454759 0.17075849
-0.032553513 -0.26454759 0.17075849
-0.011734794 -0.26454759 0.17075849
0.0090839257 -0.26454759 0.17075849
0.029902644 -0.26454759 0.17075849
0.050721366 -0.26454759 0.17075849
0.07154008 -0.26454759 0.17075849
0.092358805 -0.26454759 0.17075849
0.11317753 -0.26454759 0.17075849
0.13399623 -0.26454759 0.17075849
0.15481496 -0.26454759 0.17075849
0.17563368 -0.26454759 0.17075849
-0.19966559 -0.2649411 0.17806339
0.19679195 -0.26481161 0.1756593
0.21816485 -0.20244886 0.18236816
-0.18009664 -0.28697702 0.19691384
-0.15907659 -0.28697702 0.19691384
-0.13805652 -0.28697702 0.19691384
-0.11703646 -0.28697702 0.19691384
-0.096016385 -0.28697702 0.19691384
-0.07499633 -0.28697702 0.19691384
-0.053976268 -0.28697702 0.19691384
-0.032956202 -0.28697702 0.19691384
-0.011936138 -0.28697702 0.19691384
0.0090839257 -0.28697702 0.19691384
0.030103989 -0.28697702 0.19691384
0.051124055 -0.28697702 0.19691384
0.072144121 -0.28697702 0.19691384
0.093164183 -0.28697702 0.19691384
0.11418424 -0.28697702 0.19691384
0.13520432 -0.28697702 0.19691384
0.15622437 -0.28697702 0.19691384
0.17724444 -0.28697702 0.19691384
-0.22154707 -0.20268229 0.18994987
0.24033453 -0.13983931 0.19726682
-0.24388042 -0.13989688 0.20474672
-0.18234386 -0.31024438 0.22934973
-0.1610741 -0.31024438 0.22934973
-0.13980435 -0.31024438 0.22934973
-0.11853459 -0.31024438 0.22934973
-0.097264849 -0.31024438 0.22934973
-0.075995088 -0.31024438 0.22934973
-0.054725334 -0.31024438 0.22934973
-0.03345558 -0.31024438 0.22934973
-0.012185828 -0.31024438 0.22934973
0.0090839257 -0.31024438 0.22934973
0.03035368 -0.31024438 0.22934973
0.051623434 -0.31024438 0.22934973
0.072893187 -0.31024438 0.22934973
0.094162941 -0.31024438 0.22934973
0.1154327 -0.31024438 0.22934973
0.13670245 -0.31024438 0.22934973
0.1579722 -0.31024438 0.22934973
0.17924196 -0.31024438 0.22934973
0.26393986 -0.076340593 0.22522366
-0.20452583 -0.28970426 0.24119961
0.20079514 -0.28922647 0.23344076
-0.26839957 -0.076126799 0.23910928
-0.055229649 -0.4189465 0.25118697
-0.033791788 -0.4189465 0.25118697
-0.012353932 -0.4189465 0.25118697
0.0090839257 -0.4189465 0.25118697
0.030521784 -0.4189465 0.25118697
0.051959641 -0.4189465 0.25118697
-0.055174403 -0.39726922 0.24879479
-0.033754963 -0.39726922 0.24879479
-0.012335519 -0.39726922 0.24879479
0.0090839257 -0.39726922 0.24879479
0.03050337 -0.39726922 0.24879479
0.051922817 -0.39726922 0.24879479
-0.055348925 -0.37654793 0.25635171
-0.033871308 -0.37654793 0.25635171
-0.012390117 -0.37650502 0.25588739
0.0090839257 -0.37654793 0.25635171
0.030557968 -0.37650502 0.25588739
0.052039161 -0.37654793 0.25635171
-0.22717257 -0.2262059 0.2563839
0.22328696 -0.22591805 0.24890649
-0.055524766 -0.35571504 0.26396608
-0.033988535 -0.35571504 0.26396608
-0.012452307 -0.35571504 0.26396608
0.0090839257 -0.35571504 0.26396608
0.030620158 -0.35571504 0.26396608
0.052156389 -0.35571504 0.26396608
-0.18481918 -0.33426434 0.26507783
-0.16327539 -0.33426571 0.26509404
-0.14173135 -0.3342669 0.26511014
-0.12018706 -0.33426809 0.26512635
-0.098642513 -0.33426934 0.26514232
-0.077097222 -0.33426934 0.26514232
-0.055551939 -0.33426934 0.26514232
-0.034006648 -0.33426934 0.26514232
-0.012461361 -0.33426934 0.26514232
0.0090839257 -0.33426934 0.26514232
0.030629214 -0.33426934 0.26514232
0.052174501 -0.33426934 0.26514232
0.073719792 -0.33426934 0.26514232
0.095264584 -0.33426809 0.26512635
0.11680974 -0.33426809 0.26512635
0.13835417 -0.3342669 0.26511014
0.15989831 -0.33426571 0.26509404
0.18144226 -0.33426434 0.26507783
-0.250094 -0.16201288 0.2720108
0.2460234 -0.16189636 0.26444936
-0.16566388 -0.35909474 0.30387831
-0.1438213 -0.35909617 0.30389488
-0.12197846 -0.3590976 0.30391145
-0.10013537 -0.35909894 0.30392778
-0.078290485 -0.35909617 0.30389488
0.074615501 -0.35909894 0.30392778
0.096458852 -0.3590976 0.30391145
0.11830258 -0.3590976 0.30391145
0.14014554 -0.35909617 0.30389488
0.16198826 -0.35909474 0.30387831
0.20557652 -0.31530905 0.30245388
-0.18767396 -0.35929841 0.306283
0.18394507 -0.35925063 0.30571878
-0.20985714 -0.31586346 0.31045532
0.22864185 -0.25055125 0.31846857
-0.23311074 -0.25092268 0.32651019
-0.16811951 -0.38462156 0.34375238
-0.14596999 -0.3846232 0.34376943
-0.12382022 -0.38462481 0.34378648
-0.10166887 -0.3846232 0.34376943
-0.079517789 -0.38462156 0.34375238
0.075535215 -0.38462156 0.34375238
0.097686686 -0.38462481 0.34378648
0.11983738 -0.38462481 0.34378648
0.14198728 -0.3846232 0.34376943
0.16413692 -0.38462156 0.34375238
-0.25662521 -0.18524376 0.34271348
0.25198919 -0.18506336 0.33490217
-0.19080257 -0.38533181 0.35144067
0.18665327 -0.38517055 0.34969437
0.21058682 -0.34270859 0.37477124
-0.17064618 -0.41087791 0.38478076
-0.14818086 -0.4108797 0.38479829
-0.12571286 -0.41087621 0.38476324
-0.10324672 -0.41087621 0.38476324
-0.080780588 -0.41087621 0.38476324
0.076482318 -0.41087621 0.38476324
0.098948441 -0.41087621 0.38476324
0.12141525 -0.41087791 0.38478076
0.14388151 -0.41087791 0.38478076
0.16634777 -0.41087791 0.38478076
-0.21543172 -0.3433322 0.38287139
-0.19448058 -0.41285414 0.40452826
0.18987493 -0.41260183 0.40200746
-0.23931462 -0.27688834 0.39977443
0.23430932 -0.27647436 0.39209092
-0.2637808 -0.20977148 0.42017484
0.25825414 -0.20942381 0.40888762
-0.17324485 -0.43789193 0.42697823
-0.15045378 -0.43789193 0.42697823
-0.12766266 -0.43789193 0.42697823
-0.10487157 -0.43789193 0.42697823
-0.082080461 -0.43789193 0.42697823
0.077457219 -0.43789193 0.42697823
0.10024831 -0.43789193 0.42697823
0.12303942 -0.43789193 0.42697823
0.14583051 -0.43789193 0.42697823
0.16862163 -0.43789193 0.42697823
-0.19828883 -0.44139636 0.45949543
0.19325645 -0.44111842 0.45691621
-0.22132032 -0.37226123 0.45936632
0.21587457 -0.37156063 0.45109308
-0.24586836 -0.30423632 0.47717047
0.24024281 -0.3037436 0.46916974
-0.17728284 -0.46825421 0.49254668
-0.15398699 -0.46825421 0.49254668
-0.13069116 -0.46825421 0.49254668
-0.10739531 -0.46825421 0.49254668
-0.084099457 -0.46825421 0.49254668
-0.060803615 -0.46825421 0.49254668
-0.037507765 -0.46825421 0.49254668
-0.01421192 -0.46825421 0.49254668
0.0090839257 -0.46825421 0.49254668
0.032379773 -0.46825421 0.49254668
0.055675618 -0.46825421 0.49254668
0.078971468 -0.46825421 0.49254668
0.10226731 -0.46825421 0.49254668
0.12556316 -0.46825421 0.49254668
0.14885901 -0.46825421 0.49254668
0.17215484 -0.46825421 0.49254668
-0.20257312 -0.47157821 0.52133369
0.19676803 -0.47072423 0.51393759
0.26746559 -0.23626265 0.51766944
0.22146605 -0.40199265 0.5317992
-0.22748421 -0.40269834 0.53943777
0.24650195 -0.33249286 0.5504781
-0.25277898 -0.33306789 0.55878079
0.22732443 -0.4340528 0.6163578
-0.2340818 -0.43493202 0.62514305
0.25314447 -0.36287719 0.63676727
-0.26005 -0.36348373 0.64464748
0.23353614 -0.46796438 0.7060163
-0.24099773 -0.46893084 0.71498322
0.26104382 -0.39597237 0.73938274
-0.26949814 -0.39739862 0.75622487
-0.2483097 -0.50490701 0.80996859
0.2401277 -0.50388962 0.801157
-0.22306715 -0.53152961 0.81713963
-0.1972726 -0.53152961 0.81713963
-0.17147802 -0.53152961 0.81713963
-0.14568347 -0.53152961 0.81713963
-0.11988801 -0.53152674 0.8171165
-0.094093621 -0.53152674 0.8171165
-0.068299234 -0.53152674 0.8171165
-0.042504847 -0.53152674 0.8171165
-0.01671046 -0.53152674 0.8171165
0.0090839257 -0.53152674 0.8171165
0.034878314 -0.53152674 0.8171165
0.0606727 -0.53152674 0.8171165
0.086466551 -0.53152394 0.81709361
0.11226077 -0.53152394 0.81709361
0.13805497 -0.53152394 0.81709361
0.16384917 -0.53152394 0.81709361
0.1896434 -0.53152394 0.81709361
0.21543761 -0.53152394 0.81709361
0 0 0 1 0 0 0 1 0 0 0 1 0 0 0 0 0 1141 1 0 0
