ply
format ascii 1.0
comment PCL generated
element vertex 1278
property float x
property float y
property float z
element camera 1
property float view_px
property float view_py
property float view_pz
property float x_axisx
property float x_axisy
property float x_axisz
property float y_axisx
property float y_axisy
property float y_axisz
property float z_axisx
property float z_axisy
property float z_axisz
property float focal
property float scalex
property float scaley
property float centerx
property float centery
property int viewportx
property int viewporty
property float k1
property float k2
end_header
-0.025668191 -0.30493444 -0.28841209
-0.0069425628 -0.30488056 -0.28876251
0.011777671 -0.30488226 -0.2887513
-0.063597269 -0.40156919 -0.27271926
-0.044671394 -0.40088475 -0.27627599
-0.025818678 -0.40043029 -0.27863771
-0.0070127845 -0.40023723 -0.27964038
0.011777671 -0.40025696 -0.27953786
0.030578917 -0.400507 -0.27823865
0.049420051 -0.40100554 -0.27564776
-0.044726834 -0.38251185 -0.27387553
-0.02586999 -0.38224778 -0.27530497
-0.0070411451 -0.38212749 -0.27595621
0.011777671 -0.38214007 -0.27588773
0.030603439 -0.38229424 -0.27505356
0.049452975 -0.38257957 -0.2735092
-0.063593745 -0.36386153 -0.27283365
-0.04463581 -0.3629792 -0.27781683
-0.025908919 -0.3638716 -0.27277648
-0.007065624 -0.3638716 -0.27277648
0.011777671 -0.36387768 -0.27274203
0.030621054 -0.3638736 -0.2727651
0.049463734 -0.36386555 -0.27281088
-0.044531964 -0.34341311 -0.2823137
-0.10108092 -0.32548088 -0.27713221
-0.044461712 -0.32415158 -0.28535539
0.10582078 -0.32545692 -0.27728063
-0.10090934 -0.30609927 -0.28084695
-0.082018383 -0.30566001 -0.28369945
-0.063192479 -0.30532661 -0.28586537
-0.044413589 -0.30508429 -0.28743935
0.030501734 -0.30495715 -0.28826505
0.049242519 -0.30512434 -0.28717893
0.068014175 -0.30538589 -0.28548002
0.086829543 -0.3057352 -0.28321117
0.10570891 -0.30620083 -0.28018695
-0.138956 -0.28846833 -0.27298254
-0.11985686 -0.28776965 -0.27775967
-0.10091303 -0.28732967 -0.28076732
-0.082045913 -0.28700548 -0.28298402
-0.063231923 -0.28677139 -0.28458434
-0.044453859 -0.2866089 -0.28569537
-0.025700251 -0.28651613 -0.28632993
-0.0069598947 -0.28648973 -0.28651106
0.011777671 -0.28648791 -0.28652245
0.030517329 -0.28652936 -0.28623933
0.049267627 -0.28663042 -0.28554815
0.068041414 -0.28681293 -0.28430068
0.08684773 -0.28705865 -0.28262055
0.1057076 -0.28740951 -0.28022105
0.12463941 -0.28787136 -0.27706379
-0.11998114 -0.26928416 -0.27545357
-0.10104561 -0.26894569 -0.27789646
-0.082172863 -0.26869771 -0.27968591
-0.063347705 -0.26854008 -0.28082418
-0.044550598 -0.26844549 -0.2815066
-0.025768558 -0.26839188 -0.28189319
-0.0069943052 -0.26837146 -0.28204095
0.011777671 -0.26836985 -0.28205246
0.030551134 -0.2683982 -0.28184766
0.049331777 -0.26846278 -0.28138161
0.068126164 -0.26856688 -0.28063077
0.08694756 -0.2687403 -0.27937841
0.105812 -0.26899934 -0.27750885
0.12474389 -0.26937458 -0.27480191
-0.064018942 -0.42315385 -0.2590251
-0.044986732 -0.42243397 -0.26262176
-0.026065262 -0.42243397 -0.26262176
-0.0071437955 -0.42243397 -0.26262176
0.011777671 -0.42243397 -0.26262176
0.030699138 -0.42243397 -0.26262176
0.049620606 -0.42243397 -0.26262176
0.068644129 -0.42331854 -0.25820243
-0.10174953 -0.40350586 -0.26265633
-0.082615905 -0.40244368 -0.2681753
0.068326078 -0.40171254 -0.2719745
0.087323338 -0.40263629 -0.26717478
0.10642724 -0.40372381 -0.26152402
-0.13970365 -0.38491979 -0.26084203
-0.12057932 -0.38427123 -0.26435274
-0.10154349 -0.38376045 -0.26711732
-0.082561508 -0.38330397 -0.26958841
-0.063625142 -0.3828927 -0.27181399
0.06833984 -0.38297322 -0.2713784
0.08726351 -0.3833909 -0.26911753
0.10623146 -0.383854 -0.26661086
0.12525156 -0.38437146 -0.26381052
0.1443681 -0.38507158 -0.26002073
-0.1207822 -0.36602971 -0.26058757
-0.10157219 -0.36498368 -0.26649559
-0.082515568 -0.36422479 -0.27078205
0.068314701 -0.36392644 -0.27246714
0.087227091 -0.36431012 -0.27030009
0.10627667 -0.36517119 -0.26543629
0.12548383 -0.36634943 -0.25878185
-0.10130432 -0.34510985 -0.2722953
0.08720661 -0.34533507 -0.27096552
0.10602324 -0.3451564 -0.2720204
-0.13959976 -0.32784161 -0.26252931
-0.082577862 -0.32676911 -0.26916343
-0.063706405 -0.32676727 -0.26917499
-0.025965074 -0.32677466 -0.26912904
-0.0070937891 -0.3267765 -0.26911753
0.011777671 -0.32677278 -0.2691406
0.030648954 -0.32677278 -0.2691406
0.049520239 -0.32677278 -0.2691406
0.068390988 -0.32676911 -0.26916343
0.087193891 -0.32641104 -0.2713784
0.1444592 -0.32852042 -0.25832993
-0.13926268 -0.30807674 -0.26800281
0.14416698 -0.30873105 -0.26375288
0.14388347 -0.28904879 -0.26901418
-0.13903572 -0.269806 -0.27168798
0.14378636 -0.26992682 -0.27081645
-0.13960971 -0.25217396 -0.26236773
-0.12053707 -0.25181177 -0.26513654
-0.10154296 -0.25155097 -0.26712877
-0.082598649 -0.25135535 -0.26862359
-0.063690491 -0.25121555 -0.26969177
-0.044804893 -0.25111037 -0.2704953
-0.025936266 -0.25104433 -0.27100009
-0.0070771798 -0.25100836 -0.27127516
0.011777671 -0.25100979 -0.27126384
0.030635081 -0.25105181 -0.27094269
0.04950168 -0.25112993 -0.27034611
0.068382502 -0.25123656 -0.26953101
0.08728686 -0.25138998 -0.26835918
0.10622525 -0.2515977 -0.26677191
0.12521054 -0.2518689 -0.26469862
0.14427835 -0.25226316 -0.26168603
-0.026145974 -0.23386499 -0.25737929
-0.0071820989 -0.23383218 -0.25764596
0.011777671 -0.23383364 -0.2576344
0.030740207 -0.23387641 -0.25728655
-0.045297243 -0.44415012 -0.24917591
-0.026272269 -0.44415012 -0.24917591
-0.007247299 -0.44415012 -0.24917591
0.011777671 -0.44415012 -0.24917591
0.030802641 -0.44415012 -0.24917591
0.049827613 -0.44415012 -0.24917591
-0.10243636 -0.42540339 -0.24778587
-0.083161071 -0.42415729 -0.25401151
0.087763406 -0.42438325 -0.2528829
-0.14053868 -0.40646446 -0.24728322
-0.12102386 -0.40476704 -0.25610286
0.12567033 -0.40502867 -0.25474381
0.14516482 -0.4068585 -0.24523532
-0.15924913 -0.38654739 -0.25203288
0.16393791 -0.38695663 -0.24981791
-0.17892247 -0.36908624 -0.2433247
-0.15957335 -0.36837292 -0.24735332
-0.14026409 -0.367596 -0.25174171
0.14486508 -0.36776304 -0.25079769
0.16412786 -0.36848262 -0.24673343
0.18346146 -0.36922333 -0.24255031
-0.15978259 -0.34984535 -0.24433315
-0.14006132 -0.3480331 -0.25503445
-0.12129214 -0.34869525 -0.25112414
-0.083512388 -0.34975216 -0.24488384
-0.064360701 -0.34923688 -0.24792624
-0.02622273 -0.34848022 -0.25239402
-0.0072135683 -0.34828314 -0.25355792
0.011777671 -0.3483206 -0.25333673
0.030779663 -0.34851971 -0.25216091
0.049817733 -0.3489165 -0.24981791
0.06889198 -0.34931409 -0.24747032
0.1257778 -0.34847632 -0.25241733
0.14485881 -0.34873086 -0.25091434
0.1643638 -0.35008773 -0.24290234
-0.15946162 -0.33003426 -0.2489658
0.16407816 -0.33026472 -0.24754047
-0.17890893 -0.31184903 -0.24350065
-0.15920316 -0.31043321 -0.25269675
-0.12162147 -0.31161621 -0.24501276
0.12616634 -0.31177139 -0.24400479
0.16385317 -0.31066459 -0.25119394
0.18352085 -0.31212726 -0.24169326
-0.17873304 -0.2924462 -0.24578571
-0.158935 -0.29086927 -0.25656718
0.16362166 -0.29110533 -0.25495303
0.1833688 -0.29272372 -0.24388772
-0.17861775 -0.27318755 -0.24728334
-0.158972 -0.27197522 -0.25603324
0.16364814 -0.2721844 -0.2545231
0.18324704 -0.27341458 -0.24564517
-0.15916364 -0.25336501 -0.25326681
0.1640134 -0.25397682 -0.24859202
-0.15967466 -0.23528001 -0.24589097
-0.14041923 -0.2348696 -0.24922276
-0.12126829 -0.23458093 -0.25156689
-0.10218052 -0.23436433 -0.25332516
-0.08313109 -0.23418388 -0.25479037
-0.064113565 -0.23404083 -0.25595206
-0.045121193 -0.23393649 -0.25679934
0.04971239 -0.2339536 -0.25665998
0.068700925 -0.23406652 -0.25574303
0.087712549 -0.23421538 -0.25453472
0.10675447 -0.23440158 -0.25302261
0.12583645 -0.23463264 -0.25114739
0.14498079 -0.23494008 -0.24865043
0.16425331 -0.23542714 -0.2446965
-0.026385488 -0.21669954 -0.24182248
-0.0073017385 -0.216667 -0.24210429
0.011777671 -0.2166684 -0.24209243
0.030859973 -0.21671042 -0.24172843
-0.045805916 -0.46792278 -0.22714961
-0.026561504 -0.46722433 -0.2303896
-0.007378513 -0.466849 -0.23213089
0.011777671 -0.46689495 -0.23191792
0.030951366 -0.46733931 -0.22985625
0.050178997 -0.46809432 -0.22635323
0.12691851 -0.42941955 -0.2277199
-0.12252516 -0.42931485 -0.22824258
0.10770871 -0.42931733 -0.2282306
-0.16032758 -0.40854597 -0.23646724
0.16489604 -0.40897077 -0.23425955
-0.19944471 -0.39132467 -0.22617477
-0.17919919 -0.38882032 -0.23973006
0.18382491 -0.38926849 -0.23730451
-0.2186006 -0.37203416 -0.22667432
-0.19837758 -0.36989138 -0.23877704
0.20297122 -0.37022096 -0.23691541
-0.19925153 -0.35253423 -0.22845632
0.20368913 -0.35268107 -0.22758931
-0.17943856 -0.35115153 -0.2366206
0.18396713 -0.35138336 -0.23525178
-0.1991832 -0.33321935 -0.22926325
-0.17920461 -0.33153856 -0.23965961
-0.12183644 -0.33131811 -0.2410236
0.12635075 -0.33148164 -0.24001247
0.18378653 -0.33182985 -0.2378583
0.20364156 -0.33339003 -0.22820699
-0.19882818 -0.31339544 -0.23345584
0.2033851 -0.31369066 -0.23153889
-0.1986451 -0.29393336 -0.23561764
0.20322116 -0.29421842 -0.23366868
-0.19846436 -0.2745083 -0.23775226
0.20306201 -0.27478769 -0.23573577
-0.19882216 -0.25594836 -0.23352683
-0.17913219 -0.25502259 -0.24060041
0.18369026 -0.25519964 -0.2392478
0.20335685 -0.25616044 -0.231906
-0.18002045 -0.23735279 -0.22906148
0.18448235 -0.23750633 -0.22781509
-0.16064686 -0.21785 -0.23185861
-0.14133053 -0.21755376 -0.23442495
-0.12208514 -0.21732467 -0.23640823
-0.10288565 -0.21713415 -0.23805857
-0.083723888 -0.21698058 -0.239389
-0.06458953 -0.2168529 -0.24049455
-0.045479819 -0.21676326 -0.24127024
0.049951501 -0.21677953 -0.24112946
0.069057688 -0.21687603 -0.24029469
0.088186525 -0.21700907 -0.23914176
0.10734177 -0.21716824 -0.23776394
0.12653302 -0.21736422 -0.23606598
0.14577025 -0.21760282 -0.23399967
0.1650811 -0.21791986 -0.23125464
-0.084655955 -0.47050425 -0.21517295
-0.065139756 -0.46889785 -0.22262567
0.069488883 -0.46911386 -0.2216233
-0.12319128 -0.45107034 -0.21588075
-0.10386848 -0.45088348 -0.21677977
-0.084584437 -0.45083115 -0.2170313
-0.065306112 -0.45079133 -0.21722311
0.069591336 -0.45079884 -0.21718723
0.088868827 -0.45084122 -0.2169835
0.10815176 -0.45089605 -0.21671987
0.12750857 -0.45126483 -0.21494502
-0.1428041 -0.4328666 -0.21049702
0.14703672 -0.4328666 -0.21049702
-0.1809032 -0.41217795 -0.21759433
0.18534325 -0.41260245 -0.21538895
-0.22005273 -0.3941367 -0.21095443
0.20401432 -0.3918438 -0.22336495
0.22323193 -0.37260747 -0.22343642
-0.23870867 -0.35437578 -0.21758246
-0.21886997 -0.3533299 -0.22375816
0.22329049 -0.3535015 -0.22274488
0.24313195 -0.35462534 -0.21610856
-0.21927688 -0.33482128 -0.21935338
0.2237753 -0.33519855 -0.2170195
-0.2189801 -0.31507212 -0.22256601
0.22351593 -0.31545445 -0.22008264
-0.23924789 -0.29735938 -0.21219403
-0.21879074 -0.29554248 -0.22461593
0.22332887 -0.29588252 -0.22229165
-0.23915043 -0.27791485 -0.21316767
-0.21872258 -0.27622622 -0.22535402
0.22326525 -0.27654645 -0.22304302
0.24361697 -0.27823478 -0.21085835
-0.23907709 -0.25851676 -0.21390051
0.24355248 -0.25882354 -0.21155632
-0.21877864 -0.25709733 -0.22474688
0.22328745 -0.25735456 -0.2227807
-0.219642 -0.2390354 -0.21540105
-0.19975233 -0.23815578 -0.22254211
0.20417963 -0.23831901 -0.22121757
0.22404042 -0.23922172 -0.21388853
-0.18059948 -0.21904153 -0.22153986
0.18524191 -0.21958297 -0.21685165
-0.18119863 -0.20064268 -0.2137565
-0.16171563 -0.20035434 -0.21643203
-0.14230879 -0.20012709 -0.21854007
-0.12295263 -0.19993651 -0.22030967
-0.1036398 -0.19978324 -0.22173083
-0.08435718 -0.19965351 -0.22293568
-0.065100841 -0.19955066 -0.22388917
-0.045864984 -0.1994749 -0.22459203
-0.026643248 -0.1994223 -0.22508031
-0.0074312333 -0.19940057 -0.22528243
0.011777671 -0.19940314 -0.22525865
0.030988682 -0.19942999 -0.22500879
0.050207943 -0.19948784 -0.22447294
0.069439858 -0.1995661 -0.22374624
0.088692889 -0.1996792 -0.22269714
0.10796854 -0.19981027 -0.22148007
0.12727623 -0.19997251 -0.21997511
0.14662461 -0.20016968 -0.21814507
0.16602124 -0.20040217 -0.21598864
0.18556461 -0.20081112 -0.21219379
0.08907523 -0.47155872 -0.21028024
-0.16313218 -0.45520541 -0.19598603
-0.14284416 -0.45232448 -0.20984662
0.14720826 -0.45285103 -0.20731354
-0.18256848 -0.43577585 -0.19596171
-0.16225292 -0.43323091 -0.20867723
0.1668811 -0.43456206 -0.20202637
-0.20173828 -0.41573939 -0.19908893
0.20613696 -0.41637409 -0.19579107
0.22460434 -0.39482501 -0.20722914
-0.23953226 -0.37510106 -0.20935255
0.24409729 -0.37575513 -0.20565844
-0.25939223 -0.35659999 -0.20444894
0.2640442 -0.35738844 -0.19979352
-0.25981545 -0.33786559 -0.20052201
-0.23957208 -0.33650231 -0.20895451
0.2439511 -0.33677936 -0.2072413
0.26412687 -0.33811685 -0.19896734
-0.23957449 -0.31717142 -0.20893055
0.24395889 -0.31744459 -0.20715666
-0.26023081 -0.29963025 -0.19666809
0.24372935 -0.29773265 -0.2096417
-0.25997254 -0.27986899 -0.19906455
0.26452887 -0.28043911 -0.19495004
-0.25994897 -0.26042971 -0.19928324
-0.26021767 -0.24132773 -0.1967898
-0.23970369 -0.23999131 -0.20763969
0.24407721 -0.24020857 -0.20587599
-0.22084388 -0.22125283 -0.20239002
-0.2008253 -0.22038913 -0.20987058
0.20514776 -0.22053099 -0.20864099
0.22513527 -0.22141808 -0.20095891
-0.20204437 -0.20261309 -0.19547427
-0.18247755 -0.18300754 -0.19714296
-0.16289195 -0.18277645 -0.19945347
-0.14335862 -0.18257236 -0.20149279
-0.12387645 -0.18240494 -0.20316553
-0.10443522 -0.18227047 -0.2045095
-0.085021242 -0.18215311 -0.20568264
-0.065635785 -0.18206954 -0.2065165
-0.04626736 -0.18200442 -0.2071687
-0.026912881 -0.18196437 -0.20756721
-0.0075663961 -0.18194875 -0.20772398
0.011777671 -0.18195117 -0.20769995
0.031123227 -0.18196803 -0.20753098
0.05047603 -0.18201521 -0.20705998
0.069840834 -0.18208283 -0.20638365
0.089222759 -0.18217245 -0.20548916
0.10863105 -0.18229464 -0.2042675
0.12806495 -0.18243161 -0.2028991
0.14753957 -0.18260512 -0.20116532
0.16706276 -0.18281415 -0.19907671
0.1866487 -0.18306729 -0.19654655
0.167483 -0.4559814 -0.19225276
-0.20289189 -0.43787661 -0.18546546
0.18689625 -0.43637392 -0.19297343
0.20719127 -0.43855128 -0.18209499
-0.22288263 -0.41935152 -0.18032008
-0.24223784 -0.39942759 -0.18231678
-0.26114586 -0.37885028 -0.18817741
0.2657747 -0.37985522 -0.18250132
-0.2604751 -0.31940839 -0.19440144
0.26494443 -0.31996325 -0.19079787
0.26471451 -0.30015281 -0.19309545
0.26470596 -0.26122823 -0.19318092
0.2650032 -0.242138 -0.19021058
-0.26139051 -0.22315601 -0.1859076
-0.24100283 -0.22214568 -0.19465744
0.24524879 -0.22231477 -0.19319314
0.26594731 -0.22374856 -0.18077636
-0.24248084 -0.20429274 -0.17988825
-0.22217266 -0.20341796 -0.18800569
0.20624769 -0.20273384 -0.19435263
0.226363 -0.20358446 -0.18646002
-0.20293455 -0.18422663 -0.18496162
0.20740391 -0.18478996 -0.17933303
-0.18384476 -0.16522278 -0.17938221
-0.16413385 -0.16502458 -0.18152821
-0.14446983 -0.16484714 -0.18344903
-0.12485738 -0.16470735 -0.18496174
-0.10527738 -0.16458598 -0.18627584
-0.085725226 -0.16448277 -0.18739271
-0.066198222 -0.16440357 -0.18825084
0.050757125 -0.16435258 -0.1888023
0.070263267 -0.16441825 -0.18809152
0.08978603 -0.164501 -0.18719631
0.109333 -0.16460866 -0.18603027
0.12890592 -0.16473228 -0.18469131
0.14851345 -0.16488008 -0.1830923
0.16816622 -0.16505866 -0.1811586
-0.04668925 -0.16434357 -0.18890035
-0.027194807 -0.16431074 -0.18925565
-0.0077071525 -0.16429381 -0.18943918
0.011777671 -0.16429381 -0.18943918
0.031264286 -0.16431521 -0.18920666
-0.24397624 -0.42231038 -0.16494536
0.22721872 -0.42011461 -0.17635453
0.24669687 -0.40031436 -0.17751706
-0.28250217 -0.32284901 -0.17205405
-0.26296785 -0.20522133 -0.17127162
0.24661812 -0.20445645 -0.1783697
0.26724955 -0.20559943 -0.16776377
-0.24409124 -0.18634477 -0.16379637
-0.22365078 -0.18552342 -0.17200422
0.22770281 -0.18566009 -0.17063785
-0.20362672 -0.16546249 -0.17678761
0.18786523 -0.16525933 -0.17898721
0.20780572 -0.16570958 -0.17411315
-0.14563012 -0.14691161 -0.16460824
-0.1258795 -0.14679432 -0.16599345
-0.10615949 -0.14669393 -0.16717803
-0.08646445 -0.1466085 -0.16818726
-0.066792265 -0.14654319 -0.16895896
-0.04713627 -0.1464937 -0.16954374
-0.027492547 -0.14646208 -0.16991687
-0.0078564789 -0.14645152 -0.1700412
0.011777671 -0.14645255 -0.17002875
0.031413257 -0.14646736 -0.1698547
0.051054783 -0.14649996 -0.16946918
0.070707992 -0.14655377 -0.16883445
0.090377115 -0.14662437 -0.1680004
0.11006775 -0.14671403 -0.16694123
0.12978278 -0.14681858 -0.16570657
0.14952631 -0.14693794 -0.16429603
0.24808331 -0.42277923 -0.16250873
-0.26478854 -0.40458938 -0.15437782
0.26908007 -0.4054957 -0.14947188
0.2874231 -0.32425505 -0.16292131
-0.28492311 -0.28651679 -0.15108824
-0.26478174 -0.18728107 -0.15444076
0.24811335 -0.18650615 -0.16218346
0.26879463 -0.18749288 -0.15232432
-0.22527207 -0.1675256 -0.1544534
0.2291767 -0.1676385 -0.15323174
-0.20520823 -0.14746168 -0.15811086
-0.18527666 -0.14723565 -0.16078138
-0.16542643 -0.14705862 -0.16287136
0.16931631 -0.14709146 -0.16248375
0.18915866 -0.14727487 -0.1603179
0.20908783 -0.14751707 -0.15745807
-0.087239295 -0.12850976 -0.14805603
-0.067414105 -0.12845528 -0.14876413
-0.047603898 -0.1284145 -0.14929497
-0.027805177 -0.1283901 -0.14961088
-0.008012196 -0.12837453 -0.14981294
0.011777671 -0.12837648 -0.1497879
0.031569384 -0.12839304 -0.14957285
0.051366545 -0.12842023 -0.14921916
0.071174122 -0.1284641 -0.14865029
0.28925028 -0.30704588 -0.14596713
0.28993335 -0.28810462 -0.13962913
-0.28528786 -0.26715022 -0.14792931
0.29014209 -0.26848981 -0.13769233
-0.28573406 -0.24782166 -0.14406514
0.29056877 -0.24909431 -0.13373303
-0.28671309 -0.22896665 -0.13558638
-0.26674488 -0.16920951 -0.13622499
-0.2458159 -0.16825448 -0.14656246
0.24972144 -0.16841961 -0.14477551
0.27059114 -0.16938059 -0.13437247
-0.22660621 -0.14899443 -0.14001095
0.23078127 -0.14947948 -0.13428295
-0.22720149 -0.12962522 -0.13356674
-0.20689191 -0.12926637 -0.1382277
-0.1868256 -0.12907912 -0.14066005
-0.16681822 -0.12891571 -0.14278305
-0.14686792 -0.12878282 -0.1445092
-0.12695932 -0.12867156 -0.14595437
-0.10708595 -0.12858193 -0.14711952
0.090995528 -0.12852049 -0.14791679
0.11083799 -0.12859647 -0.14692974
0.13070564 -0.12868921 -0.1457262
0.15060827 -0.12880531 -0.14421737
0.17055069 -0.12894218 -0.14243984
0.19054794 -0.12910955 -0.14026546
0.21060254 -0.12930073 -0.13778162
-0.28795266 -0.37008029 -0.12485147
0.29172182 -0.35039198 -0.12303436
0.29142052 -0.23009315 -0.12582994
-0.28800026 -0.21026862 -0.12443924
-0.24768865 -0.15002425 -0.12784874
0.25144064 -0.15016685 -0.12616444
0.23145239 -0.13018017 -0.12635744
-0.20863807 -0.11081605 -0.11760628
-0.188416 -0.11065014 -0.12
-0.16826062 -0.11051413 -0.12196338
-0.14815706 -0.11040246 -0.12357593
-0.12809579 -0.11031315 -0.12486446
-0.10806274 -0.1102365 -0.12597156
-0.088056654 -0.11017767 -0.12682045
-0.068068802 -0.11013044 -0.12750173
-0.0480965 -0.11009838 -0.12796438
-0.028133499 -0.11007607 -0.12828553
-0.0081768259 -0.11006637 -0.12842679
0.011777671 -0.11006717 -0.12841403
0.031733654 -0.11007966 -0.12823427
0.051694781 -0.11010283 -0.12790012
0.071665205 -0.11013842 -0.12738621
0.091649882 -0.11018832 -0.12666619
0.11165161 -0.11024903 -0.12579119
0.13167933 -0.11032832 -0.12464559
0.15173584 -0.11042209 -0.12329221
0.17183316 -0.11053827 -0.12161493
0.19198154 -0.11067976 -0.11957324
0.2121945 -0.11085109 -0.11710107
-0.28953284 -0.31213582 -0.11116683
0.29267296 -0.21137112 -0.11420882
-0.28959447 -0.19166502 -0.11063313
-0.26885059 -0.15096948 -0.11668646
0.27258042 -0.15115513 -0.11449432
-0.24967498 -0.13159329 -0.1080004
0.25327054 -0.13171993 -0.10635531
-0.22894534 -0.11101808 -0.11468911
0.23248991 -0.11105864 -0.11410475
-0.14948994 -0.09174341 -0.10193264
-0.12927219 -0.091675729 -0.10303319
-0.10908109 -0.091620848 -0.10392344
-0.08890976 -0.091575786 -0.1046561
-0.068752542 -0.091536283 -0.10529697
-0.048609421 -0.091508135 -0.10575438
-0.028474959 -0.091486424 -0.10610712
-0.0083473381 -0.091475949 -0.10627687
0.011777671 -0.091476694 -0.10626388
0.031904489 -0.091490403 -0.10604191
0.052036941 -0.091512874 -0.10567605
0.072178051 -0.091543451 -0.10517931
0.09233164 -0.091583803 -0.10452533
0.11249935 -0.091630533 -0.1037662
0.13268602 -0.091687024 -0.10284996
0.15290095 -0.091759607 -0.10167038
-0.29194906 -0.35569334 -0.090241313
0.29440767 -0.19291794 -0.098112822
-0.29183459 -0.17336565 -0.091232896
-0.27110472 -0.13253468 -0.095770836
0.27472726 -0.1327448 -0.093041897
-0.25178742 -0.11294398 -0.086891294
-0.23092309 -0.092276365 -0.0932796
-0.21044582 -0.092092931 -0.096257925
-0.19006549 -0.091950372 -0.098572969
-0.16975652 -0.091839537 -0.10037196
0.17315917 -0.091857314 -0.10008323
0.19346017 -0.091971427 -0.098231077
0.21383448 -0.092121288 -0.095797181
0.23431818 -0.092323557 -0.092514038
-0.0084846336 -0.072312042 -0.08844161
0.29704446 -0.17499027 -0.073646307
-0.27348191 -0.11385702 -0.073713303
0.25524381 -0.11307541 -0.084994078
-0.25290135 -0.093355224 -0.075760603
-0.23294473 -0.07323055 -0.071394444
-0.21233444 -0.073092759 -0.073954225
-0.19183083 -0.073001817 -0.075640082
-0.17138572 -0.072936296 -0.076856494
-0.15096268 -0.072873667 -0.078018188
-0.1305425 -0.072796002 -0.079459071
-0.11015566 -0.072731405 -0.080658436
-0.089926317 -0.072861493 -0.078245044
-0.069557585 -0.072812557 -0.079152226
-0.049203143 -0.072764426 -0.080045581
-0.02883132 -0.072607368 -0.082961082
0.011777671 -0.072709844 -0.081058145
0.03210102 -0.072739303 -0.080511928
0.052432984 -0.072769493 -0.07995224
0.072782189 -0.07281974 -0.07901895
0.093142092 -0.072863579 -0.078205228
0.11339646 -0.072742209 -0.080458522
0.1337781 -0.072809651 -0.079205751
0.15418771 -0.072885886 -0.077791214
0.17460355 -0.072948501 -0.076629281
0.19504385 -0.073016256 -0.075372696
0.21554275 -0.07311146 -0.073606133
0.23615994 -0.073264569 -0.070763946
-0.11047767 -0.052731171 -0.073686481
-0.049407579 -0.05284632 -0.071193337
-0.029003615 -0.052819692 -0.071770072
-0.0086086355 -0.052793719 -0.072333336
0.011777671 -0.052799247 -0.072212696
0.032169346 -0.052825823 -0.071635962
0.052569695 -0.052851938 -0.071072578
-0.29525873 -0.15563589 -0.061578989
0.27704674 -0.11412364 -0.069864511
0.25699306 -0.093952745 -0.066058159
-0.25394645 -0.073558092 -0.065317273
0.2578721 -0.074030936 -0.056542158
-0.17270201 -0.053462282 -0.057857275
-0.15200503 -0.05331298 -0.061092377
-0.1313743 -0.05317758 -0.064022779
-0.090306818 -0.052977264 -0.068359256
-0.069839448 -0.052901566 -0.069998741
0.072998881 -0.052918293 -0.069636106
0.093456857 -0.052994594 -0.067982793
0.11393985 -0.053070568 -0.066341043
0.13450615 -0.053204343 -0.063442588
0.15511742 -0.05333849 -0.060538054
0.17580804 -0.053498618 -0.05707109
0.19640204 -0.053558789 -0.055768609
-0.13187397 -0.033084176 -0.054750204
-0.11122319 -0.032976605 -0.057545543
-0.090655781 -0.032909326 -0.059293151
-0.070116602 -0.032843709 -0.060997725
-0.049614012 -0.03279534 -0.062254548
-0.029140761 -0.032771923 -0.062862039
-0.0086770765 -0.032749571 -0.063442588
0.011777671 -0.032754265 -0.063321114
0.032238029 -0.032777727 -0.062713623
0.052707121 -0.03279943 -0.062146544
0.073207118 -0.032858305 -0.060619116
0.093736522 -0.032924473 -0.058900476
0.11429299 -0.032991201 -0.057165861
-0.008746082 -0.012570903 -0.054478407
-0.27606973 -0.094960019 -0.049701095
0.27984324 -0.09543924 -0.041919947
-0.25594112 -0.054038323 -0.045385361
-0.23503059 -0.053879969 -0.048814535
-0.21424623 -0.053761616 -0.051377177
-0.1935624 -0.053679928 -0.053146362
0.21728119 -0.053777978 -0.051023126
0.2380567 -0.053900741 -0.048364162
-0.19430634 -0.033517897 -0.043482542
-0.17337012 -0.033335701 -0.048213959
-0.15257902 -0.033198811 -0.051771998
0.13493589 -0.033107691 -0.054138899
0.15562133 -0.033221439 -0.051186442
0.17640479 -0.033367813 -0.047381163
0.19731213 -0.033550613 -0.042632937
-0.15316042 -0.01294487 -0.042331338
-0.13237859 -0.012850866 -0.045385361
-0.11164726 -0.012759186 -0.048364043
-0.091008708 -0.012704916 -0.050123811
-0.070397325 -0.012650922 -0.051880956
-0.049821526 -0.012608171 -0.053268671
-0.029279249 -0.012589768 -0.053866982
0.011777671 -0.012574203 -0.054369926
0.032306969 -0.012593068 -0.053758144
0.052845687 -0.012611844 -0.053146362
0.073416784 -0.012661278 -0.051540613
0.094017267 -0.012715459 -0.049782872
0.11465174 -0.012775078 -0.047845364
0.13536736 -0.012868986 -0.044797063
0.15612879 -0.0129622 -0.041769147
-0.091389447 0.0076237954 -0.040231824
-0.07070405 0.0076628737 -0.041919947
-0.050050057 0.0076964237 -0.043372989
-0.029431539 0.0077102706 -0.043975592
-0.008822402 0.0077239312 -0.044564247
0.011777671 0.0077210031 -0.044441104
0.032383226 0.0077074803 -0.043852329
0.052997842 0.0076938681 -0.043263316
0.073645614 0.0076562278 -0.041631937
0.094320238 0.0076171495 -0.039943457
-0.27883375 -0.075781569 -0.024054527
0.25954759 -0.054360807 -0.038404346
-0.25780898 -0.034163043 -0.026720285
-0.23670818 -0.034011655 -0.030653834
-0.21533661 -0.033709668 -0.038500667
0.21835002 -0.033761986 -0.03713882
0.23967472 -0.03406541 -0.029256344
0.26079616 -0.034233578 -0.024888158
-0.2162085 -0.013379887 -0.028203726
-0.19505566 -0.013209216 -0.033748388
-0.17404214 -0.013062477 -0.038514376
0.17700249 -0.013088308 -0.037675261
0.19798696 -0.013235562 -0.032892585
0.21914241 -0.013421804 -0.026845336
-0.19581047 0.0072476491 -0.023943305
-0.17472288 0.0073573105 -0.028688669
-0.15376127 0.0074470378 -0.03257513
-0.13291129 0.0075145066 -0.035499692
-0.11210729 0.0075816028 -0.038404346
0.11503259 0.0075712427 -0.037950516
0.13581844 0.0075037256 -0.035031199
0.15665102 0.0074355118 -0.03207767
0.17760542 0.0073387697 -0.027885079
-0.13347937 0.028022204 -0.024957657
-0.1125925 0.028067369 -0.027898908
-0.091787383 0.028098177 -0.02989316
-0.071022004 0.028124336 -0.031594038
-0.050286032 0.028148316 -0.033154845
-0.029588358 0.028158166 -0.033789873
-0.0089007784 0.028167274 -0.034382939
0.011777671 0.028165087 -0.034245133
0.032461852 0.028155703 -0.03363812
0.053156026 0.028145805 -0.032989264
0.073883809 0.028120108 -0.031317711
0.094638243 0.028093901 -0.029616237
0.11543655 0.028060585 -0.02745533
0.13629974 0.02801672 -0.024610281
-0.029746806 0.048761956 -0.023498416
-0.0089797527 0.04876665 -0.024123907
0.011777671 0.048765581 -0.023985028
0.032541089 0.048760653 -0.02334547
0.28302076 -0.076529831 -0.010168314
-0.25908515 -0.013818257 -0.013968229
-0.23766366 -0.013622999 -0.02031064
0.24054794 -0.013665006 -0.018944025
0.26215333 -0.013934329 -0.010196328
-0.23862132 0.0069243759 -0.0099437237
-0.21708713 0.007106483 -0.017827511
0.2199409 0.0070752092 -0.016472459
0.24142788 0.0068922266 -0.0085524321
0.19866672 0.0072278529 -0.023081303
-0.19662577 0.027843539 -0.013352156
-0.17546761 0.027914029 -0.01793921
-0.15440504 0.02797848 -0.022121072
0.15721381 0.027970951 -0.021634102
0.1782532 0.027905248 -0.017366767
0.19938737 0.027833086 -0.012679338
-0.15505128 0.048670556 -0.011627913
-0.13404739 0.048691977 -0.014416337
-0.11308219 0.048714191 -0.017296791
-0.092187881 0.04873101 -0.019487977
-0.071342409 0.048744112 -0.021188378
-0.050523818 0.048756987 -0.02285862
0.053316064 0.048754849 -0.022594333
0.074124165 0.048741929 -0.020909786
0.094959125 0.048728824 -0.019195318
0.11584369 0.048710983 -0.01687777
0.13678481 0.048689559 -0.014108419
0.15778777 0.048665583 -0.010982394
-0.092591479 0.069524057 -0.0090022087
-0.071664885 0.069524154 -0.010715842
-0.050764725 0.069524154 -0.012427092
-0.029906472 0.069524109 -0.013127923
-0.0090594403 0.069524109 -0.013772249
0.011777671 0.069524109 -0.013646126
0.032620713 0.069524154 -0.0130018
0.053477347 0.069524057 -0.012118697
0.074366711 0.069524109 -0.010406852
0.095282078 0.069524154 -0.0087071657
-0.28218219 -0.056458682 0.0070152283
-0.26042721 0.006707564 -0.00055754185
-0.23958638 0.027630072 0.00050342083
-0.21799524 0.027747307 -0.0071036816
0.22075859 0.027727976 -0.0058505535
0.24226545 0.027617246 0.0013387203
-0.21894538 0.04854928 0.0041172504
-0.19743991 0.048602298 -0.0027760267
-0.17621736 0.048635751 -0.0071177483
0.17890777 0.048632778 -0.006737709
0.20012438 0.048596721 -0.0020416975
0.22160347 0.048541516 0.0051250458
-0.19825935 0.069524109 0.0078685284
-0.17695543 0.069524057 0.0035355091
-0.15571299 0.069524154 -0.00088298321
-0.13461609 0.069524154 -0.0038627386
-0.11357249 0.069524109 -0.0066812038
0.11625403 0.069524109 -0.0062166452
0.13727823 0.069524109 -0.0034253597
0.15837085 0.069524109 -0.0001616478
0.17957625 0.069524109 0.0041172504
-0.13522065 0.090523884 0.0073564053
-0.11409487 0.090502881 0.0046280622
-0.093024947 0.090484664 0.0022593737
-0.0720134 0.090471841 0.00060260296
-0.051026754 0.090458877 -0.0010807514
-0.030079981 0.090452977 -0.0018581152
-0.0091462601 0.090448096 -0.0024936199
0.011777671 0.090448841 -0.0023949146
0.032707259 0.090453677 -0.0017590523
0.053651422 0.090461016 -0.00081217289
0.074626528 0.090473704 0.0008430481
0.095628053 0.090486713 0.0025287867
0.11668511 0.090505622 0.0049830675
0.1377933 0.090526767 0.0077263117
0.26500538 0.0062171593 0.020678043
-0.24055758 0.048496164 0.011016846
0.24322516 0.048483528 0.012672305
-0.24163327 0.069524109 0.022661686
0.20089087 0.069524154 0.0090216398
0.22245635 0.069524154 0.016204
0.24410515 0.069524154 0.023064375
-0.21988404 0.069524199 0.015202165
-0.19912717 0.090614684 0.019141912
-0.17772013 0.090579458 0.014572859
-0.15640719 0.090547211 0.010389566
0.1589717 0.090551905 0.010988355
0.18025979 0.090584338 0.01521647
0.20167357 0.090623602 0.020319104
-0.15713462 0.11175219 0.022201419
-0.1358449 0.11170196 0.018941164
-0.11463548 0.11166181 0.016332984
-0.093468077 0.11162241 0.013772368
-0.072369225 0.1115976 0.012158275
-0.051293634 0.11157157 0.010475039
-0.030256258 0.11155809 0.0095914602
-0.0092343595 0.11154824 0.0089504719
0.011777671 0.11154978 0.0090501308
0.032795399 0.11155958 0.0096911192
0.053829156 0.11157562 0.010731697
0.074892454 0.11160071 0.012358189
0.095983058 0.11162686 0.014058113
0.11712968 0.11166488 0.016533375
0.13832654 0.11170702 0.019271255
0.15960072 0.1117593 0.022661567
-0.051562779 0.13286456 0.022129536
-0.030433802 0.13284129 0.021123528
-0.0093232002 0.13282673 0.020491362
0.011777671 0.13282901 0.020591855
0.032884181 0.1328437 0.021223903
0.054008394 0.13287032 0.022374034
0.28642428 -0.057235837 0.023841739
-0.24269539 0.090730242 0.034159303
-0.22081816 0.09066914 0.026233554
0.22332284 0.090678573 0.027459979
-0.2218288 0.1119981 0.03816855
-0.20006123 0.11189187 0.031275988
-0.17853698 0.11181636 0.026363373
0.18097292 0.11182296 0.026796103
0.2024969 0.11190613 0.032202721
-0.17933877 0.13322955 0.037935972
-0.15786836 0.13314137 0.03411603
-0.13646902 0.13305841 0.030523539
-0.11517544 0.1330007 0.028023005
-0.093914412 0.13293941 0.025368452
-0.072726317 0.13290215 0.023755312
0.07516098 0.13290745 0.023985505
0.09634465 0.13294935 0.025801063
0.11758193 0.13300666 0.028283
0.13886431 0.13306749 0.030914187
0.16023827 0.1331501 0.034493208
0.1816912 0.13324168 0.038459778
-0.09438134 0.15445131 0.037499785
-0.073098078 0.15439987 0.03582859
-0.051842608 0.15435122 0.034246445
-0.030619996 0.15431948 0.033216953
-0.0094163641 0.1543002 0.032593727
0.011777671 0.15430298 0.03268075
0.032977171 0.15432212 0.033303976
0.054194763 0.15435833 0.034478426
0.075440183 0.15440749 0.036075473
0.09671697 0.15446338 0.037892342
-0.28614447 -0.036876604 0.043780804
-0.28692731 0.048188139 0.051044703
0.28925243 0.048179962 0.052102327
0.28950557 0.069524154 0.054632187
0.24563323 0.090783775 0.041110396
0.22423345 0.11201528 0.039289236
-0.22277002 0.13349167 0.049283862
-0.20100474 0.13335893 0.04353261
0.20333651 0.13337705 0.044321418
0.22516324 0.13353981 0.05136776
-0.18014732 0.15482411 0.049606442
-0.1585905 0.15470822 0.045841932
-0.13710867 0.15460196 0.042393923
-0.11572607 0.15452662 0.03994453
0.11804593 0.15453871 0.04033792
0.1394134 0.15461463 0.042802453
0.1608845 0.15472806 0.046485662
0.18241832 0.1548444 0.050266623
-0.11634871 0.17629613 0.05342555
-0.094899297 0.17620106 0.050956726
-0.073510587 0.17613442 0.049225092
-0.052152641 0.17607462 0.047671556
-0.030825859 0.17603299 0.046588063
-0.0095194746 0.1760098 0.045988321
0.011777671 0.17601213 0.046046615
0.033079885 0.17603523 0.046646714
0.054400586 0.17608145 0.047847271
0.075747922 0.1761412 0.049401045
0.097129636 0.17621411 0.051294208
0.11855815 0.17630458 0.053646207
-0.28856781 0.026617654 0.066266298
0.2907992 0.026597768 0.067558527
-0.33153281 0.048067138 0.066741586
-0.30910999 0.04813154 0.058376431
0.31143039 0.048120391 0.059838533
0.33378908 0.048056729 0.068108439
-0.33044979 0.069524154 0.057948232
-0.30878136 0.069524109 0.055530429
-0.28743774 0.069524154 0.055780768
0.31098515 0.069524154 0.055707097
0.33267555 0.069524109 0.058464885
-0.22390676 0.15522754 0.062708139
-0.20192495 0.15500528 0.055486083
0.20418558 0.15503883 0.05657661
0.2261343 0.15526675 0.063982248
-0.20298819 0.17690706 0.069298148
-0.18107761 0.1766659 0.063034058
-0.15942788 0.17652759 0.059439659
-0.13782607 0.17638394 0.055707097
0.14003667 0.17640658 0.056296587
0.16160722 0.17654523 0.059897542
0.18326482 0.17670351 0.064011812
-0.13856244 0.19838713 0.069372535
-0.11696787 0.19826971 0.066830635
-0.095421188 0.19816279 0.06451571
-0.073924385 0.19807725 0.062663913
-0.052465037 0.19800955 0.061198711
-0.031033272 0.19795695 0.060060143
-0.0096233655 0.19793032 0.059483886
0.011777671 0.19793455 0.059572577
0.033183828 0.19796108 0.060148954
0.054609329 0.19801903 0.061405778
0.076059341 0.19808751 0.062885761
0.097547255 0.19817859 0.064856887
0.1190782 0.19828472 0.067157388
0.14066742 0.1984138 0.069952965
0.29115504 -0.037928656 0.071114302
-0.28977254 0.0049062371 0.077444911
-0.31093904 0.026495263 0.074216247
0.27008072 0.026473563 0.075620413
0.31312802 0.026474118 0.075590611
-0.24743006 0.11272539 0.085413814
-0.22525477 0.17726617 0.078627586
0.20513809 0.17694652 0.070325136
0.22772388 0.17749721 0.084631443
-0.20407364 0.19903497 0.083398461
-0.18205324 0.19874474 0.077115774
-0.16026162 0.19855353 0.072977662
0.1623418 0.19857922 0.07352972
0.18413538 0.19879241 0.078148365
0.20611779 0.19908422 0.084465981
-0.13940656 0.22070833 0.085037589
-0.11768731 0.22056666 0.082406998
-0.096022606 0.22044455 0.080141068
-0.074407652 0.22034845 0.078358054
-0.052829176 0.22027341 0.076966047
-0.031276979 0.2202155 0.075889587
-0.0097452831 0.2201847 0.075321555
0.011777671 0.22019051 0.075426102
0.033305801 0.22022098 0.075994134
0.05485259 0.22028646 0.077205539
0.076421842 0.22036067 0.078582644
0.098029897 0.22046554 0.080531001
0.11967961 0.22058678 0.082782388
0.14139126 0.22073998 0.085624456
-0.29139397 -0.017096341 0.092489839
-0.26929453 0.026282214 0.088050008
-0.20530342 0.22148085 0.099373698
-0.18315822 0.22114085 0.093064785
-0.16121955 0.22089671 0.088532567
0.16318195 0.2209284 0.089120865
0.18511647 0.22119553 0.094078898
-0.096821412 0.24328268 0.10089481
-0.075045407 0.24317032 0.099069715
-0.05330772 0.24308521 0.097687602
-0.031596467 0.2430207 0.096640468
-0.0099048428 0.24298422 0.09604907
0.011777671 0.24299078 0.096155047
0.033465438 0.24302629 0.096731544
0.055171438 0.24309914 0.097915292
0.076900244 0.24318427 0.099297762
0.098669112 0.24330689 0.10129035
0.20729819 0.22159562 0.10150325
-0.18465091 0.24412735 0.11460984
-0.16251381 0.24381556 0.10954869
-0.14053622 0.24359708 0.10600126
-0.11864673 0.24342343 0.10317886
0.12047934 0.2434468 0.10355997
0.14235996 0.24363384 0.10659695
0.1643149 0.24385247 0.11014581
0.18644333 0.24418975 0.11562431
0.25259438 0.11330901 0.1233176
-0.20709784 0.2446245 0.12268388
0.20903793 0.24486664 0.12661433
-0.11988178 0.26701316 0.12991858
-0.09784656 0.2668477 0.12752879
-0.075863026 0.26671565 0.12562299
-0.053918548 0.26661277 0.1241374
-0.032003619 0.2665399 0.12308574
-0.010108452 0.26649925 0.12249851
0.011777671 0.26650572 0.12259126
0.033669028 0.26654631 0.1231786
0.055578955 0.26662987 0.12438476
0.077513918 0.26673299 0.1258707
0.09948995 0.2668767 0.12794745
0.12151182 0.26704556 0.13038456
0.27639705 0.047472507 0.1439966
-0.23006576 0.20143883 0.13544273
-0.1865609 0.26786262 0.14217854
-0.16418339 0.26748043 0.1366595
-0.14199091 0.26722652 0.13299716
0.14360735 0.26726869 0.13360417
0.16577724 0.26752356 0.13728356
0.18814039 0.26793218 0.14318132
-0.25363666 0.13587764 0.1526022
-0.20961128 0.26877415 0.15533435
0.21150202 0.26924849 0.1621803
-0.14357632 0.29145837 0.16241848
-0.12123702 0.29121536 0.15926051
-0.098963678 0.29100674 0.1565522
-0.076756977 0.2908608 0.15465486
-0.054586478 0.29073799 0.15305972
-0.032449305 0.29065904 0.15203416
-0.010330841 0.29060924 0.15138757
0.011777671 0.29061764 0.15149808
0.033892009 0.2906675 0.15214455
0.056024566 0.29075867 0.15332818
0.078184858 0.2908814 0.15492344
0.10038439 0.29104102 0.15699542
0.12264095 0.29125059 0.1597203
0.14496759 0.29150736 0.16305423
-0.27787974 0.069524199 0.17383897
0.23411259 0.20292503 0.16762304
-0.18865016 0.29222172 0.17233431
-0.16600783 0.29175612 0.16628432
0.16738462 0.29181978 0.16711283
0.18999784 0.29229936 0.1733427
0.27986124 0.069524154 0.18149745
-0.14532861 0.31640545 0.19493699
-0.12273344 0.31612781 0.1916585
-0.10022265 0.31592482 0.18926144
-0.077769294 0.31577832 0.18753076
-0.055349715 0.31565791 0.18610895
-0.032959998 0.3155812 0.18520474
-0.010586942 0.31553489 0.18465614
0.011777671 0.315543 0.18475282
0.034147255 0.31558955 0.18530166
0.05653324 0.31567979 0.18636727
0.078943491 0.31579894 0.18777311
0.10139038 0.31595913 0.18966603
0.12388711 0.31616485 0.19209647
0.2587195 0.13687193 0.19565201
-0.23530602 0.22675917 0.19732749
-0.19093685 0.31728643 0.20534003
-0.16802186 0.31674841 0.1989882
0.14646946 0.316459 0.19557083
0.1691567 0.31683403 0.19999874
0.1920702 0.31742638 0.20699346
-0.28173476 0.092102036 0.21236038
-0.25993833 0.16009617 0.22081947
0.23847787 0.22821437 0.22432983
-0.21404164 0.2953434 0.21288657
-0.10157945 0.34158128 0.2245121
-0.078854963 0.34142202 0.22278893
-0.056163929 0.34129053 0.22136545
-0.033505268 0.34122181 0.22062123
-0.010859983 0.341176 0.22012532
0.011777671 0.34118509 0.2202245
0.034419652 0.34122786 0.22068739
0.057075895 0.34131348 0.22161376
0.079757117 0.34144193 0.22300422
0.10247613 0.34161946 0.22492659
0.28430727 0.09223488 0.22962713
0.21661727 0.29712379 0.23601282
-0.17023617 0.34254491 0.23494387
-0.14723828 0.34212285 0.23037601
-0.12436582 0.34181109 0.22700107
0.12524593 0.34184796 0.22739971
0.14810936 0.34218752 0.23107541
0.17109737 0.34264359 0.23601282
-0.24016511 0.25275519 0.25471032
-0.19348533 0.3432081 0.2421242
0.19436499 0.34340519 0.24425638
-0.28649876 0.11541279 0.25996494
0.26466534 0.16148329 0.26586878
-0.14932375 0.36871243 0.26907742
-0.12613115 0.36832666 0.26522124
-0.10304019 0.36805052 0.26246309
-0.08001852 0.36786172 0.26057637
-0.057035752 0.36771554 0.25911629
-0.034085922 0.36763743 0.25833583
-0.011149948 0.36758319 0.25779331
0.011777671 0.36759159 0.25787795
0.034710124 0.36764598 0.25842059
0.057656683 0.36773765 0.25933683
0.080629915 0.36788389 0.26079726
0.10364557 0.36809483 0.26290548
0.12671873 0.36837089 0.26566446
0.14990011 0.36878946 0.26984632
-0.26594353 0.18524134 0.28582811
0.24233623 0.25397098 0.27445149
-0.21955828 0.32399368 0.28455007
-0.19636014 0.37016767 0.28361809
-0.17267764 0.36926398 0.27458858
0.17323984 0.36938244 0.27577221
0.19692513 0.37038881 0.28582788
0.28989041 0.1158762 0.29006672
-0.10461841 0.39543301 0.30346644
-0.08127249 0.39519975 0.30130053
-0.057971276 0.39501926 0.29962575
-0.034708478 0.39492705 0.29877162
-0.011460843 0.39486331 0.29817927
0.011777671 0.39487457 0.29828393
0.035021417 0.39493656 0.29885888
0.058280997 0.39504743 0.29988718
0.081571743 0.3952297 0.30157959
0.1049096 0.39548582 0.30395579
-0.29231983 0.13970059 0.31813276
0.22173476 0.32613835 0.30987751
-0.17528756 0.39688829 0.31696844
-0.1515734 0.3962262 0.31082571
-0.12803581 0.39575556 0.30645835
0.12830643 0.39580464 0.30691397
0.15182939 0.39631149 0.31161642
0.17552629 0.39702123 0.31820345
0.26960608 0.18671884 0.32421649
-0.19938546 0.39800015 0.32728505
0.19991557 0.39876544 0.33438647
-0.24721441 0.28142673 0.33795822
-0.22443886 0.35298386 0.34795046
-0.13003875 0.42406517 0.34982336
-0.10628142 0.42370144 0.34667325
-0.082598232 0.42343369 0.34435511
-0.058964476 0.42323485 0.34263241
-0.035370782 0.42313761 0.3417896
-0.011791864 0.42306709 0.34118032
0.011777671 0.42307952 0.34128773
0.035352588 0.42314795 0.34187913
0.058942966 0.42326388 0.34288335
0.082566231 0.42346695 0.3446424
0.10624045 0.4237597 0.34717679
0.12997676 0.42412144 0.35030985
-0.27326202 0.21204397 0.36505306
0.27306408 0.21204397 0.36505306
-0.17801037 0.42537668 0.36118162
-0.15393059 0.4246133 0.35456979
0.15384923 0.42470306 0.35534728
0.17791168 0.42552567 0.3624711
0.24986261 0.28380066 0.37222195
0.2262316 0.35546267 0.37478387
-0.20289473 0.42731151 0.37793708
-0.13213848 0.45330057 0.3952837
-0.10802615 0.4528963 0.39200246
-0.083993033 0.45260692 0.38965261
-0.060009383 0.45238855 0.38787842
-0.036067575 0.45228609 0.38704753
-0.012140689 0.45221794 0.38649392
0.011777671 0.45222926 0.38658619
0.035701003 0.45229745 0.3871398
0.059639685 0.45242029 0.3881371
0.083612099 0.45264119 0.38992977
0.10763612 0.4529579 0.39250255
0.1317285 0.45336682 0.39582193
-0.2530528 0.31027907 0.40690672
-0.18089658 0.45487258 0.40804756
-0.15640496 0.45394164 0.40048838
0.15597464 0.45404941 0.40136373
0.18043824 0.45503408 0.40935791
0.27800226 0.23893969 0.4233706
-0.22965853 0.38339114 0.41575623
0.20493242 0.43168938 0.41585028
0.25509554 0.31284195 0.44019973
0.23097034 0.38613585 0.4431814
-0.13439232 0.48367238 0.44408095
-0.10988862 0.48318961 0.44039059
-0.085467815 0.48281744 0.43754756
-0.06111069 0.48255813 0.43556607
-0.036798157 0.48241872 0.4345001
-0.012505263 0.48233405 0.43385351
0.011777671 0.48234648 0.43394864
0.036066465 0.48243359 0.43461454
0.060374595 0.48259789 0.43587089
0.084718831 0.48285738 0.43785262
0.10912716 0.4832595 0.44092548
-0.30521542 0.045140065 0.44699347
-0.18400505 0.48556232 0.45852304
-0.15907334 0.48444793 0.45000732
0.13362138 0.48379284 0.44500005
0.1582631 0.48456627 0.45091069
0.18315732 0.48573193 0.45981777
-0.28217506 0.26549256 0.46153963
-0.20897961 0.46198151 0.46576452
0.28341356 0.26707757 0.48727512
-0.2591688 0.34047058 0.47913301
-0.08703962 0.51420194 0.48859346
-0.062283963 0.5138939 0.48637068
-0.037572853 0.51367891 0.48481834
-0.012891395 0.51356721 0.48401332
0.011777671 0.51358366 0.48413098
0.036453839 0.51369524 0.48493612
0.061157241 0.51394033 0.48670471
0.085897908 0.51424563 0.48890853
-0.2356085 0.41586483 0.49304843
0.20959425 0.46515736 0.4915489
-0.16189085 0.51610029 0.50229383
-0.13681285 0.51529574 0.49648702
-0.11187896 0.51468813 0.49210131
0.11072059 0.51476729 0.49267364
0.13563585 0.51541358 0.4973377
0.16069601 0.51627922 0.5035845
0.26129118 0.34398904 0.52068353
-0.18726097 0.51736104 0.51139235
0.18607214 0.51770985 0.51391017
-0.28825566 0.29454914 0.5273639
0.23681246 0.41957825 0.52750516
-0.21343608 0.49492788 0.53008842
-0.038385779 0.54607695 0.53761935
-0.013296714 0.54593742 0.53666604
0.011777671 0.54595518 0.53678775
0.036860488 0.54609776 0.53776133
-0.23921463 0.44601259 0.53989363
-0.1393234 0.54801089 0.55084205
-0.113952 0.54729676 0.54596007
-0.088687502 0.5467338 0.54211009
-0.063513927 0.54637086 0.53962946
0.061977386 0.54642141 0.53997481
0.087139711 0.54681706 0.54267979
0.11237898 0.54738033 0.5465312
0.13772753 0.54813349 0.55168092
0.21352078 0.49822816 0.55530751
-0.1907517 0.55053139 0.56807494
-0.16484819 0.5489372 0.55717516
0.163232 0.54912937 0.55848992
0.29141214 0.29831594 0.5817337
-0.26727381 0.37394387 0.57484865
0.18908337 0.5507825 0.56979132
0.26683608 0.37559423 0.59271359
0.24126339 0.45200032 0.5917486
-0.090412021 0.58047259 0.59811521
-0.064798534 0.58003199 0.59525478
-0.039237566 0.57967639 0.59294438
-0.013721062 0.57949865 0.59179056
0.011777671 0.57952452 0.59195852
0.03728658 0.57970226 0.59311223
0.062833972 0.58008718 0.59561193
0.088433065 0.58056009 0.5986836
-0.2193381 0.53175569 0.61527669
-0.1679401 0.58300352 0.61455369
-0.14193687 0.58190596 0.60742509
-0.1161152 0.5810957 0.60216212
0.11411016 0.58118677 0.60275292
0.13990572 0.58203626 0.60827208
0.16588335 0.58320963 0.61589372
-0.19462986 0.58554292 0.6310482
-0.27273625 0.4057678 0.63935685
0.21904562 0.53587699 0.64502001
-0.24802595 0.48520982 0.65435588
0.19326673 0.58806431 0.64742494
-0.066167444 0.61513996 0.65452981
-0.040141858 0.61467922 0.65168011
-0.01417256 0.61447883 0.65044153
0.011777671 0.61450696 0.65061533
0.037740618 0.61474586 0.65209317
0.063747451 0.61520672 0.65494382
-0.11842568 0.61637807 0.66218996
-0.092256524 0.6157037 0.65801728
0.08981692 0.61579907 0.65860665
0.27250805 0.40847367 0.66639471
-0.17124188 0.61858273 0.67582762
-0.14473656 0.61732388 0.66804016
0.11596258 0.61649489 0.66291213
0.14223914 0.61746228 0.6688962
0.16871068 0.61878967 0.67710686
-0.30308828 0.25319588 0.68793166
0.24843131 0.49024168 0.69520879
-0.22649543 0.57254517 0.71858382
0.19723287 0.62588966 0.72102726
-0.14724565 0.65260959 0.72236335
-0.12057887 0.6518929 0.71813178
-0.094035931 0.65149879 0.71580529
-0.06748829 0.65080774 0.71172464
-0.041122183 0.6514225 0.71535385
-0.014671559 0.65140724 0.71526372
0.011777671 0.65141106 0.71528637
0.038227595 0.6514225 0.71535385
0.06468308 0.65148354 0.71571493
0.091138907 0.65150654 0.71585047
0.11768448 0.65201151 0.71883273
0.14433984 0.6527977 0.72347414
-0.28031293 0.44127581 0.72883308
-0.17419748 0.65401733 0.73067629
0.17125121 0.6542604 0.73211133
0.22553195 0.57719052 0.75034487
-0.20174854 0.63003039 0.74664128
-0.25664216 0.52583778 0.76628375
0.25621465 0.53123838 0.80755174
0 0 0 1 0 0 0 1 0 0 0 1 0 0 0 0 0 1278 1 0 0
