ply
format ascii 1.0
comment PCL generated
element vertex 1032
property float x
property float y
property float z
element camera 1
property float view_px
property float view_py
property float view_pz
property float x_axisx
property float x_axisy
property float x_axisz
property float y_axisx
property float y_axisy
property float y_axisz
property float z_axisx
property float z_axisy
property float z_axisz
property float focal
property float scalex
property float scaley
property float centerx
property float centery
property int viewportx
property int viewporty
property float k1
property float k2
end_header
-0.24134938 -0.17877561 -0.17732686
-0.22465774 -0.17877561 -0.17732686
-0.2079661 -0.17877561 -0.17732686
-0.19127443 -0.17877561 -0.17732686
-0.17458279 -0.17877561 -0.17732686
-0.15789114 -0.17877561 -0.17732686
-0.14119947 -0.17877561 -0.17732686
-0.12450784 -0.17877561 -0.17732686
-0.10781617 -0.17877561 -0.17732686
-0.09112452 -0.17877561 -0.17732686
-0.074432872 -0.17877561 -0.17732686
-0.057741225 -0.17877561 -0.17732686
-0.041049566 -0.17877561 -0.17732686
-0.024357919 -0.17877561 -0.17732686
-0.0076662665 -0.17877561 -0.17732686
0.0090253865 -0.17877561 -0.17732686
0.025717039 -0.17877561 -0.17732686
0.042408694 -0.17877561 -0.17732686
0.059100341 -0.17877561 -0.17732686
0.075792 -0.17877561 -0.17732686
0.092483647 -0.17877561 -0.17732686
0.10917529 -0.17877561 -0.17732686
0.12586695 -0.17877561 -0.17732686
0.1425586 -0.17877561 -0.17732686
0.15925023 -0.17877561 -0.17732686
0.1759419 -0.17877561 -0.17732686
0.19263355 -0.17877561 -0.17732686
0.20932519 -0.17877561 -0.17732686
0.22601686 -0.17877561 -0.17732686
0.2427085 -0.17877561 -0.17732686
-0.22447659 -0.16188985 -0.17900783
-0.20779787 -0.16188985 -0.17900783
-0.19111916 -0.16188985 -0.17900783
-0.17444044 -0.16188985 -0.17900783
-0.15776174 -0.16188985 -0.17900783
-0.14108303 -0.16188985 -0.17900783
-0.1244043 -0.16188985 -0.17900783
-0.1077256 -0.16188985 -0.17900783
-0.091046885 -0.16188985 -0.17900783
-0.074368171 -0.16188985 -0.17900783
-0.057689458 -0.16188985 -0.17900783
-0.041010749 -0.16188985 -0.17900783
-0.024332035 -0.16188985 -0.17900783
-0.0076533249 -0.16188985 -0.17900783
0.0090253865 -0.16188985 -0.17900783
0.025704097 -0.16188985 -0.17900783
0.04238281 -0.16188985 -0.17900783
0.059061524 -0.16188985 -0.17900783
0.075740233 -0.16188985 -0.17900783
0.092418946 -0.16188985 -0.17900783
0.10909766 -0.16188985 -0.17900783
0.12577637 -0.16188985 -0.17900783
0.14245507 -0.16188985 -0.17900783
0.15913379 -0.16188985 -0.17900783
0.1758125 -0.16188985 -0.17900783
0.1924912 -0.16188985 -0.17900783
0.20916992 -0.16188985 -0.17900783
0.22584863 -0.16188985 -0.17900783
-0.22481276 -0.14554736 -0.17588836
-0.20811005 -0.14554736 -0.17588836
-0.19140732 -0.14554736 -0.17588836
-0.1747046 -0.14554736 -0.17588836
-0.15800187 -0.14554736 -0.17588836
-0.14129916 -0.14554736 -0.17588836
-0.12459642 -0.14554736 -0.17588836
-0.10789368 -0.14554736 -0.17588836
-0.091190964 -0.14554736 -0.17588836
-0.074488238 -0.14554736 -0.17588836
-0.057785518 -0.14554736 -0.17588836
-0.041082788 -0.14554736 -0.17588836
-0.024380066 -0.14554736 -0.17588836
-0.0076773399 -0.14554736 -0.17588836
0.0090253865 -0.14554736 -0.17588836
0.025728114 -0.14554736 -0.17588836
0.04243084 -0.14554736 -0.17588836
0.059133563 -0.14554736 -0.17588836
0.075836293 -0.14554736 -0.17588836
0.092539012 -0.14554736 -0.17588836
0.10924174 -0.14554736 -0.17588836
0.12594445 -0.14554736 -0.17588836
0.14264719 -0.14554736 -0.17588836
0.15934992 -0.14554736 -0.17588836
0.17605263 -0.14554736 -0.17588836
0.19275536 -0.14554736 -0.17588836
0.20945808 -0.14554736 -0.17588836
0.22616081 -0.14554736 -0.17588836
-0.24252866 -0.19680375 -0.16711426
-0.22575839 -0.19680375 -0.16711426
-0.20898813 -0.19680375 -0.16711426
-0.19221787 -0.19680375 -0.16711426
-0.17544758 -0.19680375 -0.16711426
-0.15867731 -0.19680375 -0.16711426
-0.14190847 -0.19680649 -0.16709352
-0.12513804 -0.19680649 -0.16709352
-0.10836761 -0.19680649 -0.16709352
-0.091597177 -0.19680649 -0.16709352
-0.074826755 -0.19680649 -0.16709352
-0.058056012 -0.19680512 -0.16710383
-0.04128566 -0.19680512 -0.16710383
-0.024515312 -0.19680512 -0.16710383
-0.0077449633 -0.19680512 -0.16710383
0.0090253865 -0.19680512 -0.16710383
0.025795735 -0.19680512 -0.16710383
0.042566087 -0.19680512 -0.16710383
0.05933667 -0.19680649 -0.16709352
0.0761071 -0.19680649 -0.16709352
0.09287753 -0.19680649 -0.16709352
0.10964795 -0.19680649 -0.16709352
0.12641838 -0.19680649 -0.16709352
0.1431888 -0.19680649 -0.16709352
0.15995781 -0.19680375 -0.16711426
0.17672807 -0.19680375 -0.16711426
0.19349834 -0.19680375 -0.16711426
0.21026863 -0.19680375 -0.16711426
0.22703889 -0.19680375 -0.16711426
0.24380915 -0.19680375 -0.16711426
-0.22524597 -0.12924683 -0.1718688
-0.20851231 -0.12924683 -0.1718688
-0.19177864 -0.12924683 -0.1718688
-0.17504497 -0.12924683 -0.1718688
-0.15831132 -0.12924683 -0.1718688
-0.14157763 -0.12924683 -0.1718688
-0.12484396 -0.12924683 -0.1718688
-0.10811029 -0.12924683 -0.1718688
-0.091376625 -0.12924683 -0.1718688
-0.074642956 -0.12924683 -0.1718688
-0.057909288 -0.12924683 -0.1718688
-0.041175619 -0.12924683 -0.1718688
-0.02444195 -0.12924683 -0.1718688
-0.0077082822 -0.12924683 -0.1718688
0.0090253865 -0.12924683 -0.1718688
0.025759056 -0.12924683 -0.1718688
0.042492725 -0.12924683 -0.1718688
0.059226394 -0.12924683 -0.1718688
0.075960062 -0.12924683 -0.1718688
0.092693731 -0.12924683 -0.1718688
0.1094274 -0.12924683 -0.1718688
0.12616105 -0.12924683 -0.1718688
0.14289473 -0.12924683 -0.1718688
0.15962839 -0.12924683 -0.1718688
0.17636208 -0.12924683 -0.1718688
0.19309573 -0.12924683 -0.1718688
0.2098294 -0.12924683 -0.1718688
0.22656307 -0.12924683 -0.1718688
-0.22568189 -0.11288682 -0.16782403
-0.20891708 -0.11288682 -0.16782403
-0.19215228 -0.11288682 -0.16782403
-0.17538747 -0.11288682 -0.16782403
-0.15862267 -0.11288682 -0.16782403
-0.14185786 -0.11288682 -0.16782403
-0.12509306 -0.11288682 -0.16782403
-0.10832825 -0.11288682 -0.16782403
-0.091563441 -0.11288682 -0.16782403
-0.074798636 -0.11288682 -0.16782403
-0.058033831 -0.11288682 -0.16782403
-0.041269027 -0.11288682 -0.16782403
-0.024504222 -0.11288682 -0.16782403
-0.0077394182 -0.11288682 -0.16782403
0.0090253865 -0.11288682 -0.16782403
0.025790192 -0.11288682 -0.16782403
0.042554997 -0.11288682 -0.16782403
0.059319802 -0.11288682 -0.16782403
0.076084606 -0.11288682 -0.16782403
0.092849411 -0.11288682 -0.16782403
0.10961422 -0.11288682 -0.16782403
0.12637901 -0.11288682 -0.16782403
0.14314382 -0.11288682 -0.16782403
0.15990862 -0.11288682 -0.16782403
0.17667343 -0.11288682 -0.16782403
0.19343823 -0.11288682 -0.16782403
0.21020304 -0.11288682 -0.16782403
0.22698019 -0.11289817 -0.16770065
-0.20932336 -0.096465766 -0.16376424
-0.19252732 -0.096465766 -0.16376424
-0.17573126 -0.096465766 -0.16376424
-0.1589352 -0.096465766 -0.16376424
-0.14213914 -0.096465766 -0.16376424
-0.12534308 -0.096465766 -0.16376424
-0.10854702 -0.096465766 -0.16376424
-0.091750965 -0.096465766 -0.16376424
-0.074954905 -0.096465766 -0.16376424
-0.058158845 -0.096465766 -0.16376424
-0.041362789 -0.096465766 -0.16376424
-0.024566729 -0.096465766 -0.16376424
-0.0077706715 -0.096465766 -0.16376424
0.0090253865 -0.096465766 -0.16376424
0.025821444 -0.096465766 -0.16376424
0.042617504 -0.096465766 -0.16376424
0.059413563 -0.096465766 -0.16376424
0.07620962 -0.096465766 -0.16376424
0.09300568 -0.096465766 -0.16376424
0.10980174 -0.096465766 -0.16376424
0.12659779 -0.096465766 -0.16376424
0.14339384 -0.096465766 -0.16376424
0.1601899 -0.096465766 -0.16376424
0.17698596 -0.096465766 -0.16376424
0.19378202 -0.096465766 -0.16376424
0.21057808 -0.096465766 -0.16376424
-0.24479254 -0.28397551 -0.14750838
-0.22787133 -0.28397551 -0.14750838
-0.21095015 -0.28397551 -0.14750838
-0.19402896 -0.28397551 -0.14750838
-0.17710777 -0.28397551 -0.14750838
-0.16018656 -0.28397551 -0.14750838
-0.14326537 -0.28397551 -0.14750838
-0.12634417 -0.28397551 -0.14750838
-0.10942297 -0.28397551 -0.14750838
-0.092501782 -0.28397551 -0.14750838
-0.075580582 -0.28397551 -0.14750838
-0.05865939 -0.28397551 -0.14750838
-0.041738197 -0.28397551 -0.14750838
-0.024817001 -0.28397551 -0.14750838
-0.0078958077 -0.28397551 -0.14750838
0.0090253865 -0.28397551 -0.14750838
0.02594658 -0.28397551 -0.14750838
0.042867776 -0.28397551 -0.14750838
0.059788972 -0.28397551 -0.14750838
0.076710165 -0.28397551 -0.14750838
0.093631357 -0.28397551 -0.14750838
0.11055256 -0.28397551 -0.14750838
0.12747374 -0.28397551 -0.14750838
0.14439493 -0.28397551 -0.14750838
0.16131613 -0.28397551 -0.14750838
0.17823732 -0.28397551 -0.14750838
0.19515853 -0.28397551 -0.14750838
0.21207972 -0.28397551 -0.14750838
0.22900091 -0.28397551 -0.14750838
0.24592209 -0.28397551 -0.14750838
-0.24417578 -0.26619074 -0.15284961
-0.22729573 -0.26619074 -0.15284961
-0.21041563 -0.26619074 -0.15284961
-0.19353557 -0.26619074 -0.15284961
-0.17665547 -0.26619074 -0.15284961
-0.15977539 -0.26619074 -0.15284961
-0.14289531 -0.26619074 -0.15284961
-0.12601525 -0.26619074 -0.15284961
-0.10913517 -0.26619074 -0.15284961
-0.092255086 -0.26619074 -0.15284961
-0.075374998 -0.26619074 -0.15284961
-0.058494925 -0.26619074 -0.15284961
-0.041614849 -0.26619074 -0.15284961
-0.024734769 -0.26619074 -0.15284961
-0.0078546917 -0.26619074 -0.15284961
0.0090253865 -0.26619074 -0.15284961
0.025905464 -0.26619074 -0.15284961
0.042785544 -0.26619074 -0.15284961
0.059665624 -0.26619074 -0.15284961
0.0765457 -0.26619074 -0.15284961
0.093425773 -0.26619074 -0.15284961
0.11030586 -0.26619074 -0.15284961
0.12718594 -0.26619074 -0.15284961
0.14406601 -0.26619074 -0.15284961
0.16094607 -0.26619074 -0.15284961
0.17782615 -0.26619074 -0.15284961
0.19470623 -0.26619074 -0.15284961
0.21158633 -0.26619074 -0.15284961
0.22846639 -0.26619074 -0.15284961
0.24534649 -0.26619074 -0.15284961
-0.24476592 -0.2500976 -0.14773899
-0.22784649 -0.2500976 -0.14773899
-0.21092708 -0.2500976 -0.14773899
-0.19400765 -0.2500976 -0.14773899
-0.17708823 -0.2500976 -0.14773899
-0.16016883 -0.2500976 -0.14773899
-0.14324941 -0.2500976 -0.14773899
-0.12632997 -0.2500976 -0.14773899
-0.10941055 -0.2500976 -0.14773899
-0.092491128 -0.2500976 -0.14773899
-0.075571716 -0.2500976 -0.14773899
-0.058652289 -0.2500976 -0.14773899
-0.04173287 -0.2500976 -0.14773899
-0.024813451 -0.2500976 -0.14773899
-0.0078940326 -0.2500976 -0.14773899
0.0090253865 -0.2500976 -0.14773899
0.025944807 -0.2500976 -0.14773899
0.042864226 -0.2500976 -0.14773899
0.059783645 -0.2500976 -0.14773899
0.076703064 -0.2500976 -0.14773899
0.093622491 -0.2500976 -0.14773899
0.1105419 -0.2500976 -0.14773899
0.12746131 -0.2500976 -0.14773899
0.14438073 -0.2500976 -0.14773899
0.16130017 -0.2500976 -0.14773899
0.17821959 -0.2500976 -0.14773899
0.19513899 -0.2500976 -0.14773899
0.21205841 -0.2500976 -0.14773899
0.22897784 -0.2500976 -0.14773899
0.24589725 -0.2500976 -0.14773899
-0.24376948 -0.21506301 -0.15636837
-0.22691762 -0.21506447 -0.15635788
-0.21006455 -0.21506447 -0.15635788
-0.19321147 -0.21506447 -0.15635788
-0.17635842 -0.21506447 -0.15635788
-0.15950534 -0.21506447 -0.15635788
-0.1426537 -0.2150673 -0.15633708
-0.12580048 -0.2150673 -0.15633708
-0.10894779 -0.21506882 -0.15632665
-0.092093997 -0.2150673 -0.15633708
-0.075240366 -0.21506584 -0.15634757
-0.05838722 -0.21506584 -0.15634757
-0.041534066 -0.21506584 -0.15634757
-0.024680916 -0.21506584 -0.15634757
-0.0078277653 -0.21506584 -0.15634757
0.0090253865 -0.21506584 -0.15634757
0.025878537 -0.21506584 -0.15634757
0.042731691 -0.21506584 -0.15634757
0.059584841 -0.21506584 -0.15634757
0.076438315 -0.2150673 -0.15633708
0.093291543 -0.2150673 -0.15633708
0.11014526 -0.21506882 -0.15632665
0.12699801 -0.2150673 -0.15633708
0.14385124 -0.2150673 -0.15633708
0.16070303 -0.21506447 -0.15635788
0.1775561 -0.21506447 -0.15635788
0.19440918 -0.21506447 -0.15635788
0.21126223 -0.21506447 -0.15635788
0.22811531 -0.21506447 -0.15635788
0.24496725 -0.21506301 -0.15636837
-0.20973013 -0.079982623 -0.1596995
-0.19290279 -0.079982623 -0.1596995
-0.17607544 -0.079982623 -0.1596995
-0.1592481 -0.079982623 -0.1596995
-0.14242074 -0.079982623 -0.1596995
-0.12559339 -0.079982623 -0.1596995
-0.10876605 -0.079982623 -0.1596995
-0.091938697 -0.079982623 -0.1596995
-0.075111352 -0.079982623 -0.1596995
-0.058284 -0.079982623 -0.1596995
-0.041456655 -0.079982623 -0.1596995
-0.024629306 -0.079982623 -0.1596995
-0.0078019602 -0.079982623 -0.1596995
0.0090253865 -0.079982623 -0.1596995
0.025852732 -0.079982623 -0.1596995
0.042680081 -0.079982623 -0.1596995
0.05950743 -0.079982623 -0.1596995
0.076334774 -0.079982623 -0.1596995
0.093162127 -0.079982623 -0.1596995
0.10998947 -0.079982623 -0.1596995
0.12681682 -0.079982623 -0.1596995
0.14364415 -0.079982623 -0.1596995
0.1604715 -0.079982623 -0.1596995
0.17729886 -0.079982623 -0.1596995
0.1941262 -0.079982623 -0.1596995
0.21095355 -0.079982623 -0.1596995
-0.19328062 -0.063438624 -0.15560937
-0.17642179 -0.063438624 -0.15560937
-0.15956295 -0.063438624 -0.15560937
-0.14270413 -0.063438624 -0.15560937
-0.1258453 -0.063438624 -0.15560937
-0.10898644 -0.063438624 -0.15560937
-0.092127614 -0.063438624 -0.15560937
-0.075268783 -0.063438624 -0.15560937
-0.058409952 -0.063438624 -0.15560937
-0.041551113 -0.063438624 -0.15560937
-0.024692282 -0.063438624 -0.15560937
-0.0078334482 -0.063438624 -0.15560937
0.0090253865 -0.063438624 -0.15560937
0.025884222 -0.063438624 -0.15560937
0.042743057 -0.063438624 -0.15560937
0.059601888 -0.063438624 -0.15560937
0.076460727 -0.063438624 -0.15560937
0.093319558 -0.063438624 -0.15560937
0.11017839 -0.063438624 -0.15560937
0.12703721 -0.063438624 -0.15560937
0.14389606 -0.063438624 -0.15560937
0.16075489 -0.063438624 -0.15560937
0.17761371 -0.063438624 -0.15560937
0.19447255 -0.063438624 -0.15560937
-0.19365989 -0.046832696 -0.15150368
-0.17676944 -0.046832696 -0.15150368
-0.159879 -0.046832696 -0.15150368
-0.14298856 -0.046832696 -0.15150368
-0.12609813 -0.046832696 -0.15150368
-0.10920769 -0.046832696 -0.15150368
-0.092317246 -0.046832696 -0.15150368
-0.075426809 -0.046832696 -0.15150368
-0.058536366 -0.046832696 -0.15150368
-0.041645929 -0.046832696 -0.15150368
-0.024755489 -0.046832696 -0.15150368
-0.0078650517 -0.046832696 -0.15150368
0.0090253865 -0.046832696 -0.15150368
0.025915824 -0.046832696 -0.15150368
0.042806264 -0.046832696 -0.15150368
0.059696704 -0.046832696 -0.15150368
0.076587141 -0.046832696 -0.15150368
0.093477584 -0.046832696 -0.15150368
0.11036802 -0.046832696 -0.15150368
0.12725846 -0.046832696 -0.15150368
0.14414889 -0.046832696 -0.15150368
0.16103932 -0.046832696 -0.15150368
0.17792976 -0.046832696 -0.15150368
0.1948202 -0.046832696 -0.15150368
-0.1940396 -0.030163743 -0.14739317
-0.17711751 -0.030163743 -0.14739317
-0.16019544 -0.030163743 -0.14739317
-0.14327337 -0.030163743 -0.14739317
-0.12635127 -0.030163743 -0.14739317
-0.10942919 -0.030163743 -0.14739317
-0.092507102 -0.030163743 -0.14739317
-0.075585023 -0.030163743 -0.14739317
-0.058662936 -0.030163743 -0.14739317
-0.041740857 -0.030163743 -0.14739317
-0.024818774 -0.030163743 -0.14739317
-0.0078966944 -0.030163743 -0.14739317
0.0090253865 -0.030163743 -0.14739317
0.025947466 -0.030163743 -0.14739317
0.042869549 -0.030163743 -0.14739317
0.059791632 -0.030163743 -0.14739317
0.076713711 -0.030163743 -0.14739317
0.093635798 -0.030163743 -0.14739317
0.11055788 -0.030163743 -0.14739317
0.12747996 -0.030163743 -0.14739317
0.14440203 -0.030163743 -0.14739317
0.16132413 -0.030163743 -0.14739317
0.1782462 -0.030163743 -0.14739317
0.19516827 -0.030163743 -0.14739317
-0.24610473 -0.30290869 -0.13614446
-0.22909606 -0.30290869 -0.13614446
-0.21208738 -0.30290869 -0.13614446
-0.19507872 -0.30290869 -0.13614446
-0.17807004 -0.30290869 -0.13614446
-0.16106136 -0.30290869 -0.13614446
-0.14405268 -0.30290869 -0.13614446
-0.12704401 -0.30290869 -0.13614446
-0.11003533 -0.30290869 -0.13614446
-0.09302666 -0.30290869 -0.13614446
-0.076017983 -0.30290869 -0.13614446
-0.059009306 -0.30290869 -0.13614446
-0.042000636 -0.30290869 -0.13614446
-0.024991959 -0.30290869 -0.13614446
-0.0079832869 -0.30290869 -0.13614446
0.0090253865 -0.30290869 -0.13614446
0.026034061 -0.30290869 -0.13614446
0.043042734 -0.30290869 -0.13614446
0.060051411 -0.30290869 -0.13614446
0.077060081 -0.30290869 -0.13614446
0.094068758 -0.30290869 -0.13614446
0.11107744 -0.30290869 -0.13614446
0.1280861 -0.30290869 -0.13614446
0.14509477 -0.30290869 -0.13614446
0.16210344 -0.30290869 -0.13614446
0.17911212 -0.30290869 -0.13614446
0.1961208 -0.30290869 -0.13614446
0.21312948 -0.30290869 -0.13614446
0.23013814 -0.30290869 -0.13614446
0.24714682 -0.30290869 -0.13614446
-0.24502625 -0.23350787 -0.14548439
-0.22808947 -0.23350787 -0.14548439
-0.21115375 -0.23350939 -0.14547396
-0.19421689 -0.23350939 -0.14547396
-0.17728004 -0.23350939 -0.14547396
-0.16034319 -0.23350939 -0.14547396
-0.14340635 -0.23350939 -0.14547396
-0.12646948 -0.23350939 -0.14547396
-0.10953261 -0.23350939 -0.14547396
-0.092595749 -0.23350939 -0.14547396
-0.075658895 -0.23350939 -0.14547396
-0.058722042 -0.23350939 -0.14547396
-0.041785181 -0.23350939 -0.14547396
-0.024848327 -0.23350939 -0.14547396
-0.0079114707 -0.23350939 -0.14547396
0.0090253865 -0.23350939 -0.14547396
0.025962245 -0.23350939 -0.14547396
0.042899102 -0.23350939 -0.14547396
0.059835956 -0.23350939 -0.14547396
0.076772816 -0.23350939 -0.14547396
0.09370967 -0.23350939 -0.14547396
0.11064652 -0.23350939 -0.14547396
0.12758338 -0.23350939 -0.14547396
0.14452024 -0.23350939 -0.14547396
0.16145711 -0.23350939 -0.14547396
0.17839395 -0.23350939 -0.14547396
0.1953308 -0.23350939 -0.14547396
0.21226765 -0.23350939 -0.14547396
0.22920346 -0.23350787 -0.14548439
0.24614023 -0.23350787 -0.14548439
-0.2112536 -0.064209998 -0.14447623
0.2123899 -0.064232558 -0.14415038
-0.17746778 -0.013432696 -0.14325678
-0.16051386 -0.013432696 -0.14325678
-0.14355993 -0.013432696 -0.14325678
-0.12660602 -0.013432696 -0.14325678
-0.10965209 -0.013432696 -0.14325678
-0.092698157 -0.013432696 -0.14325678
-0.075744234 -0.013432696 -0.14325678
-0.058790311 -0.013432696 -0.14325678
-0.041836385 -0.013432696 -0.14325678
-0.024882462 -0.013432696 -0.14325678
-0.0079285363 -0.013432696 -0.14325678
0.0090253865 -0.013432696 -0.14325678
0.02597931 -0.013432696 -0.14325678
0.042933237 -0.013432696 -0.14325678
0.05988716 -0.013432696 -0.14325678
0.076841086 -0.013432696 -0.14325678
0.093795009 -0.013432696 -0.14325678
0.11074893 -0.013432696 -0.14325678
0.12770286 -0.013432696 -0.14325678
0.14465678 -0.013432696 -0.14325678
0.16161069 -0.013432696 -0.14325678
0.17856462 -0.013432696 -0.14325678
-0.17781848 0.0033618286 -0.13911527
-0.16083269 0.0033618286 -0.13911527
-0.14384687 0.0033618286 -0.13911527
-0.12686105 0.0033618286 -0.13911527
-0.10987525 0.0033618286 -0.13911527
-0.092889443 0.0033618286 -0.13911527
-0.075903639 0.0033618286 -0.13911527
-0.058917828 0.0033618286 -0.13911527
-0.041932028 0.0033618286 -0.13911527
-0.02494622 0.0033618286 -0.13911527
-0.0079604173 0.0033618286 -0.13911527
0.0090253865 0.0033618286 -0.13911527
0.026011191 0.0033618286 -0.13911527
0.042996995 0.0033618286 -0.13911527
0.059982803 0.0033618286 -0.13911527
0.076968603 0.0033618286 -0.13911527
0.093954414 0.0033618286 -0.13911527
0.11094022 0.0033618286 -0.13911527
0.12792602 0.0033618286 -0.13911527
0.14491181 0.0033618286 -0.13911527
0.16189763 0.0033618286 -0.13911527
0.17888345 0.0033618286 -0.13911527
-0.17828363 0.020178437 -0.13362199
-0.16122942 0.020188861 -0.13396144
-0.14420395 0.020188861 -0.13396144
-0.12717845 0.020188861 -0.13396144
-0.11015296 0.020188861 -0.13396144
-0.093127482 0.020188861 -0.13396144
-0.076102011 0.020188861 -0.13396144
-0.059076525 0.020188861 -0.13396144
-0.042051047 0.020188861 -0.13396144
-0.025025569 0.020188861 -0.13396144
-0.0080000916 0.020188861 -0.13396144
0.0090253865 0.020188861 -0.13396144
0.026050866 0.020188861 -0.13396144
0.043076344 0.020188861 -0.13396144
0.060101822 0.020188861 -0.13396144
0.0771273 0.020188861 -0.13396144
0.094152786 0.020188861 -0.13396144
0.11117826 0.020188861 -0.13396144
0.12820373 0.020188861 -0.13396144
0.14522921 0.020188861 -0.13396144
0.16225471 0.020188861 -0.13396144
0.17933163 0.020168379 -0.13329309
-0.23056546 -0.32243627 -0.12251019
-0.21345182 -0.32243627 -0.12251019
-0.19633819 -0.32243627 -0.12251019
-0.17922457 -0.32243627 -0.12251019
-0.16211094 -0.32243627 -0.12251019
-0.1449973 -0.32243627 -0.12251019
-0.12788367 -0.32243627 -0.12251019
-0.11077003 -0.32243627 -0.12251019
-0.093656398 -0.32243627 -0.12251019
-0.076542772 -0.32243627 -0.12251019
-0.059429139 -0.32243627 -0.12251019
-0.042315505 -0.32243627 -0.12251019
-0.025201876 -0.32243627 -0.12251019
-0.0080882451 -0.32243627 -0.12251019
0.0090253865 -0.32243627 -0.12251019
0.026139017 -0.32243627 -0.12251019
0.043252651 -0.32243627 -0.12251019
0.06036628 -0.32243627 -0.12251019
0.077479914 -0.32243627 -0.12251019
0.094593547 -0.32243627 -0.12251019
0.11170717 -0.32243627 -0.12251019
0.12882081 -0.32243627 -0.12251019
0.14593443 -0.32243627 -0.12251019
0.16304806 -0.32243627 -0.12251019
0.1801617 -0.32243627 -0.12251019
0.19727533 -0.32243627 -0.12251019
0.21438895 -0.32243627 -0.12251019
0.23150258 -0.32243627 -0.12251019
-0.24661551 -0.16735002 -0.13172108
0.24782303 -0.16756377 -0.12987006
-0.22956476 -0.099172875 -0.13179541
0.23060741 -0.09920162 -0.13145536
-0.19651258 -0.014478169 -0.1206224
0.19746338 -0.014493555 -0.12028944
-0.16210763 0.03695095 -0.12255305
-0.14499433 0.03695095 -0.12255305
-0.12788102 0.03695095 -0.12255305
-0.11076772 0.03695095 -0.12255305
-0.093654417 0.03695095 -0.12255305
-0.076541118 0.03695095 -0.12255305
-0.059427813 0.03695095 -0.12255305
-0.042314515 0.03695095 -0.12255305
-0.025201213 0.03695095 -0.12255305
-0.0080879135 0.03695095 -0.12255305
0.0090253865 0.03695095 -0.12255305
0.026138686 0.03695095 -0.12255305
0.043251988 0.03695095 -0.12255305
0.060365289 0.03695095 -0.12255305
0.077478588 0.03695095 -0.12255305
0.094591893 0.03695095 -0.12255305
0.11170519 0.03695095 -0.12255305
0.1288185 0.03695095 -0.12255305
0.14593178 0.03695095 -0.12255305
0.16304509 0.03695095 -0.12255305
-0.21494401 -0.049536392 -0.10759932
0.21579847 -0.049557894 -0.10725164
-0.23361143 -0.085021108 -0.094247162
0.23436511 -0.085047364 -0.093906343
-0.18146066 0.036340177 -0.096103191
0.18222153 0.036331944 -0.095751941
-0.16397412 0.053690903 -0.098306596
-0.14634404 0.053764299 -0.10307163
-0.12908077 0.053764299 -0.10307163
-0.11181749 0.053764299 -0.10307163
-0.094554223 0.053764299 -0.10307163
-0.07729096 0.053764299 -0.10307163
-0.060027689 0.053764299 -0.10307163
-0.042764418 0.053764299 -0.10307163
-0.025501151 0.053764299 -0.10307163
-0.0082378825 0.053764299 -0.10307163
0.0090253865 0.053764299 -0.10307163
0.026288655 0.053764299 -0.10307163
0.043551926 0.053764299 -0.10307163
0.060815193 0.053764299 -0.10307163
0.078078464 0.053764299 -0.10307163
0.095341735 0.053764299 -0.10307163
0.112605 0.053764299 -0.10307163
0.12986827 0.053764299 -0.10307163
0.14713153 0.053764299 -0.10307163
0.164731 0.053689554 -0.098219037
-0.20000938 0.0011929795 -0.0827685
0.20066974 0.0011797696 -0.082424164
-0.14807138 0.070835657 -0.078139722
-0.13061619 0.070835657 -0.078139722
-0.11316098 0.070835657 -0.078139722
-0.095705785 0.070835657 -0.078139722
-0.078250587 0.070835657 -0.078139722
-0.060795397 0.070835657 -0.078139722
-0.043340199 0.070835657 -0.078139722
-0.025885005 0.070835657 -0.078139722
-0.0084298095 0.070835657 -0.078139722
0.0090253865 0.070835657 -0.078139722
0.026480582 0.070835657 -0.078139722
0.043935779 0.070835657 -0.078139722
0.061390974 0.070835657 -0.078139722
0.078846171 0.070835657 -0.078139722
0.096301362 0.070835657 -0.078139722
0.11375656 0.070835657 -0.078139722
0.13121174 0.070835657 -0.078139722
0.14866695 0.070835657 -0.078139722
-0.21878381 -0.034375623 -0.069229782
0.21934402 -0.034395061 -0.068870127
-0.16628861 0.070759401 -0.068240345
0.16681345 0.070758864 -0.068161726
-0.18473865 0.053061023 -0.057391763
0.18520249 0.053055372 -0.057028294
-0.14983755 0.088290907 -0.052647114
-0.13218611 0.088290907 -0.052647114
-0.11453468 0.088290907 -0.052647114
-0.096883237 0.088290907 -0.052647114
-0.079231799 0.088290907 -0.052647114
-0.06158036 0.088290907 -0.052647114
-0.043928925 0.088290907 -0.052647114
-0.026277486 0.088290907 -0.052647114
-0.0086260485 0.088290907 -0.052647114
0.0090253865 0.088290907 -0.052647114
0.026676822 0.088290907 -0.052647114
0.044328261 0.088290907 -0.052647114
0.0619797 0.088290907 -0.052647114
0.079631135 0.088290907 -0.052647114
0.097282574 0.088290907 -0.052647114
0.11493401 0.088290907 -0.052647114
0.13258545 0.088290907 -0.052647114
0.15023687 0.088290907 -0.052647114
-0.20362721 0.01740665 -0.043604314
0.20398808 0.01739531 -0.043236434
-0.16866499 0.088290788 -0.037370384
0.16895312 0.088290833 -0.037277877
-0.24042916 -0.072072789 -0.030986547
0.24086305 -0.072212175 -0.028974771
-0.22276105 -0.018687516 -0.029486775
0.2230165 -0.01870472 -0.029114425
-0.1516439 0.10614295 -0.02657479
-0.13379174 0.10614295 -0.02657479
-0.11593961 0.10614295 -0.02657479
-0.09808746 0.10614295 -0.02657479
-0.080235325 0.10614295 -0.02657479
-0.062383182 0.10614295 -0.02657479
-0.044531036 0.10614295 -0.02657479
-0.026678897 0.10614295 -0.02657479
-0.0088267559 0.10614295 -0.02657479
0.0090253865 0.10614295 -0.02657479
0.02687753 0.10614295 -0.02657479
0.044729672 0.10614295 -0.02657479
0.062581807 0.10614295 -0.02657479
0.080433957 0.10614295 -0.02657479
0.0982861 0.10614295 -0.02657479
0.11613823 0.10614295 -0.02657479
0.13399038 0.10614295 -0.02657479
0.1518425 0.10614295 -0.02657479
-0.18813047 0.070367604 -0.017336428
0.18828695 0.070364654 -0.016960204
-0.20737907 0.034189798 -0.0029891133
0.20742838 0.034180991 -0.0026082993
-0.17110394 0.1063038 -0.0056874752
0.17114834 0.1063045 -0.005592525
-0.15369707 0.12445135 0.0030602813
-0.13543433 0.12440576 9.7334385e-05
-0.11737686 0.12440576 9.7334385e-05
-0.099319391 0.12440576 9.7334385e-05
-0.081261925 0.12440576 9.7334385e-05
-0.063204467 0.12440576 9.7334385e-05
-0.045147002 0.12440576 9.7334385e-05
-0.02708954 0.12440576 9.7334385e-05
-0.0090320772 0.12440576 9.7334385e-05
0.0090253865 0.12440576 9.7334385e-05
0.027082849 0.12440576 9.7334385e-05
0.045140315 0.12440576 9.7334385e-05
0.063197777 0.12440576 9.7334385e-05
0.081255242 0.12440576 9.7334385e-05
0.0993127 0.12440576 9.7334385e-05
0.11737017 0.12440576 9.7334385e-05
0.13542762 0.12440576 9.7334385e-05
0.15367346 0.12445282 0.0031559467
-0.22687966 -0.002441898 0.011668742
0.2268195 -0.0024567246 0.012054324
-0.19164416 0.088290788 0.024158359
0.19148131 0.08829087 0.024535954
-0.17360702 0.1248173 0.026828349
0.17340131 0.12481877 0.026925981
-0.13711512 0.14309354 0.027389944
-0.11884756 0.14309354 0.027389944
-0.10057998 0.14309354 0.027389944
-0.082312427 0.14309354 0.027389944
-0.064044863 0.14309354 0.027389944
-0.045777299 0.14309354 0.027389944
-0.027509738 0.14309354 0.027389944
-0.0092421761 0.14309354 0.027389944
0.0090253865 0.14309354 0.027389944
0.027292948 0.14309354 0.027389944
0.045560513 0.14309354 0.027389944
0.063828073 0.14309354 0.027389944
0.082095638 0.14309354 0.027389944
0.1003632 0.14309354 0.027389944
0.11863076 0.14309354 0.027389944
0.13689832 0.14309354 0.027389944
-0.21126913 0.051575053 0.039121866
0.21099544 0.051568948 0.039516568
-0.15597279 0.1432903 0.035907388
0.15569648 0.14329252 0.036005855
-0.23114724 0.014391586 0.054313183
0.23076013 0.014379211 0.054712892
-0.13883549 0.16222133 0.05532515
-0.12035287 0.16222133 0.05532515
-0.10187026 0.16222133 0.05532515
-0.083387658 0.16222133 0.05532515
-0.064905047 0.16222133 0.05532515
-0.046422437 0.16222133 0.05532515
-0.02793983 0.16222133 0.05532515
-0.0094572222 0.16222133 0.05532515
0.0090253865 0.16222133 0.05532515
0.027507994 0.16222133 0.05532515
0.045990605 0.16222133 0.05532515
0.064473212 0.16222133 0.05532515
0.082955822 0.16222133 0.05532515
0.10143843 0.16222133 0.05532515
0.11992104 0.16222133 0.05532515
0.13840364 0.16222133 0.05532515
-0.19529179 0.10686512 0.067234755
0.19479938 0.10686827 0.067638874
-0.17618063 0.14385265 0.060260653
0.17571688 0.14385462 0.06034863
-0.15831307 0.16266349 0.069686413
0.15777612 0.16266629 0.069774985
-0.21529214 0.069597729 0.082672358
0.21468443 0.069594488 0.083081484
-0.14059685 0.18180472 0.083926082
-0.12189405 0.18180472 0.083926082
-0.10319128 0.18180472 0.083926082
-0.084488504 0.18180472 0.083926082
-0.065785728 0.18180472 0.083926082
-0.047082946 0.18180472 0.083926082
-0.02838017 0.18180472 0.083926082
-0.0096773924 0.18180472 0.083926082
0.0090253865 0.18180472 0.083926082
0.027728166 0.18180472 0.083926082
0.046430945 0.18180472 0.083926082
0.065133721 0.18180472 0.083926082
0.083836503 0.18180472 0.083926082
0.10253928 0.18180472 0.083926082
0.12124205 0.18180472 0.083926082
0.13994482 0.18180472 0.083926082
-0.2355397 0.031852774 0.09820509
0.23481604 0.03184323 0.09861958
-0.17891435 0.16346675 0.095772624
0.1781998 0.16347949 0.09618628
-0.19905785 0.12612417 0.11170971
0.19822422 0.1261306 0.11212885
-0.16071709 0.18259229 0.1043855
0.15991399 0.18259621 0.10448956
-0.14244993 0.20189737 0.11401653
-0.12347241 0.20186038 0.11321652
-0.10454415 0.20186038 0.11321652
-0.085615888 0.20186038 0.11321652
-0.066687636 0.20186038 0.11321652
-0.04775938 0.20186038 0.11321652
-0.028831124 0.20186038 0.11321652
-0.0099028694 0.20186038 0.11321652
0.0090253865 0.20186038 0.11321652
0.027953643 0.20186038 0.11321652
0.046881899 0.20186038 0.11321652
0.065810151 0.20186038 0.11321652
0.084738411 0.20186038 0.11321652
0.10366666 0.20186038 0.11321652
0.12259492 0.20186038 0.11321652
0.14157122 0.20190151 0.11410832
-0.21945868 0.088290907 0.1277765
0.21850507 0.08829087 0.12820125
-0.18243679 0.18402198 0.14153039
-0.16319026 0.20310128 0.14008248
0.16211171 0.20310566 0.1401763
0.18137108 0.18403837 0.14195979
-0.14466825 0.22277272 0.15003741
-0.12508927 0.22240549 0.14322186
-0.10593003 0.22240549 0.14322186
-0.086770795 0.22240549 0.14322186
-0.06761156 0.22240549 0.14322186
-0.048452321 0.22240549 0.14322186
-0.029293086 0.22240549 0.14322186
-0.01013385 0.22240549 0.14322186
0.0090253865 0.22240549 0.14322186
0.028184623 0.22240549 0.14322186
0.047343861 0.22240549 0.14322186
0.066503093 0.22240549 0.14322186
0.085662335 0.22240549 0.14322186
0.10482157 0.22240549 0.14322186
0.12398081 0.22240549 0.14322186
0.14351313 0.22277857 0.15014541
-0.202978 0.14610997 0.15800452
0.20178922 0.14612004 0.15843964
-0.22378422 0.10769159 0.17460191
0.22247152 0.10769507 0.17504275
-0.16573368 0.22421449 0.17679381
0.16437358 0.22422044 0.1769042
-0.12682329 0.24354649 0.17540097
-0.10741633 0.24354649 0.17540097
-0.088009372 0.24354649 0.17540097
-0.06860242 0.24354649 0.17540097
-0.049195472 0.24354649 0.17540097
-0.029788516 0.24354649 0.17540097
-0.010381565 0.24354649 0.17540097
0.0090253865 0.24354649 0.17540097
0.028432339 0.24354649 0.17540097
0.047839291 0.24354649 0.17540097
0.067246243 0.24354649 0.17540097
0.086653195 0.24354649 0.17540097
0.10606015 0.24354649 0.17540097
0.12546711 0.24354649 0.17540097
-0.18608949 0.20535982 0.18898046
0.18465871 0.20537961 0.18941247
-0.14694907 0.24426526 0.18707335
0.14550902 0.24427217 0.18718469
-0.245452 0.049140509 0.19725454
0.24414019 0.049105123 0.19955647
-0.20704272 0.16686109 0.20600653
0.20548572 0.16687489 0.20645857
-0.22827537 0.12784097 0.22322011
0.22658867 0.12784773 0.22366381
-0.16835633 0.24596342 0.21464837
0.16670501 0.24597055 0.21476209
-0.1287691 0.26545519 0.21151078
-0.10908416 0.26545519 0.21151078
-0.089399233 0.26545519 0.21151078
-0.069714315 0.26545519 0.21151078
-0.050029386 0.26545519 0.21151078
-0.030344464 0.26545519 0.21151078
-0.010659539 0.26545519 0.21151078
0.0090253865 0.26545519 0.21151078
0.028710313 0.26545519 0.21151078
0.048395239 0.26545519 0.21151078
0.068080157 0.26545519 0.21151078
0.08776509 0.26545519 0.21151078
0.10745001 0.26545519 0.21151078
0.12713493 0.26545519 0.21151078
-0.14930037 0.26640731 0.2252537
0.1475666 0.26641518 0.22536838
-0.18987872 0.22752376 0.23820388
0.18807116 0.22754866 0.23866725
-0.13084543 0.28810632 0.25004268
-0.11086388 0.28810632 0.25004268
-0.090882331 0.28810632 0.25004268
-0.07090079 0.28810632 0.25004268
-0.050919246 0.28810632 0.25004268
-0.030937701 0.28810632 0.25004268
-0.010956158 0.28810632 0.25004268
0.0090253865 0.28810632 0.25004268
0.029006932 0.28810632 0.25004268
0.048988476 0.28810632 0.25004268
0.068970017 0.28810632 0.25004268
0.088951565 0.28810632 0.25004268
0.10893311 0.28810632 0.25004268
0.12891465 0.28810632 0.25004268
-0.21126388 0.18842226 0.25585604
0.20932335 0.18843979 0.25631094
-0.17106193 0.26837811 0.25370038
0.16910931 0.26838523 0.2538029
-0.15172274 0.289226 0.26458812
0.14968556 0.28923398 0.26469159
-0.23294187 0.14878272 0.27373612
0.23086901 0.1487937 0.27421224
-0.19382961 0.25057483 0.28952754
0.1916272 0.2506035 0.28999448
-0.17384715 0.29148251 0.29390168
0.17158526 0.2914907 0.29400742
-0.15422039 0.31275371 0.30514479
-0.13373096 0.31262228 0.30359149
-0.1133372 0.31262228 0.30359149
-0.09294343 0.31262228 0.30359149
-0.072549663 0.31262228 0.30359149
-0.052155904 0.31262228 0.30359149
-0.031762138 0.31262228 0.30359149
-0.011368376 0.31262228 0.30359149
0.0090253865 0.31262228 0.30359149
0.02941915 0.31262228 0.30359149
0.049812913 0.31262228 0.30359149
0.070206679 0.31262228 0.30359149
0.090600438 0.31262228 0.30359149
0.1109942 0.31262228 0.30359149
0.13138796 0.31262228 0.30359149
0.15187117 0.31276274 0.30525148
-0.2156752 0.2108548 0.30795145
0.21333626 0.21087745 0.30844021
-0.23819518 0.17069772 0.33060503
0.23586538 0.17077808 0.33321691
-0.19792375 0.27454507 0.34271204
0.19531435 0.27457976 0.34321356
-0.17672099 0.31531405 0.33538175
0.17414093 0.3153246 0.33550644
-0.22025606 0.23419726 0.36204886
0.217501 0.23422383 0.36254179
-0.15851174 0.33959657 0.37482774
-0.13756959 0.33959657 0.37482774
-0.11662746 0.33959657 0.37482774
-0.095685318 0.33959657 0.37482774
-0.074743174 0.33959657 0.37482774
-0.053801037 0.33959657 0.37482774
-0.032858893 0.33959657 0.37482774
-0.011916754 0.33959657 0.37482774
0.0090253865 0.33959657 0.37482774
0.029967528 0.33959657 0.37482774
0.050909668 0.33959657 0.37482774
0.071851812 0.33959657 0.37482774
0.092793949 0.33959657 0.37482774
0.11373609 0.33959657 0.37482774
0.13467823 0.33959657 0.37482774
0.15562035 0.33959657 0.37482774
-0.17969325 0.33991566 0.37828267
0.17680798 0.33996475 0.37881362
-0.20218907 0.29950529 0.39812005
0.19915459 0.29954562 0.39864266
-0.22502619 0.25851017 0.41838121
0.22184035 0.25854275 0.4189117
-0.20664573 0.32552892 0.45601356
0.20316592 0.32557368 0.45654142
-0.2512728 0.19674838 0.47217429
0.2478787 0.19686052 0.47508729
-0.22999901 0.28385621 0.47710741
0.22636285 0.28389454 0.47766042
-0.2759771 0.28560019 0.50228
-0.25492597 0.28625435 0.51172101
0.25097778 0.28625184 0.51168549
0.27210137 0.2855978 0.50224507
-0.23516175 0.31027913 0.53807652
0.23105812 0.31032354 0.53865385
-0.24358784 0.34090409 0.63758397
0.23894 0.34119698 0.64104259
-0.22139215 0.36479184 0.64757562
0.21640117 0.36479184 0.64757562
-0.22651851 0.39449799 0.71416867
-0.20296411 0.39449799 0.71416867
-0.17940973 0.39449799 0.71416867
-0.15585534 0.39449799 0.71416867
-0.13230096 0.39449799 0.71416867
-0.10874656 0.39449799 0.71416867
-0.085192166 0.39449799 0.71416867
-0.061637782 0.39449799 0.71416867
-0.038083389 0.39449799 0.71416867
-0.014529002 0.39449799 0.71416867
0.0090253865 0.39449799 0.71416867
0.032579776 0.39449799 0.71416867
0.056134164 0.39449799 0.71416867
0.079688556 0.39449799 0.71416867
0.10324294 0.39449799 0.71416867
0.12679733 0.39449799 0.71416867
0.15035172 0.39449799 0.71416867
0.1739061 0.39449799 0.71416867
0.19746049 0.39449799 0.71416867
0.22101487 0.39449799 0.71416867
-0.23187651 0.42555353 0.78377116
-0.20778632 0.42555353 0.78377116
-0.18369614 0.42555353 0.78377116
-0.15960595 0.42555353 0.78377116
-0.13551575 0.42555353 0.78377116
-0.11142556 0.42555353 0.78377116
-0.08733537 0.42555353 0.78377116
-0.063245177 0.42555353 0.78377116
-0.039154992 0.42555353 0.78377116
-0.015064803 0.42555353 0.78377116
0.0090253865 0.42555353 0.78377116
0.033115577 0.42555353 0.78377116
0.057205766 0.42555353 0.78377116
0.081295952 0.42555353 0.78377116
0.10538615 0.42555353 0.78377116
0.12947632 0.42555353 0.78377116
0.15356651 0.42555353 0.78377116
0.17765671 0.42555353 0.78377116
0.2017469 0.42555353 0.78377116
0.22583708 0.42555353 0.78377116
-0.23748395 0.45805466 0.85661399
-0.21283302 0.45805466 0.85661399
-0.18818209 0.45805466 0.85661399
-0.16353115 0.45805466 0.85661399
-0.13888021 0.45805466 0.85661399
-0.11422928 0.45805466 0.85661399
-0.089578345 0.45805466 0.85661399
-0.064927407 0.45805466 0.85661399
-0.040276479 0.45805466 0.85661399
-0.015625548 0.45805466 0.85661399
0.0090253865 0.45805466 0.85661399
0.033676319 0.45805466 0.85661399
0.058327254 0.45805466 0.85661399
0.082978182 0.45805466 0.85661399
0.10762912 0.45805466 0.85661399
0.13228005 0.45805466 0.85661399
0.15693097 0.45805466 0.85661399
0.18158191 0.45805466 0.85661399
0.20623285 0.45805466 0.85661399
0.23088378 0.45805466 0.85661399
0 0 0 1 0 0 0 1 0 0 0 1 0 0 0 0 0 1032 1 0 0
