ply
format ascii 1.0
comment PCL generated
element vertex 1341
property float x
property float y
property float z
element camera 1
property float view_px
property float view_py
property float view_pz
property float x_axisx
property float x_axisy
property float x_axisz
property float y_axisx
property float y_axisy
property float y_axisz
property float z_axisx
property float z_axisy
property float z_axisz
property float focal
property float scalex
property float scaley
property float centerx
property float centery
property int viewportx
property int viewporty
property float k1
property float k2
end_header
-0.62390339 -0.067488916 -0.20941484
-0.59489906 -0.067394339 -0.22170961
-0.56756353 -0.067373581 -0.22439492
-0.54117298 -0.067400523 -0.22090149
-0.51552451 -0.067471631 -0.21166527
0.42934927 -0.067465387 -0.21247768
0.45505023 -0.067393526 -0.22180367
0.48158988 -0.067373529 -0.22441363
0.50906944 -0.06740243 -0.22065723
-0.65073586 -0.040472247 -0.21045518
-0.48864383 -0.040472127 -0.21075797
0.40256795 -0.040472127 -0.21075797
0.56487548 -0.040472127 -0.20916879
-0.49153736 -0.067648761 -0.18864715
0.53812933 -0.067503773 -0.20748365
-0.62480521 -0.040472247 -0.20408928
0.43044707 -0.040472247 -0.20408928
-0.51657164 -0.040472187 -0.20410824
0.37810361 -0.040472127 -0.188743
0.53867495 -0.040472187 -0.20410824
-0.68085527 -0.013333827 -0.19361854
-0.46369901 -0.013336891 -0.19401956
0.37749428 -0.013336891 -0.19401956
0.59518874 -0.013310414 -0.19056082
-0.60154378 -0.094949163 -0.18060589
-0.57333565 -0.094852269 -0.18690383
-0.54666197 -0.094906673 -0.18337357
-0.5210948 -0.095089987 -0.17146468
0.43472156 -0.095090628 -0.17142594
0.4602688 -0.094894879 -0.18414152
0.48683235 -0.094826609 -0.18857062
0.51548767 -0.094974488 -0.1789701
0.40530071 -0.067649335 -0.18857062
-0.46438667 -0.040472127 -0.18843663
-0.65483117 -0.013285439 -0.18732548
-0.6299051 -0.013182597 -0.17397654
-0.60261548 -0.013182597 -0.17397654
0.51625943 -0.013182422 -0.17395723
0.56857169 -0.013285555 -0.18734467
-0.68390322 0.014058493 -0.1771208
-0.46660331 0.014161397 -0.17043972
-0.43897179 0.014119484 -0.17316544
0.35229868 0.014075492 -0.17602193
0.59756839 0.014058493 -0.1771208
-0.63258839 -0.095295213 -0.1581316
0.41004783 -0.095420033 -0.15002882
0.54670322 -0.095351987 -0.15444601
-0.65810871 -0.06780155 -0.16881382
-0.46887878 -0.06793122 -0.15196502
0.38214952 -0.067917749 -0.15370417
0.57246506 -0.06783589 -0.16435456
0.51871097 -0.040472247 -0.15803432
-0.60642672 -0.040472187 -0.15040076
-0.52196443 -0.013114957 -0.16518915
-0.44063574 -0.013065415 -0.15875494
0.35384083 -0.013088191 -0.16171253
0.43744233 -0.013002979 -0.15063548
-0.85307014 0.014430214 -0.1529814
-0.82435608 0.014343154 -0.15863812
-0.79650795 0.01431153 -0.16068184
-0.76885736 0.014292452 -0.16192639
-0.74147511 0.014292452 -0.16192639
-0.71601355 0.014446169 -0.15194559
-0.60536599 0.014368761 -0.15696239
-0.57794237 0.01436859 -0.15698183
-0.41288725 0.014292452 -0.16192639
-0.3855049 0.014292452 -0.16192639
-0.35812259 0.014292452 -0.16192639
-0.33074027 0.014292452 -0.16192639
-0.30335796 0.014292452 -0.16192639
-0.27597564 0.014292452 -0.16192639
-0.24859329 0.014292452 -0.16192639
-0.22121099 0.014292452 -0.16192639
-0.19382866 0.014292452 -0.16192639
-0.16644634 0.014292452 -0.16192639
-0.13906401 0.014292452 -0.16192639
-0.11168169 0.014292452 -0.16192639
-0.084299371 0.014292452 -0.16192639
-0.056917049 0.014292452 -0.16192639
-0.029534727 0.014292452 -0.16192639
-0.0021524057 0.014292452 -0.16192639
0.025229916 0.014292452 -0.16192639
0.052612238 0.014292452 -0.16192639
0.079994559 0.014292452 -0.16192639
0.10737689 0.014292452 -0.16192639
0.1347592 0.014292452 -0.16192639
0.16214153 0.014292452 -0.16192639
0.18952383 0.014292452 -0.16192639
0.21690618 0.014292452 -0.16192639
0.2442885 0.014292452 -0.16192639
0.27167082 0.014292452 -0.16192639
0.29905313 0.014292452 -0.16192639
0.32643545 0.014292452 -0.16192639
0.46402675 0.014367893 -0.15702081
0.49145254 0.01436859 -0.15698183
0.62764454 0.014292799 -0.16190684
0.65512061 0.014300197 -0.16142094
0.68260801 0.014308002 -0.16091537
0.71009922 0.014315519 -0.160429
0.73759794 0.014322978 -0.15994239
0.76510847 0.014330722 -0.15943646
0.79262233 0.01433824 -0.15894973
0.82026005 0.014353327 -0.15797591
0.84790802 0.014367893 -0.15702081
0.87557566 0.014382925 -0.15604603
0.90428114 0.014458138 -0.15116358
-0.85346293 0.04192058 -0.15128076
-0.82511771 0.041829474 -0.15522671
-0.79688132 0.04174339 -0.15894961
-0.7687645 0.041664369 -0.16237342
-0.74088418 0.041606501 -0.16487861
-0.71603239 0.041907519 -0.15184772
-0.68830168 0.041873641 -0.15331364
-0.44048515 0.041718014 -0.16005921
-0.41232657 0.041554585 -0.16712832
-0.38498434 0.041554585 -0.16712832
-0.35764205 0.041554585 -0.16712832
-0.33029976 0.041554585 -0.16712832
-0.3029575 0.041554585 -0.16712832
-0.27561522 0.041554585 -0.16712832
-0.24827296 0.041554585 -0.16712832
-0.22093065 0.041554585 -0.16712832
-0.19358839 0.041554585 -0.16712832
-0.16624612 0.041554585 -0.16712832
-0.13890383 0.041554585 -0.16712832
-0.11156156 0.041554585 -0.16712832
-0.084219277 0.041554585 -0.16712832
-0.056877002 0.041554585 -0.16712832
-0.029534727 0.041554585 -0.16712832
-0.0021924507 0.041554585 -0.16712832
0.025149826 0.041554585 -0.16712832
0.052492104 0.041554585 -0.16712832
0.079834379 0.041554585 -0.16712832
0.10717666 0.041554585 -0.16712832
0.13451894 0.041554585 -0.16712832
0.1618612 0.041554585 -0.16712832
0.1892035 0.041554585 -0.16712832
0.21654576 0.041554585 -0.16712832
0.24388805 0.041554585 -0.16712832
0.27123031 0.041554585 -0.16712832
0.2985726 0.041554585 -0.16712832
0.32591489 0.041554585 -0.16712832
0.3540169 0.041717492 -0.16007853
0.60167992 0.041860051 -0.15389931
0.62749016 0.041655928 -0.16274273
0.65392148 0.04154256 -0.16765177
0.68154681 0.041575626 -0.16621709
0.70919049 0.041608408 -0.164801
0.73686039 0.041641586 -0.16336417
0.7645483 0.041674249 -0.1619457
0.79225826 0.041707091 -0.16052628
0.81999505 0.041740268 -0.15908587
0.84774947 0.041773163 -0.15766418
0.87594748 0.04184439 -0.15458262
-0.74339449 0.069352269 -0.15233648
-0.71534455 0.069257349 -0.15542197
-0.41357142 0.069252603 -0.15557778
-0.38614023 0.069252603 -0.15557778
-0.35870901 0.069252603 -0.15557778
-0.33127785 0.069252603 -0.15557778
-0.30384666 0.069252603 -0.15557778
-0.27641547 0.069252603 -0.15557778
-0.24898428 0.069252603 -0.15557778
-0.22155307 0.069252603 -0.15557778
-0.19412187 0.069252603 -0.15557778
-0.16669069 0.069252603 -0.15557778
-0.1392595 0.069252603 -0.15557778
-0.1118283 0.069252603 -0.15557778
-0.084397115 0.069252603 -0.15557778
-0.056965917 0.069252603 -0.15557778
-0.029534727 0.069252603 -0.15557778
-0.0021035355 0.069252603 -0.15557778
0.02532766 0.069252603 -0.15557778
0.052758843 0.069252603 -0.15557778
0.080190048 0.069252603 -0.15557778
0.10762124 0.069252603 -0.15557778
0.13505241 0.069252603 -0.15557778
0.16248362 0.069252603 -0.15557778
0.18991482 0.069252603 -0.15557778
0.217346 0.069252603 -0.15557778
0.2447772 0.069252603 -0.15557778
0.27220839 0.069252603 -0.15557778
0.29963955 0.069252603 -0.15557778
0.32707077 0.069252603 -0.15557778
0.62887883 0.069263414 -0.15522683
0.65683508 0.069346838 -0.15251255
0.68483388 0.069430716 -0.14979398
-0.58061433 -0.12313406 -0.13962686
-0.55308342 -0.12313782 -0.13946939
0.46648607 -0.12314227 -0.13927269
0.49391606 -0.12312233 -0.14013863
-0.49668083 -0.095430553 -0.14934373
-0.58153117 -0.040472247 -0.1336726
-0.4439109 -0.040472247 -0.13039112
0.35711619 -0.040472247 -0.13132083
0.467262 -0.040472247 -0.1336726
-0.55393422 -0.040472187 -0.13365293
0.49486473 -0.040472187 -0.13365293
-0.82994711 -0.01287175 -0.13359356
-0.80234671 -0.01287175 -0.13359356
-0.7747463 -0.01287175 -0.13359356
-0.74714577 -0.01287175 -0.13359356
-0.71954536 -0.01287175 -0.13359356
-0.55282438 -0.012930658 -0.14124012
-0.4159407 -0.01287175 -0.13359356
-0.38834026 -0.01287175 -0.13359356
-0.36073986 -0.01287175 -0.13359356
-0.33313942 -0.01287175 -0.13359356
-0.30553898 -0.01287175 -0.13359356
-0.2779386 -0.01287175 -0.13359356
-0.25033817 -0.01287175 -0.13359356
-0.22273771 -0.01287175 -0.13359356
-0.19513729 -0.01287175 -0.13359356
-0.16753685 -0.01287175 -0.13359356
-0.13993645 -0.01287175 -0.13359356
-0.11233601 -0.01287175 -0.13359356
-0.084735587 -0.01287175 -0.13359356
-0.057135157 -0.01287175 -0.13359356
-0.029534727 -0.01287175 -0.13359356
-0.0019342992 -0.01287175 -0.13359356
0.025666129 -0.01287175 -0.13359356
0.053266555 -0.01287175 -0.13359356
0.080866985 -0.01287175 -0.13359356
0.1084674 -0.01287175 -0.13359356
0.13606784 -0.01287175 -0.13359356
0.16366826 -0.01287175 -0.13359356
0.19126871 -0.01287175 -0.13359356
0.21886913 -0.01287175 -0.13359356
0.24646953 -0.01287175 -0.13359356
0.27406996 -0.01287175 -0.13359356
0.3016704 -0.01287175 -0.13359356
0.32927081 -0.01287175 -0.13359356
0.49442312 -0.01289551 -0.13667202
0.63287187 -0.012871923 -0.13361347
0.9095782 -0.012851227 -0.1309253
-0.88415945 0.01466481 -0.13773632
0.93566144 0.014681865 -0.13663256
-0.88195503 0.042020135 -0.14697349
-0.60813653 0.042185061 -0.13982379
-0.58047807 0.04216928 -0.14051259
-0.55237043 0.042080887 -0.14434481
-0.52547646 0.04218483 -0.13984358
-0.49912742 0.042397052 -0.13064849
0.43885723 0.042185061 -0.13982379
0.46578598 0.042081237 -0.14432526
0.49330667 0.042081587 -0.14430535
0.52151155 0.04218483 -0.13984358
0.9074347 0.042201541 -0.13911498
-0.88536489 0.069957547 -0.13268495
-0.85642707 0.069780126 -0.13844562
-0.82784522 0.069639765 -0.14300931
-0.79964447 0.069543391 -0.14613032
-0.77149296 0.069447488 -0.14924586
-0.69023442 0.069644384 -0.14285207
-0.44247207 0.069644384 -0.14285207
0.35587347 0.069644384 -0.14285207
0.60363233 0.06964387 -0.14287162
0.71278179 0.06950061 -0.14752221
0.74064684 0.06955374 -0.1457969
0.76854336 0.069607504 -0.14405036
0.79646242 0.069660746 -0.14232159
0.82440865 0.069713987 -0.14059114
0.85285747 0.069826834 -0.13692808
-0.74714577 0.097529836 -0.13359368
-0.7189188 0.097404562 -0.1368494
-0.41585135 0.097498097 -0.13442278
-0.38859347 0.097627245 -0.13106382
-0.36097354 0.097627245 -0.13106382
-0.33335364 0.097627245 -0.13106382
-0.30573377 0.097627245 -0.13106382
-0.27811384 0.097627245 -0.13106382
-0.25049394 0.097627245 -0.13106382
-0.22287405 0.097627245 -0.13106382
-0.19525506 0.09762805 -0.13104403
-0.16763499 0.09762805 -0.13104403
-0.14001495 0.09762805 -0.13104403
-0.11239489 0.09762805 -0.13104403
-0.084774837 0.09762805 -0.13104403
-0.057154782 0.09762805 -0.13104403
-0.029534727 0.09762805 -0.13104403
-0.0019146744 0.09762805 -0.13104403
0.025705379 0.09762805 -0.13104403
0.053325437 0.09762805 -0.13104403
0.080945484 0.09762805 -0.13104403
0.10856554 0.09762805 -0.13104403
0.1361856 0.09762805 -0.13104403
0.16380565 0.09762805 -0.13104403
0.1914257 0.09762805 -0.13104403
0.21904439 0.097627245 -0.13106382
0.24666432 0.097627245 -0.13106382
0.27428418 0.097627245 -0.13106382
0.30190408 0.097627245 -0.13106382
0.32913253 0.097476758 -0.13497543
0.63309813 0.097576313 -0.13238847
-0.6099782 -0.12339265 -0.12843144
-0.52679163 -0.12334825 -0.13035166
0.44023147 -0.12337212 -0.12932253
0.52310097 -0.12336756 -0.12952054
-0.47361219 -0.095981881 -0.11353469
0.38636172 -0.095925003 -0.11722553
-0.69399464 -0.040472303 -0.12249935
-0.86157167 -0.012737572 -0.11616886
-0.58416772 -0.012740461 -0.1165477
-0.50097275 -0.012740461 -0.1165477
0.41417161 -0.012740461 -0.1165477
0.46963218 -0.012740692 -0.11656773
0.55282986 -0.012740461 -0.1165477
0.66171348 -0.012822263 -0.12716329
0.68936336 -0.012822263 -0.12716329
0.71701336 -0.012822263 -0.12716329
0.74466324 -0.012822263 -0.12716329
0.77231312 -0.012822263 -0.12716329
0.79996312 -0.012822263 -0.12716329
0.827613 -0.012822263 -0.12716329
0.85526299 -0.012822263 -0.12716329
0.88245487 -0.012836253 -0.12896621
-0.55523431 0.014864601 -0.12476337
-0.6378969 0.04248631 -0.12678659
-0.47329757 0.042733282 -0.11608911
0.3869794 0.042830631 -0.11187625
0.41278112 0.042461917 -0.12783706
0.55062068 0.04240717 -0.13021302
0.58116317 0.042804845 -0.11299527
0.94140613 0.042751312 -0.11531103
-0.66732383 0.070447549 -0.11676693
-0.63861966 0.070270531 -0.12251925
-0.55555975 0.070269898 -0.12253916
-0.47250313 0.070269898 -0.12253916
0.38609952 0.070363604 -0.11949623
0.41343611 0.070270531 -0.12251925
0.46880472 0.070269898 -0.12253916
0.5518645 0.070270531 -0.12251925
0.57958043 0.070276022 -0.1223402
0.88229394 0.070052356 -0.12959957
0.91301262 0.07041581 -0.11780322
-0.88954425 0.098239042 -0.11517143
-0.86053669 0.098028101 -0.12065029
-0.83212674 0.097905777 -0.12383032
-0.80377114 0.097784363 -0.12698495
-0.77546537 0.097663082 -0.13013399
-0.66698861 0.098104693 -0.11865985
-0.47298092 0.098104693 -0.11865985
-0.44590348 0.098317377 -0.1131351
0.35836911 0.098064922 -0.11969507
0.38619608 0.098104693 -0.11865985
0.58020377 0.098104693 -0.11865985
0.66117978 0.097670831 -0.1299361
0.68929994 0.09776517 -0.12748051
0.71745849 0.097859807 -0.12502146
0.74565995 0.097955368 -0.12253916
0.77389598 0.098050244 -0.12007332
0.80201888 0.098120071 -0.11826158
0.83000362 0.098163091 -0.1171459
0.85868907 0.098312818 -0.11325479
-0.77943051 0.12617132 -0.11105645
-0.75102472 0.12602547 -0.11421347
-0.72279143 0.12590939 -0.11672723
-0.69449806 0.12576854 -0.11977482
-0.44513449 0.12576774 -0.11979473
-0.41806594 0.12604129 -0.11387408
0.33124223 0.12604025 -0.11389387
0.35829192 0.12573913 -0.12041163
0.60803556 0.12585059 -0.11800265
-0.67027056 -0.096188322 -0.10012388
0.58332932 -0.096187174 -0.10020423
-0.44775933 -0.068353817 -0.097063184
0.36045885 -0.068328783 -0.10030496
0.94405806 -0.012655308 -0.10546792
-0.64255214 0.015256669 -0.099298596
-0.53109443 0.015256669 -0.099298596
-0.50333542 0.015269041 -0.098493457
0.41629612 0.015256669 -0.099298596
0.44416055 0.015256669 -0.099298596
0.52775383 0.015256669 -0.099298596
0.55561829 0.015256669 -0.099298596
-0.66895163 0.042929947 -0.10757339
0.94721949 0.071156763 -0.093734384
-0.69793534 0.098777838 -0.10116982
-0.55811822 0.098628692 -0.10504687
0.47122857 0.098628692 -0.10504687
0.61016607 0.098593198 -0.10596931
0.88825107 0.098586313 -0.10615003
0.91910613 0.099033765 -0.094521642
-0.89376462 0.12679809 -0.097486138
-0.86502159 0.12662524 -0.10123026
-0.83645439 0.12647679 -0.10444474
-0.80789053 0.1263184 -0.1078738
-0.64225233 0.12663263 -0.10106933
-0.6158191 0.12703761 -0.092300415
-0.50300097 0.1266335 -0.10104918
-0.47430202 0.12631556 -0.10793388
-0.39097032 0.12634429 -0.10731268
-0.36367375 0.12659732 -0.10183334
-0.33614576 0.12677011 -0.098090649
-0.30856073 0.12694338 -0.094340086
-0.28072387 0.12698731 -0.09339118
-0.25281399 0.12698731 -0.09339118
-0.22490406 0.12698731 -0.09339118
-0.19699417 0.12698731 -0.09339118
-0.16908425 0.12698731 -0.09339118
-0.14117435 0.12698731 -0.09339118
-0.11326445 0.12698731 -0.09339118
-0.085354537 0.12698731 -0.09339118
-0.057444632 0.12698731 -0.09339118
-0.029534727 0.12698731 -0.09339118
-0.0016248208 0.12698731 -0.09339118
0.026285086 0.12698731 -0.09339118
0.054194994 0.12698731 -0.09339118
0.082104899 0.12698731 -0.09339118
0.1100148 0.12698731 -0.09339118
0.13792472 0.12698731 -0.09339118
0.16583461 0.12698731 -0.09339118
0.19374453 0.12698731 -0.09339118
0.22165442 0.12698731 -0.09339118
0.24945712 0.12692285 -0.094784141
0.27681556 0.12662789 -0.10116982
0.30407777 0.12633404 -0.1075331
0.38743693 0.12631643 -0.10791373
0.41607806 0.12663263 -0.10106933
0.52824402 0.12686139 -0.096115589
0.55533862 0.12663445 -0.10102916
0.63775313 0.12634984 -0.10719228
0.66746366 0.12680733 -0.097284794
0.69583189 0.12691996 -0.094844699
0.72352934 0.1268754 -0.095813155
0.75120771 0.12682965 -0.096801043
0.77887535 0.12678516 -0.097768307
0.80652833 0.12674052 -0.098735094
0.83464706 0.12678885 -0.097687721
0.86349273 0.1269705 -0.093754649
-0.69882071 0.15473619 -0.09637773
-0.67016017 0.15450075 -0.10074759
-0.47508806 0.15445742 -0.10155189
-0.44801548 0.15481871 -0.094844699
0.36091468 0.15475252 -0.096075177
0.38809031 0.15441951 -0.10225558
0.58368397 0.15464291 -0.098110676
-0.2815972 -0.040472247 -0.08078599
0.19470379 -0.040472247 -0.07781446
0.61580801 -0.040472247 -0.074103475
0.64116979 -0.040472247 -0.088699818
0.89267373 -0.040472247 -0.088740349
-0.87088573 -0.040472187 -0.075837731
-0.83997834 -0.040472187 -0.088659286
-0.81203198 -0.040472187 -0.088659286
-0.78408146 -0.040472127 -0.088679552
-0.75613534 -0.040472127 -0.088679552
-0.72818911 -0.040472127 -0.088679552
-0.42078337 -0.040472187 -0.088659286
-0.39283705 -0.040472187 -0.088659286
-0.36489069 -0.040472187 -0.088659286
-0.3369444 -0.040472187 -0.088659286
-0.30899805 -0.040472187 -0.088659286
-0.25377452 -0.040472187 -0.077794194
-0.22574124 -0.040472187 -0.077855349
-0.19770986 -0.040472187 -0.077895999
-0.16968067 -0.040472187 -0.077895999
-0.14165148 -0.040472187 -0.077895999
-0.11362229 -0.040472187 -0.077895999
-0.085593104 -0.040472187 -0.077895999
-0.057563916 -0.040472187 -0.077895999
-0.029534727 -0.040472187 -0.077895999
-0.001505537 -0.040472187 -0.077895999
0.02652365 -0.040472187 -0.077895999
0.054552838 -0.040472187 -0.077895999
0.082582027 -0.040472187 -0.077895999
0.11061122 -0.040472187 -0.077895999
0.1386404 -0.040472187 -0.077895999
0.16667069 -0.040472187 -0.077875495
0.22273502 -0.040472187 -0.077794194
0.250765 -0.040472187 -0.077794194
0.27857089 -0.040472187 -0.080440283
0.30582124 -0.040472187 -0.088659286
0.67120278 -0.040472187 -0.077855349
0.69923234 -0.040472187 -0.077855349
0.72726178 -0.040472187 -0.077855349
0.75529134 -0.040472187 -0.077855349
0.78332078 -0.040472187 -0.077855349
0.81135035 -0.040472187 -0.077855349
0.83937979 -0.040472187 -0.077855349
0.86740935 -0.040472187 -0.077855349
0.923383 -0.040472187 -0.078181267
-0.89578891 -0.012528529 -0.089003563
-0.92655909 0.015591912 -0.077529311
-0.6748594 0.015643075 -0.074205518
0.39003935 0.015470859 -0.085376024
0.58773589 0.015643306 -0.074185252
-0.92676485 0.043642983 -0.076693892
-0.61803246 0.071622543 -0.078608632
0.44759938 0.071794696 -0.073021412
-0.64487231 0.099377267 -0.085599303
0.55701113 0.099181525 -0.090683103
-0.67329133 0.12746429 -0.083062053
-0.58997738 0.12766057 -0.07881248
-0.56070161 0.1272648 -0.08738327
-0.53277636 0.12727508 -0.08716023
0.44617113 0.12742382 -0.083935261
0.47367325 0.1272637 -0.087403417
0.50267148 0.12759292 -0.080277681
0.58566546 0.12730965 -0.086410165
0.89419341 0.12747824 -0.082757473
-0.89832783 0.15570685 -0.078364611
-0.86960673 0.15554458 -0.081375599
-0.84125507 0.15546033 -0.082940221
-0.81292343 0.15537488 -0.084524035
-0.78462052 0.15529081 -0.086085796
-0.75634611 0.15520769 -0.087626338
-0.72777247 0.15503433 -0.09084475
-0.64475894 0.15528101 -0.086268306
-0.61615574 0.1550681 -0.09021759
-0.58822763 0.15507033 -0.090177298
-0.56028712 0.1550681 -0.09021759
-0.53235281 0.1550681 -0.09021759
-0.50634032 0.15585947 -0.075531721
-0.42087069 0.15519574 -0.087849259
-0.39354357 0.1555326 -0.081599236
-0.36599413 0.15579575 -0.076714277
-0.33805081 0.15585628 -0.075592995
-0.31000388 0.15585628 -0.075592995
-0.28195697 0.15585628 -0.075592995
-0.25391006 0.15585628 -0.075592995
-0.22586314 0.15585628 -0.075592995
-0.19781622 0.15585628 -0.075592995
-0.1697693 0.15585628 -0.075592995
-0.14172238 0.15585628 -0.075592995
-0.11367548 0.15585628 -0.075592995
-0.085628554 0.15585628 -0.075592995
-0.057581641 0.15585628 -0.075592995
-0.029534727 0.15585628 -0.075592995
-0.001487812 0.15585628 -0.075592995
0.026559103 0.15585628 -0.075592995
0.05460602 0.15585628 -0.075592995
0.082652934 0.15585628 -0.075592995
0.11069985 0.15585628 -0.075592995
0.13874677 0.15585628 -0.075592995
0.16679369 0.15585628 -0.075592995
0.1948406 0.15585628 -0.075592995
0.22288752 0.15585628 -0.075592995
0.25093442 0.15585628 -0.075592995
0.27886224 0.15578043 -0.076999545
0.30628765 0.15542409 -0.083610535
0.33364809 0.15508768 -0.089853525
0.41942707 0.15594855 -0.073879004
0.44535163 0.15506932 -0.090197682
0.47328612 0.15506932 -0.090197682
0.5012176 0.1550681 -0.09021759
0.55737424 0.15516412 -0.088436365
0.61322737 0.15515098 -0.088679314
0.6432184 0.15574747 -0.077610731
0.67163813 0.15585628 -0.075592995
0.6996851 0.15585628 -0.075592995
0.72763884 0.15583199 -0.07604146
0.75546694 0.15577817 -0.077040315
0.78328443 0.15572545 -0.078018188
0.81108701 0.15567279 -0.078995705
0.83934093 0.15572545 -0.078018188
-0.67511976 0.18407923 -0.072735548
-0.64676034 0.18397343 -0.074450374
-0.61788106 0.1836597 -0.07954514
-0.58948576 0.18350834 -0.082005739
-0.56133962 0.18344566 -0.083021402
-0.53365123 0.18357944 -0.080847025
-0.50638568 0.18392834 -0.075185061
0.39143294 0.18404385 -0.073307395
0.41892475 0.18375745 -0.077957153
0.44651407 0.18355066 -0.081314802
0.47424945 0.18343186 -0.083245039
0.50247824 0.18353325 -0.081599236
0.53106475 0.18376756 -0.077794194
0.95671153 -0.040472127 -0.058504462
-0.5922116 0.07206317 -0.064300537
-0.53594398 0.07206317 -0.064300537
0.50500834 0.07206317 -0.064300537
-0.62187541 0.10056122 -0.054836512
-0.5073567 0.1000636 -0.067765117
0.42097107 0.1003108 -0.061343193
0.53394902 0.10039885 -0.059060335
0.92527366 0.12802345 -0.070957541
0.53254259 0.15625489 -0.068195343
0.86911345 0.15610713 -0.070936918
0.90021861 0.15674812 -0.059039593
-0.90328324 0.18501136 -0.057598591
-0.87509787 0.18501136 -0.057598591
-0.8469125 0.18501136 -0.057598591
-0.81872702 0.18501136 -0.057598591
-0.79044306 0.18498215 -0.05807209
-0.76170123 0.18480965 -0.06087029
-0.7328335 0.1845834 -0.064546824
-0.70394802 0.18433231 -0.068625212
-0.47893187 0.18422627 -0.070343971
-0.45143107 0.18453911 -0.065264583
-0.42399552 0.1849339 -0.058854461
-0.39594543 0.18501136 -0.057598591
-0.3677581 0.18501002 -0.057618856
-0.33957279 0.18501002 -0.057618856
-0.31138751 0.18501002 -0.057618856
-0.28320223 0.18501002 -0.057618856
-0.25501698 0.18501002 -0.057618856
-0.22683169 0.18501002 -0.057618856
-0.19864641 0.18501002 -0.057618856
-0.17046112 0.18501002 -0.057618856
-0.14227584 0.18501002 -0.057618856
-0.11409057 0.18501002 -0.057618856
-0.085905284 0.18501002 -0.057618856
-0.057720006 0.18501002 -0.057618856
-0.029534727 0.18501002 -0.057618856
-0.0013494473 0.18501002 -0.057618856
0.026835833 0.18501002 -0.057618856
0.055021115 0.18501002 -0.057618856
0.083206393 0.18501002 -0.057618856
0.11139166 0.18501002 -0.057618856
0.13957696 0.18501002 -0.057618856
0.16776223 0.18501002 -0.057618856
0.19594751 0.18501002 -0.057618856
0.22413278 0.18501002 -0.057618856
0.25231805 0.18501002 -0.057618856
0.28050333 0.18501002 -0.057618856
0.30868864 0.18501002 -0.057618856
0.33638608 0.18470988 -0.062493682
0.36393923 0.18436995 -0.068010926
0.56008089 0.18414328 -0.071693301
0.58945167 0.18461367 -0.064054251
0.61872303 0.18500865 -0.057639599
0.64690816 0.18500865 -0.057639599
0.67509329 0.18500865 -0.057639599
0.70327842 0.18500865 -0.057639599
0.73146355 0.18500865 -0.057639599
0.75964868 0.18500865 -0.057639599
0.78774178 0.18498355 -0.058051467
0.81569564 0.18492243 -0.059039593
0.84409094 0.1849795 -0.058113217
-0.85026419 -0.068773173 -0.042584538
-0.82195425 -0.068773001 -0.042625904
-0.79502416 -0.068823695 -0.036031723
-0.73765612 -0.068797104 -0.0394876
-0.70875919 -0.068773173 -0.042584538
-0.42574894 -0.068773173 -0.042584538
-0.39744794 -0.068773173 -0.042584538
-0.36914694 -0.068773173 -0.042584538
-0.34151375 -0.068833932 -0.034697533
0.28231543 -0.06882225 -0.03621912
0.31007749 -0.068773173 -0.042584538
0.33837849 -0.068773173 -0.042584538
0.62138498 -0.068773001 -0.042605281
0.65013504 -0.068791784 -0.040174246
0.87790704 -0.068829708 -0.035239697
0.90440404 -0.068773404 -0.042563677
-0.93735158 -0.01210293 -0.033717036
-0.51113075 0.072844535 -0.038926125
0.53704882 0.072844535 -0.038926125
-0.59625292 0.10120743 -0.038052082
-0.53921497 0.1011058 -0.04069376
0.45214844 0.10119934 -0.038260102
0.50855231 0.10112973 -0.040070176
0.93152726 0.15739346 -0.047064424
0.87498915 0.18565875 -0.047084808
-0.87928998 0.21445432 -0.039445996
-0.85096478 0.21445432 -0.039445996
-0.82263517 0.21445295 -0.039467096
-0.79431009 0.21445295 -0.039467096
-0.76598513 0.21445295 -0.039467096
-0.73766005 0.21445295 -0.039467096
-0.70933509 0.21445295 -0.039467096
-0.68101013 0.21445295 -0.039467096
-0.65262163 0.21442711 -0.039841294
-0.62395346 0.21427864 -0.041982293
-0.59532821 0.21413487 -0.044058084
-0.56672001 0.21398398 -0.046235442
-0.53890705 0.21421385 -0.042916536
-0.51106542 0.2144559 -0.039425254
-0.48273754 0.21445432 -0.039445996
-0.45441234 0.21445432 -0.039445996
-0.42608717 0.21445432 -0.039445996
-0.397762 0.21445432 -0.039445996
-0.36943683 0.21445432 -0.039445996
-0.34111166 0.21445432 -0.039445996
-0.31278646 0.21445432 -0.039445996
-0.28446129 0.21445432 -0.039445996
-0.25613612 0.21445432 -0.039445996
-0.22781095 0.21445432 -0.039445996
-0.19948578 0.21445432 -0.039445996
-0.1711598 0.21445295 -0.039467096
-0.14283478 0.21445295 -0.039467096
-0.11451025 0.21445432 -0.039445996
-0.086185083 0.21445432 -0.039445996
-0.057859905 0.21445432 -0.039445996
-0.029534727 0.21445432 -0.039445996
-0.0012095515 0.21445432 -0.039445996
0.027115624 0.21445432 -0.039445996
0.055440798 0.21445432 -0.039445996
0.083765976 0.21445432 -0.039445996
0.11209035 0.21445295 -0.039467096
0.14041537 0.21445295 -0.039467096
0.16874038 0.21445295 -0.039467096
0.19706537 0.21445295 -0.039467096
0.22539183 0.21445432 -0.039445996
0.25371701 0.21445432 -0.039445996
0.28204221 0.21445432 -0.039445996
0.31036738 0.21445432 -0.039445996
0.33869255 0.21445432 -0.039445996
0.36701772 0.21445432 -0.039445996
0.39528048 0.21441692 -0.03998673
0.42317414 0.21417665 -0.043456435
0.45129466 0.21408445 -0.044784188
0.47960749 0.21409896 -0.044576764
0.50818455 0.21423686 -0.042584419
0.53697205 0.2144559 -0.039425254
0.56529391 0.21445432 -0.039445996
0.59361207 0.21445155 -0.03948772
0.62193692 0.21445155 -0.03948772
0.65026176 0.21445155 -0.03948772
0.6785866 0.21445155 -0.03948772
0.70691144 0.21445155 -0.03948772
0.735232 0.21445 -0.039508462
0.76355672 0.21445 -0.039508462
0.79188144 0.21445 -0.039508462
0.82020605 0.21445 -0.039508462
-0.88095045 -0.068852775 -0.032255888
-0.76754963 -0.068857342 -0.031650305
-0.31339142 -0.068857864 -0.031587481
-0.28500575 -0.068857864 -0.031587481
-0.25662011 -0.068857864 -0.031587481
-0.22823443 -0.068857864 -0.031587481
-0.19984876 -0.068857864 -0.031587481
-0.17146307 -0.068857864 -0.031587481
-0.1430774 -0.068857864 -0.031587481
-0.11469174 -0.068857864 -0.031587481
-0.086306065 -0.068857864 -0.031587481
-0.057920396 -0.068857864 -0.031587481
-0.029534727 -0.068857864 -0.031587481
-0.0011490565 -0.068857864 -0.031587481
0.027236614 -0.068857864 -0.031587481
0.055622287 -0.068857864 -0.031587481
0.084007956 -0.068857864 -0.031587481
0.11239362 -0.068857864 -0.031587481
0.1407793 -0.068857864 -0.031587481
0.16916497 -0.068857864 -0.031587481
0.19755064 -0.068857864 -0.031587481
0.22593629 -0.068857864 -0.031587481
0.25432196 -0.068857864 -0.031587481
0.67982972 -0.068846881 -0.033028364
0.70820427 -0.068846881 -0.033028364
0.73657894 -0.068846881 -0.033028364
0.76495349 -0.068846881 -0.033028364
0.79332805 -0.068846881 -0.033028364
0.82170272 -0.068846881 -0.033028364
0.85007727 -0.068846881 -0.033028364
0.93759978 -0.068917409 -0.023863077
-0.91025889 -0.040472127 -0.028367758
0.33959818 -0.040472127 -0.030396581
-0.76965857 0.24419087 -0.021113038
-0.74119234 0.24419087 -0.021113038
-0.712726 0.24419087 -0.021113038
-0.68425965 0.24419087 -0.021113038
-0.65579343 0.24419087 -0.021113038
-0.62733042 0.24419242 -0.021091938
-0.59886086 0.24419087 -0.021113038
-0.57039452 0.24419087 -0.021113038
-0.54192817 0.24419087 -0.021113038
-0.51346189 0.24419087 -0.021113038
-0.48499557 0.24419087 -0.021113038
-0.45652929 0.24419087 -0.021113038
-0.42806301 0.24419087 -0.021113038
-0.39959666 0.24419087 -0.021113038
-0.37113038 0.24419087 -0.021113038
-0.34266406 0.24419087 -0.021113038
-0.31419778 0.24419087 -0.021113038
-0.28573146 0.24419087 -0.021113038
-0.25726515 0.24419087 -0.021113038
-0.22879887 0.24419087 -0.021113038
-0.086467333 0.24419087 -0.021113038
-0.05800103 0.24419087 -0.021113038
-0.029534727 0.24419087 -0.021113038
-0.0010684244 0.24419087 -0.021113038
0.027397878 0.24419087 -0.021113038
0.055864185 0.24419087 -0.021113038
0.084330484 0.24419087 -0.021113038
0.1127968 0.24419087 -0.021113038
0.14126213 0.24418911 -0.021134019
0.16972825 0.24418911 -0.021134019
0.19819441 0.24418911 -0.021134019
0.22666201 0.24419087 -0.021113038
0.25512832 0.24419087 -0.021113038
0.28359461 0.24419087 -0.021113038
0.31206092 0.24419087 -0.021113038
0.34052721 0.24419087 -0.021113038
0.36899355 0.24419087 -0.021113038
0.39745983 0.24419087 -0.021113038
0.42592612 0.24419087 -0.021113038
0.45439243 0.24419087 -0.021113038
0.48285583 0.24418911 -0.021134019
0.5113219 0.24418911 -0.021134019
0.53978491 0.24418774 -0.021155
0.56825089 0.24418774 -0.021155
0.59672046 0.24418911 -0.021134019
-0.86080503 -0.097801238 0.004632473
0.830405 -0.097801462 0.0046536922
0.85905945 -0.097800888 0.0046111345
0.88771331 -0.097800195 0.004568696
0.97099233 -0.069058642 -0.0055011511
-0.8002969 0.24499524 -0.010663271
-0.20094703 0.24521497 -0.0078086853
-0.17237262 0.24520358 -0.0079569817
-0.14380047 0.24519214 -0.0081051588
-0.11523014 0.24517924 -0.0082743168
0.62697685 0.2449677 -0.011022329
-0.83434582 -0.097958766 0.014864087
-0.80578971 -0.097972646 0.015764117
-0.77704799 -0.09797328 0.015806913
-0.74830174 -0.097973511 0.015828252
-0.71955097 -0.097973511 0.015828252
-0.4607949 -0.097973511 0.015828252
-0.43204421 -0.097973511 0.015828252
-0.40329355 -0.097973511 0.015828252
-0.37454286 -0.097973511 0.015828252
-0.34579217 -0.097973511 0.015828252
-0.31704152 -0.097973511 0.015828252
-0.28829083 -0.097973511 0.015828252
-0.25954014 -0.097973511 0.015828252
-0.23078947 -0.097973511 0.015828252
-0.20203879 -0.097973511 0.015828252
-0.17328812 -0.097973511 0.015828252
-0.14453743 -0.097973511 0.015828252
-0.11578676 -0.097973511 0.015828252
-0.087036081 -0.097973511 0.015828252
-0.058285404 -0.097973511 0.015828252
-0.029534727 -0.097973511 0.015828252
-0.00078405067 -0.097973511 0.015828252
0.027966626 -0.097973511 0.015828252
0.056717306 -0.097973511 0.015828252
0.085467979 -0.097973511 0.015828252
0.11421867 -0.097973511 0.015828252
0.14296934 -0.097973511 0.015828252
0.17172001 -0.097973511 0.015828252
0.20047069 -0.097973511 0.015828252
0.22922137 -0.097973511 0.015828252
0.25797206 -0.097973511 0.015828252
0.28672272 -0.097973511 0.015828252
0.31547341 -0.097973511 0.015828252
0.3442241 -0.097973511 0.015828252
0.37297475 -0.097973511 0.015828252
0.63173079 -0.097973511 0.015828252
0.66048157 -0.097973511 0.015828252
0.68923223 -0.097973511 0.015828252
0.71798289 -0.097973511 0.015828252
0.74673355 -0.097973511 0.015828252
0.7754842 -0.097973511 0.015828252
0.80360389 -0.097930089 0.013001561
0.9184761 -0.097927377 0.012830377
-0.66233647 0.27592856 0.017522097
-0.63195431 0.27508092 0.0075103045
-0.60337281 0.27513856 0.0081933737
-0.57478082 0.27519655 0.0088764429
-0.54617536 0.27525258 0.0095382929
-0.51756257 0.2753104 0.010222077
-0.48893929 0.27536836 0.010905862
-0.46030548 0.27542648 0.011589885
-0.43166119 0.27548438 0.012274384
-0.40300637 0.2755422 0.012958765
-0.37434104 0.2756004 0.013643742
-0.34566519 0.27565834 0.014328957
-0.31697881 0.27571627 0.015014172
-0.28828192 0.27577442 0.015699863
-0.25957447 0.27583247 0.016385555
-0.23085648 0.2758905 0.017071724
-0.20212892 0.27595052 0.017779469
-0.17338964 0.27600861 0.018466115
-0.14463982 0.27606678 0.01915288
-0.11587941 0.27612498 0.01984024
-0.087108433 0.27618316 0.020527601
-0.058327042 0.27624309 0.021236539
-0.029534727 0.27630153 0.021924496
-0.00073182583 0.27635977 0.022612691
0.028081678 0.27641797 0.023301125
0.056905784 0.27647629 0.023989558
0.085740499 0.27653465 0.024678588
0.95199835 -0.098209433 0.031149387
-0.86848414 0.24882066 0.039030552
-0.83828938 0.24836874 0.033159852
0.11458665 0.27659482 0.025389314
0.14344278 0.27665314 0.026078582
0.17230953 0.27671164 0.026768327
0.20118693 0.2767702 0.02745831
0.23008838 0.27684507 0.028342605
0.25898689 0.27690172 0.029011488
0.28789571 0.27695832 0.029680729
0.31680688 0.27700776 0.030263543
0.34570977 0.27704227 0.030673981
0.37461898 0.27707723 0.031084657
0.40353447 0.27711192 0.031495094
0.43245634 0.27714655 0.031905651
-0.87162983 -0.12758552 0.053121567
-0.84380949 -0.12771599 0.058770061
-0.78411424 -0.12753904 0.051111579
-0.75509191 -0.12753904 0.051111579
-0.72606969 -0.12753904 0.051111579
-0.69704735 -0.12753904 0.051111579
-0.66802502 -0.12753904 0.051111579
0.84278619 -0.12770438 0.058265924
0.87063587 -0.12758552 0.053121567
0.89966822 -0.12758493 0.053099751
-0.92993498 -0.069517419 0.054083705
-0.81590128 -0.1278463 0.064413428
-0.52465439 -0.1278463 0.064413428
-0.49552971 -0.1278463 0.064413428
-0.46640503 -0.1278463 0.064413428
-0.43728036 -0.1278463 0.064413428
-0.40815565 -0.1278463 0.064413428
-0.37903097 -0.1278463 0.064413428
-0.34990627 -0.1278463 0.064413428
-0.32078162 -0.1278463 0.064413428
-0.29165691 -0.1278463 0.064413428
-0.26253355 -0.1278467 0.064435482
-0.23340872 -0.1278467 0.064435482
-0.20428386 -0.1278467 0.064435482
-0.17515901 -0.1278467 0.064435482
-0.14603482 -0.12784728 0.064457417
-0.11690981 -0.12784728 0.064457417
-0.088014908 -0.12819245 0.079404831
-0.058774818 -0.12819245 0.079404831
-0.029534727 -0.12819245 0.079404831
-0.00029463693 -0.12819245 0.079404831
0.028945453 -0.12819245 0.079404831
0.058185548 -0.12819245 0.079404831
0.087425634 -0.12819245 0.079404831
0.11666574 -0.12819245 0.079404831
0.14590582 -0.12819245 0.079404831
0.17514591 -0.12819245 0.079404831
0.204386 -0.12819245 0.079404831
0.23362607 -0.12819245 0.079404831
0.26171553 -0.12784728 0.064457417
0.29084054 -0.12784728 0.064457417
0.3199656 -0.12784728 0.064457417
0.34909061 -0.12784728 0.064457417
0.37821564 -0.12784728 0.064457417
0.40734065 -0.12784728 0.064457417
0.43646297 -0.1278467 0.064435482
0.58208728 -0.1278467 0.064435482
0.61121213 -0.1278467 0.064435482
0.64033699 -0.1278467 0.064435482
0.66946185 -0.1278467 0.064435482
0.6985867 -0.1278467 0.064435482
0.72771156 -0.1278467 0.064435482
0.75683641 -0.1278467 0.064435482
0.7859565 -0.1278463 0.064413428
0.81508124 -0.1278463 0.064413428
0.93262017 -0.12794088 0.068508387
-0.55573964 0.31033108 0.078562617
-0.52656698 0.31037408 0.079027891
-0.49738985 0.31041917 0.079515815
-0.46820265 0.310462 0.079981327
-0.43901071 0.31050709 0.080469251
-0.40980902 0.31055021 0.080935121
-0.38060224 0.31059521 0.081423283
-0.3513861 0.3106384 0.081889033
-0.32216445 0.31068349 0.082377434
-0.29293379 0.31072649 0.082844019
-0.79372823 -0.15804046 0.099146247
-0.76433623 -0.15804046 0.099146247
-0.73494411 -0.15804046 0.099146247
-0.7055521 -0.15804046 0.099146247
-0.67615998 -0.15804046 0.099146247
-0.64676797 -0.15804046 0.099146247
-0.61784184 -0.15813364 0.10217226
0.96604013 -0.12831706 0.084799051
-0.88031244 0.2822367 0.092014909
-0.85031211 0.28197601 0.088938117
-0.82036018 0.28171593 0.085866213
-0.26368091 0.31074694 0.083065867
-0.23442221 0.31076354 0.083243728
-0.20515975 0.31077787 0.083399057
-0.17588635 0.31077176 0.083332419
-0.14661466 0.31076771 0.083288074
-0.11734314 0.31076157 0.083221436
-0.088076405 0.31077787 0.083399057
-0.058808986 0.31081882 0.08384347
-0.029534727 0.31086004 0.084287882
-0.00025345571 0.31090298 0.084754467
0.029034663 0.31094414 0.085198998
0.058329627 0.31098536 0.085644007
0.087632127 0.3110283 0.08611095
0.11694096 0.31106955 0.086555839
0.14625667 0.31111053 0.087000966
0.17558041 0.31115377 0.087468266
0.20488806 0.31116197 0.087557316
0.23422024 0.31120121 0.08798039
0.26355889 0.31124014 0.088403344
0.29290408 0.31127915 0.088826776
0.32225376 0.31131616 0.089227676
-0.85349846 -0.1581814 0.10372078
-0.82627511 -0.15850779 0.11432445
-0.59020388 -0.15850779 0.11432445
-0.56069493 -0.15850779 0.11432445
-0.5311861 -0.15850779 0.11432445
-0.50167441 -0.15850711 0.11430192
-0.47216564 -0.15850711 0.11430192
-0.4426569 -0.15850711 0.11430192
-0.41314819 -0.15850711 0.11430192
-0.38363737 -0.15850645 0.11427951
-0.35412884 -0.15850645 0.11427951
-0.32462028 -0.15850645 0.11427951
-0.29511172 -0.15850645 0.11427951
-0.26560315 -0.15850645 0.11427951
-0.23609461 -0.15850645 0.11427951
-0.20658605 -0.15850645 0.11427951
-0.1770775 -0.15850645 0.11427951
-0.14756894 -0.15850645 0.11427951
-0.11806039 -0.15850645 0.11427951
0.26555255 -0.15850711 0.11430192
0.2950632 -0.15850779 0.11432445
0.32457417 -0.1585086 0.1143471
0.35408553 -0.15850912 0.11436963
0.38359478 -0.15850912 0.11436963
0.41310403 -0.15850912 0.11436963
0.44261327 -0.15850912 0.11436963
0.47062024 -0.15815572 0.10289025
0.50163174 -0.15850912 0.11436963
0.53114104 -0.15850912 0.11436963
0.56065035 -0.15850912 0.11436963
0.59015954 -0.15850912 0.11436963
0.61966884 -0.15850912 0.11436963
0.64917803 -0.15850912 0.11436963
0.67868304 -0.1585086 0.1143471
0.70819211 -0.1585086 0.1143471
0.7377013 -0.1585086 0.1143471
0.76721036 -0.1585086 0.1143471
0.79671943 -0.1585086 0.1143471
0.8262285 -0.1585086 0.1143471
0.85378158 -0.15824765 0.10587728
0.88251257 -0.15815572 0.10289025
0.91331196 -0.15832806 0.10848629
-0.91254485 -0.099339567 0.10455167
-0.088786677 -0.15897623 0.12953281
-0.059160702 -0.15897623 0.12953281
-0.029534727 -0.15897623 0.12953281
9.1249123e-05 -0.15897623 0.12953281
0.029717226 -0.15897623 0.12953281
0.059343204 -0.15897623 0.12953281
0.088969178 -0.15897623 0.12953281
0.11859515 -0.15897623 0.12953281
0.14822114 -0.15897623 0.12953281
0.1778471 -0.15897623 0.12953281
0.20747308 -0.15897623 0.12953281
0.23709905 -0.15897623 0.12953281
0.94740629 -0.15888934 0.12671328
-0.86433363 -0.18954343 0.15398991
0.8350836 -0.18954435 0.15401292
0.86489797 -0.18954435 0.15401292
0.89471233 -0.18954435 0.15401292
-0.92377055 -0.12989579 0.15316045
-0.4162685 0.34626162 0.14548182
-0.38656425 0.3463099 0.14596367
-0.35685456 0.34636042 0.14646876
-0.32711941 0.34638783 0.14674413
-0.29737365 0.34640637 0.14692771
-0.26762652 0.34642678 0.14713442
-0.23787618 0.34644747 0.14734125
-0.2081216 0.34646603 0.14752507
-0.17836154 0.34647754 0.14763963
-0.14859405 0.34647065 0.14757061
-0.11882763 0.34646362 0.14750195
-0.089062274 0.34645686 0.14743304
-0.059297971 0.34644991 0.14736414
-0.029534727 0.34644303 0.14729512
0.00022745319 0.34643608 0.14722645
0.029988926 0.34643158 0.14718044
0.059749164 0.3464247 0.14711142
0.089518242 0.34644991 0.14736414
0.11929916 0.34649587 0.14782369
0.14908716 0.34654182 0.14828277
0.17885378 0.346535 0.14821386
0.20863204 0.34654883 0.14835191
-0.83656025 -0.18992147 0.16380882
-0.80702281 -0.18998915 0.16557014
-0.77713287 -0.18999186 0.16563976
-0.74689925 -0.18992314 0.16385508
-0.71700907 -0.18992314 0.16385508
-0.68711889 -0.18992314 0.16385508
-0.65722871 -0.18992314 0.16385508
-0.62733853 -0.18992314 0.16385508
-0.59744835 -0.18992314 0.16385508
-0.56755817 -0.18992314 0.16385508
-0.53766799 -0.18992314 0.16385508
-0.50777775 -0.18992314 0.16385508
-0.47788757 -0.18992314 0.16385508
-0.44799736 -0.18992314 0.16385508
-0.41810718 -0.18992314 0.16385508
-0.38838398 -0.18999273 0.16566288
-0.35847986 -0.18999273 0.16566288
-0.32857576 -0.18999273 0.16566288
-0.29867166 -0.18999273 0.16566288
-0.26876754 -0.18999273 0.16566288
-0.23886347 -0.18999273 0.16566288
-0.20895936 -0.18999273 0.16566288
-0.17905524 -0.18999273 0.16566288
-0.14915115 -0.18999273 0.16566288
-0.11924704 -0.18999273 0.16566288
-0.089342937 -0.18999273 0.16566288
-0.059438832 -0.18999273 0.16566288
-0.029534727 -0.18999273 0.16566288
0.00036937557 -0.18999273 0.16566288
0.030273478 -0.18999273 0.16566288
0.060177587 -0.18999273 0.16566288
0.090081684 -0.18999273 0.16566288
0.11998579 -0.18999273 0.16566288
0.1498899 -0.18999273 0.16566288
0.17979401 -0.18999273 0.16566288
0.2096981 -0.18999273 0.16566288
0.23960221 -0.18999273 0.16566288
0.26950631 -0.18999273 0.16566288
0.29925737 -0.18992314 0.16385508
0.32914755 -0.18992314 0.16385508
0.35903773 -0.18992314 0.16385508
0.38892791 -0.18992314 0.16385508
0.41881812 -0.18992314 0.16385508
0.4487083 -0.18992314 0.16385508
0.47859851 -0.18992314 0.16385508
0.50848866 -0.18992314 0.16385508
0.53837883 -0.18992314 0.16385508
0.56826901 -0.18992314 0.16385508
0.59815919 -0.18992314 0.16385508
0.62804949 -0.18992314 0.16385508
0.65793967 -0.18992314 0.16385508
0.68782985 -0.18992314 0.16385508
0.71772003 -0.18992314 0.16385508
0.74761021 -0.18992314 0.16385508
0.77750039 -0.18992314 0.16385508
0.80682683 -0.18982255 0.16123974
0.92809963 -0.19010258 0.16851664
-0.63245296 -0.31178543 0.19707453
-0.60084629 -0.31109345 0.1870867
-0.57077718 -0.31109345 0.1870867
-0.54071128 -0.31109506 0.18711007
-0.51173592 -0.31171039 0.19599116
0.42243639 -0.3116549 0.19519055
0.45156968 -0.31109345 0.1870867
0.48163876 -0.31109345 0.1870867
0.51178575 -0.31113246 0.18764937
0.54343057 -0.31187683 0.19839442
0.96323764 -0.19089228 0.18903303
-0.57505596 -0.3435396 0.2179662
0.48543683 -0.34339663 0.21610963
-0.66420269 -0.28225049 0.20699525
-0.63366699 -0.28212503 0.20495963
-0.60346031 -0.28212503 0.20495963
-0.57325375 -0.28212503 0.20495963
-0.54304719 -0.28212503 0.20495963
-0.51284051 -0.28212503 0.20495963
-0.48263118 -0.28212371 0.20493603
0.39335531 -0.28212371 0.20493603
0.42356721 -0.28212655 0.20498347
0.45377105 -0.28212503 0.20495963
0.48397771 -0.28212503 0.20495963
0.51418424 -0.28212503 0.20495963
0.54439092 -0.28212503 0.20495963
0.57498753 -0.28228107 0.20749235
-0.87739503 -0.22215661 0.21458757
-0.84543788 -0.22178409 0.20652163
-0.81562698 -0.22187814 0.20855868
-0.78649342 -0.22214234 0.21427858
-0.75695801 -0.22232807 0.21829939
-0.7245549 -0.22178176 0.20647418
-0.69433665 -0.22178176 0.20647418
-0.66411841 -0.22178176 0.20647418
-0.63390017 -0.22178176 0.20647418
-0.60368192 -0.22178176 0.20647418
-0.57346368 -0.22178176 0.20647418
-0.54324532 -0.22178176 0.20647418
-0.51302707 -0.22178176 0.20647418
-0.4828088 -0.22178176 0.20647418
-0.45259053 -0.22178176 0.20647418
-0.42237225 -0.22178176 0.20647418
-0.39215401 -0.22178176 0.20647418
-0.36206204 -0.22185078 0.20796645
-0.33244267 -0.22221702 0.21589541
-0.30231678 -0.22232696 0.21827567
-0.27200618 -0.22232586 0.21825206
-0.24169983 -0.22232807 0.21829939
-0.21139054 -0.22232807 0.21829939
-0.18108124 -0.22232807 0.21829939
-0.15077195 -0.22232807 0.21829939
-0.12046263 -0.22232807 0.21829939
-0.090153337 -0.22232807 0.21829939
-0.059844032 -0.22232807 0.21829939
-0.029534727 -0.22232807 0.21829939
0.0007745754 -0.22232807 0.21829939
0.031083878 -0.22232807 0.21829939
0.061393179 -0.22232807 0.21829939
0.091702484 -0.22232807 0.21829939
0.12201178 -0.22232807 0.21829939
0.15231998 -0.22232696 0.21827567
0.18262784 -0.22232586 0.21825206
0.2129382 -0.22232696 0.21827567
0.24324897 -0.22232807 0.21829939
0.27349779 -0.22229177 0.21751392
0.30286828 -0.22178298 0.20649779
0.33308455 -0.22178176 0.20647418
0.3633028 -0.22178176 0.20647418
0.39352107 -0.22178176 0.20647418
0.42373934 -0.22178176 0.20647418
0.45395762 -0.22178176 0.20647418
0.48417589 -0.22178176 0.20647418
0.51439416 -0.22178176 0.20647418
0.54461241 -0.22178176 0.20647418
0.57483065 -0.22178176 0.20647418
0.60504901 -0.22178176 0.20647418
0.63526726 -0.22178176 0.20647418
0.667575 -0.22232696 0.21827567
0.69788408 -0.22232696 0.21827567
0.72819316 -0.22232696 0.21827567
0.75850236 -0.22232696 0.21827567
0.78881145 -0.22232696 0.21827567
0.81912053 -0.22232696 0.21827567
0.84942973 -0.22232696 0.21827567
0.8785907 -0.22209734 0.2133044
0.90789878 -0.22191101 0.20926988
-0.90846729 -0.19201234 0.21813273
-0.905743 -0.16132852 0.20592988
-0.60684323 -0.34431887 0.22808886
-0.54540133 -0.34392306 0.22294927
0.45583099 -0.34382582 0.22168446
0.51739907 -0.34432444 0.22816038
-0.48494008 -0.31371537 0.22493172
0.39534292 -0.31360784 0.22337914
-0.45575479 -0.28402653 0.23583484
0.36586866 -0.28379738 0.23211408
-0.6667856 -0.25288922 0.22297335
-0.63643658 -0.25288793 0.22294927
-0.60609853 -0.25289041 0.22299695
-0.57574975 -0.25288922 0.22297335
-0.54540443 -0.25288922 0.22297335
-0.51506215 -0.25289041 0.22299695
-0.48471668 -0.25289041 0.22299695
-0.45436609 -0.25288793 0.22294927
0.36495391 -0.25288922 0.22297335
0.3952992 -0.25288922 0.22297335
0.42564446 -0.25288922 0.22297335
0.4559927 -0.25289041 0.22299695
0.48633501 -0.25288922 0.22297335
0.51668358 -0.25289041 0.22299695
0.54702556 -0.25288922 0.22297335
0.57737088 -0.25288922 0.22297335
0.94335842 -0.22288969 0.23045969
-0.51723897 -0.34528738 0.24067092
0.4275935 -0.34522447 0.23985195
-0.70286429 -0.25471342 0.25682759
-0.58321059 -0.37882966 0.27681732
0.49333003 -0.37879649 0.27642465
-0.64250624 -0.34695804 0.26237249
-0.49035984 -0.34768894 0.27186823
0.40053707 -0.34766644 0.27157497
0.55270267 -0.34691301 0.26178813
-0.67295015 -0.31622162 0.26110625
0.37026131 -0.3172541 0.27600813
0.58336174 -0.31627566 0.2618854
-0.85844564 -0.255375 0.2691052
-0.82602251 -0.25491118 0.26049805
-0.79538846 -0.25491118 0.26049805
-0.76474524 -0.25490865 0.26044941
-0.73410285 -0.25490597 0.26040053
-0.39713773 -0.25490737 0.26042509
-0.36650211 -0.25490597 0.26040053
-0.33586872 -0.25490597 0.26040053
-0.305237 -0.25490737 0.26042509
-0.27499056 -0.25524601 0.26671195
-0.24461548 -0.25555298 0.27240658
-0.21388851 -0.25555161 0.2723825
-0.18316288 -0.25555161 0.2723825
-0.15243725 -0.25555161 0.2723825
-0.12171162 -0.25555161 0.2723825
-0.090985991 -0.25555161 0.2723825
-0.060260359 -0.25555161 0.2723825
-0.029534727 -0.25555161 0.2723825
0.0011909045 -0.25555161 0.2723825
0.031916536 -0.25555161 0.2723825
0.062642165 -0.25555161 0.2723825
0.0933678 -0.25555161 0.2723825
0.12409343 -0.25555161 0.2723825
0.15481906 -0.25555161 0.2723825
0.18554468 -0.25555161 0.2723825
0.21627033 -0.25555161 0.2723825
0.24699765 -0.25555298 0.27240658
0.27748623 -0.25538683 0.26932526
0.30743471 -0.25490737 0.26042509
0.6444 -0.25490597 0.26040053
0.67713749 -0.25554645 0.27228427
0.70786238 -0.25554645 0.27228427
0.73858726 -0.25554645 0.27228427
0.76931202 -0.25554645 0.27228427
0.80003703 -0.25554645 0.27228427
0.83076179 -0.25554645 0.27228427
0.86148679 -0.25554645 0.27228427
0.88946712 -0.25490597 0.26040053
0.92298901 -0.25555819 0.27250481
-0.55255353 -0.37889627 0.27760243
0.46270019 -0.37888372 0.27745509
-0.46033022 -0.31741217 0.27828956
-0.43257636 -0.25749466 0.30843949
0.34189695 -0.25714082 0.30187178
-0.83928049 -0.28962478 0.32673907
-0.80605137 -0.2889576 0.31590462
-0.77499068 -0.2889576 0.31590462
-0.7439301 -0.2889576 0.31590462
-0.43489894 -0.28992724 0.33164859
-0.40226272 -0.2889576 0.31590462
-0.37119994 -0.2889559 0.31587958
-0.34013945 -0.2889559 0.31587958
-0.30907899 -0.2889559 0.31587958
-0.2780185 -0.2889559 0.31587958
-0.24695805 -0.2889559 0.31587958
-0.21589756 -0.2889559 0.31587958
-0.18483709 -0.2889559 0.31587958
-0.15377662 -0.2889559 0.31587958
-0.12271614 -0.2889559 0.31587958
-0.091655672 -0.2889559 0.31587958
-0.060595199 -0.2889559 0.31587958
-0.029534727 -0.2889559 0.31587958
0.0015257448 -0.2889559 0.31587958
0.032586217 -0.2889559 0.31587958
0.063646689 -0.2889559 0.31587958
0.094707161 -0.2889559 0.31587958
0.12576763 -0.2889559 0.31587958
0.15682811 -0.2889559 0.31587958
0.18788859 -0.2889559 0.31587958
0.21894905 -0.2889559 0.31587958
0.25000954 -0.2889559 0.31587958
0.28106999 -0.2889559 0.31587958
0.31213048 -0.2889559 0.31587958
0.3442522 -0.28966355 0.32736778
0.62556577 -0.29003423 0.33338881
0.65378726 -0.28895286 0.31582928
0.68484735 -0.28895286 0.31582928
0.71590745 -0.28895286 0.31582928
0.74696743 -0.28895286 0.31582928
0.77802753 -0.28895286 0.31582928
0.80908763 -0.28895286 0.31582928
0.84014773 -0.28895286 0.31582928
0.87120783 -0.28895286 0.31582928
0.90227377 -0.28895453 0.31585455
0.62558603 -0.25884581 0.33351493
-0.7178961 -0.29078555 0.34558606
0 0 0 1 0 0 0 1 0 0 0 1 0 0 0 0 0 1341 1 0 0
