ply
format ascii 1.0
comment PCL generated
element vertex 1345
property float x
property float y
property float z
element camera 0
property float view_px
property float view_py
property float view_pz
property float x_axisx
property float x_axisy
property float x_axisz
property float y_axisx
property float y_axisy
property float y_axisz
property float z_axisx
property float z_axisy
property float z_axisz
property float focal
property float scalex
property float scaley
property float centerx
property float centery
property int viewportx
property int viewporty
property float k1
property float k2
end_header
0.41941872 -0.18135285 -0.29603457
0.43862939 -0.18138355 -0.29546344
0.4185586 -0.1620371 -0.30069017
0.40054142 -0.14319989 -0.2947728
0.41770175 -0.14279364 -0.30532825
0.39980033 -0.12396067 -0.29895812
0.41691542 -0.12363344 -0.30958402
0.39908272 -0.10478887 -0.3030113
0.43783119 -0.10486729 -0.29961097
0.38115481 -0.085843474 -0.29640341
0.39836538 -0.085679412 -0.30706304
0.43602967 -0.085649997 -0.30897194
0.38081059 -0.066730008 -0.29843569
0.39801487 -0.066648304 -0.30904263
0.39801282 -0.047647707 -0.30905437
0.38080862 -0.047647618 -0.29844773
0.38080862 -0.028565636 -0.29844767
0.39801282 -0.028647253 -0.30905432
0.43711528 -0.028603181 -0.30333072
0.38080862 -0.0094834231 -0.29844767
0.39801282 -0.0096467547 -0.3090542
0.38080862 0.0095987394 -0.29844767
0.39801282 0.0093537942 -0.30905437
0.38117898 0.028748281 -0.2962606
0.39838624 0.028419279 -0.30694503
0.41732672 0.028406501 -0.30735767
0.39918333 0.047609255 -0.30244327
0.41836596 0.047636598 -0.30173278
0.39998329 0.066869318 -0.29792506
0.41941214 0.066955075 -0.2960704
0.40221372 -0.18192977 -0.28532755
0.38403088 -0.16301942 -0.27942097
0.4013696 -0.16252641 -0.29009497
0.4393751 -0.16245757 -0.29158849
0.38323593 -0.14361021 -0.28411484
0.44012314 -0.14347211 -0.28770167
0.38253927 -0.12429099 -0.28822851
0.43964183 -0.12423018 -0.29020262
0.36445948 -0.10528465 -0.28154129
0.38184488 -0.10503545 -0.29232866
0.3637931 -0.086008921 -0.28566349
0.3634578 -0.066812277 -0.28773761
0.36345586 -0.047647707 -0.28774953
0.36345586 -0.028483236 -0.28774947
0.36345586 -0.0093186684 -0.28774953
0.36345586 0.0098458044 -0.28774953
0.36382219 0.029080085 -0.28548354
0.36456263 0.048438311 -0.28090316
0.38194799 0.048022084 -0.29171991
0.38271978 0.067366429 -0.28716242
0.38349247 0.086781271 -0.28260022
0.40078408 0.086199306 -0.29340231
0.42046309 0.086361967 -0.29038185
0.40158775 0.10559977 -0.28886282
0.38570389 -0.20208505 -0.26954228
0.38485757 -0.18251106 -0.27453965
0.36654466 -0.16351733 -0.26864254
0.36579695 -0.14402765 -0.27326804
0.34756294 -0.12496002 -0.26650012
0.3651281 -0.12462431 -0.27740538
0.34692249 -0.10553594 -0.27065992
0.32861835 -0.086344257 -0.26387805
0.34628227 -0.086175874 -0.27481812
0.3283008 -0.066979326 -0.26604921
0.34595647 -0.066895545 -0.27693433
0.3282972 -0.047647707 -0.26607358
0.34595275 -0.047647707 -0.27695864
0.32829902 -0.028316183 -0.26606154
0.3459546 -0.028400054 -0.27694649
0.3282972 -0.0089850277 -0.26607358
0.34595275 -0.0091525391 -0.27695864
0.44285426 -0.0090995505 -0.2735104
0.3282972 0.010346454 -0.26607358
0.34595275 0.010095071 -0.27695864
0.44396901 0.0103084 -0.2677179
0.34631395 0.029414877 -0.27461243
0.34702533 0.048858352 -0.26999199
0.34773934 0.068373702 -0.26535428
0.36530581 0.067867905 -0.27630597
0.36604783 0.087367855 -0.271716
0.38426793 0.10626744 -0.27802122
0.36679649 0.10694098 -0.26708478
0.42457834 0.10687802 -0.26810741
0.38504624 0.12582529 -0.27342558
0.40405732 0.12572211 -0.27491492
0.38582742 0.14545515 -0.26881284
0.36816734 -0.20275864 -0.25860488
0.34969234 -0.18368968 -0.25266916
0.36735243 -0.1830982 -0.26364589
0.46686244 -0.18384111 -0.24985754
0.34891254 -0.16402122 -0.25773406
0.33046326 -0.14487463 -0.25126421
0.34820738 -0.14444934 -0.26231414
0.32984567 -0.12529925 -0.25548685
0.31138396 -0.10604486 -0.24862236
0.3292301 -0.10578915 -0.25969547
0.46624792 -0.10594545 -0.25292784
0.31079763 -0.086513981 -0.25285399
0.46431059 -0.086363792 -0.26260751
0.3104907 -0.067063794 -0.25506896
0.3104873 -0.047647662 -0.25509357
0.310489 -0.028231716 -0.25508136
0.3104873 -0.0088158622 -0.25509357
0.3104873 0.010599993 -0.25509357
0.31083518 0.030093148 -0.25258303
0.32865229 0.029752515 -0.26364589
0.44509131 0.029806606 -0.26188618
0.32933223 0.049281567 -0.2589972
0.44621646 0.049395353 -0.25603998
0.33001649 0.068883449 -0.25431871
0.44734925 0.069075823 -0.25015378
0.3307015 0.088557668 -0.24963534
0.34845221 0.087960146 -0.26072413
0.34917152 0.10762049 -0.25605214
0.34989348 0.12735376 -0.25136274
0.36754596 0.12658584 -0.26244879
0.3682982 0.14630321 -0.25779533
0.36905521 0.16609493 -0.25311267
0.33262765 -0.20412204 -0.23646611
0.35047525 -0.20343733 -0.24758399
0.33187732 -0.1842863 -0.24159616
0.31340063 -0.16511416 -0.23406851
0.33113003 -0.16453058 -0.24670547
0.4676643 -0.16457 -0.24585128
0.31256256 -0.14530362 -0.24011666
0.46847117 -0.14523816 -0.24181986
0.29394069 -0.12598641 -0.23316813
0.31197226 -0.12564132 -0.2443766
0.46820027 -0.12567842 -0.24317336
0.29338014 -0.10630281 -0.23745143
0.2928215 -0.086685441 -0.24172032
0.29252419 -0.067149088 -0.24399221
0.29252094 -0.047647756 -0.24401695
0.29252258 -0.028146466 -0.24400455
0.29252094 -0.0086454079 -0.24401706
0.29252094 0.010855742 -0.24401706
0.29286051 0.030436762 -0.24142218
0.29347971 0.05014012 -0.23669076
0.31148502 0.049708866 -0.24789304
0.312139 0.069398254 -0.2431733
0.31279373 0.08916048 -0.23844832
0.44848493 0.088847749 -0.24425262
0.3134526 0.10899738 -0.23369336
0.33139089 0.10830588 -0.2449221
0.33208284 0.12812784 -0.24019128
0.33277556 0.14802304 -0.23545516
0.35061619 0.14715984 -0.2466684
0.35134166 0.16703963 -0.24195653
0.39119568 0.1674495 -0.23711479
0.3520698 0.18699348 -0.2372269
0.37053561 0.18637189 -0.2439549
0.3153443 -0.22481921 -0.22004128
0.33537787 -0.22498408 -0.21766293
0.31462425 -0.20481348 -0.22523773
0.31400269 -0.18492612 -0.22972333
0.29544368 -0.16568628 -0.22168303
0.25639367 -0.14611195 -0.21911812
0.27628136 -0.14617282 -0.21753633
0.29450148 -0.1457361 -0.22888267
0.27574727 -0.12633422 -0.22187245
0.27521655 -0.10656316 -0.22618127
0.25638929 -0.08703278 -0.21915615
0.27468607 -0.086858332 -0.23048818
0.25611353 -0.067321837 -0.22154427
0.27439916 -0.067235075 -0.23281777
0.47119868 -0.067270689 -0.22819221
0.25611064 -0.047647707 -0.22156954
0.47120124 -0.047647756 -0.22817957
0.27439609 -0.047647662 -0.2328428
0.2561121 -0.027973717 -0.2215569
0.27439764 -0.028060436 -0.23283017
0.47120374 -0.02802459 -0.22816706
0.25611064 -0.0082998164 -0.22156954
0.27439609 -0.0084733926 -0.2328428
0.47147787 -0.0083802417 -0.22679758
0.25611064 0.011374176 -0.22156954
0.27439609 0.011113785 -0.23284268
0.47268343 0.01139256 -0.22077394
0.25643018 0.031133324 -0.21880186
0.27472624 0.030783594 -0.23016226
0.27531418 0.0505751 -0.22538865
0.27590591 0.070441462 -0.22058439
0.29410285 0.06991747 -0.23192894
0.29472667 0.089768626 -0.227162
0.29535452 0.10969504 -0.22236454
0.29598472 0.12969649 -0.21754897
0.31411394 0.12890869 -0.22892022
0.43286866 0.12930259 -0.22323465
0.31477603 0.14889386 -0.22414207
0.41196987 0.14842567 -0.23022497
0.33347085 0.16799256 -0.23070133
0.31544065 0.16895416 -0.21934581
0.33416873 0.18803707 -0.22592974
0.33486927 0.20815676 -0.22114027
0.3528007 0.20702201 -0.23247981
0.29721218 -0.22564182 -0.20816922
0.23766518 -0.20574138 -0.21017051
0.29664722 -0.20559883 -0.21248627
0.25783628 -0.18617082 -0.20662475
0.2777811 -0.18623891 -0.20535994
0.29606926 -0.185617 -0.21690297
0.25658804 -0.16588247 -0.217435
0.27719331 -0.16621974 -0.21013224
0.25712571 -0.12661418 -0.21277881
0.23766243 -0.10693228 -0.2101959
0.49575603 -0.10706495 -0.2044518
0.23834354 -0.087268025 -0.20387602
0.49366367 -0.087104104 -0.2145189
0.23766518 -0.067409433 -0.21017027
0.23766243 -0.047647662 -0.21019602
0.23766518 -0.027885986 -0.21017039
0.23766243 -0.0081246756 -0.2101959
0.23766243 0.011636864 -0.2101959
0.23797023 0.031486228 -0.20733988
0.47389227 0.031258605 -0.21473455
0.23849395 0.051456869 -0.2024802
0.25698635 0.051013984 -0.21398556
0.47510928 0.05121927 -0.20865393
0.25754604 0.070970282 -0.20913839
0.47632957 0.071274146 -0.20255709
0.25810641 0.091001354 -0.2042855
0.27649829 0.090382285 -0.21577477
0.27709293 0.11039814 -0.21094704
0.45390204 0.11008059 -0.21610463
0.27769136 0.13049045 -0.2060883
0.29661563 0.1497725 -0.2127279
0.2972489 0.16992432 -0.20788848
0.29788461 0.19015244 -0.20303094
0.31610772 0.18909001 -0.21453142
0.31677735 0.20930186 -0.20969915
0.31744948 0.22958976 -0.20484841
0.33557242 0.22835228 -0.21633267
0.35701156 0.2295596 -0.20512962
0.33639365 0.24871475 -0.21071792
0.21905056 -0.22629729 -0.19870782
0.2788507 -0.22643808 -0.19667578
0.27831578 -0.20630509 -0.20101869
0.41854656 -0.20679387 -0.19307995
0.23928329 -0.16691148 -0.19515622
0.49701667 -0.16676223 -0.19838655
0.23949176 -0.14710867 -0.19322193
0.49788368 -0.14707035 -0.19421518
0.49786222 -0.12718266 -0.19431841
0.25908768 -0.107265 -0.19578755
0.20027018 -0.067586735 -0.18712938
0.21965382 -0.067544132 -0.19267964
0.21904927 -0.047647756 -0.19872069
0.20027137 -0.027708547 -0.18711627
0.21905184 -0.027797658 -0.19869494
0.20026898 -0.007769756 -0.18714225
0.21904927 -0.0079480186 -0.19872069
0.20027018 0.012169451 -0.18712926
0.21905056 0.011902168 -0.19870782
0.21934411 0.031842344 -0.19577444
0.2198348 0.051903605 -0.190871
0.23902106 0.071503654 -0.19758928
0.23954877 0.09162613 -0.19269264
0.47755563 0.091424622 -0.19643116
0.24007851 0.11182509 -0.18777752
0.25866887 0.11110843 -0.19941437
0.25923499 0.13129258 -0.19451177
0.25980324 0.15155369 -0.18959045
0.27829367 0.15066001 -0.20119822
0.2788935 0.17090324 -0.1963284
0.27949721 0.19122434 -0.19142687
0.3990142 0.19126844 -0.19094861
0.29852271 0.210457 -0.19815516
0.37795618 0.21046731 -0.19805217
0.29916322 0.23083872 -0.19326055
0.31831992 0.2501179 -0.19856632
0.18132147 -0.24793887 -0.17543328
0.2010392 -0.24767938 -0.17880452
0.20167252 -0.22815126 -0.17194831
0.24063268 -0.22741085 -0.18263531
0.20167252 -0.20809534 -0.17194843
0.26061237 -0.20744032 -0.18258333
0.20167008 -0.16798218 -0.17197478
0.22056139 -0.16744469 -0.1836108
0.2016713 -0.14792697 -0.17196155
0.22056139 -0.14747858 -0.1836108
0.20167008 -0.10781492 -0.17197478
0.20167008 -0.087759212 -0.17197478
0.5008617 -0.06764257 -0.17988706
0.50086445 -0.047647662 -0.17987406
0.18132147 -0.027618611 -0.17543328
0.50086713 -0.027652664 -0.17986095
0.18131927 -0.0075898804 -0.17545938
0.50119257 -0.0076335408 -0.17829537
0.18132037 0.012439262 -0.17544639
0.50248992 0.012517754 -0.17205346
0.18158546 0.032564774 -0.17231572
0.20054957 0.032201767 -0.1841048
0.20100665 0.052354582 -0.17915678
0.20146546 0.072584413 -0.17418981
0.22032738 0.072041348 -0.18594885
0.22082317 0.09225639 -0.18099475
0.22131953 0.11254821 -0.17603505
0.24061167 0.13210189 -0.18283033
0.24114543 0.15245536 -0.17787766
0.44147781 0.15255085 -0.17663634
0.24168408 0.17288882 -0.17287958
0.26037216 0.17189106 -0.18466341
0.42018858 0.17196372 -0.18380582
0.26094326 0.1923061 -0.17971754
0.26151654 0.21279889 -0.17475283
0.28010318 0.21162274 -0.18650675
0.2807115 0.23209882 -0.18156803
0.28165573 0.25296602 -0.17390168
0.30007425 0.25153437 -0.1862992
0.16219783 -0.24884441 -0.16367066
0.18260965 -0.20881754 -0.16022062
0.18260965 -0.18867132 -0.16022062
0.20231408 -0.18841362 -0.16500342
0.50332552 -0.1882503 -0.16803348
0.18261078 -0.16852567 -0.16020727
0.18261078 -0.14837937 -0.16020739
0.18261078 -0.12823305 -0.16020739
0.20200744 -0.12798312 -0.16832292
0.18261078 -0.10808671 -0.16020727
0.22227576 -0.087843865 -0.16647971
0.52416414 -0.08787369 -0.16454172
0.16219988 -0.027527846 -0.16364443
0.16219783 -0.0074083544 -0.1636709
0.16219884 0.012711599 -0.16365778
0.16244712 0.03293059 -0.16043234
0.50379628 0.032766342 -0.16576827
0.18200716 0.052809544 -0.16733587
0.50510615 0.053112537 -0.15946591
0.18243161 0.073132537 -0.16232359
0.18285879 0.093534432 -0.15727866
0.20192727 0.092892565 -0.16919076
0.20238963 0.11327795 -0.16418564
0.48446423 0.1134178 -0.16191375
0.20285377 0.13374177 -0.15916121
0.2218191 0.13291848 -0.1710428
0.46289259 0.13303319 -0.16938782
0.22231925 0.15336615 -0.16604495
0.2228227 0.17389351 -0.16101456
0.22332671 0.1944989 -0.15597808
0.24222055 0.19339752 -0.16790175
0.24276048 0.21398595 -0.16289186
0.24330252 0.23465356 -0.15786242
0.26209202 0.23337042 -0.16976917
0.26306474 0.2544159 -0.16134524
0.36430106 0.25482726 -0.15778279
0.28354311 0.27489421 -0.15857816
0.30206046 0.27334934 -0.17112172
0.16337544 -0.1690723 -0.14837337
0.52748799 -0.16903774 -0.14912093
0.16337648 -0.14883545 -0.14835989
0.52842468 -0.14897345 -0.14477527
0.16337544 -0.12859742 -0.14837325
0.5286904 -0.12874627 -0.14354265
0.52641678 -0.10822798 -0.15409076
0.14290237 -0.067858979 -0.15177476
0.16368952 -0.067916557 -0.14429319
0.18405598 -0.067925386 -0.14314032
0.14290419 -0.027436348 -0.15174818
0.14290237 -0.0072252154 -0.15177476
0.14290327 0.01298628 -0.15176153
0.14313337 0.033299938 -0.14844
0.14348477 0.053731985 -0.14336824
0.16283402 0.053268649 -0.15540683
0.16322339 0.073685624 -0.15034866
0.50642246 0.073557034 -0.15313303
0.16361529 0.094182141 -0.14525747
0.50774509 0.094100706 -0.1467694
0.18328649 0.11401431 -0.15222776
0.18371585 0.13457334 -0.14715731
0.18414801 0.15521306 -0.14205372
0.20332092 0.15428537 -0.15410399
0.20378986 0.17490861 -0.14902771
0.2042594 0.19561058 -0.14394462
0.2238327 0.21518385 -0.15092206
0.40712219 0.21596926 -0.1430732
0.22434196 0.23595008 -0.14583302
0.38565275 0.23545331 -0.15044188
0.24429062 0.25587666 -0.14869392
0.26484665 0.27645412 -0.14591336
0.12343123 -0.23038152 -0.1397568
0.14392895 -0.2305755 -0.13695729
0.10378031 -0.21082389 -0.12764156
0.14464396 -0.21088573 -0.1266371
0.14396816 -0.18995532 -0.13639128
0.16408947 -0.18980956 -0.13909769
0.14396909 -0.16962636 -0.13637769
0.14396909 -0.14929666 -0.13637769
0.14396909 -0.12896678 -0.13637769
0.1039091 -0.10889398 -0.12525129
0.1446712 -0.10887118 -0.12624323
0.10378104 -0.088441983 -0.12762785
0.12423333 -0.088455819 -0.12673199
0.10378104 -0.068044826 -0.12762785
0.12343206 -0.06795153 -0.13974321
0.53167069 -0.068028741 -0.12971592
0.10378031 -0.047647707 -0.12764144
0.12343123 -0.047647756 -0.13975668
0.53167361 -0.047647707 -0.12970233
0.10378031 -0.027250638 -0.12764156
0.12343123 -0.027343929 -0.1397568
0.53167361 -0.02726654 -0.12970233
0.10377958 -0.0068539344 -0.12765503
0.12343041 -0.0070404261 -0.13977015
0.53205931 -0.0068577938 -0.12791288
0.10378031 0.013543274 -0.12764144
0.12343123 0.013263628 -0.13975668
0.12364181 0.033672646 -0.1363374
0.12395786 0.054200277 -0.1312052
0.12427431 0.074807145 -0.12606668
0.14383847 0.074243806 -0.13826346
0.14419442 0.094835959 -0.13312531
0.14454991 0.11550676 -0.12799418
0.16400772 0.11475752 -0.14015996
0.16440162 0.13541281 -0.13504267
0.16479814 0.15614918 -0.12989199
0.18458071 0.17593178 -0.1369437
0.45042446 0.17667118 -0.12821126
0.18501624 0.1967324 -0.13180041
0.4287124 0.19637546 -0.13566315
0.18545231 0.2176128 -0.12665057
0.20473075 0.21639273 -0.13884211
0.20520395 0.23725545 -0.13371968
0.22533137 0.25734866 -0.13594627
0.24596849 0.27802923 -0.13312531
0.16536906 -0.2315788 -0.1224755
0.37146387 -0.23235586 -0.11125886
0.12438231 -0.21102887 -0.12431312
0.10404547 -0.1906921 -0.1227206
0.12438231 -0.19060624 -0.12431312
0.10466015 -0.170784 -0.1113137
0.083948649 -0.15010399 -0.11540091
0.10457655 -0.12969083 -0.11286509
0.12438231 -0.12933829 -0.12431312
0.12438149 -0.10891539 -0.12432671
0.084086694 -0.088676229 -0.11241221
0.55587786 -0.088673741 -0.11257684
0.08394739 -0.068138853 -0.11542821
0.08394739 -0.047647707 -0.11542845
0.08394739 -0.027156657 -0.11542833
0.08394739 -0.0066656992 -0.11542821
0.083948024 0.013825767 -0.1154145
0.53345746 0.013686888 -0.12142622
0.084115237 0.034428358 -0.11179435
0.10396992 0.034048758 -0.12412262
0.53486544 0.034332901 -0.11489415
0.10424904 0.054672204 -0.11894286
0.10452851 0.075375758 -0.11375654
0.12459283 0.095495068 -0.12089455
0.12491261 0.11626374 -0.11570203
0.12523448 0.13711476 -0.11047566
0.14490867 0.13625976 -0.12281597
0.49422085 0.13692838 -0.11316681
0.14526883 0.15709409 -0.11761737
0.47225672 0.15685445 -0.12073088
0.14562947 0.17800918 -0.11241221
0.16519514 0.17696562 -0.12473476
0.16559476 0.19786462 -0.11954367
0.16599485 0.218844 -0.11434603
0.18589008 0.23857456 -0.1214807
0.1868569 0.26033747 -0.1100632
0.20618853 0.25883648 -0.12306106
0.22690454 0.279618 -0.12022603
0.18807423 -0.2334348 -0.09568727
0.55914927 -0.17140253 -0.097922802
0.10483059 -0.15038298 -0.10815072
0.084533967 -0.13000292 -0.10272861
0.22941589 -0.13023686 -0.09513104
0.24877581 -0.12986909 -0.10707629
0.064233303 -0.109587 -0.095242262
0.22941589 -0.10958958 -0.09513104
0.55830485 -0.10943787 -0.10170519
0.084304519 -0.10929936 -0.10769629
0.064049557 -0.088867083 -0.10001624
0.14665928 -0.088905089 -0.097548246
0.063930795 -0.068233609 -0.10310173
0.063931331 -0.0476478 -0.10308802
0.14638758 -0.047647707 -0.10146999
0.063931331 -0.027061712 -0.10308802
0.063931331 -0.0064756684 -0.10308802
0.06393186 0.014110651 -0.10307419
0.064075164 0.034811497 -0.099351168
0.084356703 0.055148594 -0.10656631
0.53627735 0.05508016 -0.10834348
0.08459913 0.075950213 -0.10131776
0.53769326 0.07592912 -0.10177433
0.084841862 0.096833088 -0.096062303
0.10480981 0.096160881 -0.10853612
0.53911918 0.096881799 -0.095158935
0.10509223 0.11702772 -0.10329521
0.51635051 0.1169002 -0.10536647
0.10537649 0.13797769 -0.098019958
0.12555677 0.15804681 -0.10524225
0.1258812 0.17906234 -0.099974513
0.14599246 0.19900733 -0.10717273
0.12620685 0.20016089 -0.09468627
0.14635691 0.22008845 -0.10191262
0.14672181 0.24125108 -0.096645713
0.16639656 0.23990592 -0.109128
0.16733712 0.2618562 -0.096909761
0.39362991 0.26137286 -0.10109627
0.20765626 0.28122568 -0.10717273
0.085566089 -0.21373424 -0.080382586
0.45855033 -0.21349737 -0.084228635
0.085343786 -0.19271412 -0.085195184
0.085121647 -0.17176825 -0.090004921
0.12711111 -0.17223015 -0.080003023
0.064600617 -0.15124719 -0.085699558
0.5601514 -0.15094943 -0.093433857
0.064416632 -0.13038012 -0.090479374
0.5607549 -0.13037245 -0.090730548
0.04397352 -0.10987708 -0.082685709
0.043825574 -0.089059964 -0.087490439
0.043728814 -0.068329662 -0.090632796
0.043728814 -0.047647756 -0.090632915
0.20987806 -0.0476478 -0.083120704
0.043728814 -0.026965845 -0.090632796
0.043728814 -0.0062838458 -0.090632915
0.043729246 0.014398292 -0.090618968
0.56302738 0.014630925 -0.080551147
0.043847106 0.035198174 -0.086791158
0.56320316 0.035414629 -0.079763889
0.044011131 0.056114733 -0.08146441
0.064278267 0.055629343 -0.094074011
0.56339157 0.056212708 -0.078919768
0.06448219 0.076529585 -0.088776231
0.064686373 0.097511552 -0.083471417
0.085086845 0.11779989 -0.090758324
0.085331507 0.1388478 -0.085461259
0.085578427 0.15998098 -0.080115318
0.10566113 0.15900943 -0.092737675
0.10594767 0.18012527 -0.087420464
0.10623456 0.20132381 -0.082096338
0.12653297 0.22134152 -0.089390635
0.43755621 0.22170943 -0.085713387
0.12686124 0.24260738 -0.084060192
0.41553366 0.24160025 -0.093406081
0.14762288 0.26338851 -0.083639741
0.18847269 0.28322005 -0.090981483
0.085789174 -0.23482975 -0.075552464
0.065293953 -0.21451622 -0.067686081
0.044528119 -0.1729382 -0.064674497
0.064920098 -0.17235047 -0.077399135
0.044270128 -0.15173391 -0.073053122
0.12740865 -0.15165249 -0.075171351
0.023635872 -0.13116065 -0.065129519
0.044121996 -0.13076851 -0.077864051
0.023523457 -0.11017 -0.069996953
0.02341146 -0.089254543 -0.074846864
0.19016927 -0.089314699 -0.07094574
0.0027539097 -0.068524107 -0.065371156
0.023337226 -0.0684264 -0.078061104
0.56369644 -0.068430215 -0.077554107
0.0027539097 -0.0476478 -0.065371156
0.19016689 -0.047647707 -0.070973873
0.56369954 -0.047647756 -0.07754004
0.023337226 -0.047647662 -0.078061104
0.0027539097 -0.026771313 -0.065371275
0.023337226 -0.026869016 -0.078061223
0.56369644 -0.02686511 -0.077554107
0.0027539097 -0.0058950074 -0.065371156
0.023337226 -0.0060903244 -0.078061104
0.5641433 -0.0060517192 -0.075552344
0.0027541295 0.014981709 -0.06535697
0.023337554 0.014688645 -0.078047037
0.02342841 0.03558857 -0.074112773
0.023552589 0.056604676 -0.0687356
0.023677267 0.077704512 -0.063337207
0.044175796 0.077114291 -0.076116681
0.044341125 0.098197214 -0.070747375
0.044507541 0.11936507 -0.065342903
0.064893536 0.11858001 -0.078089118
0.06509988 0.13973001 -0.072728038
0.065307058 0.16096401 -0.0673455
0.085825674 0.18119738 -0.074762225
0.48197955 0.18158272 -0.070209265
0.086073913 0.20249778 -0.069387794
0.45970541 0.20170441 -0.077976704
0.086323135 0.22388318 -0.063991785
0.10652336 0.22260779 -0.076736808
0.1068133 0.24397653 -0.071356058
0.12771335 0.26493761 -0.070223689
0.044830039 -0.21530548 -0.054869413
0.044996649 -0.19463989 -0.049458623
0.065581463 -0.19406024 -0.060216188
0.54734063 -0.19423258 -0.057016373
0.023943022 -0.17353141 -0.051829457
0.02374769 -0.15222532 -0.060287356
0.0029553249 -0.13155609 -0.052288651
0.0028801188 -0.11046619 -0.05717361
0.17027935 -0.11043117 -0.058688641
-0.017997982 -0.089649402 -0.04919982
0.0028045215 -0.089451097 -0.06208384
0.17027935 -0.089503348 -0.058688521
0.58887541 -0.089506015 -0.058517098
-0.01802386 -0.068622679 -0.052561402
-0.01802386 -0.047647707 -0.052561402
0.17003995 -0.047647707 -0.06179893
-0.01802386 -0.026672782 -0.052561402
-0.01802375 -0.0056975782 -0.052547097
-0.01802375 0.015277579 -0.052547097
-0.017991779 0.036380582 -0.048394084
0.0028163716 0.035982691 -0.061314225
0.0028999411 0.057099305 -0.055886149
0.0029838495 0.07830029 -0.050436139
0.5702126 0.07839606 -0.048365235
0.023802437 0.098888628 -0.057916999
0.023928441 0.12015828 -0.052460909
0.044674627 0.14061767 -0.059916377
0.5269295 0.14099506 -0.054468274
0.044841945 0.16195425 -0.054482698
0.50438797 0.16134724 -0.062368989
0.045009933 0.1833764 -0.049027205
0.065515056 0.18228289 -0.061941504
0.065723896 0.20368692 -0.056515694
0.065933563 0.22517648 -0.051068306
0.086574011 0.24535573 -0.058560133
0.10760375 0.26650074 -0.056687474
0.024171278 -0.21610135 -0.041945577
0.024248183 -0.19522417 -0.038615584
0.0031642765 -0.17413712 -0.038717151
0.59206527 -0.17386052 -0.044704676
-0.017883649 -0.15322368 -0.034347415
0.0030310266 -0.15272243 -0.047371864
0.59314358 -0.15300471 -0.040035605
-0.017921861 -0.13195565 -0.03931129
0.59413165 -0.13206506 -0.035757184
-0.017959824 -0.11076482 -0.044242859
0.59149259 -0.11069694 -0.047184587
-0.03899885 -0.089849725 -0.036192775
-0.03899885 -0.068722315 -0.039629936
-0.03899885 -0.047647756 -0.039629936
-0.03899885 -0.02657301 -0.039615512
-0.03899885 -0.0054984055 -0.039615512
-0.03899885 0.015576154 -0.039615512
-0.03899885 0.036782153 -0.035350323
-0.017949594 0.057598576 -0.042914152
-0.017907239 0.078901999 -0.037412047
0.0030685365 0.099588133 -0.044935465
0.57243443 0.099939562 -0.038412809
0.0031528994 0.12095916 -0.039456129
0.54964304 0.12053571 -0.046334386
0.0032380447 0.14241838 -0.033925653
0.024054945 0.14151376 -0.046982884
0.024181634 0.16295394 -0.041497231
0.02430883 0.18448037 -0.035989404
0.045178592 0.20488453 -0.043549776
0.045347936 0.22647938 -0.038050294
0.066144079 0.24675244 -0.045599103
0.44674349 0.24802151 -0.033823967
0.087291338 0.26807773 -0.043029547
0.0033156723 -0.21690577 -0.028883815
0.0033341087 -0.19581306 -0.027686238
-0.017815372 -0.17474863 -0.025478125
-0.03899885 -0.15372989 -0.021198153
-0.03899885 -0.13235864 -0.026224256
-0.060239714 -0.11137038 -0.018023372
-0.03899885 -0.11106597 -0.031202912
-0.06020093 -0.090051889 -0.023061275
-0.06017388 -0.068822771 -0.026575089
0.59700608 -0.068847962 -0.023310423
-0.06017388 -0.047647707 -0.026575327
0.59700608 -0.047647662 -0.023310423
-0.060173992 -0.026472596 -0.026560664
0.59700269 -0.026447641 -0.023325086
-0.060173992 -0.0052974373 -0.026560426
0.5975244 -0.0052127838 -0.02106595
-0.060173992 0.015877679 -0.026560664
0.59632635 0.01588475 -0.026253462
-0.060207706 0.037187718 -0.022181153
0.5965122 0.03708712 -0.025448799
-0.03899885 0.058102623 -0.0298177
-0.03899885 0.079509266 -0.024262786
-0.03899885 0.10100346 -0.018670797
-0.017864602 0.100292 -0.031873226
-0.017821904 0.12176784 -0.026326656
-0.017779034 0.14333057 -0.020757556
0.0033233128 0.16396302 -0.028387308
0.0034089237 0.18559498 -0.022826552
0.0034948848 0.2073147 -0.017243385
0.024436541 0.20609385 -0.030459523
0.49208504 0.20727256 -0.017699718
0.024564765 0.22779462 -0.024907112
0.46934783 0.22770667 -0.025785446
0.02471558 0.2496863 -0.018376589
0.045525134 0.24818617 -0.032295585
0.066773407 0.26966897 -0.029248714
-0.03899885 -0.21853787 -0.0023822784
-0.017740075 -0.21771792 -0.015696645
-0.03899885 -0.19701165 -0.0054444075
-0.017747561 -0.19640672 -0.016669154
-0.03899885 -0.17536673 -0.012095571
-0.060317472 -0.15424088 -0.0079219341
-0.060278408 -0.13276599 -0.012996793
-0.081685215 -0.11167724 -0.0047316551
-0.081607133 -0.09025602 -0.0098032951
0.62324309 -0.090373076 -0.0022038221
-0.081551827 -0.068924204 -0.013395429
-0.081552058 -0.047647707 -0.013380647
-0.081552058 -0.026371123 -0.013380647
-0.081552058 -0.0050944947 -0.013380647
-0.081552058 0.01618214 -0.013380766
-0.081621274 0.037597142 -0.0088852644
-0.081708327 0.059126027 -0.0032303333
-0.060250819 0.058612093 -0.016580582
-0.060293883 0.080122374 -0.010986924
-0.060337231 0.10172083 -0.0053553581
-0.03899885 0.12258422 -0.013070583
-0.03899885 0.14425278 -0.0074477196
-0.03899885 0.16601083 -0.001786828
-0.017735876 0.16498202 -0.015151143
-0.017692657 0.1867204 -0.0095367432
0.51495332 0.18671674 -0.0095812082
-0.017649261 0.20854732 -0.0038994551
0.0035811961 0.22912252 -0.011637449
0.0036939234 0.25120166 -0.0043157339
0.046047598 0.27127647 -0.015328169
-0.060463604 -0.21936569 0.011060953
-0.060428958 -0.19765848 0.0065603256
-0.06038937 -0.17599082 0.0014176369
0.62631893 -0.17641899 0.010685444
-0.081842706 -0.15475738 0.0054974556
-0.08176358 -0.13317725 0.00035858154
-0.10333868 -0.11198749 0.0087038279
0.6260609 -0.11200835 0.0096042156
-0.10322043 -0.090462044 0.0035830736
-0.12492826 -0.069130085 0.013346791
-0.10313562 -0.069026634 -8.8691711e-05
-0.12492871 -0.0476478 0.013361931
-0.10313597 -0.047647662 -7.379055e-05
-0.12492871 -0.02616524 0.013361812
-0.10313597 -0.026268734 -7.3671341e-05
-0.12492871 -0.0046827681 0.013361692
-0.10313597 -0.0048896186 -7.3671341e-05
-0.12492871 0.016799651 0.013361931
-0.10313597 0.016489401 -7.3671341e-05
-0.10324252 0.038010426 0.0045400858
-0.10337438 0.059644833 0.010249734
0.60241365 0.05925443 0.00010514259
-0.081795514 0.080742322 0.002432704
0.60405666 0.080963366 0.007219553
-0.081882834 0.10244621 0.0081040859
-0.060380872 0.1234085 0.00031387806
-0.060424581 0.14518386 0.0059914589
0.56110883 0.14524397 0.0068600178
-0.060468577 0.1670495 0.011707306
0.53796273 0.16604182 -0.0013849735
-0.03899885 0.18785664 0.0038821697
-0.03899885 0.20979208 0.0095741749
-0.017605687 0.2304635 0.0017608404
-0.017543115 0.25273263 0.0098893642
0.0039607547 0.27454931 0.013015747
0.025111429 0.27290356 -0.0012359619
-0.082137346 -0.22020167 0.024635077
-0.082057372 -0.19835252 0.019440532
-0.10380381 -0.17725766 0.028844476
-0.081989989 -0.17662111 0.015063643
-0.10357721 -0.15527835 0.019032478
0.6274752 -0.15514356 0.015530825
-0.12536331 -0.13401219 0.027475357
-0.10345773 -0.13359293 0.013858557
0.62863559 -0.13379413 0.020393133
-0.12520301 -0.11230087 0.022270203
-0.12504381 -0.090670183 0.0170995
-0.14693277 -0.069234498 0.026912928
-0.14693335 -0.047647662 0.026928067
-0.14693335 -0.026060825 0.026928186
-0.14693335 -0.0044738986 0.026928306
-0.14693335 0.01711303 0.026928067
-0.12507403 0.03842748 0.018080711
-0.12525202 0.060168684 0.023861527
-0.10350644 0.081367426 0.015968084
-0.10363869 0.10317866 0.021694779
0.60785097 0.1032839 0.023649335
-0.10377184 0.12508026 0.027460098
-0.081970736 0.12423977 0.013813376
0.58443987 0.12433534 0.015365124
-0.082059234 0.14612404 0.01956141
-0.082148097 0.16809854 0.025333285
-0.060512647 0.18900409 0.017431498
-0.060556892 0.21104869 0.023179412
-0.060601436 0.23318583 0.028966188
-0.03899885 0.23181719 0.015289664
-0.03899885 0.25427926 0.024240613
0.47936767 0.25473273 0.028448701
-0.017408205 0.27621189 0.02741456
-0.10402315 -0.22104591 0.038342237
0.50194013 -0.22074816 0.033508897
-0.103902 -0.19908836 0.033096671
-0.12583353 -0.17789975 0.042746305
-0.12552699 -0.15580791 0.032791615
-0.14748366 -0.13443559 0.041225433
-0.14728135 -0.11261732 0.035969377
-0.16933325 -0.091092527 0.044530392
-0.14708038 -0.090880297 0.03074789
-0.16915298 -0.069340065 0.040626884
0.63168168 -0.069282569 0.033157706
0.63168168 -0.047647756 0.033157706
-0.16915298 -0.047647662 0.040626884
-0.16915298 -0.025955448 0.040626884
0.63167441 -0.026013169 0.033127189
-0.16915298 -0.0042630956 0.040626884
0.63227963 -0.0043394305 0.035663486
-0.16915298 0.017429255 0.040626884
0.63402486 0.017483577 0.042976856
-0.14711969 0.038848996 0.031769276
-0.14723426 0.060587622 0.03474617
-0.14756882 0.082636274 0.043437958
-0.12542984 0.081998818 0.029635906
-0.12560743 0.10391723 0.03540349
-0.12578717 0.12592891 0.041240692
-0.10390589 0.14707336 0.033264518
-0.10404014 0.16915646 0.039077878
-0.082237095 0.19016263 0.031113744
-0.082326457 0.21231791 0.036917925
-0.08241643 0.23456663 0.042761683
0.50258446 0.23397553 0.036856651
-0.060676683 0.25584188 0.038740516
-0.03899885 0.27789184 0.041962862
-0.12612365 -0.22189739 0.052168489
0.17925355 -0.22224963 0.057889223
-0.12596102 -0.19983158 0.046886802
-0.14808321 -0.17854899 0.056802273
-0.147698 -0.15634689 0.046794176
-0.16982198 -0.13486317 0.055111289
-0.16957679 -0.11293667 0.049803138
-0.19180566 -0.091306821 0.058448672
0.65906459 -0.09127672 0.056491971
-0.19159076 -0.069446586 0.054460168
-0.19159076 -0.047647756 0.054460287
-0.19159076 -0.025848828 0.054460168
-0.19159076 -0.0040500872 0.054460168
-0.19159076 0.01774884 0.054460049
-0.19186515 0.039704382 0.05955255
-0.16938233 0.039274551 0.045592666
0.63577557 0.039419912 0.050312877
-0.16952333 0.061122648 0.04864502
0.63753909 0.061471276 0.057702899
-0.16992733 0.083280765 0.057392359
-0.14779299 0.10466415 0.049262762
-0.14801991 0.12678602 0.055157661
-0.12596767 0.14803213 0.047102571
-0.12614843 0.1702261 0.05297327
-0.12633044 0.19251418 0.058883905
-0.1041753 0.19133261 0.044930458
0.54943466 0.19208449 0.053809524
-0.10431102 0.21360099 0.050807714
0.52593458 0.21309078 0.04528451
-0.10444696 0.23596072 0.056693673
-0.082580313 0.2574226 0.053406715
-0.060814526 0.27958751 0.056646943
-0.14844289 -0.22275814 0.066146731
-0.17073491 -0.20133984 0.074877024
-0.14823757 -0.20058191 0.06081295
0.59523284 -0.20073816 0.063711166
-0.1705558 -0.17920458 0.070999026
0.66198611 -0.17908236 0.068351746
-0.19270957 -0.15744114 0.075223088
-0.17009106 -0.15689129 0.060937285
0.66322964 -0.15737092 0.073399901
-0.19238147 -0.13529493 0.069134593
-0.19209263 -0.11325929 0.063773751
0.66209793 -0.11337555 0.068805575
-0.21450084 -0.09152323 0.072505116
-0.21424991 -0.069554128 0.068430066
-0.21424991 -0.047647756 0.068430066
-0.21424991 -0.025741337 0.068430066
-0.21424991 -0.0038349666 0.068430066
-0.21424991 0.018071406 0.068430066
-0.21457049 0.040138163 0.073635578
-0.19218513 0.06177105 0.065490723
-0.19250646 0.083930142 0.071453929
0.63930815 0.083637528 0.065116048
-0.17019829 0.10541839 0.063259125
-0.17047328 0.12765157 0.069212794
-0.17074871 0.14997709 0.075175762
-0.14824717 0.14899918 0.061061978
0.59686679 0.14968982 0.071030378
-0.14847597 0.17130649 0.067006588
0.57308048 0.17095202 0.062401772
-0.14870572 0.19370741 0.072975993
-0.12651271 0.21489391 0.064803839
-0.12669623 0.23736876 0.070764065
-0.10471258 0.25901622 0.068195224
-0.08285889 0.2813026 0.071501017
-0.17098373 -0.22362754 0.080263972
-0.19345635 -0.20210522 0.089081407
-0.19325468 -0.17986712 0.085338831
-0.21555689 -0.15799648 0.089653015
-0.2151655 -0.13573106 0.083297253
0.66447765 -0.13558234 0.078466177
-0.21483302 -0.11358553 0.077898741
-0.23742217 -0.091741756 0.086701393
-0.23713374 -0.069662631 0.082538247
-0.23713374 -0.047647707 0.082538366
-0.23713374 -0.025632694 0.082538247
-0.23713374 -0.0036178231 0.082538366
-0.23713374 0.01839719 0.082538247
-0.23750347 0.040576451 0.087874889
-0.21493983 0.062315404 0.079632878
-0.21530974 0.084585421 0.085639596
-0.1928283 0.10618182 0.077426314
0.64490974 0.10678316 0.088589072
-0.19315147 0.12852672 0.083423734
0.62083083 0.12830687 0.079853773
-0.19347602 0.15096587 0.089446545
-0.17102602 0.17239758 0.081179619
-0.17130375 0.19491133 0.087192893
-0.14893585 0.21620116 0.078954697
-0.14916757 0.23879102 0.084974527
-0.12707779 0.26062864 0.083154917
-0.19374955 -0.2245056 0.094522119
-0.21640521 -0.20287836 0.10342765
-0.21618325 -0.18053603 0.099823594
-0.23863769 -0.15855825 0.1042459
-0.23817736 -0.1361715 0.097601652
-0.23779958 -0.11391462 0.092149019
-0.26057297 -0.091962576 0.10104012
-0.26024562 -0.06977237 0.096787333
0.66780907 -0.069735467 0.091989994
-0.26024562 -0.047647707 0.096787214
0.66780514 -0.047647756 0.091974139
-0.26024562 -0.025523044 0.096787214
0.6678012 -0.025560269 0.091958284
-0.26024562 -0.0033983327 0.096787333
0.66849172 -0.0034296289 0.094761252
-0.26024562 0.018726282 0.096787214
0.67036986 0.018855512 0.10238552
-0.2606667 0.041019514 0.10225725
-0.26092976 0.063317716 0.10567462
-0.23773345 0.062760398 0.091194749
-0.23834348 0.085248761 0.099999547
-0.23876673 0.10772721 0.10610855
-0.21568221 0.10695022 0.091687799
-0.21605527 0.12940872 0.097745419
-0.2164309 0.15196329 0.10384476
-0.19380194 0.17349952 0.095494866
-0.19412923 0.19612861 0.10156846
-0.17158341 0.21752134 0.093247533
-0.1718635 0.24022579 0.099311829
0.53737289 0.24053815 0.10243368
-0.1496788 0.26225597 0.098256707
0.51349509 0.26174894 0.093550205
-0.21674365 -0.22539246 0.10892308
-0.23958382 -0.20365822 0.11790216
-0.23934394 -0.18121111 0.11443961
-0.26195338 -0.15912503 0.11897182
-0.26142052 -0.13661636 0.11204982
-0.28442743 -0.11458278 0.12108076
-0.26099655 -0.11424702 0.10654247
-0.28395677 -0.092185557 0.11552286
0.69643414 -0.092219517 0.11772406
-0.28358895 -0.069883175 0.11117876
0.69732809 -0.069960654 0.12124336
-0.28359029 -0.047647756 0.11119497
-0.28359029 -0.025412152 0.11119485
-0.28358895 -0.0031768233 0.11117887
-0.28358895 0.019058548 0.11117876
-0.28406367 0.041466631 0.11678481
0.67225409 0.041258901 0.11003458
0.67414832 0.063781552 0.11772418
-0.26160946 0.085918628 0.11450446
-0.26208448 0.10851223 0.12067497
-0.23919064 0.13030055 0.1122272
-0.2396175 0.15297088 0.1183883
-0.2168071 0.17461264 0.10995388
-0.21718493 0.19735804 0.11608899
0.585536 0.1977053 0.12018812
-0.19445878 0.21885493 0.10768414
0.56137538 0.21918529 0.11125934
-0.19478884 0.24167654 0.11380959
-0.17252043 0.26390266 0.11353493
-0.23996952 -0.22628835 0.12346947
-0.26299781 -0.20444703 0.13253939
-0.26274237 -0.18189389 0.12922132
0.69916409 -0.18185917 0.12847042
-0.2855086 -0.15969771 0.13384914
0.70049715 -0.15969256 0.13371801
-0.28489989 -0.13706627 0.12666011
-0.30809569 -0.11492199 0.13576651
0.69969916 -0.11480214 0.13057709
-0.30757707 -0.092410743 0.13015223
-0.30716872 -0.06999512 0.12573147
-0.30716872 -0.047647756 0.12573159
0.69793081 -0.047647756 0.12361574
-0.30716872 -0.025300246 0.12573147
0.69862556 -0.025295421 0.12635052
-0.3071672 -0.0029530153 0.12571526
-0.3071672 0.019394308 0.12571526
-0.30769786 0.041918658 0.13145971
-0.284587 0.063983254 0.12296534
-0.28511122 0.086595379 0.12915587
0.67605662 0.086425208 0.125471
-0.28563905 0.10930502 0.13538933
-0.26256153 0.13120249 0.12687206
-0.26303938 0.15398872 0.13307929
-0.24004504 0.17573687 0.1245594
0.60985011 0.17609331 0.12918866
-0.24047554 0.19860163 0.13077307
-0.24090675 0.2215628 0.13699698
-0.21756536 0.22020215 0.12226653
-0.21794644 0.24314219 0.12845421
-0.19560611 0.26556686 0.12897635
-0.26343071 -0.22719321 0.13816297
-0.28666374 -0.20525262 0.14749038
-0.28638127 -0.1825836 0.14415479
-0.30930707 -0.16027614 0.14887989
-0.30861634 -0.13752022 0.14140272
0.70183921 -0.13744628 0.13900113
-0.33200505 -0.1152645 0.15060186
-0.33143747 -0.092638314 0.14493024
-0.33098567 -0.070108265 0.14041531
-0.33098567 -0.047647707 0.14041531
-0.33098567 -0.025187194 0.14041531
-0.33098567 -0.0027267709 0.14041531
-0.330984 0.019733377 0.14039874
-0.33157298 0.04237514 0.1462841
-0.3082746 0.064550497 0.13770306
-0.30885229 0.087278984 0.1439569
-0.309434 0.1101061 0.15025401
-0.28616914 0.13211241 0.1416496
0.6589343 0.13246399 0.1473583
-0.28670016 0.15501693 0.14792037
0.63431191 0.15434545 0.13822865
-0.26351926 0.1768727 0.13931346
-0.26400247 0.19985622 0.14559042
-0.26448652 0.22293741 0.15187812
-0.24133983 0.24462262 0.14324796
-0.21893975 0.2672489 0.1445837
-0.31107342 -0.22903085 0.16800129
-0.28713077 -0.22810739 0.1530062
0.54926383 -0.22865155 0.16184461
-0.31057566 -0.2060675 0.1626128
-0.31026432 -0.18328047 0.15924251
-0.33335423 -0.16086131 0.16408336
-0.33257487 -0.13797882 0.15629578
-0.35615921 -0.1156106 0.16558909
-0.35554349 -0.092868418 0.15987587
-0.35504478 -0.070222422 0.15524828
-0.35504478 -0.047647756 0.15524828
0.72852385 -0.047647707 0.15518165
-0.35504478 -0.025072901 0.15524817
-0.35504478 -0.0024982765 0.15524828
0.7062664 -0.0024801716 0.15642869
-0.35504478 0.020076483 0.15524817
0.70829171 0.020287789 0.16440105
-0.35569271 0.042836219 0.16126037
-0.35637945 0.065702394 0.16763246
-0.33220416 0.065123431 0.15259147
-0.33283642 0.087969609 0.1589092
-0.33347309 0.11091537 0.16527116
0.68368673 0.11043983 0.15644526
-0.31001821 0.13303182 0.15657854
-0.31060344 0.15605563 0.16291344
-0.28723341 0.17802009 0.1542182
-0.28777042 0.20112389 0.16055965
-0.28830829 0.22432628 0.16691184
-0.26497263 0.24611813 0.15819299
-0.2425265 0.26895094 0.16037619
-0.33526236 -0.22996375 0.18315065
-0.33473444 -0.20688999 0.17787552
-0.33439365 -0.18398383 0.17447007
-0.35765079 -0.16145204 0.17942894
-0.35677913 -0.13844213 0.1713413
-0.38056192 -0.11596042 0.18073046
-0.37989542 -0.093100637 0.17495835
-0.37934974 -0.070337772 0.17023277
-0.37934974 -0.047647756 0.17023265
-0.37934974 -0.024957689 0.17023265
-0.37934974 -0.0022676662 0.17023277
-0.37934974 0.020422399 0.17023277
-0.38006082 0.043302171 0.17639101
-0.38080421 0.066287421 0.18282902
-0.35706916 0.08866825 0.17403233
-0.35776007 0.11173295 0.18044317
-0.33411252 0.13396063 0.17166066
-0.33475304 0.15710521 0.17806101
-0.31119117 0.17917928 0.16927612
-0.31178302 0.20240444 0.1756829
-0.31237587 0.22572938 0.18210089
0.59850174 0.22556669 0.1803416
-0.28884855 0.2476292 0.1732918
0.57380033 0.24740377 0.17103875
-0.35970142 -0.2309064 0.19845676
0.25748011 -0.23009628 0.18530333
-0.35914722 -0.20772198 0.19331443
0.25747842 -0.20728931 0.1852864
-0.35877639 -0.18469524 0.18987334
-0.38220218 -0.16204892 0.19493544
-0.38123301 -0.13891017 0.18654203
-0.40521702 -0.11631364 0.19602859
-0.4044987 -0.093335196 0.19019675
-0.40390438 -0.070454322 0.18537116
-0.40390438 -0.047647618 0.18537116
-0.40390438 -0.024841094 0.18537116
-0.40390438 -0.0020344853 0.18537116
-0.40390438 0.020771988 0.18537128
-0.40468118 0.043772765 0.19167805
-0.40548235 0.066878371 0.19818282
-0.38155085 0.08937303 0.18929493
-0.47309217 0.11228143 0.19062233
-0.3822988 0.11255895 0.19577217
-0.35845581 0.13489911 0.18689871
-0.35915273 0.15816557 0.19336557
-0.33539802 0.18035167 0.18450642
-0.33604246 0.20369697 0.19094574
-0.33669308 0.22714695 0.19744742
-0.31300277 0.24918994 0.18888676
-0.38439453 -0.23185879 0.21392179
-0.38381642 -0.20856267 0.20891547
-0.38341492 -0.1854142 0.20543838
-0.40701455 -0.1626527 0.21062267
-0.40594023 -0.13938303 0.20190048
-0.43012848 -0.11667059 0.21148562
-0.42935732 -0.093572289 0.20559299
-0.42871475 -0.070572197 0.20068312
-0.42871255 -0.047647707 0.20066607
-0.42871255 -0.024723401 0.20066619
-0.42871255 -0.0017990023 0.20066595
-0.42871255 0.021125302 0.20066607
-0.42955768 0.044248417 0.20712411
-0.43041787 0.067475528 0.21369696
-0.40628704 0.090085305 0.20471632
-0.40709317 0.11339357 0.21126127
-0.38305196 0.13584724 0.20229506
-0.3838065 0.15923691 0.20882928
-0.35985458 0.18153492 0.19987786
-0.3605558 0.20500419 0.20638418
-0.36126381 0.22857943 0.21295357
-0.4093456 -0.23282114 0.22954857
-0.40874615 -0.20941216 0.22468138
-0.40831333 -0.18614072 0.22116745
-0.43208796 -0.16326217 0.22645891
-0.4309049 -0.13986088 0.21741879
-0.45530266 -0.11703166 0.22712159
-0.45447522 -0.093811765 0.22115004
-0.45378059 -0.070691228 0.21613669
-0.45377815 -0.047647707 0.21611941
-0.45377815 -0.024604468 0.21611941
-0.45377815 -0.0015611798 0.21611941
-0.45378059 0.021482565 0.21613681
-0.45469683 0.044729583 0.22274947
-0.45561475 0.068078935 0.22937381
-0.43128181 0.090805121 0.22029889
-0.43214729 0.11423688 0.22691238
-0.40790501 0.1368053 0.21785223
-0.40872037 0.16032055 0.22447228
-0.38456431 0.18272915 0.21539223
-0.38532749 0.20632657 0.22200155
-0.43394047 -0.21027067 0.24061465
0.28513935 -0.20971683 0.23033488
-0.4334757 -0.18687487 0.23706305
-0.45742857 -0.16387822 0.24246395
-0.45613104 -0.14034376 0.2330997
-0.48073915 -0.11739619 0.24290466
-0.47985649 -0.094053775 0.23687005
-0.47910786 -0.070811309 0.23175168
-0.47910529 -0.0476478 0.23173416
-0.47910529 -0.024484199 0.23173416
-0.47910529 -0.0013206899 0.23173428
-0.4791232 0.021845579 0.23185682
-0.48009804 0.045215152 0.23852146
-0.45653912 0.091532387 0.23604512
-0.4574652 0.1150891 0.24272823
-0.43301889 0.13777345 0.2335726
-0.43389207 0.1614134 0.24024498
-0.40953511 0.18393737 0.23108697
-0.43455645 -0.23379245 0.24532163
-0.45940119 -0.2111375 0.25670004
-0.45890382 -0.18761608 0.25311077
-0.48304069 -0.1645008 0.25864041
-0.4816227 -0.14083168 0.24894559
-0.50644422 -0.11776453 0.25885427
-0.50550532 -0.094298303 0.25275588
-0.50470078 -0.070932776 0.24753034
-0.5046981 -0.047647618 0.2475127
-0.5046981 -0.024362735 0.2475127
-0.5046981 -0.0010778569 0.2475127
-0.50473076 0.022212081 0.24772477
-0.5057677 0.045706019 0.25446022
-0.48107713 0.068688549 0.24521577
-0.48206323 0.092267372 0.25195754
-0.45839784 0.13875178 0.24945915
-0.45933217 0.16251898 0.25620198
-0.43476915 0.18515822 0.24694681
-0.4851374 -0.21201459 0.27297592
-0.48460677 -0.188366 0.26934791
-0.50893146 -0.1651309 0.27500927
-0.50738418 -0.14132473 0.26495922
-0.53242224 -0.11813678 0.27497315
-0.53142303 -0.094545186 0.26879191
-0.53056353 -0.071055569 0.26347554
-0.53056067 -0.047647756 0.26345754
-0.53056067 -0.024239987 0.26345754
-0.53056353 -0.00083203614 0.2634753
-0.53060979 0.022582352 0.26376152
-0.53170729 0.046201475 0.27055037
-0.50680929 0.069304869 0.26122546
-0.50785834 0.093010165 0.26803899
-0.50890923 0.11682092 0.27486503
-0.48404339 0.13973939 0.26549602
-0.51115125 -0.21290106 0.28942728
-0.51058668 -0.18912405 0.28576005
-0.53341967 -0.14182314 0.28114343
-0.55867141 -0.11851224 0.29122782
-0.55761647 -0.094794773 0.28499889
-0.55669737 -0.071179464 0.27957153
-0.55670035 -0.0476478 0.27958941
-0.55670035 -0.024115812 0.27958941
-0.55670035 -0.00058396161 0.27958941
-0.5567646 0.022956617 0.27996874
-0.55792665 0.046702854 0.28683043
-0.5328126 0.069926985 0.27738786
-0.53392583 0.093759887 0.2842741
-0.53504115 0.11769956 0.29117334
-0.50996214 0.14073762 0.28170383
-0.58422321 -0.21358562 0.30213022
-0.53744721 -0.21379718 0.30605721
-0.5831157 -0.1895912 0.29587507
-0.53684795 -0.18989038 0.30235016
-0.55989778 -0.1660338 0.29846919
-0.5351029 -0.16576782 0.2915554
-0.55950797 -0.14228573 0.29616725
-0.58311248 -0.094961919 0.29585707
-0.58311248 -0.071304977 0.29585695
-0.58311892 -0.047647662 0.29589343
-0.5831157 -0.023990581 0.29587519
-0.5831157 -0.00033317879 0.29587519
-0.58319974 0.023335025 0.29634976
-0.58443093 0.047209986 0.3033036
-0.55909705 0.070556313 0.29374111
-0.56027269 0.094517805 0.30068302
-0.61066055 -0.23820171 0.3169173
-0.56184649 -0.1902425 0.30997574
-0.58630461 -0.14283141 0.31388593
-0.60980719 -0.071431354 0.3122983
-0.60981399 -0.023863696 0.31233525
-0.60981399 -7.9773366e-05 0.31233549
-0.60991973 0.023717381 0.31290734
-0.61121833 0.047722168 0.31993628
-0.58566445 0.071192622 0.31027043
-0.58690685 0.095284767 0.31728756
-0.63679987 -0.23894402 0.32897258
-0.61315322 -0.21510935 0.33040941
-0.56603509 -0.21534109 0.33470833
-0.61315322 -0.19118637 0.33040941
-0.61316013 -0.14334121 0.33044672
-0.63679987 -0.023735661 0.32897282
-0.63679987 0.00017629564 0.32897282
-0.63692909 0.024103925 0.3296442
-0.63829648 0.048239872 0.33674979
-0.61251944 0.0718356 0.3269788
-0.66407418 -0.23997861 0.34577155
-0.64030498 -0.16790897 0.34718585
-0.61518461 -0.16768645 0.34140444
-0.64030135 -0.14385606 0.34716713
-0.64030135 -0.11980408 0.34716702
-0.64030135 -0.095751956 0.34716713
-0.61694026 -0.095809534 0.35090733
-0.64029771 -0.071699604 0.34714818
-0.638708 -0.047647756 0.33888769
-0.66408169 -0.023605973 0.34580922
-0.66408169 0.00043549016 0.34580946
-0.66423267 0.024494641 0.34656346
-0.63966662 0.072485745 0.34386897
-0.59403044 -0.24070224 0.35752153
-0.66774386 -0.21692532 0.36410654
-0.66773623 -0.19274101 0.36406851
-0.66773623 -0.16855884 0.36406851
-0.66774005 -0.14437717 0.36408758
-0.69190258 -0.071829379 0.36399198
-0.62010211 -0.047647662 0.36802113
-0.69165695 -0.023475226 0.36281037
-0.69165695 0.00069725886 0.36281013
-0.69183522 0.024889685 0.36366785
-0.66567034 0.048763268 0.35374665
-0.69361943 -0.21736413 0.37225223
-0.71952981 -0.19347575 0.37997782
-0.69547355 -0.14490318 0.3811729
-0.69547355 -0.12058924 0.38117266
-0.67106706 -0.12057867 0.38071024
-0.71952981 -0.096257016 0.37997782
-0.71981233 -0.071962476 0.38128853
-0.67087036 -0.07195048 0.37972748
-0.71953815 -0.047647707 0.38001645
-0.69442129 -0.047647662 0.37611055
-0.71953404 -0.023342917 0.37999737
-0.71953404 0.00096191838 0.37999713
-0.7197417 0.025288999 0.38096058
-0.69334459 0.049292363 0.37092996
-0.69882452 -0.19427565 0.39729536
-0.72145373 -0.16951469 0.3889035
-0.72206813 -0.1452291 0.39175403
-0.72094464 -0.12071337 0.38654184
-0.69808859 -0.096469149 0.3937546
-0.74770921 -0.072086051 0.39733434
-0.74772227 -0.047647845 0.39739275
-0.74771792 -0.023209138 0.39737332
-0.74771792 0.0012294315 0.39737332
-0.74795717 0.025692776 0.39844513
-0.72132427 0.049827345 0.38830316
-0.70198506 -0.17042306 0.41250169
-0.75061703 -0.12126347 0.41035962
-0.74911648 -0.096621312 0.40363801
-0.67615348 -0.047647707 0.40612376
-0.72881097 -0.2201007 0.42303693
-0.65386432 -0.21981004 0.41764224
-0.75383174 -0.17089476 0.42475998
-0.60496515 -0.17068391 0.41928053
-0.75212389 -0.14600986 0.41710949
-0.77925992 -0.12167395 0.42813206
-0.60496867 -0.12146995 0.4193002
-0.77769035 -0.096893743 0.42133546
-0.67936838 -0.096906975 0.42218602
-0.77620465 -0.072221346 0.41490257
-0.7762183 -0.047647756 0.4149617
-0.77621377 -0.023073934 0.41494191
-0.77621377 0.001499977 0.41494191
-0.77648675 0.026101142 0.41612399
-0.75745088 -0.22106719 0.44097161
-0.75563675 -0.19591758 0.43284535
-0.78262746 -0.17158586 0.44271386
-0.78083163 -0.14655867 0.43493783
-0.63273787 -0.12186518 0.43641412
-0.80658871 -0.097169757 0.43925095
-0.805022 -0.072358064 0.43268585
-0.80502677 -0.047647707 0.43270588
-0.80502677 -0.022937076 0.43270588
-0.80502677 0.001773417 0.43270588
-0.78643227 -0.22204891 0.4591893
-0.78452033 -0.19675195 0.45091033
-0.81175274 -0.1722855 0.46089053
-0.80986649 -0.1471146 0.45298624
-0.80822408 -0.12208894 0.44610393
-0.83580762 -0.097448207 0.45734811
-0.83415735 -0.072496444 0.45064867
-0.83416229 -0.0476478 0.45066869
-0.83416229 -0.022798976 0.45066869
-0.8137114 -0.19759214 0.46909857
-0.83922935 -0.14767651 0.47123849
-0.83751482 -0.12250866 0.46427846
-0.86535716 -0.097730145 0.47564995
-0.86362571 -0.072636381 0.4688338
-0.81572896 -0.22303838 0.47755289
-0.84102702 -0.17296463 0.47853577
-0.86713779 -0.12293302 0.48265886
