ply
format ascii 1.0
comment PCL generated
element vertex 1336
property float x
property float y
property float z
element camera 0
property float view_px
property float view_py
property float view_pz
property float x_axisx
property float x_axisy
property float x_axisz
property float y_axisx
property float y_axisy
property float y_axisz
property float z_axisx
property float z_axisy
property float z_axisz
property float focal
property float scalex
property float scaley
property float centerx
property float centery
property int viewportx
property int viewporty
property float k1
property float k2
end_header
-0.12385514 -0.32037392 -0.11672831
-0.22991344 -0.29371044 -0.11818874
-0.12388875 -0.29390806 -0.11585534
-0.22991344 -0.26718166 -0.11818898
-0.12392236 -0.26742858 -0.11498189
-0.22991344 -0.24065304 -0.11818886
-0.12395599 -0.24093579 -0.11410809
-0.22991344 -0.2141245 -0.11818874
-0.14981869 -0.21344599 -0.12920618
-0.12398893 -0.21442848 -0.1132524
-0.22991344 -0.18759587 -0.11818874
-0.14985873 -0.18704884 -0.12833941
-0.1240226 -0.18790895 -0.11237764
-0.22991344 -0.16106722 -0.11818862
-0.1498979 -0.16063757 -0.12749112
-0.12405629 -0.16137606 -0.11150241
-0.22991344 -0.13453861 -0.11818886
-0.14993799 -0.13421395 -0.12662339
-0.12408999 -0.13482976 -0.11062682
-0.22991344 -0.10800999 -0.11818874
-0.14997807 -0.10777693 -0.12575543
-0.22991344 -0.08148133 -0.11818874
-0.15001819 -0.081326656 -0.12488699
-0.22991344 -0.054952718 -0.11818874
-0.15005745 -0.054862697 -0.12403679
-0.22991344 -0.02842411 -0.11818886
-0.15009761 -0.028385775 -0.12316763
-0.22991344 -0.0018953882 -0.11818874
-0.15013778 -0.0018953882 -0.12229776
-0.22991344 0.024633221 -0.11818874
-0.15017797 0.024608295 -0.12142766
-0.22991344 0.051161721 -0.11818874
-0.15021731 0.051125057 -0.12057602
-0.22991213 0.07769005 -0.11820769
-0.15025754 0.077655502 -0.11970484
-0.22991213 0.10421838 -0.11820781
-0.15029779 0.10419919 -0.1188333
-0.22991213 0.13074695 -0.11820781
-0.15033807 0.13075651 -0.11796117
-0.22991213 0.15727544 -0.11820769
-0.15037838 0.15732719 -0.11708868
-0.22991213 0.18380399 -0.11820793
-0.15041868 0.1839112 -0.11621594
-0.22991213 0.2103326 -0.11820781
-0.15045902 0.21050893 -0.11534274
-0.22991213 0.23686095 -0.11820793
-0.15049937 0.23712011 -0.11446905
-0.22991213 0.26338932 -0.11820769
-0.15053976 0.2637445 -0.11359465
-0.22991213 0.28991786 -0.11820769
-0.17628993 0.28902954 -0.1286974
-0.15058015 0.2903825 -0.11272025
-0.22991213 0.31644642 -0.11820769
-0.17633663 0.31555754 -0.12783039
-0.15061969 0.31703234 -0.11186409
-0.22991084 0.34297287 -0.11822665
-0.17638339 0.34209856 -0.1269629
-0.15066013 0.34369728 -0.1109885
-0.22991213 0.36950332 -0.11820781
-0.17643015 0.36865327 -0.12609518
-0.22991213 0.3960318 -0.11820769
-0.17647694 0.39522126 -0.12522674
-0.15002866 0.42176551 -0.12466037
-0.12393406 0.422995 -0.11467803
-0.22991213 0.68784517 -0.11820781
-0.20314226 0.68706048 -0.12212741
-0.22991213 0.71437377 -0.11820769
-0.20346074 0.71463388 -0.116956
-0.22991344 0.74090624 -0.11818874
-0.20378019 0.7422899 -0.11176884
-0.22991344 0.76743478 -0.11818874
-0.22993314 0.79402906 -0.11790431
-0.23029234 0.82179725 -0.11272013
-0.15096495 -0.90748066 -0.10438895
-0.071095243 -0.88122946 -0.10287869
-0.071115576 -0.85479993 -0.10199857
-0.071135469 -0.82835209 -0.10113716
-0.071155809 -0.80189556 -0.10025632
-0.071176164 -0.77542573 -0.09937489
-0.071196087 -0.7489382 -0.098512292
-0.071216464 -0.72244161 -0.097629905
-0.071236849 -0.69593132 -0.09674716
-0.071257241 -0.66940755 -0.095863938
-0.071277209 -0.64286679 -0.094999552
-0.071297631 -0.61631614 -0.094115496
-0.071317613 -0.58974886 -0.093250155
-0.07133805 -0.56317121 -0.092365146
-0.097621724 -0.50760859 -0.10677612
-0.097648174 -0.48111123 -0.1059171
-0.097675227 -0.45460314 -0.10503864
-0.097702876 -0.42808378 -0.10414064
-0.097729959 -0.40154865 -0.10326123
-0.09775646 -0.37499779 -0.10240042
-0.097783573 -0.34843573 -0.10152006
-0.097810686 -0.32186016 -0.10063946
-0.097837828 -0.29527098 -0.099758148
-0.097864971 -0.26866835 -0.098876476
-0.097891547 -0.24205083 -0.09801352
-0.097918719 -0.21542129 -0.097130895
-0.097945906 -0.18877807 -0.096248031
-0.097973108 -0.16212139 -0.095364571
-0.097999729 -0.13545033 -0.094499826
-0.12412372 -0.10826977 -0.10975063
-0.098026969 -0.10876662 -0.093615413
-0.12415671 -0.081695929 -0.10889316
-0.098054208 -0.082069255 -0.092730761
-0.12419048 -0.055109285 -0.10801613
-0.12422425 -0.028509067 -0.10713887
-0.12425804 -0.0018954439 -0.10626078
-0.12429111 0.024731645 -0.10540164
-0.12432493 0.0513722 -0.10452259
-0.12435877 0.078026384 -0.10364366
-0.12439263 0.10469403 -0.10276389
-0.12442651 0.13137537 -0.10188365
-0.12446041 0.15807006 -0.10100329
-0.12449433 0.18477844 -0.10012209
-0.12452826 0.21150056 -0.099240661
-0.12456146 0.23823464 -0.098377824
-0.12459542 0.26498395 -0.097495556
-0.12462941 0.29174647 -0.096612573
-0.1246634 0.31852293 -0.09572947
-0.1246974 0.34531283 -0.094845891
-0.15070058 0.37037566 -0.11011255
-0.12473144 0.37211633 -0.093961716
-0.15074106 0.39706779 -0.10923624
-0.12476549 0.39893371 -0.093076944
-0.1514297 0.66591257 -0.094326973
-0.1775329 0.69036245 -0.10563076
-0.17781426 0.71807295 -0.10040939
-0.17809644 0.74586725 -0.095172405
-0.20409939 0.77002513 -0.10658538
-0.20442079 0.79784822 -0.101367
-0.20474312 0.82575548 -0.096132636
-0.23065126 0.84964406 -0.10753942
-0.2310126 0.87757969 -0.10232377
-0.23137371 0.90559441 -0.097111702
-0.25922486 -0.91333026 -0.082039356
-0.25922334 -0.88651848 -0.082058549
-0.044846311 -0.88778895 -0.077057242
-0.25922188 -0.85970688 -0.082078099
-0.044711847 -0.85879236 -0.085790634
-0.25922188 -0.83290035 -0.082078099
-0.04472553 -0.83222651 -0.084901929
-0.25922036 -0.80608928 -0.082097292
-0.044738926 -0.80564255 -0.08403194
-0.2592189 -0.77927846 -0.082116723
-0.044752624 -0.77904946 -0.083142281
-0.2592189 -0.75247222 -0.082116604
-0.044766329 -0.7524429 -0.082252145
-0.25921741 -0.72566181 -0.082136154
-0.044780038 -0.72582281 -0.081361532
-0.25921741 -0.6988557 -0.082136154
-0.044793759 -0.69918901 -0.080470443
-0.25921741 -0.67204946 -0.082136273
-0.044807184 -0.67253774 -0.079598546
-0.25922188 -0.64525414 -0.082078099
-0.044820916 -0.64587694 -0.078706503
-0.25922036 -0.61844403 -0.082097292
-0.044834357 -0.61919898 -0.077833414
-0.25922036 -0.59163749 -0.082097411
-0.044848103 -0.59251094 -0.076940536
-0.25922188 -0.56483418 -0.082078099
-0.044861857 -0.56580919 -0.076047301
-0.2592189 -0.53802168 -0.082116723
-0.071358494 -0.53658009 -0.091479659
-0.04487532 -0.53909063 -0.07517302
-0.25921592 -0.51120979 -0.082155228
-0.071378507 -0.50997257 -0.090613008
-0.044889085 -0.51236176 -0.074278712
-0.25921741 -0.48440632 -0.082136273
-0.071398981 -0.48335454 -0.089726806
-0.044902861 -0.48561901 -0.073384166
-0.2592189 -0.45760277 -0.082116842
-0.071419455 -0.45672289 -0.088840008
-0.25922188 -0.43080121 -0.082078218
-0.071439944 -0.43007761 -0.087952852
-0.25922334 -0.40399688 -0.082058549
-0.071460448 -0.40341872 -0.087065101
-0.25922334 -0.37719011 -0.082058549
-0.07148096 -0.37674624 -0.086176872
-0.2591176 -0.3502458 -0.083432555
-0.071501479 -0.35006014 -0.085288405
-0.25922334 -0.32357654 -0.082058668
-0.071522012 -0.32336029 -0.084399462
-0.25912058 -0.2966567 -0.083393931
-0.071542099 -0.29664528 -0.083529234
-0.25912058 -0.26986024 -0.083393931
-0.071562655 -0.26991838 -0.082639217
-0.25922188 -0.24315497 -0.082078099
-0.071583219 -0.24317777 -0.081748843
-0.25922188 -0.21634826 -0.082078099
-0.07160379 -0.21642345 -0.080857873
-0.25922188 -0.18954165 -0.082078099
-0.071624376 -0.18965554 -0.079966664
-0.25912207 -0.16267514 -0.0833745
-0.071644522 -0.16287282 -0.07909441
-0.25922188 -0.1359285 -0.082078218
-0.071665123 -0.1360776 -0.078202248
-0.25911611 -0.10907952 -0.083451867
-0.071685746 -0.1092687 -0.077309489
-0.25922188 -0.082315348 -0.08207798
-0.07170637 -0.082446091 -0.076416373
-0.25922036 -0.055508375 -0.082097292
-0.09808147 -0.055358317 -0.091845393
-0.071726553 -0.055609357 -0.075542212
-0.25922036 -0.028701857 -0.082097411
-0.09810815 -0.028633587 -0.09097898
-0.071747206 -0.028759161 -0.074648261
-0.25922036 -0.0018954439 -0.082097292
-0.098135434 -0.0018954995 -0.090092897
-0.071767859 -0.0018953326 -0.073753715
-0.25912207 0.024901174 -0.083374381
-0.098162733 0.024856329 -0.089206338
-0.25922036 0.051717434 -0.082097292
-0.098190047 0.051621791 -0.088319421
-0.25922036 0.078523949 -0.08209753
-0.098217376 0.07840088 -0.087431908
-0.25911909 0.1052898 -0.083413243
-0.098244712 0.1051935 -0.086544037
-0.25922036 0.1321369 -0.082097292
-0.098271474 0.1319993 -0.085674763
-0.25912058 0.15888354 -0.083393931
-0.09829884 0.15881912 -0.084786057
-0.2592189 0.18574888 -0.082116604
-0.098326229 0.18565284 -0.083896875
-0.2592189 0.21255501 -0.082116842
-0.098353624 0.21250026 -0.083006859
-0.2592189 0.23936136 -0.082116604
-0.098381042 0.23936136 -0.082116604
-0.2592189 0.2661677 -0.082116604
-0.098408461 0.26623625 -0.081225991
-0.2592189 0.292974 -0.082116604
-0.098435901 0.29312488 -0.08033514
-0.2592189 0.31978023 -0.082116723
-0.098463356 0.32002717 -0.079443336
-0.2592189 0.34658659 -0.082116604
-0.098490223 0.3469415 -0.078570724
-0.2592189 0.37339291 -0.082116604
-0.098517708 0.37387127 -0.077678323
-0.25921741 0.40019697 -0.082136035
-0.098545201 0.40081495 -0.076785326
-0.25921592 0.42700082 -0.082155228
-0.098573312 0.42777452 -0.075872421
-0.25921592 0.45380679 -0.082155347
-0.098600827 0.45474613 -0.074978709
-0.2592189 0.48061827 -0.082116604
-0.25922334 0.50743306 -0.082058549
-0.25922188 0.53423673 -0.082078218
-0.25922036 0.56104034 -0.082097292
-0.25922036 0.58784676 -0.082097411
-0.25921741 0.6146462 -0.082136154
-0.25921741 0.64145261 -0.082136035
-0.25921741 0.66825879 -0.082136154
-0.12536491 0.66915017 -0.077503562
-0.25921741 0.69506484 -0.082136154
-0.15167689 0.69369602 -0.088974833
-0.25921741 0.72187096 -0.082136035
-0.15192038 0.72154522 -0.083703279
-0.25921741 0.74867707 -0.082136035
-0.15216461 0.749479 -0.078415632
-0.25921741 0.77548319 -0.082136035
-0.17837848 0.77374136 -0.089938641
-0.2592189 0.80229396 -0.082116842
-0.17866237 0.80170435 -0.084669948
-0.2592189 0.82910031 -0.082116604
-0.17894717 0.82975203 -0.079385281
-0.2592189 0.85590661 -0.082116604
-0.20506525 0.8537423 -0.090901971
-0.17923176 0.85788041 -0.074103713
-0.2592189 0.88271296 -0.082116604
-0.20538954 0.88181865 -0.085636139
-0.2592189 0.90951908 -0.082116604
-0.20571838 0.90999562 -0.08029604
-0.12559089 -0.91605407 -0.071632385
-0.018059909 -0.86282724 -0.06941092
-0.018066663 -0.83613259 -0.068533301
-0.018073574 -0.80942911 -0.067635655
-0.018080488 -0.7827118 -0.066737533
-0.018087253 -0.75597656 -0.065858603
-0.018094175 -0.72923201 -0.064959645
-0.0181011 -0.70247352 -0.064060211
-0.018108025 -0.67570138 -0.063160181
-0.018114809 -0.64891183 -0.062279463
-0.018121742 -0.62211227 -0.061378479
-0.018128682 -0.59529912 -0.060477138
-0.018135469 -0.56846881 -0.059594989
-0.018142417 -0.54162812 -0.058692813
-0.018149365 -0.51477337 -0.057790041
-0.018156167 -0.48790228 -0.0569067
-0.044916641 -0.45886263 -0.072489023
-0.018163271 -0.46102273 -0.055983305
-0.044930428 -0.43209255 -0.071593404
-0.018170234 -0.43412659 -0.055079341
-0.044944227 -0.40530875 -0.070697308
-0.044958029 -0.37851119 -0.069800854
-0.044971835 -0.3516998 -0.068904042
-0.044985354 -0.32487285 -0.068026066
-0.044999178 -0.29803407 -0.067128062
-0.045013011 -0.27118152 -0.06622982
-0.045026846 -0.24431518 -0.065330863
-0.045040391 -0.21743388 -0.064451218
-0.045054242 -0.19054008 -0.063551426
-0.0450681 -0.16363239 -0.062651396
-0.045081969 -0.13671087 -0.06175077
-0.045095541 -0.10977489 -0.060869217
-0.045109421 -0.082825877 -0.059967518
-0.045123309 -0.055862956 -0.0590657
-0.045137204 -0.028886126 -0.058162928
-0.045151107 -0.0018953882 -0.057260036
-0.071788527 0.024982071 -0.072858691
-0.045164712 0.025109038 -0.056376338
-0.071809202 0.051873554 -0.071963429
-0.045178629 0.052127317 -0.055472493
-0.071829446 0.078778274 -0.071087003
-0.071850143 0.10569707 -0.070190668
-0.071870856 0.13262968 -0.069293857
-0.071891576 0.15957618 -0.068396568
-0.071912304 0.18653654 -0.067499042
-0.071933046 0.21351065 -0.06660068
-0.071953803 0.24049866 -0.065702081
-0.071974561 0.26750058 -0.064803004
-0.071995333 0.29451618 -0.063903451
-0.072015673 0.32154402 -0.063023329
-0.072036467 0.34858733 -0.062122703
-0.072057277 0.37564489 -0.061221719
-0.072078094 0.40271616 -0.060320377
-0.072098911 0.4298014 -0.059418559
-0.072119758 0.45690042 -0.058516264
-0.072140597 0.4840135 -0.057613492
-0.072161466 0.51114047 -0.056710124
-0.072182335 0.5382815 -0.055806637
-0.072202764 0.56543338 -0.054922223
-0.09886542 0.64436239 -0.066385984
-0.099046156 0.67241937 -0.060516238
-0.12557065 0.69706196 -0.072158098
-0.099210545 0.70046043 -0.055177569
-0.12577553 0.72505122 -0.066835165
-0.12598105 0.75312608 -0.0614959
-0.15240869 0.77749348 -0.073131204
-0.12618642 0.78128225 -0.056160092
-0.15265439 0.80559784 -0.067811251
-0.15289997 0.83378285 -0.062494755
-0.15314718 0.86205876 -0.057142138
-0.17951724 0.88609427 -0.068806291
-0.18013622 0.91600949 -0.057319045
-0.099734239 -0.9248122 -0.038170218
-0.018257838 -0.89626318 -0.043699145
0.0088442126 -0.86689568 -0.052895904
0.036003958 -0.87100732 -0.036204219
0.0088442126 -0.84008038 -0.051990271
0.0088442126 -0.81324685 -0.051103711
0.0088442126 -0.78640431 -0.050197244
0.0088442126 -0.75954777 -0.049289942
0.0088442126 -0.7326774 -0.048382521
0.0088442126 -0.70579314 -0.047474623
0.0088442126 -0.67889112 -0.046585679
0.0088442126 -0.65197915 -0.045676827
0.0088442126 -0.62505347 -0.044767499
0.0088442126 -0.59811044 -0.043877363
0.0088442126 -0.57115686 -0.0429672
0.0088442126 -0.54418939 -0.042056203
0.0088442126 -0.51720506 -0.041164875
0.0088442126 -0.49020982 -0.040253043
0.0088442126 -0.46320066 -0.039340854
0.0088442126 -0.43617752 -0.038428187
-0.018177044 -0.40721431 -0.05419445
0.0088442126 -0.40914032 -0.037514925
-0.018184014 -0.38029051 -0.053289533
0.0088442126 -0.38208914 -0.036601305
-0.018190984 -0.35335296 -0.052384019
-0.018197957 -0.32640144 -0.051478148
-0.018204935 -0.29943615 -0.05057168
-0.018211916 -0.27245677 -0.049664855
-0.018218748 -0.2454621 -0.048777103
-0.018225737 -0.21845496 -0.047869444
-0.018232729 -0.19143395 -0.046961188
-0.018239722 -0.16439915 -0.046052337
-0.018246569 -0.13734932 -0.045162916
-0.018253572 -0.11028665 -0.04425323
-0.01826058 -0.083209895 -0.043343067
-0.018267591 -0.056118999 -0.042432427
-0.018274602 -0.029014261 -0.04152143
-0.018281467 -0.0018954439 -0.040629625
-0.018288489 0.025237339 -0.039717555
-0.018295512 0.05238403 -0.038805246
-0.045192551 0.07915967 -0.054568052
-0.018302541 0.079544738 -0.037892342
-0.045206483 0.10620582 -0.053663254
-0.018309571 0.10671975 -0.036978722
-0.04522042 0.13326612 -0.052758098
-0.018316604 0.13390863 -0.036064863
-0.045234364 0.16034026 -0.051852345
-0.045248315 0.18742849 -0.050946116
-0.045262273 0.21453042 -0.050039291
-0.045276243 0.24164669 -0.049132109
-0.045289911 0.26877522 -0.048244238
-0.045303892 0.29591915 -0.047336221
-0.045317881 0.32307708 -0.046427727
-0.045331877 0.35024914 -0.045518756
-0.045345876 0.37743533 -0.044609308
-0.045359887 0.40463522 -0.043699384
-0.045373905 0.43184951 -0.042788863
-0.045387927 0.45907772 -0.041877866
-0.045401961 0.48631999 -0.04096663
-0.045415692 0.51357371 -0.040074468
-0.04542974 0.54084402 -0.039162397
-0.045443792 0.56812859 -0.038249493
-0.072223656 0.59260237 -0.054017425
-0.045457851 0.59542733 -0.037336349
-0.072244555 0.61978525 -0.053112388
-0.045471922 0.62274009 -0.03642261
-0.072332822 0.64752084 -0.049290061
-0.072468333 0.67570931 -0.043422222
-0.07259284 0.70389223 -0.03803122
-0.099376045 0.72859138 -0.049802542
-0.099542059 0.7568084 -0.044411302
-0.099707961 0.78510773 -0.03902328
-0.12639318 0.80952901 -0.050788403
-0.1265998 0.83785748 -0.045419931
-0.12680784 0.86627764 -0.040014982
-0.15339424 0.89041615 -0.051793098
-0.29025495 -0.89919317 -0.032165647
-0.29024991 -0.8719874 -0.03222537
0.063422844 -0.87515342 -0.01937294
-0.29024991 -0.84479707 -0.03222537
0.036010846 -0.84406102 -0.035309553
0.063437052 -0.84808451 -0.018449783
-0.29025158 -0.81761128 -0.032205582
0.036017887 -0.81710559 -0.03439486
0.063451275 -0.82100129 -0.017526269
-0.29025158 -0.79042077 -0.032205582
0.036024936 -0.79013628 -0.033479571
-0.29025158 -0.7632302 -0.032205343
0.036031831 -0.76314867 -0.032583714
-0.29025158 -0.73603982 -0.032205462
0.036038883 -0.7361514 -0.031667709
-0.29025328 -0.70885313 -0.032185674
0.036045939 -0.70914036 -0.03075099
-0.29025495 -0.68166625 -0.032165766
0.036052998 -0.68211514 -0.029833913
-0.29025495 -0.65447557 -0.032165647
0.036060061 -0.65507579 -0.028916121
-0.29025495 -0.62728459 -0.032165766
0.036066975 -0.62801892 -0.028017998
-0.29025495 -0.60009384 -0.032165647
0.036074046 -0.60095173 -0.027099609
-0.29025495 -0.57290298 -0.032165647
0.03608112 -0.57387048 -0.026180506
-0.29025495 -0.54571217 -0.032165527
0.036088046 -0.54677206 -0.025280952
-0.29025328 -0.51851839 -0.032185555
0.036095127 -0.51966286 -0.024360895
-0.29025158 -0.4913249 -0.032205462
0.036102213 -0.4925395 -0.02344048
-0.29025328 -0.46413708 -0.032185435
0.036109302 -0.46540198 -0.022519708
-0.29025495 -0.43694878 -0.032165647
0.036116395 -0.43825042 -0.021598339
-0.29025495 -0.409758 -0.032165527
0.036123496 -0.41108471 -0.020676255
-0.29025495 -0.38256711 -0.032165647
0.036130592 -0.3839047 -0.019754052
0.036137696 -0.35671076 -0.018831134
-0.29025495 -0.35537636 -0.032165527
0.0088442126 -0.35502389 -0.035687327
-0.29025495 -0.3281855 -0.032165647
0.0088442126 -0.3279447 -0.034772635
0.036144651 -0.32950065 -0.017927885
-0.29025495 -0.30099455 -0.032165766
0.0088442126 -0.30084968 -0.03387773
-0.29025328 -0.27380225 -0.032185674
0.0088442126 -0.27374256 -0.032961965
-0.29025328 -0.24661158 -0.032185555
0.0088442126 -0.24662121 -0.03204608
-0.29014876 -0.21934488 -0.033419847
0.0088442126 -0.21948594 -0.031129599
-0.29014033 -0.1921583 -0.033519387
0.0088442126 -0.19233657 -0.03021276
-0.29025328 -0.16503954 -0.032185555
0.0088442126 -0.16517201 -0.029315233
-0.29025158 -0.13784805 -0.032205462
0.0088442126 -0.13799466 -0.028397202
-0.29013529 -0.11061525 -0.033578992
0.0088442126 -0.11080319 -0.027478933
-0.29025158 -0.083466992 -0.032205462
0.0088442126 -0.083597355 -0.026560068
-0.29025158 -0.056276511 -0.032205224
0.0088442126 -0.056377273 -0.025660753
-0.29025158 -0.029086035 -0.032205343
0.0088442126 -0.029143397 -0.024741054
-0.29024991 -0.0018954439 -0.032225251
0.0088442126 -0.0018953882 -0.023820758
-0.29024991 0.025294924 -0.03222549
0.0088442126 0.025366696 -0.022900224
-0.29024991 0.052485347 -0.032225251
0.0088442126 0.052643027 -0.021978736
-0.29014373 0.079646669 -0.033479571
0.0088442126 0.079933204 -0.021077156
-0.29014033 0.10682613 -0.033519387
0.0088442126 0.10723763 -0.020155072
-0.29025158 0.13405718 -0.032205462
0.0088442126 0.13455664 -0.019232392
-0.29014033 0.16118701 -0.033519387
-0.018323645 0.16111173 -0.035150528
0.0088442126 0.16188961 -0.018309355
-0.29025158 0.18843836 -0.032205462
-0.018330533 0.1883277 -0.034255624
0.0088442126 0.18923682 -0.01738584
-0.29025328 0.21563011 -0.032185674
-0.018337581 0.2155589 -0.033340216
-0.29025328 0.24282065 -0.032185674
-0.01834463 0.24280418 -0.03242445
-0.29025328 0.27001134 -0.032185674
-0.018351685 0.27006352 -0.031508088
-0.29025328 0.29720199 -0.032185555
-0.018358741 0.29733709 -0.030591249
-0.29025328 0.32439262 -0.032185435
-0.018365804 0.32462469 -0.029674411
-0.29025328 0.35158339 -0.032185555
-0.018372715 0.35192457 -0.028776526
-0.29025328 0.37877414 -0.032185435
-0.018379781 0.37924039 -0.027858496
-0.29025328 0.40596485 -0.032185435
-0.018386852 0.40657046 -0.026939631
-0.29025328 0.43315548 -0.032185435
-0.018394083 0.43391728 -0.026000738
-0.29025158 0.46034363 -0.032205224
-0.018401008 0.46127328 -0.025100946
-0.29025328 0.487537 -0.032185555
-0.01840809 0.48864588 -0.024180889
-0.29025495 0.51473063 -0.032165647
-0.018415175 0.51603305 -0.023260355
-0.29025495 0.54192126 -0.032165647
-0.018422265 0.5434342 -0.022339463
-0.29025495 0.56911224 -0.032165647
-0.018429361 0.57084972 -0.021417856
-0.29025495 0.59630293 -0.032165527
-0.018436458 0.5982793 -0.020495892
-0.29025495 0.62349385 -0.032165647
-0.018443402 0.62571979 -0.019593358
-0.29025495 0.65068465 -0.032165647
-0.045539606 0.65071046 -0.032026052
-0.29025495 0.6778754 -0.032165647
-0.045629915 0.67903107 -0.026160479
-0.29025495 0.70506644 -0.032165647
-0.045713734 0.70735782 -0.02071631
-0.29025495 0.73225707 -0.032165647
-0.072718173 0.73216605 -0.03260386
-0.29025495 0.75944805 -0.032165647
-0.072843909 0.76052701 -0.027159572
-0.29025495 0.78663868 -0.032165647
-0.072969563 0.78897113 -0.021718383
-0.29025495 0.81382966 -0.032165647
-0.099874996 0.81349856 -0.033599019
-0.29025495 0.84102035 -0.032165647
-0.10004193 0.84197211 -0.028177738
-0.29025665 0.8682164 -0.032145619
-0.10020998 0.87053818 -0.022719979
-0.29025665 0.89540732 -0.032145619
-0.12701574 0.89478028 -0.034613609
-0.10037795 0.89918727 -0.017265201
-0.29025665 0.92259824 -0.032145619
-0.15421438 0.92210329 -0.034036636
-0.073381096 -0.93378216 -0.0038987398
0.0088442126 -0.90488029 -0.0097777843
0.091105051 -0.87934434 -0.0023599863
0.091126099 -0.85214162 -0.0014483929
0.091147631 -0.82492977 -0.0005158186
0.063465193 -0.7938996 -0.016622305
0.091169178 -0.79770344 0.00041675568
0.091190733 -0.77046299 0.0013502836
0.063479424 -0.7667883 -0.015697837
0.063493662 -0.73966306 -0.014773011
0.063507915 -0.71252352 -0.013847351
0.063522168 -0.68536985 -0.012921572
0.063536122 -0.6581983 -0.012015224
0.06355039 -0.63101649 -0.011088252
0.063564673 -0.60382044 -0.010161161
0.063578643 -0.57660693 -0.0092532635
0.063592933 -0.54938263 -0.0083250999
0.063607238 -0.52214414 -0.0073962212
0.063621543 -0.49489129 -0.0064669847
0.063635543 -0.46762177 -0.0055572987
0.063650176 -0.44034311 -0.0046069622
0.063664198 -0.41304526 -0.0036963224
0.06367854 -0.38573581 -0.0027650595
0.063692883 -0.35841179 -0.0018333197
0.063707232 -0.33107349 -0.00090122223
0.036151763 -0.30227852 -0.017004013
0.063721597 -0.3037211 3.1590462e-05
0.036158878 -0.27504209 -0.016079783
0.063735962 -0.27635413 0.00096464157
0.036165997 -0.24779144 -0.015155077
0.036172964 -0.22052552 -0.014249682
0.03618009 -0.19324647 -0.013324261
0.03618722 -0.16595344 -0.012398124
0.036194354 -0.13864619 -0.011471272
0.036201335 -0.11132396 -0.010564089
0.036208477 -0.083988264 -0.0096365213
0.036215622 -0.056638326 -0.008708477
0.036222771 -0.029274091 -0.0077798367
0.03622992 -0.0018954995 -0.0068508387
0.036236923 0.02549739 -0.005941391
0.036244083 0.052904412 -0.0050114393
0.036251243 0.080325566 -0.0040806532
0.036258414 0.10776135 -0.0031497478
0.036265582 0.13521144 -0.0022182465
0.036272757 0.16267593 -0.0012862682
0.036279935 0.19015467 -0.00035369396
0.0088442126 0.21659833 -0.016461492
0.036287118 0.21764788 0.00057935715
0.0088442126 0.24397425 -0.015537024
0.0088442126 0.27136424 -0.014611959
0.0088442126 0.29876846 -0.013686299
0.0088442126 0.32618529 -0.012780428
0.0088442126 0.35361812 -0.011853933
0.0088442126 0.3810651 -0.010927081
0.0088442126 0.40852663 -0.0099996328
0.0088442126 0.43600255 -0.0090717077
0.0088442126 0.46349236 -0.0081431866
0.0088442126 0.49099696 -0.0072141886
0.0088442126 0.51851577 -0.006284833
0.0088442126 0.54604906 -0.0053552389
0.0088442126 0.57359332 -0.0044448376
0.0088442126 0.60115528 -0.0035141706
0.0088442126 0.62873161 -0.0025826693
-0.018481907 0.65393132 -0.014591932
-0.018527042 0.68238592 -0.0087286234
-0.018569365 0.71085757 -0.0032308102
-0.045798115 0.73577589 -0.015235424
-0.045882765 0.76428223 -0.0097374916
-0.045967363 0.79287237 -0.0042424202
-0.073096067 0.81750739 -0.016240478
-0.046052534 0.82155561 0.0012894869
-0.073222503 0.84612727 -0.01076591
-0.073349789 0.87484074 -0.005253911
-0.073477007 0.90363801 0.00025486946
-0.12794684 0.92828369 -0.010423064
0.11918663 -0.88463473 0.019116402
0.11908258 -0.85624284 0.015737295
0.11911157 -0.82890058 0.016678572
0.11913995 -0.80153954 0.017600179
0.11916896 -0.77416861 0.018542528
0.091211833 -0.74320412 0.0022639036
0.11919799 -0.74678355 0.019485593
0.091233417 -0.71593517 0.003198266
0.091255002 -0.68865204 0.0041331053
0.091276601 -0.66135448 0.0050684214
0.091298215 -0.63404274 0.0060042143
0.091319367 -0.60671335 0.0069202185
0.091341004 -0.57937294 0.0078569651
0.091362648 -0.5520184 0.0087943077
0.09138383 -0.52464634 0.0097117424
0.091405503 -0.49726325 0.0106498
0.091427177 -0.46986559 0.011588573
0.091448873 -0.44245356 0.012527943
0.091470569 -0.41502729 0.01346755
0.091492288 -0.38758647 0.014407754
0.091514014 -0.36013123 0.015348792
0.091535755 -0.3326616 0.01628983
0.091557026 -0.30517575 0.017211199
0.091578789 -0.27767736 0.018153191
0.063750021 -0.24897158 0.0018781424
0.091600552 -0.25016445 0.019096017
0.063764401 -0.22157624 0.0028122663
0.091622338 -0.22263715 0.020039201
0.063778795 -0.19416642 0.003746748
0.06379319 -0.16674238 0.0046819448
0.063807286 -0.13930304 0.005597353
0.063821696 -0.1118504 0.0065333843
0.063836113 -0.084383354 0.0074701309
0.063850544 -0.056901772 0.0084069967
0.063864976 -0.029405953 0.009344697
0.063879102 -0.0018955552 0.01026237
0.063893557 0.025629196 0.011200786
0.063908011 0.05316836 0.012140036
0.06392248 0.080722094 0.013079405
0.063936949 0.10829008 0.014019728
0.063951433 0.13587259 0.014959931
0.063965924 0.16346961 0.01590085
0.063980103 0.19108021 0.016822219
0.063994601 0.21870606 0.017763972
0.036294308 0.24515544 0.0015127659
0.064009115 0.24634659 0.01870656
0.036301337 0.27267596 0.0024262667
0.064023629 0.27400157 0.019649506
0.036308531 0.30021212 0.0033607483
0.036315728 0.32776272 0.0042955875
0.036322929 0.35532787 0.005231142
0.036329977 0.38290522 0.0061467886
0.036337186 0.41049922 0.0070829391
0.036344554 0.43810999 0.008040309
0.03635177 0.46573299 0.0089777708
0.03635899 0.49337047 0.0099155903
0.036366057 0.52101976 0.010833502
0.036373284 0.54868603 0.011772513
0.036380515 0.57636684 0.012711763
0.036387749 0.60406238 0.013651609
0.036395304 0.63177961 0.014632821
0.0088442126 0.65718436 0.003015399
0.0088442126 0.68577403 0.0088757277
0.0088442126 0.71439183 0.014428496
-0.018611975 0.73942161 0.002304554
0.0088442126 0.74310338 0.020018816
-0.018654719 0.76807469 0.0078569651
-0.018697437 0.79681224 0.013406396
-0.018740445 0.82564425 0.018993497
-0.046137657 0.8503235 0.0068182945
-0.046223361 0.8791858 0.012385011
-0.046309013 0.90813279 0.017948508
0.036473598 -0.91366512 0.024803638
0.14731006 -0.86038381 0.033089757
-0.32323542 -0.83209455 0.030508876
0.14734586 -0.83290535 0.034019589
0.14738247 -0.80541724 0.034970522
-0.32323542 -0.80442119 0.030508995
-0.32323542 -0.776748 0.030508995
0.14741908 -0.77791476 0.035921931
-0.32323542 -0.74907476 0.030508995
0.14745574 -0.75039762 0.036874175
-0.32323542 -0.72140127 0.030509233
0.11922704 -0.71938384 0.020428896
0.14749159 -0.72286183 0.037806034
-0.32323542 -0.69372797 0.030508876
0.11925611 -0.69196981 0.021372795
-0.32323542 -0.66605473 0.030508995
0.11928519 -0.66454124 0.022317171
-0.32323542 -0.63838148 0.030508995
0.11931366 -0.63709468 0.02324152
-0.32323542 -0.6107083 0.030509114
0.11934276 -0.60963744 0.02418685
-0.32323542 -0.58303475 0.030508995
0.11937188 -0.58216578 0.025132775
-0.32323542 -0.55536151 0.030508995
0.1194004 -0.55467635 0.026058435
-0.32323542 -0.52768826 0.030509114
0.11942955 -0.52717578 0.027005315
-0.32323736 -0.50001776 0.030529618
0.11945873 -0.49966076 0.02795279
-0.32323736 -0.47234437 0.030529618
0.1194879 -0.4721311 0.028900623
-0.32323736 -0.44467089 0.030529618
0.11951711 -0.44458705 0.029849052
-0.32323736 -0.41699746 0.030529618
0.11954632 -0.41702837 0.030797839
-0.32323736 -0.38932389 0.030529618
0.11957556 -0.38945514 0.031747222
-0.32323736 -0.36165053 0.030529618
0.11960418 -0.3618654 0.032676458
-0.32323736 -0.33397707 0.030529618
0.11963344 -0.33426309 0.033626795
-0.32323736 -0.30630353 0.030529618
0.11966272 -0.30664638 0.034577727
-0.32323736 -0.27863017 0.030529618
0.11969201 -0.279015 0.035529017
-0.32323736 -0.25095659 0.030529618
0.11972132 -0.25136891 0.036480904
-0.32323736 -0.22328314 0.030529618
0.11975001 -0.22370706 0.037412643
-0.32323736 -0.19560969 0.030529857
0.091643654 -0.19509414 0.020962358
0.11977935 -0.19603193 0.038365364
-0.32323736 -0.16793627 0.030529618
0.091665462 -0.16753796 0.021906614
-0.32323736 -0.14026274 0.030529618
0.091687284 -0.13996725 0.022851229
-0.32323542 -0.11258867 0.030508995
0.091709107 -0.11238186 0.02379632
-0.32323354 -0.084914863 0.030488372
0.091730945 -0.084782161 0.024742007
-0.32323161 -0.057241328 0.030467749
0.091752321 -0.057167441 0.025667548
-0.32322973 -0.029568303 0.030447364
0.091774181 -0.029538816 0.026614308
-0.32322782 -0.0018954995 0.030426621
0.091796055 -0.0018953326 0.027561426
-0.32322401 0.025776971 0.030385494
0.091817938 0.025762394 0.02850914
-0.3232221 0.053448997 0.030364752
0.091839842 0.053435087 0.029457211
-0.3232221 0.081121132 0.030364752
0.09186127 0.081121467 0.030385256
-0.3232221 0.10879333 0.030364513
0.09188319 0.10882309 0.0313344
-0.3232221 0.13646558 0.030364752
0.091905124 0.1365393 0.032284021
-0.3232221 0.16413772 0.030364633
0.091927066 0.16427019 0.033234119
-0.3232221 0.19180991 0.030364513
0.091949016 0.19201583 0.034184933
-0.3232221 0.21948209 0.030364752
0.091970988 0.21977592 0.035136104
-0.3232221 0.24715424 0.030364752
0.091992959 0.24755077 0.036087632
-0.3232221 0.27482641 0.030364513
0.092014953 0.27534023 0.037039995
-0.3232221 0.30249861 0.030364752
0.064038157 0.30167127 0.020593166
0.092036471 0.30314285 0.037971854
-0.32322401 0.33017275 0.030385256
0.064052694 0.32935542 0.021537066
-0.32322401 0.35784516 0.030385256
0.064066917 0.35705203 0.022460938
-0.32322592 0.38551962 0.030405879
0.06408146 0.38476542 0.02340591
-0.32322782 0.4131946 0.030426621
0.064096019 0.41249311 0.024351358
-0.32322782 0.4408673 0.030426621
0.064110905 0.44023809 0.025317907
-0.32322973 0.46854267 0.030447125
0.064125158 0.46799263 0.026243806
-0.32322782 0.49621257 0.030426383
0.064139739 0.49576434 0.027190685
-0.32322782 0.52388531 0.030426383
0.064154327 0.52355057 0.028138161
-0.32322782 0.55155802 0.030426741
0.064168923 0.55135155 0.029086232
-0.32322782 0.57923067 0.030426621
0.064183205 0.57916379 0.030014157
-0.32322782 0.60690331 0.030426621
0.064197816 0.60699403 0.030962944
-0.32322782 0.63457602 0.030426502
0.064221971 0.63494867 0.032531857
-0.32322782 0.66224867 0.030426383
0.036442924 0.66047359 0.02081871
-0.32322782 0.6899212 0.030426621
0.036487855 0.68919557 0.026655436
-0.32322782 0.71759403 0.030426621
0.036531024 0.71796161 0.032263398
-0.32322592 0.74526244 0.030405879
0.03657449 0.746822 0.037909746
-0.32322019 0.77292156 0.030344009
0.0088442126 0.77190465 0.025626421
-0.32321256 0.80057526 0.030261755
0.0088442126 0.80079168 0.031231403
-0.32320306 0.82822269 0.030158401
0.0088442126 0.82976902 0.036853552
-0.32319924 0.85588336 0.030117273
-0.018783432 0.85456145 0.024577498
-0.018826712 0.88357413 0.030199647
0.14812431 -0.8932882 0.054244399
0.17581156 -0.86455989 0.050590158
0.17585588 -0.83695358 0.051549673
0.17590024 -0.80933291 0.052510381
0.17594366 -0.7816928 0.053450108
0.17598806 -0.75404286 0.05441165
0.17603248 -0.72637802 0.05537343
0.14752908 -0.69531983 0.038779855
0.17607693 -0.69869858 0.056335807
0.14756499 -0.66775513 0.039712667
0.17612141 -0.67100424 0.057298899
0.14760172 -0.64017987 0.040666819
0.14763846 -0.61259013 0.041621447
0.14767443 -0.58498228 0.04255569
0.1477112 -0.55736339 0.043511391
0.14774801 -0.52972984 0.044467449
0.14778483 -0.50208157 0.045423985
0.14782165 -0.47441876 0.046381116
0.14785771 -0.44673863 0.047317863
0.14789459 -0.41904667 0.048276067
0.14793149 -0.39133978 0.049234509
0.1479684 -0.36361828 0.050193667
0.14800534 -0.33588216 0.051153541
0.14804231 -0.30813125 0.052113652
0.14807847 -0.28036401 0.053053379
0.14811547 -0.25258365 0.054014444
0.14815247 -0.22478868 0.054975986
0.14818951 -0.19697882 0.055938244
0.11980871 -0.1683422 0.0393188
0.14822657 -0.16915418 0.056900978
0.11983807 -0.14063774 0.040272593
0.11986682 -0.11291809 0.041206241
0.11989623 -0.085184425 0.042161107
0.11992565 -0.057436116 0.04311657
0.11995508 -0.02967318 0.044072628
0.11998453 -0.0018953882 0.045028687
0.12001399 0.025896981 0.045985699
0.12004283 0.053703874 0.046922326
0.12007233 0.081525728 0.047880292
0.12010184 0.10936211 0.048838496
0.12013137 0.13721363 0.049797535
0.12016091 0.16507961 0.05075717
0.12019046 0.1929605 0.051716805
0.12022004 0.22085629 0.052677274
0.12024898 0.24876527 0.053617239
0.12027859 0.27669051 0.054578781
0.12030821 0.30463064 0.0555408
0.09205848 0.33096167 0.038925171
0.12033785 0.33258542 0.056503177
0.092080511 0.35879511 0.039878607
0.092102066 0.38664123 0.040811896
0.092124112 0.41450399 0.041766524
0.09214665 0.44238415 0.04274261
0.092168726 0.47027668 0.043698192
0.092190802 0.49818406 0.044654489
0.092212901 0.52610624 0.045611382
0.092234522 0.55404001 0.046547651
0.092256635 0.58199173 0.04750526
0.092278771 0.60995787 0.048463464
0.092328362 0.63814974 0.0506109
0.064318158 0.66379201 0.038779736
0.092474103 0.6671437 0.05692184
0.064407967 0.69265151 0.044612885
0.064495176 0.72156709 0.050277352
0.064582974 0.75057793 0.055980206
0.036618091 0.77577317 0.043573737
0.03666167 0.80481076 0.049234748
0.036705382 0.83393967 0.054913282
0.0088442126 0.85884202 0.042514324
0.0088442126 0.8880012 0.048171759
-0.018895317 0.91350889 0.039111614
0.064647481 -0.92264944 0.060169816
0.20459282 -0.86878222 0.068282723
0.20464392 -0.84103698 0.069230914
0.20469618 -0.81328213 0.070200682
0.20474847 -0.78551245 0.071170688
0.20480078 -0.75772786 0.072141767
0.204852 -0.72992432 0.073091984
0.20490548 -0.70211428 0.074084878
0.20495787 -0.67428517 0.075057268
0.17616591 -0.64329523 0.05826211
0.20500916 -0.64643741 0.076009035
0.17620946 -0.61556804 0.059205174
0.17625402 -0.58782965 0.060169578
0.17629857 -0.56007653 0.061134577
0.17634317 -0.53230888 0.062100053
0.17638682 -0.50452322 0.063044906
0.17643146 -0.47672597 0.064011455
0.17647612 -0.44891387 0.06497848
0.17652081 -0.42108703 0.065945983
0.17656551 -0.39324507 0.066913843
0.17661025 -0.36538863 0.067882419
0.17665501 -0.33751708 0.06885159
0.1766988 -0.3096289 0.0697999
0.17674363 -0.28172782 0.070770144
0.17678846 -0.25381181 0.071740627
0.1768333 -0.22588097 0.072711945
0.17687818 -0.19793516 0.0736835
0.17692211 -0.1699734 0.074634552
0.14826283 -0.14131397 0.057843208
0.17696704 -0.14199781 0.0756073
0.14829993 -0.11346006 0.058807135
0.14833704 -0.085591197 0.05977118
0.14837417 -0.057707462 0.060735941
0.14841132 -0.029808939 0.061701179
0.14844769 -0.0018954995 0.062645912
0.14848489 0.026032794 0.063612223
0.14852209 0.05397572 0.06457901
0.14855932 0.081933498 0.065546155
0.14859658 0.10990647 0.066513896
0.14863384 0.13789424 0.067482233
0.14867114 0.16589682 0.068451166
0.14870763 0.19391337 0.069399714
0.14874497 0.22194575 0.070369363
0.14878231 0.24999328 0.071339607
0.14881968 0.27805552 0.072310686
0.14885707 0.30613288 0.073282123
0.14889447 0.33422512 0.074253917
0.12036686 0.360553 0.057445288
0.1489311 0.36233047 0.075205207
0.12039652 0.3885377 0.058408976
0.12042622 0.41653711 0.059372783
0.12045655 0.44455403 0.060358405
0.12048627 0.47258326 0.061323285
0.12051535 0.50062472 0.062268019
0.1205451 0.52868372 0.063234091
0.12057486 0.55675793 0.06420064
0.12060399 0.58484346 0.065146565
0.12063379 0.61294729 0.066114187
0.12071873 0.64138299 0.06887269
0.12091567 0.67053342 0.075268745
0.09260872 0.69614226 0.062750936
0.092740856 0.72520876 0.068472266
0.092873886 0.75437152 0.074232817
0.064670734 0.77967596 0.061680198
0.064759098 0.80887038 0.067419171
0.06484741 0.83815235 0.073155403
0.036749396 0.86316532 0.060631156
0.036793388 0.89247823 0.066345572
0.0088442126 0.91974902 0.063675284
0.17763692 -0.90212321 0.090110302
0.2336559 -0.87304085 0.086128235
0.23371617 -0.84516525 0.087106705
0.23377648 -0.81727499 0.088086486
0.23383552 -0.78936505 0.08904469
0.2338959 -0.76144493 0.090025306
0.23395631 -0.73350972 0.091006041
0.23401806 -0.70556372 0.09200871
0.23407723 -0.67759436 0.092969179
0.23413774 -0.64961433 0.093951941
0.346221 -0.64853418 0.087851882
0.20506163 -0.61857861 0.076982379
0.34541649 -0.61894459 0.07914269
0.37498039 -0.62151039 0.094293833
0.2051141 -0.59070504 0.0779562
0.34541452 -0.59089339 0.07912147
0.37497824 -0.59334278 0.094272494
0.20516661 -0.5628165 0.078930616
0.34561235 -0.56317562 0.081262946
0.20521799 -0.53490996 0.07988441
0.20527057 -0.50699174 0.080860019
0.20532314 -0.47905853 0.081835985
0.20537578 -0.45111042 0.082812428
0.20542844 -0.42314735 0.083789587
0.20548111 -0.3951692 0.084767103
0.20553266 -0.36717394 0.085723877
0.20558541 -0.33916602 0.086702466
0.20563816 -0.31114304 0.087681651
0.20569095 -0.28310513 0.088661313
0.20574374 -0.25505209 0.089641452
0.20579545 -0.22698258 0.090600848
0.20584834 -0.19889945 0.09158206
0.20590124 -0.17080151 0.092563748
0.20595416 -0.14268827 0.093546033
0.17701198 -0.11400738 0.076580286
0.20600711 -0.11455992 0.094528794
0.17705695 -0.086001806 0.077553988
0.17710195 -0.057981368 0.078528285
0.177146 -0.029945696 0.079481721
0.17719103 -0.0018955552 0.080456972
0.17723611 0.026169829 0.081432581
0.1772812 0.05425024 0.082409024
0.17732632 0.082345612 0.083386064
0.17737049 0.11045534 0.084342003
0.17741565 0.13858081 0.085319877
0.17746083 0.16672115 0.086298227
0.17750604 0.19487673 0.087277174
0.1775513 0.2230472 0.088256717
0.17759655 0.25123304 0.089236379
0.17764184 0.27943391 0.090217113
0.17768615 0.30764818 0.091176748
0.1777315 0.33587918 0.092158318
0.17777686 0.36412528 0.093140364
0.14896855 0.39045259 0.076178312
0.17782125 0.39238429 0.094101548
0.14900602 0.41859004 0.077151775
0.1490435 0.44674227 0.078125715
0.14908102 0.47490957 0.07910049
0.14911854 0.50309217 0.080075264
0.3456594 0.50332737 0.081772327
0.14915611 0.53128958 0.081050873
0.34541649 0.53101069 0.079142809
0.37498039 0.53322661 0.094293833
0.14919285 0.5594992 0.082005858
0.34541649 0.55905825 0.07914257
0.37498039 0.561391 0.094293833
0.14923044 0.58772671 0.082982421
0.34615809 0.58840388 0.08717072
0.14926805 0.61596948 0.08395946
0.14939819 0.6446529 0.08734107
0.14964443 0.67394567 0.093738317
0.12109438 0.69966793 0.081072092
0.12127233 0.72888744 0.086851478
0.12145151 0.75820386 0.092670321
0.093006849 0.78362244 0.079990506
0.093140729 0.81297094 0.085787654
0.093274549 0.84240794 0.09158206
0.064936325 0.86753237 0.078930736
0.065025203 0.89700043 0.084703207
0.036964845 0.92608541 0.088618755
0.093386061 -0.9318558 0.096410632
0.26300743 -0.8773464 0.10417116
0.26307592 -0.84933436 0.10515964
0.26314294 -0.82130241 0.10612702
0.26321152 -0.79326046 0.10711682
0.26328012 -0.765203 0.10810673
0.26334876 -0.73713082 0.10909748
0.26341742 -0.7090432 0.11008871
0.26348612 -0.68094057 0.11108053
0.34812587 -0.6804589 0.10847294
0.26355487 -0.65282267 0.11207259
0.37642524 -0.65223086 0.10873115
0.23419826 -0.62161911 0.09493506
0.26362216 -0.62468576 0.11304367
0.40516078 -0.62467855 0.11300051
0.23425752 -0.59360528 0.095896959
0.40516078 -0.59637034 0.11300063
0.23431812 -0.56558025 0.09688127
0.37537 -0.56578118 0.09818697
0.23437876 -0.53753996 0.097865701
0.34704518 -0.5373804 0.09677422
0.23443942 -0.50948465 0.098850846
0.23449881 -0.48141146 0.099814892
0.23455952 -0.45332611 0.10080123
0.23462032 -0.42522559 0.10178792
0.2346811 -0.39710999 0.1027751
0.23474191 -0.36897928 0.10376298
0.2348028 -0.34083337 0.10475135
0.23486368 -0.31267223 0.10574019
-0.38646984 -0.28426269 0.10369861
0.23492329 -0.28449434 0.10670805
0.23498426 -0.25630295 0.10769784
0.23504525 -0.22809646 0.10868824
0.23510626 -0.19987477 0.10967922
0.23516734 -0.17163786 0.11067069
0.23522711 -0.14338475 0.11164093
0.23528823 -0.11511747 0.11263382
0.20605896 -0.086416081 0.095490694
0.20611197 -0.058257554 0.096474528
0.20616502 -0.030084068 0.097458959
0.20621808 -0.0018954439 0.098443985
0.20627119 0.026308369 0.099429488
0.20632318 0.054527093 0.10039401
0.2063763 0.082761168 0.10138035
0.20642953 0.11101049 0.1023674
0.20648272 0.13927495 0.10335493
0.20653597 0.1675545 0.10434294
0.20658925 0.19584963 0.10533178
0.20664255 0.22415975 0.10632074
0.20669471 0.25248379 0.10728884
0.20674807 0.28082433 0.10827899
0.20680146 0.30918023 0.10926986
0.20685488 0.3375515 0.1102612
0.20690715 0.36593568 0.11123133
0.20696063 0.39433736 0.11222374
0.17786765 0.42066315 0.095105886
0.20701529 0.42275694 0.1132381
0.17791308 0.44895494 0.096089602
0.17795853 0.47726169 0.097073913
0.34711042 0.47731492 0.097480297
0.17800403 0.50558406 0.098058343
0.37544289 0.50570267 0.098914981
0.17804854 0.53391832 0.09902215
0.40516314 0.5359658 0.11302221
0.17809407 0.56227082 0.10000789
0.40516078 0.56427109 0.11300051
0.17813963 0.59063858 0.10099423
0.37632611 0.59172922 0.10774088
0.17818421 0.6190179 0.10195971
0.34789726 0.6197018 0.10599816
0.17836975 0.64795238 0.10597646
0.17866527 0.67738885 0.11237466
0.14986925 0.7032299 0.099579334
0.15009397 0.73260337 0.10541761
0.15032023 0.76207507 0.11129618
0.12163061 0.78760928 0.098486781
0.12181093 0.81711316 0.10434306
0.12199116 0.84670681 0.11019647
0.093409285 0.87194353 0.097416282
0.093543954 0.90156847 0.10324752
0.20774393 -0.91115123 0.12675953
0.29264888 -0.88168991 0.12237167
0.29272571 -0.85354006 0.12337005
0.2928026 -0.82537478 0.12436903
0.29287955 -0.79719442 0.12536848
0.29295486 -0.76899427 0.12634659
0.2930319 -0.74078333 0.12734723
0.29311061 -0.71256137 0.12836981
0.29318771 -0.68431973 0.1293714
0.32072648 -0.68236572 0.11879504
0.29326317 -0.65605909 0.13035202
0.40697443 -0.6559664 0.12982893
0.32072648 -0.6540128 0.11879492
0.29334038 -0.62778711 0.13135469
0.32072648 -0.62565988 0.11879492
0.26369098 -0.59653783 0.11403704
0.32072648 -0.59730703 0.11879516
0.26375982 -0.56837451 0.11503088
0.32072648 -0.56895411 0.11879528
0.40540755 -0.56841451 0.11529028
0.26382872 -0.540196 0.11602521
0.32072648 -0.54060119 0.11879504
0.37693673 -0.53987688 0.11384284
0.40711063 -0.54239982 0.13109303
0.26389614 -0.51199925 0.11699867
0.32072648 -0.51224822 0.11879504
0.34922752 -0.5124703 0.12039828
0.2639651 -0.48379052 0.11799407
0.26403412 -0.45556641 0.11898983
0.26410314 -0.42732704 0.11998653
0.26417226 -0.39907232 0.1209836
0.26424134 -0.3708024 0.12198126
0.26431051 -0.34251714 0.12297928
0.26437819 -0.31421474 0.12395632
-0.41591033 -0.28506503 0.11412346
0.26444742 -0.28589898 0.12495542
-0.41587293 -0.25672573 0.11379945
0.26451668 -0.25756788 0.12595534
0.264586 -0.22922145 0.12695551
0.26465532 -0.20085967 0.12795651
0.26472321 -0.17248145 0.12893605
0.26479262 -0.14408901 0.12993801
0.26486206 -0.11568113 0.13094032
0.2353494 -0.086834922 0.11362672
0.26493153 -0.087257937 0.13194335
0.23541057 -0.058537025 0.11462033
0.2354718 -0.03022383 0.11561453
0.23553306 -0.0018954439 0.1166091
0.23559301 0.026448129 0.1175828
0.23565434 0.054807007 0.11857843
0.23571569 0.083181404 0.1195749
0.23577708 0.11157088 0.12057185
0.23583849 0.13997605 0.12156916
0.23589996 0.16839641 0.12256682
0.23596011 0.19683096 0.12354386
0.23602162 0.22528198 0.12454283
0.23608319 0.25374833 0.12554228
0.23614477 0.28223026 0.12654245
0.23620641 0.31072763 0.12754285
0.23626672 0.33923844 0.12852228
0.23632839 0.36776635 0.12952411
0.23638879 0.39630756 0.13050461
0.23645321 0.42487139 0.13155079
0.20706882 0.45118925 0.11423159
0.32072648 0.45175153 0.11879504
0.34944791 0.45224279 0.12278402
0.20712122 0.47963437 0.11520398
0.32072648 0.48010433 0.11879504
0.37702969 0.47957784 0.1147716
0.20717481 0.50809747 0.1161983
0.32072648 0.50845748 0.11879516
0.40551007 0.50810349 0.11624157
0.20722841 0.53657603 0.11719346
0.32072648 0.53681028 0.11879528
0.20728092 0.56506664 0.11816716
0.32072648 0.56516314 0.11879516
0.20733458 0.59357572 0.11916339
0.32072648 0.59351623 0.11879516
0.40683123 0.59508514 0.1285007
0.20738828 0.62210017 0.12015998
0.32072648 0.62186921 0.11879504
0.37860852 0.62385958 0.130548
0.2076385 0.65128589 0.12480342
0.2079833 0.68086702 0.13120186
0.17893781 0.70682794 0.1182754
0.17921023 0.73635727 0.12417352
0.17948452 0.76598597 0.13011229
0.15054639 0.79163671 0.11717176
0.15077409 0.82129794 0.12308788
0.15100171 0.85104966 0.1290015
0.12217265 0.87640005 0.11609018
0.12235337 0.90617794 0.12195945
0.32267314 -0.85779244 0.14178407
0.32275671 -0.82948291 0.14277112
0.32284221 -0.80116296 0.14378047
0.32292771 -0.77282757 0.14479041
0.32301328 -0.7444768 0.14580095
0.32309705 -0.71610647 0.14679015
0.37906051 -0.68537164 0.13506472
0.2934176 -0.5994994 0.1323576
0.29349488 -0.57119656 0.13336146
0.3791261 -0.51459342 0.13572025
0.32266015 -0.48688361 0.14163065
0.29380101 -0.45782626 0.13733828
0.2938785 -0.42944685 0.13834488
0.29395601 -0.40105197 0.13935184
0.29403359 -0.37264162 0.14035952
0.29411116 -0.34421578 0.14136755
0.29418883 -0.31577456 0.1423763
0.29426649 -0.28731769 0.14338541
0.29434425 -0.25884545 0.14439499
0.2944203 -0.23035623 0.14538336
0.29449815 -0.20185325 0.14639449
0.29457599 -0.17333448 0.14740586
0.29465392 -0.14480029 0.14841771
0.29473183 -0.11625048 0.14943016
0.29480815 -0.087684624 0.15042138
0.26500109 -0.058819219 0.13294685
0.26506913 -0.030364983 0.13392925
0.26513875 -0.0018955552 0.13493383
0.26520836 0.02658934 0.13593888
0.26527804 0.055089816 0.13694465
0.26534778 0.083605751 0.13795066
0.26541752 0.11213716 0.13895762
0.26548579 0.14068326 0.13994324
0.26555562 0.16924544 0.14095092
0.26562548 0.19782318 0.14195955
0.26569539 0.22641669 0.14296842
0.26576534 0.25502566 0.14397812
0.26583531 0.28365025 0.14498818
0.2659038 0.31228843 0.14597678
0.26597387 0.34094408 0.14698803
0.26604396 0.36961538 0.14799976
0.26611257 0.39829987 0.14899015
0.26618427 0.42700472 0.15002477
0.32319203 0.42676058 0.14791167
0.23651366 0.45344365 0.13253224
0.37940848 0.45418358 0.13854182
0.23657548 0.48203364 0.13353622
0.40723521 0.48186505 0.13224876
0.23663734 0.51063901 0.13454056
0.23669787 0.53925699 0.1355238
0.23675978 0.56789345 0.13652921
0.23682176 0.5965457 0.13753521
0.23688239 0.62520969 0.13851988
0.23721042 0.65465754 0.14384627
0.32254508 0.65402466 0.14027178
0.23760313 0.68438137 0.15022302
0.20830454 0.71046293 0.13716352
0.20862561 0.74014986 0.14312196
0.20894894 0.76993698 0.14912212
0.17975868 0.79570544 0.13604832
0.18003476 0.82552564 0.14202535
0.1803107 0.85543692 0.14799964
0.15123005 0.88089681 0.13493395
0.15146334 0.91086698 0.14099503
0.23846228 -0.92036778 0.16417408
0.32404378 -0.89018512 0.15797055
0.29549658 -0.54653496 0.15936446
0.29549658 -0.51786965 0.15936434
0.40927204 -0.51673114 0.15114832
0.29549658 -0.48920456 0.15936446
0.35262063 -0.48891217 0.15713012
0.3238678 -0.46011153 0.15589237
0.3239539 -0.43159053 0.15690899
0.32404003 -0.40305388 0.15792632
0.32412621 -0.37450144 0.15894389
0.32421243 -0.3459335 0.15996206
0.32429868 -0.31734988 0.16098106
0.32438502 -0.28875071 0.16200042
0.32446951 -0.26013422 0.16299808
0.32455593 -0.23150405 0.16401863
0.32464236 -0.20285785 0.16503966
0.32472888 -0.1741962 0.16606116
0.32481357 -0.1455178 0.16706109
0.32490015 -0.11682483 0.16808379
0.32498679 -0.088116214 0.16910708
0.29488617 -0.059103865 0.1514349
0.29496422 -0.030507362 0.15244901
0.29504234 -0.0018954995 0.15346384
0.29512048 0.026732162 0.15447891
0.29519698 0.055375069 0.15547264
0.29527524 0.084033832 0.15648901
0.29535353 0.11270829 0.15750611
0.29543182 0.14139839 0.15852344
0.2955102 0.17010416 0.15954161
0.29558861 0.19882557 0.16056013
0.29566708 0.22756279 0.16157925
0.29574385 0.25631422 0.16257679
0.29582238 0.28508282 0.16359699
0.29590097 0.31386703 0.1646179
0.29597962 0.34266701 0.16563928
0.29605657 0.37148073 0.16663897
0.29613528 0.40031204 0.16766131
0.29549658 0.42808321 0.15936458
0.35293955 0.4282237 0.16058218
